ply
format ascii 1.0
element vertex 1402
property float x
property float y
property float z
end_header
-0.53050834 0.68644834 0.00000000
-0.28846306 0.46439826 0.00000000
-0.15915988 -0.24588107 0.00000000
0.04753335 0.31948927 0.00000000
-0.74171984 0.33495271 0.00000000
0.62536395 -0.70195162 -0.00000001
-0.41334879 -0.55672109 0.00000000
0.76371878 -0.33915681 -0.00000058
-0.43849742 0.20318215 0.00000000
0.03099043 -0.21649884 0.00000000
0.66606855 -0.29070911 -0.00000046
0.10575533 0.37000242 0.00000000
0.76073515 -0.47583899 -0.00000041
0.67585325 0.11999248 0.02392009
-0.33247209 0.65282446 0.00000000
-0.68201250 0.72600818 0.00000000
-0.48510483 -0.12492324 0.00000000
0.76084185 -0.23107624 -0.00000071
0.45752546 0.18678416 -0.00000043
-0.56806362 0.57460511 0.00000000
0.44234085 -0.67247289 0.00000000
0.01604249 -0.53958476 0.00000000
0.26732999 0.47715315 0.31974620
0.14816330 -0.34947461 0.00000000
0.04730770 -0.52322900 0.00000000
0.40764821 0.35581219 0.21044508
-0.67676246 0.21052410 0.00000000
0.13439371 0.60212356 -0.00000011
-0.09916301 -0.43270278 0.00000000
-0.72756642 -0.17527311 0.00000000
-0.34017918 0.61259526 0.00000000
0.09722022 -0.50109923 0.00000000
0.61242658 -0.35369846 -0.00000029
0.29979190 -0.50465268 0.00000000
0.28367952 0.48294166 0.19224077
-0.18303812 0.06807353 0.00000000
-0.52743304 -0.37744913 0.00000000
-0.30829921 -0.45384571 0.00000000
-0.77839112 0.06503467 0.00000000
0.34934422 -0.41663975 0.00000000
-0.34179726 -0.69415963 0.00000000
0.20264733 0.59553677 0.01045296
-0.71327019 0.66174006 0.00000000
-0.39197916 0.63730448 0.00000000
0.23848407 0.07543020 0.00000000
-0.42398059 0.05105099 0.00000000
-0.77586561 0.73951656 0.00000000
-0.39886439 -0.43548971 0.00000000
0.54363894 -0.02860415 -0.00000043
0.12599947 0.19328174 0.00000000
0.26923013 -0.62009960 0.00000000
-0.51181263 0.01532591 0.00000000
-0.71132672 -0.54838449 0.00000000
0.51035470 -0.73660517 0.00000000
0.67670625 0.10229222 0.12095280
0.39645970 -0.39610562 0.00000000
0.15910576 0.45977399 -0.00000004
-0.40853411 -0.74817485 0.00000000
0.56165493 0.23239058 0.03428884
-0.46555251 0.01050668 0.00000000
0.57255626 0.21463487 0.07376693
0.54368752 -0.35172886 -0.00000014
-0.16548650 0.72802889 0.00000000
0.21747793 0.23436145 0.00000000
-0.34916705 -0.07610220 0.00000000
-0.62480611 0.34379232 0.00000000
0.75264949 -0.62755799 -0.00000022
0.47987413 -0.23581794 -0.00000011
0.43878463 0.30875531 0.30213994
-0.42104307 -0.18492334 0.00000000
0.41852421 0.35464972 0.15449978
0.02517423 0.48909277 0.00000000
-0.54157954 -0.17950255 0.00000000
0.17659380 0.37492344 -0.00000000
0.72336888 -0.38848603 -0.00000049
0.21328694 -0.13227694 0.00000000
0.67424536 -0.44400066 -0.00000034
-0.69581372 0.63587201 0.00000000
0.15236424 0.57388389 -0.00000013
-0.33974481 -0.69122154 0.00000000
0.04012405 0.56133133 0.00000000
-0.51342899 0.00746051 0.00000000
0.47609583 0.26774585 0.32344010
0.64221936 0.14157510 0.09332988
0.50660175 0.14276914 -0.00000050
0.06118517 -0.73235798 0.00000000
-0.31298822 -0.46620318 0.00000000
-0.74641401 -0.58373606 0.00000000
-0.07831899 -0.03981011 0.00000000
-0.55870551 0.73319381 0.00000000
-0.01431011 -0.03729964 0.00000000
0.70933479 -0.63284749 -0.00000021
-0.11124953 0.46915242 0.00000000
0.50032389 -0.29469293 -0.00000010
0.51470625 0.26157925 0.13657820
0.28090104 0.38085815 -0.00000023
0.09516486 0.31869149 0.00000000
-0.55484718 -0.42314762 0.00000000
0.68610781 -0.35415205 -0.00000044
-0.53023177 0.35590488 0.00000000
-0.34880856 0.72835582 0.00000000
-0.30350345 0.57496572 0.00000000
-0.08330594 -0.50056297 0.00000000
0.68498981 -0.36199579 -0.00000043
-0.45570761 -0.49823397 0.00000000
0.34091705 -0.03328140 0.00000000
0.47986001 -0.17161553 -0.00000017
0.03730917 -0.18784589 0.00000000
-0.07265706 0.59591454 0.00000000
-0.26813367 0.66007751 0.00000000
-0.08007471 -0.44845650 0.00000000
-0.04530478 0.33495587 0.00000000
0.28490478 0.45109102 0.36862954
0.47555456 0.26677370 0.33215675
-0.75545120 0.41458270 0.00000000
0.42868128 0.08919375 -0.00000029
0.29972264 0.45505869 0.26043299
0.40837786 0.02611393 -0.00000019
-0.67230451 0.67507231 0.00000000
-0.55265176 -0.18041334 0.00000000
-0.41558203 -0.53651458 0.00000000
-0.24578308 -0.39728871 0.00000000
-0.64273030 -0.63699412 0.00000000
-0.35437933 -0.06392207 0.00000000
0.29469097 0.47983205 0.14672977
-0.34530216 0.43096760 0.00000000
-0.34817240 0.01100183 0.00000000
0.35878372 0.37091795 0.40488070
0.35554379 -0.48154083 0.00000000
0.10847037 -0.19922790 0.00000000
-0.68583190 -0.39129549 0.00000000
0.27174109 -0.01910358 0.00000000
0.18379720 0.14334604 0.00000000
0.24581812 0.07047939 0.00000000
-0.13142760 -0.16205549 0.00000000
0.37326956 0.28063926 -0.00000034
0.31295106 0.45578948 0.18003410
0.66820490 -0.37429959 -0.00000039
0.08245827 -0.21607576 0.00000000
0.00916082 -0.67077953 0.00000000
0.01410396 -0.12954938 0.00000000
-0.32769856 0.15825959 0.00000000
0.30479336 0.49094307 0.02455013
-0.43118939 0.72120714 0.00000000
-0.23224768 0.55847687 0.00000000
0.50193208 0.25900269 0.22499155
0.24793245 -0.46538979 0.00000000
0.03455158 0.34817955 0.00000000
-0.46160528 -0.78322566 0.00000000
0.51898140 -0.69292682 0.00000000
-0.38646278 0.52982175 0.00000000
0.48865041 0.27017581 0.23713575
0.55923045 -0.44063389 -0.00000010
-0.71627718 0.58444035 0.00000000
-0.39805925 -0.75434107 0.00000000
-0.00067028 -0.13673560 0.00000000
-0.71838695 -0.22570491 0.00000000
0.09474017 0.49823430 0.00000000
0.32122847 0.47408044 0.02701232
0.21144342 -0.04340260 0.00000000
0.17846175 -0.67947948 0.00000000
-0.00975326 0.16440921 0.00000000
0.62147313 -0.68074018 -0.00000002
0.36541069 0.34553307 0.51291811
0.59773725 -0.25611693 -0.00000034
-0.17857665 0.25917056 0.00000000
-0.66362864 -0.32858807 0.00000000
-0.63617235 -0.25253326 0.00000000
-0.11156526 0.33812711 0.00000000
0.56559235 0.21160299 0.13133813
-0.17020325 -0.55691028 0.00000000
0.75284880 0.03160926 -0.00000093
-0.51382947 -0.43674859 0.00000000
-0.18002933 -0.37552682 0.00000000
-0.14197578 -0.10610510 0.00000000
-0.65987742 -0.71558553 0.00000000
0.24714738 0.37083939 -0.00000015
0.73879671 -0.63968492 -0.00000020
-0.60531819 0.10626407 0.00000000
-0.21843918 -0.34386358 0.00000000
-0.17695315 -0.07930253 0.00000000
-0.73075724 -0.78901041 0.00000000
-0.78435892 0.09177067 0.00000000
-0.69759762 -0.03296715 0.00000000
-0.43083057 0.21686034 0.00000000
0.19855103 -0.12328877 0.00000000
0.47861102 0.31102306 0.05969682
0.71657658 -0.15227085 -0.00000069
0.45911986 -0.72416210 0.00000000
0.56841189 0.22570306 -0.00000071
0.14809203 0.63247728 0.11190610
0.38621852 -0.57118833 0.00000000
0.15711629 -0.10751641 0.00000000
-0.33239719 0.05790196 0.00000000
-0.76446694 0.02991385 0.00000000
-0.50663257 0.59891957 0.00000000
-0.51472598 -0.40181953 0.00000000
0.10621156 -0.24254189 0.00000000
0.37506342 0.41234595 0.07251024
-0.06622400 -0.03364042 0.00000000
-0.74396902 -0.40228301 0.00000000
0.66608119 -0.31637374 -0.00000043
0.20437628 0.56186676 0.19441885
0.13823438 -0.49701157 0.00000000
0.04947996 -0.08546648 0.00000000
0.20329800 0.55101889 0.26310819
0.65077150 -0.00569782 -0.00000068
-0.47947988 0.55880761 0.00000000
0.79811120 -0.39016059 -0.00000051
0.30502680 0.41879222 0.43876243
0.21205325 0.36592698 -0.00000007
0.17575227 -0.62398332 0.00000000
-0.37862548 -0.75165820 0.00000000
-0.05593191 0.74258626 0.00000000
-0.12417094 -0.53431153 0.00000000
0.40348977 0.21708149 -0.00000035
-0.36177120 -0.38868839 0.00000000
-0.38495949 -0.79064888 0.00000000
0.40757069 -0.65728456 0.00000000
0.17356642 -0.12664671 0.00000000
-0.78605026 0.77567279 0.00000000
0.41232252 -0.09287088 -0.00000009
-0.72275603 -0.59928972 0.00000000
-0.72101688 -0.01576357 0.00000000
-0.56091094 0.45026290 0.00000000
-0.37462175 0.70700449 0.00000000
0.31329557 0.47573739 0.06315901
-0.48102912 0.40796039 0.00000000
-0.33453169 0.60925508 0.00000000
0.38015410 -0.21040606 0.00000000
-0.20099801 0.55449814 0.00000000
0.50918877 -0.51384121 0.00000000
0.33352301 -0.10596697 0.00000000
-0.07095982 -0.57697976 0.00000000
-0.49475598 -0.29997101 0.00000000
-0.01084680 -0.52708560 0.00000000
0.49037683 0.29227880 0.09988923
0.76502252 -0.03553467 -0.00000089
-0.49291581 0.41721407 0.00000000
0.38518041 -0.38817161 0.00000000
0.47271854 0.28847283 0.22351375
0.03957965 0.14223561 0.00000000
0.74158764 -0.15653779 -0.00000074
0.71618462 -0.15488669 -0.00000068
0.75906372 -0.32394135 -0.00000060
-0.10750643 -0.13976891 0.00000000
-0.56623781 0.04630714 0.00000000
0.53714174 0.02326787 -0.00000046
-0.31615779 -0.22602750 0.00000000
-0.27255279 0.59970224 0.00000000
-0.20490590 0.61748213 0.00000000
-0.78180629 -0.59750950 0.00000000
0.48103380 0.31134024 0.04391581
-0.49818847 -0.48411509 0.00000000
0.47353205 0.30254465 0.13778096
-0.18923876 0.54578340 0.00000000
-0.64226997 -0.55698681 0.00000000
0.32684681 -0.24561401 0.00000000
-0.03888035 -0.38620716 0.00000000
-0.13180909 -0.54964513 0.00000000
0.23516504 0.29464081 -0.00000006
0.34610179 0.38301337 0.40825894
-0.75780129 0.10336750 0.00000000
0.75832230 -0.33739597 -0.00000058
0.02186202 0.73605806 0.00000000
0.38521773 0.15339039 -0.00000025
0.47445029 -0.19503564 -0.00000013
-0.45273462 -0.28346482 0.00000000
0.23367982 -0.07665474 0.00000000
-0.77038831 -0.77626926 0.00000000
-0.69036871 -0.46421540 0.00000000
-0.37877569 0.46412498 0.00000000
-0.24492083 -0.28024709 0.00000000
0.30669898 0.42521405 0.39214447
-0.25440803 -0.35187367 0.00000000
-0.62868458 -0.27457827 0.00000000
0.17448594 -0.33634147 0.00000000
0.20846836 0.55229539 0.22597723
0.03674573 -0.59049016 0.00000000
-0.13926925 0.37191173 0.00000000
0.54344267 0.21410593 0.24449421
-0.30678529 -0.35833496 0.00000000
-0.70328128 -0.28226420 0.00000000
0.01121906 0.61166042 0.00000000
0.62016046 0.15956815 0.11674750
0.60212964 0.15652286 0.23813637
-0.23042315 0.54211694 0.00000000
0.71853006 -0.00442964 -0.00000082
0.69776917 0.08502138 0.09911215
0.07120555 0.20881185 0.00000000
0.15831114 0.23443264 0.00000000
0.32563388 -0.78156060 0.00000000
-0.31713331 0.19125021 0.00000000
-0.28035995 -0.39369875 0.00000000
-0.59655470 0.55566198 0.00000000
-0.29308814 -0.75980365 0.00000000
0.37423125 -0.09198773 -0.00000001
0.24309348 -0.48522854 0.00000000
-0.40804189 0.54427361 0.00000000
-0.39883322 -0.22314063 0.00000000
0.21884222 -0.47234204 0.00000000
-0.72025526 0.78199595 0.00000000
0.36223790 0.42002594 0.10214604
0.78622234 -0.55019593 -0.00000031
-0.21555018 -0.22924127 0.00000000
-0.16561222 -0.56730610 0.00000000
-0.73907048 0.10163880 0.00000000
0.13538507 0.06889247 0.00000000
-0.51503694 0.65207857 0.00000000
-0.16196144 0.12867352 0.00000000
0.24448264 0.54704177 0.04880961
-0.44482344 -0.51389468 0.00000000
-0.50135356 0.34803164 0.00000000
0.57711738 -0.37571818 -0.00000019
-0.29712543 -0.41468805 0.00000000
-0.28156978 0.54253989 0.00000000
-0.79992783 -0.44759235 0.00000000
-0.59205866 0.06798765 0.00000000
0.37205869 0.06132714 -0.00000014
0.24946958 -0.49872175 0.00000000
0.10902552 -0.75277704 0.00000000
-0.02145034 0.06360585 0.00000000
-0.79437703 0.46715832 0.00000000
0.07606893 -0.31084588 0.00000000
-0.66098958 0.78987443 0.00000000
-0.17894720 -0.61376530 0.00000000
0.22727945 0.20069513 0.00000000
-0.74535018 -0.41133243 0.00000000
0.45313349 0.14470832 -0.00000039
0.48368260 -0.76272792 0.00000000
0.19839121 -0.46027952 0.00000000
0.43093041 -0.71519846 0.00000000
-0.75616544 0.03472229 0.00000000
0.67456609 -0.47320011 -0.00000031
0.73479593 -0.64657420 -0.00000019
-0.69769037 -0.64004719 0.00000000
-0.79830480 0.53268373 0.00000000
-0.23319374 0.64665824 0.00000000
-0.27890441 -0.09109287 0.00000000
-0.16612408 -0.21956280 0.00000000
0.20368055 -0.73147398 0.00000000
0.09671805 0.32230985 0.00000000
0.13343835 -0.10019515 0.00000000
0.78083187 -0.17461510 -0.00000078
-0.77689046 -0.59161323 0.00000000
-0.67660362 0.75968456 0.00000000
-0.56552768 -0.43522990 0.00000000
0.52895319 -0.40473029 -0.00000006
-0.28062937 -0.79703790 0.00000000
0.48767304 0.25081399 -0.00000056
0.54626250 0.20854609 0.26027560
0.78311110 -0.61882490 -0.00000023
-0.73481232 0.20808806 0.00000000
0.10571308 -0.11047613 0.00000000
0.54660571 0.21770211 0.20556419
0.42984730 -0.42853504 0.00000000
0.35449067 -0.58906662 0.00000000
0.16103864 0.59855652 0.23270811
0.32204452 0.44628349 0.18241017
0.10534431 -0.61522418 0.00000000
-0.78335685 -0.14647371 0.00000000
-0.61753988 -0.69973606 0.00000000
0.24410816 -0.05415919 0.00000000
-0.67287219 -0.56873494 0.00000000
0.42838889 0.36282146 0.05061819
-0.31081766 0.37246621 0.00000000
-0.45633036 -0.11613792 0.00000000
0.59085965 -0.50803357 -0.00000010
-0.17050095 0.72120059 0.00000000
0.71436262 -0.45831954 -0.00000041
0.59968960 0.18717784 0.07563122
0.74514312 -0.24603404 -0.00000067
0.34669453 0.41973084 0.19336839
0.33247474 0.45896798 0.04927995
-0.39799914 0.59532452 0.00000000
-0.77458310 0.50210512 0.00000000
-0.75998449 0.14216511 0.00000000
-0.58909768 -0.43346947 0.00000000
0.15904333 -0.18983759 0.00000000
0.49221966 0.23406379 -0.00000055
-0.40265459 -0.05341463 0.00000000
0.00349794 -0.79326457 0.00000000
-0.39361265 -0.29693156 0.00000000
0.33222011 0.45115986 -0.00000040
-0.44423822 0.53383785 0.00000000
-0.22574766 0.42320251 0.00000000
0.41070989 0.30460617 -0.00000044
0.23090068 0.19570804 0.00000000
-0.63629246 -0.70878351 0.00000000
0.58196014 0.18827257 0.17143957
-0.46011937 -0.18169360 0.00000000
0.76400936 -0.50376338 -0.00000037
-0.23602439 -0.67306197 0.00000000
-0.01907808 0.63827914 0.00000000
0.40018368 0.33953312 0.34719783
-0.23246300 0.72017264 0.00000000
0.72240233 -0.57181329 -0.00000029
-0.03522779 -0.11497824 0.00000000
-0.62525356 0.50413299 0.00000000
-0.43932500 0.51143777 0.00000000
0.39551410 0.37772486 0.15412533
-0.24755266 -0.13484345 0.00000000
0.26466623 0.49932095 0.20741148
0.27610454 0.24355355 -0.00000010
-0.60117781 -0.79947233 0.00000000
-0.38939795 0.66820288 0.00000000
-0.12079215 -0.27349493 0.00000000
-0.41676757 -0.72861755 0.00000000
0.52885711 0.21692269 0.31227732
0.45462847 0.28445494 0.35084569
-0.45344430 0.16037804 0.00000000
0.39702803 -0.11838663 -0.00000004
-0.10216027 -0.75300664 0.00000000
-0.37326106 0.18115139 0.00000000
-0.03467714 0.13877691 0.00000000
0.68588227 0.02616281 -0.00000078
-0.28396893 -0.00591164 0.00000000
-0.19038764 -0.70620316 0.00000000
-0.79326934 -0.22598818 0.00000000
0.74959636 -0.65756881 -0.00000018
0.04371206 0.29585916 0.00000000
0.16891652 0.23314361 0.00000000
0.38232940 0.37670606 0.23593093
0.01041880 -0.67335063 0.00000000
0.31232908 0.47759682 0.05801611
-0.51165032 0.31091726 0.00000000
0.56617087 0.20755346 0.15132929
-0.63029867 -0.03655876 0.00000000
-0.77619451 0.55759805 0.00000000
-0.24049105 -0.63303024 0.00000000
0.04326811 0.75304484 0.02122991
-0.10654008 -0.34223014 0.00000000
0.23449686 0.24425592 -0.00000001
0.29889923 0.09823387 -0.00000002
0.21499841 0.01760187 0.00000000
0.45450008 -0.10834321 -0.00000017
0.10306842 -0.39053890 0.00000000
-0.53696269 -0.76966125 0.00000000
-0.25443557 -0.48345661 0.00000000
-0.66243160 -0.29596990 0.00000000
-0.76464844 0.71664637 0.00000000
-0.27259585 0.07861995 0.00000000
0.68253112 -0.12870198 -0.00000064
-0.73827499 -0.48484257 0.00000000
-0.27670506 -0.46608517 0.00000000
0.16150761 0.26811287 0.00000000
0.30283579 -0.70736969 0.00000000
-0.39824897 0.59460938 0.00000000
0.52669567 -0.27247274 -0.00000018
-0.69916826 0.77800214 0.00000000
0.52297753 -0.16276339 -0.00000027
-0.02255039 0.28633031 0.00000000
-0.51575577 -0.39495748 0.00000000
-0.69661933 -0.60524911 0.00000000
0.31098148 0.44878250 0.23173513
0.21120790 0.57672620 0.06948821
0.30444744 -0.07385806 0.00000000
-0.15522876 0.02733764 0.00000000
-0.51794672 0.65668738 0.00000000
0.21793453 0.52880228 0.30676633
0.73419464 0.04076921 -0.00000090
0.34076324 0.44467333 0.08387273
-0.20932329 -0.00489955 0.00000000
0.21995346 0.25930572 0.00000000
-0.26221317 0.29711196 0.00000000
-0.27249384 0.31631085 0.00000000
-0.23700498 -0.70523661 0.00000000
-0.70121157 -0.09769231 0.00000000
-0.58242249 -0.46070680 0.00000000
-0.58631539 0.34916520 0.00000000
0.18892863 -0.00294154 0.00000000
0.00454149 -0.23613623 0.00000000
-0.08813479 0.56778085 0.00000000
0.64912492 -0.09015794 -0.00000060
-0.56272286 0.14640467 0.00000000
-0.73174435 0.40079764 0.00000000
-0.47820973 -0.79595971 0.00000000
-0.42259273 -0.29743120 0.00000000
0.45435292 -0.09863037 -0.00000018
-0.66391188 -0.77273804 0.00000000
0.51740891 -0.56202751 0.00000000
0.16795284 -0.03477233 0.00000000
-0.79289597 0.17501284 0.00000000
-0.64774537 -0.48622188 0.00000000
0.26597297 -0.48301858 0.00000000
0.76280141 -0.58400619 -0.00000027
-0.06792668 -0.48964167 0.00000000
0.48294082 -0.69060338 0.00000000
0.26169190 0.45117679 -0.00000025
0.23787513 -0.56206286 0.00000000
-0.13774303 0.67905664 0.00000000
0.01532012 0.76153922 0.00000000
-0.60466307 -0.39467081 0.00000000
-0.06556328 0.07237744 0.00000000
0.27827826 -0.43203700 0.00000000
0.54446822 -0.08382247 -0.00000038
0.62021583 -0.78185636 0.00000000
0.35802066 -0.22968297 0.00000000
-0.64874601 -0.11633558 0.00000000
-0.01216257 0.11838133 0.00000000
0.33209109 0.42546433 0.24445549
-0.64914507 0.01780210 0.00000000
-0.77041942 -0.13245663 0.00000000
0.23452735 0.56034529 0.02952510
-0.62629396 0.53136545 0.00000000
0.61625516 0.15423255 0.16997091
0.61122948 0.14833368 0.23289131
0.76208305 0.03439450 0.02028115
-0.75004226 0.18741634 0.00000000
-0.71633101 -0.33694276 0.00000000
0.14436594 0.44191283 0.00000000
0.67452699 -0.78404593 -0.00000002
0.01691903 0.20971589 0.00000000
-0.34952861 0.72482049 0.00000000
0.66277593 -0.18327762 -0.00000055
0.39681986 0.32010475 0.47847098
0.36330739 0.38582963 0.29294175
-0.48078918 0.63232797 0.00000000
-0.11445533 -0.67669588 0.00000000
-0.73944831 -0.19024435 0.00000000
-0.01712785 0.18736905 0.00000000
0.38690016 -0.41682979 0.00000000
-0.43386140 -0.44300348 0.00000000
0.59430957 -0.05885882 -0.00000051
-0.60392118 0.20645216 0.00000000
0.54965156 0.20673375 0.25119445
-0.68942565 0.01504710 0.00000000
-0.42114848 0.62919807 0.00000000
0.02390105 0.60355413 0.00000000
0.35119161 0.43316665 0.09008311
0.48844439 0.26921988 0.24382809
0.15709941 0.52504855 -0.00000009
-0.35260555 0.05270369 0.00000000
0.15070397 -0.10421581 0.00000000
-0.76673990 -0.52664536 0.00000000
0.26275909 -0.78366959 0.00000000
0.60422117 0.18058722 0.08749042
-0.36331159 0.05911199 0.00000000
-0.19106904 -0.24886602 0.00000000
-0.12696931 -0.39284599 0.00000000
-0.25026307 0.49111018 0.00000000
0.25142366 -0.73679316 0.00000000
-0.73222560 -0.26171604 0.00000000
0.36826143 0.34086013 0.52341330
-0.59870070 0.72317940 0.00000000
-0.14995027 -0.72836339 0.00000000
-0.30831593 -0.69861174 0.00000000
-0.49095830 0.77741355 0.00000000
0.37343353 0.40593463 0.11882380
-0.54256231 -0.38061431 0.00000000
-0.42959642 0.11823808 0.00000000
0.26401496 -0.59882247 0.00000000
0.19775838 -0.79727221 0.00000000
-0.47586524 0.39452207 0.00000000
0.21563651 -0.71225363 0.00000000
-0.63499904 0.71463525 0.00000000
0.69774032 -0.70805037 -0.00000011
0.57166439 -0.73588771 0.00000000
0.56551695 0.21951419 0.08620744
-0.09459550 0.68217534 0.00000000
-0.22099946 -0.31039706 0.00000000
0.34204221 0.36514288 0.53456640
-0.31096280 -0.79201418 0.00000000
-0.06451580 -0.55552125 0.00000000
0.24098280 0.55683470 -0.00000030
0.75384200 -0.27838877 -0.00000065
-0.60539442 0.17121094 0.00000000
0.48219514 0.00293497 -0.00000032
0.35141587 0.37301299 0.43524992
0.31627440 -0.12799583 0.00000000
-0.06392111 -0.09374039 0.00000000
0.19918843 -0.01939020 0.00000000
0.41234928 -0.55094135 0.00000000
-0.25299826 0.33231676 0.00000000
0.18782946 0.56448984 0.27461362
-0.62162113 0.72997522 0.00000000
-0.70105302 0.44149226 0.00000000
0.41652223 -0.60214043 0.00000000
0.73694253 0.05207002 0.06327613
0.46882731 -0.13554266 -0.00000017
-0.63943678 -0.61101198 0.00000000
-0.10411104 0.11388196 0.00000000
0.29893354 -0.00639587 0.00000000
0.00342744 0.11967697 0.00000000
0.36275077 -0.04949799 -0.00000002
-0.76082325 -0.17358896 0.00000000
0.01052969 0.35569432 0.00000000
0.33699411 0.44755673 0.08897405
0.57268393 -0.55588412 -0.00000002
-0.54106170 -0.62476879 0.00000000
-0.56180066 0.57221460 0.00000000
-0.11507818 0.34279019 0.00000000
-0.32557559 0.36517176 0.00000000
-0.12354708 0.30786446 0.00000000
0.40539053 -0.24008079 0.00000000
0.50886321 0.25246036 0.22275215
0.69338685 0.00946191 -0.00000078
0.32341564 -0.25377083 0.00000000
-0.79610890 0.31568491 0.00000000
0.13293785 -0.51191497 0.00000000
-0.24962835 -0.74025261 0.00000000
-0.58307099 0.16153325 0.00000000
-0.03410899 -0.25646180 0.00000000
-0.59915763 0.39766061 0.00000000
-0.75115472 -0.47661975 0.00000000
0.53564030 0.14762440 -0.00000057
0.63146251 -0.00384034 -0.00000064
-0.10891797 -0.09035868 0.00000000
-0.64505649 -0.75402105 0.00000000
0.45818657 0.31530276 0.15268302
-0.60925412 0.43752024 0.00000000
-0.30988488 -0.71595436 0.00000000
0.11585554 0.20150413 0.00000000
0.32020935 0.39012626 -0.00000032
-0.07979574 -0.69116473 0.00000000
-0.51644188 -0.13048920 0.00000000
-0.72670281 -0.38060716 0.00000000
0.01340223 0.48563671 0.00000000
-0.66909605 0.05084741 0.00000000
0.01325674 0.65872413 0.00000000
0.07705881 -0.31082356 0.00000000
0.10437568 0.12473668 0.00000000
-0.19032200 0.78989047 0.00000000
-0.14708374 0.79479909 0.00000000
0.58062094 -0.37450624 -0.00000020
0.47468972 0.31811750 0.04142088
0.25852078 0.52889347 0.07248216
0.43339288 -0.18768865 -0.00000005
-0.64372414 0.28615847 0.00000000
0.53189057 -0.75803804 0.00000000
-0.38755557 -0.64088953 0.00000000
0.08432894 0.53383273 0.00000000
-0.36480349 0.02403828 0.00000000
0.04968045 0.17579050 0.00000000
-0.48664746 0.49320585 0.00000000
0.05624005 0.41270432 0.00000000
-0.24048805 0.56560349 0.00000000
0.20422126 0.56158209 0.19695123
-0.40537295 -0.54575056 0.00000000
-0.16875222 -0.79901457 0.00000000
0.15745471 0.58436716 -0.00000015
-0.08513989 -0.78641617 0.00000000
0.08219322 -0.66394216 0.00000000
0.45667502 -0.72540194 0.00000000
0.56943679 -0.57003009 -0.00000000
-0.54691505 0.46346152 0.00000000
0.74614102 -0.32274926 -0.00000060
0.17425719 0.07709563 0.00000000
-0.27686697 0.10950736 0.00000000
-0.72959095 -0.16581717 0.00000000
-0.22744630 0.19164222 0.00000000
-0.41809416 -0.46834332 0.00000000
0.28810266 0.47772110 0.19683358
0.40849882 0.38792518 0.02058989
0.55333197 0.23506230 0.06683724
-0.61904341 -0.15568215 0.00000000
-0.29892653 -0.68398607 0.00000000
0.32432002 0.46834248 -0.00000040
-0.44750586 0.21647400 0.00000000
0.32194179 0.39933246 0.45341909
0.37472725 -0.77645719 0.00000000
0.63673931 0.13332865 -0.00000077
0.33567309 -0.17701551 0.00000000
0.15130337 0.25205120 0.00000000
0.52918446 -0.65196007 0.00000000
0.18405917 -0.79310113 0.00000000
-0.68347889 0.40024367 0.00000000
0.21460880 0.46537873 -0.00000016
0.18444408 -0.68063098 0.00000000
-0.69791549 -0.30178398 0.00000000
0.40762725 -0.50446886 0.00000000
0.58473480 -0.33920369 -0.00000024
0.13308360 -0.65399849 0.00000000
-0.73702979 -0.38813987 0.00000000
0.58516526 0.17947473 0.20365116
-0.61788630 -0.26498070 0.00000000
-0.22066951 0.20373869 0.00000000
-0.08013792 0.56501919 0.00000000
0.20684949 -0.27277806 0.00000000
0.18563062 0.61000234 0.02514609
0.49803793 -0.72713953 0.00000000
0.41466460 0.31271335 0.41826415
-0.32267180 0.34707719 0.00000000
0.00120113 -0.52474207 0.00000000
-0.25169802 -0.40820026 0.00000000
0.29283878 0.44105348 0.38074514
-0.62252241 -0.17364077 0.00000000
-0.48357466 0.38637987 0.00000000
-0.09066822 -0.17620578 0.00000000
-0.51558959 0.09397013 0.00000000
-0.38341278 0.18562372 0.00000000
-0.36551318 -0.78549594 0.00000000
-0.39456859 -0.48748201 0.00000000
-0.14164551 -0.21134143 0.00000000
0.58684415 0.18670100 0.15236159
-0.79055518 -0.05847038 0.00000000
0.54020888 0.22495295 0.20064569
-0.54709816 0.17926890 0.00000000
-0.26821434 -0.58785129 0.00000000
0.49917629 0.09952170 -0.00000045
0.52107447 -0.06369090 -0.00000035
0.58534837 -0.54175216 -0.00000006
-0.66266036 0.14406851 0.00000000
0.09062131 0.40757275 0.00000000
-0.04700314 -0.42666808 0.00000000
-0.40168989 0.71236616 0.00000000
-0.19924292 -0.22659922 0.00000000
-0.46455657 -0.17645690 0.00000000
0.45133376 0.29477647 0.31037432
-0.47005737 -0.24939483 0.00000000
0.64621294 -0.23218094 -0.00000047
0.09190155 0.06786268 0.00000000
0.30592912 -0.52982515 0.00000000
0.15947209 0.63073552 0.05639383
-0.04279575 0.78686136 0.00000000
0.48219606 -0.38921940 0.00000000
0.28989786 0.44626749 0.36765304
0.41177392 0.22339191 -0.00000037
-0.32882360 -0.72700876 0.00000000
-0.71843028 0.09994720 0.00000000
0.38070613 0.33764461 0.47025710
0.33488974 0.42267343 0.24441078
-0.33321017 0.72484654 0.00000000
0.27441543 -0.79800141 0.00000000
0.37310845 -0.09608857 -0.00000000
-0.23593235 0.36311850 0.00000000
-0.06857420 -0.34378633 0.00000000
0.28695396 0.22010554 -0.00000010
0.25788832 0.53596377 0.03540308
0.07764623 0.58846730 0.00000000
-0.24130824 0.02265191 0.00000000
0.07195291 -0.56359345 0.00000000
0.23053110 -0.76007158 0.00000000
-0.28479311 -0.24598660 0.00000000
0.18608877 0.07673346 0.00000000
-0.61925370 -0.02520998 0.00000000
-0.25018668 -0.02693338 0.00000000
-0.15222298 -0.06940104 0.00000000
0.47943991 -0.23637831 -0.00000011
0.09122034 0.03049837 0.00000000
-0.05419536 0.55745053 0.00000000
-0.00146333 -0.03441874 0.00000000
0.45560724 -0.71728027 0.00000000
-0.36208424 0.23505682 0.00000000
0.49495244 -0.08290235 -0.00000028
0.25285029 0.53005630 0.09844434
0.36311162 -0.04292074 -0.00000003
0.38815507 0.06395544 -0.00000018
-0.38571432 -0.42756516 0.00000000
0.76428533 0.03130554 0.02538788
-0.06514819 -0.18591720 0.00000000
0.66591203 -0.77151877 -0.00000003
0.07617935 0.71186006 0.06888183
0.33672220 -0.68709224 0.00000000
-0.70147526 0.15422094 0.00000000
0.34365463 -0.66573948 0.00000000
0.15722685 -0.27707762 0.00000000
0.08187318 -0.63678712 0.00000000
0.19030473 -0.17647947 0.00000000
0.16445069 0.31240475 0.00000000
0.66125357 0.12746754 0.06495458
-0.14674138 0.49098334 0.00000000
0.34360653 0.38006926 0.43958727
-0.48142189 -0.74766636 0.00000000
0.66678363 -0.48850510 -0.00000028
0.27108356 -0.75197423 0.00000000
-0.45667547 0.34206104 0.00000000
0.50499433 0.24809030 0.27020487
0.55593830 -0.27763927 -0.00000023
0.67806065 0.02338357 -0.00000076
-0.08167730 -0.63088036 0.00000000
-0.60856950 -0.56209540 0.00000000
0.13141568 0.05774110 0.00000000
0.37806851 0.24074829 -0.00000031
-0.04167800 -0.17750692 0.00000000
-0.73787546 0.22182751 0.00000000
0.23917773 0.52713567 0.19401360
-0.24130072 -0.24213634 0.00000000
0.69469726 -0.11422236 -0.00000067
0.23952545 -0.68290591 0.00000000
0.03383818 0.66997045 0.00000000
-0.47851819 0.76128775 0.00000000
-0.64157474 0.25263327 0.00000000
-0.05958757 -0.49234244 0.00000000
-0.40830806 0.23502620 0.00000000
-0.07234160 -0.01342330 0.00000000
-0.76307333 -0.55927080 0.00000000
0.17760620 -0.10321064 0.00000000
0.78665119 -0.68225932 -0.00000015
-0.49314010 0.23557723 0.00000000
-0.53300053 -0.47645530 0.00000000
-0.70336688 0.32062599 0.00000000
-0.70278478 0.24887489 0.00000000
0.27303874 0.48540321 0.23934948
0.32445303 0.46114185 0.08296095
0.26843324 -0.59344178 0.00000000
0.06139837 0.33831352 0.00000000
0.24469151 0.42813435 -0.00000019
-0.06612996 -0.71587354 0.00000000
-0.04836460 0.45620704 0.00000000
-0.17653243 -0.52194381 0.00000000
-0.21955220 0.24148019 0.00000000
-0.65350252 -0.37248731 0.00000000
0.32239488 0.44541049 0.18542039
0.71835667 -0.65795404 -0.00000018
-0.04778843 -0.49427268 0.00000000
-0.43780923 -0.23502399 0.00000000
0.16571473 0.12700532 0.00000000
0.68360984 -0.45178837 -0.00000035
-0.43546933 -0.58194274 0.00000000
0.11104942 0.68263739 0.03635518
0.54557818 0.22835740 0.15011267
0.54947263 0.01305899 -0.00000048
0.19863243 0.27674517 0.00000000
0.39256734 -0.01000673 -0.00000012
-0.04431602 0.02769312 0.00000000
0.64294046 -0.47746995 -0.00000024
-0.14504020 -0.44054013 0.00000000
0.67589074 -0.20020409 -0.00000056
0.53983468 0.20855993 0.29721719
0.56678063 -0.62429559 0.00000000
-0.40844858 -0.69926834 0.00000000
0.36942610 -0.36371171 0.00000000
0.15081197 -0.17247492 0.00000000
-0.05102955 0.63609982 0.00000000
-0.18877086 0.24964407 0.00000000
-0.33327723 -0.41171926 0.00000000
-0.02068640 0.75650561 0.00000000
0.28949729 0.01737418 0.00000000
-0.66757053 -0.37350100 0.00000000
0.05628053 -0.02354276 0.00000000
0.30150199 -0.29386052 0.00000000
0.02774229 0.11935231 0.00000000
0.04312961 0.57446384 0.00000000
-0.10322985 0.38064092 0.00000000
-0.33677837 0.54254645 0.00000000
0.59942412 0.05242612 -0.00000062
0.23949823 0.54434800 0.09303222
-0.53520066 -0.60738677 0.00000000
0.18989196 0.56051856 0.28560734
-0.66427839 -0.69895947 0.00000000
-0.79706401 0.43290398 0.00000000
-0.33921850 0.39159733 0.00000000
-0.17521080 0.21449666 0.00000000
0.11516917 0.15478794 0.00000000
-0.13803677 0.75615925 0.00000000
-0.47190544 0.78930354 0.00000000
-0.04303689 -0.48555163 0.00000000
-0.52144307 0.18143527 0.00000000
0.26157853 -0.52604109 0.00000000
-0.31804511 0.73184246 0.00000000
-0.38894886 0.71753538 0.00000000
-0.70252919 -0.37333658 0.00000000
0.01269026 0.37014571 0.00000000
-0.08134555 -0.68679202 0.00000000
-0.34497473 0.27012348 0.00000000
0.37651536 -0.13498010 0.00000000
0.45782465 -0.09074079 -0.00000019
-0.45723915 0.68748230 0.00000000
-0.78434300 0.49552655 0.00000000
-0.38534620 -0.54147005 0.00000000
0.70230019 -0.18737732 -0.00000063
0.54038435 -0.49753070 -0.00000001
0.54850435 0.22272381 0.16570614
0.73268026 0.06485860 0.01416853
0.70156020 -0.56973261 -0.00000029
0.27627790 -0.52966887 0.00000000
0.21363220 0.19347580 0.00000000
-0.24590886 0.78893375 0.00000000
0.73426110 -0.37804613 -0.00000053
-0.00457451 0.69322574 0.00000000
-0.42121997 0.16424572 0.00000000
0.10040345 -0.57629335 0.00000000
-0.11873878 0.39576602 0.00000000
-0.74340636 0.41966528 0.00000000
-0.22769429 -0.60133368 0.00000000
-0.43652567 0.05460159 0.00000000
-0.50925881 0.33261812 0.00000000
0.00916983 -0.54078007 0.00000000
-0.14241248 0.24795601 0.00000000
-0.44073874 -0.58160245 0.00000000
0.55628711 -0.22482231 -0.00000028
0.36148730 0.34812284 0.52059931
0.31613830 0.42836267 0.31964350
0.15472652 0.14219154 0.00000000
0.18830366 0.12000042 0.00000000
-0.37628198 0.18566217 0.00000000
-0.25683862 -0.66939902 0.00000000
-0.34099868 0.28329018 0.00000000
-0.35997140 0.35463703 0.00000000
-0.09038771 0.17274126 0.00000000
-0.76375067 -0.07796532 0.00000000
0.50836122 -0.64103740 0.00000000
0.46925366 0.15765686 -0.00000043
0.33463687 0.37813401 0.50239486
-0.00350658 0.42120540 0.00000000
0.14142472 -0.36180222 0.00000000
-0.14604749 -0.44477254 0.00000000
0.25929135 0.53784305 0.01649856
0.28135920 -0.39898744 0.00000000
0.43108517 0.34393346 0.14387508
-0.48075345 0.56782222 0.00000000
0.16059504 0.63906294 0.00196388
-0.21000241 0.65470612 0.00000000
-0.20000127 0.07806029 0.00000000
-0.08229376 0.64267468 0.00000000
-0.07344038 -0.00116525 0.00000000
-0.70296687 0.08591392 0.00000000
-0.59937924 0.36395130 0.00000000
-0.35444894 -0.24642634 0.00000000
-0.38844386 0.29260278 0.00000000
0.56629395 -0.04704803 -0.00000046
-0.45269257 -0.38165569 0.00000000
0.07075949 0.71095788 0.10529409
-0.64164305 -0.71099812 0.00000000
0.31272966 0.13544470 -0.00000008
-0.17150800 -0.18585356 0.00000000
-0.12713723 0.66984737 0.00000000
0.05089963 0.04662220 0.00000000
0.68759596 -0.61007863 -0.00000022
-0.53249478 0.20359939 0.00000000
-0.02242563 0.64179230 0.00000000
-0.58030683 -0.79952031 0.00000000
-0.08890002 0.43021274 0.00000000
0.02501895 0.15870304 0.00000000
-0.51047373 -0.16445270 0.00000000
-0.03220626 0.55816084 0.00000000
0.43573523 -0.71873164 0.00000000
0.09043024 -0.12149926 0.00000000
-0.71517843 0.14991444 0.00000000
-0.46453789 0.47378370 0.00000000
-0.13333046 0.71011770 0.00000000
-0.49581718 -0.64511693 0.00000000
-0.49694282 -0.34969887 0.00000000
-0.02532035 0.12126548 0.00000000
-0.48207220 0.00239217 0.00000000
0.38972598 0.39278629 0.10071512
-0.68262130 -0.33043048 0.00000000
-0.04894045 0.26609451 0.00000000
-0.21634334 -0.74181223 0.00000000
0.00361576 -0.29951641 0.00000000
-0.01957614 0.71349865 0.00000000
-0.46793395 -0.09290304 0.00000000
0.54774112 -0.16465932 -0.00000032
-0.30591130 -0.34165663 0.00000000
0.24773823 -0.36582500 0.00000000
-0.32024869 -0.39709279 0.00000000
0.33060634 0.39544785 0.42588872
-0.50839722 -0.40117112 0.00000000
-0.70292222 -0.00508621 0.00000000
0.46122336 0.27727959 0.35418886
0.25670597 -0.14846608 0.00000000
-0.12254799 -0.60359061 0.00000000
0.02273848 0.03551976 0.00000000
-0.00483391 0.32520631 0.00000000
-0.79550475 -0.56713182 0.00000000
0.54666466 -0.69564855 0.00000000
-0.20815310 0.60470575 0.00000000
-0.30345672 0.13630432 0.00000000
-0.70246089 0.03086554 0.00000000
-0.55265474 -0.42133299 0.00000000
-0.70030582 -0.08446994 0.00000000
0.27934498 0.51352763 -0.00000034
0.62964481 -0.34958103 -0.00000033
0.22952925 0.56838369 0.01201455
-0.48541528 -0.43826479 0.00000000
0.75292754 -0.60535610 -0.00000024
-0.74871141 -0.52838731 0.00000000
0.07516179 -0.63836044 0.00000000
0.03708848 -0.53258622 0.00000000
-0.76507032 0.62368613 0.00000000
-0.20667908 0.42613518 0.00000000
-0.15042774 -0.52405578 0.00000000
-0.67408043 -0.20342240 0.00000000
0.33332828 -0.56603587 0.00000000
-0.60822225 -0.47447884 0.00000000
0.13636249 -0.76168388 0.00000000
-0.36029398 -0.79670143 0.00000000
0.36396793 -0.34359071 0.00000000
-0.30763328 -0.12826262 0.00000000
0.62887943 -0.07003243 -0.00000057
-0.79629284 -0.27771795 0.00000000
-0.00485315 -0.42341417 0.00000000
0.20183644 -0.31934741 0.00000000
0.45115131 0.28291026 0.37976927
-0.42636001 0.74883449 0.00000000
-0.53899580 0.01020366 0.00000000
-0.03989634 -0.26579130 0.00000000
0.54787832 -0.67993510 0.00000000
-0.69675821 -0.51370358 0.00000000
-0.52650779 -0.48116803 0.00000000
-0.77468228 -0.60698307 0.00000000
-0.40692654 -0.76681536 0.00000000
-0.38753662 -0.42627665 0.00000000
-0.18316720 -0.46495390 0.00000000
0.61725634 -0.34472838 -0.00000031
-0.11145463 -0.40012464 0.00000000
-0.59575886 -0.31793356 0.00000000
0.52475345 -0.61046922 0.00000000
0.50028241 -0.14538044 -0.00000023
-0.75409824 0.60879588 0.00000000
0.65240818 -0.19885227 -0.00000051
0.12512648 0.65382147 0.12124446
-0.01634111 0.71557188 0.00000000
0.09575241 -0.43772969 0.00000000
-0.56947130 0.26710907 0.00000000
-0.29506570 -0.31506783 0.00000000
0.30917558 0.45341310 0.21546611
0.16688444 0.02182580 0.00000000
-0.49618393 -0.43678105 0.00000000
0.15710559 0.41857210 0.00000000
0.05769499 0.49875873 0.00000000
-0.54884762 -0.57406843 0.00000000
-0.02162171 0.38461950 0.00000000
-0.02163581 0.62794024 0.00000000
-0.33183464 0.40952259 0.00000000
-0.33943719 -0.49839538 0.00000000
0.48058441 -0.47894681 0.00000000
0.73811978 0.05079486 0.06384013
0.03429374 0.62762856 0.00000000
0.51275820 0.23357664 0.30908039
-0.45358959 -0.16726850 0.00000000
0.28779966 0.45146790 0.34978557
0.60701233 0.09928317 -0.00000068
0.05245313 -0.03235743 0.00000000
-0.54098231 -0.35839796 0.00000000
0.08019856 0.30042401 0.00000000
-0.49644110 -0.43905342 0.00000000
-0.75983912 -0.28613475 0.00000000
0.27501047 0.49378186 -0.00000032
0.11528473 -0.45761344 0.00000000
0.47048849 -0.35681933 0.00000000
0.19468944 0.56877637 0.21041463
0.12971538 -0.37076271 0.00000000
-0.42656663 0.51893044 0.00000000
0.71302974 -0.19542702 -0.00000064
0.43239358 -0.69484442 0.00000000
0.20457736 -0.06118773 0.00000000
0.34759566 -0.32858008 0.00000000
-0.78448385 0.63029265 0.00000000
-0.41609675 0.21331535 0.00000000
0.73257476 -0.66925955 -0.00000016
-0.27640286 0.59599769 0.00000000
-0.74907476 0.50028169 0.00000000
-0.02277740 0.63748574 0.00000000
-0.39428312 0.24491833 0.00000000
0.45322302 0.32101288 0.14838324
-0.60054469 -0.24154927 0.00000000
0.75026745 -0.37858295 -0.00000053
-0.53952879 0.61038315 0.00000000
0.42659062 0.19887733 -0.00000038
-0.45814461 0.26818722 0.00000000
0.36650723 0.24459071 -0.00000029
0.26723716 -0.73058897 0.00000000
-0.03473624 0.59311885 0.00000000
-0.40767637 0.76125681 0.00000000
0.39141721 0.35533118 0.30669895
-0.02613880 0.68512571 0.00000000
-0.49180317 0.34940559 0.00000000
0.19926897 -0.38042897 0.00000000
-0.28939664 0.55958325 0.00000000
-0.31565523 0.65422314 0.00000000
-0.26692209 -0.03742037 0.00000000
-0.20149355 0.28392392 0.00000000
0.16699667 0.59229606 0.23444977
-0.79747325 0.62509853 0.00000000
-0.38315946 0.44569680 0.00000000
-0.24739966 0.00534693 0.00000000
0.42259538 0.30896121 0.39419717
0.29771274 0.15940151 -0.00000007
0.13776565 -0.55231780 0.00000000
0.57388932 -0.47180235 -0.00000010
0.02733523 0.52512038 0.00000000
0.37819070 0.24470116 -0.00000032
0.37138200 -0.44057202 0.00000000
0.73593515 -0.44315344 -0.00000045
0.50961912 -0.53016633 0.00000000
0.18541507 -0.34847155 0.00000000
-0.50822425 -0.31997052 0.00000000
0.65988541 -0.65553075 -0.00000012
-0.17206819 -0.25153181 0.00000000
0.48582461 0.28253430 -0.00000058
-0.38823968 -0.27614200 0.00000000
-0.65479577 -0.43174890 0.00000000
0.38973489 -0.47526708 0.00000000
0.38412425 0.40877318 0.04090151
-0.73469299 0.66779900 0.00000000
-0.26402411 -0.03014271 0.00000000
-0.54098719 0.11516140 0.00000000
-0.07646054 0.60247749 0.00000000
-0.13640375 0.03606136 0.00000000
-0.34871799 -0.61822569 0.00000000
-0.78693104 0.08706805 0.00000000
-0.63965553 -0.68379325 0.00000000
0.02984756 -0.50937712 0.00000000
-0.72835493 0.54265594 0.00000000
-0.26043439 0.31017876 0.00000000
-0.69257808 -0.45341444 0.00000000
0.41184983 -0.62512565 0.00000000
-0.29061639 0.21250311 0.00000000
0.21799284 -0.29568452 0.00000000
-0.35176101 0.72796255 0.00000000
0.28425986 0.34804404 -0.00000021
0.16114441 -0.38955608 0.00000000
-0.34997392 0.74676037 0.00000000
-0.00110083 -0.21328165 0.00000000
0.52664459 -0.48634690 0.00000000
-0.61153823 -0.25892931 0.00000000
-0.01092957 0.10015125 0.00000000
0.59786010 0.17867441 0.13514410
-0.36443037 -0.15403357 0.00000000
-0.01185797 0.77459300 0.00000000
-0.79401094 0.68018186 0.00000000
-0.64575619 -0.74739438 0.00000000
0.03129839 -0.39929840 0.00000000
0.00259155 -0.56288779 0.00000000
-0.27115411 -0.11338493 0.00000000
-0.79005593 -0.29244035 0.00000000
0.23431873 0.50259721 0.36333025
-0.42733791 0.75372994 0.00000000
-0.19937791 -0.49739429 0.00000000
0.13996024 0.24732763 0.00000000
0.20838416 0.54603690 0.26250836
0.70087570 -0.00018164 -0.00000079
0.34147534 0.38381368 0.43029583
-0.14195231 -0.66520631 0.00000000
0.36960334 0.25905725 -0.00000031
-0.55693072 0.49547482 0.00000000
0.23558772 0.56205237 0.01358605
0.15696889 0.63079005 -0.00000019
0.20753592 0.05165237 0.00000000
0.25022760 0.51275480 0.21319868
-0.26893374 0.01207992 0.00000000
-0.79301381 -0.41390979 0.00000000
0.06377483 -0.70158613 0.00000000
0.08940554 0.12986098 0.00000000
0.47463456 0.15665518 -0.00000044
-0.54831696 0.14281075 0.00000000
-0.38114211 0.72099274 0.00000000
-0.65972227 0.08549339 0.00000000
-0.39947364 0.07815391 0.00000000
-0.50176603 -0.55162328 0.00000000
-0.05419385 -0.38803270 0.00000000
-0.26727784 -0.07303413 0.00000000
-0.73421752 0.00448136 0.00000000
-0.13865067 0.21118554 0.00000000
-0.61504650 -0.12726945 0.00000000
-0.59075409 0.31271940 0.00000000
-0.24286392 -0.11791574 0.00000000
0.42788664 0.11913974 -0.00000031
-0.50396574 -0.00481050 0.00000000
0.72793424 -0.73812485 -0.00000008
0.38764358 0.32816213 0.48491544
0.71024287 -0.46326730 -0.00000040
0.34991008 0.40520850 0.25849041
0.34041995 -0.22927333 0.00000000
-0.76623082 -0.70636672 0.00000000
0.04040665 -0.75281268 0.00000000
0.50518548 -0.58039379 0.00000000
-0.11956497 0.53961444 0.00000000
0.33743393 0.02238423 -0.00000003
-0.32731074 -0.31744441 0.00000000
0.15554193 0.64389873 0.00321569
0.01541318 -0.55853552 0.00000000
-0.75427628 0.50742823 0.00000000
-0.61718488 -0.15383928 0.00000000
-0.45129037 0.44869822 0.00000000
0.29049927 0.44502258 0.37135929
-0.23389699 -0.66310984 0.00000000
0.42214525 0.28212506 -0.00000044
0.31482273 -0.14126807 0.00000000
0.46238381 0.28275114 0.31599152
-0.76026684 0.56633568 0.00000000
-0.30034494 -0.44002998 0.00000000
0.05589598 0.28633931 0.00000000
-0.69372040 -0.17910099 0.00000000
-0.29341078 0.17447464 0.00000000
-0.08784954 0.30650425 0.00000000
-0.52109814 0.68619984 0.00000000
-0.19187149 -0.52260202 0.00000000
-0.04932543 0.17977554 0.00000000
0.12380953 -0.69793838 0.00000000
0.49169624 0.29815486 0.05844678
0.30391401 -0.02523248 0.00000000
0.24448252 0.34316134 -0.00000012
0.07378654 -0.33834264 0.00000000
-0.54106212 -0.76415551 0.00000000
-0.27512142 -0.61763966 0.00000000
0.28573334 0.05654615 0.00000000
-0.15960398 -0.30636096 0.00000000
0.15010449 0.56196696 -0.00000011
-0.58617544 0.32203597 0.00000000
0.12770253 -0.60430467 0.00000000
-0.51857483 -0.35108307 0.00000000
0.16130076 0.42236605 -0.00000001
-0.76488537 0.77749449 0.00000000
-0.60702735 0.13705368 0.00000000
-0.61531454 -0.37333104 0.00000000
-0.16697763 -0.02228777 0.00000000
0.67496300 -0.56975138 -0.00000023
0.49394462 0.29373500 0.07095348
-0.50865549 0.58545870 0.00000000
0.15009230 0.15126041 0.00000000
-0.56669343 0.36552724 0.00000000
0.49706426 -0.14509653 -0.00000023
0.13813508 0.35495517 0.00000000
0.63302368 0.03346064 -0.00000067
-0.12252554 -0.74607879 0.00000000
0.12109595 -0.64112425 0.00000000
-0.06395675 0.33468163 0.00000000
0.23420055 0.56253296 0.01880762
0.64504606 -0.48731908 -0.00000024
0.25375748 0.49514920 -0.00000027
-0.48499134 0.76400590 0.00000000
-0.72625089 0.47704503 0.00000000
-0.71564817 0.12169178 0.00000000
0.58143753 0.20898780 0.05513938
-0.34684369 -0.37360960 0.00000000
-0.06710222 0.09469599 0.00000000
-0.21821760 -0.78433466 0.00000000
-0.69270879 0.65626913 0.00000000
-0.25781459 -0.15835243 0.00000000
-0.72289705 -0.05504235 0.00000000
0.48127645 -0.31008899 -0.00000005
0.66602838 -0.75600100 -0.00000005
0.51963145 -0.56917906 0.00000000
-0.29727259 0.28094968 0.00000000
-0.56038445 -0.37828568 0.00000000
-0.29815453 0.69562268 0.00000000
0.08813189 -0.24782562 0.00000000
0.34375563 0.38850766 0.39012712
0.65767568 -0.29552811 -0.00000044
0.29746193 0.46465865 -0.00000034
-0.20267990 -0.30726850 0.00000000
-0.47071031 0.61188090 0.00000000
-0.34567982 -0.79258597 0.00000000
-0.23670827 0.36138642 0.00000000
0.02040279 0.56964976 0.00000000
-0.18639165 0.16600008 0.00000000
-0.31584415 -0.23553506 0.00000000
-0.74978036 -0.02604513 0.00000000
-0.08467987 0.52910972 0.00000000
-0.26922661 -0.34813076 0.00000000
-0.38462251 0.69578701 0.00000000
-0.21533671 0.54962718 0.00000000
-0.67408961 -0.25680581 0.00000000
-0.06156716 -0.23783246 0.00000000
0.38586384 0.34352213 -0.00000042
-0.05301476 -0.63639903 0.00000000
0.66865742 -0.03335129 -0.00000069
-0.07400043 -0.18051347 0.00000000
-0.66537225 -0.41293395 0.00000000
0.20257880 -0.72311944 0.00000000
-0.69573623 0.09070715 0.00000000
-0.46921197 -0.42139125 0.00000000
-0.03896746 0.35430309 0.00000000
0.13217820 -0.04994480 0.00000000
0.30626595 0.46916264 0.14151400
-0.30114615 0.45007494 0.00000000
0.43807194 -0.28206864 0.00000000
0.04126439 0.75217301 0.03779185
0.04171493 0.71132582 -0.00000001
0.13702866 -0.09986951 0.00000000
-0.05382569 -0.17900653 0.00000000
0.28325689 0.18031201 -0.00000006
-0.69805425 0.61665410 0.00000000
-0.32133296 -0.58563024 0.00000000
0.46894279 -0.67839867 0.00000000
0.36614436 0.36822820 0.37797859
0.51030642 -0.41801119 -0.00000001
-0.39451030 -0.12644459 0.00000000
0.27598149 0.45711848 0.38530827
0.42074728 -0.66090930 0.00000000
0.28852350 0.03038054 0.00000000
-0.64743090 0.68102640 0.00000000
-0.40269530 0.36753538 0.00000000
-0.61090291 0.58519500 0.00000000
-0.37893036 -0.63392341 0.00000000
-0.66073602 0.43825427 0.00000000
-0.06042103 -0.63301939 0.00000000
-0.16383234 -0.54309827 0.00000000
-0.66580874 0.31940669 0.00000000
0.05387754 -0.31942925 0.00000000
0.58087116 -0.29322278 -0.00000027
-0.76290065 -0.09274208 0.00000000
-0.28019619 0.68100446 0.00000000
0.69092053 -0.07578690 -0.00000070
0.36243880 0.37140048 0.38104999
0.02804122 -0.37937638 0.00000000
0.28893933 0.07339921 0.00000000
-0.06756636 0.29826745 0.00000000
-0.58003646 -0.37761381 0.00000000
0.10871601 0.24935348 0.00000000
0.57282180 0.22056168 0.03810169
0.44832429 0.26172641 -0.00000048
0.10478492 -0.43730783 0.00000000
-0.79085618 0.19830497 0.00000000
-0.64787149 -0.69151986 0.00000000
-0.24469115 -0.16656847 0.00000000
-0.17753302 0.43737829 0.00000000
0.62805742 -0.48191330 -0.00000021
-0.68083793 -0.16428784 0.00000000
0.51736003 -0.41103506 -0.00000003
-0.35380253 0.28983563 0.00000000
-0.78730440 0.44473770 0.00000000
-0.72978616 -0.72134984 0.00000000
-0.66237980 -0.51141584 0.00000000
0.42558786 -0.39205196 0.00000000
-0.06859075 -0.20155109 0.00000000
0.52936566 -0.68748021 0.00000000
0.40721098 0.33506331 0.33246776
-0.11484881 -0.76811492 0.00000000
-0.18122303 -0.31931657 0.00000000
-0.12319454 0.36629936 0.00000000
-0.06090434 -0.34552863 0.00000000
0.59466201 -0.10925532 -0.00000047
-0.35553718 0.01062688 0.00000000
0.47068486 0.11226742 -0.00000040
0.15333845 0.45793334 -0.00000002
0.34339711 -0.76927322 0.00000000
0.20996737 0.03821276 0.00000000
-0.55902892 -0.36687639 0.00000000
0.53586817 0.22201924 0.24254312
0.69034219 -0.30077767 -0.00000050
-0.71308023 -0.60113853 0.00000000
-0.79209226 -0.57318425 0.00000000
0.08589938 0.70813841 0.03433375
-0.73868412 0.75513434 0.00000000
-0.68524414 0.23148729 0.00000000
0.65237463 -0.53466713 -0.00000021
-0.70729858 -0.75484955 0.00000000
0.38102204 0.32219535 -0.00000039
0.46142995 0.07298581 -0.00000034
0.22975227 0.50100541 -0.00000023
0.43814623 -0.49494377 0.00000000
0.34273583 0.44687888 0.05980851
0.49269933 -0.42080018 0.00000000
-0.57080972 0.03910432 0.00000000
0.09516170 0.56686741 0.00000000
0.06928196 0.71366185 0.09823032
0.23100542 -0.17084499 0.00000000
0.31820855 -0.42414257 0.00000000
0.42326948 0.35196385 0.14263861
-0.17609385 -0.45038059 0.00000000
0.33491218 0.09774078 -0.00000009
-0.79282767 -0.56676036 0.00000000
0.17014620 0.20241942 0.00000000
0.64165586 -0.19580884 -0.00000049
0.45960411 0.28199571 0.33635217
-0.34496218 0.41043055 0.00000000
0.79571879 -0.06912248 -0.00000091
-0.44951096 0.32754260 0.00000000
-0.40700597 0.22832666 0.00000000
0.51162112 -0.36724290 -0.00000006
0.13966762 -0.18404411 0.00000000
-0.03737802 -0.07049549 0.00000000
-0.01684293 0.75947171 0.00000000
0.24621111 0.37525591 -0.00000015
0.38219038 0.34575647 0.41498777
0.60991538 0.18644693 0.02094495
-0.00290810 0.41785362 0.00000000
0.38091287 0.35920185 -0.00000042
-0.62550873 0.43407175 0.00000000
0.37245747 0.34089243 0.49905986
0.09656987 -0.40926147 0.00000000
0.18662472 0.21334668 0.00000000
-0.76511317 0.76741934 0.00000000
-0.34973428 0.28056869 0.00000000
-0.24895437 0.24272858 0.00000000
-0.44706944 -0.68539876 0.00000000
-0.06514830 -0.53921849 0.00000000
0.44483954 0.33115739 0.13824040
0.58982998 -0.53322732 -0.00000008
-0.33985206 -0.41891950 0.00000000
0.33287293 0.39428946 0.41950619
-0.20457582 0.45399487 0.00000000
-0.43337417 0.61390078 0.00000000
-0.02721332 -0.32657063 0.00000000
-0.15134281 -0.43943879 0.00000000
0.53374386 -0.31893384 -0.00000015
0.43264776 -0.71849585 0.00000000
-0.35748625 0.51666158 0.00000000
0.05226909 0.59860551 0.00000000
-0.25504977 0.17889677 0.00000000
-0.54717880 0.50158083 0.00000000
0.30740055 0.44828042 0.25525147
-0.73621404 0.76774693 0.00000000
0.43543214 0.35471493 0.05674215
-0.08700372 0.45048577 0.00000000
-0.44538265 0.26487330 0.00000000
0.74390870 -0.52045429 -0.00000035
0.65322530 0.08114266 -0.00000076
-0.33351588 0.58528531 0.00000000
-0.39078218 -0.17800646 0.00000000
0.78767616 -0.53776318 -0.00000033
-0.01128408 -0.75643456 0.00000000
0.41261199 0.38729778 0.00051351
-0.76549774 -0.73734313 0.00000000
0.47937554 0.19850975 -0.00000049
-0.15990859 -0.55153567 0.00000000
-0.26433903 0.57317460 0.00000000
-0.28482810 0.32844681 0.00000000
