ply
format ascii 1.0
element vertex 367
property float x
property float y
property float z
end_header
0.16246849 0.46772823 0.14058676
0.48465532 0.06777609 0.20497303
0.55032831 0.17563619 0.06129603
0.59715587 0.12422521 0.06509088
0.64893275 0.09867861 0.04337342
0.09708453 0.59264648 0.09129531
0.16281871 0.23874599 0.32988149
0.13208570 0.24541782 0.34980264
0.49060974 0.28783360 0.01784604
0.02051658 0.75332290 0.02165774
0.30255660 0.45609424 0.03423331
0.19539031 0.33762619 0.22104678
0.24762967 0.54982424 0.00210622
0.27760515 0.23212527 0.24032681
0.15341404 0.17559560 0.38995302
0.46965161 0.27509108 0.04574857
0.59066731 0.06501092 0.11948968
0.49668998 0.07285701 0.19080217
0.44371396 0.23296218 0.10210441
0.05190495 0.66988266 0.06475400
0.22728594 0.53234947 0.03341811
0.24127743 0.23143443 0.27097595
0.32005760 0.27144673 0.17262255
0.34276876 0.26134363 0.16218369
0.17105380 0.30883959 0.26502967
0.09351952 0.54677391 0.13222690
0.12679303 0.53867698 0.11138226
0.22620735 0.42928353 0.11964476
0.04836992 0.72343302 0.02334399
0.32422793 0.28182533 0.16057675
0.27796271 0.38715479 0.11167437
0.16117164 0.15409812 0.40132892
0.16967691 0.43181121 0.16435595
0.12051086 0.37750557 0.25002453
0.20022386 0.22293088 0.31200629
0.69298756 0.09904028 0.00659876
0.15774381 0.45828632 0.15231588
0.50788844 0.23993057 0.04320153
0.15454035 0.63191175 0.01121519
0.11935602 0.25808254 0.34985638
0.39478984 0.23230422 0.14315596
0.36675966 0.19149205 0.20015411
0.19556159 0.39363655 0.17453150
0.31780976 0.14359713 0.28033623
0.15212116 0.54943550 0.08150451
0.29421547 0.25129285 0.21070474
0.22096793 0.47529694 0.08588588
0.32084969 0.45381829 0.02097188
0.38160309 0.21965989 0.16454285
0.26543751 0.43323433 0.08389301
0.69433749 0.09633222 0.00772320
0.20646106 0.37024844 0.18487146
0.35302547 0.31008330 0.11333750
0.43233013 0.31982711 0.03960969
0.28881770 0.36445466 0.12148158
0.21680582 0.29932594 0.23502655
0.58559692 0.08225406 0.10941121
0.17715093 0.44787884 0.14486478
0.30842513 0.10651800 0.31880561
0.20406120 0.22365235 0.30823189
0.38914090 0.10573581 0.25262544
0.42610830 0.11948414 0.21063536
0.53882706 0.19047086 0.05853607
0.29569533 0.42170003 0.06839084
0.17116769 0.40478551 0.18549746
0.07681137 0.56394130 0.13184658
0.34830385 0.16293605 0.23907740
0.25339380 0.30695996 0.19841334
0.13585036 0.40478966 0.21473464
0.13522629 0.60461444 0.04980716
0.57359636 0.19874460 0.02289854
0.25679556 0.33703756 0.17069431
0.11339822 0.29336050 0.32558087
0.18977278 0.59142232 0.01556774
0.02381114 0.74540859 0.02548268
0.26716676 0.27547368 0.21307909
0.19949131 0.44504970 0.12871069
0.11737270 0.38588643 0.24568386
0.09899477 0.63573706 0.05403707
0.12892044 0.36655319 0.25212988
0.29365531 0.39745682 0.09015208
0.43511662 0.15889122 0.17054977
0.20772468 0.17610602 0.34456450
0.21092367 0.43495876 0.12760009
0.05947260 0.58561391 0.12825830
0.45144972 0.13223992 0.17909271
0.08208143 0.50110090 0.17951170
0.10037911 0.60666490 0.07696112
0.18179964 0.60906518 0.00756169
0.59643465 0.18305621 0.01697879
0.32138997 0.29155082 0.15487419
0.19135527 0.14627311 0.38281736
0.11346438 0.66564429 0.01729521
0.05836663 0.57296437 0.13964710
0.18362492 0.14752883 0.38817799
0.31272885 0.16483134 0.26696214
0.08287023 0.55580169 0.13356936
0.07770408 0.52388215 0.16427422
0.24248904 0.52557147 0.02644254
0.45915258 0.18382724 0.13000330
0.13337982 0.60180539 0.05366169
0.16473660 0.26135799 0.30957207
0.39783806 0.40110466 0.00087355
0.25146908 0.54510999 0.00283053
0.37517864 0.34641236 0.06491705
0.10677320 0.62815481 0.05387466
0.26175669 0.25257388 0.23651806
0.39748010 0.14327250 0.21464252
0.23712730 0.19614106 0.30363294
0.37448263 0.26696596 0.13127109
0.51288038 0.19821481 0.07360709
0.47276482 0.27629325 0.04217563
0.14893046 0.50339735 0.12226340
0.30070773 0.39378437 0.08735362
0.54072547 0.08709372 0.14255559
0.27055165 0.48147762 0.03971565
0.21561854 0.52237588 0.05133579
0.54567564 0.09965463 0.12805727
0.29008970 0.30063435 0.17326856
0.39901972 0.39069813 0.00851131
0.21470481 0.40717316 0.14747448
0.30528238 0.21710277 0.22984953
0.11995291 0.38957030 0.24049754
0.39875561 0.11397823 0.23784071
0.35731882 0.27887112 0.13562499
0.45638955 0.28410116 0.04926901
0.53200573 0.09596860 0.14242712
0.24779221 0.12770525 0.35146415
0.76784128 0.02920005 0.00244781
0.13124973 0.29494575 0.30948839
0.12506305 0.63529783 0.03281744
0.28075001 0.41705886 0.08460752
0.54769957 0.24265444 0.00798459
0.70716661 0.03809194 0.04532146
0.12794378 0.52022356 0.12570792
0.28383833 0.29069322 0.18667507
0.43815628 0.26462466 0.08049087
0.11423596 0.38395748 0.24987796
0.62399173 0.15133944 0.02042279
0.17000069 0.42705846 0.16802289
0.27972770 0.42008013 0.08295246
0.15074757 0.31288800 0.27849016
0.11409421 0.67066497 0.01261683
0.09310276 0.62407690 0.06856934
0.55116624 0.18242788 0.05497905
0.46040493 0.18566704 0.12744315
0.11540146 0.39730006 0.23786607
0.47091347 0.30586115 0.01922769
0.38163882 0.33606306 0.06813705
0.66904098 0.05036088 0.06672954
0.22730573 0.28188834 0.24077062
0.05732390 0.71076924 0.02641555
0.51316094 0.18891558 0.08107412
0.23810320 0.39245880 0.14028467
0.15837018 0.60851306 0.02741728
0.34449479 0.28959957 0.13736007
0.53376693 0.12724265 0.11507554
0.37922364 0.28319275 0.11391078
0.07551837 0.68876511 0.02956973
0.45764136 0.27099606 0.05908296
0.24964055 0.22306265 0.27098316
0.38329527 0.13405032 0.23402239
0.61567706 0.18262516 0.00140389
0.35807323 0.16850001 0.22638229
0.30053481 0.43496984 0.05339721
0.62106180 0.10714215 0.05944184
0.48003271 0.28431976 0.02951263
0.32533813 0.35945049 0.09538766
0.37600470 0.32218525 0.08429199
0.36385807 0.11626786 0.26483813
0.34709606 0.20339361 0.20658070
0.21526553 0.40065178 0.15240960
0.23217411 0.42051393 0.12196538
0.50228983 0.13908079 0.13133568
0.50217211 0.07359383 0.18565318
0.13203554 0.46826300 0.16534065
0.30017424 0.37120929 0.10648640
0.65272850 0.13406648 0.01093132
0.50972325 0.11015054 0.14913402
0.34009677 0.41373271 0.03822516
0.15722381 0.38656205 0.21213016
0.44068888 0.27415198 0.07050585
0.40094545 0.23819952 0.13317840
0.40374079 0.28491583 0.09218512
0.41254231 0.15861256 0.18947092
0.38210919 0.39098138 0.02227789
0.57201976 0.12460592 0.08558715
0.56308722 0.13361615 0.08552282
0.33567387 0.39594457 0.05661482
0.15320817 0.29347712 0.29252407
0.60525674 0.13448830 0.04988639
0.27818537 0.40027463 0.10062745
0.21268697 0.55332184 0.02814125
0.19216482 0.59807706 0.00807740
0.11071938 0.40564978 0.23482944
0.40425733 0.33143580 0.05324116
0.35900304 0.35101947 0.07449521
0.17518164 0.29865906 0.27004099
0.39263001 0.15577115 0.20830987
0.34600872 0.10369827 0.29002324
0.27567190 0.48611206 0.03163923
0.55440849 0.13632821 0.09046294
0.16257830 0.50368679 0.11072414
0.37772506 0.32042721 0.08432318
0.13542759 0.50127375 0.13520116
0.18288410 0.16752967 0.37223175
0.49156180 0.23757233 0.05867171
0.21098217 0.14923386 0.36411613
0.17731141 0.54505956 0.06427129
0.33610237 0.37369162 0.07468439
0.40309796 0.12934396 0.22152337
0.34484455 0.10401757 0.29072276
0.47093093 0.27603558 0.04390735
0.28869921 0.22791867 0.23462442
0.32101399 0.29444188 0.15279184
0.48582825 0.08436406 0.19026788
0.13877577 0.24839394 0.34179962
0.70446676 0.04752756 0.03974455
0.12334930 0.41725463 0.21476445
0.24646971 0.26711234 0.23713771
0.33374092 0.09983073 0.30338237
0.19078775 0.26750219 0.28291622
0.21364427 0.52031505 0.05467667
0.15860040 0.41668272 0.18605217
0.11324721 0.58924323 0.08073129
0.40215197 0.23942937 0.13116118
0.10655204 0.37866637 0.26062053
0.26729980 0.36112860 0.14205121
0.13531108 0.26889193 0.32769698
0.40060207 0.16529670 0.19382271
0.31103981 0.17961445 0.25612095
0.39440757 0.17742883 0.18890662
0.69775218 0.05313479 0.04066138
0.12483817 0.49343443 0.15045908
0.72219425 0.07604892 0.00145273
0.19657299 0.59207428 0.00939770
0.50664425 0.24611124 0.03911436
0.56274557 0.20619948 0.02571019
0.23398215 0.44123614 0.10331141
0.40782580 0.24733196 0.11992057
0.20499696 0.31464452 0.23212062
0.12708414 0.41252118 0.21559130
0.17774980 0.24414960 0.31304556
0.50915521 0.15235224 0.11466333
0.63671649 0.05392575 0.09054114
0.36301142 0.41378388 0.01921056
0.10811280 0.32817087 0.30113581
0.21367010 0.39954606 0.15464599
0.42801049 0.36578795 0.00513279
0.31726879 0.26991528 0.17619951
0.22026098 0.33692434 0.20103645
0.01738215 0.77747726 0.00425434
0.25190595 0.34981140 0.16416655
0.23653759 0.23120785 0.27508786
0.31613541 0.27469474 0.17318071
0.46409383 0.20475939 0.10858140
0.16406491 0.26716727 0.30531844
0.19068260 0.50672114 0.08494295
0.08262874 0.62790942 0.07406805
0.45490396 0.31928274 0.02137036
0.15596280 0.38770360 0.21222907
0.26724750 0.16204183 0.30692753
0.18585072 0.44820586 0.13739112
0.43271497 0.14296947 0.18572064
0.24029741 0.29821292 0.21649843
0.26372749 0.15668945 0.31427339
0.35643795 0.44103709 0.00208872
0.16019113 0.55517572 0.07007036
0.14750861 0.14765182 0.41797829
0.52889472 0.19772179 0.06075617
0.28228432 0.37042826 0.12194506
0.24635614 0.38181621 0.14226320
0.31657436 0.46477610 0.01543910
0.15092704 0.61368185 0.02930030
0.34245068 0.10865786 0.28886282
0.18471076 0.23083606 0.31830516
0.20728217 0.28385088 0.25572407
0.22467826 0.36243480 0.17625798
0.23310713 0.55578333 0.00919631
0.38074660 0.29585665 0.10216476
0.54439449 0.21535240 0.03332580
0.28263611 0.23970692 0.22988428
0.35305899 0.27988422 0.13831316
0.16267288 0.14487816 0.40771961
0.10899264 0.49314573 0.16381726
0.02419584 0.69682091 0.06539209
0.73638517 0.04546349 0.01502660
0.40519235 0.25259376 0.11774444
0.14382331 0.41755649 0.19756328
0.24917024 0.46334431 0.07243192
0.35698307 0.21254139 0.19082084
0.30667186 0.21223003 0.23273347
0.35961771 0.29979628 0.11639662
0.47598195 0.14894077 0.14495373
0.03020262 0.74664354 0.01916842
0.62211907 0.04599412 0.10919412
0.47564763 0.10821824 0.17894681
0.05193919 0.71104890 0.03064227
0.32638928 0.25155824 0.18384692
0.11592120 0.38940746 0.24397039
0.66246367 0.09347835 0.03647607
0.24936210 0.42345485 0.10529961
0.39686081 0.11199245 0.24105364
0.38944024 0.35993630 0.04191199
0.09081648 0.51186764 0.16336532
0.26667726 0.46049833 0.06029328
0.64588356 0.09446322 0.04938817
0.12843375 0.19842166 0.39173648
0.26010168 0.46542838 0.06165568
0.10460140 0.58878189 0.08827149
0.29976225 0.29538983 0.16960236
0.32050008 0.28621182 0.16003142
0.12072797 0.64053619 0.03206962
0.28363860 0.13675238 0.31429496
0.13529021 0.52929598 0.11211406
0.18003832 0.19612269 0.35091442
0.55108923 0.15507995 0.07768558
0.61047393 0.11115696 0.06488404
0.18869939 0.54926163 0.05136345
0.19554619 0.27728832 0.27087417
0.13100861 0.54293907 0.10436322
0.38688716 0.19629940 0.17950925
0.50528723 0.17949980 0.09538895
0.47472015 0.19214524 0.11022720
0.10241431 0.60926723 0.07312152
0.13360742 0.45603800 0.17416085
0.08558950 0.42699975 0.23795886
0.27339199 0.38357091 0.11842599
0.37620965 0.38788527 0.02972584
0.19786716 0.53620470 0.05458352
0.22658066 0.30512074 0.22213580
0.38833928 0.22171955 0.15726031
0.37958720 0.24780327 0.14291056
0.24626361 0.49609160 0.04772529
0.10883535 0.68339932 0.00642749
0.10962317 0.36329460 0.27080482
0.31690401 0.35587016 0.10533504
0.28055269 0.38024294 0.11525270
0.28486124 0.48329926 0.02635976
0.39797920 0.36194873 0.03317592
0.51382500 0.27332896 0.01063411
0.16218103 0.23446077 0.33395734
0.44896069 0.24717292 0.08599455
0.26238796 0.46280667 0.06193342
0.42122614 0.13091984 0.20520936
0.08537857 0.62255496 0.07622457
0.39164954 0.29995325 0.08974583
0.01584349 0.75226933 0.02639909
0.49218372 0.21350504 0.07808334
0.12770903 0.35274130 0.26456836
0.25621179 0.19948962 0.28505972
0.43327767 0.17472877 0.15895958
0.30184263 0.29325593 0.16964671
0.20839834 0.44356695 0.12256379
0.22322345 0.30110589 0.22823942
0.39803204 0.23765273 0.13604325
0.30422321 0.30059907 0.16159594
0.37988526 0.27117321 0.12331458
0.33052504 0.32408589 0.12037332
0.15789627 0.23554322 0.33660868
0.42544582 0.22991680 0.11975095
0.58694673 0.13150561 0.06751573
0.37893844 0.41075405 0.00853230
0.12992445 0.43137404 0.19763055
0.58101475 0.16361003 0.04584620
0.45199382 0.34040099 0.00629490
0.10664290 0.42469794 0.22243369
