ply
format ascii 1.0
element vertex 360
property float x
property float y
property float z
end_header
0.08827875 0.73034471 0.05485217
0.32993418 0.48991573 0.05846427
0.28075024 0.55821544 0.11476347
0.15072697 0.65079981 0.00449963
0.50120789 0.43091795 0.38913640
0.10852810 0.73100030 0.11642104
0.39350653 0.45301366 0.13701275
0.07826673 0.72390813 0.00640828
0.58916855 0.26480252 0.15895681
0.42236671 0.48962390 0.32983473
0.23411918 0.65068185 0.24975683
0.53292477 0.30496594 0.11159741
0.44660750 0.47172317 0.34850723
0.37581649 0.48961553 0.19271122
0.33081293 0.54963320 0.23693059
0.40111056 0.48397872 0.25060534
0.23021965 0.56992722 0.00043547
0.47052500 0.41538721 0.25302884
0.39750642 0.40262046 0.00037655
0.56224662 0.30929804 0.21071409
0.53941441 0.37556592 0.33863965
0.47425202 0.45007512 0.36616790
0.39412606 0.50439525 0.29016507
0.24952421 0.59821665 0.14060783
0.45153627 0.42026725 0.21147633
0.31314874 0.54642266 0.17545086
0.42927527 0.37789658 0.02112519
0.11442158 0.71973634 0.10060400
0.63070935 0.20610958 0.10844085
0.46841508 0.40500048 0.21622404
0.37794977 0.44624493 0.07126042
0.32709560 0.51362175 0.11992240
0.15441468 0.69384199 0.14212729
0.36956978 0.47905374 0.14320737
0.50205350 0.41476375 0.34404984
0.48108074 0.38285351 0.18830000
0.49385563 0.33074221 0.07244768
0.38078547 0.52175009 0.30198792
0.68500352 0.16082028 0.13496169
0.59231842 0.22590962 0.05368751
0.33310834 0.55021942 0.24541749
0.37878874 0.50279510 0.24028130
0.14095940 0.70457399 0.13410667
0.62419116 0.18223654 0.01893350
0.32711834 0.53441119 0.18121783
0.71999073 0.11224439 0.09494075
0.60938221 0.20521110 0.04298274
0.51713479 0.41330472 0.38416988
0.63676459 0.19048503 0.08025763
0.49900237 0.41540229 0.33694428
0.44815424 0.39388341 0.12381080
0.34252810 0.55589294 0.28987008
0.47393328 0.48623246 0.47171924
0.27758548 0.58597416 0.18719698
0.45372298 0.51376265 0.49327779
0.46976840 0.39821798 0.20023423
0.16242824 0.65671217 0.05637470
0.51605111 0.42798215 0.42420587
0.44614655 0.36331579 0.02787106
0.66681820 0.17375550 0.11949918
0.53084934 0.30054253 0.09245718
0.54366606 0.36661598 0.32480240
0.57568741 0.26228935 0.11185085
0.74925381 0.05979926 0.02666565
0.59735167 0.25536683 0.15526775
0.64738137 0.17730327 0.07270332
0.39137200 0.48420218 0.22258162
0.53365743 0.37630361 0.32385698
0.41138494 0.49705556 0.31937894
0.22041278 0.65405697 0.21932934
0.20578913 0.64854270 0.16001965
0.53721744 0.29517362 0.09540009
0.41165701 0.41961700 0.09211015
0.42397454 0.42285335 0.13791896
0.50261426 0.33693320 0.11647671
0.33779359 0.58246034 0.35417190
0.42870453 0.50275797 0.38718301
0.09332031 0.71902210 0.03635329
0.12440708 0.69341713 0.05249822
0.65913570 0.15263018 0.03465530
0.19469486 0.61802495 0.03746485
0.55641508 0.37944484 0.40013388
0.33799529 0.51774955 0.16418077
0.55180430 0.37944555 0.38655630
0.11663734 0.68488783 0.00449475
0.63603890 0.25244534 0.26060390
0.15734091 0.67338753 0.09050337
0.15531991 0.69663256 0.15301217
0.23903212 0.57762480 0.04906025
0.09473508 0.72070915 0.04548872
0.56930673 0.32707924 0.28387573
0.61549044 0.28229448 0.28799582
0.55421281 0.28955874 0.12891743
0.34114167 0.56552762 0.31416270
0.72978264 0.09872838 0.08397272
0.74145240 0.06251525 0.01168822
0.34239945 0.55119270 0.27564806
0.37645462 0.55908620 0.39919457
0.57761180 0.29020694 0.19974047
0.40922114 0.39477390 0.01176892
0.40011871 0.46712956 0.19806036
0.25734016 0.60814202 0.19285923
0.73873210 0.09160490 0.08935055
0.30645749 0.55563134 0.18286507
0.26779929 0.53754824 0.01575233
0.61979324 0.25234196 0.21245322
0.66536671 0.17112511 0.10747753
0.64326286 0.22956790 0.21450166
0.54624158 0.35300797 0.29230964
0.47299090 0.45095631 0.36504900
0.53128576 0.34956914 0.23813418
0.44151279 0.49973720 0.41600889
0.58488154 0.33710620 0.35927770
0.50556386 0.35641870 0.18255183
0.63128948 0.22945778 0.17891373
0.51539892 0.35664558 0.21218593
0.53391242 0.27196720 0.01731946
0.46489441 0.33626518 0.00341818
0.67173743 0.14392287 0.04612509
0.52555740 0.36346143 0.26217827
0.30677274 0.58534604 0.27130881
0.15062185 0.68407083 0.10217881
0.37686947 0.56052381 0.40465045
0.18099536 0.66769564 0.14340633
0.47127160 0.44419900 0.34008378
0.71671140 0.10710524 0.07014695
0.16821980 0.67921507 0.13970689
0.32929227 0.52357239 0.15569815
0.47448656 0.34618384 0.06088071
0.47616947 0.44911617 0.36899084
0.60255545 0.27496591 0.22831637
0.35891369 0.56993514 0.37948543
0.24164632 0.59745157 0.11515273
0.57528514 0.29064351 0.19417381
0.47121188 0.46617413 0.40462872
0.70331800 0.12052949 0.07023774
0.42580923 0.39255428 0.05408649
0.44537228 0.39555523 0.12054132
0.69360101 0.16192546 0.16353764
0.31884792 0.50660408 0.07496329
0.53003138 0.27187335 0.00561268
0.73240018 0.09072474 0.06810970
0.49589029 0.47895989 0.51496756
0.38756838 0.55757898 0.42748761
0.49138942 0.34294584 0.10112603
0.44698328 0.45139208 0.28973520
0.56220049 0.24484989 0.02076755
0.69541407 0.12278907 0.05361414
0.13480721 0.70291197 0.11109245
0.62349766 0.23966961 0.18604103
0.42195496 0.52831107 0.44256285
0.49293444 0.31771097 0.03135539
0.43688253 0.44984218 0.25542191
0.60329789 0.28413650 0.25751176
0.38489860 0.47534305 0.17742467
0.42753637 0.43662885 0.18898027
0.50050724 0.32985890 0.08943622
0.15839830 0.66742712 0.07606319
0.16170378 0.66582799 0.08108862
0.03724503 0.77511609 0.03640864
0.23412658 0.64901221 0.24486130
0.32637811 0.56884909 0.28046367
0.39345258 0.47047672 0.18828546
0.32862449 0.52706277 0.16401127
0.17918292 0.65893161 0.11225662
0.56817240 0.26313603 0.09221148
0.51670849 0.43398133 0.44381079
0.59878629 0.23373854 0.09579396
0.45555729 0.47293529 0.37843591
0.50949532 0.43885234 0.43691269
0.45634747 0.37406310 0.08956717
0.69216472 0.16197294 0.15944734
0.12568393 0.71397430 0.11680330
0.51408160 0.37625909 0.26607135
0.56781793 0.35359526 0.35758555
0.33806604 0.48443833 0.06628210
0.39426196 0.53486687 0.38031003
0.30893010 0.59672529 0.31117663
0.29981875 0.56746846 0.19817527
0.57418740 0.24257390 0.04936772
0.31564704 0.50300992 0.05495083
0.68298024 0.15142454 0.10133081
0.66464943 0.15758568 0.06548904
0.22135174 0.65012240 0.21050683
0.12169351 0.68372047 0.01594792
0.72948647 0.11016645 0.11678740
0.39472461 0.50931275 0.30641094
0.47529271 0.42084482 0.28314433
0.54114038 0.29694787 0.11217924
0.33013436 0.50411493 0.10087282
0.44293261 0.50862247 0.44635931
0.41307580 0.49551186 0.31981242
0.39291155 0.45141149 0.13054171
0.24520420 0.57654476 0.06405731
0.33459583 0.58167422 0.34243873
0.44164810 0.42282990 0.18990143
0.18771313 0.65861481 0.13644679
0.44040638 0.36193615 0.00690207
0.25594234 0.54807597 0.01183754
0.46256927 0.50507462 0.49374387
0.14788474 0.67547387 0.06879801
0.50573623 0.37780160 0.24603581
0.62165970 0.26214361 0.24681769
0.38131735 0.53001678 0.32790142
0.45892656 0.47998652 0.40912616
0.44999620 0.45197654 0.30033016
0.47501287 0.46029502 0.39850825
0.64195549 0.25134796 0.27479729
0.41875875 0.44662753 0.19257651
0.44805866 0.48846361 0.40208489
0.60834706 0.20600353 0.04226781
0.22909740 0.63023680 0.17475247
0.63231844 0.19289950 0.07427394
0.45316249 0.34801778 0.00347905
0.44654357 0.35957932 0.01803582
0.15858264 0.68891531 0.13989276
0.69638467 0.16272128 0.17407985
0.38593733 0.52533251 0.32771200
0.33249316 0.48550195 0.05300156
0.58168757 0.23409294 0.04647918
0.35111985 0.54965258 0.29679525
0.20713301 0.62232584 0.08676419
0.17934659 0.63602483 0.04527435
0.43594217 0.51406831 0.44181013
0.29329246 0.58175331 0.22102578
0.46678185 0.50365341 0.50196499
0.32451904 0.51891440 0.12792163
0.63396871 0.17176028 0.01687580
0.40399376 0.52946007 0.39304781
0.58524752 0.30140570 0.25521114
0.52586478 0.40086764 0.37325171
0.40537563 0.49629959 0.29945403
0.68755764 0.16450185 0.15332682
0.36657634 0.48094845 0.13997146
0.24870051 0.59243250 0.12114648
0.50617623 0.44359389 0.44110215
0.57560211 0.31507280 0.26705572
0.56431204 0.28398088 0.14223361
0.59189510 0.28440803 0.22472841
0.72521698 0.09782373 0.06786174
0.31492600 0.48859546 0.01037424
0.14436515 0.70474482 0.14464042
0.21573390 0.59057313 0.01857816
0.42637083 0.50208932 0.37834051
0.25683105 0.54902852 0.01726023
0.39315349 0.45315742 0.13639635
0.32593468 0.58505601 0.32688990
0.27273121 0.55242473 0.07409140
0.26608470 0.56817031 0.10088964
0.53207326 0.28638285 0.05435925
0.55862820 0.34325188 0.30005687
0.52469939 0.34068125 0.19255996
0.46191469 0.45850021 0.35464567
0.64552051 0.19711521 0.12557229
0.10418030 0.73481721 0.11485738
0.58911514 0.22644462 0.04582901
0.43258908 0.42263925 0.16265965
0.68477708 0.17500912 0.17608324
0.63146865 0.20409085 0.10473163
0.31660140 0.56124014 0.22925977
0.34647343 0.54609168 0.27262330
0.50925303 0.36830291 0.22841810
0.11685566 0.70785642 0.07278426
0.70739406 0.10863864 0.04722193
0.54562759 0.35772014 0.30437958
0.23639935 0.64424223 0.23750655
0.40501755 0.46224239 0.19809473
0.59910393 0.28642738 0.25190690
0.46719897 0.46358556 0.38518614
0.03871182 0.77228528 0.03239122
0.68204880 0.13994262 0.06477134
0.42457485 0.38351133 0.02381810
0.40332118 0.50285554 0.31271183
0.55181217 0.31434187 0.19483761
0.50635469 0.43559134 0.41805869
0.62699008 0.25301754 0.23563883
0.29507041 0.60875797 0.30579585
0.43054032 0.44125220 0.21144398
0.41805214 0.44135359 0.17496277
0.34639597 0.51514030 0.18123750
0.40964738 0.52945715 0.40969014
0.68471688 0.11948412 0.01237560
0.72706372 0.08623285 0.03916350
0.14573909 0.69990283 0.13442636
0.41905269 0.50238609 0.35766128
0.68811804 0.14564610 0.09944395
0.50968313 0.40085402 0.32555383
0.43626937 0.41880146 0.16219579
0.29429567 0.54662162 0.12051129
0.42102367 0.51537842 0.40173104
0.62572855 0.24242148 0.20071621
0.26413941 0.59203166 0.16543625
0.55263656 0.37907541 0.38791740
0.61285794 0.19514787 0.02358133
0.31560051 0.59119701 0.31454054
0.13015161 0.71154028 0.12279293
0.46448952 0.41885224 0.24545836
0.27917701 0.53729308 0.04851001
0.36356720 0.49074161 0.15995151
0.28502104 0.59342533 0.23104113
0.59383672 0.25901437 0.15565825
0.59296459 0.28583479 0.23208041
0.51626432 0.35159045 0.19984660
0.57543510 0.35565570 0.38608786
0.18554281 0.68218076 0.19946076
0.27258447 0.57024473 0.12614202
0.02390426 0.78491551 0.02597874
0.39013687 0.44280472 0.09702151
0.42511159 0.44728056 0.21320990
0.53142691 0.36086217 0.27180973
0.50909495 0.42485493 0.39450863
0.61639625 0.28163850 0.28873181
0.33183560 0.51491737 0.13769829
0.42585829 0.49267611 0.34910738
0.53877521 0.40908337 0.43547210
0.53480911 0.34354863 0.23077963
0.25177443 0.63102311 0.24385618
0.27364951 0.62737989 0.29755244
0.32340002 0.54441422 0.19972752
0.13552679 0.69770879 0.09788738
0.43310136 0.48737386 0.35482335
0.45688254 0.44566908 0.30203503
0.37499687 0.44314402 0.05343087
0.45859715 0.45271733 0.32784325
0.14244565 0.69891483 0.12181679
0.47135010 0.42177713 0.27427846
0.52356613 0.43701985 0.47295669
0.34496379 0.54581416 0.26735967
0.41467732 0.41890219 0.09890021
0.39445102 0.43579513 0.08908286
0.21934709 0.58617955 0.01627984
0.41428599 0.47882363 0.27422678
0.60898155 0.24423568 0.15673652
0.57517427 0.29028288 0.19278514
0.36744708 0.45418024 0.06369900
0.71799451 0.11433269 0.09521201
0.42899650 0.47896641 0.31797239
0.28355375 0.56053936 0.12986460
0.10179188 0.70374513 0.01631027
0.53412920 0.37299886 0.31551331
0.51691121 0.31218269 0.08568931
0.36229128 0.47913596 0.12201308
0.04344592 0.76878989 0.03603944
0.46303770 0.47459173 0.40534568
0.26214844 0.59835780 0.17820419
0.15060183 0.70049798 0.15050091
0.32099763 0.57078052 0.27030551
0.55333507 0.27146348 0.07303878
0.45866382 0.50554401 0.48362392
0.25228810 0.58698028 0.11565481
0.32119972 0.49062341 0.03482402
0.54157233 0.26047561 0.00603452
0.48868370 0.39894927 0.25809681
0.38027638 0.46380591 0.12983268
0.54676658 0.32639718 0.21548247
0.74083924 0.08371394 0.07231612
0.34051156 0.57117069 0.32892680
0.38193172 0.45679909 0.11407159
0.17538114 0.62558162 0.00283849
0.21653622 0.64143008 0.17072371
