ply
format ascii 1.0
element vertex 1391
property float x
property float y
property float z
end_header
0.24651347 -0.08904103 0.00000000
-0.72167927 -0.26200062 -0.00000060
0.25296152 -0.14646032 0.00000000
-0.40389964 -0.51200128 0.00000000
-0.53514910 -0.27592483 -0.00000019
-0.21563943 0.51501268 0.20426475
0.10033843 -0.45239392 0.00000000
0.52528638 -0.41555625 -0.00000009
0.61213332 0.18574412 -0.00000153
-0.57479596 0.22029930 0.01444487
-0.32069787 -0.26898184 0.00000000
0.49730921 -0.26253510 -0.00000024
-0.27808043 0.45581794 0.19470303
0.44271588 0.00629456 0.00000476
0.59383321 0.05049681 0.00000112
0.26467696 -0.78945464 0.00000000
-0.33722600 -0.71129668 0.00000000
-0.45293182 0.31744024 0.08726836
0.24761604 0.44461927 0.00000118
0.30652863 0.03263714 0.00000689
-0.79508549 -0.12985820 -0.00000084
-0.55074579 -0.23829450 -0.00000026
0.50218600 -0.36835325 -0.00000008
0.20928872 -0.50026762 0.00000000
-0.62514275 0.12740992 0.13975400
0.41067871 -0.75818372 0.00000000
-0.37237394 -0.19108728 0.00000000
0.39955676 -0.63293177 0.00000000
-0.04107489 -0.22075477 0.00000000
-0.72480696 -0.19647619 -0.00000067
-0.08431046 -0.30724594 0.00000000
-0.36710227 -0.00189485 -0.00000007
0.72544038 0.00158413 -0.00000059
-0.31309894 -0.27590150 0.00000000
-0.61407351 0.11801340 0.20003591
-0.31170711 -0.03454258 0.00000000
0.06973925 -0.21758528 0.00000000
-0.28893891 0.41606849 0.27980042
-0.53571427 -0.26339883 -0.00000020
-0.02832614 -0.59704226 0.00000000
-0.12979262 0.62903214 0.12128320
-0.47065327 -0.18179911 -0.00000014
-0.67281264 -0.08423405 -0.00000065
-0.01465230 -0.48378110 0.00000000
0.50198025 -0.73636866 0.00000000
0.56896162 -0.55481929 -0.00000003
0.46988124 0.08558414 0.00000291
0.31162012 -0.51370728 0.00000000
0.16247702 -0.42794007 0.00000000
0.65293252 -0.58298445 -0.00000034
0.22104517 -0.45435029 0.00000000
0.16742684 0.37961569 0.00000378
0.08526640 -0.08960711 0.00000000
-0.32764772 0.42206240 0.14812922
-0.35522792 0.41936523 0.07483584
-0.46475437 0.30014393 0.10339123
-0.74738860 0.03727082 0.04518225
-0.34487826 0.03146237 -0.00000006
0.41893333 -0.47136235 0.00000000
-0.37192991 -0.34646562 0.00000000
0.52177089 -0.33636656 -0.00000022
-0.42929843 0.31292805 0.17017147
0.11344294 -0.50578535 0.00000000
-0.39785704 0.26071092 0.41658613
0.17256987 0.34729561 0.00000419
0.65603036 -0.65024215 -0.00000024
0.77598858 -0.46465787 -0.00000084
0.34223056 0.05450895 0.00000588
0.47908962 -0.68054152 0.00000000
-0.23313114 0.55766523 0.02711035
-0.16776231 -0.68342000 0.00000000
0.53316647 -0.63512939 0.00000000
-0.11783407 0.07131319 0.00000000
-0.44575140 -0.31519499 0.00000000
0.25431022 -0.76034045 0.00000000
0.52178496 -0.16675723 -0.00000052
-0.38052687 -0.78030384 0.00000000
-0.67510289 -0.13610914 -0.00000061
0.02130028 -0.53192449 0.00000000
0.52516556 -0.29272258 -0.00000031
0.49579114 -0.27822942 -0.00000021
-0.41451177 0.25014415 0.39865425
0.59077209 -0.07748921 -0.00000097
0.33628011 0.41378137 -0.00000001
-0.29853323 0.38620964 0.33948895
0.20214486 -0.50975418 0.00000000
0.70697409 -0.13294961 -0.00000137
0.36414009 -0.61813956 0.00000000
-0.58460718 -0.23806307 -0.00000033
-0.48318145 0.26609966 0.14939155
-0.08543668 -0.23543856 0.00000000
-0.40496284 0.34017169 0.16160601
-0.34828001 -0.38387850 0.00000000
0.00132371 -0.03438761 0.00000000
0.64165246 -0.43366671 -0.00000056
-0.45749649 -0.75618947 0.00000000
0.25961912 -0.59020442 0.00000000
0.37016511 0.12599812 0.00000415
0.71968520 -0.29020944 -0.00000114
-0.30686817 0.32404181 0.49805191
-0.34593064 -0.26450056 0.00000000
0.19467442 0.08400675 0.00000780
-0.21370865 -0.21944848 0.00000000
0.22491816 -0.11733043 0.00000000
-0.79734927 -0.60319996 -0.00000025
-0.28507861 0.42722589 0.25830695
-0.37929073 0.34838545 0.21302982
-0.58760726 -0.32855779 -0.00000026
0.34033626 -0.73561400 0.00000000
0.02598775 0.28115812 0.00000739
-0.27049035 -0.39455718 0.00000000
0.38556048 0.02344642 0.00000557
0.18654378 -0.38764009 0.00000000
0.28815663 -0.39923611 0.00000000
0.57736087 -0.79987907 0.00000000
0.00676534 -0.24344639 0.00000000
0.25531143 0.33624882 0.00000284
-0.26996422 -0.35238349 0.00000000
-0.09094295 0.09330863 0.00000000
-0.32375696 0.31824404 0.46538359
0.07325354 -0.44169396 0.00000000
-0.24286065 0.46987644 0.25703284
0.20579860 -0.46288425 0.00000000
0.33741581 0.17772061 0.00000392
-0.47097626 -0.03797415 -0.00000026
0.58395892 -0.64679188 0.00000000
-0.12082837 -0.54121220 0.00000000
0.66367090 -0.61364675 -0.00000033
-0.69476736 0.08614585 0.05621724
-0.11297773 -0.78750753 0.00000000
-0.09166570 -0.75842524 0.00000000
0.41338286 -0.53753859 0.00000000
0.18388049 0.16805246 0.00000670
0.45766997 0.02669303 0.00000413
0.43986693 0.03011395 0.00000441
0.34348390 0.29846519 0.00000178
-0.58350086 -0.39815772 -0.00000019
-0.36129346 -0.32663447 0.00000000
0.00000253 0.58009225 0.00000330
-0.20012727 0.52802581 0.21162564
0.18739761 -0.53726983 0.00000000
0.40631637 0.08626972 0.00000412
-0.41656914 0.29783785 0.25211400
0.32057345 -0.39490643 0.00000000
0.01120795 -0.39808559 0.00000000
0.01534813 0.39618781 0.00000583
-0.06235677 -0.52091783 0.00000000
0.21525978 0.33159581 0.00000369
0.22064860 0.39627740 0.00000251
-0.06110317 -0.67701536 0.00000000
-0.65004885 -0.33715379 -0.00000038
0.35174367 -0.58671945 0.00000000
0.07151709 0.04312834 0.00001027
-0.37362456 0.41500676 0.03348629
-0.22896844 0.49739873 0.21688589
-0.07596468 0.13449965 0.00000000
0.33820504 0.38367003 0.00000046
-0.65128851 -0.53505927 -0.00000021
-0.56704712 -0.71895736 0.00000000
0.28015548 0.13074622 0.00000580
0.22282808 0.07722622 0.00000748
-0.45122775 0.24876197 0.29457974
-0.04167458 -0.45585766 0.00000000
-0.65638340 -0.73795986 -0.00000004
-0.53463167 -0.15694883 -0.00000030
-0.49681392 0.22971286 0.21641442
0.65956932 -0.76494008 -0.00000005
0.00545037 0.66044205 0.00000201
-0.36881578 0.28640267 0.42645210
0.44904277 -0.48241702 0.00000000
-0.43668658 -0.00701556 -0.00000022
-0.06377326 -0.38987109 0.00000000
0.08496580 0.22208716 0.00000739
-0.28995407 0.34899852 0.47436264
0.40074924 -0.09042164 -0.00000014
0.34438977 -0.66381037 0.00000000
-0.38737327 -0.35148016 0.00000000
0.28728622 0.37970805 0.00000150
-0.18467636 0.54342914 0.21176578
-0.52996331 -0.15720595 -0.00000028
-0.21219078 0.47848290 0.32201993
0.07570913 -0.43559068 0.00000000
-0.26671731 0.44122094 0.27116776
-0.09934372 -0.54780340 0.00000000
-0.60045260 -0.79705268 0.00000000
0.47872743 -0.02957360 -0.00000058
0.30530140 -0.49808291 0.00000000
-0.26434186 0.51884937 0.04951098
-0.02228522 0.38931823 0.00000000
-0.70765060 -0.41122752 -0.00000044
0.65928197 0.03506423 0.00000012
-0.20720293 -0.70294464 0.00000000
-0.69321203 -0.51870656 -0.00000031
-0.47874668 0.20076683 0.35489169
0.52543837 -0.28559566 -0.00000032
-0.53271347 -0.61350024 0.00000000
-0.55825347 -0.74100596 0.00000000
-0.70057172 -0.41848028 -0.00000042
-0.13012388 -0.27652642 0.00000000
0.61826116 -0.26730123 -0.00000075
-0.68145704 -0.04756008 -0.00000071
-0.58453113 -0.48753062 -0.00000011
0.35900655 -0.64629930 0.00000000
-0.70183039 0.09470840 0.01019198
0.56758517 -0.25035632 -0.00000057
0.28902474 -0.39754781 0.00000000
0.05065246 -0.39840588 0.00000000
0.41381449 -0.29070672 0.00000000
0.30616081 0.04785635 0.00000666
-0.07421263 -0.58400851 0.00000000
-0.43940088 -0.52088809 0.00000000
-0.46776703 0.21222556 0.35348055
0.03600042 0.34083056 0.00000634
-0.56744796 -0.51154011 -0.00000005
-0.33964446 0.29131016 0.49792039
0.25914529 -0.47589913 0.00000000
-0.59815902 -0.47070369 -0.00000015
-0.48195425 -0.70016575 0.00000000
-0.58609027 -0.79752576 0.00000000
0.16164789 0.05224482 0.00000878
0.54003119 -0.78386003 0.00000000
0.18333618 0.37451506 0.00000359
-0.52610683 0.25698248 0.04980890
0.06558114 -0.58361340 0.00000000
0.60026842 -0.56204706 -0.00000015
0.15490201 0.27249801 0.00000558
-0.59770483 -0.76886356 0.00000000
-0.47271329 0.21200132 0.33957204
0.20792502 -0.44086725 0.00000000
0.19635577 -0.65178162 0.00000000
0.14283694 -0.03064998 0.00000000
0.12907697 -0.63783640 0.00000000
0.56931692 -0.59916031 0.00000000
0.36232138 0.20433724 0.00000299
0.35659865 0.04247188 0.00000581
-0.28081521 0.44224378 0.22663003
-0.50483006 0.19810423 0.28590614
-0.75423366 -0.47627470 -0.00000040
0.54324442 -0.19708087 -0.00000056
-0.69315761 -0.10883725 -0.00000068
-0.77933902 -0.00543526 -0.00000095
0.08806557 -0.76469505 0.00000000
0.64425558 -0.15854979 -0.00000106
-0.46221754 0.07177577 -0.00000034
0.13947067 0.01299969 0.00000970
0.57916367 -0.73075092 0.00000000
-0.24487181 -0.64633447 0.00000000
0.45485920 -0.34100527 0.00000000
-0.77317417 -0.48075530 -0.00000040
0.29720503 0.28880537 0.00000283
-0.33813241 0.37940958 0.24288015
0.54626727 0.07265834 0.00000166
-0.12198573 -0.11830358 0.00000000
-0.14164826 -0.38215798 0.00000000
-0.01839748 -0.26012850 0.00000000
-0.18910044 -0.75665623 0.00000000
0.04767698 -0.10391002 0.00000000
-0.10624672 0.14518493 0.00000000
-0.45729277 -0.48363480 0.00000000
0.04966332 0.49578324 0.00000381
-0.00373464 0.34658518 0.00000000
0.07184549 -0.05925617 0.00000000
-0.36810803 -0.03555754 -0.00000005
0.57921070 -0.23035160 -0.00000065
-0.13343313 -0.28680465 0.00000000
-0.41515166 -0.00191453 -0.00000018
0.53619081 -0.70782530 0.00000000
0.74779725 -0.06013367 -0.00000167
-0.05745211 -0.36103198 0.00000000
0.04825924 0.53470504 0.00000325
0.62433386 -0.63410646 -0.00000013
-0.65463251 0.09259457 0.15544015
-0.22369432 -0.61659765 0.00000000
0.64949262 -0.13520141 -0.00000112
-0.40509495 -0.66692382 0.00000000
-0.36676928 0.42000869 0.03894538
0.25610951 0.36461243 0.00000235
-0.67004627 -0.65414315 -0.00000014
-0.56496251 0.21171921 0.06868220
0.27023643 -0.02867102 0.00000000
-0.77738625 -0.18991797 -0.00000076
-0.55875862 -0.73358428 0.00000000
-0.44813886 -0.58202153 0.00000000
0.05240161 0.30994472 0.00000656
0.45035490 -0.19296108 -0.00000017
0.43157589 -0.70140094 0.00000000
-0.39793727 -0.72611606 0.00000000
0.18850791 0.05936339 0.00000827
-0.51763594 -0.02895721 -0.00000037
-0.70205653 0.08369801 0.04195701
-0.44186699 -0.56741315 0.00000000
-0.46111372 -0.23478386 -0.00000007
-0.60883170 0.14947356 0.12280976
-0.74493355 -0.47225001 -0.00000041
0.44752672 -0.75465232 0.00000000
-0.55627882 -0.36996773 -0.00000015
-0.29141426 -0.73753786 0.00000000
0.76659739 -0.65133053 -0.00000037
-0.08206091 0.67955697 0.11305619
-0.57580346 -0.16772451 -0.00000037
0.52163345 -0.21932165 -0.00000042
0.35457313 -0.68930835 0.00000000
-0.35000545 -0.38367525 0.00000000
-0.72286069 -0.74522364 -0.00000007
0.03790835 -0.16848369 0.00000000
-0.29257813 0.41775140 0.26412418
-0.23176691 0.01505992 0.00000000
0.64577985 -0.53622162 -0.00000039
-0.52532864 0.25304931 0.06368627
-0.20788278 -0.63151348 0.00000000
-0.16906159 0.55475634 0.22439460
-0.43448928 0.31763238 0.14102513
-0.11410836 0.04458118 0.00000000
0.23279476 0.43525344 0.00000162
0.04183639 0.74824882 0.00000006
0.31893632 -0.47924075 0.00000000
0.38305658 0.08865622 0.00000453
-0.57854342 0.02614951 -0.00000055
0.11628134 0.58989704 0.00000128
0.77168119 -0.47023872 -0.00000082
-0.68230569 -0.46063191 -0.00000034
0.14932282 0.48846066 0.00000234
0.66896635 -0.45021838 -0.00000064
0.75360125 -0.26159504 -0.00000134
0.09390351 0.50338519 0.00000303
-0.27432495 0.39107057 0.39647594
0.66536182 -0.74595755 -0.00000011
0.63288420 0.16382214 -0.00000153
0.28250572 0.28550899 0.00000317
0.75654298 -0.03496255 -0.00000175
-0.66111171 0.12056066 0.05398134
0.37831956 0.41299611 -0.00000080
0.42125139 -0.45638132 0.00000000
0.46435755 -0.09731210 -0.00000040
0.20177366 -0.20638727 0.00000000
-0.62122077 0.01692848 -0.00000063
0.21966533 0.08390619 0.00000743
-0.41578767 0.38219914 0.00592929
-0.57258725 -0.55775827 -0.00000002
0.15502837 0.38016325 0.00000396
0.48749837 -0.01215496 -0.00000064
-0.49326581 -0.13145180 -0.00000023
-0.74146146 -0.38017857 -0.00000052
-0.07808692 -0.64052045 0.00000000
0.42680472 -0.65841514 0.00000000
-0.09168002 0.67340267 0.10285077
0.24548995 -0.49843577 0.00000000
-0.26999429 -0.14276902 0.00000000
0.41795173 -0.14887205 -0.00000011
0.31001419 -0.57150108 0.00000000
-0.28142029 -0.70447695 0.00000000
0.02418066 -0.69701952 0.00000000
-0.30058756 -0.58007830 0.00000000
0.60271543 0.10011937 0.00000012
-0.17479390 -0.51511037 0.00000000
-0.24446347 0.42043877 0.39792886
-0.66368067 0.10753699 0.08477572
0.58045697 -0.09841704 -0.00000089
0.32368708 0.05100583 0.00000630
0.11230800 -0.76229572 0.00000000
-0.00043929 0.07676219 0.00000000
-0.27055198 -0.53906012 0.00000000
-0.78420866 -0.55887306 -0.00000030
-0.44897819 -0.19915526 -0.00000007
-0.66146713 0.12475368 0.04058397
0.42388123 -0.66724998 0.00000000
0.13771404 0.33447886 0.00000490
0.34259436 0.29170850 0.00000191
0.65440565 0.04025685 0.00000012
-0.06872728 -0.25225842 0.00000000
-0.31234679 -0.28979889 0.00000000
-0.08949986 0.69470567 0.04652486
0.59216982 -0.61662745 -0.00000002
-0.54313898 -0.77140635 0.00000000
0.08653193 0.19882379 0.00000771
-0.09067328 -0.01301009 0.00000000
0.53643328 -0.43914527 -0.00000010
0.30755240 -0.43926725 0.00000000
0.50375229 -0.63379025 0.00000000
-0.35946143 -0.75108767 0.00000000
0.17470299 -0.67001534 0.00000000
-0.73941338 -0.41634136 -0.00000048
-0.62930000 -0.36628622 -0.00000031
0.21368457 -0.00398612 0.00000000
-0.29881379 0.41330168 0.25886381
0.53171277 0.11379339 0.00000125
-0.57373065 -0.40267152 -0.00000016
-0.62641293 0.17178193 0.00531473
-0.41117564 0.25201610 0.40296695
0.12810715 0.27361801 0.00000596
0.24777991 -0.79972708 0.00000000
0.37307194 0.35900825 0.00000020
-0.54739904 -0.30504015 -0.00000019
0.75342900 -0.21969178 -0.00000141
-0.03032740 -0.78110605 0.00000000
0.22730334 -0.11627688 0.00000000
-0.32055238 -0.11417384 0.00000000
0.74485230 -0.57454598 -0.00000056
0.07159006 -0.75736243 0.00000000
0.71578681 -0.05539826 -0.00000154
0.24571615 -0.35816953 0.00000000
-0.51200032 0.24602948 0.12362204
0.54469538 -0.07732676 -0.00000077
-0.63221413 -0.70223403 -0.00000002
0.76861119 -0.43884969 -0.00000090
-0.45626122 -0.28328463 -0.00000002
-0.38647041 -0.38565201 0.00000000
0.08844960 -0.28147963 0.00000000
-0.05443000 -0.56717831 0.00000000
-0.37834123 -0.53816456 0.00000000
0.10729444 0.23009582 0.00000693
-0.04916233 -0.26584736 0.00000000
-0.28014106 -0.06991127 0.00000000
-0.46811777 -0.14930253 -0.00000016
0.32042745 -0.45891014 0.00000000
-0.65511751 -0.12026780 -0.00000058
0.12309456 0.29428941 0.00000573
0.27683219 -0.77319491 0.00000000
0.20003138 -0.28209129 0.00000000
0.64980882 -0.12630194 -0.00000114
0.64840627 0.04941687 0.00000009
0.46342203 -0.10537131 -0.00000038
-0.23721129 -0.05914245 0.00000000
0.56437761 0.19992447 -0.00000081
-0.78800875 -0.30788177 -0.00000062
0.23555812 -0.29849583 0.00000000
-0.55593044 -0.69211614 0.00000000
-0.13623077 0.60352570 0.17744835
-0.70017749 0.06755933 0.09502818
-0.22551246 -0.01616384 0.00000000
0.14905430 0.04241607 0.00000911
-0.75060624 -0.20548476 -0.00000071
-0.26389113 0.48592985 0.14780325
-0.61937344 -0.39723831 -0.00000026
-0.41037622 -0.27165988 0.00000000
-0.35055307 -0.45507589 0.00000000
-0.37360057 -0.46465456 0.00000000
-0.19371238 -0.54486471 0.00000000
-0.75210106 -0.77046174 -0.00000004
0.73903441 -0.28208464 -0.00000124
0.16621256 -0.29196948 0.00000000
0.41460156 -0.57822657 0.00000000
-0.71808088 -0.57688767 -0.00000028
-0.43534037 0.27126619 0.27509004
0.09801101 -0.47344708 0.00000000
0.57213330 -0.47331074 -0.00000019
-0.29025531 -0.56410605 0.00000000
0.43884259 -0.70717353 0.00000000
0.55383724 -0.77339226 0.00000000
0.53034210 -0.18091401 -0.00000053
-0.28385174 0.38014889 0.40058449
-0.08265692 -0.23376571 0.00000000
0.73777461 0.05542504 -0.00000173
0.56190825 -0.55087334 -0.00000001
-0.63300645 -0.62225795 -0.00000009
0.25422010 -0.79589784 0.00000000
-0.74170780 -0.32857627 -0.00000059
0.24994893 0.15547937 0.00000590
-0.43377823 0.29253966 0.21703015
0.41793054 -0.68480927 0.00000000
-0.46770781 -0.26629838 -0.00000006
0.67779392 -0.42264882 -0.00000073
-0.06123474 0.73806363 0.00206908
0.42429304 -0.19634552 -0.00000005
-0.45272845 0.34121701 0.01783276
0.74674988 -0.58904552 -0.00000053
0.28492379 0.49150470 -0.00000032
0.68422306 0.03642067 -0.00000038
-0.57675982 0.14516108 0.22998029
0.66268229 0.06851982 -0.00000051
0.50704777 -0.00465843 -0.00000074
-0.51171184 -0.03836647 -0.00000035
0.08994026 -0.08481469 0.00000000
-0.27424857 -0.40857789 0.00000000
-0.24030574 0.46384871 0.28231278
-0.28132543 0.41951364 0.29207811
0.12656583 0.24847826 0.00000636
-0.66245967 -0.72014713 -0.00000007
-0.01739849 0.77314538 0.02785574
-0.28651178 0.42597026 0.25778407
0.06839122 0.22799762 0.00000755
0.17714824 -0.57485831 0.00000000
-0.73401499 0.06295313 0.00892716
0.15909459 0.30608743 0.00000501
0.44161183 0.21484156 0.00000129
-0.77993464 -0.49640420 -0.00000038
-0.43129358 0.31887928 0.14676534
-0.36729595 -0.18507847 0.00000000
-0.67642760 -0.70057529 -0.00000012
0.06669687 -0.44472286 0.00000000
0.48782608 -0.29946890 -0.00000014
0.35287517 -0.25930703 0.00000000
-0.39318681 -0.48694134 0.00000000
0.18643481 0.47526589 0.00000184
0.18804841 -0.76090884 0.00000000
-0.27879640 -0.60619992 0.00000000
-0.35280478 0.42212027 0.07385827
0.58107495 0.10077997 0.00000052
0.50221181 -0.10149930 -0.00000055
-0.32864442 -0.00053291 0.00000000
0.40826064 0.25293562 0.00000130
0.29088104 -0.56304276 0.00000000
-0.12776576 -0.68466610 0.00000000
0.46907800 0.25114328 0.00000016
0.73261803 0.01317900 -0.00000093
-0.01483748 0.34935096 0.00000000
0.61803138 0.16830008 -0.00000132
0.30476296 0.47263205 -0.00000038
-0.49705714 0.27460465 0.08346903
-0.13593385 -0.15881234 0.00000000
0.55341756 -0.15339760 -0.00000068
-0.45909300 -0.38997155 0.00000000
-0.35388845 0.40944955 0.10798802
-0.78155774 -0.60205251 -0.00000025
0.08309119 0.15089507 0.00000848
-0.41550657 -0.38662037 0.00000000
-0.38658142 0.32954174 0.24705929
0.57431841 -0.47051379 -0.00000021
-0.36759868 0.34343621 0.26204661
-0.77205175 -0.58598238 -0.00000027
0.15228151 0.39548099 0.00000377
-0.34368333 -0.38784575 0.00000000
0.41280511 0.27101469 0.00000091
0.59957469 -0.61879164 -0.00000005
0.02470063 -0.68385035 0.00000000
-0.25482655 0.47250763 0.21403758
-0.05152073 -0.32653314 0.00000000
-0.34910762 0.41149673 0.11604006
0.43080059 -0.77716452 0.00000000
-0.69095457 -0.12918358 -0.00000065
0.70473373 0.06677007 -0.00000129
-0.40657386 -0.52811116 0.00000000
-0.27918664 0.35985237 0.47410813
0.70980376 -0.51657033 -0.00000070
-0.41629830 0.01128797 -0.00000019
0.24739587 -0.62937474 0.00000000
0.72615921 -0.34358218 -0.00000108
-0.05324700 -0.04244172 0.00000000
0.05873523 -0.43217984 0.00000000
-0.19400889 0.50688744 0.29190946
0.67513639 -0.09364678 -0.00000130
-0.68574417 -0.72199297 -0.00000010
0.76331741 -0.36706835 -0.00000108
0.06323180 0.22825637 0.00000762
0.11718789 -0.07728140 0.00000000
-0.27172771 -0.46429771 0.00000000
0.30646878 -0.15475786 0.00000000
-0.15794662 -0.08655156 0.00000000
0.44985753 -0.76047593 0.00000000
0.12046679 -0.04644777 0.00000000
-0.49434090 -0.71604568 0.00000000
0.74832219 -0.56154722 -0.00000060
0.18652171 -0.12946227 0.00000000
-0.32912430 0.40777075 0.18587607
-0.14235413 0.15551373 0.00000000
0.52834350 0.00269806 0.00000317
0.36711067 0.13548695 0.00000405
0.14997032 0.17683268 0.00000708
-0.63044924 0.00280894 -0.00000064
0.03423223 -0.61092108 0.00000000
-0.42768288 -0.31543273 0.00000000
0.04764324 -0.59411269 0.00000000
0.02893877 0.20051078 0.00000856
0.19468357 0.31458843 0.00000434
0.42453122 -0.56188345 0.00000000
0.01491017 -0.13736653 0.00000000
-0.48618752 0.31090292 0.00856889
0.22184160 0.29940215 0.00000410
-0.08743699 0.06222532 0.00000000
-0.47818986 0.23287053 0.26197088
0.41033569 0.18825150 0.00000234
-0.35549244 0.28293589 0.47590688
-0.31047627 -0.53038621 0.00000000
-0.37118715 0.37209108 0.16707402
0.25831845 0.38853940 0.00000191
0.45382413 0.29532367 -0.00000029
0.74483234 -0.03535599 -0.00000170
0.45270205 -0.78097069 0.00000000
-0.39865136 -0.03649655 -0.00000011
0.61395937 -0.51967824 -0.00000029
-0.28396872 0.50577623 0.03020685
0.51518911 -0.78909504 0.00000000
0.03005991 0.47870153 0.00000437
0.13187736 0.00599345 0.00000992
0.40920672 -0.02257442 -0.00000029
0.02835291 -0.04316654 0.00000000
-0.48010579 -0.10545756 -0.00000022
-0.42530033 -0.00357965 -0.00000020
0.49990645 0.05226942 0.00000289
-0.30847341 0.44903138 0.12517014
-0.05255860 -0.51047993 0.00000000
-0.61805969 0.16284119 0.05625420
0.78729564 -0.25124276 -0.00000137
-0.76268888 0.03613703 0.00345467
0.47912869 -0.60266596 0.00000000
0.21644515 -0.58961445 0.00000000
-0.30222854 0.39308602 0.30835038
0.25842956 0.34300891 0.00000267
0.59911537 0.02531857 0.00000143
0.15478785 -0.17408767 0.00000000
-0.22310564 -0.33902267 0.00000000
-0.08217699 -0.10190057 0.00000000
0.71768445 -0.21197361 -0.00000127
0.21167152 -0.52253294 0.00000000
-0.64918840 -0.69282556 -0.00000007
-0.32239038 -0.35530448 0.00000000
0.18192044 0.56530130 0.00000043
0.02598257 -0.17543171 0.00000000
-0.67897874 0.01416191 -0.00000075
0.31494713 0.23556279 0.00000338
-0.29438841 0.49938259 0.01834798
-0.14524971 -0.00229895 0.00000000
0.71765614 -0.34849194 -0.00000103
0.30256760 -0.43385950 0.00000000
-0.61959887 -0.52447581 -0.00000015
-0.11453049 -0.27043250 0.00000000
-0.15082216 -0.57527387 0.00000000
-0.00554488 -0.11564355 0.00000000
-0.31628156 0.32035807 0.48117533
0.33322087 0.07816616 0.00000566
0.07135027 -0.71058017 0.00000000
0.52521807 -0.08224252 -0.00000068
-0.60871309 -0.13719118 -0.00000047
-0.02150421 -0.21558353 0.00000000
-0.62084264 -0.01396852 -0.00000061
-0.20920758 0.13994178 0.00000000
0.65070260 -0.48072076 -0.00000051
0.53975135 -0.76295000 0.00000000
0.28938657 -0.39008370 0.00000000
-0.12609932 -0.07070096 0.00000000
-0.01195904 0.14680578 0.00000000
-0.33412194 0.43090904 0.10300151
-0.57295114 -0.21915030 -0.00000032
0.26452032 -0.35127136 0.00000000
0.72414619 -0.71065229 -0.00000022
-0.49542907 0.22873718 0.22336736
-0.06380367 -0.47449175 0.00000000
0.59915292 -0.51748717 -0.00000023
-0.15297545 -0.50624162 0.00000000
-0.62599969 0.14138640 0.09606205
-0.40312555 -0.44474515 0.00000000
0.32709175 -0.42312673 0.00000000
0.60301226 -0.65167975 -0.00000001
-0.45076445 0.31918889 0.08850162
-0.35036758 -0.04782978 0.00000000
-0.34436721 -0.11708605 0.00000000
0.21903561 0.35001773 0.00000331
-0.35677257 0.33981171 0.30461040
0.34018126 -0.67926598 0.00000000
0.29068935 -0.21304628 0.00000000
0.71543920 0.08371264 -0.00000177
-0.64558315 0.01191376 -0.00000068
-0.12925059 0.60716456 0.18728992
-0.77117974 -0.74745375 -0.00000007
-0.08481675 0.70494699 0.03015318
0.41925988 -0.64837730 0.00000000
-0.35075414 0.32552561 0.36441672
-0.66190183 -0.54554665 -0.00000022
0.52452350 0.23740721 -0.00000068
0.04609863 -0.06223744 0.00000000
0.50611430 -0.58448088 0.00000000
-0.12283266 -0.56259370 0.00000000
-0.39088884 0.27677077 0.38980705
0.24887756 -0.71297103 0.00000000
0.02172890 0.40894169 0.00000554
-0.37843853 0.27499041 0.43172297
0.65302700 -0.15284885 -0.00000110
0.04609417 -0.08099191 0.00000000
-0.22960600 -0.50758892 0.00000000
0.65886551 -0.22842725 -0.00000099
0.31847444 0.10474172 0.00000550
-0.40952396 -0.53064996 0.00000000
0.23648359 0.33219659 0.00000327
-0.23700158 0.42271289 0.41320926
0.08271162 -0.74538875 0.00000000
-0.10256137 -0.52042210 0.00000000
0.62721729 -0.09112651 -0.00000110
0.33885685 -0.50861239 0.00000000
0.60287708 -0.42814720 -0.00000040
0.72182000 -0.09547372 -0.00000150
0.24354652 0.19531719 0.00000540
-0.14386792 -0.41196388 0.00000000
0.12954257 0.54889053 0.00000171
-0.20610553 -0.43545017 0.00000000
0.28134450 0.47340980 0.00000005
-0.02043622 -0.31602994 0.00000000
-0.16767000 0.55933571 0.21500516
0.43957713 -0.23622972 -0.00000004
0.13569275 -0.46236914 0.00000000
0.31572548 -0.54820126 0.00000000
0.45578837 0.18665762 0.00000149
-0.16127063 -0.24846941 0.00000000
0.56834894 -0.29219741 -0.00000049
-0.43492350 0.31919783 0.13513504
0.57804912 0.06398491 0.00000119
0.57496107 -0.48917091 -0.00000017
0.75397491 0.04120516 -0.00000188
0.39254221 -0.69982612 0.00000000
-0.41603011 -0.26953214 0.00000000
0.57180005 -0.71845269 0.00000000
0.40432236 0.32424307 0.00000018
0.22119424 0.23479877 0.00000514
-0.74994856 -0.35535213 -0.00000056
0.06080051 -0.61135763 0.00000000
0.30180246 0.08267836 0.00000619
-0.10355252 0.67246795 0.07063383
0.12108967 0.06880000 0.00000914
0.20349550 0.23651302 0.00000538
0.16649114 0.17662635 0.00000684
0.30915451 -0.79721588 0.00000000
0.24684054 -0.42739341 0.00000000
0.67590213 -0.49041322 -0.00000060
0.44933346 0.22228418 0.00000102
-0.53449786 -0.06549762 -0.00000038
0.18433292 0.54961824 0.00000064
0.24922544 0.27315101 0.00000401
0.10189291 0.11354057 0.00000876
-0.60057586 -0.65835309 0.00000000
-0.66569370 0.02195672 -0.00000073
-0.48071307 -0.48435399 0.00000000
0.31931654 0.30683750 0.00000211
-0.40067387 0.35792628 0.12194296
-0.19504565 -0.22684170 0.00000000
-0.15390104 -0.78931981 0.00000000
-0.60923570 -0.57436270 -0.00000009
-0.10698484 0.15714990 0.00000000
-0.29590672 -0.14000534 0.00000000
-0.50814080 -0.43132401 0.00000000
-0.61800444 -0.27449104 -0.00000037
0.64502639 -0.51920563 -0.00000042
-0.73686033 -0.67835391 -0.00000015
-0.38290274 -0.22806905 0.00000000
-0.69765049 -0.08474100 -0.00000071
-0.71959168 -0.07579552 -0.00000076
-0.39124429 -0.34369200 0.00000000
-0.41345477 -0.38665491 0.00000000
0.19790491 -0.19410220 0.00000000
-0.47391385 -0.12782887 -0.00000019
0.16509075 0.25819862 0.00000564
-0.56647807 0.18195496 0.15188889
0.38670468 -0.19002548 0.00000000
0.38921019 -0.68950552 0.00000000
-0.49323511 0.21243320 0.27785313
-0.73393083 0.04267154 0.06891443
-0.38199326 -0.22459093 0.00000000
0.07356137 0.43622029 0.00000435
-0.51554555 -0.24084239 -0.00000018
-0.16658849 0.56955981 0.18807606
0.10351230 0.31520566 0.00000571
-0.18679468 -0.51528966 0.00000000
0.03619562 0.49037546 0.00000410
-0.57365465 0.15728782 0.20340727
0.05487668 0.23029245 0.00000772
-0.14976753 0.60740900 0.12613806
0.39709568 -0.34898418 0.00000000
0.28541297 -0.37224579 0.00000000
-0.36434889 -0.15820356 0.00000000
-0.50163656 0.24379420 0.16073264
-0.15460978 0.02857841 0.00000000
-0.55912769 -0.40606767 -0.00000013
-0.57034516 -0.57706141 0.00000000
-0.26228392 0.45772675 0.23560877
0.67516893 0.06603729 -0.00000071
0.62886417 -0.59286875 -0.00000022
-0.16053352 -0.66197580 0.00000000
-0.09698978 0.66766346 0.10411574
0.12333041 -0.78355181 0.00000000
-0.30803180 0.31599039 0.51833975
-0.16610077 0.06285534 0.00000000
0.49762741 0.08273751 0.00000242
0.07467994 -0.26223817 0.00000000
-0.34358263 0.28924614 0.49240017
0.39285803 -0.65031224 0.00000000
0.54531634 -0.29328123 -0.00000039
-0.18703011 -0.50646305 0.00000000
0.19309586 0.13570569 0.00000705
0.34769928 -0.13573283 0.00000000
0.13146006 -0.59083802 0.00000000
0.16653223 -0.08498238 0.00000000
-0.06985914 -0.07817712 0.00000000
-0.60134608 -0.41459250 -0.00000021
0.03863309 -0.60090542 0.00000000
0.45991537 0.27913183 -0.00000013
-0.37796408 -0.02882079 -0.00000007
0.12004362 0.10758360 0.00000857
-0.19361512 -0.49800524 0.00000000
-0.48863971 -0.39561975 0.00000000
-0.27134553 -0.36906704 0.00000000
-0.48177427 0.03429996 -0.00000035
0.12824245 -0.11791773 0.00000000
-0.05333005 -0.64068472 0.00000000
-0.01254874 0.55024654 0.00000000
-0.49951789 -0.19216861 -0.00000019
0.26486844 -0.69590908 0.00000000
0.40327117 -0.25649071 0.00000000
0.36709067 0.07703924 0.00000503
-0.32030526 0.36161470 0.34780365
-0.54566205 -0.20463532 -0.00000028
-0.63792896 0.11051332 0.15186095
0.44037747 0.22952487 0.00000107
-0.32269630 -0.53397936 0.00000000
0.08830009 -0.30963299 0.00000000
0.07323429 -0.77468914 0.00000000
0.12495763 -0.07528149 0.00000000
-0.58505815 -0.58189738 -0.00000003
-0.79420787 -0.19300082 -0.00000076
-0.54951721 -0.05407168 -0.00000042
-0.58428240 -0.23967433 -0.00000033
-0.27249327 -0.63597143 0.00000000
-0.65902960 -0.61642104 -0.00000015
-0.68434167 -0.14785632 -0.00000062
-0.25959995 -0.09758974 0.00000000
0.11306095 0.53651500 0.00000223
-0.51830995 -0.58933967 0.00000000
-0.49159709 -0.77858400 0.00000000
-0.66581130 -0.46427462 -0.00000030
-0.38508305 -0.28187415 0.00000000
-0.31748262 -0.40819269 0.00000000
0.75922799 -0.42011905 -0.00000095
0.31384835 0.17120665 0.00000448
-0.55815744 0.01126898 -0.00000049
-0.31446287 -0.41471258 0.00000000
0.01253343 -0.27637294 0.00000000
-0.56535435 0.15534621 0.23357497
0.34088409 -0.70957500 0.00000000
-0.36186126 -0.03184294 -0.00000004
-0.53530228 -0.18380094 -0.00000027
0.51187122 -0.23266238 -0.00000036
-0.45852125 0.32436550 0.05040624
-0.38985655 0.40513650 0.01474758
-0.47851118 0.23023409 0.26879004
0.54773408 0.08044078 0.00000150
-0.02622628 -0.16972147 0.00000000
-0.48413840 -0.29811320 -0.00000006
-0.33403412 -0.30129302 0.00000000
0.35310221 0.21699892 0.00000296
-0.18181702 0.56465679 0.15766245
-0.75522792 -0.31411937 -0.00000061
0.01281205 -0.10744331 0.00000000
0.31572950 -0.73609442 0.00000000
0.62345362 -0.17670739 -0.00000093
-0.69379044 -0.14656693 -0.00000064
0.63118416 0.05357640 0.00000035
0.57638490 0.13289841 0.00000007
0.09421095 0.28255588 0.00000634
-0.00997276 0.08319258 0.00000000
-0.10643906 -0.43922669 0.00000000
-0.14649469 -0.57010651 0.00000000
0.19022694 0.60693395 -0.00000047
-0.46523589 -0.52871752 0.00000000
-0.06521637 -0.79824138 0.00000000
-0.40872523 0.31504974 0.22452065
-0.47555661 0.26686314 0.16960169
-0.17666398 0.54038608 0.24432917
-0.65404272 -0.39906695 -0.00000034
-0.45634955 -0.71908337 0.00000000
0.31226513 0.17831600 0.00000439
-0.29650605 -0.58738363 0.00000000
0.13500653 0.00200498 0.00000993
0.53837168 -0.35775176 -0.00000025
-0.06257613 0.12436173 0.00000000
0.21207552 0.28328365 0.00000455
0.49057430 -0.21757092 -0.00000029
0.37017694 -0.43664259 0.00000000
-0.64092410 -0.61936152 -0.00000011
-0.62741971 0.16109882 0.03381619
-0.76298398 -0.02710888 -0.00000090
-0.18279786 -0.67480135 0.00000000
0.70298105 -0.42069095 -0.00000084
0.21963467 -0.44606575 0.00000000
-0.52700967 0.26838520 0.01356292
-0.15807663 -0.26750755 0.00000000
-0.01019023 0.47531432 0.00000000
0.69616032 -0.72734451 -0.00000018
-0.56912917 -0.49932027 -0.00000007
-0.16188835 -0.70609796 0.00000000
0.13510010 -0.64870960 0.00000000
-0.39773628 0.09585737 -0.00000023
-0.61863434 0.11856584 0.18497483
-0.19773936 -0.38991100 0.00000000
0.28246215 -0.26954004 0.00000000
0.46532515 -0.42341158 0.00000000
0.60695744 -0.58742386 -0.00000014
-0.64597553 -0.76948160 0.00000000
0.28096431 -0.46953964 0.00000000
0.02079758 -0.50129080 0.00000000
0.40046147 -0.38693643 0.00000000
0.26913595 0.49345553 -0.00000005
0.00432725 -0.71545303 0.00000000
0.52621913 0.13881785 0.00000094
-0.29800752 0.41850296 0.24591836
-0.23552823 -0.57345939 0.00000000
0.79211998 -0.01283274 -0.00000194
0.22709876 0.00273757 0.00000853
-0.56883746 -0.38117886 -0.00000017
0.53857583 0.14401530 0.00000061
0.40417749 -0.38506263 0.00000000
-0.73019797 -0.76557267 -0.00000004
-0.65614939 -0.62684250 -0.00000014
0.11360936 0.48287201 0.00000304
0.09475118 -0.49653485 0.00000000
0.03791418 0.76103973 -0.00000008
-0.58598518 -0.40786719 -0.00000018
0.21794787 0.44035983 0.00000182
0.04258117 0.50426710 0.00000379
-0.20900013 -0.64213455 0.00000000
-0.33299261 -0.75545591 0.00000000
-0.47356710 0.25003183 0.22503857
0.31973255 -0.68319881 0.00000000
0.20585524 -0.50043321 0.00000000
0.53447574 0.14605886 0.00000066
-0.43837407 -0.15272231 -0.00000009
-0.65401793 0.10804285 0.11174742
0.15121663 -0.39685044 0.00000000
0.46997285 -0.24804384 -0.00000015
0.53773326 -0.75045693 0.00000000
-0.36285338 0.40351731 0.09905514
-0.56328082 -0.21945170 -0.00000030
0.20414948 -0.12905672 0.00000000
-0.27917972 0.01825456 0.00000000
-0.12809496 0.61511230 0.16728413
-0.28173885 -0.57265937 0.00000000
-0.19270910 -0.75957501 0.00000000
-0.07692848 0.08788617 0.00000000
0.01363161 -0.51236302 0.00000000
-0.41329542 0.34562701 0.12099356
0.39479098 -0.06528699 -0.00000016
0.49999946 0.13346732 0.00000153
-0.55867386 -0.07680175 -0.00000042
0.67988914 0.05157276 -0.00000055
-0.26969880 -0.53482461 0.00000000
0.18049122 -0.30640408 0.00000000
0.37333071 -0.27221933 0.00000000
-0.12471526 -0.64624178 0.00000000
-0.24987824 -0.60550642 0.00000000
0.33356306 -0.33550078 0.00000000
0.70028800 0.04670155 -0.00000087
-0.65285486 -0.19614105 -0.00000051
0.24630736 -0.50908828 0.00000000
0.35879570 0.10052173 0.00000479
-0.13070977 -0.66622365 0.00000000
-0.73114216 0.05638890 0.03672392
-0.26328868 -0.26452079 0.00000000
-0.38310435 0.28641573 0.38432714
-0.65330374 -0.47544396 -0.00000027
0.12271785 0.21330146 0.00000695
0.23963451 -0.43091330 0.00000000
-0.16566086 -0.61446416 0.00000000
0.06921060 -0.47387818 0.00000000
-0.36155316 -0.31423262 0.00000000
-0.74217677 -0.14842340 -0.00000075
0.38801804 -0.20114546 0.00000000
0.27596632 -0.28104666 0.00000000
-0.15014841 -0.32884949 0.00000000
0.49286488 -0.62903547 0.00000000
0.34346631 0.11616029 0.00000483
0.37538663 -0.46455896 0.00000000
-0.00086302 0.12664385 0.00000000
0.22641259 0.45987332 0.00000133
-0.10191680 -0.55449134 0.00000000
0.11790311 0.48410016 0.00000296
0.52006376 -0.22946174 -0.00000040
0.71100593 -0.37964153 -0.00000095
-0.75628132 -0.55850118 -0.00000030
-0.66259462 -0.60917479 -0.00000017
-0.18989748 -0.56910515 0.00000000
-0.39176980 0.29646602 0.32920042
0.15818971 -0.63906407 0.00000000
-0.57915127 -0.04774576 -0.00000049
0.22998923 0.31369606 0.00000371
-0.36474389 -0.39607334 0.00000000
-0.27297047 -0.65857100 0.00000000
-0.38597280 0.29253179 0.35786355
-0.37309781 -0.22937620 0.00000000
-0.65272593 -0.17864284 -0.00000053
-0.19188285 -0.30437073 0.00000000
0.75852686 -0.21346684 -0.00000145
0.25369963 -0.38655806 0.00000000
-0.40990350 0.31050548 0.23443514
-0.75061667 -0.72215241 -0.00000010
-0.01855117 0.09664504 0.00000000
0.21437666 -0.42110145 0.00000000
-0.05679862 -0.45650184 0.00000000
-0.50949681 -0.10115729 -0.00000029
0.74363953 -0.23178981 -0.00000135
0.63969731 -0.66083866 -0.00000015
-0.46630657 0.21422631 0.35188925
-0.68968761 -0.40295196 -0.00000041
0.17130421 -0.74871600 0.00000000
-0.57356429 -0.18804564 -0.00000035
0.27502969 0.37378025 0.00000184
0.15684037 -0.78482211 0.00000000
0.36698687 -0.23340578 0.00000000
0.76443803 -0.57788056 -0.00000056
0.57092077 -0.68915242 0.00000000
-0.40299755 -0.33930916 0.00000000
0.39592153 -0.65545297 0.00000000
0.06167210 -0.16459943 0.00000000
-0.08720052 -0.31520876 0.00000000
-0.06111544 -0.78959519 0.00000000
0.18193561 -0.75773764 0.00000000
-0.75731754 -0.39672887 -0.00000050
0.44496769 -0.46197581 0.00000000
0.79573739 -0.29808742 -0.00000125
0.11926548 -0.69527262 0.00000000
-0.12410764 0.08356217 0.00000000
0.42450964 -0.72420806 0.00000000
0.25791618 0.51942265 -0.00000027
-0.48077759 0.27342200 0.13490418
-0.69100553 -0.46885517 -0.00000035
0.70951802 -0.19688550 -0.00000127
-0.13208163 0.64725649 0.06086141
-0.24509896 -0.52673346 0.00000000
-0.58032733 0.20487288 0.04359082
-0.58347112 -0.36534029 -0.00000022
0.07202510 -0.57043809 0.00000000
-0.33741033 -0.56823760 0.00000000
-0.03138439 -0.48377752 0.00000000
-0.33401188 0.42180198 0.13015059
0.13256755 0.58336395 0.00000107
-0.12906298 -0.65999293 0.00000000
0.45534948 -0.32745501 0.00000000
0.49263090 -0.07014977 -0.00000056
0.44636464 -0.59954137 0.00000000
-0.67957258 0.11134151 0.02675966
0.54648799 0.17399511 -0.00000004
-0.03805783 0.73968095 0.06557273
0.35887206 -0.64119262 0.00000000
-0.29993349 -0.72350252 0.00000000
0.00487813 0.45055297 0.00000517
-0.59264410 0.13393927 0.21624701
-0.66309172 -0.29579285 -0.00000045
0.58375245 -0.20122893 -0.00000072
0.09065088 0.69242567 0.00000006
-0.09281849 -0.70037955 0.00000000
0.10218216 0.66252792 0.00000033
0.34496540 0.11767094 0.00000477
0.27821219 -0.13739479 0.00000000
-0.72903407 -0.12726147 -0.00000074
-0.37340319 0.41672337 0.02908198
-0.43225726 0.27020505 0.28729680
-0.40033397 0.35837811 0.12161324
-0.31586561 0.35614473 0.37699208
-0.40344799 -0.49841174 0.00000000
0.15645607 0.23907289 0.00000605
-0.77185041 -0.21338667 -0.00000073
0.21610957 -0.57507503 0.00000000
-0.04103274 -0.37758940 0.00000000
-0.20929220 -0.47713721 0.00000000
0.00471617 -0.16714530 0.00000000
0.75750715 -0.63450950 -0.00000041
0.39990425 0.17510404 0.00000276
-0.28724483 -0.06044442 0.00000000
-0.52092761 0.21403529 0.19156563
-0.76294756 -0.06322226 -0.00000087
-0.66600758 -0.69541168 -0.00000010
0.38695902 0.38960961 -0.00000058
0.37250373 -0.48487204 0.00000000
0.25241163 0.34463573 0.00000276
-0.26483017 0.39231664 0.42077222
-0.36522037 -0.28446251 0.00000000
-0.63828188 -0.26528239 -0.00000042
-0.23858681 -0.39501446 0.00000000
-0.72292054 -0.48564214 -0.00000039
-0.24417157 -0.29787579 0.00000000
0.21601786 0.12684458 0.00000684
0.49830022 -0.43984723 0.00000000
-0.34377131 0.43635935 0.05852523
-0.52581567 -0.24992017 -0.00000019
0.45822597 0.09803939 0.00000293
-0.07792365 -0.29280213 0.00000000
-0.63618392 0.11253408 0.15104887
0.71590406 -0.12638541 -0.00000142
0.09854129 0.68777984 -0.00000002
-0.33739933 -0.35322109 0.00000000
-0.05037568 -0.39257744 0.00000000
-0.03822234 0.74679136 0.04414461
-0.51005566 0.26050493 0.08671245
0.60903537 -0.11266793 -0.00000099
-0.30506930 0.45838460 0.10764700
0.04798579 -0.45129874 0.00000000
-0.49791199 0.23172066 0.20726609
-0.02261059 -0.17360401 0.00000000
-0.49833488 0.27100983 0.09029402
-0.57575887 -0.09444855 -0.00000044
-0.40357795 -0.22557355 0.00000000
0.20065963 0.28462735 0.00000470
0.41145435 0.22680885 0.00000167
0.11406667 -0.12576112 0.00000000
-0.26502144 0.46899435 0.19435719
0.50308132 0.12897548 0.00000155
0.29831883 -0.32324004 0.00000000
-0.57059753 -0.05118757 -0.00000047
0.40150252 0.01276851 0.00000544
0.70181990 -0.56161588 -0.00000059
-0.64363420 -0.14958139 -0.00000053
0.05909778 -0.77053589 0.00000000
-0.30870825 0.03839691 0.00000000
0.04611498 0.34738174 0.00000609
-0.43403611 0.03213371 -0.00000025
0.07499418 0.09132528 0.00000950
-0.09884649 -0.37149516 0.00000000
0.56936926 -0.70232189 0.00000000
-0.15033452 -0.60517144 0.00000000
0.11278920 -0.67123288 0.00000000
0.32617342 -0.50991070 0.00000000
-0.49966547 -0.69463027 0.00000000
0.32980442 0.03566460 0.00000643
0.00657844 0.46960399 0.00000486
-0.46647683 0.29848376 0.10320767
0.18915182 -0.27635515 0.00000000
-0.61241102 0.14089493 0.13753521
-0.74124426 -0.24818602 -0.00000066
0.64911097 -0.79536337 0.00000000
0.41364181 -0.75101244 0.00000000
0.05662350 -0.60015112 0.00000000
0.40125924 0.09048928 0.00000415
-0.05784519 -0.03462658 0.00000000
-0.35273302 -0.56650990 0.00000000
-0.37107202 -0.06154701 -0.00000003
0.31492335 0.42573300 0.00000020
-0.47956359 0.26485077 0.16372658
-0.71041000 -0.01591547 -0.00000079
0.03780503 -0.79602659 0.00000000
-0.59215873 -0.54309446 -0.00000008
0.07151321 -0.07123376 0.00000000
0.67795604 -0.66561347 -0.00000030
0.01860176 0.61016226 0.00000257
0.02890586 -0.49121377 0.00000000
-0.24503748 0.48226342 0.21413566
-0.76718843 -0.70127600 -0.00000012
-0.60656840 0.17885084 0.04294543
-0.22086315 -0.78043926 0.00000000
-0.36507678 0.33105862 0.30593252
-0.16467465 0.58486968 0.14861830
0.63313442 -0.61383164 -0.00000020
0.13894847 -0.51056308 0.00000000
-0.53515309 -0.58059704 0.00000000
0.27826095 0.38459373 0.00000160
0.20536098 -0.03431424 0.00000000
0.65695816 -0.06236908 -0.00000128
0.20460501 0.17676035 0.00000626
0.13916081 -0.51157016 0.00000000
-0.22104806 -0.12339081 0.00000000
0.70728803 -0.78688580 -0.00000003
-0.72352934 -0.62257928 -0.00000022
-0.05295039 -0.39676932 0.00000000
-0.18744142 -0.12644249 0.00000000
0.20234565 0.51787126 0.00000083
-0.14490663 -0.53345430 0.00000000
0.40700603 -0.34804198 0.00000000
0.26499099 0.34589031 0.00000250
0.18715149 -0.00408628 0.00000000
0.01680690 -0.54337084 0.00000000
-0.66467923 0.01138290 -0.00000072
-0.30871442 -0.50054955 0.00000000
0.72426343 -0.23781779 -0.00000126
0.27064833 0.13039193 0.00000596
-0.15786694 0.11126776 0.00000000
0.02853517 0.23530427 0.00000804
-0.46377915 -0.20455517 -0.00000010
0.03632530 -0.16144109 0.00000000
-0.46191001 -0.62416369 0.00000000
-0.35535595 -0.15891503 0.00000000
0.20370342 -0.79770392 0.00000000
-0.28890735 -0.01104999 0.00000000
-0.52934414 0.18721519 0.24577327
-0.45325175 0.00178418 -0.00000026
-0.44257045 0.28740248 0.20626426
0.04048679 0.32259884 0.00000655
0.10401708 -0.63638818 0.00000000
-0.34879863 0.37710878 0.21824001
-0.56335521 -0.28675175 -0.00000024
-0.37515160 0.26744413 0.46363190
0.36134496 -0.51075137 0.00000000
-0.40146488 0.00815191 -0.00000016
0.33139026 -0.45052147 0.00000000
-0.54076445 0.20226389 0.16780849
-0.08089844 -0.18015093 0.00000000
0.65213919 -0.03309088 -0.00000131
-0.05799304 -0.35724738 0.00000000
0.14189376 -0.35403982 0.00000000
-0.32847655 0.07090684 -0.00000006
-0.56363642 0.19173436 0.13145365
-0.17536165 0.60444844 0.05947094
0.39766747 -0.08254028 -0.00000014
-0.57353806 -0.46403459 -0.00000011
-0.26462585 -0.64188880 0.00000000
0.02780190 0.23549175 0.00000805
-0.72398174 -0.25683567 -0.00000061
0.30604950 -0.48715243 0.00000000
0.51402837 0.01289811 0.00000328
-0.22284386 0.45867980 0.34897104
0.02205664 0.23795982 0.00000810
0.31191677 -0.28756845 0.00000000
0.17289238 -0.46129793 0.00000000
-0.11447344 0.14797714 0.00000000
-0.08937705 0.10246697 0.00000000
0.63390845 -0.02508862 -0.00000125
0.59217334 -0.33961451 -0.00000051
0.45531666 -0.05057030 -0.00000044
-0.23839799 0.45152342 0.32423574
-0.14886016 -0.15870950 0.00000000
-0.28990689 0.41901010 0.26828483
0.16602889 0.32582673 0.00000461
0.59820008 -0.72884023 0.00000000
-0.37877837 -0.41255009 0.00000000
0.26932162 0.07735851 0.00000678
0.48984930 -0.59120119 0.00000000
-0.73821330 -0.41688055 -0.00000048
-0.23619702 0.42383364 0.41227794
-0.46299791 0.04548836 -0.00000032
-0.14307784 0.63732785 0.05771681
-0.18772286 -0.70135355 0.00000000
-0.73967636 -0.25168160 -0.00000065
-0.44770911 0.34427202 0.02361874
-0.05915304 -0.38076091 0.00000000
-0.61398280 -0.45920563 -0.00000020
0.59947127 0.07325424 0.00000063
0.22252849 0.22657511 0.00000524
0.11441403 -0.79447079 0.00000000
-0.13149408 -0.77997339 0.00000000
-0.19553345 -0.34217978 0.00000000
-0.01408229 0.78287601 0.00896215
-0.15189815 0.12301058 0.00000000
0.33036941 -0.58793199 0.00000000
-0.27601358 0.43285757 0.26841986
0.04984872 -0.18849096 0.00000000
-0.02850545 -0.37783280 0.00000000
0.11140120 0.18132286 0.00000760
0.08581672 -0.70088810 0.00000000
0.18571734 0.47444561 0.00000187
0.20208955 0.11028221 0.00000730
0.47030461 -0.45537829 0.00000000
0.38652766 -0.34626010 0.00000000
0.57033902 -0.78469300 0.00000000
0.09114788 -0.05199542 0.00000000
0.30438358 -0.43443325 0.00000000
-0.33721119 0.45343280 0.02755820
0.38852596 -0.25864470 0.00000000
0.72203004 -0.45353231 -0.00000087
-0.61617482 0.15325850 0.09003205
0.63141626 -0.70245171 -0.00000004
0.41657841 0.09934705 0.00000370
0.59202498 -0.48417759 -0.00000026
-0.02543601 0.75959504 0.04409348
0.54302013 0.06478572 0.00000185
-0.32795531 -0.36239865 0.00000000
0.60953635 -0.62074256 -0.00000009
-0.26016390 -0.00253314 0.00000000
-0.52288020 -0.60009986 0.00000000
0.13017114 -0.03215518 0.00000000
0.06855699 0.50506186 0.00000339
0.22274999 -0.02983923 0.00000000
0.58396268 -0.49006587 -0.00000021
-0.02550537 0.36405092 0.00000000
0.58038461 0.01376150 0.00000199
0.22410642 -0.01956022 0.00000000
0.14945717 -0.63702822 0.00000000
-0.45898333 -0.22109777 -0.00000008
-0.22601946 -0.40080705 0.00000000
-0.01391213 0.08221437 0.00000000
-0.57080454 -0.42616409 -0.00000013
0.08158539 0.28415328 0.00000651
-0.39531949 0.05595357 -0.00000019
0.00270284 -0.75932425 0.00000000
0.41831911 -0.65537310 0.00000000
0.67956918 -0.38842276 -0.00000080
-0.48894340 -0.00483540 -0.00000033
-0.08091965 -0.48715678 0.00000000
0.00540640 0.66970176 0.00000187
-0.40248689 -0.12604439 -0.00000004
0.58305109 0.08431057 0.00000076
0.22943963 0.46458626 0.00000120
0.07307548 -0.32753760 0.00000000
-0.61556798 0.16046734 0.07058571
-0.30031830 0.00633368 0.00000000
-0.53681552 0.21759932 0.13426965
0.66700673 -0.71717948 -0.00000016
-0.32687011 0.45599842 0.05046099
0.03489674 0.75961810 -0.00000008
0.36635378 -0.17157166 0.00000000
-0.31066325 0.35774362 0.38760608
-0.00288513 -0.29450077 0.00000000
-0.65587884 0.14214112 0.00582954
0.53641629 -0.17045072 -0.00000057
-0.24867748 -0.11249152 0.00000000
-0.51506668 0.20367979 0.23933117
0.62814075 -0.32510871 -0.00000069
-0.13630088 -0.67724830 0.00000000
0.05108818 0.71130711 0.00000050
-0.24758004 0.49727073 0.16244309
0.26861134 -0.18334889 0.00000000
-0.68794650 -0.71525025 -0.00000011
-0.39034116 0.30595821 0.30544952
0.28307417 0.45874497 0.00000026
0.01813197 -0.27289411 0.00000000
0.78076804 -0.34148562 -0.00000115
-0.02285479 -0.56594741 0.00000000
0.42000335 0.12347662 0.00000324
0.54237008 -0.32974270 -0.00000032
-0.18469501 -0.42280573 0.00000000
-0.29913169 0.01325980 0.00000000
-0.34455651 -0.26347142 0.00000000
0.51342213 -0.23258597 -0.00000037
-0.69954860 -0.29177111 -0.00000053
-0.61035830 -0.34853464 -0.00000029
0.52653152 -0.19668964 -0.00000049
-0.29202461 -0.08347077 0.00000000
-0.35664076 -0.43865597 0.00000000
-0.54931456 0.23356523 0.05042604
-0.26863781 0.44968110 0.24059176
0.48932934 0.18210118 0.00000092
-0.66446155 -0.45528850 -0.00000031
0.08681359 0.03254416 0.00001020
-0.27948141 -0.26710787 0.00000000
0.60946703 -0.63815570 -0.00000006
-0.50126451 -0.53234786 0.00000000
-0.29709336 -0.16611718 0.00000000
0.12305180 0.53376883 0.00000208
0.63035601 -0.47635409 -0.00000043
-0.28844097 -0.02397936 0.00000000
0.72735471 -0.79719830 -0.00000001
0.66296917 -0.22160260 -0.00000102
0.37553087 -0.53813070 0.00000000
-0.52777278 -0.30981579 -0.00000015
0.56727701 -0.20881920 -0.00000064
-0.32462874 -0.03219636 0.00000000
0.24270146 -0.77343851 0.00000000
-0.03705824 -0.29145753 0.00000000
-0.65347826 -0.32684702 -0.00000040
-0.75456172 -0.22549216 -0.00000070
-0.36290821 0.42218259 0.04391499
0.02314304 0.02309709 0.00001130
-0.38677347 -0.58629435 0.00000000
-0.04551655 -0.49962386 0.00000000
-0.76151651 -0.00535359 -0.00000091
0.23734398 -0.06214519 0.00000000
-0.27507615 -0.45033705 0.00000000
-0.18307818 -0.63358521 0.00000000
0.19644774 0.54351318 0.00000051
-0.54822171 0.05425376 -0.00000051
-0.62584358 0.16622192 0.02336868
-0.46477413 -0.28194994 -0.00000004
-0.15695646 0.55287105 0.26560298
-0.69264728 0.09689108 0.03081176
-0.79314613 -0.24885403 -0.00000069
-0.79115564 -0.14154406 -0.00000082
0.26871154 -0.79519629 0.00000000
0.30353859 -0.78750551 0.00000000
0.17662181 -0.61534894 0.00000000
0.46417111 -0.16072927 -0.00000028
-0.64094442 0.14262621 0.04839019
-0.34797704 -0.26187778 0.00000000
0.30673903 -0.18710160 0.00000000
-0.56176186 -0.53937238 -0.00000001
0.05926887 0.35578492 0.00000577
-0.15404463 0.55452925 0.26929545
0.60644704 -0.43045604 -0.00000041
-0.19815391 -0.08171646 0.00000000
0.72342020 0.01685792 -0.00000081
0.34080589 -0.74774522 0.00000000
0.43877995 -0.39199242 0.00000000
0.17884164 -0.54530585 0.00000000
0.02312379 0.35518566 0.00000632
0.49111071 -0.13040587 -0.00000045
0.25880873 -0.04906572 0.00000000
0.61429662 -0.55408287 -0.00000023
0.36251011 0.09816069 0.00000476
0.32753834 -0.12999162 0.00000000
0.29759777 0.21159685 0.00000411
-0.37429595 -0.26885968 0.00000000
0.38544306 -0.12978765 -0.00000000
-0.39788723 0.40095398 0.00341278
-0.24615321 -0.17050357 0.00000000
-0.43385273 -0.60791284 0.00000000
-0.11245332 0.11503664 0.00000000
0.71794391 -0.38447550 -0.00000097
0.60306382 -0.39841139 -0.00000046
0.40218422 0.03431917 0.00000507
0.09831296 0.36889049 0.00000498
0.19366145 0.45596823 0.00000203
-0.40945944 -0.69889581 0.00000000
-0.49446711 0.02143152 -0.00000037
-0.27496642 -0.77490312 0.00000000
-0.17463119 0.13374940 0.00000000
-0.48472396 0.25170606 0.18724447
0.68511957 -0.10152112 -0.00000133
-0.43704626 -0.47888085 0.00000000
-0.19455691 0.58909672 0.04814960
-0.00857897 -0.07271838 0.00000000
