ply
format ascii 1.0
element vertex 1372
property float x
property float y
property float z
end_header
0.09656049 -0.06408170 -0.00000046
-0.08952147 0.30271089 -0.00000069
-0.00563398 -0.69772094 -0.00000006
0.47795421 -0.11737079 -0.00000053
-0.42744935 -0.47522539 -0.00000020
0.75125253 -0.08918455 -0.00000085
-0.64034873 0.20759074 -0.00000020
0.41315123 0.33784175 0.06125007
-0.49811292 0.72974932 -0.00000038
-0.01384705 -0.56304669 -0.00000015
-0.17356823 0.47600839 -0.00000076
-0.73176336 -0.31601602 -0.00000001
0.37586114 -0.62696403 -0.00000011
-0.70092088 -0.43898013 -0.00000003
-0.40193689 0.72803235 -0.00000050
-0.14801805 -0.60358906 -0.00000012
-0.41226801 0.44504195 -0.00000048
-0.27158570 0.46899992 -0.00000065
-0.38703349 0.52038026 -0.00000052
-0.10623905 -0.44722867 -0.00000022
-0.43862143 0.48189905 -0.00000045
-0.17665306 -0.49981999 -0.00000019
0.13761747 0.06653937 -0.00000054
0.66175729 -0.31188124 -0.00000052
0.65315896 -0.10515910 -0.00000073
0.59027582 -0.49078962 -0.00000025
0.76765382 -0.65343451 -0.00000018
-0.50114864 0.48255455 -0.00000037
0.55070263 -0.31900427 -0.00000039
0.12243950 0.49279377 -0.00000081
-0.11384559 0.39622685 -0.00000075
0.14895587 -0.39686155 -0.00000025
-0.69859391 -0.60493779 0.00000000
0.49406189 -0.72128791 -0.00000005
0.61165214 -0.37111127 -0.00000040
-0.19231685 0.48982903 -0.00000074
-0.21152286 0.45973220 -0.00000071
0.47379619 0.21591952 0.13783857
0.10708156 0.09635337 -0.00000056
0.27060339 0.28411001 -0.00000074
0.48331633 -0.34674129 -0.00000029
0.65106583 0.02626700 -0.00000087
-0.23360112 -0.28748211 -0.00000032
0.03087429 0.08938042 -0.00000056
0.42462736 0.12100045 -0.00000073
-0.63059425 -0.64114827 -0.00000006
0.53636742 0.11653337 0.18385233
0.01562851 0.18109402 -0.00000061
0.77039659 -0.54153156 -0.00000032
0.49003568 -0.36013854 -0.00000029
-0.18641119 -0.11082342 -0.00000043
0.41935489 0.37920931 0.00179231
0.21410416 0.29788154 0.35997468
-0.00372433 -0.31232670 -0.00000030
-0.50479925 -0.61324066 -0.00000012
-0.15735435 -0.67837834 -0.00000008
-0.33759329 -0.65560210 -0.00000009
0.74040443 -0.04042671 -0.00000089
0.57139230 -0.79419667 -0.00000000
-0.03090713 -0.00068392 -0.00000050
-0.55355495 -0.03019943 -0.00000026
-0.56488276 -0.63056338 -0.00000011
0.51758087 -0.71326864 -0.00000005
0.31259236 0.26787305 -0.00000077
0.46922839 0.21796551 0.14099050
-0.78771132 -0.39446229 0.00000000
-0.70240188 0.42219132 -0.00000012
-0.18625367 -0.23668016 -0.00000035
-0.39569643 -0.68414587 -0.00000007
0.15179183 0.41495612 0.29152948
-0.76556575 -0.49208459 0.00000000
-0.16727680 -0.44504040 -0.00000022
0.26630035 0.27514690 0.32315254
-0.74638551 0.73348260 -0.00000007
0.05301209 0.60281819 -0.00000088
0.51645458 -0.68290031 -0.00000007
0.44338721 -0.49296394 -0.00000019
0.06459021 -0.34931824 -0.00000028
0.28116876 -0.08332153 -0.00000045
0.76796269 -0.63285494 -0.00000021
0.46551052 -0.22106640 -0.00000041
-0.17979714 -0.24622671 -0.00000035
-0.32059786 -0.32523727 -0.00000030
0.22312164 0.41471612 0.20267835
-0.41177920 0.16663475 -0.00000044
-0.21984801 0.03875423 -0.00000052
0.20318072 0.57151163 0.03162902
0.44431469 0.05051250 -0.00000067
0.66834950 -0.45770618 -0.00000037
0.06136161 -0.36870375 -0.00000027
-0.46119323 -0.27809826 -0.00000031
-0.33480990 0.46497822 -0.00000058
-0.08220110 -0.07575996 -0.00000045
0.75042957 -0.00215132 -0.00000094
0.72367048 -0.44397622 -0.00000044
0.15993047 -0.42923340 -0.00000023
0.17154399 -0.07981388 -0.00000045
0.58768284 -0.78869087 -0.00000001
0.22297335 0.42046392 0.19567978
0.35870183 0.18494123 0.32040888
-0.44111994 0.36736044 -0.00000045
-0.22407937 0.66349888 -0.00000072
-0.48345551 0.67760468 -0.00000040
-0.09515576 0.43395984 -0.00000077
0.57866812 -0.57036364 -0.00000016
-0.30993888 -0.51073492 -0.00000018
-0.43328172 -0.13491829 -0.00000037
0.16935946 -0.68113178 -0.00000007
0.39096227 0.37481338 0.04277369
-0.28040168 0.41010961 -0.00000063
0.32339722 0.21045603 0.33264440
-0.67219657 0.69430262 -0.00000016
0.07366742 -0.34576705 -0.00000028
-0.33865768 -0.30183011 -0.00000031
0.74108428 -0.78679174 -0.00000002
-0.79421657 -0.36273634 0.00000000
-0.13803211 -0.78019130 -0.00000001
-0.49983436 0.08382026 -0.00000034
-0.13311347 -0.27623385 -0.00000033
0.29400122 0.35940570 0.18321975
0.02564822 0.62563384 -0.00000089
0.21525048 0.48370799 0.12628633
-0.37851122 0.30986348 -0.00000051
0.33151481 0.21600021 0.31556925
0.67764175 0.10455019 0.02225548
0.28444993 0.31257400 0.25369006
-0.60167980 0.29519191 -0.00000025
-0.06858664 -0.02355603 -0.00000049
0.02313470 -0.36468920 -0.00000027
0.65546244 -0.15445720 -0.00000068
-0.37411898 0.71867412 -0.00000053
-0.28529945 0.12821485 -0.00000057
-0.53179592 0.17062333 -0.00000032
0.66418928 -0.05233488 -0.00000080
0.74118268 -0.77283037 -0.00000003
0.33933881 -0.38908666 -0.00000026
0.49732628 -0.04879359 -0.00000063
0.67609698 -0.67453247 -0.00000015
0.71116930 -0.71355051 -0.00000011
-0.55586082 0.79390246 -0.00000031
0.18984669 0.33786032 -0.00000071
-0.11024305 0.35593653 -0.00000072
-0.24016140 0.15218604 -0.00000060
0.05725246 0.11560564 -0.00000057
0.35371980 0.15954210 0.35838076
-0.40212387 -0.43489528 -0.00000023
-0.69072723 0.43757379 -0.00000014
-0.13900946 0.12951583 -0.00000058
-0.02052648 -0.04694075 -0.00000047
-0.74395525 0.06474736 -0.00000007
-0.67789936 -0.61761212 -0.00000002
0.45919970 0.09143342 -0.00000073
0.18569890 -0.68430895 -0.00000007
-0.76741487 0.14917596 -0.00000004
0.28519660 0.44277215 0.09002731
-0.55494261 -0.56537771 -0.00000015
0.14309525 -0.33581993 -0.00000029
0.18284515 0.25525856 -0.00000066
0.33785462 0.25771078 0.25551349
0.50892371 -0.66459984 -0.00000008
0.29992703 0.45217544 0.05986335
0.27128759 -0.00410875 -0.00000050
-0.14934944 -0.16488697 -0.00000040
0.30699366 -0.34703195 -0.00000028
-0.12938403 0.47412291 -0.00000080
-0.51591671 -0.26164517 -0.00000026
-0.37394044 -0.17341202 -0.00000039
-0.04142308 0.47806895 -0.00000080
0.18446776 0.49913013 -0.00000088
0.36455214 -0.31548908 -0.00000030
0.34004974 -0.44160241 -0.00000022
0.52021575 0.19511674 0.10582096
0.07043450 0.62899286 0.12569921
-0.32563987 -0.45325747 -0.00000022
-0.23787580 -0.15646397 -0.00000040
0.14100096 0.45673528 -0.00000079
-0.21763924 -0.27263635 -0.00000033
-0.15687950 0.50208151 -0.00000078
0.70841563 -0.39999932 -0.00000048
-0.23049042 -0.27741203 -0.00000033
0.67554605 -0.13145353 -0.00000073
-0.52791655 -0.66871756 -0.00000008
-0.00752341 -0.35685793 -0.00000028
0.04253081 -0.70894784 -0.00000006
0.20596635 -0.01208621 -0.00000049
0.43492967 -0.45735091 -0.00000021
0.60726929 -0.67594200 -0.00000008
0.14793307 0.44913685 0.25363147
0.24005218 -0.34076187 -0.00000029
-0.60793728 -0.79691899 -0.00000000
0.31216249 -0.72741389 -0.00000005
0.79954416 -0.43870991 -0.00000045
0.17889453 0.24290858 -0.00000065
0.38702717 -0.43020993 -0.00000023
0.49847513 0.24385062 0.07208294
0.49921608 0.20027599 0.12561940
-0.19818938 -0.41467252 -0.00000024
-0.49748200 0.08090714 -0.00000034
0.13009655 0.62767792 -0.00000095
-0.69870281 -0.62010437 0.00000000
-0.45943540 0.12983865 -0.00000039
-0.15392296 -0.52783698 -0.00000017
-0.46071255 -0.08887134 -0.00000035
0.05716113 -0.19588000 -0.00000038
-0.22272928 -0.43636814 -0.00000023
0.49562335 -0.41332412 -0.00000024
-0.32847688 -0.04289394 -0.00000047
0.73297524 -0.07044554 -0.00000085
0.15479492 0.45112544 0.24256980
0.64002281 -0.36421415 -0.00000044
-0.63257372 -0.47906068 -0.00000009
-0.45416653 0.53682321 -0.00000043
-0.26289994 0.54644740 -0.00000067
0.58336967 -0.75022346 -0.00000003
-0.25047067 0.67603105 -0.00000069
-0.67825538 -0.77251267 0.00000000
0.64452088 0.03451515 -0.00000087
0.49943107 0.13387924 0.20833784
0.15752448 0.36725312 0.34398621
0.59713525 -0.38485846 -0.00000037
-0.14664392 0.21714628 -0.00000064
-0.59705800 -0.17610176 -0.00000018
0.56690484 0.08840293 0.18084393
-0.73955673 -0.46087286 0.00000000
-0.23809306 -0.24766701 -0.00000035
0.39061093 -0.39971155 -0.00000025
-0.66728693 0.03920390 -0.00000015
-0.04081549 -0.05533415 -0.00000047
0.00301046 0.45420504 -0.00000078
-0.15394045 0.08933341 -0.00000056
-0.53255612 0.30537757 -0.00000033
0.79602373 -0.72307551 -0.00000010
-0.08513203 0.38647795 -0.00000074
0.24326086 0.32090721 0.29475468
0.29403615 0.01103597 -0.00000051
-0.46164688 -0.13919657 -0.00000034
0.58399934 -0.64051449 -0.00000010
0.27107850 0.38798600 0.17614847
-0.52053607 0.75223577 -0.00000035
-0.58557749 0.42152897 -0.00000027
-0.59073597 0.70344549 -0.00000026
-0.39018780 -0.52854127 -0.00000017
0.25114912 0.34801525 0.25101459
-0.51199633 0.02776498 -0.00000031
-0.29023010 0.25815544 -0.00000059
-0.51932591 0.13512547 -0.00000032
0.17178220 0.43444443 0.24218714
0.65777290 -0.25601101 -0.00000058
0.12597489 -0.73807722 -0.00000004
0.36360273 0.32938233 0.13375227
0.46391895 0.14955822 0.23312667
-0.75149965 -0.13729195 -0.00000003
-0.54098451 0.33649144 -0.00000032
-0.20550726 -0.55897921 -0.00000015
-0.35173795 0.12364611 -0.00000050
0.09761644 0.67782861 0.03068819
0.35523808 -0.75365967 -0.00000003
0.02139632 -0.54233003 -0.00000016
-0.09959132 0.01344236 -0.00000051
0.61507982 -0.45064253 -0.00000032
0.02659159 -0.68771541 -0.00000007
-0.46416795 0.55936682 -0.00000042
0.28135782 -0.26745290 -0.00000033
0.08450214 -0.78737307 -0.00000001
0.03341509 -0.46333009 -0.00000021
-0.75318897 0.19016232 -0.00000006
0.57689542 -0.03198613 -0.00000073
0.16506939 0.22955810 -0.00000064
-0.26260862 -0.69844478 -0.00000006
-0.19917206 0.18162483 -0.00000061
0.53770632 0.23855519 0.02966773
-0.77796656 0.34718758 -0.00000003
-0.62298572 -0.18688308 -0.00000015
0.60366821 0.13222793 0.08011909
0.43656218 -0.34133431 -0.00000029
0.42276177 0.16625416 -0.00000077
0.07552759 -0.07476450 -0.00000045
0.73858923 -0.04181484 -0.00000089
0.16355744 0.47430712 -0.00000083
0.53366506 -0.26756543 -0.00000043
0.37977296 -0.63665766 -0.00000010
-0.04245203 0.06145368 -0.00000054
0.13964531 -0.52775121 -0.00000017
0.13085368 0.59806049 0.08884560
0.20784739 -0.77165931 -0.00000002
-0.00882644 -0.41459146 -0.00000024
0.07020020 0.63324237 0.12068081
0.04296202 -0.69961858 -0.00000006
-0.71939772 0.36349720 -0.00000010
0.68272334 -0.45716035 -0.00000039
0.76072246 -0.57419127 -0.00000028
0.03119666 -0.43117511 -0.00000023
0.27002662 0.39661694 0.16667569
-0.21938840 0.51183051 -0.00000071
-0.43933073 0.61168468 -0.00000045
-0.23696364 0.54321676 -0.00000070
0.43916440 -0.26743448 -0.00000033
-0.58983135 -0.71222854 -0.00000005
-0.78791714 0.35887569 -0.00000002
0.02499384 -0.79038405 -0.00000001
0.13753727 0.58037329 0.10259850
-0.51437712 0.41237557 -0.00000036
0.58050781 -0.61522770 -0.00000012
-0.49923527 -0.72460675 -0.00000005
0.31240344 -0.20217749 -0.00000037
-0.68717295 0.17266911 -0.00000014
-0.06769271 0.75866455 -0.00000092
0.07247337 -0.37178618 -0.00000027
0.68118370 -0.05884051 -0.00000081
-0.58978045 -0.78785169 -0.00000001
-0.59144121 0.13024312 -0.00000025
-0.30491900 0.06339923 -0.00000054
0.26165491 0.42945802 0.13609222
0.51941818 0.21172814 0.08605577
0.33602136 0.24995042 0.26750407
0.31621072 0.18880595 -0.00000069
-0.56837773 0.39780575 -0.00000029
0.16255042 -0.07809114 -0.00000045
0.74585652 -0.38249934 -0.00000052
-0.63906473 0.56015706 -0.00000020
0.47196105 -0.52557904 -0.00000017
-0.13876364 -0.53339505 -0.00000017
-0.07401623 0.37676871 -0.00000074
0.48411956 -0.62802333 -0.00000011
0.06778301 -0.19076046 -0.00000038
-0.42968616 -0.09210101 -0.00000038
-0.68255520 -0.08792701 -0.00000011
-0.22108898 0.77697569 -0.00000072
0.19623716 0.39637941 0.25919789
0.47846881 0.19390562 0.15951285
0.23730563 -0.41265991 -0.00000024
0.08757450 0.60578340 -0.00000089
0.40784898 0.11450968 -0.00000070
-0.18247129 0.46007586 -0.00000074
0.33930799 0.41237703 0.06038511
-0.51349616 -0.74892503 -0.00000003
-0.64688927 0.55010301 -0.00000019
0.66923416 -0.22481477 -0.00000062
0.28306463 -0.52820736 -0.00000017
-0.54692513 0.28688237 -0.00000032
0.06308098 0.55169570 -0.00000084
-0.62728077 0.68783236 -0.00000022
0.41568854 0.14493206 0.29918993
0.44146341 -0.69805700 -0.00000006
0.39149022 0.26134557 -0.00000084
-0.32865509 -0.59019977 -0.00000013
-0.47710198 -0.66784894 -0.00000008
-0.07181878 -0.11716177 -0.00000043
0.63003737 -0.36569074 -0.00000043
-0.76743883 -0.19334477 0.00000000
0.10223156 0.22593950 -0.00000064
-0.22157452 0.61080378 -0.00000072
0.11578384 0.50369453 0.22562400
0.29985821 0.35053179 -0.00000084
0.44574729 0.19600742 -0.00000083
-0.78324950 0.29161197 -0.00000002
-0.36830938 -0.25186428 -0.00000034
-0.29917637 -0.61296517 -0.00000012
0.24728560 -0.22077803 -0.00000036
0.13950780 0.25163123 -0.00000066
0.38252911 0.08399812 -0.00000064
0.26322040 0.39065501 -0.00000084
-0.28363210 0.15377896 -0.00000058
0.09258318 0.10691696 -0.00000057
0.03990928 -0.52816224 -0.00000017
0.32907671 -0.63411784 -0.00000010
-0.38978624 -0.57791281 -0.00000014
-0.12433470 0.70204675 -0.00000084
-0.43137896 0.02582105 -0.00000040
-0.60054398 0.54279459 -0.00000025
0.18993559 -0.38152310 -0.00000026
0.26154375 0.37309858 0.20667249
-0.65715963 0.30495471 -0.00000018
-0.41894671 -0.07070661 -0.00000039
-0.64035475 0.09435593 -0.00000019
0.77815503 -0.22546604 -0.00000072
-0.54567540 -0.77221572 -0.00000002
0.04517596 0.17732859 -0.00000061
-0.59751081 -0.18914592 -0.00000018
0.21988007 -0.45976102 -0.00000021
-0.72197044 -0.13072190 -0.00000006
-0.40455142 -0.21231736 -0.00000037
0.38901129 0.26755103 0.17927590
0.44084561 0.20483547 -0.00000084
0.27026978 0.36539501 0.20539463
-0.06422963 -0.07627846 -0.00000045
0.13452238 -0.46880469 -0.00000021
0.35049331 0.35983235 0.11207884
-0.27931765 -0.38028070 -0.00000026
-0.27160871 -0.79866832 -0.00000000
-0.03368140 0.02246960 -0.00000051
0.13888095 -0.57030076 -0.00000014
0.23342849 -0.73305523 -0.00000004
0.01338101 -0.37530997 -0.00000027
-0.23528326 -0.43427572 -0.00000023
0.34135780 0.26796943 0.23831327
-0.40860352 -0.65499854 -0.00000009
-0.67818958 0.63323879 -0.00000015
-0.72493905 -0.26150012 -0.00000003
-0.75676072 0.73370886 -0.00000005
-0.45583308 -0.54459852 -0.00000016
-0.44583097 0.08128242 -0.00000039
-0.25561616 0.24547859 -0.00000063
0.27893054 -0.39890590 -0.00000025
-0.38871473 -0.55437982 -0.00000015
0.61531013 -0.19726077 -0.00000059
-0.68229276 0.14841934 -0.00000015
0.18019915 -0.46002829 -0.00000021
0.13998157 -0.30616519 -0.00000031
-0.78716469 -0.67569649 0.00000000
0.09160067 0.54650134 0.20234697
0.47121185 0.27064747 0.07266595
0.12228159 0.56103384 0.14583717
-0.03107815 0.15182732 -0.00000059
0.09602351 0.47974312 -0.00000080
-0.39211634 -0.26944622 -0.00000033
-0.20201996 0.57568520 -0.00000074
0.72026682 -0.66908240 -0.00000016
0.01576126 -0.04248178 -0.00000047
-0.50917006 -0.26698425 -0.00000026
-0.68246871 -0.14313565 -0.00000010
0.12346863 0.62941372 0.05888862
0.48044971 0.29838523 0.02645129
-0.45792106 -0.48342335 -0.00000020
0.53079093 -0.07579868 -0.00000063
0.20174836 0.14521798 -0.00000059
0.42768160 -0.73519886 -0.00000004
0.24350342 -0.75953794 -0.00000003
-0.64080799 0.59065825 -0.00000020
0.60381395 0.11254289 0.10454068
0.28376648 0.39232612 -0.00000087
-0.60001677 0.67614907 -0.00000025
0.36231506 0.27777052 -0.00000083
0.49926439 -0.46368304 -0.00000021
-0.01989161 0.69725418 -0.00000094
0.75558591 -0.58997458 -0.00000026
0.57998139 -0.08169392 -0.00000068
0.63200229 -0.60747033 -0.00000017
0.29455888 -0.56173819 -0.00000015
0.29591963 -0.04735904 -0.00000047
0.06522875 0.47769699 -0.00000080
0.20562762 0.55248773 0.05234806
0.55881500 0.09695514 0.18026604
0.73126513 -0.62211394 -0.00000022
-0.26225954 -0.03346941 -0.00000048
-0.24120145 -0.11498162 -0.00000043
0.50101221 -0.00218172 -0.00000068
-0.67613000 -0.51646179 -0.00000004
-0.73093760 0.01225567 -0.00000008
0.23362659 0.55393088 0.01554931
0.28662744 -0.69524640 -0.00000007
-0.46849784 -0.16410045 -0.00000032
-0.12179874 0.79334915 -0.00000085
-0.51793903 0.04669450 -0.00000031
0.06410066 -0.06851563 -0.00000046
-0.44477981 -0.35174996 -0.00000028
0.63704228 -0.42505586 -0.00000037
0.15334851 0.44396576 0.25332612
0.40543601 0.21338531 -0.00000081
-0.53524417 -0.45535058 -0.00000020
-0.10993524 0.17154406 -0.00000061
-0.01089416 -0.04825741 -0.00000047
-0.24501097 0.11498633 -0.00000057
0.53222835 0.23627089 0.03936957
0.61065620 -0.26746106 -0.00000051
0.68626922 -0.17296207 -0.00000069
-0.31605080 0.11522612 -0.00000054
0.52868849 -0.40910962 -0.00000027
-0.03835736 -0.37078610 -0.00000027
0.02606701 -0.05379595 -0.00000047
0.13252895 -0.36098096 -0.00000027
0.15047945 -0.53242606 -0.00000017
0.47734836 0.22545296 0.12148326
0.53498298 -0.36089090 -0.00000033
-0.12254858 -0.50636184 -0.00000018
0.77631921 -0.78463894 -0.00000002
0.29491100 0.00260532 -0.00000050
0.24340086 -0.27079341 -0.00000033
-0.28153798 -0.51592612 -0.00000018
-0.23379572 0.11933847 -0.00000057
-0.71356672 -0.69617659 0.00000000
0.62302637 -0.18370068 -0.00000062
0.44568342 -0.02221962 -0.00000060
0.79421771 -0.55158871 -0.00000031
-0.38148841 0.25731111 -0.00000049
-0.30938458 0.23117176 -0.00000057
-0.05615932 -0.11931089 -0.00000043
-0.26639494 -0.74640346 -0.00000003
-0.31007880 -0.21517840 -0.00000037
0.25139850 -0.74961716 -0.00000003
-0.15461884 -0.00282031 -0.00000050
-0.57875866 -0.44203219 -0.00000016
-0.61906767 0.38184351 -0.00000023
0.23783845 0.20865291 -0.00000063
0.22254610 0.33728758 0.30017185
-0.03409180 -0.11105976 -0.00000043
-0.72390282 -0.15817104 -0.00000005
0.24495946 -0.41321614 -0.00000024
0.28945053 -0.77989727 -0.00000001
-0.04178006 0.54385179 -0.00000084
-0.72020936 -0.46087074 -0.00000000
-0.60386723 0.02601368 -0.00000021
-0.17140216 -0.06901475 -0.00000046
-0.26232144 -0.43595693 -0.00000023
-0.45715392 -0.61851072 -0.00000011
0.45832777 0.14596167 0.24461009
0.50085306 0.16906112 0.16258782
-0.41879791 0.18208157 -0.00000044
0.34564066 0.33157003 -0.00000087
0.26762199 0.38042030 0.18992458
-0.03938870 -0.48558879 -0.00000020
-0.03993059 -0.07244197 -0.00000045
0.08371283 -0.12926950 -0.00000042
-0.74046397 0.52126384 -0.00000007
-0.34178400 -0.26611120 -0.00000033
0.46013027 -0.44746366 -0.00000022
-0.40733996 0.53113669 -0.00000049
-0.09854712 -0.76308972 -0.00000002
0.12389520 -0.06888629 -0.00000046
-0.43199566 0.77234018 -0.00000046
0.24235414 -0.66673636 -0.00000008
-0.01736023 0.21965364 -0.00000064
0.14768966 -0.08822197 -0.00000044
-0.71241844 -0.36268669 -0.00000003
-0.27468780 0.75507420 -0.00000066
0.05965234 0.64129460 0.12379987
-0.34091282 0.28221193 -0.00000054
0.13726968 -0.07274345 -0.00000045
-0.19369242 -0.42329058 -0.00000024
-0.12235697 0.26003754 -0.00000066
0.54232365 -0.60513282 -0.00000012
-0.56597638 0.04120338 -0.00000026
-0.48545095 -0.38391787 -0.00000026
0.21305121 0.15623033 -0.00000060
-0.76247287 0.41336060 -0.00000005
-0.71492195 -0.10757240 -0.00000007
0.35622945 0.41762239 0.03267953
-0.52004206 0.07817232 -0.00000031
-0.32415065 0.52935290 -0.00000059
-0.40329337 0.71064550 -0.00000050
-0.36796302 -0.03180174 -0.00000046
0.19216019 -0.09942466 -0.00000044
-0.44087780 -0.78041673 -0.00000001
0.73879373 -0.10415266 -0.00000082
-0.78061038 -0.02250266 -0.00000002
0.55196208 -0.06541256 -0.00000067
0.05054251 0.36711127 -0.00000073
-0.43726209 -0.64980543 -0.00000009
0.53594536 0.25336909 0.01335332
-0.45959392 -0.06717514 -0.00000035
-0.70863652 -0.00948355 -0.00000010
-0.42889211 -0.53200030 -0.00000017
-0.38706058 -0.24453072 -0.00000035
0.25241494 -0.34683678 -0.00000028
0.48127869 0.30659816 0.01515010
0.64283788 -0.28280580 -0.00000053
0.54505855 -0.13422261 -0.00000058
-0.59296292 -0.08387797 -0.00000021
-0.21348400 0.17029613 -0.00000061
-0.51270884 -0.51140082 -0.00000018
0.31396988 0.21334562 0.34081554
0.06969255 0.62068510 -0.00000089
-0.61747813 -0.29445490 -0.00000014
-0.19079094 -0.00738877 -0.00000050
-0.70386207 0.61501855 -0.00000012
0.65608937 -0.31599924 -0.00000051
-0.56889540 -0.62483984 -0.00000011
-0.69520158 0.09853548 -0.00000013
0.47860533 -0.50025028 -0.00000019
0.25178060 -0.71822214 -0.00000005
-0.51680022 0.49493924 -0.00000035
-0.71336418 -0.17642185 -0.00000006
-0.12399870 0.12381949 -0.00000058
-0.30444524 -0.45791876 -0.00000021
0.40261224 0.16316341 0.29274678
-0.39507249 0.32443294 -0.00000049
-0.23751798 -0.41459051 -0.00000024
-0.65213597 0.11173185 -0.00000018
-0.13704714 -0.43550211 -0.00000023
0.35763809 -0.10646122 -0.00000043
-0.20217115 0.25547418 -0.00000066
-0.43773404 -0.26238516 -0.00000034
-0.54908615 0.11810754 -0.00000029
-0.36435744 0.25842026 -0.00000051
-0.72105676 -0.15558705 -0.00000006
-0.25167328 -0.17888767 -0.00000039
-0.22835976 -0.62566102 -0.00000011
0.61618423 0.13952760 0.05535209
0.18238296 -0.32499930 -0.00000030
-0.77713501 -0.66725588 0.00000000
-0.40852517 0.38910592 -0.00000049
0.55281866 0.15194188 0.11903451
-0.10576079 -0.63165903 -0.00000011
-0.45247322 0.47640634 -0.00000043
-0.65929675 -0.52352083 -0.00000005
-0.74495256 0.07348113 -0.00000007
0.35601583 0.14309792 -0.00000068
-0.70015246 -0.67734510 0.00000000
0.03707048 -0.61320662 -0.00000012
-0.17230129 -0.60579413 -0.00000012
-0.35629877 -0.72762668 -0.00000005
0.37533599 0.26034459 0.20537531
-0.22209679 0.29280648 -0.00000067
-0.14063941 0.74440306 -0.00000082
-0.28383210 -0.64402592 -0.00000010
-0.27337307 0.63486421 -0.00000066
0.59198678 -0.39023247 -0.00000036
-0.05887486 -0.23691629 -0.00000035
0.77680254 -0.17075218 -0.00000079
0.23376372 0.44137964 0.15605198
-0.08295643 0.19326937 -0.00000062
0.20925424 0.43028346 0.20055357
0.33930415 0.15965089 0.37626210
0.22550149 0.27309734 0.37670636
0.42530394 -0.27139610 -0.00000033
-0.03112918 -0.45519885 -0.00000022
0.69027758 -0.22811063 -0.00000064
0.35137859 -0.36625060 -0.00000027
-0.15240967 -0.45390177 -0.00000022
0.22827010 0.29556578 -0.00000071
-0.77546185 0.45006955 -0.00000003
0.08996011 -0.06033288 -0.00000046
-0.13781406 0.74123257 -0.00000083
0.45256150 -0.11033405 -0.00000051
-0.00337451 -0.73348373 -0.00000004
-0.59626496 0.36890331 -0.00000025
-0.12112042 -0.30965587 -0.00000031
0.15619597 0.41384330 0.28741586
0.26246789 -0.44534954 -0.00000022
-0.53601003 -0.44677135 -0.00000020
0.66831732 -0.79591018 -0.00000001
0.66306400 0.12848110 0.01056525
0.01414797 0.70526177 -0.00000094
0.66901368 0.00415049 -0.00000086
0.08817018 -0.46745345 -0.00000021
-0.18882565 -0.23794135 -0.00000035
-0.04532851 -0.68839949 -0.00000007
0.01451450 0.38703665 -0.00000074
-0.74772829 0.72146899 -0.00000007
-0.54632735 0.21802789 -0.00000031
0.11953042 0.54398495 0.17058428
0.70660645 -0.72523087 -0.00000009
0.31582999 -0.37728351 -0.00000026
-0.39278454 -0.58910650 -0.00000013
0.24364720 -0.62162799 -0.00000011
0.34330013 -0.05235676 -0.00000047
-0.73553419 0.04491068 -0.00000008
0.33939132 -0.49338964 -0.00000019
0.12080877 -0.27192217 -0.00000033
-0.12480848 0.75607455 -0.00000084
0.24251306 -0.42611441 -0.00000023
-0.28309470 -0.09856688 -0.00000044
0.24528991 0.21039483 0.43034279
-0.27967313 -0.13287222 -0.00000042
-0.23122564 0.46247795 -0.00000069
-0.53119147 0.29727352 -0.00000034
-0.24353094 0.73481077 -0.00000070
-0.36652642 -0.00284371 -0.00000046
-0.47208148 0.05612602 -0.00000036
-0.60034126 -0.11723763 -0.00000019
0.17319041 -0.06586449 -0.00000046
0.15010257 0.57235390 0.09691693
0.17603344 0.47482869 -0.00000084
-0.10300425 0.20877907 -0.00000063
0.03703766 -0.79090488 -0.00000001
0.09600235 -0.76209289 -0.00000002
-0.59485656 -0.75172400 -0.00000003
-0.04094651 -0.56154972 -0.00000015
0.37277031 -0.59804136 -0.00000013
0.46184745 -0.14074633 -0.00000049
-0.10618897 -0.77308583 -0.00000002
0.30248269 -0.75040728 -0.00000003
0.48871377 -0.66142595 -0.00000009
0.71199250 0.07658804 0.01427059
-0.10732264 -0.49335718 -0.00000019
0.16653883 0.39125386 0.30272236
-0.22469185 0.06555201 -0.00000054
0.08715607 -0.68747908 -0.00000007
0.27635697 -0.33228204 -0.00000029
-0.37859040 -0.70570099 -0.00000006
0.02298760 0.47412804 -0.00000080
0.04840587 -0.00859565 -0.00000049
-0.38633645 -0.78335685 -0.00000001
-0.02288680 -0.19290812 -0.00000038
0.13706781 0.53391361 -0.00000086
0.66102499 -0.08029211 -0.00000077
-0.79134351 -0.28727236 0.00000000
0.42672950 0.01031529 -0.00000061
0.42171982 0.26969460 0.13571538
-0.08987151 0.37026197 -0.00000073
-0.00976451 0.72886801 -0.00000096
-0.47706836 0.75112647 -0.00000040
-0.24333450 0.52633291 -0.00000069
-0.38017112 0.03944112 -0.00000046
0.40680054 -0.14608407 -0.00000042
-0.61630213 0.49716204 -0.00000023
0.18240936 0.09267881 -0.00000056
-0.58231121 0.47423741 -0.00000027
0.29288828 0.05739065 -0.00000054
0.39047441 0.31216720 0.12168290
0.38930744 -0.69829857 -0.00000006
-0.27948928 -0.67570418 -0.00000008
-0.78696680 -0.47319806 0.00000000
0.09232504 0.41182309 -0.00000076
-0.54174119 0.51479667 -0.00000032
0.12626620 0.10455541 -0.00000057
-0.04936755 0.57664180 -0.00000086
-0.04152473 0.33638299 -0.00000071
-0.32415205 -0.33289397 -0.00000029
0.35599083 -0.47439688 -0.00000020
-0.36617944 -0.73293120 -0.00000004
-0.05079910 -0.08745664 -0.00000045
0.20326707 0.40793163 0.23597305
-0.24082036 0.05779522 -0.00000054
-0.11433723 0.03216468 -0.00000052
0.06275434 -0.68343794 -0.00000007
-0.17051788 0.15715583 -0.00000060
0.40972808 0.20685883 0.22923987
0.29871589 -0.38316128 -0.00000026
-0.00750824 -0.71420968 -0.00000005
-0.28942463 -0.50549132 -0.00000018
0.02062905 0.25556076 -0.00000066
0.78872269 -0.48124328 -0.00000040
-0.75291497 0.69605696 -0.00000006
-0.42483497 0.24381100 -0.00000044
0.57332218 0.12145553 0.13151170
0.18101899 -0.60652965 -0.00000012
-0.37248227 -0.69303501 -0.00000007
-0.48300108 0.49072486 -0.00000040
-0.25980031 -0.19916680 -0.00000038
0.10104229 -0.60159588 -0.00000012
-0.30774033 -0.79967475 -0.00000000
0.19593485 0.16839923 -0.00000061
0.37810302 -0.50632721 -0.00000018
-0.30039820 -0.31366423 -0.00000030
-0.39432976 -0.04191819 -0.00000043
0.20517249 -0.01619291 -0.00000049
0.79878622 -0.56455952 -0.00000029
-0.14873339 -0.68633604 -0.00000007
0.19404441 0.39852780 0.25925332
-0.42085248 0.71013290 -0.00000047
0.12677789 -0.49248561 -0.00000019
-0.24399042 0.27876833 -0.00000064
-0.27245176 0.20821856 -0.00000060
0.34805790 -0.37646678 -0.00000026
-0.22332792 0.29888871 -0.00000067
-0.69028896 0.21907701 -0.00000014
-0.49344561 0.79918540 -0.00000038
-0.07651746 0.61228639 -0.00000088
-0.66440761 -0.54672641 -0.00000004
0.44842029 0.20840152 0.17895158
-0.37412101 -0.54887807 -0.00000016
-0.20848612 -0.65802735 -0.00000009
0.14629716 0.44755381 0.25765467
0.37707558 0.22030984 0.25323907
0.02714053 -0.39479834 -0.00000025
0.22342227 0.34475857 0.28973916
0.44193947 -0.49936536 -0.00000019
-0.00889907 0.76431942 -0.00000098
0.30612189 0.15872905 -0.00000064
0.32547596 0.16596507 0.38565338
0.00382497 0.34205803 -0.00000071
-0.73528439 0.23671997 -0.00000008
-0.35370019 -0.16370033 -0.00000040
-0.30413425 0.34738976 -0.00000059
0.28738520 -0.74079382 -0.00000004
0.03739559 0.23242088 -0.00000065
0.40324250 0.12972933 -0.00000072
0.51844192 0.04917339 -0.00000075
0.61219352 -0.03607556 -0.00000076
-0.79359549 0.44943199 -0.00000001
-0.58739418 0.75113559 -0.00000027
-0.59986448 0.78527206 -0.00000025
0.26986760 0.27609548 0.31750843
-0.22564089 0.77123874 -0.00000072
0.00575088 0.13372289 -0.00000058
-0.11237103 0.22168013 -0.00000064
0.38263890 0.21412878 -0.00000078
-0.21070878 -0.54863966 -0.00000016
0.23287943 -0.76617444 -0.00000002
0.15163799 -0.00917569 -0.00000049
-0.66955447 -0.15154237 -0.00000011
0.71102595 -0.70859611 -0.00000011
-0.02910324 0.41982186 -0.00000076
0.17958164 -0.14481606 -0.00000041
0.08484079 -0.08428262 -0.00000045
0.40841454 0.15919250 0.29045787
-0.31781119 -0.78667718 -0.00000001
-0.72024339 -0.08548390 -0.00000007
0.17299508 0.40015963 -0.00000076
-0.56382132 0.16144842 -0.00000028
-0.13954797 -0.13915434 -0.00000041
-0.49852383 -0.49913675 -0.00000019
-0.32230920 -0.43946782 -0.00000023
0.72722673 -0.24888028 -0.00000066
0.50183415 -0.36849511 -0.00000029
0.56718397 0.20997214 0.02854963
-0.31369901 -0.21895695 -0.00000036
0.49858552 0.23333262 0.08509108
0.01137353 -0.79167551 -0.00000001
-0.63138920 0.39524987 -0.00000021
-0.58832991 0.58962595 -0.00000026
0.43687922 0.34085152 0.02783140
0.59410757 0.12032029 0.10695162
0.46151781 0.29624832 0.05278451
0.32847717 -0.30680749 -0.00000031
-0.78404856 0.69374561 -0.00000002
0.27344459 0.25048655 -0.00000071
0.39886901 0.33588839 0.08154238
0.08573385 -0.53203058 -0.00000017
-0.08170122 -0.55938518 -0.00000015
0.13567805 -0.01259327 -0.00000049
-0.23031220 0.71507657 -0.00000071
0.20362832 0.57735789 0.02376248
-0.44274747 -0.35518086 -0.00000028
-0.28068334 -0.27102512 -0.00000033
-0.44033742 -0.57381338 -0.00000014
0.01997393 -0.20943446 -0.00000037
0.65216047 -0.71204430 -0.00000008
-0.01311172 0.38310406 -0.00000074
0.34384486 -0.21429671 -0.00000037
-0.07910183 0.63627881 -0.00000089
-0.63065737 0.05869278 -0.00000019
-0.63461989 0.70489138 -0.00000021
0.00187548 0.79615086 -0.00000100
0.31697688 0.19681945 0.35771251
-0.05350745 -0.11176732 -0.00000043
0.44491348 -0.22451429 -0.00000038
-0.73441547 0.05571164 -0.00000008
0.45415527 -0.75695288 -0.00000003
0.77957290 -0.73665082 -0.00000008
-0.03786574 -0.36301288 -0.00000027
-0.23670432 0.43466979 -0.00000068
-0.69636053 -0.04305074 -0.00000010
-0.29901546 -0.39608642 -0.00000025
-0.50154454 0.76123726 -0.00000037
0.25697455 0.07515946 -0.00000055
-0.36435694 -0.28411290 -0.00000032
-0.22534674 -0.03567368 -0.00000048
0.48356101 -0.35658354 -0.00000028
-0.64715219 -0.69395661 -0.00000004
-0.77699065 0.69324660 -0.00000003
-0.55688483 -0.40418932 -0.00000019
-0.04809879 0.66806138 -0.00000092
-0.70175773 -0.74595463 0.00000000
0.55574083 0.04585972 -0.00000079
-0.54217964 -0.65925735 -0.00000009
0.61498171 -0.16026513 -0.00000063
-0.78417975 -0.71301675 0.00000000
0.57127905 0.08300108 0.18212835
-0.71722305 -0.53759170 0.00000000
0.12427082 -0.61446899 -0.00000012
-0.22033317 0.01221155 -0.00000051
-0.25350246 -0.43434730 -0.00000023
-0.52899796 0.23660006 -0.00000033
0.06179640 -0.34651905 -0.00000028
0.26431370 0.30291179 0.29093355
0.63162088 -0.61612177 -0.00000016
-0.26037145 0.03692204 -0.00000052
0.23782924 -0.26408589 -0.00000033
0.30434945 0.02598056 -0.00000052
-0.68758428 -0.11565821 -0.00000010
-0.71122503 0.30947232 -0.00000011
-0.77710384 0.33329093 -0.00000003
0.26190352 -0.46129289 -0.00000021
0.26388958 0.07702407 -0.00000055
-0.10987096 -0.14860891 -0.00000041
0.66615731 -0.02049335 -0.00000084
-0.72855693 -0.46768409 0.00000000
-0.38096526 -0.38552645 -0.00000026
-0.47434953 0.14571810 -0.00000037
-0.21871258 0.72234261 -0.00000073
-0.71202457 -0.50592691 -0.00000000
-0.62767160 -0.65473783 -0.00000006
-0.69999754 0.58109337 -0.00000013
-0.02146692 -0.77846783 -0.00000001
0.77557808 -0.35677642 -0.00000055
0.19980705 -0.38261950 -0.00000026
-0.17375615 0.05905833 -0.00000054
0.19767343 -0.07827708 -0.00000045
-0.18149829 -0.53552705 -0.00000017
-0.74104619 0.39589545 -0.00000007
0.49065158 -0.03965541 -0.00000063
-0.33396468 -0.47685337 -0.00000020
-0.34229884 -0.27700710 -0.00000033
-0.00114807 -0.31946263 -0.00000030
-0.74302340 0.61274189 -0.00000007
0.39775434 0.15207873 -0.00000073
0.74035120 -0.55109811 -0.00000031
-0.14545423 0.41428447 -0.00000076
-0.44437993 -0.04313722 -0.00000037
0.78907955 -0.72156954 -0.00000010
-0.73589110 0.07627825 -0.00000008
-0.78894675 0.26393825 -0.00000001
0.71821314 -0.60066837 -0.00000025
0.55699915 -0.56053340 -0.00000015
-0.22443573 -0.43135870 -0.00000023
-0.22055462 0.01134764 -0.00000051
-0.23333082 -0.76712793 -0.00000002
-0.29354551 -0.08829886 -0.00000044
-0.52836508 0.65627331 -0.00000034
-0.21762954 -0.59616357 -0.00000013
-0.70474386 -0.00940261 -0.00000010
0.08998939 0.54285777 0.20891479
-0.03135982 0.39716443 -0.00000075
0.65691847 -0.33687943 -0.00000049
0.67020738 -0.31981516 -0.00000052
0.49062234 -0.25335559 -0.00000040
0.14999543 0.40592647 -0.00000075
-0.74139488 0.79630709 -0.00000007
-0.06261319 -0.17164630 -0.00000039
0.20698078 0.23359951 0.44922078
-0.61804461 0.30961111 -0.00000023
-0.33075616 0.21121670 -0.00000054
-0.34299305 -0.36454239 -0.00000027
-0.16350089 -0.10447231 -0.00000043
-0.48221281 0.15649235 -0.00000037
0.09058597 -0.70250320 -0.00000006
0.35289642 0.30370888 -0.00000085
0.11520886 -0.33753139 -0.00000029
-0.70766056 0.24712238 -0.00000012
0.14794949 0.55273080 -0.00000089
-0.16966002 0.13543820 -0.00000058
-0.02735621 0.72897458 -0.00000096
-0.15429144 0.55136985 -0.00000079
0.01626939 -0.25006914 -0.00000034
0.23753724 0.26518932 0.37154740
-0.54639405 -0.32979098 -0.00000021
-0.70278209 0.41087097 -0.00000012
0.08897979 -0.02719785 -0.00000048
0.16285241 -0.71583670 -0.00000005
0.59939092 0.02960236 -0.00000082
0.59625000 0.19946633 0.00535177
0.52724189 0.12578575 0.18369378
0.05174974 -0.49950129 -0.00000019
-0.71565223 0.56710476 -0.00000011
0.77140963 -0.47403952 -0.00000041
0.18148355 0.59873950 0.02471635
-0.63927871 -0.04695844 -0.00000016
0.73317558 -0.79484159 -0.00000001
0.44062650 0.27563331 0.10466192
0.73993480 -0.26444998 -0.00000065
-0.71236277 -0.19636531 -0.00000006
0.06737308 -0.08878856 -0.00000044
-0.31929407 -0.43576768 -0.00000023
-0.39732999 -0.02015974 -0.00000043
-0.35501501 -0.38656354 -0.00000026
0.06624626 0.04667069 -0.00000053
-0.04877490 0.46383873 -0.00000079
-0.34137323 0.72741997 -0.00000057
0.29721153 0.32702252 -0.00000081
-0.54008186 -0.79104877 -0.00000001
-0.34279475 -0.76574951 -0.00000002
0.45654374 -0.40047863 -0.00000025
-0.27979636 -0.54435569 -0.00000016
0.65497166 0.09662518 0.06049530
-0.33825949 0.48317188 -0.00000058
-0.53007144 -0.31887141 -0.00000023
-0.19259726 -0.74486321 -0.00000003
-0.12345597 -0.32476762 -0.00000030
0.30100659 -0.31487650 -0.00000030
-0.28842714 -0.19979484 -0.00000038
0.38903508 -0.54770982 -0.00000016
-0.21212015 -0.63210469 -0.00000010
-0.73617339 0.37469816 -0.00000008
-0.08707344 -0.29921022 -0.00000031
0.37394348 -0.31335032 -0.00000030
0.67653668 -0.01554660 -0.00000085
0.16249219 0.05843529 -0.00000054
-0.01557430 0.33688134 -0.00000071
0.18311159 -0.12665720 -0.00000042
-0.33753175 -0.36798605 -0.00000027
-0.23350088 -0.35178196 -0.00000028
-0.39434230 0.48126423 -0.00000051
0.69341427 -0.47048146 -0.00000038
-0.68547940 -0.33428830 -0.00000006
0.03432012 -0.41464996 -0.00000024
-0.19885272 0.49205071 -0.00000073
-0.64833558 0.54607159 -0.00000019
-0.66802621 -0.42944151 -0.00000006
0.37959975 -0.75453478 -0.00000003
-0.49623337 0.32974932 -0.00000038
-0.00852358 0.46209052 -0.00000079
0.34807426 0.17405014 0.34730393
0.50946802 -0.60055834 -0.00000012
-0.17132334 -0.24588870 -0.00000035
-0.45154560 -0.62961334 -0.00000011
-0.28998125 0.47777236 -0.00000063
0.25147307 0.10374043 -0.00000056
0.16018808 0.59288925 0.05864489
-0.46580476 0.59736365 -0.00000042
0.46930432 -0.49425769 -0.00000019
-0.26607752 0.16807683 -0.00000060
0.39424428 -0.59485936 -0.00000013
-0.54679996 -0.69272387 -0.00000007
0.06636461 0.63280779 -0.00000090
-0.02458154 0.51299292 -0.00000082
0.43440896 -0.14927109 -0.00000045
-0.01499035 -0.03071217 -0.00000048
0.72836548 -0.61432225 -0.00000023
0.72038668 -0.49705136 -0.00000038
0.72592920 -0.70886016 -0.00000011
0.25880909 -0.59392732 -0.00000013
-0.18951124 0.61398917 -0.00000076
-0.36505738 -0.16795529 -0.00000040
-0.67144972 -0.09452869 -0.00000012
0.19819133 0.43853873 0.20406260
0.78770560 -0.01523197 -0.00000097
0.52807248 0.21370362 0.07276996
0.28993490 0.33521688 -0.00000081
-0.68451452 0.79426277 -0.00000014
-0.22777358 -0.44981730 -0.00000022
-0.36840248 0.05538333 -0.00000047
-0.54765910 -0.37767375 -0.00000020
0.25681603 0.28062686 0.32815731
-0.19595376 -0.10172651 -0.00000044
0.72392434 -0.17886952 -0.00000073
0.14295861 0.58119148 0.09480006
0.20407462 0.06454016 -0.00000054
0.42181462 0.09024919 -0.00000069
0.48757580 0.05193972 -0.00000072
-0.20927054 -0.49186215 -0.00000019
-0.27123031 -0.64348263 -0.00000010
-0.63502932 -0.75557578 -0.00000003
0.15265022 0.18668488 -0.00000062
0.41081446 0.24764609 0.17690337
-0.20543605 -0.14331819 -0.00000041
0.04175394 -0.42066935 -0.00000024
-0.78681022 0.77237791 -0.00000002
-0.18709925 0.45846418 -0.00000074
-0.15587191 -0.17151758 -0.00000039
0.65926474 -0.20972335 -0.00000063
-0.63055801 0.15273529 -0.00000021
0.42691317 -0.03977834 -0.00000056
0.42971829 0.18686119 0.22924918
-0.56399226 0.29504603 -0.00000030
-0.68261862 0.03087152 -0.00000013
0.41286808 0.32073581 0.08298412
0.62207723 -0.50609529 -0.00000027
-0.44871625 -0.54592186 -0.00000016
-0.35760021 -0.78381163 -0.00000001
0.47466078 -0.20223399 -0.00000044
0.24752684 0.46342587 -0.00000090
-0.40408579 0.59829515 -0.00000049
-0.40835354 0.55372494 -0.00000049
-0.60606903 0.32143465 -0.00000024
-0.36593726 0.09087630 -0.00000048
0.72274089 -0.71223599 -0.00000011
-0.06411581 -0.26655972 -0.00000033
-0.10767216 0.41443661 -0.00000076
0.00956585 -0.06628395 -0.00000046
-0.25539824 0.49698839 -0.00000067
-0.30136698 0.69703114 -0.00000062
-0.12589401 -0.01744902 -0.00000049
0.26438549 0.46524155 0.08795466
0.25884232 0.09503015 -0.00000056
0.73651654 -0.07413650 -0.00000085
0.07378271 -0.52545673 -0.00000017
-0.07133165 0.17716756 -0.00000061
0.04337373 0.56452119 -0.00000085
0.32887235 0.36765006 0.12933107
0.46559480 -0.36172459 -0.00000027
-0.72973937 0.34700927 -0.00000009
-0.67809129 -0.05628085 -0.00000012
0.18911082 0.33188203 0.34871688
-0.08074150 0.60608363 -0.00000088
0.12750392 0.34173763 -0.00000071
-0.27721310 0.61130047 -0.00000065
0.31313497 -0.57475811 -0.00000014
0.03359874 -0.05477039 -0.00000047
0.75838733 -0.09492464 -0.00000085
-0.68625516 0.12429319 -0.00000014
-0.25106734 -0.33672470 -0.00000029
0.40868384 0.20414615 0.23393556
-0.13120177 0.62680268 -0.00000083
0.27100766 -0.15358585 -0.00000040
0.47149381 0.06205225 -0.00000072
-0.69804436 -0.56839490 -0.00000000
-0.59206271 -0.38060838 -0.00000015
0.36875114 0.17908078 0.31517351
-0.72483265 0.16196065 -0.00000009
0.62436372 -0.31351110 -0.00000048
0.79771811 -0.66476649 -0.00000017
-0.06328197 0.08400709 -0.00000055
0.76482189 -0.55328232 -0.00000031
0.43640900 -0.68761331 -0.00000007
-0.68913859 0.14864711 -0.00000014
0.07080543 -0.14617059 -0.00000041
0.52306825 -0.09595263 -0.00000060
-0.07944124 -0.73186982 -0.00000004
-0.25037169 0.26460558 -0.00000063
0.25493154 0.14730245 -0.00000059
-0.53458977 -0.08875303 -0.00000027
0.43376985 -0.29009348 -0.00000032
0.64044583 -0.04556714 -0.00000078
0.11153960 -0.18068087 -0.00000039
0.61925066 -0.45855856 -0.00000032
0.70866269 -0.15219010 -0.00000074
-0.66741025 0.03262068 -0.00000015
-0.22651517 -0.64868605 -0.00000009
-0.55946839 -0.41725561 -0.00000018
-0.29650840 -0.61976618 -0.00000011
0.59055328 0.20662022 0.00353051
-0.59297246 0.35525388 -0.00000026
0.39276859 -0.55368221 -0.00000015
-0.63704741 0.37622893 -0.00000020
-0.05738908 0.23722315 -0.00000065
0.13659397 -0.24557157 -0.00000035
0.57902586 0.07889964 0.17757209
-0.36958772 0.10467399 -0.00000048
0.17932343 0.25355160 -0.00000066
0.43848422 -0.55319381 -0.00000015
0.07600843 0.50567120 -0.00000082
0.08134643 0.38855237 -0.00000074
-0.17821446 -0.64007586 -0.00000010
0.25030160 0.05186456 -0.00000053
-0.25586566 -0.67513883 -0.00000008
0.30529335 0.44931862 0.05672681
0.25381210 -0.09667874 -0.00000044
0.37309751 -0.31933510 -0.00000030
0.03509757 -0.73794144 -0.00000004
-0.56079727 -0.26879045 -0.00000021
0.45305043 -0.68765885 -0.00000007
0.25433591 -0.73285615 -0.00000004
-0.18950519 -0.54579556 -0.00000016
-0.04072157 -0.75196719 -0.00000003
-0.77378935 -0.43939972 0.00000000
-0.41161567 -0.34138042 -0.00000029
-0.67534465 -0.38941586 -0.00000006
-0.73532885 0.59845626 -0.00000008
-0.44254541 0.50332725 -0.00000045
-0.09558574 -0.10588226 -0.00000043
0.47015771 0.22971679 0.12514140
-0.28614137 0.77162927 -0.00000064
0.50756830 0.26586443 0.03320336
-0.52418190 -0.65747291 -0.00000009
0.32141510 0.20667095 0.33985251
0.32826537 -0.14583458 -0.00000041
-0.75795007 0.33142760 -0.00000005
-0.27590096 -0.19007598 -0.00000038
0.33245349 -0.77593488 -0.00000002
0.62664646 -0.06551777 -0.00000075
-0.77776629 0.50466108 -0.00000003
-0.33364865 0.50190115 -0.00000058
-0.02229991 -0.58881938 -0.00000013
0.24842519 0.54117221 0.01299963
-0.73064804 -0.44325793 0.00000000
0.09238864 0.13630955 -0.00000059
0.08980410 -0.29216608 -0.00000032
-0.32147825 0.38267556 -0.00000058
-0.59011072 -0.69123471 -0.00000007
0.65195048 -0.58201575 -0.00000022
-0.23174256 0.28468823 -0.00000066
-0.60788298 0.79558468 -0.00000024
0.00876996 0.78171426 -0.00000099
0.02385226 0.02619943 -0.00000052
-0.53173631 -0.29798883 -0.00000023
0.30503696 -0.79042631 -0.00000001
0.46562514 -0.71505404 -0.00000005
0.75693029 -0.26135880 -0.00000067
-0.09702960 -0.00487704 -0.00000050
-0.68514585 0.63809079 -0.00000014
-0.19590025 -0.71513766 -0.00000005
-0.62530100 0.34424305 -0.00000022
0.51895970 -0.15940420 -0.00000053
0.27213147 -0.64169902 -0.00000010
-0.05772712 -0.46608958 -0.00000021
0.09938909 0.53076541 -0.00000083
-0.12509228 -0.36997554 -0.00000027
-0.71202725 -0.78120500 0.00000000
0.33146724 0.20549914 -0.00000072
-0.59130543 0.73787779 -0.00000026
-0.59326309 0.22566484 -0.00000026
0.00305371 0.20834403 -0.00000063
0.40253642 0.25528595 -0.00000085
0.08956665 -0.55328691 -0.00000015
-0.50631481 0.20509285 -0.00000035
0.47070551 0.01412914 -0.00000066
0.27158347 -0.70766693 -0.00000006
-0.50157595 0.51582378 -0.00000037
0.13749647 0.49841261 -0.00000082
0.51404256 -0.52602214 -0.00000017
-0.42590800 -0.74046099 -0.00000004
-0.66009361 -0.61882830 -0.00000004
-0.17539524 0.30489767 -0.00000069
0.53938806 -0.13812961 -0.00000057
0.31885692 0.25670278 0.28051746
0.02377878 -0.49827808 -0.00000019
0.44866589 -0.68787140 -0.00000007
0.10352063 0.54486459 0.18949459
-0.78332102 -0.47577059 0.00000000
0.52443141 -0.34248242 -0.00000034
0.51241219 0.17440744 0.14145829
0.53027368 -0.52239448 -0.00000017
-0.39470819 0.12046568 -0.00000045
-0.78657180 0.68756175 -0.00000002
-0.22252426 -0.02111884 -0.00000049
0.16935968 0.55295205 -0.00000092
-0.48187461 0.10457314 -0.00000036
0.23800419 0.32548940 0.29559767
-0.63359785 0.41709310 -0.00000021
-0.69563121 -0.25523707 -0.00000006
-0.32167593 -0.28662688 -0.00000032
0.05157554 -0.62647265 -0.00000011
0.02916532 0.08532917 -0.00000055
-0.46176034 0.77263641 -0.00000042
-0.25563392 0.36799434 -0.00000065
-0.15283661 0.48708469 -0.00000078
-0.69398290 -0.39725646 -0.00000004
-0.74740726 -0.54393059 0.00000000
0.14770617 0.56368470 -0.00000091
0.24037024 -0.14185874 -0.00000041
0.72657615 -0.17068306 -0.00000074
-0.69136506 0.34251231 -0.00000014
-0.26594046 0.50524151 -0.00000066
0.56768626 0.19012734 0.05272518
-0.45618594 0.50706095 -0.00000043
-0.18305971 -0.12905948 -0.00000042
-0.02447897 0.13264100 -0.00000058
-0.34146318 -0.56386691 -0.00000015
0.15348066 -0.31918880 -0.00000030
-0.32788274 -0.74025404 -0.00000004
0.26095769 -0.66157901 -0.00000009
0.00205577 -0.21026181 -0.00000037
-0.26267096 -0.66889632 -0.00000008
0.53885150 0.09995816 0.20146438
-0.55956411 -0.38372636 -0.00000019
-0.11464171 -0.12861508 -0.00000042
0.66001952 -0.11107357 -0.00000073
0.66655076 -0.25026357 -0.00000059
0.44119406 0.14571100 0.26633829
0.11398097 0.09373202 -0.00000056
-0.62080961 -0.74602610 -0.00000003
-0.31417072 0.42047352 -0.00000060
-0.32094893 0.28343627 -0.00000056
-0.67241108 -0.56411403 -0.00000003
-0.16667159 -0.41690680 -0.00000024
-0.31491411 -0.25804764 -0.00000034
0.28072563 0.03222436 -0.00000052
-0.10598079 0.23366965 -0.00000065
0.01699133 0.01203351 -0.00000051
-0.18030895 -0.34624574 -0.00000028
-0.31571698 0.60198456 -0.00000061
0.12157647 0.46363929 0.26844719
-0.61721522 -0.22933500 -0.00000015
-0.04595460 -0.04763984 -0.00000047
-0.42655608 0.55712384 -0.00000047
-0.41234368 0.39939356 -0.00000048
-0.72569633 -0.27242240 -0.00000003
-0.38164508 -0.47585231 -0.00000020
0.63175929 -0.44362539 -0.00000035
-0.61816961 -0.45611581 -0.00000011
0.36432070 0.17537159 -0.00000072
-0.09981324 0.40615979 -0.00000075
-0.35885218 0.43105164 -0.00000055
-0.75746870 -0.61764205 0.00000000
-0.25291583 -0.43929115 -0.00000023
-0.17006451 -0.63645512 -0.00000010
-0.07659458 0.30995631 -0.00000069
0.20606150 0.31160760 0.35287118
-0.25721017 0.44728100 -0.00000066
0.19814683 0.14710470 -0.00000059
0.08835074 0.62129182 -0.00000090
0.02564511 0.75671840 0.02204095
-0.70142543 -0.35022733 -0.00000004
0.22437888 -0.64512968 -0.00000010
0.52601492 -0.72631478 -0.00000005
-0.10782077 0.35545251 -0.00000072
-0.04956239 0.18200825 -0.00000061
-0.59692830 -0.32267550 -0.00000016
-0.08399062 -0.75871593 -0.00000003
0.60132402 -0.46842027 -0.00000029
0.06000785 0.05463927 -0.00000053
-0.24116340 -0.19915675 -0.00000038
0.03358663 0.39225480 -0.00000075
-0.69485474 -0.42055327 -0.00000004
0.36384654 -0.08512852 -0.00000045
-0.70331538 -0.79249603 0.00000000
-0.72303462 -0.58403885 0.00000000
0.08451183 0.61711842 0.12294606
-0.28263417 0.16683584 -0.00000058
0.79422235 -0.08676741 -0.00000089
-0.28580904 -0.39143097 -0.00000026
-0.30800202 0.60484797 -0.00000061
-0.28943866 -0.50973988 -0.00000018
0.37780881 -0.63191581 -0.00000011
-0.35394034 0.78132808 -0.00000056
0.41534227 0.15133502 0.29161999
-0.02882801 0.66445953 -0.00000092
-0.20518674 -0.17917030 -0.00000039
0.27150738 0.33456045 0.24238646
0.41810721 0.21078008 -0.00000082
0.38223419 -0.44663954 -0.00000022
0.33750457 0.20537990 -0.00000073
0.47340557 -0.09618432 -0.00000055
-0.65849566 0.16285194 -0.00000018
-0.09147570 -0.76302177 -0.00000002
-0.76073563 0.22362293 -0.00000005
-0.79851431 -0.21973160 0.00000000
0.13541676 0.21466462 -0.00000063
-0.26923364 0.32821703 -0.00000063
0.20688367 -0.76861238 -0.00000002
-0.35821345 0.46137682 -0.00000055
-0.67417592 -0.58292145 -0.00000003
0.10872012 0.48210639 0.26143450
-0.71852171 -0.63238746 0.00000000
0.60712194 0.14599419 0.05859640
-0.17661166 -0.44946390 -0.00000022
-0.68741697 -0.46113220 -0.00000004
-0.74619591 0.35503048 -0.00000007
-0.77969438 0.55501974 -0.00000003
0.16437863 -0.50294107 -0.00000019
-0.21230906 -0.02301834 -0.00000049
0.79182303 -0.23662043 -0.00000070
0.20132354 0.42413759 -0.00000081
-0.57754803 0.59541309 -0.00000028
0.52602148 0.11479464 0.19895656
0.46830732 0.14895421 -0.00000081
0.14934428 -0.39490551 -0.00000025
0.53774661 0.24724503 0.01875623
-0.12567727 -0.06981224 -0.00000046
-0.13841382 -0.44770119 -0.00000022
-0.16009617 0.57012707 -0.00000079
0.54122323 0.15725039 0.12689231
-0.58891761 -0.54379523 -0.00000013
0.27105427 0.27288792 0.32003427
-0.32716176 -0.32736292 -0.00000030
0.21505721 0.14966434 -0.00000059
-0.32635060 0.06314717 -0.00000052
-0.22289672 0.07611917 -0.00000055
-0.16784918 -0.02130113 -0.00000049
0.51488906 -0.70618576 -0.00000006
0.18513180 -0.43385810 -0.00000023
-0.02501400 -0.72139531 -0.00000005
-0.49813822 -0.13332354 -0.00000030
-0.46552545 -0.01511435 -0.00000035
0.39614815 0.25087559 0.19119789
-0.66119111 0.50063282 -0.00000017
0.50735325 -0.36425513 -0.00000030
-0.26533824 -0.75006461 -0.00000003
0.55707353 -0.24451436 -0.00000048
0.06120130 0.18655498 -0.00000062
0.06832156 0.59113324 -0.00000087
-0.59711152 -0.46577346 -0.00000013
-0.66722804 0.45526335 -0.00000017
-0.61313844 -0.48756558 -0.00000011
-0.29511127 -0.30558077 -0.00000031
-0.53848708 -0.64438808 -0.00000010
-0.53817773 0.50944102 -0.00000033
-0.77798080 0.16244659 -0.00000003
0.43385217 0.18096247 -0.00000080
-0.45324299 -0.34109470 -0.00000029
-0.76237273 0.30118403 -0.00000005
-0.03945604 -0.09117717 -0.00000044
-0.00160917 0.33027676 -0.00000071
0.32873213 0.12242846 -0.00000063
0.23086235 0.13278928 -0.00000058
0.22458045 0.50234884 0.09132648
0.06788765 0.21837695 -0.00000064
0.05399053 -0.39938653 -0.00000025
-0.43009040 0.18668126 -0.00000043
0.60752469 -0.04444778 -0.00000075
-0.29570130 -0.15636341 -0.00000040
-0.55019039 0.18001200 -0.00000030
-0.39558181 0.01553553 -0.00000043
-0.32075220 -0.26031357 -0.00000034
0.61793768 -0.05874488 -0.00000074
0.14622962 0.59975606 0.06750849
0.27380136 0.39072236 -0.00000086
0.02685465 0.75538248 0.02219894
-0.21216699 0.37762511 -0.00000070
-0.66559184 0.28087792 -0.00000017
