ply
format ascii 1.0
element vertex 1359
property float x
property float y
property float z
end_header
-0.21214336 0.56004828 -0.00000007
-0.38686493 0.37239426 -0.00000029
-0.07146741 -0.07927631 0.03257092
-0.52491158 0.02114125 0.23922715
-0.05689769 0.11382348 0.02593084
-0.73814797 -0.09935609 -0.00000156
-0.50854605 -0.33263060 0.23176783
-0.66552114 -0.51267111 0.30330884
-0.46805695 -0.74669588 0.21331467
-0.05678969 0.30465469 0.02588163
-0.25284261 -0.05256012 0.11523178
-0.58344865 0.13704571 0.26590568
-0.68293834 -0.26324794 0.31124735
-0.40478989 0.33895591 -0.00000007
-0.70438498 -0.37610182 -0.00000093
-0.09845822 0.08353057 0.04487185
-0.00708744 -0.73187441 0.00323007
-0.75378817 0.02132014 -0.00000147
-0.50962919 -0.30228305 0.23226152
-0.45909959 0.11040884 0.20923349
-0.64104068 0.05258004 0.00000017
-0.44066638 -0.13530938 0.20083202
-0.42211613 0.00147789 0.19237801
-0.44357282 -0.51793641 0.20215614
-0.27512756 0.35902235 0.12538864
-0.27389312 0.34628829 0.12482601
-0.07405890 0.70873302 0.03375220
-0.42640620 -0.49376294 0.19433253
-0.54591638 0.16917722 0.00000005
-0.08832909 0.45949620 0.04025555
-0.06857197 -0.46345258 0.03125134
-0.63278520 -0.02612352 -0.00000124
-0.54486799 0.16637385 0.00000012
-0.66228408 -0.09384648 0.30183452
-0.12956446 0.20118615 0.05904837
-0.32838708 0.25601688 0.14966148
-0.52351445 0.13113102 0.00000112
-0.15408136 -0.14075512 0.07022183
-0.28380406 -0.76173860 0.12934232
-0.41302514 0.25173357 0.18823531
-0.50848824 0.19396466 0.00000036
-0.12776320 -0.68671489 0.05822745
-0.58040035 -0.62247199 0.26451486
-0.75468588 -0.65942925 -0.00000035
-0.25786570 0.48873904 0.00000025
-0.65056127 -0.64358753 0.29649055
-0.11550679 0.32847366 0.05264165
-0.54960173 0.11847781 0.00000083
-0.44548661 0.05543466 0.20302925
-0.73610646 -0.38268206 -0.00000104
-0.36222845 -0.72424239 0.16508384
-0.17458624 0.46010447 0.07956708
-0.09128815 0.66334623 0.04160434
-0.65343654 -0.25914717 -0.00000092
-0.49822554 -0.72287494 0.22706385
-0.26698756 -0.70917529 0.12167828
-0.00237538 0.71916634 0.00108257
-0.48891073 -0.18382895 0.22281931
-0.06001874 0.25974062 0.02735325
-0.66309172 0.00791297 0.30220279
-0.10669047 -0.58149529 0.04862366
-0.20819138 0.35134262 0.09488241
-0.12202313 -0.23834607 0.05561144
-0.39529109 0.04682273 0.18015258
-0.24228299 -0.01591101 0.11041929
-0.10334272 -0.15383258 0.04709794
-0.55231971 -0.01441695 0.25171834
-0.41368803 0.25220358 0.18853743
-0.05897123 0.57356024 0.02687585
-0.33822814 0.07702903 0.15414618
-0.56769317 -0.62897968 0.25872353
-0.77558339 -0.02423104 -0.00000185
-0.21688575 -0.01729474 0.09884461
-0.41407678 -0.55666190 0.18871348
-0.46639803 -0.34729242 0.21255881
-0.31693274 -0.30230424 0.14444055
-0.47973460 -0.17278358 0.21863732
-0.62644249 -0.46691832 0.28549892
-0.13213211 0.31738877 0.06021857
-0.36518043 -0.43607885 0.16642921
-0.18592113 -0.75464797 0.08473265
-0.23988302 -0.79969722 0.10932551
-0.39977387 -0.69016844 0.18219499
-0.42919904 -0.12872282 0.19560578
-0.55595863 -0.45170969 0.25337589
-0.15176329 0.23668028 0.06916538
-0.19381255 -0.20166178 0.08832912
-0.36868256 0.11418434 0.16802587
-0.06556583 -0.53554338 0.02988131
-0.32214350 0.08174002 0.14681560
-0.32090864 -0.75793743 0.14625254
-0.03538615 -0.37970877 0.01612707
-0.71737546 -0.26481938 -0.00000118
-0.63997710 -0.54071057 0.29166719
-0.46129790 0.32524064 -0.00000093
-0.41280335 -0.12246356 0.18813346
-0.09521477 -0.18090022 0.04339367
-0.41538876 0.00734103 0.18931203
-0.26227555 0.22829793 0.11953106
-0.17061698 -0.78959161 0.07775786
-0.23876882 0.50207776 0.00000039
-0.30938700 0.41169256 0.14100251
-0.59773779 -0.17618415 0.27241734
-0.58597738 -0.06293570 0.26705775
-0.35086033 -0.19240639 0.15990289
-0.39912716 0.33111113 0.18190147
-0.72505653 -0.67858827 0.33044121
-0.38146007 -0.76536769 0.17384855
-0.14031604 0.34439796 0.06394835
-0.78359115 -0.46139824 -0.00000085
-0.30285111 0.19587356 0.13802332
-0.42344666 -0.10912903 0.19298418
-0.48948377 0.25321174 -0.00000027
-0.60795820 -0.39487988 0.27707484
-0.71186113 -0.30734798 -0.00000108
-0.38372776 -0.68593264 0.17488205
-0.07279060 -0.01779744 0.03317396
-0.57440829 -0.60269493 0.26178402
-0.50996441 -0.69521409 0.23241378
-0.06021033 -0.60799533 0.02744056
-0.10759325 -0.06093932 0.04903510
-0.27660874 -0.41038144 0.12606308
-0.39221770 -0.22605392 0.17875132
-0.77028739 -0.35599494 -0.00000111
-0.56189173 -0.26393932 0.25608030
-0.52506649 0.23627603 -0.00000067
-0.05746754 0.19748510 0.02619055
-0.20976675 -0.65389520 0.09560017
-0.38669109 0.34193665 0.00000023
-0.33864027 -0.32041219 0.15433364
-0.10409519 -0.15492736 0.04744087
-0.73243481 -0.78342319 -0.00000004
-0.48670146 0.12722339 0.22181308
-0.43056107 -0.57164067 0.19622611
-0.08880917 0.08489905 0.04047435
-0.11593673 -0.55583239 0.05283760
-0.09827991 0.42978033 0.04479059
-0.58306372 -0.28866604 0.26572940
-0.18225574 0.57520634 0.08306270
-0.57882369 -0.40849948 0.26379672
-0.44062683 -0.73647565 0.20081352
-0.25749466 -0.19775788 0.11735194
-0.46806076 0.02885592 0.21331736
-0.11337044 0.61040622 0.05166825
-0.25741971 -0.71105623 0.11731777
-0.64079225 -0.50196648 0.29203877
-0.15276062 -0.68253249 0.06961991
-0.74094343 -0.77755886 -0.00000006
-0.28422961 0.47266808 0.00000001
-0.47507367 -0.12962908 0.21651319
-0.28368679 -0.32978553 0.12928887
-0.27836820 -0.44970509 0.12686494
-0.50784761 0.18172625 0.23145054
-0.61981082 0.11689751 0.28247768
-0.10449719 -0.45471308 0.04762408
-0.25542668 -0.63759333 0.11640946
-0.77026075 -0.61156178 -0.00000047
-0.57493502 -0.45696163 0.26202437
-0.61222333 0.10167867 -0.00000009
-0.40318033 -0.11770109 0.18374778
-0.43051946 0.23061638 0.00000124
-0.53900898 -0.01061040 0.24565198
-0.09609538 -0.11468289 0.04379500
-0.59783816 -0.37656447 0.27246267
-0.05991985 0.21873331 0.02730818
-0.11224011 -0.54176337 0.05115288
-0.07395863 -0.29777673 0.03370628
-0.02853272 -0.46418837 0.01300365
-0.03373999 0.15104493 0.01537683
-0.43295929 -0.75219142 0.19731908
-0.38349235 0.26414025 0.17477576
-0.40703243 -0.41205490 0.18550304
-0.14614297 -0.67113161 0.06660395
-0.64329922 -0.70606905 0.29318073
-0.24085733 0.25510952 0.10976975
-0.66036516 -0.55394262 0.30095890
-0.63306075 0.05882334 0.28851628
-0.01046503 -0.14712587 0.00476939
-0.44241017 -0.55278295 0.20162627
-0.59394896 -0.43656507 0.27069002
-0.19881213 -0.77457386 0.09060765
-0.47772458 -0.49475050 0.21772064
-0.68289679 -0.70329410 0.31122711
-0.58685398 -0.52933902 0.26745632
-0.21632598 -0.50715232 0.09858951
-0.04828418 0.41350400 0.02200528
-0.61551040 -0.73250383 0.28051606
-0.50669062 -0.14490427 0.23092259
-0.54841882 0.17455886 0.24994092
-0.30492750 0.38725862 0.13897003
-0.13068233 -0.39169177 0.05955783
-0.16308296 -0.43118742 0.07432426
-0.71327317 -0.75422299 0.32507077
-0.45570192 -0.73234272 0.20768392
-0.43929341 0.01719289 0.20020662
-0.09360059 -0.05913543 0.04265801
-0.55156100 -0.14704594 0.25137228
-0.13275523 -0.05744555 0.06050255
-0.31190452 -0.21087959 0.14214896
-0.27481863 -0.02380651 0.12524725
-0.69424015 -0.43426311 -0.00000078
-0.76731086 -0.36866611 -0.00000108
-0.06352727 0.19715591 0.02895224
-0.11235717 -0.79740733 0.05120623
-0.61546844 -0.51759112 0.28049737
-0.47903985 -0.52482694 0.21832007
-0.15262336 0.55506545 0.06955767
-0.07608450 -0.71334118 0.03467514
-0.30844095 -0.49699911 0.14057045
-0.13965510 -0.34771851 0.06364713
-0.26424801 0.34617710 0.12043024
-0.14893502 -0.57682186 0.06787641
-0.12992711 -0.78726494 0.05921365
-0.40825337 -0.56858444 0.18605947
-0.64044404 -0.29429579 0.29188049
-0.60903138 0.02881799 0.00000119
-0.05222958 -0.55572444 0.02380337
-0.73369873 -0.72417641 -0.00000019
-0.71505475 -0.07569992 -0.00000150
-0.77139264 -0.71478873 -0.00000021
-0.73443234 -0.28605115 -0.00000121
-0.20914802 0.37165120 0.09531845
-0.05631527 -0.52435255 0.02566541
-0.02447267 0.63104212 0.01115330
-0.58874565 0.01998123 0.26831955
-0.47476774 0.09188526 0.21637420
-0.16854516 0.58428884 0.07681411
-0.31396917 0.38209274 0.14309075
-0.01060674 -0.06280843 0.00483397
-0.36327153 -0.15414429 0.16555925
-0.67653877 -0.42680195 -0.00000072
-0.29810956 0.39900032 0.13586278
-0.32568300 -0.16469321 0.14842844
-0.22007804 0.12497873 0.10029949
-0.70284015 -0.17796470 -0.00000127
-0.68380940 -0.62498730 -0.00000040
-0.49611801 0.19054542 0.22610481
-0.64533192 -0.26496011 -0.00000087
-0.14487246 0.59345603 0.06602528
-0.46941885 0.19269657 0.00000113
-0.78613216 -0.59751797 -0.00000051
-0.72149295 -0.25322402 0.32881844
-0.01593754 0.27386734 0.00726345
-0.09015703 0.39594194 0.04108862
-0.34882268 -0.38226384 0.15897425
-0.78060794 -0.23025157 -0.00000142
-0.20285608 -0.48441982 0.09245066
-0.17084678 -0.38537711 0.07786259
-0.52310151 0.10101141 0.00000163
-0.57854998 -0.02652254 0.26367277
-0.00776318 0.12670848 0.00353803
-0.66004211 0.01217657 0.30081293
-0.14547741 0.62582672 0.00000012
-0.49439499 -0.50153387 0.22531812
-0.31777975 -0.16308425 0.14482656
-0.02356208 0.34727857 0.01073830
-0.48370397 0.30645609 -0.00000104
-0.59588188 -0.71755147 0.27157038
-0.36385983 -0.05588974 0.16582756
-0.04905164 0.21618299 0.02235504
-0.34438246 -0.12928067 0.15695062
-0.54465729 -0.55191582 0.24822509
-0.66116840 0.07205158 0.30132636
-0.59619468 -0.75526994 0.27171287
-0.00361380 0.75570726 0.00164697
-0.41825068 0.08745846 0.19061650
-0.05763625 0.60624522 0.02626744
-0.01976669 0.75266659 0.00900858
-0.68475205 -0.42197469 0.31207347
-0.16744056 -0.71294051 0.07631022
-0.10463930 0.61071271 0.04768903
-0.72143596 -0.23868516 0.32879251
-0.57712716 0.16023575 0.26302469
-0.00900524 -0.78079653 0.00410410
-0.22162862 -0.11242244 0.10100616
-0.47148681 -0.10910876 0.21487851
-0.38462383 -0.60727763 0.17529044
-0.12591796 -0.14748684 0.05738649
-0.06532496 -0.45833585 0.02977153
-0.77448201 -0.66723794 -0.00000033
-0.18619877 -0.09499548 0.08485918
-0.32808015 -0.55996048 0.14952092
-0.01215365 0.32617378 0.00553897
-0.68432570 -0.24173278 -0.00000108
-0.56753767 -0.14577290 0.25865367
-0.53029388 -0.22463636 0.24167962
-0.52725911 -0.28891784 0.24029639
-0.61277252 -0.41057396 0.27926892
-0.38574365 -0.06525729 0.17580111
-0.62380701 -0.50806582 0.28429773
-0.34488505 0.43929121 -0.00000060
-0.38214424 -0.48247367 0.17416038
-0.45401227 -0.24316087 0.20691422
-0.28397009 0.39596564 0.12941869
-0.09927016 -0.30905780 0.04524189
-0.06479664 -0.70713097 0.02953075
-0.04373070 -0.52981257 0.01993005
-0.68478537 -0.19632427 0.31208926
-0.38247606 -0.78441042 0.17431159
-0.19513029 0.09963042 0.08892968
-0.37014177 -0.44483429 0.16869031
-0.13399298 0.37138960 0.06106664
-0.63654840 0.09979783 0.29010585
-0.66837102 -0.34035632 -0.00000084
-0.26831913 0.14480840 0.12228525
-0.38773248 -0.54773068 0.17670718
-0.59980369 -0.25267342 0.27335870
-0.56429601 -0.10853055 0.25717637
-0.54688185 -0.79124081 0.24923873
-0.51412523 -0.00446067 0.23431119
-0.15849915 0.36228946 0.07223521
-0.38544121 0.16923729 0.17566375
-0.14402977 0.63019365 0.00000007
-0.07937479 0.20001040 0.03617467
-0.42459548 -0.72440803 0.19350731
-0.52604580 -0.38991383 0.23974320
-0.62343508 -0.55321974 0.28412810
-0.10315391 -0.42594725 0.04701189
-0.22859183 -0.06547853 0.10417961
-0.12465207 -0.23896362 0.05680957
-0.28643295 0.44925660 0.13054127
-0.51137090 -0.05332223 0.23305583
-0.20461534 -0.53254014 0.09325244
-0.17068858 0.43485415 0.07779067
-0.62961602 -0.76256335 0.28694451
-0.16202191 0.21795864 0.07384069
-0.04523063 -0.70130390 0.02061364
-0.76828259 -0.24149387 -0.00000140
-0.13803867 -0.50107920 0.06291044
-0.71932447 -0.03803397 -0.00000159
-0.27899459 0.33610851 0.12715098
-0.56856531 -0.73518568 0.25912085
-0.16268989 0.17421281 0.07414512
-0.58892214 0.07776949 0.26840010
-0.01386157 -0.51425165 0.00631734
-0.03710153 0.50349534 0.01690884
-0.53264397 -0.67218584 0.24274988
-0.30271554 -0.27853811 0.13796112
-0.27872270 0.47923410 0.12702736
-0.02256044 -0.56539583 0.01028181
-0.53328204 -0.16507553 0.24304160
-0.18975747 -0.61916608 0.08648104
-0.01794440 0.29954526 0.00817807
-0.67869407 -0.76243347 -0.00000009
-0.24756892 0.43356022 0.11282892
-0.53476650 -0.00135567 0.24371849
-0.33690485 0.28932193 0.15354353
-0.02804617 -0.02425674 0.01278190
-0.26814261 0.05569527 0.12220469
-0.48877102 -0.35113266 0.22275530
-0.23053212 0.43984964 0.10506440
-0.63307303 -0.09120317 0.28852156
-0.65633506 0.02758930 0.29912350
-0.00705661 0.02177033 0.00321601
-0.30526432 -0.53952247 0.13912272
-0.54713708 -0.75866383 0.24935505
-0.66418958 -0.00318582 -0.00000141
-0.48713893 -0.39948517 0.22201139
-0.62583220 -0.28457752 0.28522116
-0.32438752 -0.78287590 0.14783803
-0.44291383 0.17737302 0.20185694
-0.63990277 0.05094579 0.29163453
-0.40826121 0.34859088 -0.00000030
-0.70400017 -0.30795032 -0.00000105
-0.64456999 -0.37731454 0.29376072
-0.08236467 -0.79611576 0.03753729
-0.15110964 -0.34397990 0.06886748
-0.64917749 0.13420430 -0.00000135
-0.33756003 -0.70885772 0.15384133
-0.22276466 0.57497019 -0.00000052
-0.37091789 0.30741891 0.16904502
-0.09997587 -0.37784591 0.04556351
-0.47155693 -0.18968421 0.21491031
-0.03079292 -0.54334736 0.01403372
-0.39266455 -0.01167657 0.17895542
-0.57924944 -0.22968505 0.26399115
-0.24143234 -0.22156471 0.11003161
-0.56589538 -0.21499431 0.25790507
-0.46557501 -0.70180035 0.21218354
-0.23406988 0.13178810 0.10667620
-0.11173131 -0.36156636 0.05092100
-0.07048063 0.36411086 0.03212120
-0.42422009 -0.61120135 0.19333623
-0.71330780 -0.54924238 0.32508719
-0.20347147 0.07221786 0.09273113
-0.51595902 -0.69288301 0.23514581
-0.75580066 -0.50471312 -0.00000074
-0.33067951 0.28542182 0.15070631
-0.12147797 0.03295279 0.05536299
-0.39550805 0.33757102 0.18025208
-0.39927703 -0.13566236 0.18196879
-0.20710339 -0.06028880 0.09438636
-0.33409360 -0.22728413 0.15226153
-0.06885560 0.23784335 0.03138060
-0.35022101 -0.07398773 0.15961161
-0.41294149 -0.44415945 0.18819606
-0.76776052 -0.25129184 -0.00000137
-0.43938869 -0.70017874 0.20024925
-0.18221702 0.59498131 -0.00000007
-0.68428808 -0.39553815 -0.00000081
-0.29950121 -0.79993469 0.13649622
-0.28586641 -0.26312643 0.13028222
-0.70928276 -0.79797977 0.32325202
-0.13841155 0.59530389 0.06308072
-0.60936046 -0.05090581 0.27771461
-0.41887692 0.13783218 0.19090202
-0.71128172 -0.38993984 0.32416433
-0.65580410 0.08603185 -0.00000067
-0.74619275 -0.68967193 -0.00000028
-0.13275012 0.16818529 0.06050022
-0.37949777 0.26420984 0.17295523
-0.23124123 0.07515157 0.10538706
-0.14082107 0.19809712 0.06417851
-0.03372969 -0.42115587 0.01537214
-0.60474545 0.14562930 -0.00000068
-0.77966082 -0.27064663 -0.00000132
-0.16401771 0.06032554 0.07475026
-0.38592327 -0.05166532 0.17588300
-0.53810310 -0.09400694 0.24523896
-0.38869300 -0.13178185 0.17714514
-0.13271599 -0.02804366 0.06048466
-0.54672986 -0.72725958 0.24916945
-0.02654417 0.73965704 0.01209739
-0.15427034 0.22832917 0.07030795
-0.78238124 -0.61839682 -0.00000045
-0.30868819 -0.04559679 0.14068313
-0.53468633 -0.44733471 0.24368101
-0.68111843 -0.50632524 0.31041723
-0.69910520 -0.05418562 -0.00000147
-0.48452678 -0.30035797 0.22082108
-0.46209964 0.28385425 0.21060111
-0.44213492 -0.32746837 0.20150092
-0.40312266 -0.54683179 0.18372118
-0.46657649 0.26216236 0.00000002
-0.44172147 -0.66175056 0.20131241
-0.30041063 -0.27735397 0.13691068
-0.76167434 -0.32194841 -0.00000120
-0.66359806 -0.08927171 -0.00000126
-0.64700407 -0.16325536 0.29487050
-0.09595622 -0.19298868 0.04373158
-0.20149131 -0.62954396 0.09182868
-0.01697469 0.26909456 0.00773613
-0.76070905 -0.43720418 -0.00000091
-0.02773262 -0.45670721 0.01263901
-0.73990762 -0.35061339 -0.00000112
-0.22284696 -0.47304910 0.10156141
-0.02233944 -0.38621163 0.01018109
-0.00921385 0.15163803 0.00419917
-0.63541847 -0.39500010 0.28958988
-0.56844276 -0.56556511 0.25906530
-0.21034253 0.09661167 0.09586258
-0.03800820 -0.51989675 0.01732205
-0.34121126 -0.20117071 0.15550537
-0.35462123 -0.17372859 0.16161691
-0.33350715 0.24076585 0.15199491
-0.53395915 0.22281997 -0.00000061
-0.46403223 -0.62069845 0.21148042
-0.67311800 -0.46455979 -0.00000064
-0.30463684 -0.45736802 0.13883676
-0.11925946 0.18016031 0.05435192
-0.50513083 0.19632839 0.00000038
-0.20047483 0.16811167 0.09136542
-0.73606896 -0.03033727 -0.00000167
-0.55873007 -0.26029292 0.25463936
-0.18761274 -0.48276436 0.08550359
-0.31432077 0.48069319 -0.00000078
-0.27508801 -0.17178217 0.12537003
-0.14470012 0.59710759 0.06594675
-0.40262118 0.31285891 0.00000041
-0.65817392 -0.69351447 0.29995981
-0.28914830 -0.23180172 0.13177793
-0.65190834 -0.19235761 -0.00000103
-0.35841396 0.08747475 0.16334590
-0.70559567 -0.53626525 0.32157248
-0.02319613 -0.09145373 0.01057152
-0.41040236 0.28309023 0.00000075
-0.25028437 -0.17437747 0.11406588
-0.32732901 -0.12633885 0.14917859
-0.52241957 -0.30068371 0.23809075
-0.70852852 -0.61082375 -0.00000047
-0.17195816 0.08491904 0.07836909
-0.36379087 0.14228036 0.16579653
-0.73989367 0.04915905 -0.00000167
-0.75046623 -0.51343185 -0.00000072
-0.33035037 -0.00285239 0.15055571
-0.18069556 0.05257125 0.08235112
-0.15354246 0.30310044 0.06997623
-0.67440200 -0.25853419 0.30735692
-0.51790529 -0.68610424 0.23603280
-0.06597650 -0.31120899 0.03006847
-0.26434737 0.49119133 0.00000008
-0.11172505 -0.55148691 0.05091815
-0.21022287 -0.16042878 0.09580805
-0.09667724 -0.36628145 0.04406018
-0.57849753 -0.51561624 0.26364788
-0.59993893 -0.68285716 0.27341947
-0.16499951 -0.54907542 0.07519772
-0.36035991 -0.41285658 0.16423227
-0.36706772 0.35449395 0.16729040
-0.58962488 0.14161907 -0.00000033
-0.26142925 -0.24400702 0.11914510
-0.52457798 0.05985200 0.23907518
-0.21676061 0.25241756 0.09878764
-0.03768576 -0.08361716 0.01717510
-0.67725855 -0.08404956 -0.00000133
-0.30468991 -0.36387032 0.13886094
-0.32938653 -0.20131256 0.15011629
-0.29191536 0.47709006 0.13303992
-0.70257181 -0.78094578 -0.00000005
-0.72756678 -0.08203472 -0.00000155
-0.34300897 -0.29188734 0.15632465
-0.62485492 -0.73224276 0.28477478
-0.73474759 -0.18642119 -0.00000139
-0.62748927 -0.08251126 -0.00000112
-0.57874489 -0.00378528 0.26376167
-0.47908592 -0.73673749 0.21834107
-0.10494101 0.65615165 0.00000039
-0.70918125 -0.53270352 0.32320657
-0.66087204 -0.54157853 0.30118993
-0.41838598 -0.64437568 0.19067737
-0.19848439 0.25786829 0.09045829
-0.52107936 0.03815966 0.23748066
-0.28253335 -0.72468442 0.12876318
-0.20014650 -0.01491991 0.09121579
-0.40405694 -0.63623267 0.18414697
-0.67906344 -0.52929467 -0.00000055
-0.04439277 -0.48721188 0.02023179
-0.03942428 0.01306973 0.01796742
-0.08451259 -0.48038450 0.03851620
-0.15976807 -0.32176080 0.07281352
-0.29405376 0.08988293 0.13401371
-0.04715057 -0.30894691 0.02148864
-0.70714819 -0.64640886 0.32227969
-0.75129706 -0.09705742 -0.00000162
-0.49826404 -0.00713895 0.22708245
-0.65512019 -0.74911267 0.29856792
-0.18284196 -0.74890411 0.08332933
-0.25070807 -0.13316561 0.11425897
-0.69526023 -0.16625412 0.31686327
-0.33076862 0.39321902 0.00000044
-0.13920452 -0.59130538 0.06344178
-0.72431946 -0.06619764 -0.00000156
-0.64597189 -0.68795109 -0.00000013
-0.16777730 0.58914703 0.00000030
-0.05611878 0.40298414 0.02557586
-0.10660655 -0.16546859 0.04858541
-0.33884749 -0.53201163 0.15442809
-0.52369499 -0.58938670 0.23867142
-0.30335563 0.32705638 0.13825352
-0.11183282 -0.47009271 0.05096726
-0.32793260 -0.42236269 0.14945368
-0.44753033 -0.31814823 0.20395990
-0.55165613 0.24066342 -0.00000125
-0.46564817 0.28054902 0.21221834
-0.42209023 -0.56251276 0.19236556
-0.58689845 -0.06872792 0.26747751
-0.35573193 0.06103513 0.16212352
-0.03380006 0.06023672 0.01540421
-0.65821725 0.03596829 0.00000012
-0.46400806 -0.03352731 0.21147022
-0.29145774 0.40451792 0.00000101
-0.69056523 -0.66600931 0.31472206
-0.07660533 -0.20759390 0.03491251
-0.32137176 0.37709153 0.00000089
-0.06427189 0.59511268 0.02929160
-0.79711878 -0.38368720 -0.00000104
-0.72568321 -0.57636684 -0.00000056
-0.24374580 0.33320668 0.11108633
-0.12147408 0.35364291 0.05536122
-0.48307785 -0.57041937 0.22016037
-0.70694423 -0.49778274 -0.00000072
-0.56909806 0.16282639 -0.00000029
-0.57191211 -0.40321693 0.26064679
-0.14544131 0.10223339 0.06628417
-0.64732921 -0.74467319 -0.00000003
-0.17648418 0.19273075 0.08043180
-0.18405618 -0.66489553 0.08388270
-0.51993185 -0.26469031 0.23695704
-0.67445391 -0.47931582 0.30737999
-0.19530721 0.53329766 0.08901082
-0.41072571 -0.78310245 0.18718623
-0.59111851 -0.13932855 0.26940066
-0.03208072 -0.28325003 0.01462063
-0.07724932 0.47036585 0.03520600
-0.53415775 -0.09955090 0.24344084
-0.00068860 0.60765845 0.00031383
-0.75547451 0.03963086 -0.00000188
-0.37730336 0.20593134 0.17195500
-0.58152574 0.09894230 0.26502925
-0.71004272 -0.12132466 0.32360047
-0.60002851 0.07006940 0.00000067
-0.27599084 -0.58588475 0.12578148
-0.24371265 -0.36721340 0.11107085
-0.58375007 0.15558967 -0.00000045
-0.54248333 -0.63434786 0.24723412
-0.32494748 0.27749521 0.14809392
-0.23836756 0.41985455 0.10863537
-0.32439396 -0.76438683 0.14784096
-0.40281358 0.28991419 0.18358147
-0.10986045 0.30470601 0.05006836
-0.68361980 -0.44734997 -0.00000071
-0.71447498 -0.68672651 0.32561871
-0.05881340 -0.16246659 0.02680392
-0.13104314 -0.10545383 0.05972227
-0.71362907 -0.23086159 -0.00000122
-0.71921080 -0.71838874 0.32777691
-0.01404360 -0.18486597 0.00640030
-0.21394353 0.32909241 0.09750391
-0.49492580 0.20393953 0.00000045
-0.31512138 0.43633923 0.00000002
-0.15599793 -0.06086146 0.07109529
-0.22483635 0.55130720 0.10246878
-0.01406774 0.65703219 0.00641130
-0.55827808 -0.33091104 0.25443324
-0.30361971 -0.42136192 0.13837320
-0.47974506 -0.48060632 0.21864147
-0.70482451 -0.75166154 -0.00000012
-0.31061959 0.30647835 0.14156404
-0.34150705 -0.02250761 0.15564033
-0.56619781 -0.52845049 0.25804225
-0.64481992 -0.38710767 0.29387462
-0.43324587 0.13298407 0.19745067
-0.29102385 0.44296619 0.00000038
-0.49920940 -0.11523738 0.22751309
-0.77782303 -0.35428900 -0.00000111
-0.24877270 0.33784437 0.11337735
-0.10261878 0.33857858 0.04676801
-0.75336611 -0.78510571 -0.00000004
-0.65222108 -0.12711303 -0.00000114
-0.32533151 0.33476931 0.14826907
-0.63616043 -0.02538165 0.28992879
-0.24073774 0.26638162 0.10971526
-0.26088408 -0.08069264 0.11889664
-0.53415626 -0.37850890 0.24343960
-0.05748025 -0.19506305 0.02619634
-0.54288125 -0.46757552 0.24741584
-0.56860179 -0.31744668 0.25913826
-0.45187995 0.29577062 -0.00000026
-0.71583861 -0.72308457 -0.00000019
-0.35906041 -0.18489772 0.16364002
-0.00934604 0.47534400 0.00425941
-0.24456216 0.42762932 0.11145858
-0.30537593 -0.77317852 0.13917360
-0.22010790 0.49708354 0.10031368
-0.05415648 0.72451288 0.02468169
-0.64369255 -0.58038431 0.29336038
-0.12073462 0.33033884 0.05502421
-0.73107910 -0.41099939 -0.00000097
-0.27392504 -0.51084083 0.12484000
-0.45502755 0.18546426 0.20737781
-0.28732309 0.26821914 0.13094658
-0.49762237 -0.12519947 0.22678979
-0.10200191 0.07039803 0.04648687
-0.72617626 -0.01001766 0.33095357
-0.44224095 0.24506506 0.00000078
-0.55058187 0.14905760 0.25092667
-0.28017601 0.36508521 0.12768948
-0.38986865 -0.27609611 0.17768072
-0.57369190 -0.72352844 0.26145726
-0.05156792 0.51846260 0.02350183
-0.08004463 0.01853634 0.03647995
-0.78180361 -0.37370232 -0.00000107
-0.26092407 -0.26681498 0.11891487
-0.34510049 0.41744888 0.15727890
-0.23133387 -0.64389807 0.10542927
-0.44486007 -0.49796367 0.20274280
-0.57136488 0.20125912 -0.00000097
-0.27872276 -0.73471421 0.12702653
-0.28792199 -0.36016259 0.13121904
-0.12330956 -0.64727098 0.05619773
-0.21182664 0.02785699 0.09653895
-0.39415824 -0.63967043 0.17963570
-0.40228853 -0.34087834 0.18334103
-0.20924918 -0.00828721 0.09536429
-0.53621262 -0.51144099 0.24437653
-0.09128749 0.09682685 0.04160383
-0.38120180 0.17731854 0.17373165
-0.77611661 -0.41100022 -0.00000097
-0.56272817 -0.75481594 0.25646061
-0.53608280 -0.66449523 0.24431711
-0.63307542 -0.07764085 -0.00000115
-0.40384939 0.16393526 0.18405329
-0.39950952 -0.79258257 0.18207452
-0.61480910 -0.05080115 -0.00000112
-0.67703891 -0.69059652 0.30855742
-0.12571038 -0.67234820 0.05729189
-0.06782576 0.68714899 0.03091140
-0.22846963 -0.26857862 0.10412391
-0.38105693 -0.70671600 0.17366482
-0.19431806 -0.44114444 0.08855950
-0.41549227 -0.19751161 0.18935879
-0.09944186 0.45516783 0.04532014
-0.03962550 -0.21246663 0.01805913
-0.20266248 -0.39707282 0.09236244
-0.37292409 -0.25991958 0.16995834
-0.11387633 0.13191111 0.05189858
-0.01493352 -0.28737655 0.00680588
-0.19979526 0.54453665 0.09105628
-0.54315174 0.22929905 -0.00000090
-0.51167798 -0.47193283 0.23319493
-0.63021380 -0.63337713 0.28721732
-0.71010214 0.01849245 0.32362783
-0.74941558 -0.07200725 -0.00000166
-0.19287474 -0.11427686 0.08790172
-0.11633687 -0.09032381 0.05301996
-0.20384741 -0.48221433 0.09290246
-0.71757740 -0.29416719 -0.00000113
-0.24143448 0.43491536 0.11003315
-0.60403013 -0.04282954 -0.00000109
-0.16688035 0.56871814 0.07605534
-0.20558621 -0.18613508 0.09369491
-0.19508314 0.39080599 0.08890841
-0.22433375 -0.39779264 0.10223901
-0.63946259 -0.06005196 0.29143366
-0.44625783 -0.64499640 0.20337982
-0.41048497 -0.65082318 0.18707652
-0.55631399 0.05937998 0.25353891
-0.02505320 -0.77695906 0.01141787
-0.46529141 0.02859877 0.21205524
-0.66393155 -0.34447259 0.30258483
-0.06626810 0.24457255 0.03020136
-0.33621728 -0.71771449 0.15322939
-0.54420698 -0.52764070 0.24801989
-0.70026994 -0.44295797 -0.00000079
-0.30328658 -0.78686142 0.13822138
-0.11024326 -0.71509421 0.05024283
-0.17511730 -0.39857495 0.07980885
-0.02558428 0.08766982 0.01165991
-0.38646999 0.14672948 0.17613257
-0.72389501 -0.29856861 -0.00000115
-0.49675968 -0.36946151 0.22639611
-0.51088756 -0.11274393 0.23283543
-0.14534768 0.57117862 0.06624182
-0.33081344 0.19174917 0.15076716
-0.41288319 -0.75254405 0.18816949
-0.25359902 0.05519119 0.11557651
-0.65139312 -0.63811666 0.29686967
-0.06502117 -0.45247227 0.02963308
-0.26599085 0.32057917 0.12122449
-0.10963920 -0.30790254 0.04996753
-0.30758184 0.44251209 0.14017987
-0.41367358 -0.65364850 0.18852971
-0.63170767 0.01009770 0.28789949
-0.35690901 0.31183732 0.16266048
-0.35293809 -0.57432365 0.16084979
-0.55968726 -0.60216004 0.25507489
-0.05554609 0.73863077 -0.00000004
-0.08138009 0.05777598 0.03708858
-0.66117465 -0.14853819 -0.00000114
-0.58386397 0.04524455 0.00000140
-0.39820287 0.26722106 0.00000125
-0.12172756 -0.03311308 0.05547674
-0.58057278 -0.79815465 0.26459321
-0.00651859 0.43031877 0.00297082
-0.46369606 0.21946356 0.21132855
-0.63787156 -0.08944514 0.29070851
-0.57772082 -0.71089667 0.26329347
-0.18677630 0.05109907 0.08512239
-0.09816239 -0.17543279 0.04473703
-0.79451948 -0.78363371 -0.00000004
-0.43608353 0.29148728 0.19874427
-0.68427432 -0.22550875 -0.00000111
-0.15140872 0.47930008 0.06900394
-0.29820183 -0.56617451 0.13590403
-0.58719057 -0.24437980 0.26761028
-0.48153317 0.26541996 -0.00000032
-0.35472995 -0.22537416 0.16166644
-0.68899554 -0.16105586 0.31400812
-0.15552896 0.01146110 0.07088157
-0.53538108 -0.74728447 0.24399731
-0.52503890 -0.09297762 0.23928493
-0.34674081 -0.66646212 0.15802543
-0.54322040 0.19281812 0.24757175
-0.02578137 -0.05042681 0.01174974
-0.11095487 -0.64471841 0.05056714
-0.79525876 -0.28907487 -0.00000128
-0.26866281 -0.18766852 0.12244176
-0.03173701 0.65624315 0.01446399
-0.37018538 0.32523850 0.00000082
-0.14774472 -0.08323245 0.06733393
-0.43651125 -0.12940075 0.19893834
-0.11315895 0.36945409 0.05157164
-0.70248502 -0.66943681 -0.00000033
-0.66398728 -0.29958409 0.30261034
-0.56449777 -0.47632304 0.25726753
-0.09527819 0.64768887 0.04342278
-0.46100312 -0.43372053 0.21009992
-0.28961155 0.40954378 0.00000096
-0.74927074 -0.58069581 -0.00000055
-0.44398347 -0.19372265 0.20234367
-0.23990466 0.06795055 0.10933538
-0.13937254 0.52473229 0.06351855
-0.14648639 0.03114809 0.06676045
-0.32150266 0.08923956 0.14652355
-0.47209150 -0.58403242 0.21515340
-0.65309995 -0.17218445 -0.00000107
-0.14121470 -0.18368685 0.06435791
-0.26704413 -0.60468501 0.12170406
-0.68007070 -0.17978548 -0.00000117
-0.30018467 0.44281241 0.13680860
-0.27604172 -0.48768371 0.12580466
-0.66185254 -0.33645302 0.30163732
-0.79406565 -0.11379901 -0.00000172
-0.55163014 -0.13462070 0.25140381
-0.78217161 -0.15890458 -0.00000160
-0.67370069 -0.78556579 -0.00000004
-0.22620250 0.21272767 0.10309071
-0.54480171 0.20002706 0.24829246
-0.25693795 0.20623630 0.11709840
-0.12792630 0.44195148 0.05830179
-0.08405543 0.70163190 0.00000003
-0.47621170 -0.51821935 0.21703115
-0.61835784 0.05514705 0.00000057
-0.07098753 -0.22918002 0.03235222
-0.56740713 -0.01954469 0.25859445
-0.72645831 -0.35058510 0.33108109
-0.29527292 0.41612065 0.13457000
-0.08319981 0.12689337 0.03791791
-0.22080071 -0.18548566 0.10062884
-0.72865671 -0.23687197 -0.00000128
-0.44041860 -0.78144366 0.20071863
-0.16219983 0.01641193 0.07392178
-0.78160799 -0.51326424 -0.00000072
-0.40519369 -0.11903446 0.18466537
-0.55808097 -0.75242686 0.25434268
-0.78329629 -0.53747761 -0.00000066
-0.05486360 -0.75170839 0.02500382
-0.25874111 -0.18355478 0.11792000
-0.46558660 -0.34390876 0.21218900
-0.69675827 -0.50058782 -0.00000067
-0.69129467 -0.36113688 0.31505543
-0.75414664 0.03040501 -0.00000163
-0.70166141 -0.30859682 -0.00000103
-0.04868772 0.52681017 0.02218919
-0.25498834 0.27013192 0.11621000
-0.10842960 0.53977716 0.04941632
-0.33129272 0.38347301 0.00000060
-0.13793641 0.64688033 0.06286429
-0.02645528 -0.67307723 0.01205686
-0.67492902 -0.31448868 0.30759701
-0.21926008 -0.22675692 0.09992671
-0.35585016 -0.64981306 0.16217698
-0.62046665 -0.58624238 0.28277516
-0.18809327 -0.42170906 0.08572259
-0.24056681 -0.70910203 0.10963715
-0.42781395 -0.59859294 0.19497412
-0.38374433 0.05758194 0.17489016
-0.03720197 0.38948685 0.01695462
-0.08255527 0.10108688 0.03762416
-0.51244742 -0.16484441 0.23354623
-0.43613073 0.31597912 0.19876584
-0.60208768 -0.73210627 0.27439865
-0.26115245 0.50500673 0.11901978
-0.08335315 -0.46050173 0.03798779
-0.58813739 0.19355159 -0.00000116
-0.01445413 -0.76598448 0.00658740
-0.07066023 -0.35677445 0.03220305
-0.16023017 0.09110426 0.07302412
-0.67546266 -0.69057643 -0.00000025
-0.65716654 0.14064543 -0.00000161
-0.71786892 -0.04703593 -0.00000157
-0.19654277 0.53845495 0.00000059
-0.78826642 -0.70508587 -0.00000024
-0.24806502 -0.47664431 0.11305442
-0.32641745 0.23535895 0.14876378
-0.18310270 -0.36165699 0.08344816
-0.14448848 -0.73172075 0.06584992
-0.03089855 0.76410425 0.01408196
-0.40228841 0.33704349 0.18334222
-0.47937006 -0.27671096 0.21847098
-0.33552697 0.24529240 0.15291546
-0.60554731 -0.28102860 0.27597630
-0.62658459 -0.58221418 0.28556344
-0.40785116 0.35498565 -0.00000040
-0.78949392 -0.09259137 -0.00000177
-0.25186574 0.37207910 0.11478708
-0.42523724 0.06024011 0.19380058
-0.57588828 0.11446216 0.26245999
-0.31654543 0.34861299 0.14426483
-0.67356902 -0.16033356 0.30697748
-0.66803336 -0.06080224 -0.00000133
-0.25412387 -0.35749009 0.11581571
-0.70379370 -0.46484992 0.32075146
-0.04355211 -0.24165490 0.01984866
-0.31852534 -0.20817596 0.14516637
-0.03694392 0.22441547 0.01683701
-0.57113349 -0.58081859 0.26029158
-0.03406917 0.53603017 0.01552686
-0.14011189 -0.76420528 0.06385531
-0.66726488 -0.76485348 0.30410275
-0.62912881 -0.52557594 0.28672308
-0.39157993 0.11683073 0.17846136
-0.01038501 0.47701010 0.00473292
-0.10355961 -0.04062965 0.04719678
-0.15743528 -0.54856575 0.07175036
-0.36314735 -0.54929781 0.16550262
-0.54955888 -0.47117293 0.25045913
-0.26720676 -0.60141802 0.12177817
-0.35945082 -0.12800591 0.16381802
-0.12089341 0.31529140 0.05509658
-0.11443924 -0.58237147 0.05215512
-0.64330089 -0.46483287 0.29318213
-0.33445203 -0.61405116 0.15242487
-0.43290937 -0.70488673 0.19729632
-0.10892410 0.67250222 0.04964196
-0.70019376 -0.58948731 0.31911042
-0.17049509 -0.11014318 0.07770230
-0.09955712 -0.55709922 0.04537267
-0.03536556 0.76221108 -0.00000005
-0.41850480 -0.71299052 0.19073153
-0.36557636 0.20363280 0.16661040
-0.08652520 0.19345978 0.03943344
-0.71520889 -0.31992513 0.32595429
-0.22112893 0.26069623 0.10077853
-0.67591482 -0.62486660 0.30804533
-0.28827521 -0.20092174 0.13138002
-0.01259169 0.77957302 0.00573863
-0.22354867 0.49164128 0.00000086
-0.00278676 0.27008045 0.00127005
-0.18233442 -0.71123648 0.08309802
-0.17266710 0.09983368 0.07869219
-0.12696229 -0.09220729 0.05786244
-0.73053449 -0.67241812 -0.00000032
-0.23530602 -0.04127537 0.10723957
-0.62767196 -0.36365247 0.28605944
-0.51021427 -0.09358948 0.23252860
-0.37177053 0.19502106 0.16943339
-0.55656278 -0.71278018 0.25365075
-0.19430798 0.58787966 -0.00000019
-0.47464973 -0.60388666 0.21631929
-0.49747553 -0.40575856 0.22672227
-0.41956857 0.13484991 0.19121724
-0.15749817 -0.56295621 0.07177902
-0.53615636 -0.28988963 0.24435133
-0.23923104 -0.44298941 0.10902837
-0.24777563 -0.21525729 0.11292253
-0.41916820 -0.38398054 0.19103386
-0.03548177 0.58692008 0.01617064
-0.74898309 -0.04955668 -0.00000169
-0.69416726 0.10574715 -0.00000173
-0.45092973 -0.77612847 0.20550904
-0.41878277 0.24552463 0.00000122
-0.79668188 -0.00952180 -0.00000197
-0.20062372 0.21056756 0.09143328
-0.69319469 -0.48333609 0.31592095
-0.63436747 -0.69148082 0.28911015
-0.54086894 0.06903582 0.00000182
-0.14081889 -0.26734757 0.06417752
-0.74726844 -0.41987580 -0.00000095
-0.60175401 -0.30460730 0.27424744
-0.29719302 -0.01418688 0.13544425
-0.29947188 -0.17429753 0.13648283
-0.03892711 0.20398159 0.01774084
-0.50607586 0.02071762 0.23064275
-0.16429676 0.62979424 -0.00000031
-0.65042299 -0.16755056 0.29642868
-0.14156771 0.63967800 -0.00000004
-0.17116214 -0.73378986 0.07800631
-0.65320140 -0.04846775 -0.00000129
-0.74852467 -0.58117038 -0.00000055
-0.66032118 0.00078593 0.00000067
-0.17206395 0.39310038 0.07841740
-0.79553348 -0.75692517 -0.00000011
-0.34954476 0.04802105 0.15930368
-0.42116877 0.29554623 0.00000034
-0.58658552 0.02294502 0.00000172
-0.79263484 -0.13618717 -0.00000166
-0.51156163 0.15345538 0.23314317
-0.70002037 0.01679116 -0.00000036
-0.74727064 -0.28172696 -0.00000128
-0.36121657 -0.06509636 0.16462287
-0.09930505 -0.15930268 0.04525779
-0.04519655 -0.16831760 0.02059811
-0.46299228 -0.25986433 0.21100681
-0.36320785 0.37011412 0.16553129
-0.44727930 0.17149006 0.20384650
-0.34296203 0.18658169 0.15630387
-0.37165600 -0.26076642 0.16938040
-0.03092952 -0.34486654 0.01409598
-0.12271849 0.08665051 0.05592835
-0.63697338 0.10067397 -0.00000055
-0.26423031 -0.25742462 0.12042167
-0.60202050 -0.75544035 0.27436799
-0.25884569 -0.39907649 0.11796766
-0.50158679 0.14487849 0.00000131
-0.43740892 0.22453380 0.19934818
-0.66669977 -0.46425077 0.30384612
-0.26995754 -0.65117222 0.12303182
-0.11609470 -0.74256307 0.05290959
-0.28691992 0.23817524 0.13076276
-0.29956383 -0.40489101 0.13652477
-0.46282917 0.09961609 0.21093322
-0.21467663 -0.71704370 0.09783783
-0.26625249 0.44845501 0.00000076
-0.29930574 0.27158076 0.13640767
-0.01984739 -0.71200520 0.00904535
-0.13401756 -0.16771360 0.06107785
-0.72327644 -0.20026831 -0.00000132
-0.06489762 -0.03035117 0.02957677
-0.26666912 -0.29596561 0.12153315
-0.01763915 -0.38333058 0.00803896
-0.01031960 0.72255284 0.00470311
-0.28978550 0.42176926 0.00000075
-0.57000142 -0.28611425 0.25977626
-0.00474738 0.58993673 0.00216360
-0.07479754 0.02622435 0.03408861
-0.72627288 -0.03554722 0.33099753
-0.69906157 -0.69597119 0.31859410
-0.51096320 -0.70831311 0.23286898
-0.71137339 -0.37448838 0.32420614
-0.46983904 -0.26095343 0.21412723
-0.67982858 -0.03558016 0.30983055
-0.28578010 0.19786435 0.13024320
-0.03596142 -0.22252551 0.01638924
-0.46969277 -0.07772924 0.21406095
-0.26561227 -0.68998522 0.12105149
-0.26420537 0.28576422 0.12041069
-0.29954860 0.04253627 0.13651788
-0.18718116 -0.24311085 0.08530690
-0.37491512 -0.16689557 0.17086579
-0.21234404 -0.08023426 0.09677475
-0.70773381 -0.16961698 -0.00000131
-0.14412960 -0.59535420 0.06568636
-0.00126156 -0.64671326 0.00057495
-0.48841491 0.21129812 0.00000045
-0.48860902 0.14575793 0.00000155
-0.48407492 0.00942529 0.22061579
-0.59990150 -0.32959062 0.27340311
-0.52035767 -0.39626125 0.23715085
-0.17984888 -0.36337429 0.08196525
-0.18070006 -0.63955295 0.08235317
-0.71265370 -0.58506525 0.32478899
-0.61883736 -0.03051963 0.28203377
-0.53705806 -0.14523941 0.24476258
-0.09303018 0.01864014 0.04239805
-0.54485089 -0.26962632 0.24831390
-0.18505272 -0.16095674 0.08433688
-0.18243265 0.44608974 0.08314306
-0.39985839 0.10632657 0.18223426
-0.66330904 -0.66600424 0.30230018
-0.44386968 -0.62179661 0.20229144
-0.47571960 -0.19535239 0.21680743
-0.47220346 0.20812114 0.00000082
-0.47206953 -0.61718923 0.21514338
-0.51090705 -0.21092099 0.23284411
-0.66651523 -0.14743760 0.30376273
-0.61790770 -0.43581527 0.28160927
-0.70330215 -0.71166086 -0.00000022
-0.55092096 -0.54352611 0.25107980
-0.64873594 -0.78829634 0.00000000
-0.34530982 0.24375698 0.15737401
-0.72922444 0.06412681 -0.00000171
-0.31037608 -0.13297886 0.14145239
-0.06101620 -0.60837883 0.02780784
-0.48545867 -0.47544134 0.22124544
-0.20130166 -0.25045455 0.09174225
-0.24835035 -0.51903796 0.11318446
-0.03268874 -0.18788905 0.01489773
-0.08542085 -0.02897996 0.03893014
-0.09399644 0.34106436 0.04283842
-0.13771628 -0.23235370 0.06276352
-0.10858283 0.52417624 0.04948612
-0.75535631 -0.07358282 -0.00000168
-0.17558391 0.38857099 0.08002162
-0.57082254 -0.31005216 0.26015040
-0.60058880 0.01575294 0.00000157
-0.63901931 -0.57230657 0.29123059
-0.20040737 0.17050323 0.09133468
-0.66940141 0.09424219 -0.00000107
-0.35277316 -0.65803331 0.16077465
-0.43612680 0.02113096 0.19876345
-0.18638781 -0.45532104 0.08494533
-0.58843285 -0.66138947 0.26817560
-0.32630265 -0.20841436 0.14871083
-0.34461403 0.05892966 0.15705651
-0.23157968 -0.76337689 0.10554130
-0.53707427 -0.29891691 0.24476963
-0.64198762 -0.53172261 0.29258350
-0.77657968 -0.34955320 -0.00000113
-0.23800901 0.07846824 0.10847144
-0.10708760 -0.60700011 0.04880465
-0.52545923 -0.18044177 0.23947632
-0.38269782 -0.40690970 0.17441265
-0.29309240 0.24779513 0.13357590
-0.63193172 -0.10663613 0.28800139
-0.43065205 -0.19523802 0.19626787
-0.78995842 -0.09950560 -0.00000175
-0.36129960 0.29308349 0.16466145
-0.13319980 0.48782092 0.06070524
-0.06143923 0.00805572 0.02800063
-0.01002210 0.24306095 0.00456752
-0.02489505 0.15774995 0.01134580
-0.30866346 0.45648569 0.14067283
-0.52027333 -0.07470589 0.23711304
-0.50925422 -0.76421326 0.23209012
-0.61618876 -0.02036227 -0.00000118
-0.51038176 -0.73051608 0.23260400
-0.54094875 0.13549270 0.00000071
-0.04357595 -0.45190379 0.01985953
-0.02965875 0.75984257 0.01351691
-0.72504413 -0.24855612 0.33043689
-0.53408617 -0.11986018 0.24340817
-0.03114356 -0.12696983 0.01419352
-0.60107738 -0.39036801 0.27393889
-0.15608954 -0.75686991 0.07113705
-0.04383325 0.74963826 -0.00000000
-0.37441862 0.33420107 0.17064054
-0.15920410 0.57653785 0.07255690
-0.57966101 0.13419911 0.26417947
-0.28294292 0.00148337 0.12894987
-0.49354196 -0.44220361 0.22492948
-0.42544818 0.30399916 0.19389722
-0.21596482 -0.19557682 0.09842492
-0.68825769 -0.16002025 0.31367186
-0.65273643 -0.59790844 -0.00000031
-0.71294945 -0.39731550 -0.00000093
-0.14111976 -0.77567536 0.06431464
-0.10267071 0.61840075 0.04679186
-0.66132128 0.02685135 0.00000021
-0.67239690 -0.33490300 -0.00000086
-0.26744482 0.25185192 0.12188700
-0.00617314 -0.71644944 0.00281338
-0.60004884 -0.44821849 0.27347004
-0.71102297 -0.01480826 0.32404745
-0.05839587 0.47485504 0.02661363
-0.51524842 -0.00699750 0.23482309
-0.49365184 0.20872776 0.00000040
-0.24085490 0.27965179 0.10976869
-0.79449946 -0.13559444 -0.00000166
-0.03126602 -0.16059525 0.01424934
-0.27924880 0.30425122 0.12726678
-0.44745979 -0.29771417 0.20392779
-0.19208770 -0.37513539 0.08754302
-0.15435264 0.37232736 0.07034546
-0.40620777 0.21994890 0.18512823
-0.72656006 -0.25017697 -0.00000124
-0.67023814 -0.35040325 -0.00000083
-0.51840752 0.18458182 0.00000032
-0.63608110 0.05238432 0.28989279
-0.26490068 -0.16235903 0.12072719
-0.65302223 -0.04088392 -0.00000130
-0.01434454 0.35129502 0.00653745
-0.11666466 0.04433095 0.05316935
-0.65420908 -0.10116617 0.29815432
-0.12533186 0.47734484 0.05711940
-0.50707185 0.26682904 -0.00000083
-0.49100217 -0.62656188 0.22377184
-0.56358421 0.05173752 0.25685227
-0.45684737 0.10583200 0.20820703
-0.07700440 -0.73346549 0.03509438
-0.57410330 0.05320638 0.00000145
-0.51372164 -0.37276563 0.23412651
-0.13288277 -0.50615168 0.06056067
-0.30190206 -0.23761083 0.13759039
-0.16517965 -0.18744569 0.07527982
-0.05969475 0.13155404 0.02720559
-0.49884096 0.29001996 -0.00000106
-0.36913484 0.14236067 0.16823205
-0.31551728 -0.71075827 0.14379546
-0.52403378 -0.71753865 0.23882581
-0.68349063 -0.37805733 -0.00000083
-0.60673630 -0.38981938 0.27651796
-0.78558850 -0.52091604 -0.00000070
-0.47664785 -0.43111035 0.21723001
-0.24388827 -0.49126655 0.11115089
-0.42243394 0.00137349 0.19252285
-0.19904689 -0.01747899 0.09071465
-0.36987674 0.25471357 0.16857041
-0.67990416 -0.62200958 0.30986345
-0.06143698 -0.25943229 0.02799961
-0.55537254 -0.14426507 0.25310940
-0.69488966 -0.44573131 -0.00000076
-0.72690290 -0.08581290 -0.00000154
-0.32344195 -0.26637280 0.14740708
-0.28306437 0.17086542 0.12900545
-0.20660540 0.25317642 0.09415941
-0.78004700 -0.28739136 -0.00000128
-0.34436128 -0.55082196 0.15694097
-0.62733781 -0.44385478 0.28590700
-0.48200235 -0.60631561 0.21967022
-0.69760120 -0.15760154 -0.00000128
-0.74226874 -0.73260784 -0.00000017
-0.20635319 -0.09429752 0.09404446
-0.40739483 -0.67901570 0.18566820
-0.14453927 0.54693884 0.06587333
-0.28706655 0.31553838 0.13082975
-0.06039948 0.49413389 0.02752677
-0.49995905 0.15528312 0.22785529
-0.72209370 -0.04265291 0.32909286
-0.74128670 -0.00429068 -0.00000174
-0.48036343 -0.56779718 0.21892329
-0.67407757 0.07636439 -0.00000086
-0.32919052 0.02672780 0.15002717
-0.14926352 -0.35241494 0.06802611
-0.67490757 -0.36029896 0.30758709
-0.13372730 -0.73108882 0.06094556
-0.24111158 -0.39735547 0.10988542
-0.26898029 -0.11598808 0.12258646
-0.24469069 -0.70714843 0.11151658
-0.38378489 -0.26253998 0.17490809
-0.11223757 0.22620320 0.05115173
-0.71527147 -0.53826541 0.32598215
-0.13978867 -0.19967607 0.06370800
-0.54399025 0.06973095 0.24792238
-0.62305856 0.00786569 0.28395766
-0.29750749 0.22032848 0.13558801
-0.02437547 0.13816687 0.01110900
-0.35786271 -0.30336162 0.16309419
-0.22482081 -0.23996072 0.10246098
-0.28488559 -0.58788818 0.12983520
-0.44665378 -0.58568317 0.20356026
-0.43491173 0.29839173 0.00000003
-0.70728481 -0.21176593 0.32234329
-0.65719283 -0.37527919 -0.00000073
-0.26065853 -0.22671655 0.11879384
-0.46227902 0.25331667 0.21068279
-0.00180875 -0.69154918 0.00082433
-0.21250726 0.56817096 -0.00000021
-0.12830614 0.07078483 0.05847489
-0.38600045 0.24946880 0.17591879
-0.04380761 0.58864856 0.01996510
-0.62983483 -0.13679340 0.28704566
-0.26621583 -0.35285962 0.12132656
-0.06982125 -0.05817229 0.03182069
-0.37936866 -0.08383068 0.17289567
-0.51651746 -0.18589355 0.23540109
-0.27040410 0.50569719 -0.00000028
-0.72004932 -0.03128212 0.32816118
-0.08996145 -0.09720226 0.04099949
-0.73366672 -0.23138098 -0.00000131
-0.25286773 -0.54725826 0.11524323
-0.15638608 -0.31820714 0.07127219
-0.31657088 0.38343784 0.00000088
-0.61769700 -0.37685937 0.28151333
-0.71873116 -0.40167925 -0.00000094
-0.65847528 -0.58390999 -0.00000036
-0.54882729 -0.06716707 0.25012657
-0.00869990 0.27906311 0.00396494
-0.37524369 -0.79310590 0.17101547
-0.04214663 0.73953015 0.01920823
-0.34339744 0.12782294 0.15650219
-0.41010219 0.21947248 0.18690310
-0.09035783 -0.64161068 0.04118014
-0.22807141 -0.68977654 0.10394243
-0.73837578 -0.30191585 -0.00000120
-0.31338754 0.43656835 0.14282580
-0.65227491 -0.29738593 0.29727241
-0.25931868 0.50222933 -0.00000001
-0.54543352 0.11626604 0.00000095
-0.23461384 -0.16740435 0.10692411
-0.46309620 0.31094745 -0.00000072
-0.12066771 -0.04653426 0.05499372
-0.33022913 -0.74185950 0.15050031
-0.36798164 -0.06800971 0.16770606
-0.46795943 0.16315879 0.00000165
-0.07437338 -0.30011243 0.03389530
-0.67376292 -0.10721263 -0.00000127
-0.61394292 -0.08224807 0.27980304
-0.44539207 -0.47639042 0.20298526
-0.34246108 -0.12332305 0.15607496
-0.10484844 0.33122298 0.04778417
-0.22931090 -0.48709881 0.10450732
-0.06002248 0.68865800 0.02735505
-0.07086185 -0.40104318 0.03229494
-0.60446477 -0.02068070 0.27548349
-0.42055559 -0.14983676 0.19166648
-0.24280922 0.24929920 0.11065931
-0.54916871 -0.10655922 0.25028211
-0.18899231 -0.31684363 0.08613232
-0.73744613 -0.42755419 -0.00000093
-0.71105832 -0.52807963 0.32406208
-0.30562851 -0.23642311 0.13928871
-0.42647579 -0.40599528 0.19436426
-0.32204416 0.43445504 0.14677104
-0.25968206 -0.24952307 0.11834884
-0.17824090 -0.74696606 0.08123242
-0.66699338 -0.45845124 0.30397996
-0.24562842 0.35822204 0.11194438
-0.20322891 0.00596183 0.09262058
-0.63401067 -0.73975760 0.28894743
-0.42086467 -0.78744972 0.19180702
-0.06579097 0.40843329 0.02998391
-0.55234170 -0.15113410 0.25172809
-0.69454306 -0.17169681 -0.00000125
-0.26271591 0.50421816 0.11973231
-0.33801016 0.26595947 0.15404724
-0.38849923 -0.66244793 0.17705663
-0.64984000 -0.57838279 0.29616204
-0.69566983 -0.28035605 0.31704962
-0.53208762 0.10018754 0.24249780
-0.47992921 0.30167764 -0.00000089
-0.22215700 -0.04620662 0.10124697
-0.32717559 0.20491108 0.14910924
-0.42399448 -0.64942175 0.19323342
-0.46260393 -0.00202923 0.21083035
-0.42941168 -0.07923845 0.19570281
-0.49779263 0.25225282 -0.00000041
-0.65879530 -0.12067966 0.30024445
-0.06168048 -0.36745611 0.02811058
-0.17782459 0.21908920 0.08104268
-0.41671699 -0.09470371 0.18991718
-0.68223947 -0.02233347 -0.00000146
-0.66856265 -0.55913550 -0.00000045
-0.68652660 -0.71836340 0.31288129
-0.15907304 -0.19223197 0.07249676
-0.53118473 -0.77319276 0.24208485
-0.37870052 -0.76359856 0.17259090
-0.37736523 0.03167106 0.17198282
-0.03999825 -0.31846452 0.01822901
-0.78173327 -0.70558238 -0.00000024
-0.13275526 -0.70815349 0.06050256
-0.12016063 -0.77616906 0.05476262
-0.01243492 0.52261204 0.00566715
-0.55714953 0.05765526 0.00000170
-0.35983807 -0.08107489 0.16399460
-0.42351311 0.12494719 0.19301496
-0.59146088 -0.02580784 -0.00000106
-0.33977357 -0.74292988 0.15485014
-0.11367205 0.63505322 0.05180576
-0.70870572 -0.10151903 -0.00000143
-0.34571829 -0.37197196 0.15755942
-0.53582877 -0.77016026 0.24420135
-0.31616083 0.07136696 0.14408897
-0.07241933 0.09102365 0.03300475
-0.01970125 -0.06744427 0.00897875
-0.30710423 0.15220298 0.13996159
-0.24365637 -0.46094981 0.11104520
-0.02904298 0.32176319 0.01323620
-0.31193459 -0.13045523 0.14216267
-0.62138891 -0.75275666 0.28319508
-0.07391344 0.51196450 0.03368569
-0.27600247 -0.79111546 0.12578677
-0.48463219 -0.79673141 0.22086875
-0.58002245 -0.09581499 0.26434371
-0.19153962 0.43433866 0.08729353
-0.41639966 -0.67856383 0.18977211
-0.70842528 -0.77735829 0.32286131
-0.71091986 -0.76085943 0.32399824
-0.57209802 -0.68845695 0.26073092
-0.39686355 -0.36011112 0.18086863
-0.22079642 -0.63001347 0.10062689
-0.04426164 -0.55542982 0.02017202
-0.66480845 0.01341591 0.00000037
-0.42866650 0.24328186 0.19536385
-0.18637297 0.39217591 0.08493874
-0.34259790 -0.31386754 0.15613732
-0.70502138 -0.54087979 0.32131073
-0.23902293 0.43364033 0.10893408
-0.14506043 -0.42427608 0.06611058
-0.67471069 -0.22884823 0.30749765
-0.72636795 -0.61898941 0.33103907
-0.20598540 -0.16713119 0.09387684
-0.20826250 0.34934253 0.09491483
-0.53405595 -0.51067430 0.24339359
-0.16195633 -0.10625938 0.07381080
-0.68941027 -0.72434622 -0.00000019
-0.38753921 -0.61192596 0.17661911
-0.24374513 0.48423398 0.11108633
-0.74706018 -0.60666627 -0.00000048
