ply
format ascii 1.0
element vertex 1390
property float x
property float y
property float z
end_header
0.43627900 0.35999373 -0.00000103
0.58307022 -0.39239430 -0.00000038
-0.56670523 -0.41767558 -0.00000027
0.15393779 0.09430772 0.00000826
-0.79369962 -0.37786460 -0.00000106
-0.72708994 -0.79490137 -0.00000001
-0.08182460 -0.79537112 0.00000000
-0.30603218 0.21369539 0.05496488
0.76283109 -0.32393891 -0.00000119
0.02444281 -0.62650013 0.00000000
0.22297230 -0.10414848 0.00000000
0.36192814 -0.01665389 -0.00000010
0.20569526 0.18841146 0.00000607
0.16350234 -0.50057381 0.00000000
-0.75925291 -0.49339285 -0.00000077
0.26720214 0.26976934 0.00000373
0.02620711 -0.45013368 0.00000000
0.67923635 -0.31777820 -0.00000092
-0.06126374 0.71474606 0.00470468
-0.15706925 0.54154736 0.01988241
0.37312499 -0.20152020 0.00000000
-0.24781337 -0.27672625 0.00000000
-0.14411126 -0.35360438 0.00000000
0.01756081 -0.30410066 0.00000000
0.61755890 0.14937852 -0.00000099
0.38622257 -0.70946801 0.00000000
0.22966507 -0.77770472 0.00000000
-0.48432595 0.09230992 0.04380380
0.18427248 -0.36039039 0.00000000
0.04295444 0.43337944 0.00000485
0.52988207 0.21737990 -0.00000044
-0.39227036 -0.53676122 0.00000000
0.07794537 0.30627492 0.00000623
0.04724160 0.54534435 0.00000311
-0.18370698 -0.19235829 0.00000000
0.29903045 -0.26375210 0.00000000
0.39579031 0.06120910 0.00000474
0.63358492 -0.13258491 -0.00000106
0.11236284 0.20981213 0.00000716
0.02766129 -0.19949333 0.00000000
0.63625497 -0.62804198 -0.00000019
0.26913148 0.37880132 0.00000187
0.08292029 -0.73081416 0.00000000
0.46602374 -0.59380233 0.00000000
-0.53975868 -0.61692607 0.00000000
-0.68711424 -0.39575341 -0.00000082
0.28028253 -0.50499111 0.00000000
-0.08487493 -0.29258531 0.00000000
-0.46801066 0.19600511 0.02666731
0.25372976 -0.11287705 0.00000000
0.24870060 0.43515942 0.00000132
-0.36515287 -0.08007118 -0.00000000
0.04841928 0.61555570 0.00000204
0.79811370 -0.54081041 -0.00000065
-0.12611561 0.45518419 0.04288996
0.05585742 -0.03709795 0.00000000
0.24770518 0.27819404 0.00000396
-0.25986499 0.33703530 0.03983025
-0.32562378 -0.64885813 0.00000000
0.56191033 -0.54279357 -0.00000002
0.77911901 -0.61054510 -0.00000047
-0.15729558 0.19488506 0.08782308
0.30807030 -0.35995969 0.00000000
0.11801591 0.30780056 0.00000560
0.28280461 -0.07567982 0.00000000
-0.38658780 0.18458825 0.04487482
0.12574339 0.22880369 0.00000667
0.79349208 -0.57655293 -0.00000056
-0.47715390 0.20194265 0.02370971
-0.78049666 -0.13225140 -0.00000167
-0.77707303 -0.03073758 -0.00000185
0.62827903 -0.76562124 0.00000000
-0.38963002 -0.02143514 -0.00000021
0.66113490 -0.07536584 -0.00000127
0.48340806 -0.66751218 0.00000000
0.53762370 -0.50781870 0.00000000
-0.21324404 -0.38620162 0.00000000
-0.35726029 0.06045224 0.07497145
0.69201440 -0.58300173 -0.00000051
-0.18033893 -0.39423144 0.00000000
0.67739034 -0.39588982 -0.00000078
0.23339649 -0.22663926 0.00000000
0.64238167 -0.52390319 -0.00000040
-0.25607744 0.26102355 0.05548013
-0.16687645 0.44420841 0.03704869
-0.04814724 0.73448634 0.00340569
-0.04639912 0.31872177 0.08528521
0.52263987 -0.12121455 -0.00000060
-0.50224298 -0.02307228 -0.00000069
0.55853510 -0.78574371 0.00000000
-0.14175928 0.01324654 0.12649147
-0.27364025 -0.55997598 0.00000000
0.61237150 -0.26542699 -0.00000073
-0.21479699 0.01812393 0.11121146
-0.04009538 0.72489470 0.00686587
0.02512422 -0.40569535 0.00000000
0.18901318 -0.38860002 0.00000000
-0.13036308 -0.34553206 0.00000000
0.07834452 -0.58244997 0.00000000
0.34113830 0.11718473 0.00000485
0.76089680 -0.36404249 -0.00000109
0.35332364 -0.71538824 0.00000000
0.75590134 -0.50540763 -0.00000074
0.17682025 -0.14790739 0.00000000
-0.09605636 0.52123141 0.03583223
0.42523041 -0.17120989 -0.00000010
-0.33332795 -0.10047536 0.00000000
0.17050317 0.40981930 0.00000324
0.33799338 -0.47361314 0.00000000
-0.36078453 -0.20370173 0.00000000
-0.51995629 -0.73180759 0.00000000
0.77571821 -0.21692358 -0.00000146
0.70407009 -0.37721130 -0.00000092
0.22608455 -0.50300086 0.00000000
-0.10856497 0.29024619 0.07867821
-0.68930304 -0.19479644 -0.00000118
-0.58585751 0.08579053 0.02517017
0.56303000 -0.77940035 0.00000000
-0.25393283 0.09463439 0.08853184
0.13918087 0.55908525 0.00000135
-0.04713913 -0.52698243 0.00000000
-0.61093277 -0.72876489 0.00000000
-0.42416215 0.05459304 0.06299986
0.38357112 -0.14222181 0.00000000
0.33948037 -0.28278473 0.00000000
0.28645706 0.33465242 0.00000227
-0.47702092 0.21121420 0.02191750
-0.37031767 0.01912838 0.08051490
-0.65645295 -0.43290842 -0.00000062
0.78537351 -0.42683828 -0.00000093
-0.06561881 -0.74836254 0.00000000
-0.74498606 -0.61750460 -0.00000046
0.07174655 0.66405576 0.00000089
0.24718536 0.09969139 0.00000677
0.05365120 0.53159332 0.00000322
0.47825614 -0.34632546 -0.00000001
-0.07762891 -0.51172048 0.00000000
-0.39574736 -0.45878053 0.00000000
0.24053869 0.15631689 0.00000603
0.12111795 0.14902893 0.00000794
0.43981245 -0.33627322 0.00000000
-0.00894408 -0.78554416 0.00000000
-0.64601558 -0.63130718 -0.00000023
-0.19708379 -0.76750559 0.00000000
0.52163446 0.20261987 -0.00000004
0.44565439 -0.22714137 -0.00000009
-0.62019068 -0.75705546 0.00000000
-0.36327618 0.03245783 0.07928175
0.20872910 -0.68201977 0.00000000
-0.03478326 -0.75242251 0.00000000
-0.26267007 -0.44041514 0.00000000
-0.07869281 -0.71979141 0.00000000
-0.61635041 -0.00999948 -0.00000120
-0.02643089 0.64310962 0.02558474
-0.19293764 0.55712861 0.00979224
-0.65879750 0.11825956 0.00449765
-0.14988618 -0.05278256 0.00000000
-0.61943358 -0.04809344 -0.00000114
-0.01891880 0.35699719 0.08316811
0.01775118 -0.38723713 0.00000000
-0.40232131 0.09029511 0.06028153
-0.37822923 0.29401159 0.02505449
-0.11904951 -0.29331961 0.00000000
-0.51475686 0.11429448 0.03352424
-0.01920505 -0.61021936 0.00000000
0.48009634 -0.17754583 -0.00000032
0.33560529 0.01799819 0.00000662
-0.02383814 0.75177151 0.00478325
0.73555756 -0.20430835 -0.00000136
-0.78824723 -0.39236405 -0.00000102
-0.13012122 -0.34820285 0.00000000
0.55025333 -0.25004163 -0.00000049
0.03407120 -0.42593932 0.00000000
-0.65167165 -0.65878677 -0.00000020
-0.49429777 0.23037803 0.01477088
0.09431238 -0.68960136 0.00000000
-0.45019090 -0.20323679 -0.00000015
-0.25881323 -0.20971817 0.00000000
-0.70868164 -0.63851708 -0.00000040
0.77625453 -0.68041182 -0.00000030
-0.14777546 0.30052677 0.06897244
0.52071255 0.08477709 0.00000195
0.12751471 -0.65450901 0.00000000
-0.47892979 -0.39988625 0.00000000
-0.24920323 -0.28951710 0.00000000
0.07605050 0.00277146 0.00001081
0.19229881 -0.71103162 0.00000000
0.40810135 -0.00229453 -0.00000032
0.51649994 -0.31407914 -0.00000023
0.46239072 -0.33855414 0.00000000
0.35585099 -0.67197806 0.00000000
0.39017099 0.25057301 0.00000168
-0.27697474 0.32567635 0.03870238
-0.45148218 -0.56361002 0.00000000
-0.16434155 0.19898774 0.08563670
0.07232359 0.47538614 0.00000378
-0.17152987 -0.39321569 0.00000000
-0.73976988 -0.75829804 -0.00000010
0.40044105 -0.29305553 0.00000000
0.43614799 -0.57409698 0.00000000
-0.49178168 -0.77189422 0.00000000
-0.24886489 -0.72647214 0.00000000
-0.64918149 -0.37706682 -0.00000069
0.35116282 -0.52038765 0.00000000
-0.39924079 0.38439661 0.00320786
0.31515402 -0.43073684 0.00000000
0.77750510 -0.03565834 -0.00000184
0.62874889 0.00787618 0.00000116
0.15761369 0.35433763 0.00000431
0.52844959 0.26585653 -0.00000123
0.47711465 -0.50479823 0.00000000
-0.33009225 0.04388381 0.08354891
-0.39213762 -0.28084573 0.00000000
0.21604206 -0.46437329 0.00000000
0.29983875 -0.44016707 0.00000000
-0.32520652 -0.62683743 0.00000000
0.16090494 -0.04472662 0.00000000
0.38754413 -0.51225728 0.00000000
0.18651783 -0.09317793 0.00000000
-0.49471369 -0.29020804 -0.00000018
0.52168489 -0.79384679 0.00000000
-0.71946174 0.05317179 0.00536501
0.04509891 0.41732493 0.00000506
0.14014374 -0.29204199 0.00000000
-0.10438513 0.55195755 0.02817311
0.54981422 -0.18707667 -0.00000060
-0.01760042 -0.74737412 0.00000000
-0.54076737 -0.62026274 0.00000000
0.77089351 -0.24522854 -0.00000139
-0.13745935 -0.58449525 0.00000000
0.16590431 -0.00090144 0.00000000
-0.44754061 -0.70537090 0.00000000
0.31436226 0.35601589 0.00000138
0.00230979 -0.59327775 0.00000000
0.29697591 0.08213885 0.00000629
-0.60281795 -0.69049364 0.00000000
0.12043232 -0.63638377 0.00000000
-0.31756940 -0.32774863 0.00000000
0.39914721 -0.34204537 0.00000000
0.26182923 0.08399040 0.00000679
-0.55080843 -0.33254820 -0.00000035
-0.16970485 -0.19551654 0.00000000
0.13090844 -0.33853593 0.00000000
-0.13454580 0.05916726 0.11890050
0.11574650 0.12064077 0.00000844
0.26616013 0.51152140 -0.00000029
-0.19910263 -0.60675025 0.00000000
-0.57525289 -0.12654613 -0.00000082
-0.57617795 0.04363709 0.03533544
-0.53011310 -0.01704588 -0.00000082
-0.11141518 0.15936388 0.10378688
0.53004211 -0.66330659 0.00000000
-0.04830459 -0.51169258 0.00000000
0.75471073 -0.64169991 -0.00000040
0.19018576 -0.67877299 0.00000000
0.01243289 -0.54935163 0.00000000
-0.01973619 0.44736627 0.06528533
0.01776222 -0.73055863 0.00000000
0.44132200 -0.03789724 -0.00000040
-0.50631613 -0.72342908 0.00000000
0.74871492 -0.12647188 -0.00000156
-0.23561040 0.06352201 0.09822659
0.05571905 0.54447657 0.00000299
-0.29952803 0.41280079 0.01719284
0.75512010 -0.78497100 -0.00000004
0.05049875 -0.23487461 0.00000000
0.45724863 -0.04434881 -0.00000046
0.13716573 -0.46859875 0.00000000
0.60260260 -0.21062776 -0.00000079
-0.32821462 0.29216987 0.03522446
-0.56065208 0.04179039 0.03874252
-0.56816673 0.07873047 0.03002425
-0.68987161 -0.25055471 -0.00000109
0.57532340 -0.58058417 -0.00000001
0.63038993 0.05908077 0.00000027
0.41124734 -0.12148492 -0.00000013
0.04241327 -0.15500540 0.00000000
0.71059769 -0.61510330 -0.00000046
-0.25089273 -0.62705684 0.00000000
-0.75668156 -0.05265433 -0.00000172
0.58669138 0.03186627 0.00000156
0.49425966 0.22193535 0.00000016
-0.13269104 0.40649638 0.05114872
0.73796964 -0.52225053 -0.00000069
-0.56293601 -0.27257648 -0.00000051
0.31563282 -0.51112312 0.00000000
0.60953736 -0.76336205 0.00000000
0.25047502 0.48269278 0.00000049
0.01187255 0.75683004 0.00000047
0.02824264 -0.38523129 0.00000000
-0.36206621 0.22418058 0.04191928
0.08980543 -0.79225510 0.00000000
0.79321086 -0.77256292 -0.00000007
-0.33021954 0.09433871 0.07362897
-0.77801198 -0.64408451 -0.00000039
-0.28188130 -0.66546124 0.00000000
0.58889860 -0.70293659 0.00000000
0.78465343 -0.79370469 -0.00000002
0.18479143 0.61431712 -0.00000046
0.14103051 0.58119911 0.00000095
0.04738162 0.60159206 0.00000226
0.29107645 0.30367973 0.00000270
0.38252658 -0.69840246 0.00000000
-0.38294339 0.41484192 0.00043328
0.54451722 -0.33547649 -0.00000032
0.51297349 -0.42524013 -0.00000002
0.11690364 0.00536773 0.00001016
0.06031776 -0.61572504 0.00000000
-0.11644131 -0.04926955 0.00000000
-0.01168987 -0.27043137 0.00000000
0.13810010 -0.29774541 0.00000000
-0.12216688 -0.61410916 0.00000000
0.77364516 -0.41979194 -0.00000095
-0.35907155 0.25971341 0.03553806
0.25245443 0.50682390 0.00000005
-0.36201352 -0.47703478 0.00000000
0.31223983 -0.00326061 0.00000000
-0.13179815 -0.04849034 0.00000000
0.71115255 -0.42237684 -0.00000087
-0.13112421 -0.64988929 0.00000000
0.17338207 -0.35764068 0.00000000
0.07051342 -0.21239060 0.00000000
-0.70864886 -0.48852888 -0.00000075
-0.07740996 0.62822646 0.01850593
0.18213575 -0.13077331 0.00000000
-0.66740590 -0.10444196 -0.00000125
0.07271462 -0.63380897 0.00000000
-0.36003685 -0.34130943 0.00000000
0.35044885 0.19530660 0.00000337
-0.68458307 -0.58209789 -0.00000048
0.14079612 0.49547613 0.00000238
0.39932591 0.02956088 0.00000520
-0.11790291 -0.35615736 0.00000000
0.03550965 -0.13136667 0.00000000
0.66039008 -0.72804260 -0.00000012
-0.27452657 -0.06820635 0.00000000
-0.73697215 -0.58479095 -0.00000054
0.08655213 0.36911285 0.00000516
-0.21384601 -0.22897972 0.00000000
0.25413293 -0.62225592 0.00000000
0.64311647 -0.55102777 -0.00000036
0.24267575 0.19336894 0.00000544
-0.04359363 -0.10841737 0.00000000
-0.21612170 0.13008264 0.08899518
-0.50875646 -0.11960806 -0.00000055
0.66487712 -0.75232905 -0.00000009
-0.31227845 -0.11521177 0.00000000
0.56008017 -0.75468683 0.00000000
-0.31312212 0.40521801 0.01601389
0.49899709 -0.25885558 -0.00000026
-0.65159625 -0.27347285 -0.00000088
0.16590945 0.18313181 0.00000675
0.67069376 -0.53471142 -0.00000050
-0.45031145 -0.21124353 -0.00000013
0.64795083 -0.54158247 -0.00000039
0.15750308 0.47725672 0.00000237
-0.27648905 -0.19856039 0.00000000
-0.76146197 -0.33624855 -0.00000116
0.48535869 -0.12092389 -0.00000044
0.33377883 -0.14594685 0.00000000
0.03915463 0.39115459 0.00000554
0.68425518 0.08039734 -0.00000112
0.31336853 0.36682600 0.00000122
-0.58003008 -0.69193238 0.00000000
0.61177158 -0.67583495 -0.00000000
0.32331339 -0.58700782 0.00000000
-0.12125646 0.60306048 0.01484227
-0.54766494 -0.09379078 -0.00000076
-0.65146375 0.01592607 0.02600510
-0.21792561 0.50750852 0.01462291
-0.41674271 -0.31067052 0.00000000
0.05682278 -0.28916907 0.00000000
-0.53332961 0.17486794 0.01800240
-0.22078903 0.52317899 0.01098812
-0.31210217 -0.46938032 0.00000000
-0.08246849 -0.42224839 0.00000000
-0.25234163 0.05079877 0.09744060
-0.39890167 0.29493880 0.02081841
0.28079310 -0.45160854 0.00000000
-0.50053549 -0.63483018 0.00000000
0.48128194 -0.56768727 0.00000000
0.17630516 0.08803501 0.00000802
-0.26679468 0.23207201 0.05905612
-0.42537010 -0.41008812 0.00000000
0.10426153 0.54015237 0.00000232
-0.57529402 0.08692722 0.02701895
-0.34519392 0.37211344 0.01621635
-0.37903550 -0.42292738 0.00000000
-0.11997014 0.28848949 0.07678603
-0.25760889 -0.79841226 0.00000000
0.53793257 -0.74517417 0.00000000
0.35115552 -0.33635068 0.00000000
-0.61006159 -0.11664633 -0.00000098
0.37057903 0.17695342 0.00000329
-0.08467956 0.63577569 0.01559971
0.24469651 0.11843961 0.00000653
0.26012459 -0.56477648 0.00000000
0.42848051 -0.00700857 -0.00000040
-0.51282638 0.27458256 0.00246789
-0.53844476 -0.15724145 -0.00000061
0.12202906 -0.63985038 0.00000000
-0.31519219 0.18584417 0.05863048
-0.49747020 -0.49699754 0.00000000
-0.39030737 -0.03499267 -0.00000019
0.68382794 0.06871382 -0.00000092
-0.35026792 -0.04909280 0.00000000
-0.01925091 0.65969908 0.02373942
0.51752794 0.27291590 -0.00000113
0.04994680 -0.55365586 0.00000000
-0.11206020 -0.47116375 0.00000000
0.36286247 -0.13793242 0.00000000
0.17703553 -0.62823361 0.00000000
0.77041060 -0.32172722 -0.00000120
0.43027085 0.24778455 0.00000096
-0.49834463 -0.50510705 0.00000000
0.53618115 0.04050019 0.00000239
0.30967298 -0.55722374 0.00000000
0.29393646 -0.08899447 0.00000000
-0.28935653 0.23603047 0.05385502
-0.07304865 0.42386618 0.05943882
0.38717085 0.13982873 0.00000359
-0.27194497 -0.76751655 0.00000000
-0.29706284 -0.73854923 0.00000000
-0.61256754 -0.23254853 -0.00000079
-0.70175552 -0.13761005 -0.00000134
-0.05835544 0.06686879 0.13233191
0.69103414 -0.18831953 -0.00000120
0.42660964 0.15004280 0.00000266
0.64924294 -0.32425472 -0.00000078
0.52404588 -0.13434403 -0.00000058
-0.16169725 -0.64401728 0.00000000
-0.21783140 -0.06324148 0.00000000
-0.27855614 -0.37717667 0.00000000
-0.53996205 0.09182457 0.03298774
0.48471186 -0.34900206 -0.00000004
0.45585740 0.23431028 0.00000070
0.44007710 -0.28059614 0.00000000
-0.36730108 -0.75355512 0.00000000
-0.76546282 -0.47641549 -0.00000081
-0.01143793 -0.54150003 0.00000000
0.13258375 0.20892864 0.00000687
0.27580994 -0.50306427 0.00000000
0.57175499 -0.56904292 -0.00000002
-0.13259985 0.42699686 0.04714621
0.43967599 -0.54585546 0.00000000
-0.53743088 0.11155167 0.02961536
-0.02006073 0.22431868 0.10896406
0.40158656 0.04656791 0.00000487
0.45553991 0.05511584 0.00000369
0.17953180 0.44782236 0.00000244
-0.34400189 0.11056026 0.06774471
0.41076478 0.23557647 0.00000154
-0.44889033 0.01806032 0.06531485
0.01158071 -0.61403519 0.00000000
-0.54652178 -0.60372645 0.00000000
0.33077434 -0.30374622 0.00000000
-0.31516770 -0.51545751 0.00000000
0.30655760 -0.75312859 0.00000000
0.34472853 -0.43362138 0.00000000
0.01645349 -0.20626418 0.00000000
0.58702093 -0.69086224 0.00000000
0.67937535 -0.78479087 -0.00000004
-0.03968085 0.69270116 0.01326077
-0.19190447 -0.03851810 0.00000000
0.30154318 -0.53411782 0.00000000
-0.52474874 -0.19290987 -0.00000048
-0.20015654 -0.35418054 0.00000000
0.55740172 -0.46955732 -0.00000013
0.62973732 -0.35549676 -0.00000064
-0.28462690 -0.73850310 0.00000000
-0.44403741 -0.53636748 0.00000000
-0.77574080 -0.14687820 -0.00000163
0.01712509 -0.42600277 0.00000000
0.38695520 -0.74987084 0.00000000
0.17943703 -0.29640102 0.00000000
0.18532011 -0.34429163 0.00000000
0.15921175 -0.53875601 0.00000000
0.42993242 -0.67982316 0.00000000
0.08890191 0.62563282 0.00000121
-0.61625105 -0.11691221 -0.00000101
-0.22427011 0.32966012 0.04825744
-0.34923834 -0.55894035 0.00000000
-0.13344623 0.44049138 0.04433378
0.04606735 -0.34526578 0.00000000
-0.11254351 -0.09954440 0.00000000
-0.03880449 0.35881457 0.07891190
0.38821289 -0.27193561 0.00000000
-0.14377236 -0.54817903 0.00000000
0.76479697 -0.78389245 -0.00000004
-0.35705474 0.33009920 0.02212986
0.19901979 -0.05327125 0.00000000
-0.36888391 -0.22309531 0.00000000
0.21479680 0.27339259 0.00000466
0.10337392 0.36169550 0.00000501
-0.48362690 -0.78449738 0.00000000
0.69910210 -0.37088239 -0.00000091
0.12071267 0.59544915 0.00000110
-0.56662363 -0.58859235 0.00000000
0.01988682 -0.55470181 0.00000000
-0.63463789 0.14438450 0.00411229
0.04696770 -0.62890828 0.00000000
0.50505394 0.01281001 0.00000345
-0.61620289 0.18186896 0.00037645
-0.56663352 -0.56103373 -0.00000001
-0.52371168 -0.66478771 0.00000000
0.60591793 0.11036440 -0.00000012
0.17305151 0.58474350 0.00000027
-0.68608326 -0.71042174 -0.00000022
-0.04019259 -0.08472438 0.00000000
-0.44758707 -0.29116777 0.00000000
-0.16548982 0.09337962 0.10612257
0.21972552 -0.04876114 0.00000000
0.06584511 -0.15244280 0.00000000
-0.56714588 -0.08317904 -0.00000086
-0.75174600 -0.61842018 -0.00000045
-0.05588034 -0.53695697 0.00000000
-0.72691578 -0.56477922 -0.00000059
0.13439882 0.01153680 0.00000980
-0.30815369 -0.05736607 0.00000000
-0.16250065 -0.33583632 0.00000000
-0.66542345 0.06842179 0.01297213
0.54563779 -0.57504761 0.00000000
-0.61250317 0.17677452 0.00210113
0.47281006 -0.16004208 -0.00000032
0.42777249 0.37017271 -0.00000107
0.76245707 -0.73118502 -0.00000017
0.48929527 -0.15216634 -0.00000040
-0.60539246 -0.03550000 -0.00000111
0.58787829 -0.70102721 0.00000000
-0.51504087 0.02062774 0.05183802
-0.50468749 -0.59470797 0.00000000
-0.55241692 0.01563345 0.04548735
0.22334518 0.23317194 0.00000513
0.67013365 -0.73021162 -0.00000015
0.32889178 0.39775279 0.00000040
-0.53329951 0.15627255 0.02165516
-0.21807311 -0.69637018 0.00000000
-0.76590675 -0.66840464 -0.00000033
0.66437739 -0.74091572 -0.00000011
-0.39080772 -0.04556443 -0.00000017
0.47105306 -0.20236069 -0.00000024
-0.65907449 -0.73027611 -0.00000011
0.04762588 0.29022726 0.00000693
0.13300574 -0.44489521 0.00000000
0.16524342 -0.21402229 0.00000000
-0.15263729 -0.62727773 0.00000000
0.04936425 0.73346978 0.00000016
0.23938289 0.44690046 0.00000130
0.25124642 -0.11623577 0.00000000
0.18742628 0.24086870 0.00000556
-0.40442532 -0.63366193 0.00000000
0.24453349 -0.18243884 0.00000000
0.66712964 -0.10254626 -0.00000125
0.57975215 -0.30589387 -0.00000052
-0.05831393 0.17085265 0.11194753
0.21366747 0.36557809 0.00000315
0.37988365 0.06814400 0.00000493
0.73661077 -0.39489102 -0.00000101
0.39591110 -0.08652374 -0.00000012
0.22849494 -0.79321265 0.00000000
-0.14797598 -0.54468024 0.00000000
-0.73864549 -0.19831170 -0.00000139
0.67735964 -0.67172539 -0.00000029
-0.15824383 0.53098327 0.02172383
-0.07523113 0.51101655 0.04191955
0.16560136 0.36261162 0.00000406
-0.46620673 -0.52145821 0.00000000
-0.40381163 -0.21212725 0.00000000
0.14132328 -0.61943078 0.00000000
0.43809181 -0.24236165 -0.00000003
-0.10379777 -0.33531934 0.00000000
0.51152885 -0.63776815 0.00000000
-0.65141416 -0.24784817 -0.00000093
-0.08573481 0.34298503 0.07281272
0.43519312 0.35497999 -0.00000092
-0.47084865 0.26626804 0.01233109
0.18132143 0.46658716 0.00000209
-0.09176993 -0.38048276 0.00000000
0.26805475 -0.56932271 0.00000000
-0.29235092 0.22160313 0.05609719
-0.69658542 -0.16922770 -0.00000126
-0.04516569 0.31721306 0.08582297
0.65347576 -0.53411889 -0.00000043
0.58896714 0.14390489 -0.00000035
0.09626357 0.01988075 0.00001025
-0.32515094 0.13325350 0.06699123
-0.06435270 0.22352521 0.10043352
0.41949382 0.29442519 0.00000039
-0.63504916 0.11096103 0.01058649
-0.51832598 0.08494409 0.03858033
0.34949553 -0.27954629 0.00000000
0.33639491 -0.78506368 0.00000000
-0.00886037 0.67520922 0.02273539
-0.06496200 -0.59931797 0.00000000
-0.69160259 0.06770328 0.00797885
-0.15351124 -0.52487946 0.00000000
-0.56743824 -0.27861646 -0.00000051
-0.44774321 0.10750254 0.04799883
0.04045659 -0.67019248 0.00000000
-0.58835506 -0.29858744 -0.00000057
-0.10292092 -0.07668578 0.00000000
-0.42201722 -0.72747517 0.00000000
-0.35523206 0.39214799 0.01031860
-0.26388934 -0.35714921 0.00000000
-0.06027128 0.06808063 0.13171853
0.30428511 -0.24780092 0.00000000
0.21788995 -0.25897849 0.00000000
0.03963829 -0.25024560 0.00000000
0.10717714 -0.66225272 0.00000000
-0.26485762 -0.03860486 0.00000000
-0.14056274 -0.21895491 0.00000000
-0.35163978 0.18396290 0.05185140
0.65601546 -0.07845319 -0.00000125
-0.20959146 0.06929478 0.10219708
-0.18107636 0.12891603 0.09609675
-0.44861200 -0.14014544 -0.00000025
-0.01645816 -0.09203373 0.00000000
-0.14306188 0.43414623 0.04369241
0.38527545 -0.17525160 0.00000000
-0.22086249 0.49478871 0.01654148
0.28292075 -0.72827488 0.00000000
0.56188238 -0.74832374 0.00000000
-0.78301561 -0.57579708 -0.00000056
-0.35859594 0.25445521 0.03666255
0.27120343 0.18056867 0.00000514
0.05532371 0.18091029 0.00000845
0.29752734 -0.57310426 0.00000000
-0.15271753 0.55439866 0.01821552
0.33922145 -0.35953531 0.00000000
0.00471732 -0.75426942 0.00000000
-0.21291628 -0.54401886 0.00000000
0.52973908 -0.35166106 -0.00000022
-0.78690916 -0.31476858 -0.00000121
-0.31864554 -0.74915802 0.00000000
-0.18433256 0.19587927 0.08232586
-0.18192996 -0.49354959 0.00000000
-0.55145735 -0.44353583 -0.00000016
0.14327969 -0.16799754 0.00000000
-0.07111929 -0.51119202 0.00000000
-0.27222741 -0.67517680 0.00000000
0.69011366 -0.30781037 -0.00000099
0.15075712 0.23618583 0.00000618
0.42840859 -0.66617799 0.00000000
0.06066034 0.34877712 0.00000585
0.57383060 -0.20838927 -0.00000067
0.10513982 -0.03697674 0.00000000
-0.21811558 -0.19217768 0.00000000
0.11380926 0.32332096 0.00000543
0.48087832 -0.55620164 0.00000000
-0.27974242 -0.07719633 0.00000000
-0.03874059 -0.15582184 0.00000000
0.66566890 -0.35402870 -0.00000080
0.39584443 0.39205930 -0.00000079
0.59983104 0.14510155 -0.00000058
-0.19224551 0.56203753 0.00896526
-0.04141664 0.42985350 0.06446802
-0.52858067 0.19055288 0.01585770
-0.17878294 0.48945853 0.02583938
0.11791144 -0.23251095 0.00000000
-0.08681974 -0.53134483 0.00000000
-0.34735128 -0.18365265 0.00000000
-0.39810970 -0.22823656 0.00000000
0.77978969 -0.33533278 -0.00000116
0.61289287 -0.37824538 -0.00000053
0.20700523 -0.41194150 0.00000000
0.60019606 0.13450496 -0.00000041
-0.24733587 -0.69137061 0.00000000
-0.65913790 0.06005065 0.01584655
0.17061925 -0.54142785 0.00000000
-0.62341005 -0.17155910 -0.00000094
0.32710737 -0.37413156 0.00000000
-0.70298225 -0.00372663 -0.00000158
0.30754974 -0.70416993 0.00000000
-0.19257753 -0.60250157 0.00000000
0.13932022 -0.19667614 0.00000000
-0.66868895 -0.61018968 -0.00000036
0.23556393 0.20988154 0.00000530
-0.52859175 0.09449814 0.03469334
0.78744781 -0.67506647 -0.00000031
-0.66168576 -0.48994595 -0.00000054
-0.75762963 -0.32009420 -0.00000120
-0.57890940 -0.39380771 -0.00000036
0.30618808 -0.07157788 0.00000000
0.72215104 -0.50135452 -0.00000075
0.19710107 -0.59046274 0.00000000
0.62890047 -0.48787856 -0.00000041
-0.04571523 0.71543062 0.00761976
-0.03781508 -0.28157431 0.00000000
-0.64124942 -0.60822874 -0.00000025
-0.33330169 -0.48647124 0.00000000
-0.07908121 0.16119161 0.10976949
0.72395819 -0.64399767 -0.00000039
-0.17824718 0.46938163 0.02988184
-0.64666361 -0.34829667 -0.00000073
-0.29143235 0.41488618 0.01837157
0.55859971 -0.70574778 0.00000000
0.43870795 -0.71238327 0.00000000
0.67603928 -0.42174271 -0.00000073
-0.49738917 -0.22741567 -0.00000031
-0.13265431 0.08774344 0.11366730
-0.48738262 0.23055749 0.01609187
-0.64379185 -0.13652445 -0.00000109
0.24964991 0.25690603 0.00000428
0.40181750 -0.72360396 0.00000000
-0.40174809 -0.61137950 0.00000000
0.66783321 -0.51859242 -0.00000052
-0.23395146 0.05331875 0.10055291
-0.68528759 0.00968136 0.02059632
0.21508947 0.01280318 0.00000856
0.13375922 -0.71266174 0.00000000
-0.09413984 -0.16080840 0.00000000
-0.08365482 -0.51001292 0.00000000
0.18686299 0.32997707 0.00000423
-0.59647483 -0.52294409 -0.00000021
-0.32419309 -0.35381183 0.00000000
0.26917723 0.29405135 0.00000328
0.36453807 -0.72131777 0.00000000
-0.79658008 -0.31912744 -0.00000120
0.48714092 0.12176488 0.00000197
0.26642266 0.07790077 0.00000681
0.64057869 -0.27866700 -0.00000083
0.04626894 0.50651419 0.00000370
-0.62873429 0.08726275 0.01647255
-0.12246461 0.14639208 0.10416389
-0.20020609 -0.26535642 0.00000000
0.29758096 0.01322787 0.00000731
-0.28527316 -0.25157377 0.00000000
-0.75047785 -0.43241104 -0.00000092
0.02631785 -0.29813743 0.00000000
-0.39755192 0.03958958 0.07116102
-0.55962878 -0.59185696 0.00000000
-0.68698692 -0.41878605 -0.00000078
0.15077414 -0.36497673 0.00000000
-0.53800583 0.17698260 0.01667060
0.65787709 -0.51549554 -0.00000048
-0.53958285 -0.70519578 0.00000000
-0.12418089 -0.14508101 0.00000000
0.30371961 0.16161318 0.00000483
-0.61741006 -0.01876468 -0.00000119
0.04457726 0.28199777 0.00000710
0.62100339 -0.66548038 -0.00000006
0.45983627 -0.48327345 0.00000000
0.04431871 0.70438284 0.00000075
0.32178444 -0.67416489 0.00000000
0.69385833 -0.28806987 -0.00000104
-0.02766816 -0.60660022 0.00000000
-0.43919498 0.12562354 0.04612148
0.30194330 -0.20364933 0.00000000
-0.63308454 -0.50159013 -0.00000040
-0.06059251 0.11657559 0.12214508
0.41474357 -0.55025870 0.00000000
0.46524715 -0.19024354 -0.00000024
0.67587817 -0.53237534 -0.00000053
-0.26842478 -0.66767108 0.00000000
0.13272433 0.30978188 0.00000535
0.41335219 -0.32004857 0.00000000
0.05956900 0.54284096 0.00000296
-0.42686766 -0.76885176 0.00000000
-0.37290707 -0.30539188 0.00000000
0.48846152 -0.40278584 0.00000000
-0.48989627 0.29862344 0.00225012
-0.42683187 -0.35306901 0.00000000
0.72195804 -0.58884227 -0.00000053
-0.16119143 -0.39394787 0.00000000
-0.62968916 0.00915375 0.03160365
-0.24708131 -0.04413773 0.00000000
-0.56422436 -0.79188985 0.00000000
-0.44464850 -0.76182556 0.00000000
-0.03823971 0.53244871 0.04497088
-0.02746965 -0.35060629 0.00000000
-0.26918513 -0.69217527 0.00000000
0.45695645 0.20247608 0.00000121
-0.25634563 0.51816940 0.00499728
0.47314870 -0.52393776 0.00000000
-0.29589731 0.41503668 0.01746640
0.02215947 -0.08774758 0.00000000
-0.20423827 0.37617621 0.04306353
-0.61823225 -0.29585788 -0.00000070
-0.49029008 -0.39862698 0.00000000
0.10720311 0.27652356 0.00000623
0.62340373 -0.77711213 0.00000000
-0.23037837 -0.28837436 0.00000000
-0.10800451 -0.32948101 0.00000000
-0.45650744 -0.01572431 -0.00000051
0.14063200 -0.56187046 0.00000000
-0.08357385 -0.68913156 0.00000000
-0.66199380 -0.66490483 -0.00000024
0.19393280 -0.33785751 0.00000000
0.47717401 -0.11650056 -0.00000042
-0.75344622 -0.41076928 -0.00000097
0.56281310 -0.00709392 -0.00000098
0.36433691 -0.40850627 0.00000000
0.69412851 -0.49535722 -0.00000067
0.76875740 -0.30795869 -0.00000123
0.44679227 -0.53838700 0.00000000
0.58482665 -0.64092726 0.00000000
-0.56954002 -0.23415647 -0.00000060
-0.55481237 -0.66020101 0.00000000
-0.57405740 -0.24987087 -0.00000059
0.49687794 -0.38300377 -0.00000003
-0.24977246 0.30435199 0.04821927
-0.36738941 -0.50401032 0.00000000
-0.27547595 -0.73031884 0.00000000
-0.71755952 -0.63827825 -0.00000040
-0.68115103 -0.60960293 -0.00000042
-0.50669581 -0.05226493 -0.00000066
-0.00570156 0.59557301 0.03897251
-0.01986340 0.31649819 0.09092523
-0.71740043 -0.61793792 -0.00000046
-0.41177461 0.07795681 0.06084729
0.30281726 -0.10041094 0.00000000
0.29655382 0.38563263 0.00000123
-0.33617523 0.01459012 0.08810086
0.15138894 0.57615387 0.00000083
-0.30559576 -0.62763548 0.00000000
0.57538420 -0.62260050 0.00000000
-0.49866435 0.01999593 0.05517366
0.53801161 -0.09904559 -0.00000071
0.61774653 -0.48692501 -0.00000036
-0.47193140 0.06501431 0.05158768
0.69983727 -0.47023720 -0.00000074
-0.36920029 -0.64946467 0.00000000
0.22434528 0.18211146 0.00000588
0.35478306 -0.20352639 0.00000000
0.59345371 -0.59277648 -0.00000007
-0.14436246 -0.33830199 0.00000000
-0.34076226 0.37485933 0.01654696
0.09618128 0.00301872 0.00001050
0.43938467 -0.11802069 -0.00000025
0.01300446 -0.34518960 0.00000000
-0.53601110 -0.68801546 0.00000000
-0.28127420 -0.34727797 0.00000000
-0.37693352 0.37763304 0.00890916
-0.32297099 -0.67994368 0.00000000
-0.43304428 0.20915721 0.03094551
-0.67103213 -0.63711834 -0.00000032
-0.62022978 -0.10965307 -0.00000104
0.11945764 0.28764594 0.00000588
-0.77848309 -0.59432137 -0.00000051
0.46098995 0.21417926 0.00000093
0.52591050 -0.70106083 0.00000000
0.49192813 -0.56832761 0.00000000
-0.13282473 -0.50226426 0.00000000
-0.19272979 -0.49902567 0.00000000
-0.50821406 0.03369530 0.05061414
0.47553864 -0.04032167 -0.00000054
0.46811232 -0.38807744 0.00000000
0.06101648 0.36669973 0.00000558
0.42530763 -0.28700477 0.00000000
0.61344564 -0.39289239 -0.00000051
0.53436041 0.11716393 0.00000114
-0.62867844 -0.04780413 -0.00000118
0.18691102 0.27839684 0.00000500
0.42046022 -0.56546724 0.00000000
0.08397738 -0.74792576 0.00000000
-0.25898084 -0.43669865 0.00000000
-0.58010429 -0.18207915 -0.00000074
-0.25384521 -0.72191364 0.00000000
-0.23537929 -0.64648324 0.00000000
-0.74152428 -0.54930675 -0.00000063
0.15859930 -0.08542344 0.00000000
0.09287474 -0.46124238 0.00000000
0.53855073 0.21758731 -0.00000061
-0.60755748 -0.66749364 0.00000000
0.32816729 -0.77910966 0.00000000
0.55217165 -0.02920006 -0.00000089
-0.76700753 -0.64454097 -0.00000039
0.03917477 -0.15029232 0.00000000
-0.60004300 -0.53829759 -0.00000020
0.35257837 -0.55247509 0.00000000
0.43078923 -0.73028052 0.00000000
0.71507132 -0.30148765 -0.00000110
0.49903715 0.27477333 -0.00000081
-0.03343299 0.74173224 0.00487039
-0.35942978 -0.70854735 0.00000000
-0.76517111 -0.72566795 -0.00000019
0.27918047 -0.78387302 0.00000000
-0.32494980 -0.61246669 0.00000000
0.06098983 -0.14930435 0.00000000
0.77463698 -0.24962267 -0.00000138
-0.16930573 -0.07027181 0.00000000
-0.23721571 0.25523791 0.06031391
-0.13553321 -0.50110972 0.00000000
-0.14132440 -0.36864191 0.00000000
-0.16498871 0.49538288 0.02738282
-0.33660230 0.03060411 0.08487653
-0.12547004 -0.70940298 0.00000000
-0.45581782 -0.57284683 0.00000000
0.22387099 0.48529175 0.00000096
-0.19491231 -0.23544891 0.00000000
0.74594426 -0.58675343 -0.00000053
-0.14024533 0.07692754 0.11429975
-0.10688735 -0.06014037 0.00000000
0.22415365 -0.16691902 0.00000000
0.76596898 -0.75783604 -0.00000011
-0.72482061 -0.61877924 -0.00000045
0.08335619 0.08508036 0.00000947
0.25284034 -0.38601395 0.00000000
0.60502189 -0.78862435 0.00000000
-0.07357690 -0.72365075 0.00000000
-0.40024540 -0.08133177 -0.00000015
-0.68455189 0.07379755 0.00816643
-0.15430336 -0.69815177 0.00000000
-0.43997452 0.01703385 0.06726470
-0.50556529 0.13092642 0.03206510
-0.31753668 -0.09189934 0.00000000
-0.52768296 -0.34112599 -0.00000023
0.12680557 -0.10018893 0.00000000
0.20647328 -0.61714935 0.00000000
-0.10916473 0.49222463 0.03895013
-0.42295244 -0.28562093 0.00000000
0.64951336 -0.28305891 -0.00000086
0.15975706 -0.78270882 0.00000000
0.02107687 -0.66135734 0.00000000
-0.15717818 -0.48250073 0.00000000
0.57602304 -0.53789097 -0.00000009
0.60295612 0.07021728 0.00000061
0.35551348 0.19455390 0.00000329
-0.01420588 -0.08319183 0.00000000
0.64053488 -0.01626431 -0.00000129
0.33293605 0.21151611 0.00000344
-0.30100393 -0.05697952 0.00000000
0.40029362 -0.16231272 -0.00000001
-0.77985841 -0.25415444 -0.00000136
-0.42472279 -0.78897798 0.00000000
0.22125594 -0.32881299 0.00000000
-0.55303746 -0.02395338 -0.00000090
-0.01981319 0.47327718 0.06018878
-0.48277199 -0.50552732 0.00000000
0.54595554 -0.27998275 -0.00000042
0.22383498 -0.26905712 0.00000000
0.38471842 -0.44001129 0.00000000
-0.12773047 -0.09607942 0.00000000
-0.31114706 0.30452055 0.03614955
-0.17529120 0.53967565 0.01667582
-0.16011377 0.31125444 0.06444894
0.33988827 -0.18590118 0.00000000
-0.22187063 0.42659602 0.02971740
-0.24487875 -0.31280521 0.00000000
-0.62685305 -0.31470004 -0.00000070
0.05337903 0.35834113 0.00000582
-0.36974624 -0.26686758 0.00000000
-0.11069476 -0.18729129 0.00000000
-0.07569460 0.55886954 0.03244410
-0.54185236 0.09293996 0.03239827
-0.65622032 -0.17017011 -0.00000109
0.00547773 -0.11960098 0.00000000
-0.40919113 -0.10357359 -0.00000015
-0.21639317 -0.61256731 0.00000000
0.76230073 -0.72177255 -0.00000020
0.05162452 0.39529917 0.00000529
0.62288630 -0.27541468 -0.00000076
0.27715021 -0.69105607 0.00000000
0.61363584 0.03367522 0.00000102
0.70103639 -0.08415597 -0.00000143
-0.58948576 0.06630707 0.02827961
0.29544452 -0.53708351 0.00000000
0.49256119 -0.14489987 -0.00000043
0.44613469 -0.13031009 -0.00000026
-0.52820212 -0.41662818 -0.00000010
0.14133720 0.05770583 0.00000900
0.04171417 -0.74960172 0.00000000
-0.20129547 0.14619201 0.08874353
-0.12702741 -0.69794905 0.00000000
-0.41300830 0.14830048 0.04680987
-0.16422980 -0.30161574 0.00000000
-0.02003551 0.54777950 0.04553437
-0.57445389 -0.18280347 -0.00000071
-0.28388083 -0.75110674 0.00000000
-0.29146349 -0.26360083 0.00000000
-0.70560813 -0.14807770 -0.00000134
-0.42140093 -0.09885098 -0.00000021
0.50987136 -0.68484169 0.00000000
0.37911406 -0.23563020 0.00000000
-0.06972601 0.32594088 0.07929479
-0.67621791 0.07527996 0.00951015
0.23506716 0.12000543 0.00000665
-0.58009195 0.02386107 0.03844623
0.40085754 0.29947820 0.00000066
-0.79756624 -0.73516023 -0.00000016
0.33769590 -0.77473295 0.00000000
-0.72191244 -0.10127231 -0.00000149
0.76819509 -0.36221200 -0.00000109
-0.33181959 -0.39970222 0.00000000
-0.26046416 0.25617760 0.05557017
-0.18508369 0.53679937 0.01531943
0.29418239 0.25710282 0.00000342
0.41719395 -0.78543186 0.00000000
-0.67190647 -0.34420568 -0.00000084
-0.69005948 -0.43804142 -0.00000076
0.25655425 -0.32293472 0.00000000
-0.08859931 -0.29642782 0.00000000
0.21401225 0.58219481 -0.00000047
0.45358583 0.09137929 0.00000313
0.72758180 -0.23881772 -0.00000127
0.32204446 -0.00861909 0.00000000
0.67006743 -0.71198142 -0.00000019
-0.23202989 0.23117863 0.06604925
0.62942898 -0.79305947 0.00000000
-0.29052550 -0.03308054 0.00000000
0.12147786 0.02248233 0.00000983
0.32976502 -0.47339052 0.00000000
0.19366561 -0.24232604 0.00000000
0.14333807 -0.58816302 0.00000000
0.52794665 -0.55376047 0.00000000
-0.52490389 -0.55727679 0.00000000
-0.09124223 -0.12796032 0.00000000
0.31966195 -0.28054717 0.00000000
0.43199810 -0.28416863 0.00000000
-0.44495940 -0.68000323 0.00000000
-0.67776585 0.01087382 0.02183760
-0.18721376 -0.09348265 0.00000000
-0.20994082 -0.29452527 0.00000000
-0.71995670 -0.02922033 -0.00000161
0.00180555 -0.40024611 0.00000000
-0.24586241 -0.78596354 0.00000000
0.15884003 -0.31961381 0.00000000
0.08180898 0.29672888 0.00000631
-0.07694550 -0.72391957 0.00000000
0.73078299 -0.41838965 -0.00000095
-0.47905922 -0.19299474 -0.00000029
-0.66414881 -0.21515860 -0.00000104
0.02498427 -0.60285598 0.00000000
-0.07820562 -0.40995520 0.00000000
-0.20594403 -0.55980450 0.00000000
0.02914328 -0.40256989 0.00000000
-0.19030496 -0.03599815 0.00000000
-0.28060943 0.17801192 0.06694881
0.10667988 -0.56725943 0.00000000
-0.37588716 0.11758712 0.06011335
-0.21936746 0.12980145 0.08841380
0.67542863 -0.47567186 -0.00000063
0.08106022 -0.52810133 0.00000000
-0.18195911 0.22271760 0.07752799
-0.75263923 -0.07967351 -0.00000166
0.75298607 -0.55826777 -0.00000060
0.77612251 -0.60175169 -0.00000050
-0.07063286 -0.52858716 0.00000000
-0.35162461 0.23507877 0.04182977
0.31441459 -0.74205720 0.00000000
-0.14265773 -0.42727774 0.00000000
0.67444497 0.03725125 -0.00000021
-0.48922309 0.17789710 0.02605842
-0.30938005 -0.05961239 0.00000000
-0.40235552 0.01879899 0.07429630
-0.10107857 0.02982475 0.13121822
0.23745272 -0.53358626 0.00000000
-0.22988561 -0.58443069 0.00000000
-0.50445408 0.08543201 0.04120517
0.02613602 -0.79618263 0.00000000
0.39019194 0.10281546 0.00000415
-0.58278280 -0.42311537 -0.00000032
0.45798543 0.00967879 0.00000441
0.21913986 -0.27583933 0.00000000
-0.48689371 -0.77194560 0.00000000
0.28149557 0.42281717 0.00000089
0.60017312 0.15779798 -0.00000080
0.16233556 -0.14324129 0.00000000
0.52449703 -0.20020588 -0.00000047
0.14689215 -0.51630813 0.00000000
-0.66943824 -0.49292010 -0.00000057
-0.23707727 0.43360224 0.02536108
0.64029926 0.00782455 0.00000094
-0.54005766 -0.48451808 -0.00000003
-0.61267924 -0.00878679 -0.00000119
0.49722251 0.09658479 0.00000220
-0.15606710 0.30400556 0.06666412
-0.53161377 0.03365212 0.04603350
-0.68969738 -0.76480770 -0.00000009
-0.02157505 0.24771544 0.10407869
-0.52625716 -0.41465983 -0.00000010
-0.07688379 -0.61347753 0.00000000
0.32448444 -0.62630177 0.00000000
0.06643492 0.01153329 0.00001082
-0.73097467 -0.64791590 -0.00000038
-0.17526782 -0.24037148 0.00000000
-0.41784596 0.23344177 0.02916361
0.32581899 -0.43520191 0.00000000
0.43689725 0.19928975 0.00000164
0.28240305 0.02770344 0.00000732
-0.09596864 0.28193215 0.08277897
0.13919902 -0.61397427 0.00000000
-0.21297906 0.36470607 0.04359876
0.19964328 -0.29259902 0.00000000
0.20993158 -0.50146747 0.00000000
0.29198888 -0.63637853 0.00000000
-0.21421885 -0.11031440 0.00000000
-0.42686972 -0.49598935 0.00000000
0.34091794 0.38131726 0.00000045
0.11093513 0.34709293 0.00000512
0.72388315 -0.07058075 -0.00000155
-0.62586081 -0.26434895 -0.00000079
0.23963477 -0.38903248 0.00000000
0.10553894 -0.70865268 0.00000000
-0.77869290 -0.13948020 -0.00000165
0.53098041 0.08712373 0.00000171
0.05799327 -0.49399912 0.00000000
-0.07192444 -0.43442103 0.00000000
-0.08224859 -0.13540408 0.00000000
-0.18517922 0.30426577 0.06090389
-0.30118781 -0.67690557 0.00000000
0.18105844 0.18704832 0.00000646
0.52657270 -0.75056207 0.00000000
0.24435879 -0.41632843 0.00000000
0.03515530 -0.18859261 0.00000000
-0.38275546 -0.29759568 0.00000000
-0.52252197 0.06284597 0.04209119
-0.79226708 -0.02474609 -0.00000192
0.19304381 0.56787604 0.00000017
-0.47980517 0.08746138 0.04564128
0.44674361 0.28772742 -0.00000002
0.07790209 0.26539704 0.00000684
-0.24997304 -0.07296334 0.00000000
-0.58276153 -0.71338856 0.00000000
-0.34946817 -0.33390948 0.00000000
0.41919017 -0.62642580 0.00000000
0.44310164 -0.19443431 -0.00000013
-0.43807229 -0.63080591 0.00000000
0.24218991 -0.49006033 0.00000000
0.22218987 -0.77563876 0.00000000
-0.60567993 -0.48037791 -0.00000032
0.17009473 0.57383782 0.00000051
0.57553345 -0.51226526 -0.00000014
0.51131469 -0.21069172 -0.00000040
0.15550642 -0.26160547 0.00000000
0.20962241 0.37978917 0.00000299
-0.01171941 -0.77047437 0.00000000
-0.54989064 -0.24736771 -0.00000050
0.19378544 -0.48701563 0.00000000
0.02616841 0.59154379 0.00000273
-0.70295638 -0.64622176 -0.00000038
0.40880650 0.14511079 0.00000309
0.25716537 -0.58347064 0.00000000
0.55808014 -0.01745940 -0.00000094
-0.05792507 -0.57654119 0.00000000
0.57863075 -0.31399348 -0.00000050
-0.14975832 -0.59176219 0.00000000
-0.06491317 0.41733637 0.06231486
-0.64548081 0.03216694 0.02399338
-0.45824620 -0.50282741 0.00000000
0.53341734 -0.41845465 -0.00000012
0.54991186 -0.31442326 -0.00000038
0.43177992 -0.48809242 0.00000000
-0.09564311 0.62845516 0.01488523
0.55759782 -0.38364342 -0.00000029
0.62364513 -0.51380771 -0.00000034
0.64113563 -0.47994331 -0.00000047
-0.27074987 0.50375760 0.00499874
-0.44623607 -0.67623764 0.00000000
-0.05047313 0.28709006 0.09068961
0.05645022 -0.34878209 0.00000000
-0.48862579 0.30173895 0.00188829
-0.10760831 -0.52149022 0.00000000
0.76231694 -0.41219279 -0.00000097
0.55084735 -0.78795743 0.00000000
0.71047729 -0.54921627 -0.00000063
-0.16056447 -0.78126699 0.00000000
-0.28076240 0.25827655 0.05117769
-0.68125033 -0.73941547 -0.00000015
-0.01276435 0.30539250 0.09449539
-0.78189689 -0.67027271 -0.00000032
0.30846256 -0.09880134 0.00000000
0.03274379 -0.43386021 0.00000000
-0.60169160 -0.49596131 -0.00000028
-0.63515270 -0.52032465 -0.00000038
0.26928657 0.23581809 0.00000425
-0.51817590 -0.35886896 -0.00000016
-0.72715545 -0.31037033 -0.00000114
0.09202376 -0.56437522 0.00000000
-0.60882545 -0.65961057 -0.00000002
0.44847992 -0.21530275 -0.00000012
-0.55609024 -0.12288914 -0.00000074
0.58670741 -0.49596098 -0.00000021
-0.62252563 -0.03013370 -0.00000119
-0.29733264 0.08705111 0.08150784
0.34446785 -0.24496806 0.00000000
-0.13819592 0.14994788 0.10038147
0.07497256 0.39819768 0.00000490
-0.66688824 0.03935510 0.01838529
-0.63876855 -0.36906764 -0.00000066
0.43484032 -0.69498867 0.00000000
-0.13143258 -0.55708098 0.00000000
-0.62853885 -0.40229267 -0.00000056
-0.30117628 -0.09000778 0.00000000
0.15760705 -0.59326869 0.00000000
0.34738237 0.25293446 0.00000247
-0.11003471 0.67585444 0.00276705
0.36373368 0.40551656 -0.00000040
0.10023024 -0.42126954 0.00000000
0.65012509 -0.13927339 -0.00000111
-0.78858644 -0.27535167 -0.00000131
-0.35080597 -0.13550863 0.00000000
-0.69476002 0.08316813 0.00432672
-0.19175355 -0.49694857 0.00000000
-0.23263551 -0.51726907 0.00000000
0.68319476 0.11427341 -0.00000170
0.75385553 -0.16469085 -0.00000151
0.18969998 -0.71237653 0.00000000
-0.23115326 -0.07244165 0.00000000
0.68008524 -0.78925723 -0.00000003
-0.07716928 0.23905800 0.09487388
-0.11122046 -0.09601194 0.00000000
-0.49532145 -0.62860793 0.00000000
0.37223104 -0.31774732 0.00000000
-0.57151508 -0.53027993 -0.00000009
0.42016953 -0.40623760 0.00000000
-0.78623825 -0.04550264 -0.00000186
-0.74514312 -0.24098037 -0.00000134
0.42775187 -0.72916549 0.00000000
0.69259888 0.04904115 -0.00000076
0.29637581 -0.58874619 0.00000000
0.10427718 -0.69508797 0.00000000
-0.00238922 0.67798257 0.02346057
-0.26948455 0.16571845 0.07154152
0.24383385 -0.22894572 0.00000000
-0.18624572 0.08119897 0.10444088
-0.72068989 -0.45638821 -0.00000085
-0.04382071 -0.72693723 0.00000000
0.55032128 -0.39206162 -0.00000024
-0.66601932 -0.15259624 -0.00000116
-0.07036682 -0.19607757 0.00000000
-0.26170018 -0.59080529 0.00000000
-0.31620699 -0.20537709 0.00000000
-0.50587034 -0.28154615 -0.00000025
0.15853319 -0.11150442 0.00000000
0.09479881 -0.02280515 0.00000000
0.67598391 -0.37512210 -0.00000081
0.24155498 -0.33242482 0.00000000
0.71315432 0.04899825 -0.00000115
-0.54906571 -0.09526038 -0.00000076
0.23526216 -0.74740392 0.00000000
-0.22048344 -0.73479700 0.00000000
-0.13872787 0.59777904 0.01245159
0.41670674 -0.53808540 0.00000000
-0.43732905 -0.28003234 0.00000000
-0.63221288 -0.02078137 -0.00000125
0.27504486 0.37423098 0.00000183
0.38739756 0.13628730 0.00000365
-0.61969495 -0.37842211 -0.00000056
-0.22970001 0.48357621 0.01700723
-0.17066924 0.48654130 0.02800273
-0.02515220 -0.44727638 0.00000000
-0.39697427 -0.33068785 0.00000000
-0.30990851 -0.23866545 0.00000000
0.26164755 -0.19371101 0.00000000
0.18709855 0.17788804 0.00000651
-0.29981366 -0.29416314 0.00000000
-0.77066231 -0.44749394 -0.00000088
-0.00862915 0.69575399 0.01875165
-0.16554429 -0.54148394 0.00000000
-0.30733535 0.34809488 0.02835151
0.09427004 -0.76154441 0.00000000
-0.06230787 -0.14075717 0.00000000
0.54812449 -0.00004981 -0.00000092
0.26815385 0.11145164 0.00000628
0.39793420 -0.35792282 0.00000000
0.67542750 -0.07102692 -0.00000134
0.13118212 -0.30498883 0.00000000
-0.11206468 0.29017997 0.07800486
-0.60279304 -0.47844553 -0.00000031
-0.19849078 -0.73909730 0.00000000
0.20743169 0.06001431 0.00000797
0.40131676 0.33938423 -0.00000001
-0.05979730 0.59840900 0.02780757
0.08315293 0.19412015 0.00000783
0.13122237 0.39424679 0.00000411
0.11489849 -0.09432310 0.00000000
-0.58440125 0.18541685 0.00591753
-0.22594890 -0.11419200 0.00000000
-0.42022809 -0.66418010 0.00000000
0.30980825 -0.00022641 0.00000000
0.10227961 0.41644180 0.00000421
0.17097278 -0.26586500 0.00000000
-0.71654290 -0.24288636 -0.00000121
-0.17444506 -0.22162114 0.00000000
0.60457402 -0.51275969 -0.00000026
-0.01896629 -0.74085468 0.00000000
0.21133354 -0.05906950 0.00000000
0.15078613 0.24042676 0.00000612
0.54706782 -0.57900637 0.00000000
0.07064707 0.56156981 0.00000251
-0.08745523 0.64549822 0.01314862
-0.29212287 -0.13160443 0.00000000
-0.36532852 -0.61609137 0.00000000
-0.11346480 0.13976990 0.10722755
0.40307185 0.18541594 0.00000253
-0.62162846 -0.31114957 -0.00000069
-0.29128122 0.49497384 0.00269480
-0.28928098 -0.55580062 0.00000000
0.19814564 -0.25870577 0.00000000
-0.11948204 0.10693985 0.11248587
-0.39184296 -0.57252896 0.00000000
0.19386476 -0.04630207 0.00000000
-0.51264822 -0.14380606 -0.00000052
0.47906619 -0.37404823 0.00000000
-0.68420857 -0.02330360 -0.00000146
0.49612749 -0.42615861 0.00000000
0.09670240 0.50974458 0.00000289
-0.37212798 0.01584550 0.08080369
-0.56386572 0.09666767 0.02734999
-0.13309608 0.25745270 0.08029858
0.01632625 -0.68009263 0.00000000
-0.16836376 -0.59076488 0.00000000
-0.36359227 -0.45907536 0.00000000
-0.59731841 -0.60860372 -0.00000006
0.67252672 -0.64495540 -0.00000032
0.09884685 -0.31671312 0.00000000
0.60460299 -0.50431257 -0.00000027
-0.79672492 -0.62553507 -0.00000044
-0.34425816 -0.09248579 0.00000000
-0.10900894 -0.54966241 0.00000000
-0.24302968 0.12163215 0.08537547
-0.23093905 0.05154078 0.10149236
0.58527017 -0.26754016 -0.00000061
0.20653614 0.31836280 0.00000408
0.57847071 -0.56703579 -0.00000005
-0.77836412 -0.15050822 -0.00000162
-0.01984864 -0.70025903 0.00000000
0.13699625 -0.68927372 0.00000000
-0.21384752 0.55347949 0.00640709
0.77829933 -0.06167189 -0.00000180
0.57948589 -0.06727037 -0.00000094
0.53321087 0.08928000 0.00000163
-0.28111118 -0.37138757 0.00000000
0.22618970 0.37862143 0.00000270
-0.25021812 -0.27757597 0.00000000
-0.24833988 0.02956344 0.10238990
0.15510510 0.55702639 0.00000108
0.12106459 -0.31392530 0.00000000
0.28477523 0.39954463 0.00000122
0.21596250 0.27178755 0.00000466
-0.70088738 -0.35458735 -0.00000095
-0.35183990 -0.44591346 0.00000000
0.03100184 0.54180044 0.00000341
-0.75375199 -0.63975966 -0.00000040
0.57546461 0.12632807 0.00000020
-0.67915922 -0.23078729 -0.00000108
0.13187309 -0.22050264 0.00000000
0.67605352 0.10921403 -0.00000144
0.67495304 -0.37635276 -0.00000080
-0.06081189 0.14190429 0.11713478
-0.05342491 0.26120731 0.09518666
0.08583679 -0.36114797 0.00000000
-0.40742287 0.16193169 0.04523198
-0.13388282 -0.13272130 0.00000000
-0.66224778 -0.07409837 -0.00000128
0.28652930 -0.01479405 0.00000000
0.71617585 -0.38272238 -0.00000097
-0.34046221 0.08796032 0.07287110
-0.47204441 0.05183763 0.05414966
0.07615730 0.39302495 0.00000496
0.08854201 -0.32766548 0.00000000
-0.75601834 -0.62225473 -0.00000044
0.56791764 -0.12588286 -0.00000079
-0.36035925 -0.76125163 0.00000000
0.13910452 0.64479709 -0.00000008
-0.01183282 0.50536531 0.05546095
0.58302927 0.00100094 0.00000215
-0.51563174 -0.66013736 0.00000000
0.05883963 0.71185166 0.00000034
-0.47249523 -0.19960913 -0.00000025
-0.37382302 -0.68862456 0.00000000
-0.78808069 -0.32808909 -0.00000118
-0.55865049 -0.26682416 -0.00000050
-0.45038372 0.13300548 0.04247946
-0.34396511 -0.24767289 0.00000000
-0.59446239 -0.22883214 -0.00000072
-0.50127280 -0.75068498 0.00000000
0.30795476 0.36670673 0.00000132
0.10416877 -0.20226891 0.00000000
-0.02702501 -0.78109342 0.00000000
0.42426956 -0.02165626 -0.00000036
-0.32089639 -0.04607607 0.00000000
-0.48225904 -0.74872583 0.00000000
0.15862940 -0.29417089 0.00000000
0.22867049 0.54213279 -0.00000008
0.01124083 -0.68395472 0.00000000
0.38728318 -0.76929170 0.00000000
0.12276541 -0.79471487 0.00000000
0.63439876 -0.57413203 -0.00000028
0.52783120 0.21899687 -0.00000043
0.67988026 -0.65391886 -0.00000033
0.06262708 -0.41807476 0.00000000
-0.01675566 0.54514968 0.04669332
-0.17122075 -0.20785192 0.00000000
0.06366321 0.33554447 0.00000601
0.43766096 -0.14879532 -0.00000019
-0.28334883 0.04218446 0.09304911
0.71223712 -0.36584470 -0.00000098
0.69855773 -0.10071561 -0.00000139
