ply
format ascii 1.0
element vertex 366
property float x
property float y
property float z
end_header
-0.29424033 0.49115592 0.00355512
-0.23369873 0.50241053 0.01555640
-0.55816650 0.01842376 0.05439749
-0.19937003 0.03892504 0.13677043
-0.19967654 0.48064065 0.02914155
-0.51237458 0.05651578 0.05627251
-0.43623039 0.12775598 0.05746682
-0.13766840 0.21072024 0.10996353
-0.19118983 0.23581609 0.09082104
-0.46843114 0.22526862 0.02588222
-0.77895898 0.00101773 0.00487339
-0.43173608 0.10070472 0.06514800
-0.34224370 0.04381532 0.10079143
-0.48705542 0.03109999 0.06862627
-0.32149971 0.35582772 0.02986921
-0.56267083 0.15002429 0.02125668
-0.19058833 0.03058554 0.14093927
-0.24664459 0.09082023 0.11262359
-0.46483302 0.28361315 0.01255178
-0.59802341 0.03165676 0.04147028
-0.17640619 0.25157812 0.09058278
-0.08900305 0.41705278 0.07157290
-0.22693411 0.41931981 0.03743571
-0.62480432 0.13334768 0.01018802
-0.16593735 0.14883156 0.11814968
-0.16966566 0.36063713 0.06566915
-0.45001298 0.24897042 0.02459574
-0.52690721 0.08939964 0.04472681
-0.23755984 0.04339066 0.12638429
-0.70682347 0.06993727 0.00565666
-0.53014344 0.25505918 0.00360161
-0.47313058 0.08255874 0.05948701
-0.20199706 0.07513287 0.12731449
-0.16343123 0.24719802 0.09480856
-0.08905403 0.47056532 0.05853067
-0.44833809 0.07564489 0.06720740
-0.27745882 0.45697448 0.01596436
-0.28535262 0.49047500 0.00588505
-0.23731782 0.51865774 0.01071905
-0.46544310 0.04547677 0.07038814
-0.42087579 0.19300716 0.04531732
-0.37154645 0.16499285 0.06415021
-0.03663009 0.52473921 0.05810448
-0.04083202 0.33944839 0.10219798
-0.50544834 0.07440318 0.05360354
-0.04788019 0.50240338 0.06080377
-0.41935575 0.31631154 0.01566349
-0.26160964 0.52489585 0.00328512
-0.35719186 0.11540586 0.07971968
-0.38372135 0.25786218 0.03857249
-0.36608428 0.37400675 0.01458649
-0.63811052 0.13456304 0.00665205
-0.29533857 0.42673334 0.01897424
-0.37506717 0.31195670 0.02750802
-0.36137220 0.26411340 0.04249230
-0.16377905 0.06042999 0.14020018
-0.23025963 0.26817006 0.07343008
-0.12124929 0.29210615 0.09414467
-0.28790566 0.10150672 0.09997491
-0.23168121 0.55387634 0.00351601
-0.22412767 0.10067849 0.11570581
-0.24743691 0.49476099 0.01407381
-0.27349943 0.25644490 0.06575633
-0.49791616 0.06855650 0.05686125
-0.32032409 0.14362575 0.08182550
-0.21776412 0.38006705 0.04922641
-0.04859112 0.59094179 0.03907237
-0.01422613 0.37625805 0.09971341
-0.44732380 0.26428556 0.02152138
-0.18394579 0.07916559 0.13072786
-0.34187123 0.07550253 0.09316646
-0.11059895 0.19730321 0.11982156
-0.37780362 0.16151758 0.06347282
-0.28792822 0.39250985 0.02911187
-0.18314134 0.53236079 0.02057427
-0.09391988 0.67794043 0.00685160
-0.18052793 0.43366492 0.04524253
-0.19938686 0.44412005 0.03810466
-0.09333372 0.59270930 0.02774764
-0.12907457 0.14593384 0.12783092
-0.25428322 0.52529430 0.00497206
-0.26085624 0.30242881 0.05763808
-0.29240471 0.36588234 0.03450551
-0.67871451 0.06774243 0.01303554
-0.01354627 0.41320565 0.09088254
-0.10913924 0.44497135 0.05987205
-0.57489944 0.16709863 0.01412155
-0.18796369 0.10441903 0.12360055
-0.19108319 0.12943672 0.11674941
-0.16612248 0.10314114 0.12922980
-0.35186088 0.20846483 0.05835841
-0.01890790 0.75776142 0.00568085
-0.13179328 0.31074899 0.08703796
-0.25597441 0.52998853 0.00341723
-0.18610589 0.41020265 0.04959725
-0.08331219 0.37093785 0.08418713
-0.56453443 0.21124925 0.00589496
-0.24392718 0.10718909 0.10929958
-0.51938003 0.24929553 0.00762588
-0.50010574 0.22211933 0.01893638
-0.02654588 0.60064822 0.04207672
-0.74981928 0.03131982 0.00459042
-0.47637862 0.10561366 0.05308237
-0.29551762 0.10062586 0.09833596
-0.06073230 0.20353688 0.13044570
-0.11952955 0.15644850 0.12759481
-0.37502286 0.12211214 0.07374494
-0.42319417 0.11164786 0.06456335
-0.39308530 0.25509816 0.03696540
-0.40180409 0.26631477 0.03211122
-0.24390826 0.41621000 0.03405977
-0.06034911 0.15913200 0.14135118
-0.21714570 0.24939442 0.08119487
-0.37343898 0.37289640 0.01306600
-0.48958835 0.03120853 0.06798308
-0.19549926 0.58563691 0.00459269
-0.33197165 0.28119472 0.04549204
-0.37938586 0.17518669 0.05975919
-0.05503021 0.26373905 0.11717541
-0.40237647 0.16163497 0.05746082
-0.02101137 0.72349632 0.01351191
-0.37749144 0.12605591 0.07218356
-0.75218034 0.00845790 0.00958227
-0.17262810 0.19709834 0.10476803
-0.36551878 0.37667233 0.01407512
-0.29702798 0.24042794 0.06392723
-0.41417775 0.27829379 0.02618144
-0.10596092 0.53931832 0.03767330
-0.16465893 0.16769740 0.11386730
-0.14924861 0.16282126 0.11880683
-0.74763405 0.03669745 0.00381310
-0.56944209 0.12340153 0.02609040
-0.38004047 0.19840211 0.05394697
-0.52871293 0.09123456 0.04384033
-0.15897916 0.08844059 0.13454857
-0.10717352 0.44531029 0.06026815
-0.18273173 0.43233719 0.04502920
-0.48510206 0.30863643 0.00152329
-0.40773246 0.11779275 0.06683199
-0.10730460 0.03349814 0.16050874
-0.28850463 0.33288330 0.04349026
-0.37306941 0.32088673 0.02582007
-0.15855284 0.33746195 0.07401794
-0.66780293 0.05278974 0.01933338
-0.12341984 0.23829731 0.10671812
-0.41972229 0.01903677 0.08795904
-0.21334009 0.54451853 0.01026061
-0.25918412 0.09824817 0.10776171
-0.25118035 0.21114396 0.08222145
-0.05002295 0.73123753 0.00456283
-0.54522771 0.01451268 0.05850039
-0.20332912 0.15544748 0.10743428
-0.07581907 0.25822940 0.11345510
-0.20056336 0.16526067 0.10571829
-0.08187363 0.22996680 0.11886257
-0.09491714 0.54768384 0.03832542
-0.16515718 0.28975192 0.08402682
-0.18625940 0.37085205 0.05914151
-0.02644297 0.02280075 0.18280236
-0.09866268 0.57906568 0.02977221
-0.19530393 0.18422616 0.10238098
-0.29556343 0.09811874 0.09893527
-0.36620721 0.10838499 0.07923401
-0.10758035 0.25780076 0.10582596
-0.55105126 0.20576932 0.01051241
-0.19190158 0.49034920 0.02867076
-0.45650133 0.33251801 0.00267245
-0.18133377 0.50588268 0.02746168
-0.24751370 0.03946203 0.12491722
-0.30774465 0.09013883 0.09791231
-0.10238994 0.23452722 0.11275666
-0.50973588 0.23973513 0.01230211
-0.51011205 0.17967591 0.02683461
-0.07238991 0.17872030 0.13364981
-0.14005291 0.54638273 0.02765192
-0.24340355 0.48357484 0.01777969
-0.43400070 0.29538104 0.01719395
-0.16769095 0.35696250 0.06704470
-0.26682302 0.07643534 0.11121295
-0.36293879 0.13803828 0.07280945
-0.08436423 0.70919991 0.00156686
-0.14854281 0.28454921 0.08933905
-0.63108897 0.02905660 0.03405202
-0.51492822 0.18108441 0.02531892
-0.60259044 0.09680144 0.02449584
-0.30884659 0.16187404 0.08017688
-0.10900561 0.16856207 0.12720773
-0.40732118 0.30044535 0.02245721
-0.06448431 0.64826268 0.02124545
-0.27498600 0.22303571 0.07352931
-0.07238425 0.23830207 0.11914357
-0.32286736 0.19429868 0.06886763
-0.32173729 0.09260935 0.09390360
-0.41884491 0.32616279 0.01338916
-0.21480584 0.27657434 0.07514654
-0.14520758 0.56418872 0.02206111
-0.16433260 0.09522885 0.13159218
-0.32437018 0.46296784 0.00308222
-0.62526464 0.11161575 0.01536754
-0.53590846 0.22433230 0.00967966
-0.14395422 0.56380969 0.02245860
-0.71223986 0.02533264 0.01519876
-0.15559573 0.24185374 0.09801769
-0.50857961 0.26693612 0.00596037
-0.09044549 0.68981999 0.00480500
-0.64677370 0.14735594 0.00142759
-0.28781545 0.30530122 0.05037416
-0.04621473 0.45453909 0.07286381
-0.16268127 0.57125551 0.01608559
-0.33066005 0.24658853 0.05423784
-0.26628673 0.47521114 0.01424421
-0.61735034 0.16246882 0.00491220
-0.24110533 0.32131630 0.05784838
-0.34161618 0.09254718 0.08907829
-0.09949234 0.52119827 0.04366040
-0.52455556 0.26791504 0.00183190
-0.54894650 0.03601079 0.05236020
-0.09771981 0.61104298 0.02221550
-0.58216941 0.16189288 0.01361890
-0.36314580 0.26905867 0.04085628
-0.26599589 0.46320373 0.01723877
-0.02372785 0.24336845 0.12975726
-0.09023713 0.66933459 0.00984382
-0.25481677 0.23163240 0.07634722
-0.04536775 0.73946136 0.00369390
-0.10687465 0.51443940 0.04350861
-0.19924679 0.13698627 0.11292341
-0.26606730 0.36152038 0.04198072
-0.04405468 0.18038438 0.14014393
-0.07365507 0.30684572 0.10214439
-0.25209811 0.40873769 0.03388503
-0.19825871 0.11719584 0.11798279
-0.09161643 0.66952127 0.00946250
-0.43732545 0.25954810 0.02510951
-0.04140661 0.23323974 0.12791891
-0.28731310 0.47551471 0.00905042
-0.48357195 0.30010492 0.00397324
-0.24055657 0.52723342 0.00784229
-0.02592160 0.68242347 0.02231719
-0.40620738 0.04733758 0.08435879
-0.36357203 0.24599451 0.04636850
-0.31732282 0.23570538 0.06013541
-0.07099625 0.25353321 0.11577289
-0.50434703 0.13398238 0.03936450
-0.02977811 0.39200363 0.09209277
-0.55593026 0.18122257 0.01530139
-0.32838807 0.45802772 0.00330677
-0.47500804 0.03785755 0.06991434
-0.08732978 0.33802050 0.09122397
-0.13122134 0.61971587 0.01194615
-0.18949378 0.33900520 0.06610840
-0.44045737 0.24172308 0.02868719
-0.49818987 0.18714321 0.02791938
-0.09380508 0.27609107 0.10472655
-0.29847223 0.12871116 0.09077799
-0.19813713 0.21713182 0.09367889
-0.31629252 0.37365776 0.02679562
-0.23994651 0.53419387 0.00629601
-0.34543851 0.19929601 0.06215480
-0.46844858 0.13616706 0.04757372
-0.11656699 0.06198128 0.15131807
-0.07534039 0.52351022 0.04897820
-0.16067979 0.06560862 0.13969387
-0.78099650 0.00293924 0.00390936
-0.20370080 0.38174003 0.05224343
-0.28168240 0.34465960 0.04228400
-0.25933057 0.25275674 0.07010445
-0.11616493 0.29310572 0.09513927
-0.17194778 0.55546004 0.01767533
-0.08523623 0.61447620 0.02441924
-0.25117159 0.13497216 0.10077072
-0.01905092 0.31390604 0.11372076
-0.22784638 0.10933045 0.11269367
-0.34090516 0.14932781 0.07542564
-0.17912957 0.43067694 0.04631058
-0.48048523 0.19997057 0.02910702
-0.23337530 0.55838656 0.00200530
-0.42351961 0.13244978 0.05941895
-0.17731142 0.49439687 0.03123785
-0.43747592 0.27432504 0.02147477
-0.09895054 0.43061715 0.06584800
-0.51698780 0.00915300 0.06668179
-0.17532374 0.54845804 0.01855823
-0.03747895 0.08257900 0.16555977
-0.05414201 0.65494955 0.02213549
-0.20752671 0.10812397 0.11793506
-0.23312426 0.13488206 0.10518698
-0.19400550 0.09248700 0.12503478
-0.55370444 0.16720404 0.01925681
-0.15408294 0.30785358 0.08231568
-0.49041978 0.24297366 0.01621696
-0.33449289 0.05641821 0.09960999
-0.29820406 0.47297812 0.00701615
-0.45821479 0.20992330 0.03210638
-0.40569964 0.07773964 0.07707968
-0.12771901 0.49455872 0.04327400
-0.29801878 0.13307133 0.08982673
-0.60239071 0.15499468 0.01037474
-0.20793901 0.57712406 0.00363648
-0.22103603 0.44845137 0.03177849
-0.33367276 0.29149264 0.04257035
-0.26131892 0.09075780 0.10906575
-0.33367103 0.41125840 0.01340845
-0.39177138 0.40531144 0.00070923
-0.27904382 0.20835719 0.07611538
-0.20968176 0.03539128 0.13512006
-0.32005444 0.20065241 0.06800547
-0.11121698 0.27702135 0.10026044
-0.21049468 0.50992054 0.01937788
-0.06832215 0.42717466 0.07414389
-0.56194133 0.06845927 0.04129496
-0.44195524 0.27412528 0.02043270
-0.38526300 0.36337143 0.01250616
-0.14153098 0.20963675 0.10928685
-0.24086773 0.51072663 0.01178584
-0.23693752 0.48398447 0.01925441
-0.57213169 0.12524483 0.02498667
-0.15805300 0.18759927 0.11062985
-0.36532134 0.11834856 0.07702365
-0.19027096 0.31407702 0.07198895
-0.09501078 0.15533750 0.13383538
-0.51449126 0.14816549 0.03344089
-0.34998694 0.35366139 0.02346013
-0.53075588 0.11248461 0.03816860
-0.06514012 0.21176571 0.12736879
-0.25321949 0.02444173 0.12718523
-0.02789130 0.25986430 0.12472691
-0.14410059 0.06021544 0.14504391
-0.53045583 0.06552396 0.04967633
-0.17272618 0.27059847 0.08684754
-0.52307540 0.20555027 0.01737779
-0.03523198 0.75778347 0.00170061
-0.13847598 0.06901383 0.14427111
-0.11095284 0.14142703 0.13334075
-0.30958375 0.42469603 0.01600166
-0.54324150 0.05358846 0.04946928
-0.73620737 0.03329506 0.00742393
-0.63581431 0.04823364 0.02823192
-0.02581025 0.10261521 0.16352233
-0.04022746 0.61715162 0.03472697
-0.34978071 0.29060447 0.03886437
-0.11037898 0.33796015 0.08562644
-0.46392664 0.15860540 0.04321119
-0.21786191 0.36724931 0.05232365
-0.34352756 0.44958931 0.00167505
-0.21835138 0.48922721 0.02250350
-0.14408767 0.07436670 0.14160135
-0.35510048 0.32645956 0.02883849
-0.48960990 0.26535705 0.01096393
-0.38908228 0.07511604 0.08176480
-0.01532900 0.31343287 0.11474223
-0.11073583 0.42708638 0.06383812
-0.07797403 0.43392971 0.07014897
-0.15376653 0.63129735 0.00363644
-0.36982414 0.18642721 0.05935045
-0.31584635 0.33215049 0.03701106
-0.26645285 0.50450212 0.00707157
-0.14371839 0.58245903 0.01797500
-0.05499609 0.14999077 0.14488038
-0.04877391 0.28666487 0.11311652
-0.37576690 0.16746336 0.06252099
-0.42171994 0.30862099 0.01696042
-0.23547800 0.21504752 0.08509431
-0.25122717 0.54359424 0.00126026
-0.35952464 0.11506585 0.07923445
-0.50855482 0.06025624 0.05629184
