ply
format ascii 1.0
element vertex 1099
property float x
property float y
property float z
end_header
0.27324831 -0.53567415 0.44589508
0.31973994 -0.12494202 0.52175963
0.01914987 -0.12768833 0.03124936
0.07502310 0.39683548 0.12242502
0.13135809 0.46927610 0.21435325
0.28631508 -0.59720385 0.46721786
0.05944699 0.13438089 0.09700745
0.40505737 -0.05275652 0.66098166
0.15204956 0.18944842 0.24811888
0.09674284 0.29966137 0.15786797
0.38886756 0.01070054 0.63456261
0.23113573 -0.52299225 0.37717447
0.24373837 -0.16207330 0.39773929
0.25774485 -0.67195183 0.42059609
0.12461542 -0.60796601 0.20335132
0.29464424 -0.27439311 0.48080865
0.36086538 -0.47346616 0.58886999
0.31929225 -0.48556510 0.52103037
0.14728232 0.08694942 0.24033986
0.28403348 -0.39317477 0.46349427
0.04544625 -0.13502444 0.07416060
0.04367548 -0.47623163 0.07127100
0.15902109 0.07400791 0.25949553
0.41028494 -0.73800182 0.66951436
0.07158949 -0.15043309 0.11682196
0.17450069 0.33452949 0.28475448
0.35158730 -0.49232569 0.57372993
0.20986912 0.05326482 0.34247017
0.07518035 -0.14088576 0.12268163
0.25866938 0.13220617 0.42210293
0.05512156 -0.48744819 0.08994907
0.40958744 -0.64763105 0.66837591
0.04716557 -0.70605338 0.07696625
0.23061071 -0.71088266 0.37631774
0.41666144 -0.52108496 0.67991889
0.13411611 0.45340085 0.21885391
0.07330272 0.33252853 0.11961766
0.13200314 -0.24066179 0.21540685
0.28971541 -0.59883326 0.47276661
0.02693387 0.48451433 0.04395153
0.29108530 -0.44772738 0.47500172
0.11820330 -0.45912454 0.19288783
0.23488675 -0.29753673 0.38329551
0.37548116 -0.18974642 0.61271924
0.00114293 -0.55829775 0.00186507
0.33063027 -0.26632133 0.53953117
0.26838154 -0.49482161 0.43795335
0.05653129 0.57202196 0.09224940
0.35864368 0.00184206 0.58524287
0.19332808 -0.16835514 0.31547880
0.00134399 0.31411278 0.00219317
0.15848440 -0.65324682 0.25861979
0.32250512 -0.54596686 0.52627343
0.38486883 -0.61713976 0.62803960
0.10234750 0.46723983 0.16701335
0.36078268 -0.73358905 0.58873594
0.22291218 0.18876448 0.36375356
0.29983443 0.06656181 0.48927686
0.32862920 -0.58947635 0.53626692
0.33060431 -0.38219377 0.53948921
0.32617334 0.13528578 0.53225684
0.09508931 0.16483676 0.15516970
0.40362996 -0.49679029 0.65865386
0.17064676 -0.33962223 0.27846670
0.00671655 0.21137331 0.01096027
0.01056188 -0.70062292 0.01723520
0.29149404 -0.45872992 0.47566870
0.29425967 -0.25416890 0.48018101
0.05076488 0.57948989 0.08283966
0.10467407 -0.65989971 0.17081040
0.21568692 0.08874487 0.35196364
0.05432510 0.45126638 0.08864938
0.03271992 -0.06906377 0.05339339
0.29020116 0.24406023 0.47355655
0.19995360 0.07230494 0.32628983
0.04999244 -0.41126558 0.08157921
0.04442830 -0.38754672 0.07249948
0.15361100 -0.60005093 0.25066721
0.24086332 -0.31499690 0.39304826
0.26991770 0.08774243 0.44045821
0.40438557 -0.31393155 0.65988624
0.18016952 -0.12525576 0.29400623
0.35345131 -0.25596437 0.57677084
0.21237268 -0.41277635 0.34655634
0.08052063 -0.41825274 0.13139607
0.07289297 -0.29865462 0.11894902
0.39521468 -0.43457863 0.64492148
0.21589679 0.16373092 0.35230583
0.38813579 -0.31027260 0.63336968
0.35610175 -0.08127008 0.58109522
0.20709737 -0.53748131 0.33794793
0.11214297 -0.10924072 0.18299837
0.00092897 0.26505768 0.00151592
0.03828932 0.10587327 0.06248170
0.09959665 0.07059496 0.16252489
0.12373848 0.04802228 0.20192030
0.06072908 -0.13462229 0.09909959
0.28899145 -0.68622899 0.47158524
0.07031969 0.51192260 0.11474972
0.37505811 0.07242231 0.61202794
0.23337340 0.22395556 0.38082421
0.11153441 0.12243790 0.18200533
0.15036467 -0.76291728 0.24536975
0.20907731 0.19809082 0.34117758
0.21350610 -0.45197728 0.34840593
0.31098512 -0.47782257 0.50747466
0.07473194 -0.08758821 0.12194991
0.14023121 0.35505369 0.22883295
0.16206104 0.02816639 0.26445624
0.14621837 -0.13399473 0.23860370
0.20398736 -0.14416401 0.33287293
0.16838703 -0.47975990 0.27477920
0.09501379 -0.74681520 0.15504646
0.14787285 -0.68534762 0.24130350
0.34497002 -0.09983955 0.56293035
0.20521250 -0.36917812 0.33487216
0.06420030 -0.69104546 0.10476405
0.38161623 -0.13320175 0.62273031
0.10581384 0.59389341 0.17266943
0.20114857 -0.69397265 0.32824051
0.13617972 0.12647060 0.22222228
0.31954694 -0.10423170 0.52144462
0.16733386 -0.35030583 0.27306059
0.31102502 -0.30151907 0.50753909
0.39654958 -0.17882094 0.64709896
0.10293332 -0.32049280 0.16796979
0.11753277 0.07536984 0.19179364
0.04271870 -0.12513438 0.06970971
0.26910713 -0.43285051 0.43913737
0.21451765 -0.32587171 0.35005659
0.12951989 -0.04253784 0.21135458
0.16904037 0.16144286 0.27584481
0.19902556 -0.30839428 0.32477608
0.40852296 -0.30903053 0.66663772
0.31859493 0.14393368 0.51989025
0.22509204 0.25285682 0.36731046
0.21444543 0.13388304 0.34993759
0.09764555 -0.27164280 0.15934104
0.24560902 -0.03449326 0.40079138
0.04134248 0.40593690 0.06746394
0.27144247 -0.10956375 0.44294709
0.00469645 -0.11836674 0.00766381
0.31969404 -0.51697361 0.52168614
0.34435970 -0.43027240 0.56193560
0.04195620 -0.22399005 0.06846543
0.36444837 -0.72347713 0.59471762
0.32292446 -0.74577183 0.52695817
0.14176792 -0.00788077 0.23134130
0.03466619 -0.27425367 0.05656937
0.07639675 0.63661528 0.12466594
0.04520108 0.01680815 0.07376053
0.21811770 -0.36767122 0.35593125
0.26539207 -0.52478826 0.43307504
0.21873163 -0.21364146 0.35693309
0.29523724 -0.18805593 0.48177603
0.35324737 -0.41994148 0.57643861
0.15441161 -0.70948523 0.25197369
0.12753983 0.54465729 0.20812228
0.33930597 -0.21584515 0.55368811
0.01018279 0.15619561 0.01661660
0.28078699 -0.11764167 0.45819563
0.23708147 -0.18813391 0.38687655
0.22607315 -0.35931006 0.36891320
0.05259488 0.50535631 0.08582597
0.33583748 -0.41603306 0.54802889
0.34956303 -0.34116963 0.57042617
0.31766531 -0.06892150 0.51837403
0.00831193 -0.03507374 0.01356366
0.20846117 -0.77407706 0.34017342
0.26075518 0.06882479 0.42550677
0.24508543 -0.70960528 0.39993802
0.29784751 -0.64534712 0.48603681
0.22505403 0.09229587 0.36724898
0.03279802 0.34459436 0.05352083
0.29398170 -0.39469457 0.47972792
0.14225145 -0.38003933 0.23213032
0.16763493 -0.50423992 0.27355188
0.26190501 0.23702399 0.42738247
0.33087718 -0.36722457 0.53993440
0.33918914 -0.28156933 0.55349767
0.21978265 -0.39241350 0.35864815
0.06377197 0.52306592 0.10406502
0.39085445 -0.70494545 0.63780737
0.02906530 -0.04758421 0.04742967
0.04833241 0.07485298 0.07887033
0.15952149 0.44881511 0.26031080
0.04401033 0.38709444 0.07181743
0.17821494 0.04162714 0.29081646
0.27811715 0.06716832 0.45383832
0.05240098 -0.64870030 0.08550956
0.12932929 -0.64074844 0.21104357
0.20484588 -0.13596553 0.33427384
0.38480914 -0.72773892 0.62794262
0.40885451 -0.20506477 0.66717839
0.41396570 -0.41899791 0.67551959
0.05463883 -0.05235844 0.08916135
0.35811317 -0.58672523 0.58437926
0.00734145 -0.44402382 0.01198001
0.36579177 -0.31552264 0.59690833
0.15752558 -0.02952551 0.25705516
0.29517430 -0.77862537 0.48167464
0.40906879 -0.62939477 0.66752946
0.14719000 0.45280477 0.24018805
0.31667927 -0.69443244 0.51676708
0.06277869 0.42698655 0.10244422
0.13740700 -0.14743288 0.22422501
0.20953202 -0.13045245 0.34192073
0.41607895 -0.00674459 0.67896670
0.26504049 0.08266829 0.43249956
0.11808915 -0.13146932 0.19270156
0.14387058 0.46601713 0.23477133
0.41354522 -0.55754900 0.67483395
0.41667268 -0.35801873 0.67993671
0.28306872 -0.64028758 0.46192035
0.22617917 -0.76295090 0.36908621
0.04062951 -0.76773238 0.06630050
0.06657579 -0.40155476 0.10864044
0.11152005 0.27450281 0.18198189
0.06170134 0.12282221 0.10068617
0.22020353 0.32184014 0.35933310
0.09468389 0.58925736 0.15450732
0.01909168 0.00164896 0.03115439
0.03549530 -0.72638112 0.05792233
0.22242114 -0.05362240 0.36295313
0.18222401 -0.15000086 0.29735881
0.06224165 -0.64671439 0.10156787
0.18506812 0.40495312 0.30199829
0.16779874 -0.28176707 0.27381921
0.02943910 -0.73308295 0.04803964
0.17538831 0.46279415 0.28620249
0.13710919 0.33028719 0.22373848
0.09955602 -0.23271807 0.16245861
0.08471648 0.53421438 0.13824254
0.27345988 -0.63007963 0.44624034
0.16375503 0.33172256 0.26721954
0.01913669 0.39367846 0.03122784
0.41003802 -0.30088302 0.66911000
0.28187239 -0.19583420 0.45996705
0.11599227 -0.03079015 0.18927979
0.09802279 0.08506465 0.15995663
0.20906518 -0.35054091 0.34115905
0.20217411 0.38571027 0.32991219
0.30570379 -0.19144890 0.49885550
0.29970440 -0.38941276 0.48906627
0.37005374 -0.52308470 0.60386384
0.00884854 -0.46483487 0.01443932
0.07692493 0.64770222 0.12552778
0.14562251 -0.10079433 0.23763134
0.25061390 -0.27964416 0.40895930
0.10472819 -0.70185077 0.17089872
0.14315619 -0.09982215 0.23360673
0.28989553 -0.60458708 0.47306055
0.06066349 0.59166503 0.09899232
0.07954045 -0.51371539 0.12979659
0.25413159 0.21382309 0.41469780
0.19069491 -0.35973006 0.31118187
0.39687631 -0.07279954 0.64763176
0.21196420 -0.78599823 0.34588978
0.00536335 0.34219322 0.00875208
0.15759064 -0.01021453 0.25716132
0.07064519 0.28721014 0.11528102
0.21793754 -0.77111453 0.35563725
0.07950632 0.60289985 0.12974028
0.24606305 -0.29705900 0.40153319
0.14299998 0.07448939 0.23335180
0.20721832 -0.31568834 0.33814529
0.02421489 0.37603971 0.03951460
0.01181026 -0.65469849 0.01927235
0.04194973 0.34709889 0.06845488
0.05197853 -0.17993534 0.08482019
0.12128962 -0.00820469 0.19792417
0.37168580 0.08377226 0.60652494
0.28732571 -0.37611648 0.46886650
0.12928504 0.00268315 0.21097136
0.01212037 -0.31764677 0.01977840
0.00171793 -0.50511509 0.00280338
0.10956913 -0.70078683 0.17879832
0.18818374 -0.12171781 0.30708408
0.18494859 -0.74197096 0.30180487
0.09957180 -0.66032141 0.16248436
0.39732367 -0.57131165 0.64836341
0.10915895 -0.68866736 0.17812897
0.19956619 -0.18987878 0.32565832
0.12146406 -0.61964047 0.19820882
0.31531447 0.13546631 0.51453722
0.31132954 -0.42826128 0.50803649
0.11637109 0.10022510 0.18989797
0.13691701 -0.44440654 0.22342543
0.17444225 0.18746464 0.28465959
0.11243073 -0.49824435 0.18346795
0.37929359 -0.53811818 0.61894161
0.19370586 -0.79455417 0.31609526
0.25900769 -0.40502003 0.42265680
0.00842137 -0.63252002 0.01374225
0.23508942 0.13109253 0.38362476
0.06856298 -0.76642919 0.11188321
0.22066690 -0.07742936 0.36009061
0.35769027 -0.29683742 0.58368820
0.36081198 -0.66591531 0.58878350
0.03941303 0.55056334 0.06431540
0.35264665 -0.36038548 0.57545811
0.10131637 0.58940685 0.16533031
0.27340618 -0.34349307 0.44615230
0.31308129 -0.33160791 0.51089472
0.01984362 -0.56223512 0.03238144
0.28979793 -0.33777374 0.47290057
0.18156499 -0.75746405 0.29628339
0.28811535 -0.36346152 0.47015503
0.20418829 -0.41817665 0.33320078
0.31897697 0.08589773 0.52051389
0.15965191 0.20645835 0.26052445
0.37356654 -0.54099756 0.60959613
0.30042237 0.05098494 0.49023631
0.38875973 -0.06629188 0.63438696
0.12127523 -0.27088889 0.19790068
0.25548542 -0.28603581 0.41690871
0.18463603 -0.30727974 0.30129480
0.17524822 -0.46723258 0.28597549
0.26080444 -0.03760602 0.42558753
0.23612677 0.12772667 0.38531753
0.09036747 0.07552583 0.14746445
0.19046588 -0.51851827 0.31080815
0.03334836 -0.19133236 0.05441888
0.05902019 -0.73933715 0.09631098
0.06594085 0.12046738 0.10760434
0.32412079 -0.57670116 0.52890998
0.34412733 -0.49741134 0.56155664
0.23717973 -0.28421509 0.38703722
0.07998356 -0.11201489 0.13051967
0.07966231 0.10904360 0.12999544
0.34096298 -0.63409162 0.55639350
0.18248077 -0.23716260 0.29777780
0.41557452 -0.26431575 0.67814440
0.25883949 -0.55879354 0.42238232
0.20209315 -0.77742708 0.32978189
0.00413433 0.61582029 0.00674652
0.06115446 -0.05826159 0.09979376
0.17836621 -0.73593158 0.29106355
0.38573971 -0.49417698 0.62946033
0.33230498 0.13011183 0.54226261
0.08360463 0.28375292 0.13642864
0.00167382 0.45947742 0.00273140
0.21398453 -0.73637575 0.34918663
0.06491621 -0.24994721 0.10593229
0.10959389 -0.62028450 0.17883871
0.23775338 -0.65825444 0.38797337
0.08440747 0.11345975 0.13773873
0.23597811 -0.55892658 0.38507643
0.25582394 -0.05740339 0.41746032
0.24141470 -0.26598597 0.39394784
0.07553466 0.59309149 0.12325931
0.00870820 0.06715659 0.01421032
0.27960113 0.08911580 0.45625979
0.20063339 0.38138667 0.32739803
0.00349241 -0.11927385 0.00569902
0.26652172 -0.53412324 0.43491843
0.28574154 -0.36754176 0.46628138
0.31615537 -0.58787054 0.51591194
0.24406260 0.02490430 0.39826772
0.37226650 -0.18905385 0.60747349
0.37793127 0.06528367 0.61671644
0.15722197 -0.32646757 0.25655973
0.08652071 -0.58281368 0.14118719
0.30360797 -0.22232556 0.49543563
0.36468390 -0.31591758 0.59510052
0.31169188 -0.61961859 0.50862843
0.33743289 -0.21157572 0.55063158
0.19275090 0.06695945 0.31453636
0.14893411 -0.55696619 0.24303532
0.10356551 -0.00824092 0.16900142
0.34488577 -0.41374275 0.56279403
0.15791404 0.01328183 0.25768906
0.12385847 0.48858294 0.20211519
0.05270674 -0.18941835 0.08600851
0.17045236 0.36372882 0.27814823
0.24564061 -0.50773823 0.40084398
0.04525214 0.02242931 0.07384385
0.01050000 -0.50895762 0.01713423
0.29533696 -0.42752448 0.48193955
0.38557243 -0.27654660 0.62918663
0.41068327 -0.33238077 0.67016304
0.25554839 -0.63932186 0.41701183
0.35930443 0.04358308 0.58632100
0.31899503 -0.52186185 0.52054548
0.20212790 -0.69404835 0.32983860
0.02847420 0.11535228 0.04646508
0.08207478 0.00205698 0.13393217
0.13253893 0.23386796 0.21628100
0.30706427 -0.39291495 0.50107622
0.37262043 -0.64960378 0.60805261
0.38711378 -0.23961800 0.63170171
0.37199977 0.02341615 0.60703748
0.31749773 0.12528498 0.51809990
0.24161886 -0.55419552 0.39428118
0.18580872 -0.12972330 0.30320844
0.13839632 0.00837870 0.22583944
0.36318573 -0.73324907 0.59265727
0.18904711 -0.03336711 0.30849284
0.32020402 -0.53809690 0.52251840
0.40168551 -0.71628344 0.65548164
0.21634249 0.35555682 0.35303247
0.27162012 -0.22472142 0.44323736
0.07870580 -0.35765964 0.12843457
0.03117989 -0.29891869 0.05088031
0.10324188 -0.37818402 0.16847330
0.03395601 0.02948845 0.05541048
0.03404436 -0.51885104 0.05555465
0.34948719 -0.40756524 0.57030267
0.10516873 -0.77580035 0.17161761
0.04829208 0.69217396 0.07880411
0.23749506 -0.24095894 0.38755164
0.12270212 -0.76251340 0.20022914
0.03785988 -0.28472635 0.06178094
0.30246103 0.08549219 0.49356291
0.09313628 0.28986728 0.15198269
0.25160089 0.17787123 0.41056827
0.12496974 -0.15667763 0.20392950
0.07048474 0.30727112 0.11501918
0.10473186 0.43165416 0.17090431
0.12972952 0.27617136 0.21169642
0.06673383 0.63383859 0.10889784
0.11100796 -0.39742798 0.18114625
0.32032856 -0.79517746 0.52272213
0.05345136 0.39751726 0.08722359
0.24446632 -0.64256811 0.39892775
0.13600554 -0.08453884 0.22193807
0.13590325 0.50898784 0.22176997
0.35706231 -0.65397757 0.58266473
0.40292180 0.02457799 0.65749663
0.33363843 -0.67679024 0.54444134
0.27658656 0.02669562 0.45134079
0.38743871 -0.22894281 0.63223189
0.11977848 -0.26539201 0.19545823
0.18993802 0.29468250 0.30994549
0.22125266 -0.30658996 0.36104697
0.06668100 0.12749518 0.10881213
0.35498041 -0.74741930 0.57926774
0.09146769 -0.37223953 0.14925984
0.19813488 0.11836655 0.32332188
0.05987079 -0.12385751 0.09769902
0.35202923 0.08989418 0.57444900
0.08903264 -0.20758450 0.14528623
0.23341963 -0.08564279 0.38090074
0.05437617 0.67869020 0.08873226
0.15370978 -0.54028660 0.25082839
0.26370922 0.15739106 0.43032691
0.04875516 -0.10430617 0.07956018
0.22459304 -0.30695352 0.36649790
0.21196216 0.21610756 0.34588510
0.04829301 -0.04425361 0.07880604
0.17295307 -0.21033746 0.28223020
0.29048023 -0.54094148 0.47401467
0.24408947 -0.65609086 0.39831278
0.32508588 -0.38841608 0.53048414
0.09333113 0.24198186 0.15230064
0.00314480 -0.51930881 0.00513178
0.22135045 -0.51781958 0.36120653
0.27911267 -0.23353945 0.45546383
0.31065044 -0.21261425 0.50692761
0.35602733 -0.06833239 0.58097374
0.15078761 -0.26207548 0.24605989
0.41699147 -0.03390179 0.68045580
0.04675847 -0.23667191 0.07630192
0.25380114 -0.58903533 0.41416061
0.14545766 0.46133339 0.23736116
0.00817275 -0.41747901 0.01333655
0.12490976 -0.27711868 0.20383163
0.06260986 -0.60937345 0.10216871
0.07471458 0.20274608 0.12192157
0.06694832 0.17362149 0.10924835
0.12527800 -0.33259544 0.20443253
0.16372152 -0.05851586 0.26716587
0.03478727 0.59901917 0.05676694
0.10661672 0.27139696 0.17398049
0.21593653 -0.79795343 0.35237193
0.32009462 -0.56530565 0.52233994
0.33305851 -0.40291730 0.54349405
0.24847889 -0.20656461 0.40547508
0.30650440 0.16737883 0.50016069
0.12414842 -0.51791406 0.20258924
0.26453996 -0.45622420 0.43168455
0.08558563 -0.05234808 0.13966130
0.00726027 -0.40232831 0.01184754
0.22718599 -0.10430180 0.37072864
0.12777609 -0.01842243 0.20850897
0.09372600 -0.01268151 0.15294500
0.00021167 -0.73601478 0.00034541
0.31140223 -0.34849110 0.50815481
0.20532458 0.39994603 0.33505312
0.08177991 -0.38184911 0.13345100
0.26578614 -0.10451470 0.43371695
0.37277091 -0.62445402 0.60829806
0.12123915 -0.41240448 0.19784182
0.31052792 -0.29709756 0.50672793
0.16858213 -0.77067047 0.27509755
0.37142578 0.02066434 0.60610086
0.08207595 0.58997488 0.13393350
0.10169058 -0.69951195 0.16594185
0.24785207 -0.25994867 0.40445241
0.30731305 -0.51738590 0.50148261
0.20296161 0.00543876 0.33119857
0.17543063 0.23336273 0.28627229
0.20012183 -0.16626802 0.32656503
0.30073258 0.03149239 0.49074262
0.38858241 0.00726382 0.63409734
0.22066315 0.20569494 0.36008349
0.12579829 0.07673680 0.20528156
0.01915999 0.04187302 0.03126587
0.13194938 -0.09903043 0.21531911
0.01174494 -0.20229191 0.01916576
0.04947755 0.70227575 0.08073855
0.11295227 0.14629441 0.18431903
0.06985802 0.47998953 0.11399648
0.09758646 0.02568659 0.15924463
0.27505240 -0.79863054 0.44883907
0.35924488 -0.69845456 0.58622640
0.12926993 0.15178581 0.21094669
0.41259429 -0.18817274 0.67328095
0.27415243 -0.41301322 0.44737026
0.12009411 0.54196209 0.19597226
0.23634806 -0.29752019 0.38568011
0.11989817 -0.65025783 0.19565356
0.40575722 -0.73466635 0.66212595
0.10981324 -0.58296937 0.17919666
0.15638348 0.17185856 0.25519112
0.08696212 0.42801124 0.14190739
0.40177244 -0.33209541 0.65562218
0.30768484 0.18599287 0.50208688
0.07034046 0.17892312 0.11478376
0.06658435 0.11530271 0.10865441
0.12440874 -0.02274866 0.20301406
0.24282683 -0.65745032 0.39625239
0.18087149 -0.06610180 0.29515171
0.22001258 -0.67907143 0.35902336
0.27750534 0.00648821 0.45284015
0.01210720 0.17650132 0.01975690
0.08056704 -0.22769903 0.13147181
0.23717265 0.26883569 0.38702372
0.00376167 0.57753628 0.00613842
0.09077463 0.17513487 0.14812887
0.12374619 -0.12200812 0.20193288
0.40984562 -0.60995001 0.66879708
0.13240911 -0.23505962 0.21606930
0.20573147 -0.08141957 0.33571875
0.20257901 -0.43806338 0.33057472
0.08990567 -0.66971523 0.14671086
0.18793719 -0.06823690 0.30668175
0.01057495 -0.24735887 0.01725654
0.29690397 -0.45841935 0.48449677
0.00944118 0.26443771 0.01540642
0.06019811 0.22406624 0.09823315
0.40382630 -0.40359664 0.65897393
0.32662997 0.10549956 0.53300208
0.38299832 0.06223668 0.62498510
0.23685829 -0.78747493 0.38651273
0.31299099 0.15885264 0.51074558
0.32679331 -0.27916688 0.53327000
0.40746120 -0.49222511 0.66490573
0.15380433 0.13830677 0.25098252
0.14326833 0.24841549 0.23378932
0.35044461 -0.54238588 0.57186544
0.08522605 -0.16212200 0.13907450
0.40584996 -0.67454481 0.66227710
0.36939576 -0.38305652 0.60278964
0.00951624 -0.07308643 0.01552890
0.23202489 -0.16763777 0.37862509
0.28642720 -0.65026146 0.46740082
0.10001968 0.38203585 0.16321509
0.03105905 -0.18704538 0.05068312
0.04427086 -0.18073557 0.07224256
0.00533928 0.74944532 0.00871280
0.21840458 -0.11854291 0.35639906
0.07585170 0.09304776 0.12377716
0.27767244 -0.06366938 0.45311308
0.16693041 0.29442659 0.27240130
0.20049667 0.22504981 0.32717547
0.04441340 -0.61847138 0.07247517
0.29784825 0.22559588 0.48603523
0.20823823 -0.64498085 0.33980963
0.01858766 0.15276261 0.03033191
0.35939813 -0.04605888 0.58647418
0.01027529 0.17164774 0.01676754
0.28088966 -0.47542119 0.45836440
0.12611146 -0.26706180 0.20579264
0.16556717 -0.76153409 0.27017766
0.15103479 -0.40277246 0.24646324
0.10121268 -0.06332104 0.16516200
0.12483868 -0.31677613 0.20371564
0.23571065 0.09831413 0.38463861
0.22800653 0.24300161 0.37206641
0.07410995 0.58046472 0.12093448
0.32893297 0.04969677 0.53676039
0.27049735 0.17571613 0.44140381
0.01668446 -0.10569646 0.02722622
0.35846061 -0.53469187 0.58494610
0.28553173 -0.50024849 0.46593949
0.06507798 -0.62769490 0.10619627
0.07974669 0.54532665 0.13013273
0.30587506 -0.67615956 0.49913642
0.31302217 -0.47327378 0.51079875
0.04617038 -0.36989093 0.07534226
0.09516598 -0.68472552 0.15529481
0.18669297 -0.15966745 0.30465138
0.20998126 0.00579410 0.34265333
0.22427423 -0.09341331 0.36597717
0.06407667 -0.62776589 0.10456230
0.35985667 -0.15664116 0.58722281
0.33502173 -0.73862875 0.54669887
0.41662616 -0.47527480 0.67986119
0.03063137 0.08887304 0.04998522
0.27107519 -0.75913703 0.44234893
0.05055731 0.03499486 0.08250099
0.20008054 -0.02355000 0.32649732
0.28466138 0.25406724 0.46451664
0.35438505 -0.02583784 0.57829374
0.07313544 -0.32991722 0.11934468
0.13597266 0.28994757 0.22188401
0.19928576 0.35721317 0.32519904
0.33932731 -0.04926956 0.55372232
0.19785888 -0.78462261 0.32287228
0.39996606 -0.23671298 0.65267426
0.37438196 -0.31377453 0.61092597
0.11161711 -0.76944542 0.18214028
0.15705630 0.01289732 0.25628936
0.21926808 -0.56413221 0.35780850
0.04604565 0.23461650 0.07513872
0.00599135 -0.40635094 0.00977688
0.27544534 -0.52238286 0.44948027
0.16572389 -0.23855418 0.27043340
0.20187119 -0.10055809 0.32941955
0.28167087 -0.40800488 0.45963895
0.26903147 -0.05707906 0.43901256
0.04144582 0.60329658 0.06763258
0.16087395 -0.78593594 0.26251912
0.39178869 -0.59966785 0.63933146
0.21215180 0.02671490 0.34619516
0.22622703 0.26237375 0.36916253
0.05737684 -0.21013165 0.09362931
0.10953323 0.48917249 0.17873906
0.26604435 0.07202030 0.43413767
0.03857736 -0.05071360 0.06295173
0.01062208 -0.39450043 0.01733344
0.00264317 -0.44516328 0.00431321
0.07221697 0.52874690 0.11784567
0.41119155 -0.64019388 0.67099345
0.38344336 -0.28018790 0.62571239
0.06408279 0.58252639 0.10457202
0.06731546 -0.62807667 0.10984746
0.31756401 -0.50004965 0.51821023
0.24638218 -0.17346196 0.40205353
0.41068795 -0.56249624 0.67017144
0.04276724 -0.57176822 0.06978892
0.11708692 0.00196666 0.19106609
0.18650755 -0.42669031 0.30434883
0.35434237 -0.39959607 0.57822537
0.37341514 -0.68679631 0.60934955
0.11723656 -0.27034909 0.19131027
0.13545772 -0.31104821 0.22104412
0.27963087 0.20726047 0.45630789
0.24391353 0.17841522 0.39802393
0.06449618 0.33601576 0.10524688
0.13725381 -0.28948870 0.22397503
0.26546845 -0.75103110 0.43319967
0.00817341 -0.61006743 0.01333763
0.13889223 0.01150120 0.22664867
0.05444000 0.09036594 0.08883689
0.01606298 0.13596430 0.02621206
0.16654685 -0.64674670 0.27177635
0.10334655 0.07817955 0.16864412
0.03075997 0.43782672 0.05019508
0.31626296 -0.18116285 0.51608610
0.26619858 -0.06476131 0.43438983
0.04870034 -0.12636983 0.07947073
0.22019251 -0.48641628 0.35931697
0.20207150 -0.15204063 0.32974657
0.03297763 -0.55818993 0.05381392
0.16077077 -0.64192289 0.26235074
0.09389793 -0.19124214 0.15322557
0.06502071 -0.50014365 0.10610282
0.18961823 -0.42295775 0.30942494
0.12375971 0.00235117 0.20195495
0.12555148 -0.42396769 0.20487881
0.28898013 -0.64240581 0.47156680
0.33399507 -0.75105536 0.54502356
0.29208377 0.23638877 0.47662863
0.04710153 0.48599219 0.07686174
0.27947551 -0.13697159 0.45605561
0.31379452 -0.10382029 0.51205778
0.16540523 -0.72864747 0.26991338
0.36559644 -0.22951604 0.59658933
0.30484831 -0.17027648 0.49745941
0.10073850 -0.55964249 0.16438821
0.15805846 0.44953451 0.25792339
0.24556766 -0.70010656 0.40072495
0.25040182 0.27180684 0.40861127
0.19637915 -0.29294866 0.32045761
0.09328186 -0.27829048 0.15222025
0.15629551 -0.31333756 0.25504789
0.34166816 -0.64924169 0.55754429
0.20891428 0.20679452 0.34091151
0.22963028 -0.61668271 0.37471783
0.19387713 0.30768737 0.31637332
0.00936287 0.62954611 0.01527862
0.11420370 0.37678024 0.18636079
0.21612518 -0.19537753 0.35267976
0.12658457 -0.58933944 0.20656464
0.19415227 0.16443695 0.31682277
0.08124151 -0.49697804 0.13257243
0.08260632 0.58204186 0.13479899
0.38610223 -0.64394164 0.63005239
0.11701343 -0.34503362 0.19094615
0.36791679 -0.45512366 0.60037649
0.15424047 -0.68928975 0.25169441
0.01380795 0.37070489 0.02253224
0.01541682 0.32962608 0.02515765
0.34887055 -0.16435923 0.56929553
0.12719367 0.26646605 0.20755839
0.37792072 -0.50938326 0.61670125
0.05904568 0.31236908 0.09635258
0.10370109 0.11588877 0.16922265
0.16645965 0.04774563 0.27163398
0.30944717 0.00548546 0.50496334
0.32642025 -0.45841086 0.53266186
0.20252328 0.05465185 0.33048311
0.39593318 0.00676596 0.64609241
0.18747669 0.26591417 0.30592915
0.29474550 -0.68256843 0.48097485
0.01834294 0.70529503 0.02993258
0.09059257 0.09216963 0.14783177
0.37520117 0.07727572 0.61226153
0.00601406 -0.06545849 0.00981393
0.00197933 0.29970276 0.00322994
0.10494678 0.09649665 0.17125542
0.18933323 0.08477446 0.30895931
0.33932802 -0.01861564 0.55372339
0.02612408 0.73174942 0.04262991
0.08045909 -0.42023772 0.13129565
0.34872466 -0.11929361 0.56905735
0.35813105 0.11273965 0.58440608
0.19514717 0.00541882 0.31844684
0.34195819 -0.25487810 0.55801618
0.41141066 0.00948619 0.67134881
0.08386747 -0.56203508 0.13685755
0.10757018 -0.27011123 0.17553636
0.22055613 -0.09747191 0.35990992
0.07294475 -0.09070732 0.11903351
0.21984345 0.02202921 0.35874656
0.27833453 -0.45527798 0.45419481
0.37300414 -0.05459266 0.60867673
0.30749732 -0.12059130 0.50178194
0.28980905 0.19203085 0.47291690
0.34420323 -0.31126583 0.56167990
0.17509389 -0.34551570 0.28572366
0.23378778 0.12076318 0.38150078
0.02398552 0.56349874 0.03914032
0.09507863 -0.06388351 0.15515228
0.02623178 -0.43772718 0.04280583
0.15990290 -0.42440191 0.26093453
0.32964629 -0.16324069 0.53792506
0.27334133 -0.32360381 0.44604641
0.14793424 0.38650432 0.24140276
0.01309510 0.48434022 0.02136899
0.17680205 -0.50904572 0.28851110
0.35508260 -0.65545708 0.57943416
0.38122770 -0.59810042 0.62209797
0.11115610 -0.00732205 0.18138798
0.06967693 0.63133693 0.11370045
0.09865031 -0.40881354 0.16098064
0.31706625 0.16944356 0.51739562
0.06484225 -0.76316768 0.10581160
0.10856451 0.20175008 0.17715895
0.12544078 -0.56589752 0.20469816
0.31282225 -0.61966664 0.51047301
0.11218885 0.19684254 0.18307327
0.04682059 0.29338232 0.07640329
0.11919273 -0.16644289 0.19450240
0.18387155 -0.19003260 0.30004731
0.00499293 -0.78051907 0.00814762
0.05189336 -0.66697747 0.08468120
0.03076657 0.33434153 0.05020585
0.20153546 -0.25396141 0.32887185
0.33105320 -0.01922796 0.54022044
0.34128353 0.11776949 0.55691397
0.33460757 -0.50191391 0.54602218
0.05509213 -0.51333356 0.08990106
0.35783589 -0.32371449 0.58392590
0.04966999 0.45508173 0.08105304
0.31926298 -0.42579174 0.52098238
0.03717980 0.52970082 0.06067115
0.21055856 0.01805906 0.34359533
0.19450100 -0.14786623 0.31739280
0.36356050 -0.56687051 0.59326822
0.19639532 0.29037234 0.32048261
0.00928592 0.33911708 0.01515306
0.19452357 -0.35773259 0.31742963
0.28932425 -0.31751719 0.47212756
0.14569020 0.12835473 0.23774180
0.07756477 -0.56935656 0.12657261
0.24786015 -0.35750064 0.40446591
0.19017906 -0.26508078 0.31034011
0.39272109 -0.16788015 0.64085150
0.29694200 -0.48706374 0.48455891
0.15321344 -0.40070099 0.25001845
0.23080532 -0.52316749 0.37663531
0.35661152 -0.61230427 0.58192897
0.35344046 -0.15370092 0.57675278
0.24316558 -0.19784696 0.39680472
0.14800575 0.38360280 0.24151945
0.30341002 0.13168456 0.49511135
0.09174887 -0.23382790 0.14971866
0.23226084 -0.09382872 0.37900984
0.35281047 -0.46459678 0.57572585
0.36614761 0.02702833 0.59748787
0.19961359 -0.02071766 0.32573530
0.09371990 0.51591659 0.15293452
0.38298264 -0.61273313 0.62496167
0.11074292 -0.75683343 0.18071374
0.12646872 -0.22312348 0.20637558
0.20531031 -0.03575247 0.33503136
0.30853137 0.14166322 0.50346839
0.25476322 -0.42688555 0.41573057
0.20953324 -0.59037763 0.34192288
0.05497749 -0.12440447 0.08971397
0.07894046 -0.63135010 0.12881748
0.06008027 -0.46655202 0.09804085
0.31855744 -0.24593882 0.51983047
0.38997966 -0.43943897 0.63637894
0.07857694 -0.43173024 0.12822430
0.18602529 -0.26349601 0.30356184
0.11289965 -0.03227269 0.18423314
0.07925806 0.20768180 0.12933576
0.05211453 0.47990480 0.08504211
0.11449491 0.22517081 0.18683635
0.17940040 -0.78037363 0.29275116
0.20710818 -0.58661801 0.33796555
0.41319245 -0.50661141 0.67425811
0.30638373 0.19173411 0.49996367
0.28225651 0.17405967 0.46059257
0.06160010 0.46764907 0.10052095
0.11117952 -0.71045846 0.18142620
0.34906930 -0.71698403 0.56962180
0.14220491 -0.29582527 0.23205440
0.17129955 -0.16639581 0.27953190
0.06288637 -0.08964265 0.10261994
0.30097318 -0.79631776 0.49113742
0.05978287 -0.26503268 0.09755555
0.28667766 -0.17217448 0.46780828
0.17896660 -0.04706924 0.29204324
0.05029884 -0.04229559 0.08207921
0.08889975 -0.18987207 0.14506938
0.02501809 -0.45665777 0.04082530
0.33697060 0.05061927 0.54987627
0.37216222 -0.39836967 0.60730410
0.20600197 -0.51334637 0.33616039
0.38020867 -0.12093073 0.62043339
0.23049696 0.35678381 0.37612993
0.06523947 -0.21121176 0.10645980
0.18366590 0.08539065 0.29971126
0.36607602 -0.25248849 0.59737200
0.38887906 -0.07525396 0.63458174
0.12256859 0.37889463 0.20001075
0.06791852 -0.31670982 0.11083155
0.18517035 0.42675141 0.30216506
0.36843675 -0.00916483 0.60122347
0.23199929 -0.36141032 0.37858367
0.35747263 -0.10699247 0.58333236
0.11494553 -0.71275318 0.18757169
0.19227016 -0.67814708 0.31375241
0.06332726 -0.07748858 0.10333940
0.11477461 -0.55377787 0.18729278
0.33560753 -0.39111435 0.54765356
0.04821171 -0.51607543 0.07867337
0.01183014 -0.43218172 0.01930479
0.10006078 0.22905536 0.16328231
0.10506291 0.10407945 0.17144492
0.19049028 -0.08490270 0.31084797
0.20324516 -0.36653581 0.33166176
0.31644827 -0.51072121 0.51638961
0.18331824 -0.46757030 0.29914439
0.20576841 -0.06007293 0.33577895
0.38267708 -0.37569812 0.62446231
0.33431676 -0.05098970 0.54554611
0.06784871 0.32257366 0.11071763
0.37139651 -0.04142374 0.60605329
0.40229213 -0.25178620 0.65646994
0.35292596 -0.73476934 0.57591522
0.10304980 -0.61791635 0.16815986
0.24718009 -0.39460525 0.40335616
0.01151163 0.19815654 0.01878503
0.34563723 -0.14529623 0.56401932
0.39253137 -0.49186349 0.64054304
0.37798065 -0.33135003 0.61679846
0.01146021 -0.14297237 0.01870112
0.25700107 -0.69526052 0.41938233
0.35862556 0.00608342 0.58521330
0.28026524 -0.68717140 0.45734555
0.24684922 0.22720088 0.40281424
0.33641526 -0.66559190 0.54897255
0.32417968 0.11958341 0.52900362
0.03902428 0.05103015 0.06368103
0.00479352 0.10263955 0.00782222
0.12604167 -0.20154124 0.20567873
0.34990045 -0.07927525 0.57097584
0.02972330 -0.51468003 0.04850340
0.19839717 -0.04001012 0.32375041
0.26823559 -0.53606015 0.43771517
0.06387264 -0.34109768 0.10422936
0.12231998 -0.44501323 0.19960554
0.35068250 0.10023271 0.57225138
0.25172660 -0.11030982 0.41077438
0.29109278 0.16444677 0.47501177
0.16356181 -0.41028482 0.26690522
0.07679718 -0.14195152 0.12532003
0.02415374 -0.39752448 0.03941483
0.29632413 -0.02539506 0.48354903
0.35031325 0.09399213 0.57164890
0.21282537 -0.18460223 0.34729505
0.12543829 -0.19068068 0.20469411
0.11777391 0.44428155 0.19218647
0.37351906 -0.60464412 0.60951889
0.26579869 -0.46968889 0.43373856
0.02755709 0.53663987 0.04496851
0.28611428 -0.72730708 0.46689019
0.00087303 -0.32576394 0.00142464
0.26215264 -0.17348865 0.42778799
0.20231524 0.23739779 0.33014300
0.32735878 -0.22736949 0.53419256
0.20361920 0.02556430 0.33227155
0.07494979 0.42606035 0.12230540
0.15649392 -0.51073539 0.25537163
0.22380991 -0.10361700 0.36521953
0.14630757 -0.59879726 0.23874924
0.04243855 0.40423325 0.06925254
0.15530278 -0.14024688 0.25342792
0.17234156 0.02476410 0.28123224
0.03069758 -0.43085200 0.05009326
0.28076538 0.16945383 0.45815933
0.23943746 -0.68251354 0.39072150
0.28930902 0.21005286 0.47210085
0.31723601 -0.41439244 0.51767468
0.27792445 -0.09271974 0.45352438
0.37539423 -0.29016158 0.61257774
0.05140583 -0.08536632 0.08388563
0.06093350 -0.48044437 0.09943318
0.09797043 -0.51546967 0.15987121
0.19458397 -0.52159381 0.31752816
0.31840038 -0.03635848 0.51957345
0.18577085 -0.63631219 0.30314666
0.06231925 0.21896933 0.10169450
0.33303496 -0.76997101 0.54345679
0.03156623 -0.40765899 0.05151076
0.25263092 -0.27040803 0.41225064
0.21424414 -0.37077057 0.34961027
0.32169282 -0.13374040 0.52494639
0.15325461 0.24203904 0.25008512
0.16556901 -0.34493318 0.27018064
0.29023266 0.05018750 0.47360864
0.05648655 -0.24123456 0.09217651
0.15934053 -0.71086293 0.26001683
0.05965363 -0.72639161 0.09734465
0.27588692 -0.15955126 0.45019978
0.28661546 -0.27852702 0.46770713
0.17785259 -0.68424940 0.29022539
0.33054125 -0.50441772 0.53938669
0.02103865 -0.17248999 0.03433152
0.05226648 -0.06384367 0.08529007
0.07484805 -0.54725605 0.12213938
0.38783997 -0.41974232 0.63288730
0.12058863 -0.49242976 0.19678028
0.28077716 -0.33485594 0.45818031
0.18457218 0.15576553 0.30118987
0.12790209 -0.28461480 0.20871460
0.05966331 -0.35865450 0.09736044
0.18104860 0.34257737 0.29543942
0.20617382 0.07409766 0.33644006
0.38451865 -0.63378239 0.62746829
0.21789926 0.32896718 0.35557291
0.14700942 -0.48092973 0.23989452
0.25819677 0.12304865 0.42133173
0.03928796 -0.28854480 0.06411131
0.23402779 -0.39993307 0.38189384
0.10706196 0.15906015 0.17470703
0.31579605 -0.04787208 0.51532370
0.21161421 0.29950500 0.34531698
0.27879792 0.11903085 0.45494899
0.36390084 -0.32051280 0.59382278
0.08682988 -0.27962434 0.14169170
0.31227234 -0.38562804 0.50957483
0.24356025 0.24869716 0.39744717
0.16975369 0.14621225 0.27700889
0.13088277 -0.14383872 0.21357857
0.13991104 0.45874819 0.22831012
0.04285439 0.28470400 0.06993113
0.06208129 -0.30265373 0.10130618
0.05252274 -0.54126281 0.08570824
0.32811317 -0.68780828 0.53542519
0.24263825 0.32594272 0.39594236
0.18836613 -0.66467625 0.30738172
0.09790076 0.06887346 0.15975751
0.19546887 -0.73622870 0.31897217
0.28919730 0.09373315 0.47191894
0.13357522 -0.12910862 0.21797220
0.40588269 -0.14519449 0.66232872
0.20290165 0.25352702 0.33109984
0.15860188 -0.68739426 0.25881147
0.12263616 0.44772729 0.20012075
0.05568961 -0.48470494 0.09087603
0.14989959 -0.19616291 0.24461082
0.14042838 -0.56189400 0.22915541
0.11238864 -0.15937179 0.18339927
0.31826073 0.00310172 0.51934540
0.02526238 0.69036943 0.04122391
0.28563383 -0.76094991 0.46610618
0.15631530 0.48515087 0.25507873
0.13164824 -0.12111299 0.21482769
0.07710292 -0.12151057 0.12581895
0.02682689 -0.29019454 0.04377695
0.08965196 -0.50053471 0.14629684
0.07242800 0.53554958 0.11819001
0.25504276 -0.48779112 0.41618672
0.27638519 0.09673350 0.45101196
0.01927271 -0.42624480 0.03144981
0.32362539 -0.77853358 0.52810198
0.36943358 -0.40719631 0.60285145
0.09674369 -0.00787676 0.15786935
0.18557982 -0.61077720 0.30283493
0.28324878 -0.02864291 0.46221250
0.01889056 0.54670584 0.03082621
0.03503909 -0.64985645 0.05717788
0.00373830 -0.26235902 0.00610027
0.01638656 -0.12921713 0.02674009
0.27822125 -0.17052849 0.45400900
0.25747061 -0.20660849 0.42014790
0.25926000 -0.73106837 0.42306855
0.12903689 0.43153134 0.21056563
0.04641034 -0.73422307 0.07573384
0.31352076 -0.61102277 0.51161277
0.39030477 -0.38330060 0.63690931
0.08182010 -0.09572017 0.13351659
0.16743524 -0.44785705 0.27322605
0.23307747 -0.44605222 0.38034305
0.31765509 -0.42527694 0.51835865
0.33097354 -0.58173692 0.54009241
0.36404869 -0.26248834 0.59406382
0.04459919 0.36036459 0.07277835
0.21899723 -0.61788845 0.35736647
0.30019146 -0.15392114 0.48986024
0.38840201 -0.20179272 0.63380373
0.01391429 0.01570197 0.02270577
0.11570732 0.24234134 0.18881480
0.41236106 -0.58953142 0.67290175
0.32613355 -0.34220627 0.53219360
0.20349789 0.39244545 0.33207232
0.06289038 -0.02100210 0.10262648
0.07343296 -0.20651308 0.11983018
0.05933047 0.08192398 0.09681731
0.12393118 -0.47490212 0.20223475
0.27120677 0.21393898 0.44256133
0.06380231 -0.19895659 0.10411460
0.03462482 0.69374079 0.05650168
0.30756670 -0.27585670 0.50189573
0.15574524 -0.66645324 0.25414994
0.40170446 0.00898612 0.65551013
0.09883713 -0.32461610 0.16128550
0.07613989 0.05894444 0.12424744
0.19845134 0.22564490 0.32383788
0.17906119 0.24199679 0.29219669
0.04599587 0.20251498 0.07505749
0.06492036 -0.75161207 0.10593906
0.18799740 -0.46840984 0.30678001
0.40231648 -0.56943393 0.65651077
0.33125585 -0.11785266 0.54055142
0.40812835 -0.35559520 0.66599393
0.06853901 0.21082143 0.11184408
0.26742187 -0.50117701 0.43638730
0.32160318 0.01923820 0.52479959
0.30915129 0.19100218 0.50447983
0.18643749 -0.68409395 0.30423450
0.32820401 -0.13215797 0.53557152
0.11547826 -0.24431244 0.18844102
0.25588372 -0.16495083 0.41755825
0.05470727 -0.35182595 0.08927302
0.05620118 0.49106121 0.09171084
0.30617997 -0.30343413 0.49963289
0.10691628 -0.08025975 0.17446931
0.14191185 0.33766377 0.23157549
0.22251996 -0.18156095 0.36311483
0.34200570 -0.33180785 0.55809397
0.04626938 -0.40238610 0.07550381
0.37320819 -0.28521985 0.60901052
0.33838049 -0.68762696 0.55217957
0.12859920 0.08228465 0.20985216
0.39458081 -0.78347075 0.64388829
0.34407651 -0.53469580 0.56147385
0.00094588 -0.17938045 0.00154351
0.19003956 -0.51586539 0.31011245
0.05750406 0.29127705 0.09383691
0.19009162 0.05727595 0.31019694
0.24398459 -0.09686569 0.39814085
