ply
format ascii 1.0
element vertex 1370
property float x
property float y
property float z
end_header
-0.69088602 -0.76968879 0.00000000
-0.07151773 -0.06291935 -0.00000046
0.24109878 -0.00381590 -0.00000050
-0.71716881 -0.45921099 -0.00000000
-0.01883728 -0.76869035 -0.00000002
0.29665944 0.39759213 0.10483402
-0.77275354 0.26979125 -0.00000003
0.56683153 0.10377175 0.12827826
-0.22272673 -0.57868928 -0.00000014
0.75403804 -0.60796636 -0.00000024
0.21222118 -0.10192032 -0.00000044
-0.31785899 0.27100188 -0.00000056
-0.76814973 0.41325819 -0.00000004
-0.79004830 -0.21940257 0.00000000
-0.09457572 -0.25624776 -0.00000034
-0.20268752 -0.30114761 -0.00000031
0.02417240 0.76019424 0.01549650
0.72011226 0.07177814 0.00803765
0.11035568 0.53502005 0.15328726
0.54675239 -0.75302124 -0.00000003
0.27649686 0.23813720 0.28290060
-0.44334999 0.46292606 -0.00000045
-0.22018304 0.71441329 -0.00000072
-0.60175765 -0.46012712 -0.00000013
-0.28989267 0.58396858 -0.00000064
0.03085732 -0.49027947 -0.00000019
0.64230967 -0.21746826 -0.00000060
0.51836765 -0.55111557 -0.00000016
-0.77531654 -0.78392076 0.00000000
-0.23539315 0.79111671 -0.00000071
0.21449718 0.54560924 0.03954738
-0.57124954 -0.02562752 -0.00000024
0.36684117 0.35117173 0.08127773
0.21141396 0.33673280 0.24967697
0.07789038 0.52948725 0.19095688
0.31264007 -0.00407881 -0.00000050
-0.36177924 -0.78647619 -0.00000001
-0.70304984 0.72416872 -0.00000012
0.04676633 -0.09288948 -0.00000044
-0.26979113 -0.71380723 -0.00000005
0.34249675 0.43418354 0.02311653
-0.14616057 -0.61295784 -0.00000012
-0.60358375 0.69409031 -0.00000025
-0.10456222 0.21171749 -0.00000063
-0.21779118 0.06526924 -0.00000054
0.31386915 0.41164282 0.07384336
-0.58203405 -0.48825458 -0.00000014
-0.79911137 0.72374862 -0.00000000
-0.37014994 -0.40305653 -0.00000025
0.47503433 0.21016058 0.11381251
-0.27266052 0.12830475 -0.00000058
-0.00854352 -0.02302832 -0.00000049
-0.43007922 0.50128508 -0.00000046
-0.49287826 -0.59279418 -0.00000013
-0.46894917 -0.37216172 -0.00000027
0.35518521 0.38499030 0.05930634
0.32581094 -0.33857590 -0.00000029
-0.74289083 -0.32351455 -0.00000000
-0.68762022 0.72655356 -0.00000014
-0.75684994 -0.76142824 0.00000000
-0.11670116 -0.65212709 -0.00000009
0.31454498 0.20498894 0.27804330
0.75768447 -0.47515136 -0.00000041
-0.11890927 -0.23957832 -0.00000035
-0.12155988 0.69310629 -0.00000085
0.77520567 -0.79901415 -0.00000000
-0.23436926 -0.42522162 -0.00000023
-0.44245353 -0.64130741 -0.00000010
-0.42900637 0.08664584 -0.00000041
-0.68122590 -0.07587580 -0.00000011
-0.68671352 0.08580063 -0.00000014
0.62116838 -0.00519873 -0.00000080
0.17822997 0.23502885 0.38339943
0.70995122 -0.27058926 -0.00000062
-0.14920013 0.57452393 -0.00000080
-0.68777961 0.75629848 -0.00000014
0.07583899 -0.56708360 -0.00000015
0.03450664 -0.12880813 -0.00000042
0.45988476 -0.03662652 -0.00000060
0.22682621 -0.43388560 -0.00000023
-0.58103663 -0.48671854 -0.00000014
0.78568405 -0.40442532 -0.00000049
0.36482978 -0.23648766 -0.00000035
0.27594590 -0.57674825 -0.00000014
-0.74137169 -0.43746164 0.00000000
-0.05918208 0.68646914 -0.00000092
0.40843639 0.38720149 0.00432251
-0.04432622 -0.33465001 -0.00000029
-0.70463520 -0.21619803 -0.00000006
-0.20898286 -0.60908449 -0.00000012
-0.78853750 -0.39096430 0.00000000
0.32296240 0.45732328 0.01954223
-0.21875422 0.76519400 -0.00000073
0.12103208 -0.63628727 -0.00000010
0.20506215 0.29088235 0.30142823
0.37690863 -0.00000647 -0.00000055
0.19754314 0.20897400 0.39008299
0.25260803 -0.44369030 -0.00000022
0.77191389 -0.52825928 -0.00000034
-0.65986663 -0.59667295 -0.00000004
-0.37018171 0.29634100 -0.00000051
-0.35426891 0.25661692 -0.00000052
-0.73001617 -0.22202861 -0.00000003
-0.79776669 -0.19754560 0.00000000
0.50787401 -0.59890920 -0.00000013
0.68306297 -0.06034477 -0.00000081
-0.45825142 0.68081480 -0.00000043
0.09061983 -0.06251021 -0.00000046
-0.55672210 0.09489046 -0.00000028
-0.50803864 -0.38787833 -0.00000024
-0.26374376 0.20476812 -0.00000061
-0.12982889 -0.39081860 -0.00000026
-0.66017991 -0.48300052 -0.00000006
-0.11654029 0.57465911 -0.00000083
0.33257431 -0.22101799 -0.00000036
-0.75653362 0.56317466 -0.00000005
0.39545763 -0.31274280 -0.00000030
-0.70143247 -0.50216824 -0.00000001
-0.17342138 -0.15844277 -0.00000040
-0.30883330 0.74326926 -0.00000061
-0.50832438 -0.68933839 -0.00000007
-0.06105594 0.59885883 -0.00000087
-0.21961930 -0.78809589 -0.00000001
-0.74977499 -0.49044186 0.00000000
0.78860801 -0.03949102 -0.00000095
0.38957530 -0.52749729 -0.00000017
0.35184532 -0.44823107 -0.00000022
0.14472573 -0.55344826 -0.00000015
-0.74982423 -0.60432273 0.00000000
0.14632472 -0.36468312 -0.00000027
-0.48577827 0.74202985 -0.00000039
-0.36496311 -0.59879452 -0.00000013
-0.47887993 0.58992481 -0.00000040
-0.76701516 0.17283092 -0.00000004
-0.65998834 -0.33343232 -0.00000009
0.11429399 -0.55768359 -0.00000015
-0.01182615 -0.11367110 -0.00000043
-0.22051166 -0.03266422 -0.00000048
-0.03953153 -0.54699695 -0.00000016
-0.09722678 0.03035271 -0.00000052
-0.38878009 -0.08822039 -0.00000042
0.12911198 -0.72003245 -0.00000005
0.64740109 -0.48124975 -0.00000032
-0.51258892 0.06710529 -0.00000032
-0.50408143 -0.11765357 -0.00000029
-0.55045730 0.66098922 -0.00000031
-0.16897133 0.60014212 -0.00000078
-0.23788065 0.09580407 -0.00000056
0.45492947 0.27585611 0.06861523
-0.05793164 -0.31352013 -0.00000030
0.75032753 -0.04514469 -0.00000090
0.34399444 0.15140648 0.30196801
0.13868824 -0.68616998 -0.00000007
0.15342751 -0.32524931 -0.00000030
0.38738078 -0.64199090 -0.00000010
0.65675443 -0.13286202 -0.00000071
0.58338952 0.18037751 0.03591836
0.51681232 -0.46894792 -0.00000021
0.31643060 -0.70709801 -0.00000006
0.02222142 -0.76628679 -0.00000002
-0.75799555 0.59774470 -0.00000005
-0.39146495 -0.16778649 -0.00000040
0.38026959 -0.39949423 -0.00000025
0.61670321 0.15346044 0.02957692
-0.06922756 -0.44306183 -0.00000022
-0.34731308 -0.72004825 -0.00000005
-0.70401633 -0.25383726 -0.00000006
-0.21007769 0.79255086 -0.00000074
-0.40762076 0.50547016 -0.00000049
0.55576903 -0.73360759 -0.00000004
-0.20392375 -0.67116964 -0.00000008
-0.58021343 -0.22986591 -0.00000019
0.44719389 0.22162689 0.13004538
-0.13653283 0.17989033 -0.00000061
0.05692175 -0.03458245 -0.00000048
-0.76126009 0.41304100 -0.00000005
-0.10460697 -0.50747907 -0.00000018
0.18652546 -0.41329914 -0.00000024
0.17423199 0.22375800 0.39853635
-0.09788111 -0.25504944 -0.00000034
0.10181247 -0.18576889 -0.00000038
0.63322270 -0.46375892 -0.00000033
-0.44391808 -0.00683018 -0.00000038
-0.78967154 0.37814197 -0.00000001
0.62722421 -0.09508320 -0.00000071
0.27620837 0.50882381 0.01483668
0.06653306 0.66972524 0.06318950
-0.56342530 -0.68342751 -0.00000007
-0.29003558 0.04814433 -0.00000053
0.24533521 -0.61057317 -0.00000012
-0.62156236 0.37927431 -0.00000022
-0.65151644 0.78576869 -0.00000019
0.13498674 0.58096206 0.08332400
-0.23315459 -0.05804353 -0.00000046
-0.43087548 0.59056860 -0.00000046
-0.54615855 -0.00859334 -0.00000027
-0.72863114 0.38509893 -0.00000009
0.28834778 0.18502802 0.32380250
-0.78544569 -0.34768984 0.00000000
-0.47580591 -0.64312887 -0.00000010
0.44188446 -0.71946102 -0.00000005
-0.66367936 -0.54715586 -0.00000005
-0.43526581 -0.72264165 -0.00000005
0.06620321 -0.25698328 -0.00000034
-0.45577663 0.46887282 -0.00000043
-0.69036633 -0.64950180 0.00000000
0.10244301 -0.03869142 -0.00000048
0.19422162 -0.04433823 -0.00000047
0.37249637 -0.38639760 -0.00000026
0.24555591 -0.28905857 -0.00000032
0.69671941 -0.09207515 -0.00000079
0.36034933 0.31234312 0.12620711
0.04654817 -0.42578822 -0.00000023
0.48341629 -0.68048841 -0.00000007
-0.74184674 0.73263782 -0.00000007
-0.39222899 -0.65544051 -0.00000009
-0.73596615 -0.03183192 -0.00000006
0.52645850 -0.71372390 -0.00000005
-0.76826751 0.51223850 -0.00000004
-0.21718021 -0.39036247 -0.00000026
-0.48914826 0.35053998 -0.00000039
0.77969092 -0.78258127 -0.00000002
-0.35979480 0.69188166 -0.00000055
-0.29666609 0.28291982 -0.00000059
0.12927653 -0.78419316 -0.00000001
-0.76050758 0.32069060 -0.00000005
0.11594577 0.65465307 0.02914547
0.17097548 0.28147560 0.34454572
-0.15558977 -0.69854921 -0.00000006
-0.09066194 0.30702323 -0.00000069
0.66822779 -0.27939060 -0.00000056
0.36216056 -0.48496899 -0.00000020
-0.75970685 -0.66435087 0.00000000
0.01473153 -0.29764315 -0.00000031
-0.28978968 -0.74809945 -0.00000003
-0.75269139 -0.14364251 -0.00000002
-0.47788638 0.15419613 -0.00000037
-0.73749441 0.57485616 -0.00000008
0.24254350 0.37993634 0.17598622
-0.14919606 0.78719831 -0.00000081
0.70677143 -0.48994207 -0.00000038
0.66440284 0.10608632 0.02925424
0.27120474 -0.42447540 -0.00000023
0.14100008 0.29439706 0.36145213
-0.62253362 0.17968072 -0.00000022
0.40976223 -0.02034913 -0.00000056
0.00820970 -0.76879257 -0.00000002
-0.13549976 0.66729021 -0.00000083
-0.05141042 -0.14270985 -0.00000041
0.79228628 -0.68824118 -0.00000014
0.22937696 0.47967985 0.09015653
-0.56793302 -0.26255682 -0.00000020
0.69567633 -0.66276091 -0.00000017
0.47234455 -0.26634327 -0.00000037
0.60845757 -0.51363689 -0.00000025
0.63067436 -0.55136222 -0.00000023
0.28514373 -0.11907541 -0.00000043
-0.79242039 0.68904573 -0.00000001
-0.18246485 -0.50531489 -0.00000018
0.62887639 -0.10393590 -0.00000071
0.28222913 0.27603438 0.23964809
-0.53789341 0.27791348 -0.00000033
0.14710827 0.44881454 0.20231321
0.74643439 -0.66263336 -0.00000017
-0.48456869 -0.40173599 -0.00000025
0.49958706 -0.69330609 -0.00000007
-0.31972662 -0.39780909 -0.00000025
0.20036782 0.56062114 0.03867244
-0.00270167 -0.59683299 -0.00000013
0.59212846 -0.19018701 -0.00000058
-0.59647107 -0.40900302 -0.00000014
-0.63167459 -0.56755054 -0.00000008
0.62838465 0.12451753 0.04668944
-0.08998508 -0.16630661 -0.00000040
-0.26741618 0.46573526 -0.00000065
-0.40127251 0.63771844 -0.00000050
0.38442937 -0.04546631 -0.00000051
-0.01327470 -0.01216166 -0.00000049
0.62586617 -0.51331645 -0.00000027
-0.06233261 0.74941039 -0.00000092
-0.69423950 0.76234633 -0.00000013
0.14369948 0.27239683 0.38058621
0.53660566 -0.44851238 -0.00000024
0.35328826 0.21333544 0.23136058
0.32367688 0.31823924 0.15671793
0.04634478 0.02425391 -0.00000052
0.71501803 -0.12515628 -0.00000078
-0.37349713 -0.78558522 -0.00000001
-0.48665395 -0.20916727 -0.00000030
0.44980299 -0.32500520 -0.00000030
-0.71635568 -0.26930034 -0.00000004
-0.40309703 0.16672648 -0.00000045
-0.58059382 0.68469489 -0.00000027
-0.50536883 0.78246319 -0.00000037
0.61386567 -0.53412497 -0.00000023
-0.36005020 0.02344967 -0.00000047
0.08930345 -0.27081704 -0.00000033
-0.00451768 -0.31559756 -0.00000030
0.67437071 -0.03092024 -0.00000083
0.35258898 -0.39597210 -0.00000025
0.74558026 -0.18969221 -0.00000074
-0.49722379 -0.38601533 -0.00000025
0.67941630 -0.11959246 -0.00000074
0.48420581 -0.59698337 -0.00000013
0.13990535 -0.49031338 -0.00000019
-0.68204004 -0.40653753 -0.00000005
-0.24707741 0.33467865 -0.00000065
-0.44015768 0.53339237 -0.00000045
0.16323674 0.26411644 0.36942676
-0.65834200 -0.61161268 -0.00000004
0.32809651 -0.40712255 -0.00000025
-0.37536788 -0.10426867 -0.00000043
0.67706716 -0.14306612 -0.00000072
-0.66252685 -0.78789014 -0.00000000
0.28837922 -0.29465562 -0.00000032
0.40724102 -0.46014115 -0.00000021
-0.60925591 0.51253575 -0.00000024
-0.29877013 -0.70126379 -0.00000006
0.33028412 0.12731479 0.33944339
-0.47421810 -0.21669853 -0.00000031
-0.69347090 0.66442579 -0.00000013
0.48004580 0.30712903 0.01271254
0.12327453 -0.27878934 -0.00000033
0.25260678 0.45333397 0.09324567
-0.36349165 0.44032124 -0.00000055
-0.06457215 -0.55974704 -0.00000015
-0.11385558 0.72068006 -0.00000086
-0.53816468 0.77165419 -0.00000033
-0.74292862 0.65986866 -0.00000007
-0.63438928 -0.40991610 -0.00000010
0.43815091 -0.42895579 -0.00000023
-0.68488830 -0.32602119 -0.00000006
0.46414319 -0.52367222 -0.00000017
-0.31589112 -0.37130448 -0.00000027
0.36608818 0.37813392 0.05529466
-0.28273660 0.76951224 -0.00000065
-0.04314152 0.73262030 -0.00000094
0.67632079 -0.05376939 -0.00000081
0.17599098 0.35415497 0.26752201
0.53092474 -0.50438416 -0.00000018
-0.15440004 -0.79947925 -0.00000000
-0.04279384 -0.68729222 -0.00000007
0.44891351 -0.72841477 -0.00000004
-0.69682884 0.49840620 -0.00000013
0.21787851 -0.19456820 -0.00000038
-0.63440269 0.64155185 -0.00000021
0.49265209 0.08812253 0.21733187
0.34015986 0.24485654 0.21312667
0.77612799 -0.50386649 -0.00000037
-0.47296312 -0.55075395 -0.00000016
-0.33367893 -0.77799678 -0.00000001
-0.42292178 -0.79668397 -0.00000000
0.15796037 -0.03912722 -0.00000048
0.19177654 0.42229712 0.18431947
0.54145271 -0.52593589 -0.00000017
0.58752716 -0.51267481 -0.00000023
0.06534986 -0.67251670 -0.00000008
0.40725929 -0.61637831 -0.00000011
-0.71322268 0.72738969 -0.00000011
-0.03603630 -0.76822954 -0.00000002
-0.17724654 -0.32212603 -0.00000030
0.21420185 0.45124885 0.13338639
-0.19056854 -0.14493455 -0.00000041
-0.45895794 -0.43394241 -0.00000023
-0.56547165 0.74543148 -0.00000029
-0.10359925 -0.66818357 -0.00000008
0.02935377 -0.51493210 -0.00000018
0.44666362 0.32467496 0.02841214
-0.30074981 0.66820270 -0.00000062
0.34019020 -0.19903474 -0.00000038
0.48438168 -0.05588910 -0.00000060
0.30015713 0.38345340 0.11538324
-0.63991666 -0.45894957 -0.00000009
-0.30520806 0.45085710 -0.00000061
-0.09943583 0.38667053 -0.00000074
-0.53400809 0.11919379 -0.00000031
-0.39577502 0.07239722 -0.00000044
-0.44651264 -0.35066211 -0.00000028
0.46974239 -0.73599505 -0.00000004
-0.36590958 0.65374476 -0.00000054
-0.02086350 0.67900753 -0.00000092
0.49770674 0.09960776 0.20093468
-0.17135195 -0.30833492 -0.00000031
-0.20595951 -0.30719939 -0.00000031
-0.24069998 -0.44475973 -0.00000022
-0.01625336 -0.21102734 -0.00000037
-0.38157296 -0.23107530 -0.00000036
-0.35074815 -0.53025603 -0.00000017
-0.15608232 -0.50222623 -0.00000019
-0.09588945 0.65770042 -0.00000087
0.54188573 -0.10257115 -0.00000062
0.61208826 -0.22455643 -0.00000056
-0.63944507 0.76545107 -0.00000020
-0.69166780 -0.24448520 -0.00000007
0.72077364 -0.74806440 -0.00000006
-0.60631180 -0.15385082 -0.00000018
-0.35326672 -0.39112487 -0.00000026
-0.30578613 -0.17769025 -0.00000039
-0.11930171 0.27684665 -0.00000067
0.06080706 0.66579783 0.07275947
-0.50177568 0.77999777 -0.00000037
0.04266386 -0.01858885 -0.00000049
0.25095937 0.50374484 0.04490297
0.28596842 0.30126944 0.21092406
-0.15531558 -0.55251908 -0.00000015
-0.49335793 0.53489715 -0.00000038
0.36532277 -0.69866461 -0.00000006
0.39442021 -0.73842973 -0.00000004
-0.52629471 -0.78891319 -0.00000001
0.06795760 -0.58474314 -0.00000013
0.74196094 -0.52305233 -0.00000035
-0.23631437 0.13857830 -0.00000059
-0.75218379 -0.56510252 0.00000000
-0.66311431 -0.54319996 -0.00000005
-0.31920326 -0.03876832 -0.00000048
0.79246283 -0.75883067 -0.00000005
-0.18643709 -0.71428651 -0.00000005
-0.43284741 -0.35833773 -0.00000028
0.32283744 0.19810386 0.27664816
-0.37947732 -0.36677721 -0.00000027
-0.33190966 0.09294538 -0.00000052
0.26445591 -0.41338393 -0.00000024
0.48467287 -0.24554341 -0.00000040
0.08340373 0.52082914 0.19407451
-0.51784950 -0.46984988 -0.00000021
-0.73887259 0.44427794 -0.00000008
-0.69798040 -0.33987778 -0.00000005
0.04205244 -0.53338516 -0.00000017
0.11402127 0.42245916 0.26124188
-0.73692381 0.34175697 -0.00000008
0.40645805 -0.23587221 -0.00000035
-0.50138438 0.05734770 -0.00000033
0.24824607 0.29296395 0.25655404
-0.73040605 -0.32403022 -0.00000001
0.34652764 -0.53876948 -0.00000016
-0.34788781 -0.21289089 -0.00000037
-0.70474923 0.53554165 -0.00000012
0.15457878 -0.14150541 -0.00000041
0.03407862 0.72229791 0.04324487
0.25294161 0.20161353 0.34246036
-0.20952001 0.27464089 -0.00000067
-0.01815083 -0.53308064 -0.00000017
0.27689764 -0.57929844 -0.00000014
0.28801179 -0.44170955 -0.00000022
-0.52023506 -0.05215552 -0.00000029
-0.42481226 -0.38954049 -0.00000026
-0.72272009 -0.73884976 0.00000000
-0.57999057 -0.43211862 -0.00000016
-0.71253407 0.25642300 -0.00000011
-0.01166996 -0.21752191 -0.00000036
0.50254154 -0.18176553 -0.00000049
0.50026852 -0.76622003 -0.00000002
-0.13002583 0.03097151 -0.00000052
-0.46498573 -0.66843295 -0.00000008
-0.01951110 -0.50545603 -0.00000018
-0.61468410 -0.04119798 -0.00000019
-0.59394830 -0.01559650 -0.00000022
-0.59743989 0.03923164 -0.00000022
0.41404918 -0.53725314 -0.00000016
-0.78089726 0.05384936 -0.00000002
0.22090711 -0.67837107 -0.00000008
0.24935228 -0.32550266 -0.00000030
0.48659515 0.24572070 0.06709817
-0.26027676 -0.44339511 -0.00000022
-0.16026215 0.23443362 -0.00000065
-0.64653695 -0.25937015 -0.00000012
0.21934442 -0.73909849 -0.00000004
0.49736661 0.19251113 0.10917013
-0.07755168 -0.39435104 -0.00000025
-0.40522656 -0.43866009 -0.00000023
-0.19410515 0.72734684 -0.00000076
-0.72337919 -0.63587779 0.00000000
0.25334501 -0.55957907 -0.00000015
0.33227903 -0.66057456 -0.00000009
-0.73599589 -0.48730284 0.00000000
-0.43306291 -0.21711573 -0.00000035
-0.64706945 0.20209458 -0.00000019
-0.61468565 0.66312569 -0.00000023
-0.57771403 0.22029868 -0.00000028
-0.34972656 0.74450660 -0.00000056
-0.07434432 -0.67796028 -0.00000008
-0.31358767 -0.41196311 -0.00000024
0.44442397 0.22260059 0.13182610
0.17658848 0.34671682 0.27430362
0.51211321 -0.69733912 -0.00000006
-0.47783273 0.67486894 -0.00000040
0.30593038 -0.49235049 -0.00000019
0.67938542 -0.72955644 -0.00000009
-0.55748123 0.06628953 -0.00000027
0.12543961 0.56996310 0.10369252
-0.29518202 -0.52748609 -0.00000017
-0.31675020 -0.30604112 -0.00000031
0.26607201 -0.28028917 -0.00000032
-0.23707952 0.59247226 -0.00000070
0.34463313 -0.20567264 -0.00000037
0.74998999 -0.10752086 -0.00000083
-0.47870824 0.04176984 -0.00000035
0.41483918 0.12460765 0.25830305
0.27550679 -0.32570535 -0.00000030
-0.45082435 0.30451918 -0.00000043
-0.51545143 -0.78406519 -0.00000001
0.43770930 0.15544671 0.20505729
0.29556072 0.36985070 0.13342534
0.52730811 -0.26161450 -0.00000043
-0.20563132 0.70958692 -0.00000074
0.24849671 0.15680484 0.39128843
0.38398236 0.34226525 0.07311406
-0.22459666 0.46715420 -0.00000070
-0.07149923 0.64888149 -0.00000090
0.50878203 0.27526689 0.01581147
0.79743373 -0.67688018 -0.00000015
-0.58705282 0.27872765 -0.00000027
0.59953982 0.05523092 0.14397418
0.78528208 -0.44001445 -0.00000045
0.43745968 -0.48605743 -0.00000020
0.50547194 0.14564231 0.14759912
-0.58120066 -0.31552434 -0.00000018
-0.58218348 -0.40470985 -0.00000016
-0.06171965 0.74056751 -0.00000092
0.08002176 0.03393568 -0.00000052
-0.41111901 -0.43581894 -0.00000023
0.40933645 0.15903313 0.22962986
-0.54698330 -0.49042341 -0.00000018
-0.39275891 -0.69265801 -0.00000007
-0.01000195 -0.76426655 -0.00000002
-0.17396010 -0.32102612 -0.00000030
0.50225586 0.13465180 0.16168319
-0.33570510 -0.56324434 -0.00000015
0.11043853 -0.70606202 -0.00000006
0.48763615 0.23753589 0.07418031
0.10813137 -0.02541195 -0.00000048
0.51209176 -0.28756431 -0.00000039
0.14533354 0.64117110 0.01337695
0.08410661 0.64341068 0.07185515
0.13032568 0.39470533 0.27259248
-0.48077306 -0.57576346 -0.00000014
-0.22018474 0.10146969 -0.00000056
-0.16067697 0.17678621 -0.00000061
0.05657532 -0.06123576 -0.00000046
0.24318214 -0.03911276 -0.00000048
-0.57191867 0.10286246 -0.00000026
0.46666521 -0.22571692 -0.00000040
0.15029404 -0.66087306 -0.00000009
-0.24161220 -0.00693189 -0.00000050
0.37012902 0.26004931 0.16835442
0.52886850 0.09178216 0.17779991
0.53543663 0.10483273 0.15835048
0.11284272 -0.53224063 -0.00000017
-0.01009466 -0.79220694 -0.00000000
-0.03969516 0.48064038 -0.00000080
-0.65601051 0.29911280 -0.00000018
-0.67852837 0.41907108 -0.00000015
0.32879487 0.34647882 0.12364815
-0.38393044 -0.75349212 -0.00000003
-0.07928232 0.61993158 -0.00000088
0.67653304 -0.62076336 -0.00000021
-0.63070625 0.71203434 -0.00000021
0.27781117 -0.75303072 -0.00000003
-0.12269742 0.50255811 -0.00000081
-0.18296029 0.12981586 -0.00000058
-0.52080029 0.52609360 -0.00000035
-0.19556645 0.31646958 -0.00000070
0.32433331 -0.57980192 -0.00000014
-0.51995128 0.66005880 -0.00000035
-0.32205471 0.60421515 -0.00000060
0.01669657 -0.50428247 -0.00000018
-0.27847287 -0.25288236 -0.00000034
0.18400078 -0.27360162 -0.00000033
-0.58263838 0.32907349 -0.00000027
-0.09101689 -0.71302575 -0.00000005
-0.59252322 -0.73072499 -0.00000004
-0.07576517 0.25035328 -0.00000066
-0.40675458 -0.72295225 -0.00000005
0.12690821 -0.48904312 -0.00000019
0.29344410 -0.68253523 -0.00000007
0.03673225 -0.46286121 -0.00000021
0.43792018 0.13842709 0.22172102
0.07212192 -0.30078876 -0.00000031
-0.07911885 0.15773451 -0.00000060
-0.01422037 -0.13785382 -0.00000041
0.42438978 -0.53073704 -0.00000017
-0.27510780 -0.12764060 -0.00000042
-0.20790213 -0.62870920 -0.00000011
0.79306817 -0.67856646 -0.00000015
0.70370114 -0.61758327 -0.00000023
-0.72387260 -0.00520593 -0.00000008
-0.45419541 0.66445202 -0.00000043
-0.02273522 0.76255387 -0.00000097
-0.21257128 -0.06866179 -0.00000046
-0.05877444 0.77701753 -0.00000093
0.03832005 -0.77432853 -0.00000002
0.59336793 -0.20521447 -0.00000056
0.51518291 0.14957590 0.13407230
0.33401379 -0.14769313 -0.00000041
0.70068133 -0.11013736 -0.00000078
0.65426385 -0.15253642 -0.00000068
-0.67730910 -0.68598557 -0.00000001
-0.28671587 0.56106985 -0.00000064
0.43142459 -0.41684559 -0.00000024
0.25462824 -0.01076408 -0.00000049
-0.37131673 0.13124640 -0.00000048
0.14917184 -0.43707630 -0.00000023
0.47772458 0.18555871 0.13553511
0.03350481 -0.01062812 -0.00000049
-0.12568521 0.50888228 -0.00000081
0.40250188 0.39280429 0.00465137
0.12609050 0.56794369 0.10504926
-0.49417743 0.31688187 -0.00000038
-0.43685246 0.29533884 -0.00000044
0.54006475 0.09279838 0.16569276
0.28335589 0.48297837 0.03337328
0.02870502 -0.11243175 -0.00000043
0.33789188 -0.35179812 -0.00000028
-0.52996254 -0.52538913 -0.00000017
-0.64182049 0.37510830 -0.00000020
-0.72527379 -0.73092312 0.00000000
0.00616270 -0.57327014 -0.00000014
-0.15552227 0.00734516 -0.00000050
0.35867468 -0.18498345 -0.00000038
-0.79472309 0.23796439 -0.00000001
-0.09151742 0.71262294 -0.00000089
0.23279719 -0.10577677 -0.00000043
0.00485347 -0.27176154 -0.00000033
0.23814549 0.45125067 0.10964756
0.69669783 -0.33379215 -0.00000053
-0.26900312 -0.75292808 -0.00000003
-0.25109893 0.57287520 -0.00000069
0.47403410 0.28827155 0.03736713
-0.43246406 -0.06177162 -0.00000038
0.19178911 0.51705658 0.09036582
-0.10346720 0.54528642 -0.00000084
-0.04507871 0.76152879 -0.00000094
0.31476581 -0.45322254 -0.00000022
-0.12184283 0.51598471 -0.00000082
-0.74438250 -0.17139739 -0.00000003
-0.42681327 0.59910375 -0.00000047
0.38169023 0.20742866 0.20905957
0.13739446 -0.10972957 -0.00000043
0.24114671 0.23636797 0.31969905
-0.04583929 0.54309618 -0.00000084
-0.08438983 0.31990266 -0.00000070
0.29498458 -0.65035796 -0.00000009
-0.54545105 -0.43132219 -0.00000019
0.17654341 -0.20371433 -0.00000037
-0.75700587 0.02546958 -0.00000005
-0.17676751 -0.52678597 -0.00000017
-0.03932040 0.44903648 -0.00000078
-0.19823249 -0.23064727 -0.00000036
0.65398020 0.07138390 0.07398994
0.78827929 -0.74708343 -0.00000007
-0.49364495 0.01463028 -0.00000033
-0.66582310 0.66486037 -0.00000017
-0.23704156 0.01729983 -0.00000051
-0.32335284 -0.43593967 -0.00000023
-0.56314057 0.34828219 -0.00000030
0.67017710 -0.27403671 -0.00000057
0.67784667 -0.15116611 -0.00000071
0.11362131 -0.32156742 -0.00000030
-0.74825352 -0.64472520 0.00000000
0.75023043 -0.30458677 -0.00000062
-0.13357615 0.15246277 -0.00000060
0.33803725 0.13388611 0.32524270
-0.32752517 0.11212042 -0.00000052
0.72382671 -0.36498067 -0.00000053
-0.48193580 -0.40163380 -0.00000025
-0.29541433 0.67970037 -0.00000063
-0.11422219 -0.77998948 -0.00000001
0.29007268 -0.04032022 -0.00000047
-0.23486736 0.55875951 -0.00000071
-0.54330385 0.78343141 -0.00000032
0.06877524 -0.48576730 -0.00000020
-0.61649871 0.79226363 -0.00000023
-0.57688409 -0.57131755 -0.00000013
-0.37906981 0.39079437 -0.00000052
0.31096509 0.17639838 0.30993584
-0.72875649 0.70662212 -0.00000009
-0.54417056 -0.00681168 -0.00000027
-0.08013237 -0.73888743 -0.00000004
0.61023843 0.16899936 0.02058107
0.70032966 -0.45252725 -0.00000041
0.44931537 0.27158666 0.07841351
0.50855553 -0.28240252 -0.00000039
0.28867704 -0.38522476 -0.00000026
0.10469862 0.64040482 0.05442092
0.43169433 0.14312911 0.22323170
-0.61044180 -0.40425768 -0.00000013
-0.18784799 0.21563463 -0.00000063
0.12639368 -0.34779766 -0.00000028
-0.70386142 -0.49362263 -0.00000001
-0.54568535 -0.33485854 -0.00000021
-0.58422929 0.06155764 -0.00000024
-0.20565268 -0.78384280 -0.00000001
0.49939993 -0.30778587 -0.00000035
0.26284370 -0.09176230 -0.00000044
0.28325716 -0.48173696 -0.00000020
-0.19076315 -0.57170749 -0.00000014
-0.64790410 -0.00751216 -0.00000016
-0.27784267 -0.15094817 -0.00000041
-0.49988833 -0.16478907 -0.00000029
-0.51034158 -0.59390050 -0.00000013
0.46708417 -0.20740207 -0.00000042
-0.23624101 0.19994330 -0.00000062
0.04091621 -0.30122930 -0.00000031
0.36893401 -0.35431910 -0.00000028
0.51855528 -0.41646692 -0.00000026
-0.39573377 -0.40746692 -0.00000025
0.22829995 -0.70476753 -0.00000006
-0.08723683 -0.51758969 -0.00000018
0.33985630 0.33627108 0.12280184
0.11185209 -0.48937368 -0.00000019
0.49294940 -0.36554971 -0.00000028
-0.38118804 0.79951853 -0.00000052
0.41703281 -0.73824161 -0.00000004
-0.45868909 -0.00563724 -0.00000036
-0.54465961 0.42288548 -0.00000032
-0.78868753 0.53339463 -0.00000001
-0.77694041 0.75077879 -0.00000003
-0.11153080 0.32572371 -0.00000070
0.56800169 0.22407259 0.00785537
-0.53586245 -0.31321657 -0.00000022
-0.25845337 -0.45608833 -0.00000021
0.21839638 0.42857382 0.15170728
-0.41962796 -0.43926862 -0.00000023
0.41595778 -0.39990476 -0.00000025
0.14626400 -0.64845288 -0.00000009
-0.23714451 0.79458225 -0.00000070
0.10437346 -0.79528731 -0.00000000
-0.28544918 0.35864002 -0.00000061
-0.43930468 -0.19221734 -0.00000035
-0.60072869 -0.18837114 -0.00000018
0.61234683 -0.25990745 -0.00000052
-0.07444949 -0.03930057 -0.00000048
-0.32135576 0.62536919 -0.00000060
-0.60431588 -0.67192149 -0.00000008
0.35468900 -0.53470534 -0.00000017
0.41483760 -0.33076915 -0.00000029
0.23159546 0.01681426 -0.00000051
-0.00746634 -0.05784966 -0.00000046
0.40075570 -0.34472838 -0.00000028
-0.36598364 -0.17832954 -0.00000039
-0.17637308 0.25702977 -0.00000066
0.27819341 -0.71460092 -0.00000005
-0.19225727 0.52137858 -0.00000074
0.00666327 -0.43625313 -0.00000023
0.12143519 -0.55898583 -0.00000015
0.55516744 -0.03750878 -0.00000070
-0.55372572 0.36367467 -0.00000031
-0.35885951 -0.24476005 -0.00000035
-0.28727567 -0.13728532 -0.00000041
0.13545612 -0.75893545 -0.00000003
0.68934530 -0.78056455 -0.00000002
-0.15411869 -0.01023365 -0.00000049
-0.50671858 0.32035521 -0.00000037
-0.79533136 -0.41106796 0.00000000
0.12081062 0.36283389 0.31362143
-0.77470875 0.69137406 -0.00000003
-0.61606705 0.57290143 -0.00000023
-0.44715327 0.35819784 -0.00000044
-0.36026213 0.02406625 -0.00000047
0.55147016 -0.75807422 -0.00000003
0.34552842 -0.02809517 -0.00000049
-0.41832572 -0.62366641 -0.00000011
-0.42830339 0.79046929 -0.00000046
-0.25660113 0.59852326 -0.00000068
0.10788516 0.61802632 0.07344725
-0.71713436 0.59450942 -0.00000010
0.65624630 -0.52968973 -0.00000028
-0.16517065 0.34785292 -0.00000072
-0.38213840 -0.28455245 -0.00000032
-0.20950812 0.43839943 -0.00000071
-0.17804614 0.36033735 -0.00000073
0.10486150 -0.34392542 -0.00000029
-0.15290427 0.55996376 -0.00000079
-0.62915838 -0.15463831 -0.00000015
0.61794674 0.15056451 0.03121507
-0.27247396 0.10529310 -0.00000057
-0.62590444 0.39230525 -0.00000022
-0.11354903 -0.05083670 -0.00000047
-0.16457997 0.39836198 -0.00000075
0.46780142 0.19720015 0.13383164
-0.21051466 -0.14478011 -0.00000041
0.22715646 0.52981162 0.04265867
0.19599029 0.23743315 0.36340910
-0.21654242 0.31693453 -0.00000068
-0.62492764 -0.37604785 -0.00000012
0.20407356 0.17785873 0.41445553
-0.24249735 0.42470366 -0.00000067
-0.20119438 0.24203023 -0.00000065
-0.22798926 0.58082032 -0.00000072
0.35254279 -0.35022017 -0.00000028
-0.41813976 0.39179835 -0.00000048
0.62303340 -0.17597653 -0.00000062
0.67943174 -0.22215424 -0.00000063
0.18716110 -0.08922129 -0.00000044
-0.52784067 -0.50514507 -0.00000018
-0.07402128 0.63497418 -0.00000089
-0.55280477 0.05434356 -0.00000027
0.21508439 0.46609634 0.11779209
-0.74019146 0.19625965 -0.00000007
-0.67663282 -0.23341976 -0.00000009
-0.69590503 0.35390499 -0.00000013
0.09921456 0.59062755 0.10920497
-0.59537542 0.38190061 -0.00000026
0.33193514 -0.68164223 -0.00000007
0.41377807 -0.01886856 -0.00000057
0.76516455 -0.42137045 -0.00000047
0.61651337 -0.51622635 -0.00000025
0.72933728 -0.58498073 -0.00000027
0.23870905 -0.62315118 -0.00000011
0.60681456 -0.08869410 -0.00000070
-0.76449424 -0.61257434 0.00000000
-0.65883768 0.11521127 -0.00000017
0.22189946 0.36739460 0.20888519
0.42306334 0.19625686 0.17911886
0.53971553 0.12281754 0.13627882
-0.09343699 -0.73952299 -0.00000004
-0.57298523 0.61399376 -0.00000028
-0.66348147 -0.28224689 -0.00000009
-0.74701822 0.20885000 -0.00000007
0.06720618 -0.39538309 -0.00000025
0.36086658 -0.35873434 -0.00000028
-0.57750046 -0.48551035 -0.00000015
-0.42679167 0.78831220 -0.00000047
-0.04723602 -0.36901650 -0.00000027
0.74707514 -0.31105450 -0.00000061
-0.42048299 0.67953533 -0.00000047
0.39473280 -0.43732774 -0.00000023
-0.53623366 -0.44056562 -0.00000020
0.29827195 -0.06691349 -0.00000046
-0.12253901 -0.16492113 -0.00000040
0.44982463 -0.50005275 -0.00000019
-0.19661826 -0.47575274 -0.00000020
-0.15267880 -0.08257376 -0.00000045
-0.57760775 0.70080739 -0.00000028
0.12651937 0.51104861 0.16102768
-0.25117818 0.69933677 -0.00000069
-0.63378149 0.38260674 -0.00000021
0.24423191 -0.23860168 -0.00000035
-0.68534172 -0.45194706 -0.00000004
0.15840936 0.51254612 0.12792878
0.51218659 -0.74984068 -0.00000003
-0.67526823 0.14227349 -0.00000016
-0.51596189 -0.12169830 -0.00000028
0.05541828 -0.50335133 -0.00000019
-0.57366627 -0.49568197 -0.00000015
0.26099786 0.36958873 0.16794962
0.08038164 -0.65739214 -0.00000009
-0.46391302 0.32809094 -0.00000042
0.21691079 0.17476366 0.40479758
-0.44779408 0.55813706 -0.00000044
-0.77525312 -0.58078080 0.00000000
-0.16818178 0.41873664 -0.00000075
0.23986675 -0.65751469 -0.00000009
-0.15938658 0.78972799 -0.00000080
-0.75674474 -0.29975033 0.00000000
0.71920347 -0.43050367 -0.00000045
0.03665727 -0.42804721 -0.00000023
0.26780897 -0.03627453 -0.00000048
-0.50909102 0.72958642 -0.00000036
-0.04703368 -0.67465973 -0.00000008
-0.74598497 0.12878564 -0.00000007
0.38441774 -0.49141523 -0.00000019
0.69679165 0.10067758 0.00250697
0.52966392 -0.63732553 -0.00000010
-0.26355007 -0.44395056 -0.00000022
0.75266832 0.02035428 0.02674268
-0.20252351 -0.30280858 -0.00000031
0.41230661 -0.19635499 -0.00000038
-0.78349596 -0.53124863 0.00000000
-0.33147323 -0.05471886 -0.00000047
-0.64772832 -0.49142358 -0.00000007
0.01870555 -0.45149332 -0.00000022
0.18201020 0.26418206 0.35075054
-0.06165378 -0.14459892 -0.00000041
0.67522460 -0.52623254 -0.00000031
0.47187406 -0.63058895 -0.00000011
-0.36300454 0.56218815 -0.00000055
-0.12610786 -0.24026608 -0.00000035
-0.54513401 -0.57396841 -0.00000014
0.69726652 -0.74785495 -0.00000007
0.45175099 -0.77214885 -0.00000002
0.59745288 0.13034159 0.07158053
-0.37104681 -0.12621641 -0.00000042
0.11476560 -0.34272522 -0.00000029
-0.61762792 0.23480441 -0.00000023
-0.12229135 -0.20676163 -0.00000037
-0.06884253 -0.30689219 -0.00000031
0.05480728 -0.63513553 -0.00000010
0.24534038 0.33413547 0.21861874
-0.40599486 0.73734659 -0.00000049
-0.43523803 0.09442790 -0.00000041
-0.10816506 -0.52387667 -0.00000017
-0.32986018 0.25652114 -0.00000055
0.55446339 -0.26245457 -0.00000046
-0.47566208 -0.11768126 -0.00000032
-0.47594178 0.22366744 -0.00000039
-0.40919143 -0.26495352 -0.00000033
-0.30406386 -0.44073164 -0.00000022
-0.37713456 0.19414534 -0.00000049
-0.70956224 -0.34223166 -0.00000003
-0.19147323 0.48394677 -0.00000074
0.52931696 -0.46248347 -0.00000022
-0.13326646 0.74575227 -0.00000083
-0.23147140 -0.44401219 -0.00000022
0.15215787 -0.78059858 -0.00000001
0.34355631 -0.41773912 -0.00000024
-0.22868133 -0.41011685 -0.00000024
0.21969388 -0.36499262 -0.00000027
0.12896544 -0.05061498 -0.00000047
0.40349048 -0.79490495 -0.00000000
0.60246420 0.18201885 0.01538108
0.22171123 -0.26933238 -0.00000033
-0.38037479 0.62514740 -0.00000052
0.71674472 -0.39848769 -0.00000049
0.50992954 -0.49490896 -0.00000019
0.59092826 -0.77525222 -0.00000002
0.62049866 -0.40296817 -0.00000038
-0.79743773 0.13936406 -0.00000000
0.08066514 0.63144910 0.08712511
0.79179144 -0.58715546 -0.00000027
-0.22459008 0.11497509 -0.00000057
0.53887033 -0.49730778 -0.00000019
0.22381456 -0.74196213 -0.00000004
-0.26901087 0.47945002 -0.00000065
-0.07885569 -0.04386978 -0.00000047
0.44196221 -0.05936049 -0.00000055
-0.53662229 0.25835922 -0.00000033
-0.16267261 0.13113376 -0.00000058
0.29473722 -0.78995448 -0.00000001
0.22575589 -0.12830913 -0.00000042
-0.25275534 0.29958135 -0.00000064
0.59088665 0.06055651 0.14727306
0.40666720 -0.39894229 -0.00000025
-0.25441942 -0.71671939 -0.00000005
-0.56092328 -0.35792169 -0.00000019
0.52993941 0.11796570 0.15078060
0.59352976 -0.08080733 -0.00000069
0.38601938 -0.63934696 -0.00000010
-0.48865229 0.40079892 -0.00000039
-0.76843005 0.58989656 -0.00000004
-0.19793230 -0.16471326 -0.00000040
0.49592561 -0.16760769 -0.00000050
-0.18786675 0.38624534 -0.00000072
-0.77599365 -0.63185084 0.00000000
-0.54202855 0.66479534 -0.00000032
-0.77104849 0.52672130 -0.00000004
-0.24380416 0.65864193 -0.00000070
-0.30120203 0.02863121 -0.00000052
0.02088805 -0.66303444 -0.00000009
-0.11087726 -0.25615594 -0.00000034
0.72199732 -0.28525740 -0.00000061
-0.47027573 -0.55922562 -0.00000015
-0.38648942 0.58495080 -0.00000052
-0.25751752 0.12117955 -0.00000058
0.64525092 0.10162402 0.05266469
-0.14372529 0.10274955 -0.00000056
-0.18568870 -0.67941046 -0.00000008
0.41764483 -0.11072052 -0.00000047
-0.10681489 -0.59273899 -0.00000013
-0.36686623 -0.17438205 -0.00000039
-0.60722506 -0.04806948 -0.00000020
-0.54895806 0.79165775 -0.00000031
-0.48203599 -0.29326841 -0.00000029
-0.56068337 0.12196207 -0.00000028
0.17002882 -0.42076167 -0.00000024
0.57329321 -0.63364804 -0.00000010
-0.20151111 0.29969344 -0.00000069
0.62523800 -0.22761394 -0.00000057
0.03580426 0.67783743 0.08561053
0.73636723 -0.01667438 -0.00000091
0.68583417 -0.75548077 -0.00000006
-0.73557222 -0.23107392 -0.00000003
0.56746441 -0.40290794 -0.00000032
0.46695068 -0.79830688 -0.00000000
0.76004267 -0.63626516 -0.00000020
0.31009141 -0.77500188 -0.00000002
-0.14139399 0.11943210 -0.00000057
-0.35208303 0.61869454 -0.00000056
0.33401740 0.41065264 0.05485058
0.50861466 -0.50584155 -0.00000018
-0.54450226 0.24627076 -0.00000032
0.30878037 -0.18526024 -0.00000038
-0.12559900 0.01818002 -0.00000051
0.17092475 0.33005297 0.29643825
-0.34040725 -0.23843110 -0.00000035
0.38036299 -0.62505120 -0.00000011
0.76331073 -0.28707603 -0.00000064
0.50160080 -0.01870973 -0.00000066
-0.70551157 -0.52145737 -0.00000001
-0.79503149 -0.44421926 0.00000000
0.55379540 -0.53674209 -0.00000016
-0.52925634 -0.63395298 -0.00000010
-0.39808989 -0.12210968 -0.00000041
0.31293941 0.33678326 0.14897874
0.16296458 -0.29879892 -0.00000031
-0.44606379 -0.60616052 -0.00000012
-0.64868867 -0.23206404 -0.00000012
0.02678153 0.03329042 -0.00000052
-0.44081897 -0.69579595 -0.00000007
-0.59253669 0.41776964 -0.00000026
-0.11950632 0.44964010 -0.00000078
-0.20338622 0.47500128 -0.00000072
-0.73769128 -0.71398938 0.00000000
0.38139677 -0.20065966 -0.00000037
0.18330258 0.22186635 0.39141947
0.48537740 0.31058750 0.00399831
0.74375486 -0.19718716 -0.00000073
0.40047285 0.22552881 0.17249507
0.12312070 0.51666558 0.15882853
-0.20767692 0.79966640 -0.00000074
-0.46470216 0.54069430 -0.00000042
-0.28353572 -0.61110181 -0.00000012
-0.27931717 0.66048133 -0.00000065
0.51699448 0.10052125 0.18090774
-0.35918143 0.29179382 -0.00000052
0.16002038 0.40088367 0.23702955
-0.72484589 0.62477911 -0.00000009
-0.06302472 -0.09039864 -0.00000044
-0.20830683 -0.75880432 -0.00000003
-0.67638958 -0.65015191 -0.00000001
-0.54567242 -0.46037856 -0.00000019
-0.67867845 -0.23390511 -0.00000009
0.72072583 -0.18490155 -0.00000072
0.54645783 -0.42561403 -0.00000028
0.10769652 -0.11772139 -0.00000043
0.13733935 -0.50361913 -0.00000019
0.34447539 0.18633625 0.26686320
-0.67492831 0.27269006 -0.00000016
0.14837161 -0.40646634 -0.00000025
0.43163705 -0.74348390 -0.00000004
0.15308134 -0.49507019 -0.00000019
-0.40607396 -0.03496472 -0.00000041
0.38812646 0.26370233 0.14689077
-0.45524627 -0.22421449 -0.00000033
0.05385803 0.63830733 0.10690144
-0.18849337 -0.10219871 -0.00000044
-0.60721081 0.32910171 -0.00000024
0.34786171 0.43969199 0.01233694
-0.51873022 -0.77835262 -0.00000001
-0.32738638 0.15866251 -0.00000053
-0.23144689 -0.29905653 -0.00000031
-0.07913060 0.54729384 -0.00000084
-0.64337116 0.23878901 -0.00000020
-0.78292179 -0.64691937 0.00000000
-0.24416973 -0.76051164 -0.00000002
-0.62568283 0.27110246 -0.00000022
0.59916872 -0.06550533 -0.00000072
-0.74895895 0.79368222 -0.00000006
0.36976236 0.20563072 0.22266696
0.59560621 0.09205986 0.11136272
-0.16104800 0.15319189 -0.00000060
0.30927581 -0.12039842 -0.00000042
0.62987876 -0.57333767 -0.00000021
-0.10771716 0.64152616 -0.00000086
0.44478455 -0.62364966 -0.00000011
-0.54641730 0.17745702 -0.00000030
-0.35645476 0.63418031 -0.00000055
0.05251657 -0.11282922 -0.00000043
-0.77606899 -0.63033783 0.00000000
0.01273447 0.75603837 0.03095550
-0.36818784 -0.69392842 -0.00000007
-0.47529772 -0.49122572 -0.00000019
-0.17731199 0.78189802 -0.00000078
0.24431626 -0.13942365 -0.00000041
-0.27014464 -0.19926775 -0.00000038
-0.76266998 0.05605889 -0.00000005
0.02377964 0.03656311 -0.00000052
-0.51982617 -0.66773558 -0.00000008
-0.72434545 0.27661115 -0.00000009
-0.42509741 0.18831865 -0.00000043
-0.63044763 -0.75261778 -0.00000003
0.41375437 0.35773605 0.02826160
0.14975913 0.33498213 0.31253433
0.54925835 -0.58892548 -0.00000013
-0.08068165 -0.33991566 -0.00000029
0.60359216 -0.63563854 -0.00000011
-0.43955472 -0.27393940 -0.00000033
-0.37050188 0.51009434 -0.00000054
0.42463410 -0.36862600 -0.00000027
0.79087234 -0.07204910 -0.00000091
-0.77869928 -0.78637093 0.00000000
0.55476677 -0.07640192 -0.00000066
0.11804450 -0.39525318 -0.00000025
0.02766449 -0.05348239 -0.00000047
0.09955502 0.46116257 0.23721401
0.49301440 -0.44628415 -0.00000022
0.73618811 -0.55437589 -0.00000031
0.79131252 -0.73562360 -0.00000008
-0.31409788 0.32163253 -0.00000058
0.61062622 -0.54989994 -0.00000021
0.09566788 -0.32715863 -0.00000030
-0.13519756 0.12128619 -0.00000058
-0.32154328 -0.41320032 -0.00000024
0.17845781 0.29601681 0.32271245
-0.53293979 -0.29341432 -0.00000023
0.50979012 0.24320360 0.04659873
-0.75623298 0.74942142 -0.00000005
0.72493148 -0.50592375 -0.00000037
0.69763774 -0.08187203 -0.00000080
-0.38705137 -0.06833609 -0.00000043
0.64621210 -0.61267281 -0.00000018
0.21026112 -0.10766287 -0.00000043
-0.59969032 0.15221509 -0.00000024
0.18511076 0.53215057 0.08202278
-0.36310983 -0.30090582 -0.00000031
-0.48565727 -0.55821836 -0.00000015
-0.05888036 0.51734161 -0.00000082
-0.69496769 -0.01195266 -0.00000011
0.37695163 0.00334266 -0.00000055
-0.64975488 0.77965558 -0.00000019
0.78023189 -0.04802062 -0.00000093
0.28183374 0.27315709 0.24289249
-0.56093687 -0.27784446 -0.00000020
-0.09519510 0.17732948 -0.00000061
-0.71457958 -0.41500273 -0.00000002
0.55509865 0.23802634 0.00681369
0.46375877 -0.76662564 -0.00000002
0.42545411 0.20546104 0.16762397
0.20374335 -0.40795216 -0.00000025
-0.09065273 -0.77500504 -0.00000002
-0.46494061 0.37056866 -0.00000042
0.24360292 -0.42555696 -0.00000023
-0.18267246 -0.27332470 -0.00000033
0.09654084 -0.74573314 -0.00000003
-0.04942833 -0.17745091 -0.00000039
0.48112872 0.19434056 0.12345425
0.32295132 -0.01770475 -0.00000049
-0.19219396 0.68473631 -0.00000076
-0.10133314 0.21702522 -0.00000064
-0.13604593 0.58246899 -0.00000082
0.23787826 0.41767424 0.14319918
0.11530347 -0.33847922 -0.00000029
-0.56808347 0.73820406 -0.00000029
0.24722283 0.22409679 0.32584068
0.47062841 -0.01178622 -0.00000064
0.30037257 -0.32254750 -0.00000030
0.53682572 -0.09204223 -0.00000062
0.16070932 -0.17735489 -0.00000039
0.10987414 0.65819389 0.03165448
-0.45492783 -0.43492720 -0.00000023
-0.56606138 -0.15418471 -0.00000022
0.00029451 -0.33885387 -0.00000029
-0.44133535 0.37499315 -0.00000045
0.35696805 0.29127368 0.15044688
-0.27279717 -0.75499570 -0.00000003
0.32426307 0.17551190 0.29763165
0.48076662 0.30339426 0.01570048
0.44267485 -0.22709483 -0.00000038
0.70309013 -0.62676364 -0.00000022
0.48969048 -0.11604924 -0.00000055
-0.25149056 -0.14774546 -0.00000041
0.18787859 -0.76020426 -0.00000002
0.09621587 -0.46327269 -0.00000021
0.08015207 -0.04629068 -0.00000047
-0.48679107 -0.04177948 -0.00000033
-0.46026552 -0.30613068 -0.00000031
-0.69078088 0.28394464 -0.00000014
-0.22408716 -0.20021208 -0.00000037
-0.75690430 -0.75241709 0.00000000
0.03472456 0.71134728 0.05346052
0.78804386 -0.73219758 -0.00000008
0.34345114 0.20930117 0.24511205
-0.09683099 0.00971576 -0.00000051
-0.69792318 -0.54976982 -0.00000001
0.13459574 0.00846470 -0.00000051
0.67675471 -0.18236966 -0.00000067
-0.31529486 -0.77683437 -0.00000001
-0.76469409 0.09241684 -0.00000004
0.20711909 0.51109618 0.08107710
-0.28200963 0.30810565 -0.00000061
-0.45928481 -0.47029182 -0.00000021
0.45113239 -0.75240546 -0.00000003
0.39413542 0.24018976 0.16424336
0.31937471 -0.42842552 -0.00000023
-0.20791502 0.76156390 -0.00000074
0.46730801 0.18693973 0.14449267
0.36682832 0.34445375 0.08795045
0.31180570 0.22689334 0.25904375
0.47471532 -0.18263245 -0.00000046
-0.51657820 -0.71354222 -0.00000005
0.33193287 0.12948014 0.33566225
-0.71663517 0.43024787 -0.00000010
-0.03396452 -0.40385219 -0.00000025
0.62770194 0.08472093 0.08681954
-0.15008083 0.03099452 -0.00000052
0.53556395 -0.28549206 -0.00000041
0.52988434 -0.31647229 -0.00000037
0.56100410 0.06957202 0.16796006
-0.52833664 0.78334099 -0.00000034
-0.40006503 -0.15291095 -0.00000040
0.03279095 -0.21345341 -0.00000037
-0.05816411 0.28141087 -0.00000068
-0.63056785 -0.55906856 -0.00000008
0.62582600 0.08321393 0.09017325
0.69100112 -0.00894791 -0.00000087
0.27114850 -0.24633934 -0.00000035
0.62869132 -0.59112871 -0.00000019
0.64618838 -0.10613938 -0.00000072
-0.18721379 -0.00787183 -0.00000050
0.46067354 -0.63503456 -0.00000010
-0.30835488 -0.00394754 -0.00000050
-0.01771642 -0.64467245 -0.00000010
-0.03004359 -0.34593230 -0.00000028
-0.58442885 -0.50975561 -0.00000014
0.06086324 -0.01691001 -0.00000049
-0.25492629 -0.04759200 -0.00000047
0.13460246 -0.35743824 -0.00000028
-0.00837680 -0.57020426 -0.00000014
-0.72052801 0.47109407 -0.00000010
0.69527316 -0.59554070 -0.00000025
0.13006505 0.49972078 0.16874261
0.32833472 -0.49399349 -0.00000019
-0.35689917 -0.28159043 -0.00000032
-0.15297797 0.42608055 -0.00000077
-0.12631229 -0.56126070 -0.00000015
0.09695369 -0.04981041 -0.00000047
0.71326625 -0.18333969 -0.00000071
-0.06492785 0.21481837 -0.00000063
0.18595041 0.24762894 0.36325449
0.17237033 0.34031776 0.28482905
-0.26703453 -0.76863742 -0.00000002
0.60242140 -0.36100313 -0.00000040
-0.04710259 0.52595788 -0.00000083
0.61875457 0.13265771 0.04816652
-0.78584886 -0.62650388 0.00000000
0.22439940 -0.50002909 -0.00000019
-0.22866735 -0.42702508 -0.00000023
-0.04936876 -0.55991817 -0.00000015
-0.40315172 -0.20029926 -0.00000037
0.53109372 -0.13445707 -0.00000057
-0.62138051 0.73453128 -0.00000022
0.37437236 -0.75293869 -0.00000003
-0.64786363 -0.50819236 -0.00000007
0.47928569 -0.38152143 -0.00000026
0.47151572 0.29381180 0.03437132
-0.33602607 -0.74594700 -0.00000003
-0.17925383 -0.27131140 -0.00000033
-0.79898572 -0.29125956 0.00000000
0.51710194 -0.10845801 -0.00000058
0.52104139 -0.06989372 -0.00000063
0.55586350 -0.32033187 -0.00000040
0.37909585 -0.34950244 -0.00000028
0.64480269 -0.14668746 -0.00000068
-0.47733882 0.74178189 -0.00000040
0.50287509 -0.55403411 -0.00000015
-0.05192754 -0.22840329 -0.00000036
-0.43106040 0.62509990 -0.00000046
0.26407477 -0.07248677 -0.00000045
-0.78965294 -0.70806390 0.00000000
-0.72439808 0.59306234 -0.00000009
0.53285486 -0.78664541 -0.00000001
-0.32933900 -0.45188195 -0.00000022
0.75665730 -0.57543504 -0.00000028
0.11892705 -0.66287863 -0.00000009
-0.34518921 -0.43683353 -0.00000023
-0.32996663 0.53627270 -0.00000059
-0.23581971 -0.61231244 -0.00000012
-0.08481333 -0.15657268 -0.00000040
-0.15449309 -0.29225314 -0.00000032
-0.48610049 -0.17740461 -0.00000030
0.36286801 -0.25721428 -0.00000034
-0.36141789 0.06387708 -0.00000048
0.44289672 -0.65937042 -0.00000009
-0.07219649 -0.68373495 -0.00000007
-0.55440223 0.25730693 -0.00000031
0.01413859 -0.01233284 -0.00000049
0.44237709 0.00722759 -0.00000063
-0.72195619 0.31988275 -0.00000010
-0.46417788 0.59112734 -0.00000042
0.50579196 0.11737963 0.17530069
0.45957768 0.14279518 0.19591998
0.43314728 -0.18737957 -0.00000041
0.43206355 0.30481675 0.06257310
-0.04018988 0.46121812 -0.00000079
-0.58884001 0.65957785 -0.00000026
-0.13756773 0.05137154 -0.00000053
0.64939612 -0.62206411 -0.00000018
-0.33777568 -0.75489658 -0.00000003
-0.14553371 0.00527012 -0.00000050
0.50325680 -0.26604891 -0.00000040
-0.78091419 0.41408977 -0.00000002
0.29235718 0.32597473 0.18009864
-0.75445533 0.59954339 -0.00000006
-0.08692799 -0.04387479 -0.00000047
0.31958050 -0.74252552 -0.00000004
0.39353245 0.23160797 0.17334884
0.73649406 -0.20995121 -0.00000071
-0.77772826 -0.34140000 0.00000000
0.52025592 -0.77823931 -0.00000001
-0.56377995 0.35510951 -0.00000030
-0.29081708 0.65352380 -0.00000064
-0.41096422 -0.53027475 -0.00000017
0.07946012 -0.56611764 -0.00000015
0.39758849 -0.30995235 -0.00000031
-0.34599400 0.61343873 -0.00000057
-0.03770752 0.49048188 -0.00000081
-0.03021755 0.79818332 -0.00000096
-0.11888943 0.49798021 -0.00000081
0.34513557 -0.68908429 -0.00000007
0.23591119 0.47061223 0.09266805
-0.63842571 0.14143135 -0.00000020
0.49048406 -0.11408675 -0.00000055
0.03727131 -0.26363751 -0.00000034
-0.48134261 0.20691711 -0.00000038
0.32020459 0.17761421 0.29957089
-0.38541809 -0.19672549 -0.00000038
-0.67419910 0.48809296 -0.00000016
-0.31147000 0.23881128 -0.00000056
-0.64190865 0.39599112 -0.00000020
0.37716019 0.19555169 0.22532503
-0.56207770 0.59612280 -0.00000030
-0.54567552 -0.03576878 -0.00000026
-0.49216488 0.70343137 -0.00000038
-0.64767170 -0.30086178 -0.00000011
0.22744852 -0.63328475 -0.00000010
0.43812820 0.27537104 0.08575243
0.16298963 -0.41350746 -0.00000024
-0.14032793 -0.03222723 -0.00000048
0.27349538 0.23078883 0.29316103
-0.42312723 0.25794655 -0.00000045
-0.30302593 0.16844334 -0.00000056
-0.13339642 -0.36776844 -0.00000027
0.70245409 -0.39891326 -0.00000047
0.54307014 -0.32768270 -0.00000038
0.55977899 -0.03817043 -0.00000070
0.30633843 0.21910810 0.27218172
0.69284517 -0.44476029 -0.00000041
0.45708993 -0.75934738 -0.00000003
-0.64806539 -0.31183428 -0.00000011
-0.63372898 -0.24703103 -0.00000013
-0.04027776 -0.17174236 -0.00000039
-0.64357120 -0.69627106 -0.00000004
-0.34257236 0.74978733 -0.00000057
-0.59825557 -0.15139078 -0.00000019
-0.34931505 -0.23952202 -0.00000035
-0.39788169 -0.14387107 -0.00000040
-0.59493005 -0.23662587 -0.00000018
-0.10529365 -0.67366314 -0.00000008
-0.39599034 -0.37952617 -0.00000026
-0.18118323 -0.07653467 -0.00000045
-0.40960249 -0.11788101 -0.00000039
-0.67948449 0.00383317 -0.00000013
0.17707878 -0.58841211 -0.00000013
-0.65518028 0.19806913 -0.00000018
-0.71656048 0.32357734 -0.00000010
0.53775072 -0.22896250 -0.00000048
0.40849203 0.13137285 0.25788859
0.17791504 0.27600777 0.34308672
0.60171431 -0.73247361 -0.00000004
-0.71440899 -0.49524641 -0.00000000
-0.44865349 -0.51546443 -0.00000018
0.54364228 0.23210119 0.02404524
-0.62057555 0.21353972 -0.00000022
0.73298472 -0.11090942 -0.00000081
-0.06589725 0.25571969 -0.00000066
0.17113303 0.36997566 0.25665396
-0.36528274 0.64548326 -0.00000054
0.65685558 -0.25174409 -0.00000058
-0.45191810 0.24600302 -0.00000042
-0.75046438 -0.78718609 0.00000000
0.47285590 0.00585714 -0.00000066
0.09884688 -0.15134420 -0.00000041
-0.63641626 -0.79400975 -0.00000000
-0.52306718 0.62894177 -0.00000035
0.26933661 -0.67972225 -0.00000008
-0.07996487 0.40264601 -0.00000075
-0.47691870 0.64921087 -0.00000040
-0.29214755 -0.62401301 -0.00000011
0.08383455 -0.31657442 -0.00000030
0.24736714 -0.14043993 -0.00000041
