ply
format ascii 1.0
element vertex 1154
property float x
property float y
property float z
end_header
-0.16713335 -0.27464601 0.00000265
-0.31853309 0.03098003 0.15974638
-0.31934136 -0.19667839 0.00000381
-0.40984628 -0.68357635 0.00000284
-0.06776232 0.28313822 0.00000850
-0.34445477 -0.03159455 0.01099403
-0.33135554 0.40570441 -0.12570925
-0.43710747 -0.33628795 0.00000409
-0.07657951 0.55141532 0.00000602
-0.03923146 -0.60904145 0.00000083
-0.31590945 0.03730791 0.31470704
-0.27217257 0.14290246 0.21047857
-0.09956266 0.55962527 0.09579068
-0.19199094 0.33648035 0.16469681
-0.23787390 -0.03088364 0.00000384
-0.32733524 -0.64709330 0.00000245
-0.11247262 0.26398405 0.00000799
-0.04617206 0.37771016 0.00000800
-0.19004162 -0.73417854 0.00000135
-0.13681257 0.34769735 0.00000689
-0.41891998 -0.21138234 0.32048064
-0.52381819 -0.49577680 0.00000411
-0.36987659 -0.51555932 0.00000312
-0.00181231 0.54085666 0.00000724
-0.14818785 -0.53405952 0.00000173
-0.18424323 -0.28083017 0.00000273
-0.43457362 -0.38586864 0.00000392
-0.39976996 -0.16515362 0.41016170
-0.06485628 0.02622823 0.00001079
-0.31629285 0.03638737 0.18845481
-0.52618724 -0.47034162 0.13648787
-0.21393508 -0.55955625 0.00000204
-0.10468178 -0.15313801 0.00000265
-0.32562912 0.01384988 0.12968588
-0.12561752 -0.18812689 0.00000267
-0.21745954 0.27499214 0.19935247
-0.18517071 0.35294992 0.06440703
-0.19206117 0.33631265 0.11862656
-0.24119200 -0.00787776 0.00000393
-0.38106924 -0.12000530 0.39400408
-0.53280121 -0.48630714 0.08347954
-0.23014539 0.02067356 0.00000835
-0.51486272 -0.69893605 0.00000342
-0.42416638 -0.22404478 0.23295869
-0.34431130 -0.03125855 0.26914325
-0.61586678 -0.68684542 0.18299203
-0.09785451 -0.22619767 0.00000238
-0.04859623 0.02630073 0.00001104
-0.46810883 -0.33012694 0.11991375
-0.39544129 -0.15469117 0.11034494
-0.05180218 0.28125656 0.00000876
-0.38760480 -0.13576932 0.03893040
-0.01193570 -0.46027026 0.00000113
-0.20802170 0.29777929 0.14746881
-0.14197360 -0.11016798 0.00000301
-0.36850056 -0.52407265 0.00000309
-0.26741156 -0.64390624 0.00000210
-0.23401202 -0.36664760 0.00000277
-0.17055930 0.29535925 0.00000684
-0.23008572 0.24451032 0.18617538
-0.16323385 -0.20687991 0.00000284
-0.07942820 0.60139912 0.00000554
-0.18494013 0.35350117 0.19969264
-0.51254904 -0.43742046 0.27747864
-0.37492338 -0.10516004 0.20009114
-0.44918010 -0.28442681 0.06987147
-0.26964846 -0.12188947 0.00000375
-0.29632157 0.08460005 0.24629419
-0.30688170 0.05911315 0.05786368
-0.46155429 -0.31430155 0.08798019
-0.13274010 -0.66114986 0.00000124
-0.49834335 -0.60259926 0.00000362
-0.36803436 -0.08853199 0.28698996
-0.41476557 -0.20135537 0.38701752
-0.42482617 -0.22563300 0.11615632
-0.29906714 -0.79698563 0.00000181
-0.65383017 -0.77849478 0.05807909
-0.34518889 -0.03337214 0.14110988
-0.38104436 -0.23454632 0.00000407
-0.39168254 -0.25105494 0.00000408
-0.27458045 -0.60860819 0.00000226
-0.14280649 -0.27443901 0.00000250
-0.43734935 -0.25586939 0.18433052
-0.44749770 -0.28036502 0.06584993
-0.24677917 0.20421129 0.12081171
-0.10042720 0.55754131 0.01408212
-0.02793661 0.12684365 0.00001047
-0.46213666 -0.31571394 0.24664277
-0.11414255 -0.77762514 0.00000076
-0.49047318 -0.38411701 0.06002631
-0.34244379 -0.02674304 0.09573581
-0.40663284 -0.66215771 0.00000288
-0.22042799 0.26782969 0.09963630
-0.55602282 -0.54237235 0.16295438
-0.36418927 -0.07924672 0.22784130
-0.09866288 0.40431610 0.00000697
-0.60412866 -0.78500700 0.00000369
-0.33601573 -0.01122791 0.18653944
-0.06824515 -0.24313487 0.00000215
-0.28118953 -0.32759693 0.00000317
-0.21382952 -0.31267989 0.00000281
-0.53236973 -0.58209372 0.00000389
-0.04996297 -0.58377379 0.00000098
-0.13017549 -0.55278659 0.00000156
-0.20025793 0.31652564 0.07427882
-0.63919175 -0.74315542 0.14381780
-0.01663611 -0.34575799 0.00000152
-0.36522403 -0.16692096 0.00000418
-0.00150264 0.70682555 0.00000579
-0.10295032 0.55145001 0.01355921
-0.29851252 0.07931004 0.26107299
-0.43874070 -0.62863159 0.00000318
-0.25989231 0.17254762 0.26307371
-0.41833723 -0.57514453 0.00000323
-0.00392350 -0.20356205 0.00000189
-0.60674447 -0.66482145 0.06076081
-0.10498484 -0.75543886 0.00000077
-0.03792124 0.38350904 0.00000807
-0.42350501 -0.22243929 0.01411390
-0.37975800 -0.11683954 0.38920262
-0.50364864 -0.66074699 0.00000347
-0.40168145 -0.39835674 0.00000368
-0.62857002 -0.71751231 0.04154734
-0.44486913 -0.72128087 0.00000293
-0.14433226 0.45154369 0.04417210
-0.25837967 0.17620520 0.11913227
-0.33008796 -0.47291559 0.00000301
-0.44212192 -0.26738611 0.05087208
-0.24712390 -0.64817369 0.00000197
-0.18307362 -0.45697403 0.00000218
-0.06299610 -0.37013334 0.00000172
-0.35778716 -0.06378614 0.11595676
-0.00406411 -0.17509001 0.00000198
-0.07566489 0.49026921 0.00000657
-0.09741821 0.56480610 0.00404207
-0.16030689 0.41297770 0.03733440
-0.17044549 0.33862320 0.00000647
-0.06149954 0.65152150 0.00742725
-0.11260779 0.10559491 0.00000938
-0.30621049 0.06072881 0.17790778
-0.29010150 -0.64639616 0.00000223
-0.08164993 0.25331685 0.00000855
-0.35406539 -0.05481158 0.38032860
-0.02454155 0.54981583 0.00000682
-0.10943327 -0.29407412 0.00000224
-0.05653681 -0.19609381 0.00000223
-0.25557497 0.18297064 0.26209286
-0.18875006 -0.37290299 0.00000247
-0.45670590 -0.30260307 0.25174326
-0.15850575 -0.63085026 0.00000149
-0.52057481 -0.45678857 0.05137441
-0.33444500 -0.00743954 0.27758923
-0.48277739 -0.36554328 0.19998702
-0.43302584 -0.44510356 0.00000372
-0.38649035 -0.49531937 0.00000328
-0.25051087 0.19519912 0.19680229
-0.11489022 0.52262068 0.10756313
-0.32292143 0.01683619 0.00000698
-0.00696065 -0.26943716 0.00000162
-0.58675122 -0.61655587 0.19460577
-0.04429800 0.69304943 0.01656247
-0.23859480 0.20839620 0.00000658
-0.14738750 -0.62883663 0.00000142
-0.53746051 -0.72819221 0.00000347
-0.18907039 -0.33724523 0.00000259
-0.58120322 -0.60315806 0.03073197
-0.39820069 -0.16135208 0.08713709
-0.07411154 0.36625001 0.00000768
-0.38943896 -0.14019771 0.04759466
-0.25015199 0.19606736 0.15160109
-0.26305699 -0.65613061 0.00000204
-0.33380768 -0.27376097 0.00000366
-0.61535257 -0.68560398 0.17843802
-0.48671278 -0.37627983 0.00000426
-0.28010616 0.12375239 0.12771855
-0.09373039 0.48859155 0.00000631
-0.15403900 0.42810598 0.13223374
-0.27272895 0.07990124 0.00000719
-0.44860905 -0.28304678 0.03352076
-0.19084398 -0.55500627 0.00000192
-0.36214539 -0.07431119 0.20020624
-0.32388312 0.01806339 0.17343587
-0.18362935 -0.14772603 0.00000315
-0.35986853 -0.06881166 0.13355014
-0.24039122 0.21962962 0.21049216
-0.25270826 -0.52156138 0.00000240
-0.26238909 -0.48842761 0.00000256
-0.36491975 -0.08100589 0.11921586
-0.12741460 0.32549238 0.00000723
-0.49495894 -0.39494932 0.12790307
-0.10018051 0.22377820 0.00000853
-0.34654304 -0.56129831 0.00000284
-0.63828582 -0.74096680 0.00323272
-0.01301803 -0.53588527 0.00000090
-0.05177254 -0.76741368 0.00000041
-0.03317089 0.59082997 0.00000633
-0.47293007 -0.34177202 0.25677788
-0.48529482 -0.37162033 0.18515168
-0.46445408 -0.41888300 0.00000399
-0.35939562 -0.06767036 0.14293171
-0.11500988 -0.48747107 0.00000167
-0.14561830 -0.15803140 0.00000289
-0.07127422 -0.41181016 0.00000164
-0.60703033 -0.66551280 0.20318702
-0.28205991 -0.04342469 0.00000407
-0.41506082 -0.20205572 0.07740207
-0.51221949 -0.50577152 0.00000401
-0.08126509 0.38667411 0.00000739
-0.23570202 -0.10177045 0.00000360
-0.33615977 -0.01157356 0.13466194
-0.35536209 -0.05793342 0.16541727
-0.54584616 -0.60418630 0.00000391
-0.46023092 -0.31111655 0.35979685
-0.13984050 -0.61253083 0.00000143
-0.39774424 0.32848781 -0.15144882
-0.42364538 -0.50739264 0.00000347
-0.21769008 -0.10544780 0.00000348
-0.46982205 -0.33426341 0.12881026
-0.61335170 -0.68077093 0.01625189
-0.44101357 -0.73027241 0.00000288
-0.40312633 -0.17325734 0.42809239
-0.32517853 0.01493109 0.29431358
-0.13030067 -0.04713456 0.00000314
-0.09864560 0.31612438 0.00000775
-0.30920494 0.05350289 0.09385710
-0.26627290 -0.56088072 0.00000235
-0.34616566 -0.03573387 0.23120604
-0.09578908 -0.67771459 0.00000096
-0.33645943 -0.33460131 0.00000349
-0.66343898 -0.80169195 0.03947861
-0.08961366 0.27515900 0.00000824
-0.18302371 -0.18039013 0.00000304
-0.05532888 0.47532874 0.00000701
-0.00478485 -0.32746145 0.00000151
-0.39239097 -0.14733452 0.29485691
-0.11921018 -0.55431795 0.00000149
-0.46854949 -0.33119872 0.31638122
-0.26581156 -0.41679412 0.00000280
-0.24255097 -0.14250447 0.00000352
-0.26756766 0.15402722 0.02388028
-0.21686466 -0.05718117 0.00000363
-0.01748929 0.74229568 0.00000524
-0.32050240 0.02623038 0.04313507
-0.59330392 -0.66696519 0.00000400
-0.02534710 0.14617650 0.00001034
-0.66623610 -0.80844468 0.09416120
-0.06555801 0.02566242 0.00001079
-0.41373026 -0.76768482 0.00000260
-0.33745861 -0.32154933 0.00000353
-0.08607057 -0.11740172 0.00000265
-0.53736722 -0.49732864 0.03788113
-0.19963367 0.31802729 0.21304749
-0.15171769 0.61900920 -0.05741567
-0.44486281 -0.27400616 0.12540127
-0.27546829 0.13495307 0.03297736
-0.40079266 -0.16761100 0.12107840
-0.57213295 -0.58126408 0.12172828
-0.33071426 -0.52909082 0.00000284
-0.28718030 0.10666725 0.29189453
-0.09777743 0.42029920 0.00000685
-0.45664912 -0.30246609 0.25408718
-0.64915830 -0.76721621 0.14288045
-0.09582263 -0.64909852 0.00000105
-0.03638686 -0.02412244 0.00000264
-0.15199202 -0.07745410 0.00000318
-0.31514785 -0.76796025 0.00000200
-0.18586199 -0.48480344 0.00000211
-0.10822297 -0.07540067 0.00000292
-0.13817678 -0.72238028 0.00000108
-0.41610429 -0.46443096 0.00000356
-0.69724411 -0.06248347 -0.25435916
-0.26045373 0.17119765 0.12820922
-0.00313977 0.79241502 0.00127283
-0.21572576 0.27918148 0.11043799
-0.64011043 -0.74537212 0.01118836
-0.15656874 -0.49757880 0.00000189
-0.41395754 -0.19939066 0.04032873
-0.17408998 -0.31716737 0.00000256
-0.28388715 0.11461881 0.26222774
-0.64165026 -0.74909055 0.08866083
-0.02729624 0.30100444 0.00000895
-0.26027656 -0.20780253 0.00000342
-0.15138774 0.43450817 0.09534831
-0.48082626 0.23385109 -0.18427905
-0.32134303 -0.19470190 0.00000383
-0.09915731 0.56060690 0.02013658
-0.06657024 0.63927817 0.04683882
-0.59607553 -0.67047995 0.00000400
-0.02662810 0.08668251 0.00001084
-0.44193828 -0.26694101 0.00870077
-0.22551611 -0.10528800 0.00000353
-0.29897514 0.00912061 0.00000741
-0.21631163 -0.68373424 0.00000167
-0.23742770 -0.55884671 0.00000219
-0.25056240 0.19507326 0.23279645
-0.24467045 -0.41424516 0.00000268
-0.58446437 -0.76807898 0.00000363
-0.45891237 -0.30792680 0.17198831
-0.30267933 0.06925230 0.21501219
-0.30931553 0.05323470 0.12415533
-0.19202001 -0.20919731 0.00000301
-0.48697403 -0.37567851 0.29137114
-0.51556981 0.17231818 -0.19120339
-0.17613307 -0.31371376 0.00000258
-0.19732957 0.17266116 0.00000751
-0.34014490 -0.41162533 0.00000327
-0.22764596 -0.66973811 0.00000178
-0.21341133 -0.08918399 0.00000351
-0.05351591 -0.66572893 0.00000074
-0.44793767 -0.28143165 0.17640992
-0.19108689 -0.28384680 0.00000277
-0.02285544 0.67422944 0.00000576
-0.04357299 -0.36418116 0.00000162
-0.00902668 0.77820247 0.00891829
-0.07938295 0.60834438 0.07345356
-0.12279811 0.01535902 0.00001001
-0.27001023 0.14812613 0.12888345
-0.31193551 0.04690149 0.32341635
-0.11417391 -0.19296955 0.00000259
-0.40449324 -0.30643025 0.00000398
-0.46557450 -0.32401374 0.25010857
-0.35825461 -0.66674203 0.00000258
-0.20582569 0.21013080 0.00000706
-0.52428818 -0.54804754 0.00000395
-0.33961576 -0.79252952 0.00000207
-0.23132516 -0.07237394 0.00000367
-0.39728984 -0.15915376 0.10500352
-0.24819764 -0.55456758 0.00000226
-0.43380031 -0.24730463 0.26769683
-0.49728659 -0.40057456 0.27152991
-0.61645305 -0.68826002 0.06059224
-0.25534886 0.10554375 0.00000722
-0.01269600 -0.70910722 0.00000036
-0.44006807 -0.53322738 0.00000349
-0.20888297 0.29570541 0.01295624
-0.33191386 -0.64735323 0.00000248
-0.50803763 0.19556458 -0.19277230
-0.03825331 0.48836869 0.00000715
-0.27778420 -0.66305703 0.00000210
-0.39300290 -0.68203640 0.00000274
-0.06153030 -0.72174519 0.00000062
-0.46989164 -0.57920176 0.00000353
-0.05307644 0.12248570 0.00001013
-0.42796856 -0.23322794 0.32900679
-0.24004093 0.22047867 0.12685832
-0.11411808 -0.58401924 0.00000136
-0.31122404 0.04862536 0.16843444
-0.37163797 -0.32237595 0.00000374
-0.18470334 0.35407734 0.08702959
-0.30337173 0.06758040 0.22305854
-0.57865644 -0.59701395 0.22805680
-0.27460200 0.13703728 0.21144845
-0.07276797 0.03109364 0.00001063
-0.49926177 -0.40533987 0.19125359
-0.11012653 -0.26226029 0.00000235
-0.27143472 0.14468925 0.07435286
-0.04473259 0.55966276 0.00000643
-0.41652709 -0.20559733 0.11938090
-0.43521133 -0.25070772 0.18252000
-0.08231414 0.33641949 0.00000781
-0.51559317 -0.78499365 0.00000316
-0.30208096 0.07069924 0.15556578
-0.20154309 0.15039760 0.00000764
-0.39488050 -0.48644555 0.00000336
-0.18822169 0.03039544 0.00000889
-0.44285378 -0.26916093 0.24805601
-0.41046667 -0.19096512 0.09473261
-0.02881893 0.28649420 0.00000906
-0.14888802 -0.09792927 0.00000309
-0.12388808 -0.36124337 0.00000212
-0.56013286 -0.79870933 0.00000338
-0.24264976 0.21418378 0.04222621
-0.36557755 -0.08259872 0.23854753
-0.29061675 0.45680812 -0.11106743
-0.20345911 -0.79759997 0.00000124
-0.31354377 -0.45328563 0.00000298
-0.16312537 -0.33247194 0.00000245
-0.37835941 -0.61054111 0.00000288
-0.47219732 -0.33999377 0.02785352
-0.31556851 -0.62999237 0.00000244
-0.15114702 0.43509069 0.06055067
-0.66188890 -0.79794979 0.09087671
-0.50612473 -0.47388372 0.00000407
-0.24788059 -0.25614867 0.00000320
-0.25109184 0.19379444 0.24868140
-0.27629665 0.13294365 0.27065885
-0.24643078 -0.45553136 0.00000256
-0.10317848 -0.21479636 0.00000245
-0.15994574 -0.49585423 0.00000192
-0.32736921 -0.36713043 0.00000333
-0.32701549 -0.15888406 0.00000398
-0.41739386 -0.56821275 0.00000324
-0.21977653 -0.58335358 0.00000200
-0.11284006 -0.11401282 0.00000282
-0.03016846 0.58412558 0.00000643
-0.03294118 0.72046763 0.00832585
-0.62996703 -0.72088557 0.12817167
-0.38659662 -0.13334724 0.33548686
-0.19525824 0.32859242 0.16332556
-0.37666574 -0.10936495 0.16088881
-0.00090708 -0.18268058 0.00000193
-0.59725851 -0.64192212 0.12167290
-0.64875138 -0.76623380 0.13432492
-0.19003810 0.34119833 0.08029898
-0.00390596 -0.14268778 0.00000208
-0.22720580 0.25146866 0.04801797
-0.12235751 -0.02286794 0.00000317
-0.12066022 -0.30386239 0.00000228
-0.25626409 -0.58500528 0.00000222
-0.00784603 0.43066385 0.00000811
-0.42789611 0.26995087 -0.15586627
-0.48542339 -0.37193501 0.30570191
-0.59651852 0.09339040 -0.22730589
-0.34111056 -0.55199087 0.00000283
-0.29356718 -0.39530101 0.00000304
-0.65534014 -0.01338559 -0.23822334
-0.02995909 -0.60884196 0.00000078
-0.58129466 -0.77508032 0.00000359
-0.03730345 0.18005806 0.00000986
-0.29546618 0.00815951 0.00000747
-0.40125751 -0.51757967 0.00000330
-0.43485227 0.26870176 -0.16068351
-0.53627294 0.12937014 -0.19338275
-0.18380059 0.35625941 0.02099220
-0.57650489 -0.59181774 0.09311344
-0.10061012 0.41806030 0.00000682
-0.16109385 -0.76157731 0.00000109
-0.22586487 0.25470325 0.11536054
-0.53375524 -0.48861426 0.18220116
-0.20867155 0.12445470 0.00000776
-0.51814526 -0.45092696 0.14679354
-0.15947045 -0.63891041 0.00000147
-0.31193054 0.04692262 0.09703988
-0.18913224 -0.50557512 0.00000206
-0.41792366 -0.58294469 0.00000320
-0.18823946 -0.09115733 0.00000335
-0.30875850 0.05457938 0.12792297
-0.23519211 -0.71075016 0.00000170
-0.22164041 -0.55305529 0.00000211
-0.56666875 -0.65038598 0.00000389
-0.42443913 -0.22469702 0.07785899
-0.37937042 -0.11589857 0.25819844
-0.05704036 0.58520895 0.00000602
-0.27949715 -0.16286540 0.00000368
-0.51430386 -0.52799976 0.00000395
-0.28131947 0.12082059 0.19191124
-0.16992991 -0.62294263 0.00000158
-0.39877611 -0.51608974 0.00000329
-0.55005401 0.10521763 -0.19620822
-0.17194571 0.38487372 0.17028631
-0.22063690 -0.17633003 0.00000328
-0.41393742 -0.19934230 0.04459350
-0.39037138 -0.14245439 0.18628617
-0.52964604 -0.47868663 0.00631207
-0.48151717 -0.46058872 0.00000397
-0.23714009 -0.13192138 0.00000352
-0.51526636 -0.44397274 0.05071968
-0.20097931 0.31478053 0.16281144
-0.15396421 0.22938477 0.00000767
-0.27282467 -0.46785831 0.00000268
-0.46058103 -0.31195819 0.24393135
-0.06009375 -0.41588303 0.00000156
-0.48901105 -0.38058513 0.01192557
-0.14464132 0.45079714 0.05435640
-0.13502821 0.03151823 0.00000969
-0.38630551 -0.51594168 0.00000322
-0.12340954 0.50205445 0.07569085
-0.10947083 -0.06130060 0.00000297
-0.24645919 0.20498033 0.20828056
-0.36003646 -0.37752414 0.00000349
-0.39876840 -0.48814312 0.00000338
-0.46485427 -0.43576834 0.00000394
-0.71233582 -0.09494743 -0.25558946
-0.27034098 -0.16404025 0.00000362
-0.02086363 -0.39361259 0.00000140
-0.12563127 -0.77138644 0.00000085
-0.46609089 -0.32525298 0.06446741
-0.39112997 -0.14429460 0.40604618
-0.51873988 -0.45235986 0.08277485
-0.30912343 -0.64973551 0.00000234
-0.29608127 0.08518450 0.13859995
-0.25329486 -0.49336743 0.00000249
-0.48740199 -0.58766001 0.00000361
-0.27009973 -0.56477958 0.00000237
-0.12537289 0.49731413 0.08530543
-0.02574788 0.30823079 0.00000891
-0.33968675 -0.02008332 0.00515781
-0.10326834 0.55068272 0.00075247
-0.28697297 0.03298865 0.00000738
-0.27302295 0.01876940 0.00000772
-0.25414464 0.18643346 0.02064291
-0.37845236 -0.11367621 0.10991697
-0.14922597 0.43357107 0.00000595
-0.32784423 -0.45207515 0.00000307
-0.05171356 0.41200539 0.00000761
-0.54231364 -0.50927240 0.08887881
-0.25491855 0.18456262 0.08130939
-0.08685850 -0.33552697 0.00000198
-0.11737298 0.51662648 0.11504450
-0.22741581 0.25095993 0.09092698
-0.25761992 -0.73675144 0.00000175
-0.28012335 -0.68380272 0.00000205
-0.53734207 -0.49727467 0.25435984
-0.55662477 -0.77885520 0.00000343
-0.56502664 -0.56410426 0.03138890
-0.36321589 -0.58987045 0.00000285
-0.42480946 -0.22559710 0.22665484
-0.02254110 -0.07638137 0.00000240
-0.07054955 0.20456627 0.00000915
-0.22216247 -0.52806425 0.00000219
-0.10964677 0.53528297 0.02241403
-0.14014027 0.06052519 0.00000936
-0.41900846 -0.67078745 0.00000293
-0.37550008 -0.10655927 0.37194827
-0.27126032 -0.73092800 0.00000185
-0.58547568 -0.61347657 0.14770700
-0.43772757 -0.25678772 0.31381476
-0.20110142 0.31448767 0.11422899
-0.35767585 -0.07564397 0.00000442
-0.13972050 -0.69283181 0.00000118
-0.13553092 0.26797441 0.00000761
-0.30052039 -0.30592945 0.00000336
-0.10208350 0.30880880 0.00000776
-0.59307677 -0.63182610 0.09769273
-0.17310692 0.23449925 0.00000734
-0.04700815 0.20473129 0.00000950
-0.16975489 -0.22582997 0.00000282
-0.49348789 -0.39139900 0.15592168
-0.52178198 -0.57856953 0.00000384
-0.38602406 -0.40721989 0.00000356
-0.41876543 -0.25893638 0.00000422
-0.71110487 -0.07315641 -0.26142147
-0.14311062 -0.70081568 0.00000117
-0.21290216 0.28599879 0.09737943
-0.52330035 -0.46337080 0.10584505
-0.04712310 0.68622839 0.03237240
-0.25586662 0.14903711 0.00000684
-0.25293842 0.18933779 0.21398865
-0.39523813 -0.17295752 0.00000434
-0.08805460 0.31998551 0.00000787
-0.57604086 -0.59069878 0.12658405
-0.02897386 0.37892646 0.00000825
-0.43838197 -0.39150754 0.00000392
-0.42071393 -0.24242748 0.00000428
-0.16229621 0.40817356 0.07494672
-0.25622904 0.18139903 0.07624295
-0.04157666 -0.45866275 0.00000132
-0.09374609 0.57366908 0.06241925
-0.08933671 -0.17997943 0.00000248
-0.00962858 0.69303972 0.00000579
-0.04446681 -0.15871972 0.00000227
-0.38061371 -0.11890173 0.29904944
-0.36492467 -0.50243860 0.00000313
-0.01266940 -0.46192321 0.00000113
-0.21831708 0.12028773 0.00000765
-0.19113871 0.33853671 0.19238685
-0.39545053 -0.15471125 0.05461847
-0.42273524 0.26306963 -0.14987254
-0.23231162 -0.11593943 0.00000354
-0.45744875 -0.30438665 0.00607949
-0.27535141 -0.56590319 0.00000239
-0.28498021 0.44167051 -0.10215911
-0.22343086 0.26058155 0.06381666
-0.23693638 0.18831529 0.00000678
-0.28409261 0.11412178 0.28770620
-0.62041342 -0.69782162 0.08127457
-0.45746103 0.21949589 -0.16234928
-0.43836096 -0.25831825 0.34906334
-0.25378713 -0.12805001 0.00000363
-0.02221765 0.02672206 0.00001143
-0.26949039 0.14938170 0.11434880
-0.35031223 -0.04573938 0.10163891
-0.08023930 0.60627854 0.03451091
-0.18215044 -0.25473151 0.00000280
-0.40687701 -0.18230671 0.28904313
-0.35981464 -0.06867714 0.02329931
-0.55742246 -0.54574889 0.10280202
-0.27677891 -0.35539326 0.00000306
-0.08951847 0.22638361 0.00000867
-0.25172040 -0.29852688 0.00000309
-0.26101151 0.16985092 0.13162702
-0.56059515 -0.55341119 0.23317850
-0.30812681 0.05610866 0.02183278
-0.58065242 -0.67264521 0.00000390
-0.17693536 0.37283024 0.10480653
-0.27397034 -0.32545382 0.00000314
-0.00709660 -0.32219949 0.00000154
-0.24608389 0.17932922 0.00000672
-0.43702403 -0.71625733 0.00000290
-0.10626329 -0.39319250 0.00000191
-0.18569481 0.11074427 0.00000823
-0.10295719 -0.12272337 0.00000274
-0.11026138 -0.51842546 0.00000155
-0.11983773 -0.75705320 0.00000086
-0.54533583 -0.51656890 0.09559134
-0.51381457 0.18830797 -0.19484553
-0.37863573 -0.35623303 0.00000367
-0.13841516 -0.73919666 0.00000103
-0.27077314 0.14628746 0.04963886
-0.55787772 -0.54684520 0.03108998
-0.17522395 -0.36607063 0.00000241
-0.57553077 -0.58946401 0.04334690
-0.40289849 -0.17270304 0.32278973
-0.09644148 -0.66815478 0.00000099
-0.10364516 -0.00580625 0.00000311
-0.45306978 -0.29381531 0.01899250
-0.47804752 -0.35412371 0.18384244
-0.55816823 -0.54754943 0.10354267
-0.11693200 -0.71424407 0.00000097
-0.20371605 0.30817395 0.14976741
-0.13530102 0.03910755 0.00000962
-0.44427648 -0.27259073 0.12683991
-0.06109689 -0.23576681 0.00000213
-0.21745342 -0.16248757 0.00000330
-0.00034688 0.11141016 0.00001102
-0.54710585 -0.64439344 0.00000379
-0.47280324 -0.34146407 0.21432164
-0.43812305 -0.25774443 0.36138928
-0.31528789 0.03880767 0.33467463
-0.44634348 -0.27758828 0.31008339
-0.39221016 -0.14689118 0.12566458
-0.33452421 -0.46503884 0.00000307
-0.31790307 -0.60192943 0.00000254
-0.23893878 0.06244982 0.00000785
-0.39849615 -0.34426326 0.00000383
-0.08288372 -0.09371724 0.00000271
-0.48732945 -0.37653655 0.30843771
-0.10838276 0.29188514 0.00000781
-0.13496326 -0.55268544 0.00000159
-0.04397075 -0.28389931 0.00000188
-0.41619974 -0.20481168 0.23587298
-0.33012310 0.00300379 0.04697124
-0.39514124 -0.15396690 0.11175782
-0.40759298 -0.18402797 0.10785345
-0.10619169 0.23852126 0.00000831
-0.53359270 -0.65462190 0.00000367
-0.42825368 -0.50626713 0.00000350
-0.26458570 -0.52382237 0.00000246
-0.37672037 -0.10949506 0.11696984
-0.48078406 -0.36072412 0.02899157
-0.37402233 -0.34120861 0.00000369
-0.50135761 -0.41039333 0.03361831
-0.51468879 -0.44258127 0.12181222
-0.31848022 0.03110805 0.15081608
-0.09688135 -0.48966852 0.00000155
-0.28829649 -0.55207813 0.00000251
-0.27312124 0.14061563 0.12406472
-0.35796908 -0.41841677 0.00000335
-0.49165171 -0.70143056 0.00000328
-0.54213959 0.15454113 -0.20557266
-0.45652980 -0.30217889 0.27560014
-0.50191146 -0.41173971 0.30121753
-0.35665864 -0.06105781 0.02122962
-0.23658486 0.22882579 0.04206324
-0.42629749 -0.37276340 0.00000391
-0.39528447 -0.36949846 0.00000373
-0.06496935 -0.14832859 0.00000243
-0.11094307 -0.31394553 0.00000219
-0.35818705 -0.41738784 0.00000336
-0.41043499 -0.47442931 0.00000349
-0.12923031 -0.69152200 0.00000112
-0.53376865 -0.48864153 0.05338192
-0.06016510 -0.50072557 0.00000130
-0.33582738 -0.01077393 0.20442741
-0.54617101 -0.51858586 0.11309769
-0.26544702 -0.42561966 0.00000277
-0.62149221 -0.70042610 0.17930444
-0.23470089 -0.23702338 0.00000318
-0.54147810 -0.71300048 0.00000354
-0.05910841 0.23499291 0.00000905
-0.18560979 0.35189012 0.05857241
-0.35753152 -0.16670272 0.00000414
-0.32786718 0.00844610 0.14577968
-0.31720707 0.03418299 0.11869907
-0.06996048 0.63109237 0.07245420
-0.42548275 -0.55409688 0.00000334
-0.02058623 -0.32423940 0.00000161
-0.06190163 -0.27331465 0.00000202
-0.13263591 -0.38882613 0.00000209
-0.34328753 -0.09779261 0.00000427
-0.12907083 0.48838863 0.03131795
-0.26670572 -0.43947712 0.00000274
-0.31674013 -0.12120951 0.00000403
-0.37042335 -0.09429038 0.05927633
-0.21041946 -0.11810625 0.00000340
-0.34456116 -0.03185914 0.20374794
-0.57143617 -0.57958311 0.22624972
-0.28588292 0.10980464 0.16127782
-0.27116460 0.14533719 0.17891823
-0.36645824 -0.08471581 0.01239481
-0.52135557 -0.47553456 0.00000416
-0.52985519 -0.47920018 0.28530565
-0.08690928 -0.67546928 0.00000091
-0.13850836 0.15862010 0.00000852
-0.32507259 -0.25578028 0.00000366
-0.37747422 -0.24198455 0.00000402
-0.01928087 -0.33869353 0.00000156
-0.10470997 0.13608050 0.00000923
-0.64470702 -0.75647008 0.08657115
-0.36904523 -0.09097339 0.31158286
-0.58795130 -0.61945307 0.18648171
-0.24069382 0.21890493 0.06492986
-0.67766398 -0.83603334 0.10539988
-0.05548925 0.18422183 0.00000955
-0.24786961 -0.71681464 0.00000176
-0.02272334 0.72764450 0.00000529
-0.47135773 -0.33797324 0.18735668
-0.20714623 0.29989600 0.06969727
-0.28618047 0.10908890 0.09635953
-0.17354350 0.38101560 0.18734759
-0.16403508 0.36870661 0.00000630
-0.59730881 -0.64204222 0.07280686
-0.24746063 0.20256940 0.03949120
-0.06975021 0.63160008 0.07018163
-0.53165054 -0.48352680 0.02495667
-0.03432015 -0.18585327 0.00000213
-0.43559870 -0.41096765 0.00000384
-0.62269175 0.04627451 -0.23228619
-0.05996982 -0.12821786 0.00000246
-0.33761114 -0.01507352 0.03518411
-0.25686359 0.17986152 0.21581246
-0.11055957 -0.24551289 0.00000240
-0.47655374 -0.35051224 0.05527114
-0.41293624 -0.19693290 0.23503599
-0.37005734 -0.23003045 0.00000401
-0.07456072 -0.25082332 0.00000217
-0.06210283 0.47725797 0.00000689
-0.37702203 -0.11023499 0.40776852
-0.28410986 -0.01237023 0.00000418
-0.59525573 -0.63708335 0.01930932
-0.52674860 -0.77570069 0.00000326
-0.04949030 -0.79502398 0.00000031
-0.40400910 -0.17538707 0.39206192
-0.10918698 0.51662904 0.00000583
-0.56684089 -0.66774046 0.00000383
-0.28917202 -0.56939113 0.00000247
-0.32174358 0.02322253 0.32601926
-0.20243581 0.31126222 0.21284132
-0.50693053 -0.42385608 0.24493913
-0.01344276 -0.43626246 0.00000122
-0.11847508 -0.09516383 0.00000292
-0.19951843 -0.07173844 0.00000348
-0.39781886 -0.16044261 0.39530766
-0.19758873 0.32297203 0.01688990
-0.29394823 -0.15019396 0.00000380
-0.16869776 -0.22449322 0.00000282
-0.55851912 -0.54839456 0.05410764
-0.37157202 -0.32789618 0.00000372
-0.41020948 -0.19035397 0.33674711
-0.18918811 0.34325331 0.00770268
-0.47445905 -0.34545633 0.08369061
-0.15795176 0.41866496 0.00132818
-0.35371789 -0.05396769 0.25746331
-0.09493092 0.57081002 0.02779659
-0.30128205 -0.16678223 0.00000380
-0.12487073 0.49852782 0.05100434
-0.03851688 -0.56046194 0.00000098
-0.60470980 -0.65991014 0.08095170
-0.49708214 -0.40007278 0.06700565
-0.48201010 -0.36369479 0.31613421
-0.11808005 -0.72099555 0.00000096
-0.11721275 -0.73276585 0.00000092
-0.24526089 0.20787118 0.25945690
-0.48802656 -0.55667055 0.00000371
-0.34660420 -0.03679193 0.21417058
-0.06391826 -0.42321846 0.00000156
-0.59052879 -0.62567556 0.15265547
-0.57786793 -0.59510499 0.00678655
-0.00827603 0.61538941 0.00000649
-0.03582515 0.53978032 0.00000674
-0.07017532 -0.37012827 0.00000177
-0.60324597 -0.65637672 0.10818517
-0.45612893 -0.30120373 0.09171236
-0.16018835 0.03280019 0.00000930
-0.55552894 -0.54118049 0.23785777
-0.07656795 -0.50048381 0.00000140
-0.39262500 -0.31418750 0.00000389
-0.50787300 -0.71781665 0.00000332
-0.44386363 -0.57418197 0.00000338
-0.60898697 -0.67023653 0.13526104
-0.67415643 -0.82756549 0.10622654
-0.06581125 -0.44433787 0.00000151
-0.00586501 -0.51686513 0.00000085
-0.36641222 -0.74003655 0.00000240
-0.06749635 -0.06506010 0.00000270
-0.23529513 0.18596585 0.00000682
-0.07926716 -0.33368009 0.00000194
-0.43966523 -0.35065478 0.00000406
-0.22183804 0.11915573 0.00000761
-0.51307482 -0.43868974 0.24535866
-0.07897344 -0.23837496 0.00000223
-0.57853091 -0.61390609 0.00000407
-0.17175324 -0.30919793 0.00000257
-0.13529539 -0.01648960 0.00000327
-0.24799442 0.20127276 0.23728392
-0.08029051 0.29170391 0.00000824
-0.05769852 -0.36759707 0.00000170
-0.47163656 -0.73093987 0.00000306
-0.36727345 -0.35803437 0.00000360
-0.55259401 -0.53408939 0.03605554
-0.13997306 -0.40350106 0.00000208
-0.55319995 -0.53555799 0.21052992
-0.62325650 -0.70468527 0.17529736
-0.33276421 -0.00338239 0.29420954
-0.01546873 0.76264971 0.01520613
-0.29556248 0.08643136 0.27882653
-0.30692104 -0.46721628 0.00000289
-0.41575491 -0.20373026 0.04779801
-0.02519653 -0.42050818 0.00000134
-0.09540496 0.56966287 0.09499957
-0.57341629 -0.58436346 0.19440667
-0.60536689 -0.66149706 0.17272858
-0.20927398 -0.37368459 0.00000260
-0.34472051 -0.03224966 0.34708843
-0.32962301 -0.14591604 0.00000403
-0.44205666 -0.26723081 0.10787660
-0.00905703 -0.41240132 0.00000127
-0.30753860 -0.26741159 0.00000352
-0.33539781 -0.00973424 0.13942879
-0.11837046 0.17093986 0.00000872
-0.26932818 0.14976950 0.20928466
-0.42872819 -0.23505436 0.14205512
-0.21454208 0.14477222 0.00000750
-0.25029811 -0.77306247 0.00000159
-0.00854870 -0.78326076 0.00000010
-0.08644172 -0.35793069 0.00000190
-0.06787719 -0.47597218 0.00000142
-0.65159369 -0.77309561 0.02784769
-0.41393587 -0.38762373 0.00000379
-0.30850157 0.05520237 0.05966834
-0.14363772 0.45321602 0.15491539
-0.10418305 0.54847246 0.05006122
-0.65376973 -0.77834892 0.15037259
-0.59231430 -0.62998605 0.16432276
-0.22922051 -0.49742651 0.00000233
-0.28946698 0.01794006 0.00000748
-0.12111166 -0.12780926 0.00000283
-0.01471529 0.03814890 0.00001144
-0.40078464 -0.52545679 0.00000328
-0.39025253 -0.26950648 0.00000401
-0.50612974 -0.42191553 0.06527707
-0.49445707 -0.61783987 0.00000355
-0.21241909 0.28716385 0.12658092
-0.30570328 -0.39380413 0.00000311
-0.34076059 -0.39293066 0.00000333
-0.25720134 0.17905287 0.04722402
-0.25751081 -0.44691348 0.00000266
-0.62028736 -0.69751734 0.07363818
-0.02144181 0.58043790 0.00000660
-0.67189682 -0.82211047 0.09742574
-0.38257858 -0.12364095 0.18799214
-0.38052633 -0.11868514 0.15822500
-0.50853145 -0.42771506 0.09583783
-0.56089568 -0.55413663 0.21226601
-0.36283264 -0.35078344 0.00000359
-0.11735538 -0.16609292 0.00000269
-0.41466373 -0.47916055 0.00000351
-0.58594501 -0.70815873 0.00000382
-0.28920585 0.10178876 0.00249313
-0.00919884 -0.76227981 0.00000017
-0.35633069 0.34995857 -0.12711868
-0.54467875 -0.51498657 0.20697600
-0.29910642 0.07788660 0.00353548
-0.50915146 -0.42921206 0.10015359
-0.43207765 -0.24314277 0.19405162
-0.19295703 0.33415407 0.01333684
-0.59710640 0.09680086 -0.22880267
-0.06101524 -0.64264309 0.00000086
-0.15436304 -0.46547705 0.00000198
-0.12565558 0.14564420 0.00000883
-0.55276656 -0.53451180 0.23245700
-0.12642869 0.49476546 0.07787895
-0.16707246 -0.12720339 0.00000311
-0.20697919 0.30029878 0.08174246
-0.08866972 0.36631024 0.00000746
-0.36441016 -0.07977311 0.05615455
-0.63758194 -0.73926908 0.17555180
-0.32446793 0.01664591 0.31304413
-0.45887434 -0.30783755 0.23605943
-0.13142143 -0.35639316 0.00000218
-0.37451982 -0.10418922 0.28544399
-0.17320304 0.38183773 0.18278053
-0.07317986 0.46652085 0.00000681
-0.24096671 0.21824434 0.10921935
-0.02347565 0.48568058 0.00000740
-0.19384561 0.33200797 0.03526875
-0.37804374 -0.11269535 0.25074154
-0.41983023 -0.21357524 0.20555659
-0.00534182 -0.18327157 0.00000190
-0.01484289 -0.66707146 0.00000050
-0.39349651 -0.15000537 0.34184232
-0.07863893 -0.11660437 0.00000261
-0.15084162 -0.29846561 0.00000248
-0.39015147 -0.61988890 0.00000292
-0.49120849 -0.75716078 0.00000310
-0.38552129 0.33159125 -0.14326581
-0.40334678 0.29707634 -0.14590576
-0.44359684 -0.27095476 0.24729037
-0.52465868 -0.62939441 0.00000370
-0.41134945 -0.48402670 0.00000347
-0.58726418 -0.61779433 0.22735406
-0.55689538 -0.69856858 0.00000368
-0.21671730 -0.12767148 0.00000341
-0.25657070 0.18056864 0.21552195
-0.43727452 -0.25568789 0.16212378
-0.00505364 0.28284538 0.00000945
-0.29576984 0.08593995 0.05010666
-0.07483849 0.18510862 0.00000925
-0.03350585 0.71258610 0.00000526
-0.48702031 -0.37578380 0.12985802
-0.14483106 -0.49780318 0.00000182
-0.34418246 -0.16748989 0.00000405
-0.27462184 -0.48211405 0.00000265
-0.12409614 0.65164018 -0.04686280
-0.38381785 -0.64352328 0.00000281
-0.62692380 -0.71353865 0.13854662
-0.16299523 -0.08975484 0.00000320
-0.36991090 -0.09306479 0.34868482
-0.03783535 0.07208876 0.00001080
-0.60558093 -0.66201222 0.05858139
-0.12071239 0.14152758 0.00000894
-0.60693115 -0.66527003 0.00932961
-0.52415729 -0.50479555 0.00000409
-0.09874352 0.11732995 0.00000948
-0.03863744 0.34650144 0.00000839
-0.04799664 0.05600071 0.00001079
-0.24918039 0.19841160 0.18693537
-0.51800305 -0.45058435 0.16672571
-0.09010604 -0.59732044 0.00000118
-0.37053463 -0.09455796 0.03250209
-0.47023919 -0.33527806 0.31973612
-0.36505592 -0.56443352 0.00000294
-0.02402957 -0.55387479 0.00000091
-0.01939327 -0.61465484 0.00000070
-0.35885245 -0.43093073 0.00000332
-0.29709160 0.03153009 0.00000724
-0.28074583 0.46562731 -0.10641549
-0.40592492 -0.17999753 0.02351611
-0.42717588 -0.31841344 0.00000408
-0.16012247 0.16064678 0.00000818
-0.02101184 0.68399692 0.00000570
-0.37873152 -0.67968339 0.00000266
-0.16248669 0.40771008 0.16519278
-0.34729490 -0.22573245 0.00000389
-0.50379735 -0.41628873 0.16544487
-0.61444318 -0.77888680 0.00000377
-0.16929197 -0.65315652 0.00000148
-0.10121766 -0.06542520 0.00000291
-0.42810908 -0.38970262 0.00000387
-0.14093065 -0.33651987 0.00000230
-0.18012038 0.36513993 0.12886085
-0.48017406 -0.35925242 0.05462191
-0.39558515 -0.15503597 0.04629993
-0.30719090 0.05835818 0.26991650
-0.39491475 -0.15341812 0.06319783
-0.64667463 -0.76122016 0.06542991
-0.07813612 0.11738494 0.00000979
-0.41844690 -0.21023020 0.07038928
-0.45788741 -0.30545583 0.25917402
-0.05506970 -0.77280545 0.00000042
-0.04243166 0.69755471 0.02906715
-0.11828415 0.09778658 0.00000936
-0.14210916 0.19329950 0.00000816
-0.29321006 0.09211394 0.19690304
-0.21542536 -0.49362022 0.00000226
-0.01384662 -0.01422136 0.00000254
-0.05100155 -0.52862012 0.00000116
-0.22000010 0.26885730 0.23583791
-0.03892191 0.70602894 0.00536504
-0.61421132 -0.68284881 0.15202989
-0.02772874 -0.55092531 0.00000095
-0.14715238 -0.43478814 0.00000203
-0.20977703 0.29354650 0.02348178
-0.55760223 -0.54618526 0.16145496
-0.34452704 -0.03177276 0.10332872
-0.35945189 -0.06780496 0.11083638
-0.52789068 -0.47445637 0.19265278
-0.10456327 0.54755205 0.11194007
-0.44723022 -0.27972978 0.32855928
-0.10918803 -0.70691377 0.00000095
-0.29462323 -0.60446453 0.00000239
-0.19223407 0.33589891 0.02772190
-0.25155094 0.06338742 0.00000765
-0.17117278 0.20451543 0.00000763
-0.00056578 0.07188024 0.00001136
-0.20139477 0.31377950 0.11324051
-0.05487891 -0.65051204 0.00000080
-0.63221383 -0.72630972 0.16898692
-0.40870258 -0.18671583 0.33387566
-0.30682042 0.05926099 0.06047027
-0.30251297 -0.70329660 0.00000213
-0.39154303 -0.14528701 0.28627443
-0.00627317 -0.17035107 0.00000201
-0.00229862 0.64006120 0.00000636
-0.55547398 -0.54104787 0.22010770
-0.10471317 -0.14836109 0.00000267
-0.36818472 -0.33199474 0.00000368
-0.31377497 0.04246761 0.14916949
-0.20257740 0.31092724 0.04289090
-0.41601273 -0.20435655 0.14537641
-0.39586061 -0.64344561 0.00000288
-0.43878967 -0.47467661 0.00000366
-0.38070518 -0.40492502 0.00000353
-0.21619406 -0.02492481 0.00000373
-0.08283832 -0.34362215 0.00000193
-0.11781481 -0.71570122 0.00000097
-0.29960933 0.07666010 0.31001532
-0.14683670 0.44549343 0.14371625
-0.54029059 -0.76121104 0.00000338
-0.21445735 0.28224453 0.08969279
-0.30324247 -0.21944329 0.00000364
-0.59427649 -0.63472313 0.13598271
-0.00722611 0.66826028 0.00000604
-0.44700855 -0.27918896 0.18758750
-0.38494080 -0.43786725 0.00000345
-0.44878027 -0.28346649 0.19321261
-0.06597085 -0.77036184 0.00000049
-0.10159934 -0.70698732 0.00000090
-0.04957600 0.49493572 0.00000692
-0.33118746 0.00042668 0.23292054
-0.55942333 -0.55058062 0.13025911
-0.09398011 0.39616856 0.00000712
-0.65263528 -0.77561003 0.03318788
-0.29837841 0.07963988 0.10936029
-0.15933239 -0.16142415 0.00000296
-0.67031431 -0.81829011 0.13657089
-0.53478372 -0.49109769 0.19304368
-0.52941364 -0.47812998 0.11241900
-0.14568564 0.44827539 0.06771168
-0.07798926 -0.61103523 0.00000106
-0.39580852 -0.67050916 0.00000279
-0.30800200 0.05640969 0.02922713
-0.35621852 -0.06000116 0.16754372
-0.07134769 0.62774599 0.00561604
-0.13592316 -0.31892323 0.00000232
-0.16500399 0.20725808 0.00000770
-0.30424979 -0.16969658 0.00000381
-0.28488252 -0.36077964 0.00000309
-0.19107781 -0.08863299 0.00000338
-0.13727878 0.46856970 0.10969965
-0.32357001 -0.71283627 0.00000223
-0.25971469 -0.26899987 0.00000323
-0.21376722 0.28391197 0.05727093
-0.01693791 0.21267134 0.00000988
-0.38267565 -0.12387990 0.30300099
-0.02617027 -0.33268893 0.00000162
-0.06347546 0.44319355 0.00000716
-0.47851482 -0.35525483 0.25774923
-0.42577714 -0.22793636 0.30324402
-0.33034059 -0.38149381 0.00000330
-0.35380483 -0.43781006 0.00000327
-0.23254830 -0.22416411 0.00000320
-0.56791836 -0.79625887 0.00000344
-0.25344861 0.18811332 0.03353096
-0.24574476 -0.49491686 0.00000244
-0.13823611 -0.78708345 0.00000087
-0.48346791 -0.36721268 0.25816444
-0.51333964 -0.43932906 0.27449915
-0.46776453 -0.34515128 0.00000424
-0.57032287 -0.57689160 0.05749131
-0.44139922 -0.26564711 0.19536357
-0.58365804 -0.74444532 0.00000370
-0.37445849 -0.10403708 0.18324399
-0.34046888 -0.02198161 0.25655016
-0.22741681 -0.50200927 0.00000230
-0.24528328 -0.60837108 0.00000208
-0.06558748 -0.26978853 0.00000205
-0.08752466 0.11838073 0.00000964
-0.43060908 -0.23959707 0.18802562
-0.44259864 -0.26854727 0.30587533
-0.34002197 -0.58390492 0.00000273
-0.23955806 -0.48896641 0.00000242
-0.39512777 -0.15393978 0.24698611
-0.06612986 0.64034319 0.00063167
-0.07144707 -0.11538505 0.00000257
-0.56099337 -0.59465075 0.00000403
-0.16674291 0.18698941 0.00000785
-0.32575712 0.01354346 0.06512654
-0.59177697 -0.75182897 0.00000372
-0.57876003 -0.59725928 0.02370702
-0.04822367 0.50498414 0.00000685
-0.50025648 -0.40774211 0.21312825
-0.63976991 -0.74455124 0.16977049
-0.54850680 -0.52422810 0.23140034
-0.47013959 -0.62423408 0.00000339
-0.32517713 -0.58529752 0.00000263
-0.60573655 -0.69831383 0.00000397
-0.23409998 0.23482136 0.12788139
-0.18825287 -0.55950129 0.00000189
-0.25746140 -0.49232480 0.00000252
-0.16823430 -0.35668898 0.00000240
-0.43687251 -0.70458305 0.00000293
-0.21495749 -0.27447599 0.00000294
-0.34218851 -0.02613349 0.26354063
-0.40551859 -0.21747348 0.00000427
-0.45930099 -0.30886400 0.14751771
-0.15002924 0.41531917 0.00000610
-0.45107341 -0.28900671 0.29422885
-0.14799109 0.42711034 0.00000603
-0.26986489 -0.13168675 0.00000372
-0.28555414 0.11059410 0.26941767
-0.04175983 -0.31250471 0.00000178
-0.23354945 0.09441292 0.00000765
-0.38904864 -0.13926226 0.21686091
-0.50144815 -0.41061714 0.16420311
-0.03039818 0.56669778 0.00000658
-0.50315654 -0.41474369 0.21453945
-0.29042852 -0.21725620 0.00000357
-0.52994728 -0.47941595 0.05580703
-0.01718507 -0.11426337 0.00000225
-0.27744478 -0.26482341 0.00000335
-0.52881986 -0.47670022 0.20903783
-0.24764262 -0.39628556 0.00000276
-0.28803915 -0.68587136 0.00000210
-0.46465844 -0.32180136 0.23031180
-0.19142276 0.12233896 0.00000804
-0.30322123 0.06794511 0.18873803
-0.04469091 0.69209987 0.04131297
-0.12301121 -0.79092383 0.00000077
-0.55326581 -0.68318254 0.00000370
-0.31938365 0.02892899 0.10092842
-0.28474984 -0.03674435 0.00000410
-0.58257186 0.08152917 -0.21319562
-0.24905770 0.19871493 0.00974853
-0.03305557 0.72019100 0.01983758
-0.25133049 0.50242162 -0.09581088
-0.13276778 -0.06796698 0.00000309
-0.26904973 0.15044464 0.13772210
-0.26071072 -0.14137036 0.00000363
-0.24557206 0.20711991 0.26086470
-0.63009113 -0.72118515 0.13648704
-0.15417285 -0.01163203 0.00000339
-0.12607943 0.43915841 0.00000625
-0.01430340 0.09494510 0.00001095
-0.23431645 -0.31322616 0.00000294
-0.62112790 -0.72189677 0.00000399
-0.01738391 -0.04739650 0.00000246
-0.44780225 -0.28110847 0.26927730
-0.16308255 0.27824527 0.00000710
-0.32112908 0.02471665 0.06412715
-0.37524894 -0.65829378 0.00000271
-0.06408470 0.45476541 0.00000705
-0.43568963 -0.25186482 0.24173306
-0.09573229 0.56887567 0.01883891
-0.21000563 0.29299229 0.08173920
-0.22288430 0.26189750 0.15311620
-0.17729619 -0.13102347 0.00000316
-0.32915345 0.00534332 0.08189001
-0.39811522 0.32567006 -0.15085311
-0.35943088 -0.06776394 0.35263222
-0.38311043 -0.12492441 0.17467149
-0.04042751 -0.45362946 0.00000133
-0.15078259 -0.14654756 0.00000295
-0.17811219 -0.31761736 0.00000258
