ply
format ascii 1.0
element vertex 1363
property float x
property float y
property float z
end_header
-0.21611658 -0.46357220 -0.00000021
0.03003278 0.67659837 -0.00000092
0.56593221 -0.01427164 -0.00000122
0.76376516 -0.41089880 -0.00000097
-0.66500223 -0.71242023 -0.00000001
-0.16870405 0.46358195 -0.00000076
0.66231281 -0.51218933 -0.00000056
-0.59460264 0.79580790 -0.00000026
0.49013549 -0.35904109 -0.00000031
0.36431640 -0.23081437 -0.00000036
-0.05257491 -0.41750309 -0.00000024
-0.03910268 -0.41503257 -0.00000024
-0.79771447 0.45463258 -0.00000000
-0.32543838 -0.78217161 -0.00000001
-0.73246145 -0.50528628 0.00000000
0.51869541 -0.32412997 -0.00000047
-0.07261359 0.51886576 -0.00000082
-0.26203296 -0.31095806 -0.00000031
0.34862295 -0.02900876 -0.00000050
0.12577493 0.49431396 -0.00000081
0.31192213 -0.39618641 -0.00000025
-0.43030837 -0.69604772 -0.00000006
-0.45981801 -0.68213588 -0.00000007
-0.61022449 0.59663242 -0.00000024
-0.26963216 0.78915441 -0.00000066
0.09799333 0.06157529 -0.00000054
0.29687932 -0.35960427 -0.00000028
0.53206593 0.06348159 -0.00000127
0.64922065 -0.13948540 -0.00000125
0.00035224 -0.39613956 -0.00000025
-0.55565697 -0.03416848 -0.00000025
-0.37483388 0.14146727 -0.00000048
-0.05466194 -0.10816681 -0.00000043
0.27846503 -0.57978463 -0.00000014
-0.40834048 0.26436791 -0.00000047
0.55812895 -0.24817009 -0.00000074
-0.15618876 -0.32133168 -0.00000030
0.74936789 -0.69255370 -0.00000027
0.29268298 -0.59438026 -0.00000013
-0.64881033 0.01581911 -0.00000016
-0.41890898 0.04299895 -0.00000041
-0.46609861 0.45841524 -0.00000042
-0.13068601 -0.46640155 -0.00000021
0.15872639 0.59614563 -0.00000111
-0.33988461 0.17946938 -0.00000052
-0.43497211 -0.40237892 -0.00000025
0.27227700 -0.44926906 -0.00000022
0.30686590 0.28357071 -0.00000097
-0.45509842 0.24166995 -0.00000041
0.23163256 0.24803498 -0.00000066
-0.26302850 -0.52445430 -0.00000017
-0.59546995 0.14737342 -0.00000025
0.66507137 -0.34196424 -0.00000090
-0.48720658 -0.55168462 -0.00000016
-0.64870512 0.78476268 -0.00000019
-0.40090176 -0.51088774 -0.00000018
-0.25435480 0.40098372 -0.00000066
-0.28455764 0.46310851 -0.00000063
0.30402023 -0.65352726 -0.00000009
-0.27016574 -0.48041576 -0.00000020
-0.24706508 -0.23600103 -0.00000035
-0.14637421 0.04770568 -0.00000053
0.63213217 -0.60786349 -0.00000028
-0.30927670 0.79225308 -0.00000061
0.22361214 -0.65419441 -0.00000009
0.05349583 0.25081736 -0.00000066
-0.16166879 0.15404065 -0.00000060
-0.66604537 0.04234413 -0.00000015
-0.68211025 -0.56896377 -0.00000002
-0.26615837 -0.58683145 -0.00000013
-0.29929990 -0.05579384 -0.00000047
0.70119661 -0.46224359 -0.00000078
0.07450443 0.01448010 -0.00000051
0.77480990 -0.32693729 -0.00000118
-0.70209479 0.78793997 -0.00000012
0.25002432 -0.46870342 -0.00000021
0.27255392 0.12262444 -0.00000058
-0.23330851 -0.13762970 -0.00000041
0.28667554 0.36682886 -0.00000107
-0.03988993 0.35834703 -0.00000072
-0.68475342 0.30936176 -0.00000014
-0.58459127 0.76494294 -0.00000027
-0.38999331 0.42859817 -0.00000051
0.26575154 -0.61020929 -0.00000012
-0.62904662 0.43957236 -0.00000021
-0.27829975 -0.13346823 -0.00000042
-0.29951835 -0.32045886 -0.00000030
0.50695300 -0.60575652 -0.00000012
-0.28275344 0.51423877 -0.00000065
-0.71590573 -0.69648081 0.00000000
-0.17227188 -0.50543213 -0.00000018
0.56975549 0.10250786 -0.00000146
0.79777229 -0.31534582 -0.00000121
-0.12754224 -0.66511309 -0.00000008
-0.34555212 0.41853034 -0.00000056
0.74595159 -0.60325944 -0.00000049
-0.19603470 -0.78636873 -0.00000001
-0.32125530 0.57056439 -0.00000060
-0.48524731 -0.63849366 -0.00000010
-0.67786556 0.03496982 -0.00000014
-0.13477214 -0.77036834 -0.00000002
0.71813625 -0.73046988 -0.00000017
-0.27062610 0.40800244 -0.00000064
0.65207088 -0.79586858 -0.00000000
-0.39783031 0.75515330 -0.00000050
0.15828107 0.04089928 -0.00000053
0.64125735 -0.67017204 -0.00000018
0.15308641 -0.34835455 -0.00000028
0.30673358 -0.68450439 -0.00000007
-0.12251429 -0.20803145 -0.00000037
-0.07888309 -0.70339680 -0.00000006
0.00360191 -0.27680141 -0.00000033
-0.08607908 -0.19178316 -0.00000038
-0.58519816 0.31300554 -0.00000027
0.29193342 0.30905363 -0.00000098
-0.65977365 0.12860948 -0.00000017
0.08958274 -0.39358783 -0.00000025
-0.52754498 0.24602769 -0.00000034
-0.67038780 -0.44407907 -0.00000006
0.60892069 0.08877365 -0.00000156
-0.63566720 -0.22584195 -0.00000013
0.45063886 -0.07726215 -0.00000073
-0.44797376 0.36788473 -0.00000044
0.41144806 -0.77564013 -0.00000002
-0.08345123 -0.67385733 -0.00000008
-0.15272531 -0.72775310 -0.00000005
-0.31478906 0.64531249 -0.00000061
-0.56231612 0.79193401 -0.00000030
0.56242269 -0.01082864 -0.00000122
-0.13995248 0.25426084 -0.00000066
0.79698074 0.00129336 -0.00000199
0.47264132 0.03891297 -0.00000103
0.23278104 0.41534665 -0.00000099
-0.18506581 -0.54885167 -0.00000016
0.42385337 -0.50684816 -0.00000018
-0.03324574 0.72914070 -0.00000095
-0.53667408 -0.58275580 -0.00000014
0.53186935 -0.49220958 -0.00000019
-0.59157187 -0.04797011 -0.00000021
-0.49205759 -0.18855043 -0.00000029
-0.72121394 0.59500337 -0.00000010
0.59042984 -0.12903562 -0.00000108
-0.47273359 0.59838355 -0.00000041
-0.57096040 0.22394478 -0.00000029
0.76245046 -0.05023408 -0.00000178
-0.60194743 0.27491859 -0.00000025
-0.72379988 -0.33412623 -0.00000002
-0.74067986 0.69368988 -0.00000007
0.13454945 0.32628345 -0.00000070
-0.70427144 -0.12987317 -0.00000008
-0.54044247 -0.67575026 -0.00000008
0.08155260 -0.73036772 -0.00000004
-0.67762589 -0.22943041 -0.00000009
0.38857177 0.20607483 -0.00000109
-0.76219136 0.77976954 -0.00000005
0.36165121 -0.50812817 -0.00000018
-0.36852801 -0.44563705 -0.00000022
-0.52312291 -0.22491500 -0.00000025
-0.17301548 0.40514535 -0.00000074
-0.29333347 0.50723773 -0.00000063
-0.15776782 -0.02765064 -0.00000048
-0.50658566 -0.12976892 -0.00000029
-0.03569568 0.21212938 -0.00000063
-0.64723361 -0.61217612 -0.00000005
0.18261504 -0.59459203 -0.00000013
0.46368286 0.31643072 -0.00000154
-0.68355960 0.36501628 -0.00000015
0.29362789 0.37838697 -0.00000112
-0.65692741 -0.54872590 -0.00000005
0.28977913 -0.30297849 -0.00000031
-0.60786361 -0.53482717 -0.00000011
-0.07718611 -0.61771184 -0.00000011
-0.60870916 0.24190444 -0.00000024
0.21872155 -0.16197543 -0.00000040
0.65970832 0.01081843 -0.00000157
-0.58613873 0.54048991 -0.00000027
-0.35729918 -0.16712014 -0.00000040
0.26880309 0.27191749 -0.00000083
0.32960507 -0.13296197 -0.00000042
0.10706761 -0.69126785 -0.00000007
-0.08964642 -0.55904162 -0.00000015
0.63943088 -0.50474310 -0.00000050
-0.47239503 0.17331004 -0.00000038
-0.63420457 -0.39015061 -0.00000011
-0.35464168 -0.33793771 -0.00000029
-0.40703362 -0.44611531 -0.00000022
-0.65802884 -0.51846915 -0.00000006
-0.35720378 -0.36103329 -0.00000027
-0.59012759 0.15935355 -0.00000025
0.23446620 -0.68605518 -0.00000007
0.29363099 -0.37553784 -0.00000027
-0.21568780 -0.69063973 -0.00000007
0.09818874 0.19377913 -0.00000062
-0.39893657 -0.10010372 -0.00000041
-0.42511061 -0.55400211 -0.00000015
-0.12885894 -0.72573638 -0.00000005
-0.63025630 0.17545383 -0.00000021
0.31789640 0.12931576 -0.00000071
0.24092317 -0.53121078 -0.00000017
-0.46189079 -0.24132201 -0.00000032
-0.00474419 0.50567335 -0.00000082
0.22113380 0.37576962 -0.00000088
-0.29064104 0.39983132 -0.00000062
-0.43755040 -0.70250958 -0.00000006
0.53166986 0.18978649 -0.00000151
-0.39264920 0.06747454 -0.00000045
0.76322341 -0.75527054 -0.00000011
-0.51797026 -0.40025142 -0.00000023
0.24647658 0.10957221 -0.00000057
-0.71913147 -0.48031700 0.00000000
0.04363473 -0.68573606 -0.00000007
0.11737142 0.42116866 -0.00000076
0.35294193 -0.07645840 -0.00000045
-0.35885793 0.16515835 -0.00000050
0.41425645 0.10175896 -0.00000096
-0.49800453 0.09799317 -0.00000034
0.73892319 -0.31701428 -0.00000119
-0.21484454 0.40262792 -0.00000070
0.13883862 -0.48685905 -0.00000020
-0.50194502 -0.02785057 -0.00000031
0.14658564 0.34951860 -0.00000072
0.27309597 -0.10477151 -0.00000043
-0.03674466 -0.49001512 -0.00000019
0.53856963 -0.17481977 -0.00000082
-0.31573325 0.33446550 -0.00000058
-0.44712648 0.79119760 -0.00000044
-0.39282066 0.77587241 -0.00000051
-0.03554010 0.34273922 -0.00000071
0.49097431 -0.38351265 -0.00000026
0.37612906 -0.07671463 -0.00000049
0.76643920 -0.59159255 -0.00000052
-0.02468408 -0.41720709 -0.00000024
-0.09866833 0.78642613 -0.00000088
-0.37968451 -0.41921982 -0.00000024
0.19260049 0.21738628 -0.00000064
0.30884683 -0.21233761 -0.00000037
-0.65698683 -0.57441121 -0.00000005
-0.25197822 0.35400465 -0.00000065
-0.34636584 0.35635218 -0.00000055
-0.01093554 -0.70020097 -0.00000006
-0.13482931 0.49064115 -0.00000080
-0.64102644 0.07430174 -0.00000018
0.32136667 -0.47305757 -0.00000020
-0.40981022 0.24324103 -0.00000046
-0.17038161 -0.31726637 -0.00000030
-0.66623944 -0.19865043 -0.00000011
0.78572577 -0.59800941 -0.00000050
-0.79344004 -0.04927661 0.00000000
-0.16578417 0.31534174 -0.00000070
-0.26968119 -0.71920371 -0.00000005
-0.64448017 0.28592494 -0.00000019
-0.13315734 -0.53123367 -0.00000017
-0.27989912 0.42615911 -0.00000063
-0.21883357 0.27428162 -0.00000067
-0.47243854 -0.03768985 -0.00000034
-0.73763108 0.67225152 -0.00000008
-0.70068294 -0.75389481 0.00000000
0.17815728 -0.16790561 -0.00000040
-0.72071034 -0.77370816 0.00000000
-0.77593964 0.57444876 -0.00000003
0.31797948 -0.44312876 -0.00000022
-0.16379537 0.07723182 -0.00000055
0.11344819 -0.75716925 -0.00000003
-0.38426831 -0.25881147 -0.00000034
0.68139815 -0.48475465 -0.00000067
-0.34080735 0.62955117 -0.00000057
-0.07493798 0.31390053 -0.00000070
-0.05966033 -0.65668482 -0.00000009
-0.60401070 -0.21037038 -0.00000017
-0.39844152 -0.16157174 -0.00000040
-0.66435546 0.45046625 -0.00000017
-0.33615205 0.47046453 -0.00000058
0.22695243 0.46705225 -0.00000108
0.09006480 -0.05024667 -0.00000047
0.49221882 -0.04248370 -0.00000093
-0.07719497 0.78329003 -0.00000090
-0.18094577 -0.10710769 -0.00000043
0.49386820 0.24061118 -0.00000149
0.61238092 -0.31731257 -0.00000078
-0.44061503 0.66690570 -0.00000045
0.16475968 0.07122242 -0.00000054
0.44591683 -0.59148163 -0.00000013
-0.66816443 -0.75160062 -0.00000000
-0.28633901 0.52539152 -0.00000064
-0.17185387 -0.60409522 -0.00000012
0.26479229 -0.59127855 -0.00000013
-0.14527017 0.16617961 -0.00000060
-0.72626495 -0.01953691 -0.00000008
-0.77666146 -0.21250327 0.00000000
0.10879262 -0.48070651 -0.00000020
0.17204574 -0.46768832 -0.00000021
-0.36009330 -0.07204865 -0.00000045
0.29779571 -0.42607448 -0.00000023
-0.20556146 0.65045393 -0.00000074
0.04503380 0.51360583 -0.00000082
-0.60898548 0.05520545 -0.00000021
-0.06055692 -0.47828436 -0.00000020
0.67909211 -0.35531315 -0.00000092
-0.09422479 0.22140655 -0.00000064
-0.62256098 0.47888473 -0.00000022
-0.13181926 -0.48881918 -0.00000019
-0.40566182 0.02866649 -0.00000043
0.44944206 0.18765780 -0.00000124
-0.60048223 -0.39611185 -0.00000014
0.31115660 0.10867924 -0.00000065
0.49777433 -0.10611137 -0.00000083
0.03036275 -0.50005734 -0.00000019
-0.63083744 0.35278022 -0.00000021
-0.76002157 0.28589499 -0.00000005
0.21764411 -0.14601947 -0.00000041
0.04820999 -0.03710721 -0.00000048
-0.23160081 0.31016782 -0.00000066
-0.62778789 0.00064539 -0.00000018
0.15848204 0.36838388 -0.00000073
-0.01018986 -0.39002642 -0.00000026
-0.16055720 -0.13997133 -0.00000041
0.58171248 0.07478375 -0.00000145
0.28283077 0.27171957 -0.00000087
-0.10798340 -0.42053163 -0.00000024
0.24092837 -0.31224108 -0.00000030
-0.09638872 -0.11859527 -0.00000043
0.16117805 0.25291821 -0.00000066
-0.37000594 -0.48866874 -0.00000019
-0.15792647 -0.68133217 -0.00000007
0.21912663 -0.64100730 -0.00000010
-0.76781344 0.53107172 -0.00000004
0.47633925 -0.79027504 -0.00000001
-0.21141694 0.06398269 -0.00000054
-0.46623921 -0.42115510 -0.00000024
0.06799740 0.71203184 -0.00000105
0.04463692 -0.45136771 -0.00000022
-0.19419713 -0.09483897 -0.00000044
0.09090065 -0.48212299 -0.00000020
-0.71785647 -0.20576689 -0.00000005
0.43247941 -0.50119936 -0.00000019
-0.72866017 -0.58331168 0.00000000
-0.63390189 0.31879067 -0.00000021
-0.02072067 0.53928053 -0.00000084
-0.08161045 0.49577895 -0.00000081
-0.77946383 0.69506890 -0.00000003
-0.17225675 -0.45378345 -0.00000022
0.44117388 0.02136064 -0.00000089
0.02037887 0.63299376 -0.00000090
-0.18457597 0.47985199 -0.00000074
0.31213784 0.17734802 -0.00000078
0.33173025 0.27339986 -0.00000103
-0.56684101 -0.67894042 -0.00000008
-0.11844138 0.40458119 -0.00000075
0.15018876 0.04664200 -0.00000053
0.28274935 0.16871355 -0.00000067
-0.52700603 0.27356559 -0.00000034
0.66706914 0.08506781 -0.00000174
-0.28605714 -0.17495479 -0.00000039
0.68173319 -0.34994006 -0.00000094
-0.03226901 0.29158494 -0.00000068
-0.39015138 0.67927015 -0.00000051
0.15034361 -0.13696428 -0.00000041
-0.17276315 -0.39910272 -0.00000025
0.21432281 -0.73979372 -0.00000004
0.57515538 -0.77789432 -0.00000001
-0.29139006 -0.72810984 -0.00000004
-0.16511790 -0.20679139 -0.00000037
0.28190228 -0.12761249 -0.00000042
0.13067371 -0.54024792 -0.00000016
-0.05500554 0.65807837 -0.00000091
-0.08733646 -0.66443104 -0.00000008
0.02834936 0.32701832 -0.00000070
-0.11587228 -0.35909709 -0.00000028
0.43915573 0.20436382 -0.00000124
-0.59631366 -0.58680838 -0.00000011
-0.53105563 -0.24493879 -0.00000024
-0.08933724 0.75422025 -0.00000089
-0.71567702 -0.53920615 0.00000000
-0.74334377 0.17489135 -0.00000007
-0.60391802 -0.40877309 -0.00000013
-0.10361647 0.02874747 -0.00000052
0.57152212 -0.16009253 -0.00000096
-0.57647133 -0.45235753 -0.00000016
-0.14721990 -0.23301163 -0.00000035
0.78273314 -0.64754111 -0.00000038
0.47132152 -0.11235871 -0.00000073
-0.03860228 0.63689995 -0.00000090
0.32962331 -0.14347190 -0.00000041
-0.10430083 -0.54415429 -0.00000016
-0.24053982 -0.46363476 -0.00000021
-0.51192790 0.72412956 -0.00000036
0.44930026 -0.79058677 -0.00000001
-0.12596227 -0.13508786 -0.00000042
-0.18797879 0.74643123 -0.00000077
-0.14602776 -0.39554182 -0.00000025
0.21367337 -0.52108532 -0.00000017
0.29244772 -0.39636689 -0.00000025
-0.77141660 0.46775278 -0.00000004
0.19009620 -0.63226753 -0.00000010
0.45373872 -0.36575478 -0.00000027
-0.20000204 0.36316901 -0.00000071
-0.33398205 -0.22114748 -0.00000036
-0.13859521 -0.67334032 -0.00000008
-0.51350302 0.51222914 -0.00000036
-0.79399002 0.09781962 -0.00000001
-0.78912920 -0.21597412 0.00000000
0.38867980 -0.56927538 -0.00000014
0.19726112 -0.35582885 -0.00000028
0.70039195 -0.35662425 -0.00000099
-0.77234983 0.10093077 -0.00000003
-0.17574058 -0.72883040 -0.00000004
0.09996839 0.14377113 -0.00000059
0.53294200 -0.50800562 -0.00000018
0.64108199 0.15264744 -0.00000179
0.66020131 0.08027716 -0.00000171
-0.06008087 0.26295918 -0.00000066
-0.34175321 -0.77559423 -0.00000002
0.04245096 -0.62867773 -0.00000011
-0.48751405 -0.77319902 -0.00000002
0.60931557 0.09352129 -0.00000157
-0.46205634 0.21434230 -0.00000040
0.71514577 -0.37892652 -0.00000099
-0.26115242 0.60810113 -0.00000067
-0.75728601 -0.26815161 0.00000000
-0.34832150 0.17060634 -0.00000051
-0.09062030 0.26826021 -0.00000067
-0.73234171 -0.72275996 0.00000000
-0.55934918 -0.05437511 -0.00000025
-0.00180095 -0.37045699 -0.00000027
0.68624306 -0.70958889 -0.00000023
0.47513396 -0.60842687 -0.00000012
0.44861197 -0.25519738 -0.00000038
0.24006364 -0.19613113 -0.00000038
-0.67800874 -0.14576098 -0.00000010
-0.03952892 -0.21057078 -0.00000037
-0.31204104 -0.22061092 -0.00000036
-0.79427540 -0.44509390 0.00000000
-0.26260021 -0.59027046 -0.00000013
0.24479344 -0.61621964 -0.00000011
-0.51770508 -0.47311002 -0.00000020
0.50125724 -0.22446644 -0.00000061
-0.43939984 0.32112050 -0.00000044
0.00146044 -0.21609852 -0.00000036
0.17394415 -0.29573616 -0.00000032
0.13097572 -0.37297592 -0.00000027
-0.32611883 0.77369928 -0.00000059
0.21661261 -0.00780170 -0.00000050
0.50682086 0.08149175 -0.00000122
0.14002924 -0.56352341 -0.00000015
-0.28095818 -0.20415203 -0.00000037
0.13224907 0.38264591 -0.00000074
-0.61526150 0.59414721 -0.00000023
-0.61675268 0.04644179 -0.00000020
0.40964788 -0.17549817 -0.00000041
0.08913908 -0.03489230 -0.00000048
-0.52651179 0.76431817 -0.00000034
0.35962629 -0.12404554 -0.00000042
0.60936636 -0.11689254 -0.00000116
0.25244310 -0.73926646 -0.00000004
0.07205599 0.67989802 -0.00000100
-0.63415998 0.46054164 -0.00000021
0.60391736 -0.64803433 -0.00000011
0.33120170 -0.09588130 -0.00000044
-0.52819079 0.70549959 -0.00000034
0.72273427 -0.43099269 -0.00000091
0.28838444 0.16987748 -0.00000069
-0.24768844 0.79080886 -0.00000069
-0.05024177 0.10695150 -0.00000057
0.12526418 0.59605986 -0.00000100
-0.42032918 -0.64856112 -0.00000009
-0.48179671 0.24331915 -0.00000038
0.71571803 -0.33585474 -0.00000108
-0.11452418 -0.47066990 -0.00000021
0.41875210 0.06399151 -0.00000090
-0.71314180 -0.65818888 0.00000000
-0.13396329 0.21099029 -0.00000063
-0.34022492 -0.03585749 -0.00000048
-0.59853047 -0.31185761 -0.00000016
-0.35463157 -0.25341642 -0.00000034
-0.46023422 -0.01897028 -0.00000036
-0.13271587 0.36419034 -0.00000073
0.78045166 -0.34986702 -0.00000113
-0.60067016 0.34805667 -0.00000025
0.17063732 0.38944578 -0.00000075
-0.01541713 0.02884573 -0.00000052
0.12790483 -0.03161170 -0.00000048
-0.00338505 -0.40606311 -0.00000025
-0.39450383 0.27736330 -0.00000048
0.10506553 -0.02992429 -0.00000048
0.38905448 -0.37275660 -0.00000027
0.29205465 -0.29701266 -0.00000031
0.48248667 -0.58192307 -0.00000014
0.45827165 0.19306654 -0.00000128
0.56596559 -0.02927855 -0.00000119
-0.61194140 -0.08424870 -0.00000019
0.22652616 0.45368347 -0.00000105
-0.16801164 -0.39897546 -0.00000025
-0.37657812 0.31639087 -0.00000051
-0.67279458 0.24749658 -0.00000016
-0.58620489 -0.65258223 -0.00000009
0.06826798 0.12446485 -0.00000058
-0.70008296 0.78963870 -0.00000012
0.56044698 0.10342887 -0.00000144
0.04452883 -0.13897240 -0.00000041
-0.64518160 -0.39973584 -0.00000009
-0.30336159 0.23943807 -0.00000057
0.26960203 0.25295317 -0.00000080
0.65979081 -0.23964053 -0.00000108
0.31637776 0.38391897 -0.00000120
-0.33663106 -0.38788754 -0.00000026
0.36723745 -0.24212292 -0.00000035
-0.65935975 0.55411184 -0.00000018
-0.57365310 0.35429141 -0.00000028
-0.75762141 0.74462813 -0.00000005
-0.05425940 -0.23998858 -0.00000035
-0.63477212 -0.49258277 -0.00000009
0.23941924 -0.56078583 -0.00000015
-0.67025852 -0.45376709 -0.00000006
0.47659007 -0.34564841 -0.00000029
-0.07097456 0.33438951 -0.00000071
0.60244256 -0.03248244 -0.00000130
0.26935127 -0.23634808 -0.00000035
-0.21981651 -0.68657023 -0.00000007
0.03960656 -0.22093733 -0.00000036
0.67492276 -0.77940583 -0.00000005
-0.43259642 -0.08138977 -0.00000038
-0.48521811 0.31505361 -0.00000039
-0.28050604 -0.10563974 -0.00000043
0.30138397 0.48958701 -0.00000136
0.46373937 0.08502609 -0.00000109
-0.09045925 -0.62959987 -0.00000011
0.48653671 -0.04858410 -0.00000090
-0.35438800 0.45853454 -0.00000056
0.26032060 -0.24247935 -0.00000035
-0.43791121 -0.68505621 -0.00000007
-0.22829284 -0.62269485 -0.00000011
0.08747689 -0.39903578 -0.00000025
0.53296828 0.20435740 -0.00000154
0.58537924 0.06576048 -0.00000144
-0.34027794 0.60121274 -0.00000057
0.13645644 0.64339399 -0.00000113
0.16505401 0.09085388 -0.00000056
-0.77487332 -0.10465233 -0.00000001
-0.59803152 0.69685537 -0.00000025
-0.49301222 0.62846702 -0.00000038
-0.06456702 0.03496638 -0.00000052
0.55730307 -0.50899315 -0.00000023
0.51285225 -0.32897013 -0.00000044
0.02710130 0.28329554 -0.00000068
-0.14399610 0.41194174 -0.00000076
-0.38570967 -0.60131502 -0.00000012
-0.54852092 0.56647491 -0.00000031
0.06578872 0.39067087 -0.00000074
-0.55233127 -0.30224898 -0.00000021
-0.48176816 -0.74798900 -0.00000003
-0.55927539 -0.09035183 -0.00000024
-0.74744678 -0.76088679 0.00000000
0.73566604 -0.67566949 -0.00000031
0.45721900 -0.25128144 -0.00000041
-0.70798856 0.39969841 -0.00000012
0.23947255 -0.19340403 -0.00000038
-0.39425877 -0.10956236 -0.00000041
-0.71496981 -0.67226076 0.00000000
-0.21611892 0.59950703 -0.00000073
0.50057095 -0.23183990 -0.00000059
0.46259674 -0.46178576 -0.00000021
-0.42731848 0.58250904 -0.00000047
-0.69195747 0.18825060 -0.00000014
-0.16746587 0.54910922 -0.00000078
0.58728886 -0.73823607 -0.00000004
-0.49863908 -0.41900614 -0.00000024
-0.19160751 0.01634135 -0.00000051
0.08391504 -0.31729078 -0.00000030
-0.71937287 0.02428354 -0.00000009
-0.38916948 0.67231101 -0.00000051
-0.70208222 -0.58443964 0.00000000
-0.43660966 -0.05642684 -0.00000038
-0.53887331 -0.26124397 -0.00000023
-0.47898197 -0.73900759 -0.00000004
-0.21795908 0.73446912 -0.00000073
0.05921118 0.15262225 -0.00000060
-0.29332131 0.36259553 -0.00000061
-0.74029148 0.13056514 -0.00000007
0.24723063 -0.05240009 -0.00000047
-0.08316349 -0.12987229 -0.00000042
0.04266009 -0.37214479 -0.00000027
0.01636165 -0.08193782 -0.00000045
0.47449669 -0.79267758 -0.00000000
-0.67568982 -0.41316763 -0.00000006
-0.72807133 -0.31025043 -0.00000002
-0.18947893 0.15658647 -0.00000060
-0.77568710 0.29659793 -0.00000003
0.27261031 0.36635703 -0.00000103
-0.52083194 -0.71215600 -0.00000005
0.01180742 0.08301321 -0.00000055
-0.09679048 -0.02728112 -0.00000048
-0.70739770 -0.60099918 0.00000000
-0.79057896 -0.39745939 0.00000000
0.34885427 0.13761553 -0.00000082
-0.45412147 0.74727327 -0.00000043
-0.30162239 -0.33837217 -0.00000029
-0.35771954 0.50965208 -0.00000055
-0.08431143 -0.77429289 -0.00000002
-0.49010590 0.60375524 -0.00000039
0.19014840 0.03323326 -0.00000052
-0.18486351 -0.65424538 -0.00000009
0.34505054 0.44936699 -0.00000142
0.00889778 -0.68605143 -0.00000007
-0.57605380 -0.76610559 -0.00000002
-0.76346898 0.59658837 -0.00000005
-0.68243241 -0.66021067 -0.00000000
-0.76839858 0.43496352 -0.00000004
-0.00883134 -0.04757082 -0.00000047
0.71340626 -0.36961755 -0.00000100
-0.36336330 -0.29330578 -0.00000032
-0.59910762 -0.75624287 -0.00000003
0.06282612 -0.70317262 -0.00000006
-0.41202354 0.48176953 -0.00000048
0.21596844 -0.52601892 -0.00000017
-0.13247496 0.34258068 -0.00000071
-0.11342850 -0.20724744 -0.00000037
-0.28531730 0.40076473 -0.00000062
0.17694803 0.46627864 -0.00000092
-0.28099608 -0.01872026 -0.00000049
-0.01391562 -0.43376777 -0.00000023
-0.33311385 0.70505172 -0.00000058
0.72185999 -0.65480453 -0.00000036
-0.55046439 -0.21247365 -0.00000023
-0.30998144 0.62147313 -0.00000061
0.71811306 -0.77258366 -0.00000007
-0.32308912 0.62588573 -0.00000060
-0.37667894 -0.22277822 -0.00000036
0.30338684 0.38023078 -0.00000115
0.24263553 -0.42190447 -0.00000024
-0.59205180 -0.58477056 -0.00000011
-0.62431788 -0.64108443 -0.00000007
0.07203090 0.08110289 -0.00000055
0.61169249 0.18289293 -0.00000175
0.27280793 -0.28167415 -0.00000032
-0.44935903 -0.36070326 -0.00000027
0.51596224 -0.10240754 -0.00000089
0.66796690 -0.16062956 -0.00000126
-0.72709233 0.06967245 -0.00000009
0.32802847 0.25086269 -0.00000098
-0.79879433 0.78896368 -0.00000000
-0.34531805 0.19752505 -0.00000052
-0.41862807 -0.63265586 -0.00000010
-0.62394416 -0.43048212 -0.00000011
-0.11316386 -0.16055277 -0.00000040
-0.73375213 -0.54077280 0.00000000
0.16111104 -0.40937972 -0.00000024
0.41353038 0.14543560 -0.00000105
-0.02095231 -0.29827067 -0.00000031
0.21375541 -0.38853568 -0.00000026
0.05979200 0.41689336 -0.00000076
-0.72207266 -0.11031531 -0.00000006
-0.15644848 -0.29219615 -0.00000032
-0.52237231 -0.15663674 -0.00000027
-0.75678349 -0.00316593 -0.00000005
-0.36814705 0.11799698 -0.00000048
0.23937996 -0.25969335 -0.00000034
0.23965597 -0.04659452 -0.00000047
-0.79255223 0.59309095 -0.00000001
-0.10813694 -0.48551288 -0.00000020
-0.60229272 0.77592933 -0.00000025
-0.30020952 0.47308931 -0.00000062
-0.61348569 -0.65176731 -0.00000008
-0.50205266 0.54036105 -0.00000037
-0.24794295 -0.27432081 -0.00000033
-0.55304950 0.63127112 -0.00000031
-0.42544919 0.53542471 -0.00000047
0.12995104 -0.08876642 -0.00000044
-0.64846790 0.30391848 -0.00000019
0.05188990 -0.61291492 -0.00000012
-0.28005978 -0.19579951 -0.00000038
-0.61912894 0.56190372 -0.00000023
0.35342735 -0.35071433 -0.00000028
0.56091404 0.11881260 -0.00000147
-0.16789792 0.17044879 -0.00000061
-0.56803888 0.41489205 -0.00000029
0.01775685 -0.66475147 -0.00000008
-0.19168591 -0.34277567 -0.00000029
-0.30425099 0.64894831 -0.00000062
-0.40235323 -0.30510563 -0.00000031
-0.30338946 0.04754774 -0.00000053
-0.69414121 -0.67951846 0.00000000
0.27303594 0.29992285 -0.00000090
-0.26347518 -0.52284223 -0.00000017
0.14503863 0.32684273 -0.00000070
-0.38172036 -0.08163725 -0.00000043
0.68551511 -0.27851012 -0.00000109
-0.30463058 -0.58539462 -0.00000013
-0.02046195 -0.33073816 -0.00000029
0.39398265 0.09994833 -0.00000090
-0.42706963 -0.32903296 -0.00000029
-0.55812758 -0.16880697 -0.00000023
0.10530685 0.19466732 -0.00000062
0.33048120 -0.06253037 -0.00000046
0.37569958 0.02827288 -0.00000070
0.14205563 -0.32123736 -0.00000030
-0.54937422 0.37034020 -0.00000031
-0.23487693 0.65403306 -0.00000071
-0.07411129 -0.12878887 -0.00000042
0.14490096 0.41844937 -0.00000076
-0.39249074 -0.71593755 -0.00000005
0.60720229 -0.32495439 -0.00000075
0.39886621 -0.45844287 -0.00000021
-0.29603350 0.59230894 -0.00000063
-0.34122780 0.22549325 -0.00000053
-0.11497518 -0.51971155 -0.00000018
0.03066900 0.34684244 -0.00000072
0.08621694 -0.77309710 -0.00000002
-0.67776573 0.49529141 -0.00000015
-0.75474215 0.08885901 -0.00000006
0.45766592 0.07312180 -0.00000105
0.10359299 0.12129049 -0.00000058
-0.19891842 -0.19082004 -0.00000038
-0.05442415 -0.64923948 -0.00000009
-0.65336454 -0.27973419 -0.00000011
-0.29520318 -0.00212412 -0.00000050
-0.34072310 0.76861125 -0.00000057
0.23938584 -0.78960997 -0.00000001
0.08612375 0.21569431 -0.00000063
-0.08759361 -0.74886733 -0.00000003
0.47415271 -0.13789958 -0.00000069
-0.61062485 -0.34523472 -0.00000014
0.20867333 -0.14098591 -0.00000041
-0.19111705 0.52903610 -0.00000075
0.74309874 -0.28184095 -0.00000127
0.47367111 0.23258761 -0.00000141
0.21363519 0.34598377 -0.00000080
-0.68622142 0.36359593 -0.00000014
-0.13975251 0.60573357 -0.00000082
-0.36448067 -0.39130142 -0.00000026
-0.54841632 -0.06623095 -0.00000026
-0.42770568 0.36997589 -0.00000046
-0.49572372 -0.72820985 -0.00000004
-0.21652293 0.62237072 -0.00000073
-0.71114838 0.30452722 -0.00000011
-0.02725001 0.21499951 -0.00000063
0.58823377 -0.62298673 -0.00000011
0.19662383 -0.45994622 -0.00000021
0.66554880 -0.72389376 -0.00000016
-0.15895340 0.54654747 -0.00000078
-0.24875391 0.48163611 -0.00000068
-0.74166304 0.65708071 -0.00000007
0.09582619 -0.13302501 -0.00000042
-0.07831787 0.41391644 -0.00000076
-0.44644231 0.55783069 -0.00000044
0.34536994 -0.41521722 -0.00000024
0.21882428 -0.63796556 -0.00000010
-0.00031202 0.46161002 -0.00000079
-0.53623021 -0.79324490 -0.00000000
-0.14348893 0.23575915 -0.00000065
0.22190122 -0.13748041 -0.00000041
-0.52344239 0.73020518 -0.00000035
-0.41313621 -0.48041752 -0.00000020
-0.06392774 -0.78713799 -0.00000001
-0.73883986 -0.75190276 0.00000000
-0.64119101 -0.57935590 -0.00000006
-0.05902659 0.12051236 -0.00000058
0.23504846 -0.50574303 -0.00000018
-0.43432248 0.58313686 -0.00000046
-0.76284593 -0.48897555 0.00000000
0.63784653 -0.77996266 -0.00000001
-0.11121265 -0.65562457 -0.00000009
-0.73013341 0.66607702 -0.00000009
0.33914873 0.40212026 -0.00000131
-0.72695112 -0.50668603 0.00000000
-0.54410589 0.42264515 -0.00000032
0.38275489 0.17236607 -0.00000100
0.02904872 -0.17863053 -0.00000039
0.26475149 -0.44675040 -0.00000022
0.54164827 -0.14086296 -0.00000090
-0.03955844 0.68708432 -0.00000093
-0.15096842 0.12407954 -0.00000058
-0.29652077 0.47012237 -0.00000062
0.70616686 -0.19732623 -0.00000131
-0.75239557 -0.32535937 0.00000000
-0.25256082 0.08581285 -0.00000055
-0.62581009 0.18458694 -0.00000022
-0.15696496 -0.42371106 -0.00000024
0.03007234 0.62981468 -0.00000089
-0.01664635 0.72376853 -0.00000095
0.21628642 -0.13681506 -0.00000041
0.32177651 -0.10483409 -0.00000043
-0.31018415 0.51710427 -0.00000061
-0.06780957 0.35971072 -0.00000072
-0.76973927 0.27502698 -0.00000004
0.39597878 -0.04360528 -0.00000062
0.22305208 -0.26654816 -0.00000033
0.26748294 0.39471415 -0.00000107
-0.79897004 -0.15053613 0.00000000
0.02949299 0.21723415 -0.00000064
0.47215822 0.29149181 -0.00000152
-0.30479357 0.44272593 -0.00000061
-0.77663630 -0.74334902 0.00000000
0.32520989 -0.71057153 -0.00000006
0.45981446 -0.59384775 -0.00000013
-0.54504937 0.38226640 -0.00000032
0.55166358 -0.44666174 -0.00000033
0.41156459 -0.74322790 -0.00000004
-0.20285802 -0.09194260 -0.00000044
-0.07646671 -0.79985327 -0.00000000
-0.74009472 -0.09514469 -0.00000005
-0.17922790 0.67957282 -0.00000078
-0.19024965 0.15136272 -0.00000059
0.57348073 -0.50681388 -0.00000029
0.16327298 0.36565652 -0.00000073
-0.28943661 0.39110443 -0.00000062
0.02094439 -0.67387933 -0.00000008
0.05858092 -0.29170269 -0.00000032
-0.68217188 -0.46142128 -0.00000004
-0.76807219 -0.67237961 0.00000000
-0.50766414 -0.14951995 -0.00000028
-0.43196389 0.20376018 -0.00000043
-0.63879466 -0.33578354 -0.00000011
0.41298074 -0.72522503 -0.00000005
0.69097811 -0.58639532 -0.00000051
-0.47431034 0.49523112 -0.00000041
-0.11605737 -0.18223216 -0.00000039
-0.48344669 0.59641689 -0.00000040
-0.49604747 0.70714319 -0.00000038
0.70012707 -0.75469232 -0.00000011
0.71823627 0.07730834 -0.00000189
-0.07480616 0.07162352 -0.00000054
-0.28741923 -0.63019544 -0.00000011
-0.71064353 0.60336328 -0.00000011
0.07547551 0.46622363 -0.00000079
0.63046044 0.14543006 -0.00000174
-0.38917360 -0.45132747 -0.00000022
0.11826322 -0.57131314 -0.00000014
0.28899133 0.26589459 -0.00000088
-0.57461691 -0.17691346 -0.00000021
-0.30125275 -0.09819791 -0.00000044
0.33216801 -0.54542553 -0.00000016
-0.60656667 0.19471987 -0.00000024
0.66220593 0.10951665 -0.00000177
-0.01631224 -0.39710060 -0.00000025
-0.61490130 0.23981057 -0.00000023
-0.79822010 -0.64113402 0.00000000
0.34393963 -0.27389163 -0.00000033
0.22165143 0.13096784 -0.00000058
-0.30180797 0.54713470 -0.00000062
-0.10444323 -0.17481446 -0.00000039
0.18234819 0.46415022 -0.00000093
-0.07560280 0.68511605 -0.00000090
0.11397620 -0.55909044 -0.00000015
0.56839490 -0.07500417 -0.00000111
-0.48993391 -0.61279750 -0.00000012
-0.79943717 -0.73875147 0.00000000
-0.06920327 -0.40602133 -0.00000025
0.13082224 0.00918308 -0.00000051
-0.70092624 0.07115858 -0.00000012
-0.00825613 -0.16987647 -0.00000039
-0.39983323 -0.71925104 -0.00000005
0.07039588 0.26812682 -0.00000067
-0.46436974 -0.16981176 -0.00000033
0.22835077 -0.27929732 -0.00000033
-0.19195217 -0.40340486 -0.00000025
-0.62341595 0.13696477 -0.00000021
-0.62058759 0.54943800 -0.00000022
0.30278084 -0.01260959 -0.00000049
0.10664412 0.67452902 -0.00000110
-0.69899446 0.77731174 -0.00000013
-0.54525048 0.25860736 -0.00000032
-0.36427918 -0.19560266 -0.00000038
0.78001893 -0.08945524 -0.00000176
-0.10835845 0.09068784 -0.00000056
0.62228787 -0.44129616 -0.00000057
-0.14119433 0.48427871 -0.00000079
0.75601512 -0.18711992 -0.00000149
0.05826096 0.26163247 -0.00000066
0.49329031 -0.33433867 -0.00000037
0.49129799 0.15814447 -0.00000132
-0.77681077 -0.49130574 0.00000000
-0.73779827 0.39014095 -0.00000008
0.45224518 -0.00624296 -0.00000087
0.48369855 -0.06315092 -0.00000086
0.46484578 -0.50051683 -0.00000019
-0.36462706 0.60501534 -0.00000054
0.60856456 -0.14590195 -0.00000110
0.10788444 0.45014045 -0.00000078
-0.70872867 0.56774688 -0.00000011
0.61760455 -0.63479543 -0.00000018
0.59981322 0.08706628 -0.00000153
-0.55109471 0.19029547 -0.00000030
0.25470585 0.01717738 -0.00000051
-0.19399421 0.00054571 -0.00000050
-0.58380139 0.17933398 -0.00000026
0.30532968 -0.23678815 -0.00000035
0.32756522 0.37727797 -0.00000122
-0.41845149 0.37540045 -0.00000048
0.78836042 0.00646941 -0.00000198
-0.76138186 0.58490294 -0.00000005
-0.30817214 0.45064873 -0.00000061
0.39202431 0.24009950 -0.00000116
0.15799007 0.51849556 -0.00000096
0.46269238 -0.78323901 -0.00000001
-0.54983395 0.11937819 -0.00000029
-0.44251859 -0.48794496 -0.00000020
-0.38847041 -0.32157066 -0.00000030
-0.44750574 0.51717514 -0.00000044
0.39832768 -0.77201772 -0.00000002
-0.57068074 -0.29537314 -0.00000019
-0.66896367 -0.74274200 -0.00000000
0.66204005 0.03893839 -0.00000163
0.62173158 -0.46295241 -0.00000053
0.11775544 0.29561102 -0.00000068
-0.05344055 -0.13937043 -0.00000041
0.19241373 0.21691266 -0.00000064
0.72446978 -0.05941691 -0.00000164
-0.34826267 0.05117207 -0.00000049
0.27097526 -0.78273493 -0.00000001
-0.42283535 0.61403269 -0.00000047
0.55741209 -0.68414295 -0.00000007
-0.28224465 0.28360990 -0.00000060
0.14198126 0.40374085 -0.00000075
-0.66932499 0.68761247 -0.00000016
0.37246096 -0.03957385 -0.00000055
0.67141670 -0.22251780 -0.00000115
0.26050079 0.04371487 -0.00000053
-0.79808980 -0.53294492 0.00000000
-0.58202618 0.19369942 -0.00000027
0.36010867 -0.09191757 -0.00000044
0.58533835 0.15738153 -0.00000162
0.11744914 -0.23190203 -0.00000036
-0.78955436 -0.09221069 0.00000000
0.76794714 -0.34033260 -0.00000115
0.55573905 -0.18725294 -0.00000085
0.66757947 -0.04006064 -0.00000150
0.63196403 -0.18982376 -0.00000109
-0.61100996 0.66253936 -0.00000024
-0.48317981 0.46508899 -0.00000040
0.61835921 -0.37796202 -0.00000068
0.41986874 0.01812054 -0.00000082
-0.24399014 -0.47177029 -0.00000021
-0.17744984 -0.48312199 -0.00000020
-0.01163506 0.58890009 -0.00000087
-0.73171610 0.22693141 -0.00000009
-0.15327971 -0.41888481 -0.00000024
-0.53887761 0.16950789 -0.00000031
0.15771608 -0.49042651 -0.00000019
-0.31668314 -0.43315583 -0.00000023
-0.66647476 -0.05279946 -0.00000013
-0.13569105 0.45978710 -0.00000079
-0.27547535 -0.26432556 -0.00000033
-0.27064356 0.55227357 -0.00000066
-0.11086932 0.19237377 -0.00000062
-0.12815790 -0.63220650 -0.00000010
0.42760894 -0.74422622 -0.00000003
-0.02820383 0.37503722 -0.00000073
-0.14647269 -0.40551156 -0.00000025
0.12629405 -0.37593517 -0.00000027
0.58490741 0.00303534 -0.00000132
-0.77706319 0.32015052 -0.00000003
0.23102659 0.50501412 -0.00000116
-0.52826887 -0.30315733 -0.00000023
0.01781776 0.70636588 -0.00000094
0.10617718 0.40107730 -0.00000075
-0.52020586 -0.41141835 -0.00000022
0.33167067 -0.47826770 -0.00000020
0.38417304 -0.66713214 -0.00000008
0.76544023 -0.32270047 -0.00000119
0.62186074 0.03984795 -0.00000151
0.69047838 -0.78618908 -0.00000003
0.62413406 -0.26967594 -0.00000091
-0.07937257 -0.74266809 -0.00000004
0.17947638 -0.19602928 -0.00000038
-0.14671394 0.37844783 -0.00000074
-0.03510353 0.53148943 -0.00000083
-0.74229944 0.15416203 -0.00000007
-0.60746443 0.15807560 -0.00000023
-0.25627124 -0.30509317 -0.00000031
-0.59626907 0.13722725 -0.00000024
0.24932063 -0.60070711 -0.00000012
-0.64349312 -0.04052124 -0.00000016
0.79538947 -0.46260309 -0.00000084
0.04873415 0.68260866 -0.00000093
-0.39120385 -0.44283181 -0.00000022
-0.79110360 0.59578013 -0.00000001
0.44506750 -0.52267015 -0.00000017
-0.55633003 0.23321725 -0.00000030
-0.15813743 -0.37908164 -0.00000026
0.75859088 -0.79975176 -0.00000000
0.55738258 -0.06206693 -0.00000110
0.00442182 0.42566901 -0.00000077
-0.70116371 0.68176877 -0.00000012
0.18348417 0.47538537 -0.00000095
-0.35276240 0.31372824 -0.00000053
-0.25181723 -0.73559815 -0.00000004
-0.16504180 0.16116212 -0.00000060
-0.47016028 0.47937772 -0.00000041
-0.23529443 0.43306506 -0.00000068
-0.61240506 -0.38043836 -0.00000013
-0.76078010 0.76149935 -0.00000005
-0.65466595 -0.74594790 -0.00000002
-0.18103674 -0.02729843 -0.00000048
0.15891933 0.41206631 -0.00000076
-0.67901945 -0.52527517 -0.00000003
0.21489930 0.11424999 -0.00000057
0.70715278 -0.35039535 -0.00000102
-0.68750709 -0.12721486 -0.00000010
-0.50278634 -0.75723451 -0.00000003
-0.79723173 -0.22270662 0.00000000
-0.76113355 -0.18780255 -0.00000001
0.45102954 -0.69050169 -0.00000007
-0.74085724 0.56605482 -0.00000007
-0.31836557 0.64743298 -0.00000060
0.30545369 0.19993973 -0.00000081
-0.34620628 -0.73750728 -0.00000004
-0.46357337 -0.60504496 -0.00000012
-0.74216723 0.79750991 -0.00000007
-0.40356085 0.50415778 -0.00000050
0.36974147 0.11433271 -0.00000085
0.51125824 0.13118328 -0.00000133
-0.63573825 0.03327346 -0.00000018
-0.60672337 0.20037252 -0.00000024
-0.04075076 -0.55803674 -0.00000015
-0.06847342 -0.26854196 -0.00000033
0.67739809 -0.24464099 -0.00000113
0.72232670 -0.59322399 -0.00000052
0.60642815 -0.04986748 -0.00000128
0.04043660 -0.34958348 -0.00000028
-0.68741095 -0.78902012 0.00000000
-0.19455247 -0.66261202 -0.00000009
0.12448079 0.13367152 -0.00000058
-0.03820288 0.42587194 -0.00000077
0.59946811 -0.03722197 -0.00000129
-0.69126207 0.20215286 -0.00000014
-0.10005012 0.50064826 -0.00000081
0.09269643 0.29004708 -0.00000068
-0.19280338 0.42777911 -0.00000073
0.77435088 -0.53444761 -0.00000066
0.11586256 -0.61795509 -0.00000011
-0.77802414 0.26828557 -0.00000003
0.00430492 0.78307128 -0.00000099
-0.62776363 -0.52428818 -0.00000009
-0.12400910 -0.77309072 -0.00000002
-0.78678012 0.16354932 -0.00000002
0.42166159 -0.32821375 -0.00000029
-0.21136479 0.11424454 -0.00000057
0.18000169 0.30578542 -0.00000069
-0.44430238 0.19158490 -0.00000041
-0.32436329 -0.44071871 -0.00000022
0.59473974 -0.44513914 -0.00000047
0.37849674 0.05509111 -0.00000076
0.42649359 -0.09778362 -0.00000061
-0.24622215 0.46282241 -0.00000068
0.08893299 -0.26189822 -0.00000034
0.55193835 0.14960431 -0.00000150
0.76529413 -0.42336896 -0.00000094
-0.74566787 -0.52884573 0.00000000
0.74831665 -0.50085157 -0.00000075
-0.57034898 -0.55807930 -0.00000014
-0.23711011 -0.52010721 -0.00000017
-0.67379564 -0.17989980 -0.00000010
-0.05828364 0.07412661 -0.00000055
-0.12161135 -0.75947213 -0.00000003
-0.28065154 0.06462138 -0.00000054
-0.24670209 0.67744911 -0.00000069
0.00392946 0.60839009 -0.00000088
-0.76038766 -0.38298613 0.00000000
0.24905691 0.44318867 -0.00000110
-0.61595094 -0.31826797 -0.00000014
-0.59625995 -0.68801486 -0.00000007
0.56065965 0.19264627 -0.00000161
0.40094110 0.29096276 -0.00000129
0.33056936 0.21110439 -0.00000091
-0.39136428 -0.30626690 -0.00000031
0.68720448 -0.71286774 -0.00000022
-0.59077281 -0.20044865 -0.00000019
-0.19201805 0.18118593 -0.00000061
-0.27635241 -0.64238846 -0.00000010
-0.13017555 0.03921950 -0.00000052
-0.72293955 -0.04815737 -0.00000007
-0.34932327 -0.64958441 -0.00000009
0.40195763 0.20363057 -0.00000112
0.45406711 0.20643556 -0.00000130
0.07865482 0.07211249 -0.00000055
-0.24128769 -0.12849593 -0.00000042
0.76919645 -0.26981226 -0.00000133
-0.64066058 0.11718487 -0.00000019
-0.68918461 0.43776980 -0.00000014
0.48116133 -0.60483813 -0.00000012
0.73646182 -0.44447348 -0.00000089
-0.14645481 -0.09499706 -0.00000044
0.17906770 -0.42716458 -0.00000023
0.01388141 -0.38998631 -0.00000026
0.57382697 -0.02301976 -0.00000123
-0.44043386 -0.14842910 -0.00000036
0.25232446 -0.71643770 -0.00000005
-0.71010822 -0.33645558 -0.00000003
0.47917321 -0.62463301 -0.00000011
-0.27790797 -0.70731342 -0.00000006
-0.18732063 -0.27742115 -0.00000033
-0.15821598 -0.26928911 -0.00000033
-0.10281856 -0.17268451 -0.00000039
-0.77263206 -0.19270213 0.00000000
0.26386353 -0.07612684 -0.00000045
-0.33479011 0.48134521 -0.00000058
-0.23376033 0.50091666 -0.00000070
-0.01955407 -0.49232537 -0.00000019
-0.54173094 -0.60803813 -0.00000012
-0.00467440 0.78749901 -0.00000099
0.11890326 0.10277079 -0.00000056
0.27082223 -0.27724847 -0.00000033
-0.18116371 0.30956596 -0.00000069
0.54821426 -0.59384274 -0.00000013
0.39255145 -0.32557812 -0.00000030
0.28518677 0.33568007 -0.00000101
-0.53716582 -0.76549691 -0.00000002
-0.14374331 -0.01937783 -0.00000049
0.38473317 -0.76091433 -0.00000002
-0.46690008 -0.75627148 -0.00000003
-0.74951941 -0.34433195 0.00000000
-0.51969898 0.03684436 -0.00000031
-0.50715846 -0.26656508 -0.00000026
0.53783059 -0.66038841 -0.00000009
0.00496114 0.00964822 -0.00000051
0.57273799 -0.70881182 -0.00000006
0.24925600 -0.02194071 -0.00000049
-0.47543445 0.73480797 -0.00000041
-0.32413948 -0.28495502 -0.00000032
0.28155684 0.37957507 -0.00000108
0.29281518 0.42096144 -0.00000120
-0.11528411 -0.06145764 -0.00000046
0.36537087 -0.78734392 -0.00000001
0.66695905 -0.67500460 -0.00000026
-0.05177787 -0.74098027 -0.00000004
0.74853504 -0.63519377 -0.00000041
-0.48082802 0.44872966 -0.00000040
0.17551778 -0.53208911 -0.00000017
-0.30138680 0.35563925 -0.00000060
-0.74834007 -0.70491004 0.00000000
-0.14863060 -0.73308462 -0.00000004
0.61049074 -0.09376039 -0.00000121
-0.78759545 -0.08088972 0.00000000
0.47173256 -0.01276722 -0.00000092
-0.79145604 -0.67186755 0.00000000
0.08052828 -0.02312827 -0.00000049
-0.67751271 -0.04007087 -0.00000012
-0.16447727 -0.28327119 -0.00000032
0.06073451 -0.78220361 -0.00000001
0.24614681 0.31223124 -0.00000084
0.05752180 0.67911839 -0.00000095
0.07285384 -0.02154328 -0.00000049
-0.79454595 0.12138381 -0.00000001
0.18999860 -0.65572363 -0.00000009
-0.59119976 0.63774318 -0.00000026
0.16978529 -0.17784470 -0.00000039
-0.52091897 -0.01821581 -0.00000029
-0.48312429 0.39041221 -0.00000040
-0.47036004 0.41824394 -0.00000041
-0.50867212 0.42404196 -0.00000036
0.35588172 0.15638818 -0.00000088
0.34027115 0.13751787 -0.00000080
0.25975204 -0.38535106 -0.00000026
-0.76418400 0.45516464 -0.00000004
-0.23485050 -0.53871691 -0.00000016
-0.61203319 -0.48672843 -0.00000011
-0.16445866 -0.59567028 -0.00000013
-0.67533976 -0.63701671 -0.00000002
-0.67187673 0.12284787 -0.00000016
0.18686765 -0.57770121 -0.00000014
-0.54980356 0.27474022 -0.00000031
0.57036686 -0.65005791 -0.00000009
0.24010541 -0.43333098 -0.00000023
-0.65304011 -0.23740865 -0.00000011
-0.44092301 -0.27697125 -0.00000033
-0.03343458 -0.55571079 -0.00000015
-0.15523641 0.54341286 -0.00000079
-0.32393548 -0.46849316 -0.00000021
0.09538486 -0.53766161 -0.00000016
-0.20977864 0.13934629 -0.00000059
0.17015158 0.20992704 -0.00000063
-0.71978438 0.36853108 -0.00000010
0.55487883 -0.15455171 -0.00000091
-0.11963015 0.02644562 -0.00000052
0.53432995 -0.24144857 -0.00000068
0.76155639 -0.02363204 -0.00000183
-0.59918588 -0.60844290 -0.00000010
-0.08404022 0.35263130 -0.00000072
-0.21842630 -0.20602544 -0.00000037
0.42847112 -0.59076166 -0.00000013
-0.55421108 -0.45106885 -0.00000018
0.40003017 -0.16265710 -0.00000040
-0.00838115 -0.09601224 -0.00000044
0.46027145 -0.69925827 -0.00000006
-0.77460456 -0.40651327 0.00000000
-0.66142035 -0.50094515 -0.00000006
-0.08916344 0.01889807 -0.00000051
-0.02602992 -0.45539430 -0.00000022
0.03163029 -0.38769743 -0.00000026
0.41917634 -0.25854400 -0.00000034
0.06478539 -0.17229451 -0.00000039
-0.17710303 0.36125001 -0.00000073
0.18741632 -0.17814966 -0.00000039
-0.59453642 0.71651179 -0.00000026
-0.28576127 0.63594079 -0.00000064
0.22303601 0.56927037 -0.00000126
0.18728977 -0.38847682 -0.00000026
0.75419980 0.04077668 -0.00000193
-0.55935878 0.34680745 -0.00000030
0.25011790 -0.50379485 -0.00000019
0.20011064 -0.18185122 -0.00000039
-0.53674763 0.48647225 -0.00000033
-0.57166350 -0.18938699 -0.00000021
0.72972256 0.02539408 -0.00000182
-0.77756774 0.08536156 -0.00000003
-0.22072800 0.17394142 -0.00000061
-0.30434728 0.37213850 -0.00000060
0.62346733 -0.40712348 -0.00000064
0.06049742 0.18771109 -0.00000062
-0.37975043 -0.12048456 -0.00000042
0.73771608 0.02264185 -0.00000184
-0.60090858 0.75536567 -0.00000025
0.27821890 0.33561105 -0.00000098
0.70930248 -0.00983517 -0.00000169
-0.02264822 -0.30369830 -0.00000031
0.35360417 -0.77102685 -0.00000002
-0.71617204 -0.46335286 -0.00000000
0.07924123 0.11161290 -0.00000057
-0.69238144 0.14732347 -0.00000013
-0.36921799 0.79589778 -0.00000054
-0.70302296 0.47402915 -0.00000012
0.23544951 -0.11577404 -0.00000043
-0.39241564 -0.59260660 -0.00000013
-0.18772800 -0.03496246 -0.00000048
0.58111113 0.02892257 -0.00000136
0.01036643 -0.16387065 -0.00000040
0.21868299 0.48578861 -0.00000109
0.04021117 -0.59304947 -0.00000013
0.36853215 -0.39311913 -0.00000025
0.00661734 0.73978007 -0.00000096
-0.72079563 0.05859348 -0.00000010
-0.10796471 -0.66404134 -0.00000008
-0.10183149 0.21099621 -0.00000063
0.26920685 -0.34102005 -0.00000029
0.54213417 -0.52723867 -0.00000017
-0.75114560 0.02406879 -0.00000006
-0.57795089 0.56740165 -0.00000028
-0.16499273 -0.56305039 -0.00000015
-0.22794004 -0.35619336 -0.00000028
0.39815840 -0.38934231 -0.00000026
0.18844900 -0.45387655 -0.00000022
-0.20161690 0.20092368 -0.00000063
-0.49760741 0.15871964 -0.00000035
0.59338689 -0.55170196 -0.00000026
-0.47883359 -0.17319264 -0.00000031
0.41663745 -0.42298970 -0.00000024
-0.02642487 -0.19654949 -0.00000038
0.28182188 -0.48362577 -0.00000020
0.69333899 -0.01040144 -0.00000164
-0.51409352 -0.54938883 -0.00000016
0.50740153 -0.03212650 -0.00000100
-0.75906497 0.33527672 -0.00000005
-0.34873658 -0.36642092 -0.00000027
0.35719740 0.26928625 -0.00000111
0.72742212 -0.14306854 -0.00000149
-0.69696063 -0.07024958 -0.00000010
0.30184013 -0.47364414 -0.00000020
-0.41531777 0.42779759 -0.00000048
0.50109470 0.28037941 -0.00000159
0.26235664 -0.70350301 -0.00000006
-0.14877278 -0.04861912 -0.00000047
0.07673498 0.24135859 -0.00000065
0.66110367 -0.43258059 -0.00000071
0.78791308 -0.51473707 -0.00000071
-0.05259096 0.70843649 -0.00000093
-0.68078870 -0.10866559 -0.00000011
0.22073388 0.25877279 -0.00000066
0.44238004 0.05010874 -0.00000095
0.11651599 -0.48549688 -0.00000020
-0.20729600 -0.14695717 -0.00000041
0.02763707 -0.54486042 -0.00000016
0.21494639 0.45291299 -0.00000101
-0.34219909 0.50992125 -0.00000057
0.06392251 0.42781872 -0.00000077
-0.41470957 -0.64020115 -0.00000010
0.34095240 0.21874700 -0.00000096
0.50260586 -0.18135972 -0.00000069
0.73986566 -0.10999471 -0.00000159
0.08722875 0.62417960 -0.00000094
-0.05739768 0.51473248 -0.00000082
0.16788986 0.33820230 -0.00000071
-0.78130531 0.01484974 -0.00000002
-0.71970922 -0.07278387 -0.00000007
-0.13264686 -0.52607298 -0.00000017
-0.03729482 -0.14962837 -0.00000041
-0.09274058 0.74613613 -0.00000088
-0.50670046 -0.68886870 -0.00000007
-0.24705902 -0.58817887 -0.00000013
0.11735096 0.41164181 -0.00000076
-0.23444162 0.09143749 -0.00000056
-0.52971673 0.78601855 -0.00000034
-0.77981365 0.10053727 -0.00000003
-0.20969582 0.40131783 -0.00000070
-0.26899248 0.36056599 -0.00000063
-0.40300596 -0.26285553 -0.00000034
-0.28982753 -0.31265214 -0.00000030
-0.25696173 -0.70123607 -0.00000006
0.25248247 -0.15189965 -0.00000041
0.40065810 -0.66772127 -0.00000008
-0.56003451 -0.34083548 -0.00000019
-0.53579879 -0.44945627 -0.00000020
0.58561140 0.20626299 -0.00000172
0.11556895 -0.75646847 -0.00000003
-0.29048243 0.37794772 -0.00000061
-0.57990235 -0.07754142 -0.00000022
0.65308845 -0.45267859 -0.00000065
-0.39934000 -0.43698651 -0.00000023
-0.42168289 -0.26009718 -0.00000034
0.04573939 -0.21781510 -0.00000036
0.17324020 -0.04329157 -0.00000047
-0.24628700 0.16516282 -0.00000060
0.31296298 -0.11905045 -0.00000043
-0.41806391 -0.17518282 -0.00000038
0.17596714 -0.56416488 -0.00000015
-0.44216442 0.23355640 -0.00000042
0.42647976 0.06530914 -0.00000093
-0.56124562 0.22121792 -0.00000030
-0.19722122 -0.50365072 -0.00000019
-0.32146996 -0.61046982 -0.00000012
-0.07428246 0.24476297 -0.00000065
-0.10373598 -0.22597906 -0.00000036
-0.29211694 -0.74461812 -0.00000003
0.03934380 -0.09221311 -0.00000044
-0.17939515 -0.61775351 -0.00000011
-0.38644758 0.47841480 -0.00000052
0.75611472 -0.46236941 -0.00000084
0.46358269 -0.04473797 -0.00000084
-0.66271883 0.51435977 -0.00000017
0.35363880 -0.44340265 -0.00000022
-0.50322777 0.58455610 -0.00000037
0.79967362 -0.19483083 -0.00000151
0.36385784 -0.54292208 -0.00000016
0.09933980 -0.32267126 -0.00000030
-0.50055599 0.08113242 -0.00000033
0.53624487 0.01305177 -0.00000118
0.08944457 -0.42012930 -0.00000024
0.33281684 -0.70295221 -0.00000006
-0.48548445 -0.58528262 -0.00000013
-0.78582609 -0.64378762 0.00000000
0.45490173 0.02647397 -0.00000095
0.03073110 0.29403934 -0.00000068
-0.75735629 -0.32681480 0.00000000
0.64911532 -0.13563952 -0.00000125
-0.07214099 -0.75646949 -0.00000003
-0.02913388 -0.63044137 -0.00000011
0.27400902 0.45318839 -0.00000120
0.79032558 -0.17303146 -0.00000157
-0.12221783 -0.44848081 -0.00000022
-0.60745811 -0.67898005 -0.00000008
-0.47000039 -0.09871372 -0.00000033
-0.33504450 0.79446381 -0.00000058
-0.46546882 -0.10320860 -0.00000034
0.58781105 0.08618815 -0.00000149
-0.79588199 0.54974973 -0.00000001
-0.44493821 0.63157785 -0.00000044
-0.61836243 -0.68346357 -0.00000007
0.47395340 0.00905717 -0.00000097
-0.25567746 -0.13315567 -0.00000042
-0.08683976 -0.07487149 -0.00000045
0.09629466 -0.04814994 -0.00000047
-0.24079931 -0.07580645 -0.00000045
-0.76262671 -0.19008572 -0.00000001
-0.25765821 0.42036363 -0.00000066
