ply
format ascii 1.0
element vertex 1153
property float x
property float y
property float z
end_header
-0.09945824 -0.19866242 0.00000128
-0.37102395 0.13546608 -0.06666745
-0.52861798 -0.36557519 -0.03189599
-0.25012702 0.39153403 -0.05634293
-0.11420954 0.24579772 -0.00000333
-0.45353189 -0.07067516 -0.06466323
-0.35492346 0.23603655 -0.08446042
-0.50342095 0.02488707 -0.12695388
-0.26859879 -0.02769338 0.00000079
-0.71301061 -0.73160386 -0.05471536
-0.44829133 -0.44795534 -0.00000161
-0.55148113 -0.18318570 -0.10041012
-0.11511691 0.61087507 -0.02560164
-0.65519333 -0.78178573 0.11279017
-0.06722404 0.43311334 -0.00000077
-0.17837170 0.18936540 -0.00000259
-0.34648821 -0.41114178 -0.00000088
-0.31119224 0.01744100 -0.00000224
-0.27406809 -0.25658390 0.00000004
-0.18283685 -0.04558358 0.00000125
-0.31844297 -0.23360872 -0.00000015
-0.07654778 0.63241845 -0.00496241
-0.23401704 0.06741559 -0.00000351
-0.16597395 0.44798562 -0.01403486
-0.65307856 -0.77668029 0.15767460
-0.35945049 0.25287920 -0.09246917
-0.25255075 0.34029418 -0.04325397
-0.37180275 0.03525545 -0.03831127
-0.37544081 -0.73823637 -0.00000207
-0.55134606 0.00904210 -0.15575002
-0.66580486 -0.80740362 0.10492913
-0.72220373 -0.23835938 -0.20335612
-0.02842549 -0.18139981 0.00000176
-0.13361895 0.36719999 -0.00000016
-0.34196800 -0.16974041 -0.00000009
-0.30200362 -0.39933872 -0.00000057
-0.24143361 0.51514256 -0.08593634
-0.12218398 -0.39614820 0.00000052
-0.37082398 -0.44009942 -0.00000111
-0.33064348 0.14455967 -0.04117693
-0.25117478 -0.39201489 -0.00000024
-0.13797963 -0.33671537 0.00000061
-0.66146642 -0.44971454 -0.10012129
-0.10418578 -0.01989798 0.00000181
-0.11129559 -0.77613366 -0.00000060
-0.29472280 -0.03546647 0.00000061
-0.00756906 -0.51704532 0.00000084
-0.12109236 -0.59390283 -0.00000009
-0.19396693 -0.37889197 0.00000015
-0.33620092 -0.06772031 0.00000026
-0.10202668 -0.29606178 0.00000096
-0.04370980 -0.69639057 0.00000006
-0.54300171 -0.34888619 -0.04672268
-0.60502076 -0.47243753 -0.05427105
-0.34768498 0.28575617 -0.09375895
-0.40899467 -0.03697475 -0.04337481
-0.23765589 0.02731182 -0.00000425
-0.23039398 -0.59777784 -0.00000076
-0.47947708 -0.31488386 -0.01230227
-0.00257527 0.54266334 -0.00000039
-0.58829659 -0.68325639 -0.00000319
-0.21904072 -0.71347624 -0.00000105
-0.59223682 0.09369748 -0.20863079
-0.61284202 -0.34174934 -0.09740361
-0.32010356 -0.69758093 -0.00000161
-0.09589809 0.64822102 -0.02299118
-0.58314139 -0.25601885 -0.10144866
-0.33352402 0.01515601 -0.00586543
-0.19007440 -0.32914454 0.00000032
-0.31517670 -0.46230066 -0.00000085
-0.25988445 -0.72383547 -0.00000133
-0.08592062 0.14218009 -0.00000639
-0.63313717 -0.06308085 -0.19189447
-0.24208353 0.01224656 -0.00000443
-0.08754808 -0.74320799 -0.00000035
-0.43208760 0.29357821 -0.15477575
-0.47145846 -0.05993803 -0.08024004
-0.19024010 0.01486187 -0.00000594
-0.27544820 0.28127286 -0.04217484
-0.07322058 0.65527928 -0.00923854
-0.37992471 -0.40050331 -0.00000104
-0.47113812 -0.25109813 -0.02489098
-0.24308190 -0.43903446 -0.00000034
-0.07623839 0.19255263 -0.00000561
-0.45663503 -0.36485499 -0.00000140
-0.02634002 0.44774410 -0.00000169
-0.36315951 0.03593544 -0.03248995
-0.03598249 0.68573427 0.00000366
-0.58040333 0.00046792 -0.17350709
-0.27120456 0.45172167 -0.08837381
-0.18691368 -0.36084539 0.00000024
-0.40942463 0.15144810 -0.09801084
-0.03790748 0.34254849 -0.00000358
-0.35388777 -0.44760191 -0.00000103
-0.12466259 0.31939527 -0.00000145
-0.04828132 -0.64709580 0.00000019
-0.28232923 -0.60237992 -0.00000109
-0.11367053 0.16933380 -0.00000497
-0.00948705 0.36030585 -0.00000406
-0.65749282 -0.37563398 -0.11871795
-0.59689194 -0.04730085 -0.17121109
-0.25219280 -0.70840842 -0.00000124
-0.08809824 0.48910099 0.00000105
-0.26774272 0.23207961 -0.02262410
-0.07753320 0.05283916 -0.00000854
-0.00723864 -0.53946364 0.00000086
-0.13884911 -0.73374587 -0.00000063
-0.27603650 -0.50228262 -0.00000074
-0.58854246 0.09449485 -0.20628873
-0.53781617 0.09541150 -0.17123739
-0.19445133 -0.63339823 -0.00000065
-0.66710556 -0.07818400 -0.21118785
-0.65101951 -0.49179143 -0.08071416
-0.34670582 -0.19228318 -0.00000019
-0.05814690 0.03789324 -0.00000944
-0.69560480 -0.79833937 -0.02335273
-0.49124250 0.06370940 -0.12967069
-0.48670372 0.05065077 -0.12274500
-0.36489394 -0.58621508 -0.00000153
-0.11980183 -0.28512248 0.00000089
-0.63898915 -0.72471249 -0.00516971
-0.35653454 -0.24162884 -0.00000041
-0.21207508 -0.52081627 -0.00000041
-0.00703138 -0.66340351 0.00000038
-0.67952651 -0.28735480 -0.15951541
-0.21880279 0.06232783 -0.00000407
-0.70460463 -0.71983564 -0.05225695
-0.23390415 0.15290695 -0.00000169
-0.62675530 -0.57014245 -0.04122687
-0.16859376 0.57915020 -0.05368354
-0.34005046 -0.19252177 -0.00000015
-0.46045503 0.14036672 -0.13034260
-0.47714117 -0.00829885 -0.09908787
-0.30110985 -0.68878162 -0.00000147
-0.27753603 -0.18722108 0.00000024
-0.46348867 0.23367698 -0.15936308
-0.04600126 -0.04359957 0.00000209
-0.25833225 0.07363626 -0.00000264
-0.41750032 -0.61068648 -0.00000193
-0.16677050 -0.16565681 0.00000098
-0.54021025 -0.29406103 -0.06058952
-0.47155744 -0.40319359 -0.00000161
-0.51424307 -0.16974346 -0.07836139
-0.70911962 -0.34044793 -0.16480713
-0.21923570 -0.39064816 -0.00000004
-0.31590050 0.08967184 -0.01508453
-0.47850707 -0.49575338 -0.00000194
-0.21038508 -0.57483160 -0.00000057
-0.52285326 -0.20624946 -0.07382835
-0.10921098 0.46881691 0.00000126
-0.08613291 -0.06263203 0.00000178
-0.53620923 -0.08897054 -0.11694724
-0.65430874 0.01288120 -0.22853976
-0.33578548 -0.55418193 -0.00000126
-0.40890422 -0.18194860 -0.00150483
-0.20018850 -0.39845452 0.00000005
-0.67453521 -0.82847995 0.12461367
-0.60702842 -0.46579143 -0.05758537
-0.05556786 0.09245226 -0.00000836
-0.21536431 -0.42825392 -0.00000014
-0.20434955 -0.41395146 -0.00000003
-0.33839485 -0.74569273 -0.00000187
-0.29641250 0.21881850 -0.03875981
-0.10095395 0.65508765 -0.02849125
-0.07088025 -0.56807184 0.00000030
-0.07715048 -0.47082546 0.00000056
-0.53641868 0.09028059 -0.16878483
-0.15078236 0.38465565 0.00000072
-0.43678221 -0.31289074 -0.00000111
-0.15500091 -0.59286249 -0.00000029
-0.29192382 -0.68223035 -0.00000139
-0.61790949 0.04394835 -0.21215762
-0.14634819 0.03128496 -0.00000692
-0.32921404 0.31640241 -0.08973713
-0.05372341 -0.04247805 0.00000204
-0.14081030 -0.46409780 0.00000020
-0.53102112 -0.42791837 -0.01559075
-0.22173855 0.53358948 -0.07754430
-0.18516257 -0.34751472 0.00000030
-0.27789423 0.45568129 -0.09417301
-0.29639810 -0.40202412 -0.00000055
-0.34295249 -0.48526117 -0.00000109
-0.44334280 -0.10297328 -0.04825558
-0.74080390 -0.64628977 -0.09866727
-0.73727840 -0.27653354 -0.20284227
-0.59790099 -0.66925740 -0.00000320
-0.17830881 -0.79362971 -0.00000106
-0.18484844 -0.17898317 0.00000083
-0.55372036 0.12747154 -0.19155528
-0.72446162 -0.44684863 -0.14480437
-0.33152515 0.18263355 -0.05277035
-0.63091266 -0.02401435 -0.20161162
-0.32316285 -0.68350160 -0.00000159
-0.53481996 0.13134463 -0.17951369
-0.22266699 -0.38720801 -0.00000005
-0.15635262 0.09878477 -0.00000518
-0.28200892 -0.41524291 -0.00000050
-0.69890010 -0.25535247 -0.18223205
-0.39853182 0.24583890 -0.11764733
-0.20732434 -0.29516676 0.00000033
-0.02503516 0.64587849 0.00000248
-0.70001841 -0.57575768 -0.09061297
-0.25952742 -0.27347940 0.00000008
-0.03732647 -0.06380590 0.00000208
-0.49579430 -0.40152609 -0.00000175
-0.18668425 0.31456298 0.00000032
-0.68540353 -0.38329434 -0.13594033
-0.22434478 -0.12169562 0.00000077
-0.55202138 -0.25054723 -0.08136077
-0.54790443 -0.25303987 -0.07777574
-0.58372080 -0.44335344 -0.04782919
-0.05850274 0.13145126 -0.00000744
-0.15004744 -0.36814508 0.00000044
-0.14276949 0.48528448 -0.00863601
-0.33339009 0.33777905 -0.09880902
-0.54633576 -0.01600942 -0.14503758
-0.31372857 -0.78025818 -0.00000183
-0.14541620 0.06852114 -0.00000616
-0.13147768 -0.33003938 0.00000068
-0.32370049 0.37637156 -0.10319229
-0.19698799 -0.25059956 0.00000053
-0.45838678 -0.55148000 -0.00000199
-0.05559973 -0.48803395 0.00000064
-0.55905628 -0.13061331 -0.12084460
-0.19477998 0.26132703 -0.00000057
-0.44547519 -0.10189719 -0.05005046
-0.12605377 -0.23433691 0.00000101
-0.08081136 0.53716254 0.00000185
-0.46989745 -0.35980213 -0.00000146
-0.59584898 -0.71098202 -0.00000332
-0.41035661 -0.43263501 -0.00000133
-0.63058895 -0.71374977 -0.00248291
-0.67080104 -0.30166674 -0.14931352
-0.60153031 0.01867577 -0.19346645
-0.54169375 -0.71890581 -0.00000302
-0.43541104 -0.10974755 -0.04077995
-0.66472554 -0.72498542 -0.02300869
-0.29973602 0.30752522 -0.06665458
-0.52645302 0.06785906 -0.15538092
-0.23461857 -0.30942965 0.00000012
-0.71278411 -0.19373967 -0.20966569
-0.24511094 0.28856406 -0.02315664
-0.04744564 0.35295689 -0.00000307
-0.45012143 0.21172838 -0.14372738
-0.59073442 -0.39473936 -0.06673123
-0.18245742 -0.67596406 -0.00000071
-0.43018669 -0.35370147 -0.00000120
-0.07758436 -0.52175158 0.00000040
-0.45042524 -0.70802879 -0.00000243
-0.10716571 -0.00727637 0.00000183
-0.31862736 -0.77524799 -0.00000185
-0.23056687 -0.12624884 0.00000071
-0.64611155 -0.15793251 -0.17357424
-0.33671781 -0.08338887 0.00000021
-0.63471609 -0.08999227 -0.18523307
-0.48460740 -0.60430437 -0.00000231
-0.05238933 0.34645194 -0.00000306
-0.06589336 0.41321942 -0.00000123
-0.02362483 0.64422774 0.00000240
-0.14162187 -0.66242123 -0.00000042
-0.05957701 0.14310259 -0.00000716
-0.64700598 -0.05906696 -0.20270745
-0.40545055 -0.75118083 -0.00000229
-0.33233485 0.16066535 -0.04699897
-0.24514429 -0.10992141 0.00000068
-0.15256809 -0.54045194 -0.00000011
-0.32371575 0.09657641 -0.02251661
-0.70522583 -0.38082376 -0.15045288
-0.43172368 -0.35932004 -0.00000123
-0.26191932 0.31191117 -0.04159138
-0.02420063 -0.11207087 0.00000200
-0.14008862 -0.78571230 -0.00000080
-0.57268178 -0.43773526 -0.04176395
-0.48543119 -0.57194555 -0.00000222
-0.29354870 -0.46648604 -0.00000073
-0.20772511 0.04075776 -0.00000487
-0.43122742 0.05865721 -0.08643124
-0.42099094 -0.25674763 -0.00000084
-0.04677008 0.59832799 0.00000213
-0.41726589 -0.20074089 -0.00190696
-0.62192225 -0.71362656 -0.00000348
-0.52213544 -0.51718909 -0.00000227
-0.22599298 -0.50626373 -0.00000045
-0.16414098 -0.10405211 0.00000118
-0.21864972 -0.08807939 0.00000091
-0.18736471 -0.10899270 0.00000103
-0.20393445 0.34538382 -0.01087503
-0.66023219 -0.09062339 -0.20281541
-0.09884733 0.15041342 -0.00000582
-0.46160278 0.16822894 -0.13917647
-0.23684987 -0.75739819 -0.00000130
-0.16726176 0.07414349 -0.00000538
-0.04390133 0.13352343 -0.00000784
-0.21419576 -0.15600443 0.00000072
-0.56151527 -0.04000258 -0.14868650
-0.41517490 0.14364284 -0.09976333
-0.21662375 0.46457583 -0.05408148
-0.49406803 -0.22796381 -0.04752619
-0.34476665 0.17674200 -0.06029011
-0.00198760 -0.34013242 0.00000145
-0.12629256 0.02136456 -0.00000773
-0.14803103 0.44358265 -0.00027328
-0.06841720 0.64972311 -0.00429215
-0.61888808 -0.40477350 -0.08343819
-0.13739274 0.29540321 -0.00000158
-0.18820541 0.49781892 -0.04388313
-0.11746022 0.59267670 -0.02198507
-0.44173923 0.16579413 -0.12464533
-0.49924338 -0.09237442 -0.09023002
-0.11039626 0.58593524 -0.01512307
-0.12807208 -0.13484164 0.00000131
-0.32577297 -0.73584127 -0.00000177
-0.45324123 0.18405803 -0.13791989
-0.66944540 -0.36834708 -0.12914070
-0.39214131 0.01437191 -0.04644866
-0.14678559 0.22254327 -0.00000284
-0.26514202 0.46274650 -0.08733235
-0.29436854 -0.66076213 -0.00000134
-0.24184012 -0.78818780 -0.00000142
-0.08340726 0.19728003 -0.00000529
-0.23354615 -0.65998054 -0.00000097
-0.25847083 -0.39327925 -0.00000029
-0.23832653 0.27589980 -0.01478126
-0.24727874 -0.68766290 -0.00000114
-0.31856930 -0.06776419 0.00000037
-0.55553126 0.07980831 -0.17907105
-0.60632277 -0.52867121 -0.03896104
-0.29621664 -0.56330156 -0.00000105
-0.00214987 0.23356973 -0.00000697
-0.71465623 -0.79921073 -0.03636474
-0.16360907 0.32294449 -0.00000020
-0.61447728 -0.43634292 -0.07126350
-0.29031745 -0.43929809 -0.00000063
-0.65904683 -0.67555505 -0.03330972
-0.71839839 -0.43582538 -0.14376216
-0.54439354 0.15670489 -0.19349214
-0.02170583 0.26968926 -0.00000561
-0.39154896 0.16183412 -0.08856088
-0.64486808 -0.38106954 -0.10836111
-0.10432819 -0.50548011 0.00000029
-0.39452675 -0.18015455 -0.00000044
-0.42710009 -0.61371672 -0.00000200
-0.50527114 0.10660456 -0.15180735
-0.07137408 -0.21785723 0.00000139
-0.06306993 0.08678953 -0.00000825
-0.11504099 -0.46290085 0.00000036
-0.03313042 -0.62162125 0.00000036
-0.63127959 -0.67491686 -0.01416221
-0.22777762 -0.41464743 -0.00000017
-0.27590919 0.25426683 -0.03470786
-0.73065430 -0.66661930 -0.08573869
-0.03007360 -0.04118259 0.00000219
-0.48588479 -0.72891301 -0.00000271
-0.01496048 0.68683445 0.00000305
-0.18067640 -0.64822364 -0.00000062
-0.08547665 -0.47219676 0.00000051
-0.20209394 0.31571096 -0.00103673
-0.44317058 -0.22510812 -0.01291489
-0.11491410 0.27972391 -0.00000259
-0.55452913 -0.67745000 -0.00000296
-0.18816677 0.45660302 -0.03197054
-0.12958293 -0.39305556 0.00000049
-0.32490599 0.35669827 -0.09835825
-0.02830806 0.60969460 0.00000181
-0.53025454 0.17641114 -0.18933128
-0.21555416 -0.18707946 0.00000061
-0.36406660 -0.72554994 -0.00000196
-0.14416572 -0.69440824 -0.00000054
-0.50562382 -0.06326989 -0.10306513
-0.33674237 -0.16195847 -0.00000004
-0.65529126 -0.06516595 -0.20671684
-0.36303732 -0.75596029 -0.00000205
-0.18113837 -0.44002119 0.00000003
-0.62513858 -0.53852868 -0.04921797
-0.03698253 0.20934798 -0.00000644
-0.67924809 -0.39756048 -0.12754089
-0.61573833 -0.64126867 -0.01304574
-0.42528790 0.21458545 -0.12726218
-0.33914280 0.10082483 -0.03448207
-0.27297324 -0.70898497 -0.00000136
-0.53529531 -0.51858336 -0.00000235
-0.40915480 0.14013429 -0.09456035
-0.46934921 0.01253895 -0.09967223
-0.69607544 -0.35630968 -0.15115182
-0.43395314 -0.77211988 -0.00000253
-0.17359485 0.46772715 -0.02503351
-0.45347703 -0.11924434 -0.05061884
-0.44255939 -0.41474125 -0.00000147
-0.19872968 -0.41813764 -0.00000001
-0.06076532 0.07877647 -0.00000849
-0.33512962 0.30997202 -0.09200119
-0.29840922 -0.15615983 0.00000021
-0.41510561 -0.38311413 -0.00000120
-0.48899484 -0.36184379 -0.00538642
-0.02351341 0.22075447 -0.00000660
-0.27729037 -0.22499038 0.00000012
-0.14014356 -0.54936051 -0.00000006
-0.16351566 -0.40655047 0.00000024
-0.35810184 0.27274090 -0.09725788
-0.23388696 0.05566883 -0.00000376
-0.15031321 -0.67034894 -0.00000050
-0.29167679 0.43356243 -0.09738987
-0.17403995 -0.22551116 0.00000074
-0.22449620 -0.23212557 0.00000042
-0.01647245 0.56094915 0.00000042
-0.72689843 -0.69374651 -0.07530106
-0.65139878 -0.31019926 -0.13334511
-0.08841288 -0.67077804 -0.00000013
-0.02773678 0.51597977 -0.00000020
-0.53353655 -0.60841513 -0.00000262
-0.61478871 0.05389248 -0.21285260
-0.54865760 -0.76224595 -0.00000319
-0.61295557 -0.35078925 -0.09487576
-0.22433461 -0.09010771 0.00000086
-0.18894614 -0.75938630 -0.00000101
-0.16210617 -0.09725462 0.00000122
-0.48969099 -0.18430872 -0.05706798
-0.18024930 -0.05441327 0.00000124
-0.09525458 0.67663544 -0.03073722
-0.23242916 -0.21429349 0.00000043
-0.05362691 0.41012731 -0.00000167
-0.00713052 -0.25604594 0.00000174
-0.27363977 -0.28248408 -0.00000003
-0.10702258 0.07177966 -0.00000725
-0.02209978 0.59950787 0.00000141
-0.27985844 -0.62851691 -0.00000115
-0.08739117 -0.76750004 -0.00000043
-0.43837854 -0.56928051 -0.00000192
-0.08085571 -0.09531157 0.00000171
-0.61004192 -0.67891324 -0.00000330
-0.47543377 -0.51162577 -0.00000197
-0.40207821 0.12456951 -0.08514512
-0.61278230 -0.62725675 -0.01502842
-0.04251375 0.22277224 -0.00000598
-0.43016431 0.13252287 -0.10699222
-0.46517247 0.13810989 -0.13297608
-0.07179849 -0.76885116 -0.00000034
-0.21617369 0.36580563 -0.02528516
-0.03225771 0.58959121 0.00000150
-0.31232446 0.02372515 -0.00000207
-0.16131915 -0.23003350 0.00000081
-0.10642308 -0.17037290 0.00000133
-0.38361588 0.23732020 -0.10480626
-0.26467675 0.40133151 -0.06929782
-0.01208183 -0.70606655 0.00000022
-0.24262272 -0.28971189 0.00000013
-0.24219762 0.49799317 -0.08152278
-0.69053876 -0.74068731 -0.03645141
-0.15107764 0.43603489 -0.00021774
-0.28411621 0.25645682 -0.04105314
-0.40109590 0.00398343 -0.04968705
-0.25456622 -0.73926854 -0.00000135
-0.00318328 -0.58929783 0.00000068
-0.60076898 -0.02207510 -0.18118483
-0.36404827 -0.12220676 -0.00000008
-0.35097846 -0.48259273 -0.00000113
-0.00792811 0.45226118 -0.00000215
-0.05594607 -0.43067309 0.00000082
-0.19406985 0.42250651 -0.02624765
-0.50070900 -0.25293860 -0.04494747
-0.42482290 -0.04064777 -0.05333523
-0.64555335 -0.11537584 -0.18545799
-0.07345572 -0.59854031 0.00000019
-0.09065506 -0.32533449 0.00000094
-0.03426243 0.12778665 -0.00000825
-0.41382304 0.22745591 -0.12299186
-0.08837472 0.03348840 -0.00000862
-0.74654305 -0.59104341 -0.11859457
-0.05308048 -0.09585921 0.00000188
-0.64885294 -0.66184753 -0.03016568
-0.68090439 -0.33072364 -0.14796817
-0.28372961 -0.04180285 0.00000066
-0.01845494 -0.42656869 0.00000106
-0.31104857 -0.42346740 -0.00000070
-0.17994228 -0.48784104 -0.00000011
-0.32125384 -0.32630479 -0.00000046
-0.03478848 -0.75314903 -0.00000006
-0.12180885 -0.41462538 0.00000047
-0.44296643 0.10905239 -0.10913672
-0.19014539 -0.14990233 0.00000088
-0.43172240 -0.29698339 -0.00000103
-0.02374278 0.73248434 0.00000428
-0.03864785 0.20574409 -0.00000646
-0.37358335 -0.32920775 -0.00000078
-0.10633670 0.41351721 -0.00000000
-0.00643170 -0.07109931 0.00000232
-0.05618626 -0.75412530 -0.00000020
-0.38844994 0.22276808 -0.10397525
-0.22185412 -0.29553223 0.00000024
-0.49293521 -0.09995900 -0.08365106
-0.11523099 0.03138631 -0.00000786
-0.06799470 -0.28514439 0.00000120
-0.59888822 -0.77652901 -0.00000354
-0.32090682 -0.06466200 0.00000036
-0.43436837 -0.01422679 -0.06759996
-0.47245038 -0.65073341 -0.00000239
-0.28651416 -0.66620994 -0.00000131
-0.38363516 0.01399278 -0.04041736
-0.31744918 -0.03106659 0.00000049
-0.68246895 -0.75594276 -0.02643401
-0.17032458 0.38735154 0.00000137
-0.33719963 -0.77693069 -0.00000196
-0.49403363 0.08852796 -0.13877095
-0.39203283 -0.32959485 -0.00000090
-0.37080675 -0.67537796 -0.00000185
-0.56936544 -0.40835896 -0.04792658
-0.32624173 0.00162131 -0.00000212
-0.66241646 -0.38983971 -0.11804920
-0.70623726 -0.30873659 -0.17194530
-0.23583493 0.07486219 -0.00000329
-0.19418216 0.43823481 -0.03086152
-0.70454258 -0.05072649 -0.24516962
-0.02934711 0.71041995 0.00000398
-0.19549941 -0.13986973 0.00000088
-0.35337448 -0.53935152 -0.00000132
-0.57266575 -0.06954973 -0.14792880
-0.55109394 -0.19171967 -0.09767956
-0.27517125 -0.01748356 0.00000078
-0.06940609 -0.54464930 0.00000038
-0.17649522 0.53788072 -0.04728337
-0.13453875 -0.64079922 -0.00000031
-0.69375259 -0.76678824 -0.03116191
-0.54501265 -0.07779881 -0.12629788
-0.26075169 -0.10330058 0.00000060
-0.22939502 -0.56532884 -0.00000065
-0.27445993 -0.19496383 0.00000023
-0.45549828 -0.10166100 -0.05709664
-0.61894643 -0.29267055 -0.11580663
-0.71579063 -0.64501137 -0.08162211
-0.31485221 -0.43773463 -0.00000077
-0.48641172 -0.33452985 -0.01146473
-0.56416434 -0.15422820 -0.11759084
-0.66988581 -0.40210709 -0.11971173
-0.57534623 -0.28012061 -0.08907128
-0.02317308 0.02605993 -0.00001075
-0.06150727 0.70305794 -0.01486197
-0.50312537 -0.19052842 -0.06462737
-0.64154279 -0.45893398 -0.08359178
-0.73319644 -0.32956198 -0.18470830
-0.33527768 -0.33125436 -0.00000056
-0.22220619 0.37172428 -0.03119178
-0.71263969 -0.21129385 -0.20450288
-0.54705894 -0.28205279 -0.06882048
-0.33146268 0.05300666 -0.01534555
-0.04443734 0.25971478 -0.00000514
-0.33030406 0.28537375 -0.08154807
-0.00636522 0.10493533 -0.00000958
-0.31718555 -0.70197964 -0.00000161
-0.60666603 -0.75647110 -0.00000353
-0.50555509 0.03251446 -0.13063923
-0.09147930 -0.40800419 0.00000067
-0.59313458 -0.66719770 -0.00000316
-0.23351310 -0.56170607 -0.00000066
-0.07983343 0.14341086 -0.00000654
-0.34271038 -0.56427747 -0.00000133
-0.53778934 -0.52504969 -0.00000239
-0.24179690 0.36933067 -0.04414056
-0.55130541 -0.29060024 -0.06931200
-0.69127929 -0.35541865 -0.14806974
-0.32597470 0.02444747 -0.00328902
-0.00093176 0.79654449 0.00000499
-0.43606606 -0.22566193 -0.00780901
-0.09115432 0.29689264 -0.00000294
-0.12281040 -0.34031290 0.00000070
-0.65287006 -0.52752113 -0.07169890
-0.42224801 0.13822190 -0.10312436
-0.42491820 -0.51479572 -0.00000167
-0.27110228 0.23992719 -0.02722608
-0.02854706 -0.19031011 0.00000173
-0.00216308 -0.56274617 0.00000073
-0.32107532 -0.41476485 -0.00000073
-0.58774912 -0.45738357 -0.04658773
-0.21505415 0.23044278 -0.00000061
-0.66576666 -0.04516352 -0.21977803
-0.60668272 0.01868347 -0.19705577
-0.35618749 0.16202793 -0.06399812
-0.61685652 -0.62810791 -0.01761948
-0.38380545 -0.16168673 -0.00000032
-0.05814048 0.05314085 -0.00000912
-0.44822749 -0.45294198 -0.00000162
-0.71559566 -0.59045351 -0.09721966
-0.60820466 -0.45677128 -0.06100548
-0.18594913 -0.27358904 0.00000052
-0.08566195 -0.21753190 0.00000130
-0.68315470 -0.36830619 -0.13869689
-0.18436158 -0.54549426 -0.00000032
-0.34656522 -0.62815875 -0.00000155
-0.16499029 0.50961560 -0.03112266
-0.54885280 -0.62953353 -0.00000278
-0.00184954 -0.29212394 0.00000158
-0.10997510 -0.30981585 0.00000087
-0.47579724 -0.36170253 -0.00000150
-0.74097621 -0.43854344 -0.15869661
-0.54061079 0.03566787 -0.15595438
-0.28665105 -0.73627776 -0.00000153
-0.31454793 -0.40933192 -0.00000068
-0.22556283 0.11171577 -0.00000282
-0.57447982 -0.49056125 -0.02778199
-0.67416203 -0.11474531 -0.20555715
-0.21826173 0.38128400 -0.03120245
-0.10015794 -0.70243180 -0.00000030
-0.15062039 0.56080830 -0.03588109
-0.38491136 -0.30320051 -0.00000077
-0.53611696 -0.67480958 -0.00000284
-0.31584010 -0.66051239 -0.00000147
-0.41201118 -0.19639537 -0.00000060
-0.03057512 0.50472599 -0.00000035
-0.14448082 -0.79218709 -0.00000085
-0.29585487 0.39033669 -0.08783337
-0.42547071 -0.71937293 -0.00000232
-0.51538485 -0.43435913 -0.00284745
-0.66747212 -0.02326141 -0.22728147
-0.34512803 0.01159993 -0.01291864
-0.73473209 -0.33790007 -0.18337284
-0.69620556 -0.41805854 -0.13343543
-0.43602821 -0.77283484 -0.00000255
-0.32136473 -0.48804498 -0.00000096
-0.61822414 -0.74003577 -0.00000354
-0.02970872 0.53163338 0.00000019
-0.31850797 -0.08732115 0.00000030
-0.34458914 0.29548910 -0.09441038
-0.67619753 -0.63695371 -0.05638173
-0.71647578 -0.66737002 -0.07565139
-0.39047366 -0.72144049 -0.00000211
-0.65839136 -0.15024577 -0.18434012
-0.03481965 0.68097317 0.00000352
-0.61920160 -0.38675365 -0.08885296
-0.03577025 0.29496804 -0.00000465
-0.05554455 0.34734061 -0.00000294
-0.26000914 -0.13479170 0.00000051
-0.07692374 0.39756322 -0.00000123
-0.07103121 0.08297487 -0.00000809
-0.02083474 -0.78525549 -0.00000008
-0.24945113 0.39078712 -0.05565698
-0.42419645 0.24083464 -0.13407195
-0.03425348 0.49791831 -0.00000039
-0.39116859 -0.78777617 -0.00000232
-0.04134083 0.23828094 -0.00000569
-0.22219808 -0.18016481 0.00000060
-0.64064133 -0.79372954 -0.00000385
-0.14988427 -0.57189542 -0.00000019
-0.21253884 -0.06784293 0.00000101
-0.66574728 -0.62995088 -0.05112574
-0.41033247 -0.39671183 -0.00000122
-0.29360181 0.17869119 -0.02523124
-0.14280906 -0.53222394 -0.00000003
-0.18468738 -0.15570511 0.00000090
-0.60600525 -0.06784839 -0.17163035
-0.24488539 -0.26908514 0.00000018
-0.37604371 0.15817562 -0.07671110
-0.62230337 -0.40163168 -0.08672192
-0.02680066 0.31353080 -0.00000453
-0.40531936 -0.50038260 -0.00000151
-0.60446358 0.09688709 -0.21806288
-0.43381041 -0.71099663 -0.00000234
-0.35553950 0.23878579 -0.08568213
-0.64946860 -0.74342078 -0.00707048
-0.33044446 0.29846299 -0.08542045
-0.05930144 0.07275603 -0.00000866
-0.10149885 -0.56367934 0.00000013
-0.25437576 -0.00646718 0.00000094
-0.17434213 -0.24809067 0.00000067
-0.21463618 -0.10220885 0.00000089
-0.50630224 -0.02097599 -0.11573404
-0.38858202 -0.48873761 -0.00000137
-0.35769311 -0.17320132 -0.00000020
-0.72726864 -0.48273751 -0.13640906
-0.59875011 -0.27872694 -0.10576699
-0.58614790 -0.60240263 -0.00365291
-0.47501361 0.17865054 -0.15151843
-0.68811369 -0.76393872 -0.02805792
-0.23554967 -0.57710904 -0.00000073
-0.61615402 -0.15401246 -0.15384826
-0.03313389 0.31806779 -0.00000424
-0.10569535 -0.22153179 0.00000117
-0.28086287 -0.15757114 0.00000031
-0.52602953 -0.42406327 -0.01322732
-0.06899940 0.17005585 -0.00000630
-0.20402642 -0.43899101 -0.00000010
-0.06659607 0.15820374 -0.00000663
-0.42749229 0.02316983 -0.07359714
-0.33879188 -0.05380608 0.00000029
-0.05032117 -0.10339258 0.00000187
-0.26441389 0.35766268 -0.05652176
-0.36936712 -0.35605159 -0.00000084
-0.24637395 -0.26918429 0.00000017
-0.19500494 0.17298143 -0.00000244
-0.39321291 0.00360761 -0.04409055
-0.70443088 -0.68000400 -0.06362255
-0.33676550 -0.44742009 -0.00000093
-0.17555077 0.57734621 -0.05800678
-0.12519802 -0.29099613 0.00000083
-0.41772944 0.09439076 -0.08733868
-0.20891844 0.07912283 -0.00000401
-0.61512023 0.03338984 -0.20717093
-0.18909328 -0.01257517 0.00000132
-0.73411047 -0.75524282 -0.06258780
-0.39311337 -0.53470039 -0.00000154
-0.27418435 -0.31694719 -0.00000015
-0.49290729 -0.35780045 -0.00927625
-0.02567471 -0.38706705 0.00000114
-0.04145879 0.32083246 -0.00000393
-0.16455902 0.52468395 -0.03516777
-0.33657506 0.40736201 -0.12109244
-0.55091202 -0.77785510 -0.00000326
-0.29486132 0.45370391 -0.10541526
-0.38066044 -0.55521268 -0.00000153
-0.63073540 -0.18306246 -0.15562250
-0.14132643 -0.54386640 -0.00000005
-0.54147559 -0.73129433 -0.00000305
-0.13718030 -0.09128483 0.00000139
-0.47696680 -0.17676412 -0.05038507
-0.06933249 0.48398611 0.00000038
-0.22644803 0.37668857 -0.03557653
-0.18821117 -0.47229660 -0.00000011
-0.05385679 -0.27826214 0.00000131
-0.09429532 0.43681329 0.00000013
-0.55589980 -0.15878448 -0.11052312
-0.70314521 -0.60872680 -0.08328225
-0.04675992 0.69760275 -0.00302171
-0.33807066 -0.20328361 -0.00000018
-0.57515657 -0.31527168 -0.07880251
-0.63652992 -0.03498473 -0.20235874
-0.43241158 -0.51993859 -0.00000173
-0.40664360 0.03733953 -0.06316847
-0.64819390 -0.52524620 -0.06909944
-0.76724249 -0.73119485 -0.09258863
-0.50576568 -0.00186867 -0.12087055
-0.22392876 -0.38501984 -0.00000005
-0.69447565 -0.69024718 -0.05373802
-0.37962946 -0.64154661 -0.00000180
-0.25304708 0.49904442 -0.08937932
-0.07375758 -0.60314614 0.00000017
-0.10742410 -0.66111624 -0.00000021
-0.72650701 -0.29015976 -0.19141394
-0.43540263 0.26395127 -0.14853998
-0.68016654 -0.00629297 -0.24101259
-0.31508347 0.26148552 -0.06406271
-0.40898889 -0.07944561 -0.03112321
-0.11077011 -0.75646561 -0.00000053
-0.41219479 -0.10700704 -0.02540710
-0.17758311 -0.11016605 0.00000108
-0.00955429 0.71735680 0.00000353
-0.20798001 -0.04702426 0.00000110
-0.31974828 -0.58640003 -0.00000126
-0.51626861 -0.39041555 -0.01613502
-0.28227049 -0.41036916 -0.00000049
-0.03512826 0.73627073 -0.00607468
-0.02465771 0.48031527 -0.00000105
-0.29346669 0.30413970 -0.06131356
-0.44787174 0.07000180 -0.10129053
-0.55490535 -0.43902633 -0.02901570
-0.65975904 -0.55591071 -0.06830816
-0.18578114 0.42263919 -0.02051531
-0.06189776 0.63067305 0.00000327
-0.34057882 0.25129935 -0.07887512
-0.44765568 0.04314394 -0.09339494
-0.04641392 0.62568867 0.00000270
-0.21189453 0.23670049 -0.00000058
-0.40062135 -0.37570593 -0.00000109
-0.62465745 -0.44892654 -0.07472215
-0.06651247 -0.55649662 0.00000036
-0.03421255 0.75817752 -0.01175453
-0.43792212 -0.68525344 -0.00000228
-0.27760571 0.10449314 -0.00000140
-0.32835600 -0.62095547 -0.00000142
-0.01340764 -0.16217142 0.00000191
-0.24796265 0.08180092 -0.00000278
-0.56090373 0.00591953 -0.16150361
-0.23917466 -0.30510730 0.00000010
-0.43047610 -0.19029512 -0.01411623
-0.23145770 0.22869968 -0.00000016
-0.16750732 0.57064539 -0.05047457
-0.46493137 0.17759304 -0.14419422
-0.49574432 -0.73958439 -0.00000280
-0.46109074 -0.15115641 -0.04671683
-0.35197246 0.31307378 -0.10462166
-0.18476769 -0.57709396 -0.00000042
-0.03920504 0.65902704 0.00000319
-0.22266383 0.50352216 -0.06951777
-0.47777039 0.15024304 -0.14524566
-0.32113913 0.33567590 -0.08967341
-0.44193146 0.24363294 -0.14722602
-0.37070084 -0.12625514 -0.00000013
-0.32134956 -0.77600455 -0.00000186
-0.15872368 -0.69408256 -0.00000063
-0.48141173 -0.77729374 -0.00000283
-0.01398660 0.05855083 -0.00001033
-0.67026561 0.02310629 -0.24259762
-0.05741257 0.18726094 -0.00000629
-0.26831320 0.45898539 -0.08845551
-0.22962964 -0.10670350 0.00000078
-0.08292305 0.13266426 -0.00000668
-0.19640397 0.22325233 -0.00000133
-0.32429406 -0.06706439 0.00000033
-0.17036617 0.51747489 -0.03713177
-0.32884777 0.00224123 -0.00000203
-0.34317213 -0.18203434 -0.00000014
-0.58560890 -0.78321612 -0.00000348
-0.51742458 -0.03017726 -0.12082397
-0.59951222 -0.61161411 -0.01030075
-0.64128536 -0.32904160 -0.12087043
-0.32514453 0.20964162 -0.05611666
-0.45178378 0.13666438 -0.12323801
-0.58480293 -0.66465080 -0.00000311
-0.30719230 0.18269727 -0.03584821
-0.62155533 -0.42286250 -0.08007867
-0.16922940 -0.37596321 0.00000030
-0.04378429 0.13774015 -0.00000775
-0.15040207 0.49648577 -0.01718001
-0.12536062 -0.31178686 0.00000077
-0.54876375 -0.70395917 -0.00000301
-0.44803807 -0.03746523 -0.07041539
-0.26791543 -0.07137342 0.00000066
-0.32603887 0.18953338 -0.05094057
-0.23243128 -0.20586810 0.00000045
-0.43906248 0.11612215 -0.10845754
-0.08321878 -0.62074977 0.00000006
-0.10938564 0.24310736 -0.00000353
-0.35020140 -0.71439141 -0.00000185
-0.17297795 0.58490324 -0.05839485
-0.07619360 0.30841723 -0.00000315
-0.18310435 0.51881653 -0.04638700
-0.26428190 -0.72250658 -0.00000135
-0.20691712 -0.26583239 0.00000042
-0.70043367 -0.25928974 -0.18216431
-0.40567529 -0.58993614 -0.00000179
-0.39274153 0.02596833 -0.05021067
-0.65869212 -0.73909014 -0.01474078
-0.55980468 -0.33646515 -0.06200281
-0.09616479 -0.62152284 -0.00000002
-0.39223078 0.13794483 -0.08214645
-0.01528973 0.57283175 0.00000063
-0.73051095 -0.34198785 -0.17925535
-0.45650047 0.13040727 -0.12471738
-0.39644563 -0.23585191 -0.00000063
-0.64042109 -0.75776005 -0.00000373
-0.54470986 -0.01652813 -0.14375605
-0.50620025 0.00850610 -0.12416495
-0.71972162 -0.13393699 -0.23174119
-0.53068143 -0.01426882 -0.13464099
-0.12584084 0.62577891 -0.03736556
-0.12736532 0.37457559 -0.00000020
-0.36943144 0.27723983 -0.10644293
-0.63051939 -0.71555555 -0.00191371
-0.07498956 0.24407011 -0.00000455
-0.03937017 -0.51108801 0.00000067
-0.62179297 -0.36640149 -0.09652613
-0.29572293 -0.79861307 -0.00000178
-0.31824267 0.33442894 -0.08729730
-0.41522023 0.01595865 -0.06297379
-0.44282427 0.08422199 -0.10187726
-0.04657690 0.74001497 -0.01512496
-0.17362256 0.56472820 -0.05302561
-0.53405273 -0.06935353 -0.12110297
-0.49283168 -0.66915476 -0.00000257
-0.62482572 -0.63402766 -0.02146051
-0.29233247 -0.01236015 0.00000070
-0.59788752 -0.45308304 -0.05488626
-0.10914651 0.05234136 -0.00000759
-0.13755246 -0.43449339 0.00000031
-0.07073725 -0.74642545 -0.00000026
-0.62322336 -0.58737653 -0.03379800
-0.08753425 -0.22528559 0.00000127
-0.05212234 0.16161613 -0.00000699
-0.32751638 0.29244742 -0.08164717
-0.52348214 0.05182130 -0.14868766
-0.56262845 -0.26189485 -0.08547304
-0.16527241 0.15306896 -0.00000376
-0.33732352 0.31425744 -0.09476441
-0.41388983 -0.57813662 -0.00000180
-0.58537841 -0.35237283 -0.07521986
-0.17028271 0.02185904 -0.00000640
-0.53810567 -0.00490544 -0.14250994
-0.07936350 0.08899171 -0.00000771
-0.11767968 -0.39429015 0.00000056
-0.35606092 0.20785978 -0.07712681
-0.12759498 -0.01412382 0.00000169
-0.70704150 -0.58971578 -0.09147712
-0.02066142 -0.72707987 0.00000010
-0.44796330 -0.65041310 -0.00000224
-0.71010220 -0.69038373 -0.06457758
-0.40864685 -0.65508223 -0.00000201
-0.53978276 -0.73144132 -0.00000304
-0.17872402 -0.21718040 0.00000074
-0.06960603 -0.61100990 0.00000017
-0.61788321 -0.58474302 -0.03083962
-0.53441083 0.07045887 -0.16167088
-0.00852698 0.57343853 0.00000044
-0.34362984 0.28162953 -0.08974574
-0.33291656 0.01800448 -0.00626394
-0.08186755 -0.56589830 0.00000024
-0.16466302 -0.12670659 0.00000111
-0.67076445 -0.25523201 -0.16267873
-0.57685876 -0.56679487 -0.00745424
-0.53147101 -0.62712759 -0.00000267
-0.50636834 -0.25929517 -0.04705443
-0.03922494 -0.21140067 0.00000160
-0.09104456 0.59245175 -0.00352961
-0.22819914 0.00590624 -0.00000499
-0.59352642 -0.15433566 -0.13800175
-0.35129151 -0.68920934 -0.00000177
-0.46195427 -0.14895596 -0.04795258
-0.21639588 -0.67844498 -0.00000093
-0.36907130 -0.66494679 -0.00000181
-0.16663954 0.46034968 -0.01806374
-0.70148492 -0.05746188 -0.24109855
-0.74864954 -0.43839371 -0.16408181
-0.16442671 0.21069857 -0.00000256
-0.56468529 -0.74648631 -0.00000324
-0.42650601 -0.35981232 -0.00000120
-0.04005342 -0.25181448 0.00000147
-0.56551814 -0.10494859 -0.13274445
-0.24214311 0.32153746 -0.03059918
-0.15855043 -0.50314212 -0.00000003
-0.02551085 0.54629773 0.00000038
-0.14219080 0.51924843 -0.01802753
-0.04882078 -0.28820813 0.00000130
-0.32027209 0.38385567 -0.10296367
-0.61106694 -0.56116527 -0.03289340
-0.69558209 -0.67851198 -0.05789244
-0.21428023 0.12308651 -0.00000292
-0.09242475 -0.35065898 0.00000085
-0.28965163 -0.35011786 -0.00000034
-0.18568917 0.55951077 -0.05992180
-0.04871459 0.74002558 -0.01661629
-0.68304867 -0.02366157 -0.23801045
-0.26461828 -0.44377396 -0.00000048
-0.33269119 0.26800531 -0.07820136
-0.54803151 0.12368583 -0.18650296
-0.57006609 -0.19478025 -0.11000539
-0.16594295 -0.71157938 -0.00000073
-0.11843272 0.16489933 -0.00000492
-0.06452184 -0.31627271 0.00000112
-0.20244303 -0.34808052 0.00000019
-0.12286434 -0.44497636 0.00000037
-0.33043692 0.06821011 -0.01901572
-0.02456287 0.00388408 -0.00001118
-0.26404524 -0.37566230 -0.00000027
-0.14008611 -0.52466315 0.00000001
-0.32375717 -0.57667238 -0.00000126
-0.17364021 0.41361380 -0.00946009
-0.63493133 -0.62027401 -0.03246227
-0.31795621 -0.35067064 -0.00000051
-0.75506425 -0.67861068 -0.09927444
-0.54584640 -0.53605521 -0.00000247
-0.24594267 -0.73023373 -0.00000127
-0.62992442 -0.69824708 -0.00649088
-0.11414524 0.26036876 -0.00000302
-0.55422229 -0.42189196 -0.03348129
-0.35175857 -0.40989634 -0.00000090
-0.43344679 -0.47595316 -0.00000160
-0.20985876 0.20080990 -0.00000140
-0.08572350 -0.56466520 0.00000022
-0.48379198 -0.68924636 -0.00000257
-0.15990952 0.60101885 -0.05394394
-0.27013206 -0.32042766 -0.00000013
-0.35390615 -0.68552423 -0.00000178
-0.06285082 -0.34825310 0.00000103
-0.59632564 -0.30758503 -0.09575707
-0.41324574 0.22537740 -0.12199055
-0.21721357 0.50169069 -0.06519515
-0.36312217 -0.24718916 -0.00000046
-0.06878612 0.24838489 -0.00000465
-0.15946683 -0.25197312 0.00000075
-0.09441814 -0.06717438 0.00000172
-0.68775755 -0.21849833 -0.18510246
-0.24484378 0.29757565 -0.02556936
-0.62058491 -0.09331415 -0.17443702
-0.32599863 -0.79119492 -0.00000194
-0.16488481 -0.32815763 0.00000048
-0.14874411 0.00818822 -0.00000734
-0.31840560 0.08312146 -0.01493961
-0.07353293 -0.15656857 0.00000157
-0.46031052 -0.71695524 -0.00000252
-0.71498942 -0.22873478 -0.20110916
-0.01564093 0.75528991 0.00000452
-0.57557225 -0.78892332 -0.00000344
-0.60270262 -0.36089653 -0.08482293
-0.36894926 -0.74334705 -0.00000205
-0.58226347 -0.60930055 -0.00000292
-0.22048530 -0.61575943 -0.00000075
-0.02942094 -0.59695953 0.00000046
-0.29115167 0.10166098 -0.00131177
-0.58563793 -0.16197373 -0.13030712
-0.31039271 -0.38718832 -0.00000058
-0.42936382 -0.19257443 -0.01268456
-0.25499195 0.36613798 -0.05240627
-0.24725950 0.16728216 -0.00000098
-0.38658687 -0.07226342 -0.01759808
-0.23715083 0.02634187 -0.00000428
-0.00518039 -0.19701500 0.00000185
-0.05435743 0.19969080 -0.00000612
-0.38119575 -0.68437535 -0.00000194
-0.46297482 -0.42550331 -0.00000162
-0.00228847 0.07659500 -0.00001030
-0.40518421 -0.15260562 -0.00737677
-0.33133319 -0.35828409 -0.00000062
-0.60347509 0.03246895 -0.19879802
-0.74909979 -0.76436818 -0.07039158
-0.02920814 0.01547060 -0.00001079
-0.72973728 -0.17926493 -0.22564235
-0.55384910 -0.70109493 -0.00000303
-0.37507507 -0.46157801 -0.00000121
-0.06604171 -0.13271469 0.00000169
-0.21201570 -0.77225196 -0.00000119
-0.67247212 -0.55515820 -0.07737599
-0.17470978 0.59296113 -0.06192425
-0.50177723 -0.07041666 -0.09832617
-0.52632535 -0.64721352 -0.00000270
-0.47023728 0.08262629 -0.12050203
-0.59957206 -0.39971074 -0.07145037
-0.27812499 -0.24239790 0.00000006
-0.52320218 -0.65738714 -0.00000271
-0.35723728 -0.05369863 -0.00251856
-0.40000439 0.02124340 -0.05390452
-0.36773166 -0.33850715 -0.00000078
-0.33002225 -0.63698804 -0.00000148
-0.45353886 0.02911875 -0.09344629
-0.06146168 -0.57695466 0.00000033
-0.48917758 -0.30089360 -0.02309023
-0.07181947 -0.61823881 0.00000013
-0.08141268 -0.22264986 0.00000131
-0.12592757 0.38944554 0.00000008
-0.19081227 0.34481499 -0.00157534
-0.08037576 -0.49032068 0.00000048
-0.45526862 -0.06728719 -0.06684936
-0.62715918 -0.19659650 -0.14922982
-0.30778432 -0.77160722 -0.00000177
-0.57833546 0.00439315 -0.17319939
-0.19153632 0.54018688 -0.05842004
-0.57159990 -0.32449847 -0.07366555
-0.00426889 -0.38034424 0.00000134
-0.04510945 -0.69227332 0.00000006
-0.60584009 -0.66723639 -0.00000324
-0.18140730 -0.48760408 -0.00000012
-0.60407603 -0.07341508 -0.16868193
-0.35419416 0.01979383 -0.02159341
-0.36469194 -0.32600117 -0.00000072
-0.16736396 0.06174367 -0.00000564
-0.38036078 0.13471588 -0.07295141
-0.17004253 -0.70895010 -0.00000074
-0.01891236 -0.59952253 0.00000051
-0.40042320 -0.09631911 -0.02029386
-0.49066243 -0.10063475 -0.08187388
-0.05737740 0.05478211 -0.00000910
-0.16168655 -0.76525587 -0.00000087
-0.72355020 -0.46077982 -0.14015245
-0.65506732 -0.33125579 -0.12982693
-0.28187081 -0.18597700 0.00000022
-0.09814029 -0.49002430 0.00000038
-0.47241849 -0.71372741 -0.00000258
-0.65571940 -0.72518504 -0.01668104
-0.17073604 0.23231706 -0.00000191
-0.09681172 -0.38240632 0.00000072
-0.45914072 -0.02259475 -0.08243336
-0.12683916 0.31931353 -0.00000139
-0.37324083 -0.43668130 -0.00000112
-0.43847418 -0.70499831 -0.00000235
-0.19684999 -0.40061873 0.00000006
-0.56048548 -0.66482919 -0.00000296
-0.17127328 0.49321491 -0.03076730
-0.70484763 -0.03194770 -0.25079736
-0.39672786 0.21080720 -0.10628911
-0.67075264 -0.23942722 -0.16722824
-0.71168953 -0.76634270 -0.04377776
-0.38879266 0.23162934 -0.10676924
-0.20252509 -0.44692177 -0.00000012
-0.08421142 -0.51992011 0.00000037
-0.55744696 -0.66527069 -0.00000294
-0.47099689 -0.14298312 -0.05597047
-0.72658187 -0.20069404 -0.21726596
-0.00292351 -0.50247902 0.00000095
-0.50272065 -0.67239815 -0.00000264
-0.29181278 -0.03675757 0.00000062
-0.15635265 -0.60331774 -0.00000033
-0.00114520 -0.16705190 0.00000197
-0.42378861 -0.05941159 -0.04720410
-0.72912973 -0.62401897 -0.09696232
-0.38147029 -0.73651171 -0.00000210
-0.50623524 -0.41992682 -0.00063940
-0.30509445 0.10366721 -0.01159729
-0.53450769 -0.55139077 -0.00000245
-0.49812046 -0.46568656 -0.00000196
-0.08249539 0.48106557 0.00000071
-0.00502861 -0.06731255 0.00000226
-0.16355397 0.19791581 -0.00000286
-0.37640110 0.28788090 -0.11436385
-0.06490015 0.02647031 -0.00000948
-0.48649579 -0.04074177 -0.09624479
-0.42002603 -0.10711619 -0.03082772
-0.17810842 -0.01219728 0.00000139
-0.10730434 -0.31218100 0.00000088
-0.36323562 -0.06019170 -0.00482214
-0.22380340 -0.28087023 0.00000027
-0.02446369 -0.29167441 0.00000144
-0.08665514 -0.79080743 -0.00000049
-0.08974864 -0.73391050 -0.00000034
-0.53384846 0.15238525 -0.18490498
-0.33021122 -0.76547521 -0.00000189
-0.66684872 -0.69014931 -0.03453276
-0.14138277 0.52907050 -0.02029743
-0.54970092 -0.55733991 -0.00000256
-0.48610783 -0.14060122 -0.06717758
-0.22791249 -0.78016484 -0.00000131
-0.36796290 -0.53737539 -0.00000140
-0.61660516 -0.01272212 -0.19490713
-0.13433482 0.47082043 0.00000206
-0.46705413 0.24234077 -0.16434379
-0.02816295 0.31546426 -0.00000445
-0.45411837 -0.39729106 -0.00000148
-0.44313017 -0.17674729 -0.02683287
-0.43881649 -0.69895053 -0.00000233
-0.10085545 -0.79122716 -0.00000058
-0.01929807 0.28325054 -0.00000540
-0.15043586 0.18901861 -0.00000344
-0.53381348 -0.30842227 -0.05199466
-0.44648772 -0.40701252 -0.00000147
-0.45813343 0.15357947 -0.13253655
-0.02940839 0.61731601 0.00000201
-0.20033295 -0.00901816 0.00000126
-0.68011826 -0.78389978 -0.01673532
-0.41010335 0.11469201 -0.08788378
-0.39953920 -0.48105949 -0.00000141
-0.47412530 -0.40653172 -0.00000163
-0.34093469 -0.38170642 -0.00000075
-0.47024775 0.24584481 -0.16757767
-0.50616544 -0.31092894 -0.03202324
-0.17422670 -0.45931414 0.00000001
-0.41055003 0.25065735 -0.12740394
-0.11689926 -0.09669355 0.00000149
-0.18207239 -0.55103689 -0.00000032
-0.36098132 -0.37598783 -0.00000085
-0.10874187 0.46324596 0.00000113
-0.61894649 -0.56506026 -0.03725596
-0.06405252 -0.14516816 0.00000166
-0.43029305 0.29848143 -0.15494037
-0.42035657 0.14764968 -0.10452628
-0.11986728 0.60376781 -0.02685929
-0.46826759 -0.07756115 -0.07293648
-0.17954849 -0.65688920 -0.00000064
-0.25550079 -0.21741071 0.00000028
-0.49189234 -0.79981905 -0.00000297
-0.32350564 0.09982842 -0.02330815
-0.27521297 0.11938626 -0.00000116
-0.42191046 -0.08869354 -0.03745233
-0.66396195 -0.80295449 0.11471685
-0.15509188 -0.77732515 -0.00000087
-0.02445154 -0.12892912 0.00000195
-0.67389417 -0.82693231 0.09456779
-0.16548871 -0.47343609 0.00000002
-0.07109049 0.25056785 -0.00000453
-0.32917911 -0.76852065 -0.00000189
