ply
format ascii 1.0
element vertex 1375
property float x
property float y
property float z
end_header
-0.29564929 -0.66068339 0.36510620
-0.10449479 0.37287480 0.12904374
-0.28183573 -0.08806876 0.34804782
-0.52849519 -0.28501290 -0.00000034
-0.50854152 -0.05007349 -0.00000067
-0.36533186 -0.12770595 0.00000000
-0.09848146 0.55035943 0.12161799
-0.22538771 0.23916423 0.00000501
-0.49655190 -0.13950163 0.61320889
-0.23143683 0.30215591 0.28580913
-0.07510697 0.19829214 0.09275184
-0.11792596 0.56343174 0.14563078
-0.53016275 -0.63761401 0.00000000
-0.24857907 -0.59377241 0.30697775
-0.28039691 0.07300367 0.34627131
-0.55388051 0.00935714 0.00000257
-0.15581924 -0.72988808 0.19242585
-0.21254665 -0.59435409 0.26248023
-0.32946336 0.39609477 0.00000042
-0.21978776 -0.17808482 0.27142251
-0.31378591 0.06058128 0.38750464
-0.11973338 -0.19204441 0.14786234
-0.50239533 -0.72668779 0.62042344
-0.38107163 -0.00334996 0.47059819
-0.48333120 -0.65573537 0.00000000
-0.12274514 -0.09805025 0.15158166
-0.26896468 0.39369884 0.00000162
-0.34770855 -0.08993315 0.42939669
-0.29951075 -0.01014956 0.00000000
-0.13039877 0.22632504 0.16103335
-0.32594320 0.21893950 0.40251848
-0.54172438 0.02656500 0.00000252
-0.43353003 -0.37335351 0.53538030
-0.03750293 0.23048054 0.04631350
-0.62796640 -0.59830451 -0.00000021
-0.22130032 -0.17438918 0.27329040
-0.29019305 0.05124423 0.35836887
-0.49216706 -0.69802696 0.00000000
-0.17795026 -0.70225465 0.21975611
-0.41056702 -0.02561967 0.50702316
-0.16219100 0.11283495 0.20029452
-0.06466527 0.55133450 0.07985708
-0.56106484 -0.51121742 -0.00000008
-0.24981833 -0.07937046 0.30850831
-0.23375916 0.01827983 0.28867644
-0.13517600 0.24005155 0.16693291
-0.14180942 -0.73636192 0.17512470
-0.22130451 -0.75349677 0.27329558
-0.07034050 -0.52702814 0.08686559
-0.04982358 -0.40784270 0.06152863
-0.44655770 0.00816348 0.55146950
-0.57784688 -0.28319699 -0.00000055
-0.11940750 0.60638309 0.14746048
-0.30278727 0.21597378 0.37392232
-0.58237022 -0.50445920 -0.00000018
-0.51566148 0.21044166 -0.00000005
-0.44029254 -0.16401853 0.54373205
-0.23613794 -0.18713748 0.29161382
-0.23350406 -0.74363035 0.28836116
-0.68113011 -0.14757137 -0.00000123
-0.11629804 -0.17106695 0.14361994
-0.28141183 -0.31113011 0.34752390
-0.29875037 -0.56650120 0.36893579
-0.41804224 -0.09059965 -0.00000021
-0.19941568 0.32001320 0.24626502
-0.37826210 -0.68059230 0.46712723
-0.49575636 -0.18121129 0.61222631
-0.23097588 0.07178696 0.28523940
-0.32325581 0.11951035 0.00000516
-0.00633189 0.75016755 0.00781944
-0.25704616 0.04378115 0.00000746
-0.12176676 0.30216151 0.15037341
-0.05440332 0.59563291 0.06718430
-0.29221445 0.25320575 0.36086562
-0.58894581 -0.56058925 -0.00000011
-0.10080172 0.33912998 0.12448306
-0.38484740 0.01349536 0.00000575
-0.14848842 -0.05232400 0.18337280
-0.49229118 -0.18149696 -0.00000037
-0.51980329 -0.47752026 0.00000000
-0.54615963 -0.15366349 -0.00000065
-0.08481087 0.40494007 0.10473549
-0.09415139 -0.48547378 0.11627038
-0.34368786 -0.67017728 0.42443046
-0.51336849 -0.22002716 -0.00000039
-0.19513753 0.44233468 0.00000223
-0.18787248 0.47095656 0.00000189
-0.25681880 -0.07414988 0.31715348
-0.51348251 -0.29767370 -0.00000025
-0.37363198 0.37602082 -0.00000009
-0.48265731 -0.04980909 0.59605014
-0.46680924 -0.07926137 0.57647872
-0.58679187 0.11539373 0.00000017
-0.04436682 0.30317539 0.05478992
-0.06505325 -0.27479425 0.08033621
-0.31548265 -0.56420952 0.38959900
-0.35976386 -0.54010451 0.44428328
-0.11835357 -0.54156268 0.14615838
-0.46531975 0.12452632 0.00000235
-0.48303041 -0.05245150 -0.00000055
-0.75899982 -0.08810314 -0.00000167
-0.14917898 -0.60828650 0.18422560
-0.63030142 -0.61007482 -0.00000020
-0.22421779 -0.37509751 0.27689326
-0.03683788 -0.71196854 0.04549220
-0.69594729 0.06914027 -0.00000116
-0.49984396 -0.67742294 0.00000000
-0.07566328 0.39516488 0.09343885
-0.04491101 0.34402382 0.05546195
-0.24482588 0.24849732 0.00000451
-0.02391135 -0.73322231 0.02952884
-0.03280100 -0.42532513 0.04050694
-0.09653455 -0.10258643 0.11921342
-0.61691040 -0.49376464 -0.00000035
-0.39191806 -0.24082622 0.00000000
-0.29197463 -0.72678536 0.36056823
-0.13154235 -0.58077979 0.16244560
-0.06526323 -0.44119000 0.08059552
-0.22258475 -0.61463511 0.27487659
-0.49358436 -0.37364140 -0.00000003
-0.38888866 -0.29876620 0.48025113
-0.25639594 -0.57504660 0.31663102
-0.68724483 -0.68989640 -0.00000028
-0.19420893 0.45681626 0.23983531
-0.18368295 0.41719010 0.22683629
-0.56813419 -0.13679256 -0.00000077
-0.57232922 0.03697109 0.00000175
-0.16364223 0.44284222 0.20208728
-0.11355638 -0.49909884 0.14023419
-0.29951099 0.17299461 0.00000472
-0.03516345 0.49903181 0.04342440
-0.51674652 -0.04569036 -0.00000071
-0.16160873 0.36191654 0.19957587
-0.38760981 -0.21398792 0.47867200
-0.27349833 -0.24479005 0.33775130
-0.40686086 -0.63489306 0.50244492
-0.78146034 -0.71353489 -0.00000022
-0.27582857 0.02961124 0.34062958
-0.15558381 -0.00372382 0.19213511
-0.32410890 -0.43677992 0.40025181
-0.27450871 -0.01627978 0.00000000
-0.48761210 -0.16430928 -0.00000038
-0.38956413 -0.45692208 0.48108497
-0.15025347 0.50859225 0.18555313
-0.53142434 -0.07802585 -0.00000072
-0.23456950 -0.52446723 0.28967690
-0.00304327 0.58726829 0.00375823
-0.10975766 0.16545764 0.13554302
-0.48160091 -0.14988890 0.59474534
-0.76433074 -0.32864341 -0.00000118
-0.16862948 -0.50078231 0.20824561
-0.05297217 -0.10506278 0.06541692
-0.06489427 -0.08161799 0.08013989
-0.33749303 -0.15407100 0.00000000
-0.08040021 -0.49107319 0.09928863
-0.14432713 0.57638156 0.00000096
-0.49288923 -0.45543849 0.00000000
-0.29068127 -0.23825206 0.35897118
-0.10464164 0.59333748 0.00000144
-0.52093410 0.25843242 -0.00000096
-0.33535475 -0.01591273 0.41414067
-0.33238119 -0.06416965 0.00000000
-0.33001354 0.29011083 0.00000218
-0.21428382 -0.19742867 0.26462555
-0.42318875 0.37311876 -0.00000105
-0.39006600 0.01999109 0.00000554
-0.36175799 0.32145754 0.00000105
-0.49731317 -0.31228119 0.61414850
-0.57315910 0.18330447 -0.00000071
-0.32451710 -0.34668091 0.40075612
-0.13832644 -0.34878817 0.17082347
-0.41532397 -0.21259509 0.51289725
-0.41660118 0.27903473 0.00000070
-0.50171751 -0.02720638 0.61958838
-0.72965592 -0.51102215 -0.00000072
-0.34617522 -0.64899701 0.42750216
-0.39620572 -0.27323711 0.00000000
-0.30493477 -0.56716430 0.37657312
-0.31082386 0.11597626 0.38384679
-0.70247591 -0.67491865 -0.00000031
-0.15859748 -0.48670673 0.19585678
-0.28972322 -0.17563617 0.35778821
-0.14935042 0.54977226 0.00000131
-0.05168539 0.67457700 0.06382799
-0.48111227 -0.06665833 -0.00000052
-0.22049381 0.36250228 0.00000307
-0.51479053 -0.41859674 -0.00000004
-0.44450849 0.08789753 0.54893899
-0.27666268 -0.21317309 0.34165916
-0.24136654 0.23932885 0.29807156
-0.07285834 -0.54302359 0.08997495
-0.44322377 0.08997138 0.54735249
-0.38858154 -0.76697117 0.47987100
-0.46946493 -0.07864418 0.57975835
-0.56549698 -0.55507106 -0.00000002
-0.16178329 -0.61757827 0.19979104
-0.78751296 -0.09407507 -0.00000176
-0.28092349 0.22857887 0.00000415
-0.69266534 -0.58466941 -0.00000051
-0.37599462 -0.28971207 0.46432781
-0.01726164 0.35093814 0.02131691
-0.28144705 0.29879865 0.34756866
-0.54661781 -0.67158395 0.00000000
-0.06281322 -0.23610909 0.07756993
-0.37232754 0.11318699 0.00000432
-0.31410119 -0.57005101 0.38789299
-0.55159366 0.17818294 -0.00000021
-0.29462153 -0.73456860 0.36383697
-0.14185824 -0.66236156 0.17518498
-0.35112724 0.04511178 0.43361884
-0.37986657 -0.74107784 0.46910864
-0.75829428 -0.37530467 -0.00000106
-0.53300989 -0.39306009 -0.00000017
-0.12207350 0.45519912 0.00000333
-0.25995615 -0.70514524 0.32102764
-0.32584515 -0.15590248 0.40239659
-0.16644569 0.10926201 0.20554876
-0.72346240 -0.32692328 -0.00000110
-0.07455984 -0.07090148 0.09207618
-0.39887476 -0.50744855 0.49258289
-0.14164509 -0.17009673 0.17492177
-0.47069359 -0.09601504 -0.00000042
-0.36807486 -0.02856172 -0.00000011
-0.37372574 -0.59177852 0.46152520
-0.28018430 -0.62067389 0.34600800
-0.69675422 0.02230760 -0.00000039
-0.04413575 -0.36195353 0.05450456
-0.09963241 0.41999650 0.12303906
-0.21497335 -0.35393175 0.26547703
-0.30368695 0.48021480 -0.00000049
-0.26931870 0.01673312 0.33259028
-0.06233082 -0.20322128 0.07697420
-0.40833098 -0.01244602 0.50426179
-0.24383143 0.23101018 0.00000482
-0.02796270 0.01422847 0.03453198
-0.22157124 -0.47150323 0.27362496
-0.40347806 -0.42745271 0.00000000
-0.56101060 -0.70851892 0.00000000
-0.76070809 -0.41302660 -0.00000097
-0.53956252 0.00800737 0.00000287
-0.05262115 0.08883525 0.06498343
-0.21125245 0.54910606 0.00000013
-0.50218385 -0.25804180 0.62016362
-0.19355594 0.15974075 0.23902825
-0.10640718 0.52312052 0.13140570
-0.54732317 -0.51288825 -0.00000001
-0.18168458 0.39977032 0.00000320
-0.05954993 -0.69108379 0.07354000
-0.35988587 -0.12139258 0.00000000
-0.41308987 -0.27006423 0.00000000
-0.31230557 0.30730987 0.00000223
-0.12219587 0.26380402 0.15090334
-0.16658016 -0.11127812 0.20571482
-0.15327293 -0.53004205 0.18928133
-0.23745571 0.28014621 0.00000412
-0.14303146 0.23524757 0.17663383
-0.56024325 0.05028360 0.00000176
-0.69333184 -0.38739097 -0.00000086
-0.78695202 -0.57331002 -0.00000057
-0.54887325 -0.63792050 0.00000000
-0.49038225 0.08436458 0.00000254
-0.29309475 -0.03685674 0.36195213
-0.31368431 -0.42757574 0.38737816
-0.01463130 0.42736375 0.01806863
-0.76295900 -0.33095428 -0.00000117
-0.32549199 0.14367858 0.40196109
-0.05883309 -0.58082420 0.07265475
-0.24814823 0.28297243 0.00000387
-0.63106263 -0.27592573 -0.00000079
-0.48186240 -0.09715494 0.59506840
-0.24492925 0.35218757 0.00000278
-0.10551643 -0.66103166 0.13030539
-0.63806021 -0.75492096 0.00000000
-0.52347916 -0.42733559 -0.00000006
-0.25611258 0.15556917 0.31628186
-0.29872128 -0.69009137 0.36889988
-0.02664830 -0.19778217 0.03290879
-0.48668659 -0.01705397 -0.00000063
-0.44042334 -0.59607923 0.54389262
-0.56352806 0.18349525 -0.00000052
-0.38488927 -0.47974303 0.47531173
-0.36009839 -0.60686868 0.44469631
-0.62284839 -0.14263074 -0.00000099
-0.01016669 -0.35604954 0.01255515
-0.34843537 0.10248327 0.00000496
-0.25826737 -0.49755219 0.31894213
-0.16195087 0.39761162 0.19999847
-0.21228133 -0.65822244 0.26215258
-0.53989488 -0.02599204 -0.00000084
-0.59319144 0.13829504 -0.00000034
-0.04164398 0.10222163 0.05142741
-0.19687541 0.26446617 0.24312782
-0.25155184 -0.69365364 0.31064892
-0.70958745 -0.71805781 -0.00000020
-0.40611878 -0.21713865 0.00000000
-0.21497679 -0.72589624 0.26548129
-0.37403208 0.04466558 0.46190491
-0.11583460 0.55583781 0.00000185
-0.25280610 -0.16257097 0.31219786
-0.37358776 0.09922790 0.46135631
-0.34405494 0.22981137 0.00000292
-0.49723843 -0.57505512 0.00000000
-0.40894088 0.14939705 0.50501531
-0.20767829 -0.50742251 0.25646815
-0.30879891 0.37844968 0.00000111
-0.09474021 -0.34345675 0.11699753
-0.45944262 0.09852294 0.00000289
-0.25401297 0.29971004 0.31368926
-0.62693435 -0.70494115 -0.00000002
-0.05398359 0.46708247 0.06666595
-0.71688360 -0.47135833 -0.00000081
-0.49631709 -0.67325717 0.61291736
-0.45319536 -0.71612448 0.55966485
-0.36864683 0.03859495 0.45525444
-0.34421337 -0.12183955 0.42508030
-0.02665748 0.77164978 -0.00000004
-0.40687743 -0.45132083 0.50246584
-0.36192626 -0.20105547 0.44695443
-0.74588519 -0.29684207 -0.00000124
-0.21840800 -0.46604013 0.26971859
-0.29475731 -0.36510313 0.36400467
-0.29264364 -0.52186549 0.36139444
-0.23893458 0.13829720 0.00000632
-0.64341623 0.12196358 -0.00000103
-0.31462827 0.01822736 0.38854480
-0.25381151 0.34398445 0.00000274
-0.09784358 0.69291031 -0.00000009
-0.45982501 -0.39600378 0.56785291
-0.48159930 -0.78094649 0.59474158
-0.38862824 0.23179068 0.00000203
-0.05454380 -0.65229988 0.06735778
-0.37752470 0.17904682 0.00000312
-0.05033452 -0.22448187 0.06215961
-0.38935909 0.08192304 0.48083290
-0.73745692 -0.46683291 -0.00000083
-0.44826171 -0.78891712 0.55357194
-0.25989306 -0.18271276 0.32094976
-0.40989551 -0.55661058 0.50619274
-0.25332958 -0.40020552 0.31284428
-0.05513652 0.57773536 0.06808974
-0.22134408 -0.06167543 0.27334446
-0.49487382 -0.22324058 -0.00000030
-0.26819250 -0.20664163 0.33119902
-0.47543198 -0.35489771 0.58712661
-0.09134334 -0.74787813 0.11280264
-0.44999710 0.07018357 0.00000355
-0.34614545 -0.18920709 0.00000000
-0.05190510 0.20667866 0.06409916
-0.13766688 0.13363409 0.17000896
-0.76496702 -0.41084343 -0.00000097
-0.32410771 0.12012140 0.40025157
-0.03486090 0.29348713 0.04305077
-0.26467258 0.17049263 0.00000543
-0.28072113 0.29174709 0.00000310
-0.13166766 -0.42913899 0.16260034
-0.10873864 -0.18966678 0.13428460
-0.66027427 -0.39332974 -0.00000071
-0.11890486 -0.35818875 0.14683919
-0.41815934 -0.22167930 0.51639879
-0.01380167 0.28727448 0.01704409
-0.22622637 0.03613264 0.27937397
-0.33795324 0.34490892 0.00000111
-0.69225836 -0.43738085 -0.00000077
-0.19507445 -0.45319846 0.24090330
-0.03722366 -0.08309199 0.04596862
-0.71481776 0.02466817 -0.00000078
-0.13324592 -0.15346687 0.16454938
-0.32776365 0.13353343 0.40476644
-0.64600581 -0.35659686 -0.00000071
-0.30004686 -0.11301705 0.00000000
-0.19088849 -0.35941824 0.23573393
-0.16321293 -0.73784298 0.20155653
-0.28157932 0.24547341 0.34773186
-0.08046450 -0.43885371 0.09936803
-0.04429062 0.68771160 0.05469595
-0.05233969 0.58475548 0.06463586
-0.38106254 0.22239926 0.00000233
-0.29119396 -0.12405710 0.35960460
-0.50041586 -0.43381473 0.61797976
-0.08883935 -0.48585033 0.10971038
-0.44038162 -0.39764586 0.54384154
-0.76346010 -0.43385220 -0.00000092
-0.27196634 0.41692731 0.00000118
-0.09355328 0.58413815 0.00000181
-0.17966256 0.07057776 0.22187068
-0.03448682 -0.69821304 0.04258881
-0.02679823 0.03825245 0.03309394
-0.07485118 0.34577125 0.09243597
-0.19121540 -0.72505152 0.23613764
-0.49008095 -0.31433162 0.60521722
-0.33132648 0.24888811 0.00000284
-0.15146534 -0.68671131 0.18704909
-0.28203097 -0.27456951 0.34828854
-0.54076242 -0.71771961 0.00000000
-0.23942560 0.34385037 0.00000302
-0.45487225 -0.42314342 0.56173652
-0.51067191 0.04614203 0.00000279
-0.40518293 -0.05331892 -0.00000022
-0.62679273 -0.32532758 -0.00000069
-0.05586020 0.65659434 0.06898359
-0.25882223 -0.24543215 0.31962734
-0.51989752 -0.35061979 -0.00000018
-0.46774888 -0.44890696 0.57763827
-0.37256899 -0.00160270 0.46009797
-0.55505788 -0.73425877 0.00000000
-0.08421113 -0.28496072 0.10399485
-0.19666390 0.36709055 0.24286684
-0.08794623 0.46967331 0.10860746
-0.06623848 0.72767884 -0.00000006
-0.14477387 0.18865630 0.17878559
-0.09434760 -0.00567281 0.11651268
-0.09480136 -0.63165057 0.11707304
-0.65367830 0.05941913 -0.00000018
-0.61593926 -0.53213733 -0.00000027
-0.53928977 -0.23709287 -0.00000047
-0.07872790 0.40580225 0.09722344
-0.08759228 -0.27967918 0.10817033
-0.15407550 -0.47457543 0.19027247
-0.10714019 -0.52734482 0.13231063
-0.70659536 -0.30665052 -0.00000106
-0.16661482 0.00732901 0.20575763
-0.19860081 -0.13194625 0.24525812
-0.31911865 0.16189197 0.39409047
-0.02679568 -0.60389620 0.03309079
-0.58506393 -0.73357761 0.00000000
-0.53100389 -0.29496092 -0.00000033
-0.46536347 -0.21461931 0.57469296
-0.14730243 -0.32873935 0.18190821
-0.62661219 -0.76616687 0.00000000
-0.29418984 -0.48079586 0.36330387
-0.38923219 -0.67973763 0.48067454
-0.50177717 0.12559725 0.00000163
-0.45968106 -0.07006270 -0.00000042
-0.02645372 0.68567640 0.03266849
-0.09249232 -0.63401526 0.11422154
-0.12696724 -0.46575528 0.15679565
-0.43342379 -0.29138234 0.53524923
-0.72607863 -0.71419597 -0.00000021
-0.37113976 -0.11747612 0.00000000
-0.65765381 -0.02649155 -0.00000135
-0.45452994 -0.53497565 0.00000000
-0.43921834 -0.05459437 0.54240572
-0.75028902 -0.34065220 -0.00000115
-0.06233985 0.35559258 0.07698535
-0.42857456 -0.63978684 0.52926004
-0.59124464 -0.20712280 -0.00000074
-0.33093783 -0.54129899 0.40868506
-0.46923858 -0.44799936 0.00000000
-0.18304285 -0.79115605 0.22604512
-0.25167710 0.12754112 0.31080425
-0.14278613 0.36372313 0.17633110
-0.10952417 -0.06810772 0.13525470
-0.02463643 -0.45193040 0.03042427
-0.03007994 -0.23777926 0.03714662
-0.00109186 0.25069320 0.00134837
-0.38240093 -0.04430265 0.47223973
-0.59350538 -0.07388249 -0.00000099
-0.14231938 -0.05714093 0.17575447
-0.01590997 -0.75132090 0.01964770
-0.68186122 -0.07478204 -0.00000136
-0.48943922 -0.73494285 0.60442352
-0.31696290 -0.14707296 0.00000000
-0.34808517 -0.04226799 0.42986187
-0.09038879 0.06988379 0.11162383
-0.31607643 -0.00483523 0.39033315
-0.40621626 -0.17010383 -0.00000002
-0.07518642 -0.76657027 0.09284997
-0.20162450 -0.12030800 0.24899215
-0.16502759 -0.75440484 0.20379752
-0.37796196 -0.14589860 0.46675766
-0.26233843 -0.19302756 0.32396963
-0.07152458 0.62249810 0.08832806
-0.36303410 0.11277030 0.44832325
-0.25745532 -0.62578148 0.31793928
-0.19690602 -0.22298367 0.24316515
-0.48953268 -0.65673584 0.60453916
-0.78914434 -0.57846034 -0.00000055
-0.36480552 -0.20508435 0.45051011
-0.63169211 0.06201661 0.00000020
-0.21565926 0.25902951 0.00000486
-0.07897246 -0.43794584 0.09752547
-0.11186489 -0.69244772 0.13814531
-0.06833531 0.17573595 0.08438933
-0.25299966 -0.22358920 0.31243688
-0.09166732 -0.66762674 0.11320272
-0.19690201 -0.37099862 0.24316020
-0.49207991 -0.36310068 0.60768563
-0.38907188 -0.39610663 0.48047718
-0.13510986 -0.00970713 0.16685122
-0.14523385 0.27261859 0.17935371
-0.08381937 -0.11124977 0.10351105
-0.63329959 -0.10341176 -0.00000111
-0.33838114 -0.34767157 0.41787735
-0.35138875 0.04408502 0.43394178
-0.45209339 -0.41953275 0.55830479
-0.27341035 0.29220092 0.33764380
-0.43361166 -0.68011874 0.53548044
-0.40247220 0.21337184 0.00000207
-0.32232967 -0.12003147 0.39805526
-0.47992316 -0.30634508 0.59267306
-0.04921643 0.12289132 0.06077884
-0.26019543 -0.60955530 0.32132313
-0.20422709 -0.35841662 0.25220615
-0.67296356 -0.49260804 -0.00000059
-0.56111258 -0.30820438 -0.00000044
-0.78277314 -0.04651417 -0.00000184
-0.04859018 0.55968332 0.06000547
-0.24510987 0.37326297 0.00000242
-0.06825236 -0.31220770 0.08428689
-0.33261672 0.30765173 0.00000184
-0.37698635 -0.29442587 0.00000000
-0.49378324 -0.01381234 0.60979009
-0.19631612 -0.47272015 0.24243666
-0.71002412 -0.74496526 -0.00000014
-0.60976201 -0.63208908 -0.00000007
-0.09038675 0.48687983 0.11162138
-0.66237932 -0.52134198 -0.00000049
-0.11786769 -0.27631712 0.14555834
-0.31839463 -0.07800700 0.39319584
-0.41004607 -0.38018471 0.00000000
-0.42750457 -0.66242206 0.52793860
-0.27422622 0.29430896 0.33865136
-0.77748781 -0.26163632 -0.00000135
-0.58974826 -0.73152792 0.00000000
-0.34487426 -0.16450472 0.42589635
-0.00223247 0.78018695 0.00275694
-0.78386796 -0.25139883 -0.00000137
-0.30172098 -0.20380171 0.37260461
-0.31707823 -0.73230696 0.39156941
-0.65725422 -0.66249853 -0.00000022
-0.47525406 -0.42657569 0.58690667
-0.10201724 0.50711930 0.12598436
-0.08068337 -0.66016507 0.09963832
-0.16955505 -0.38670552 0.20938861
-0.14593820 -0.22009699 0.18022346
-0.71549398 -0.67640048 -0.00000031
-0.29509306 -0.02988507 0.36441994
-0.27851701 0.37322173 0.00000178
-0.16901717 -0.11545625 0.20872436
-0.26890317 0.26814717 0.33207768
-0.40040344 -0.79395014 0.49447024
-0.11856686 -0.47209722 0.14642178
-0.52617568 -0.45263800 -0.00000003
-0.25710535 0.08800227 0.31750771
-0.20240419 -0.79506058 0.24995501
-0.16545168 -0.28157169 0.20432125
-0.31282565 -0.38088295 0.38631782
-0.48171932 -0.19961180 0.59489149
-0.39415959 -0.79646796 0.48675951
-0.05406143 -0.07098924 0.06676208
-0.40632024 -0.54434651 0.50177753
-0.12410960 -0.07619953 0.15326665
-0.17175955 -0.63397926 0.21211101
-0.16233315 0.29995579 0.20047033
-0.47503641 0.06040103 0.00000323
-0.23149553 -0.64373279 0.28588077
-0.65057969 -0.05914004 -0.00000126
-0.02622847 -0.49674752 0.03239032
-0.56379271 0.10378353 0.00000080
-0.11808936 0.29341120 0.14583211
-0.16498438 -0.72403473 0.20374416
-0.02648017 -0.36061919 0.03270116
-0.20461614 -0.58491063 0.25268662
-0.27259511 -0.24950328 0.33663586
-0.18112977 -0.78491372 0.22368260
-0.03878504 0.03067184 0.04789681
-0.36560562 -0.45598131 0.45149764
-0.38243124 -0.41888839 0.47227633
-0.72379690 -0.34259963 -0.00000107
-0.25543097 -0.67774290 0.31543937
-0.44388327 -0.21910965 -0.00000009
-0.59558022 -0.12988974 -0.00000090
-0.07962795 -0.71640003 0.09833495
-0.11844988 -0.72785568 0.14627732
-0.41408741 -0.18144517 -0.00000003
-0.37833327 -0.19623446 0.46721607
-0.05777159 -0.01452818 0.07134387
-0.25285578 0.24866706 0.00000435
-0.69488239 -0.47699147 -0.00000071
-0.10400652 -0.17008214 0.12844077
-0.04709819 -0.71334195 0.05816297
-0.42099416 -0.79003221 0.51989836
-0.65146106 -0.64992958 -0.00000022
-0.71786314 -0.00003612 -0.00000165
-0.42482078 -0.41636726 0.52462482
-0.16954701 0.34226418 0.00000431
-0.03258461 0.00500913 0.04023971
-0.06524972 -0.39944550 0.08057884
-0.78220206 -0.71211195 -0.00000022
-0.06623300 -0.46662143 0.08179312
-0.40874287 -0.04052459 0.50477040
-0.09404601 -0.78259975 0.11614024
-0.52017057 -0.11126019 -0.00000061
-0.58902544 -0.41628951 -0.00000036
-0.35841247 -0.46615103 0.44261456
-0.64034069 -0.31002042 -0.00000077
-0.02314784 0.58115554 0.02858597
-0.14387590 0.30148154 0.17767678
-0.29866087 0.43384126 0.00000038
-0.53673416 -0.21671173 -0.00000049
-0.38588938 0.36027220 -0.00000007
-0.74760258 -0.65347618 -0.00000037
-0.59707499 -0.69710112 0.00000000
-0.35261115 0.08453962 0.43545148
-0.33870271 -0.57901090 0.41827416
-0.54139370 -0.43761510 -0.00000012
-0.60927981 -0.00326725 -0.00000118
-0.05666932 -0.00859649 0.06998265
-0.76604360 -0.26452738 -0.00000134
-0.28897893 -0.56541818 0.35686877
-0.38524088 0.16443451 0.00000322
-0.08517812 -0.53515577 0.10518902
-0.19203413 0.49253646 0.23714964
-0.04607639 -0.00604072 0.05690112
-0.43237415 -0.72564054 0.53395206
-0.29261881 0.33483225 0.36136520
-0.07831655 -0.06523551 0.09671545
-0.64080244 -0.19351172 -0.00000098
-0.65893912 -0.21694981 -0.00000101
-0.42794806 -0.17485109 0.52848732
-0.43643349 -0.30519885 0.53896600
-0.02348838 -0.14133722 0.02900650
-0.04947658 -0.32957169 0.06110011
-0.39496574 0.13878062 0.48775691
-0.05102041 -0.72694701 0.06300664
-0.53379983 -0.42051652 -0.00000012
-0.04588902 0.36826292 0.05666973
-0.19989569 0.09722939 0.24685735
-0.32834041 -0.06604577 0.40547827
-0.34540886 -0.31497550 0.42655623
-0.38616598 0.01804046 0.47688946
-0.50877023 -0.22860834 -0.00000035
-0.14475016 -0.45174527 0.17875633
-0.62733406 -0.06333460 -0.00000115
-0.16944376 0.07933968 0.20925117
-0.23365203 -0.15437227 0.28854388
-0.20349959 0.36260906 0.00000340
-0.03027982 -0.02165796 0.03739345
-0.06056516 0.32274094 0.07479373
-0.15711832 -0.02206798 0.19403014
-0.09132563 -0.35242730 0.11278076
-0.03831216 0.28365192 0.04731284
-0.52127945 -0.79938990 0.00000000
-0.09243253 -0.72499037 0.11414771
-0.13667551 0.58057737 0.16878533
-0.17185999 -0.26608211 0.21223506
-0.08808586 0.31730291 0.10877988
-0.16412342 -0.48725802 0.20268092
-0.06276624 0.43400684 0.07751192
-0.10487841 -0.28783241 0.12951750
-0.31596893 -0.28022021 0.39019981
-0.59365094 -0.36785573 -0.00000047
-0.14208117 0.11010303 0.17546029
-0.20394006 -0.57100058 0.25185171
-0.46467015 -0.05475925 0.57383710
-0.27722692 0.51744175 -0.00000060
-0.18806633 0.48090568 0.23224963
-0.14796303 0.39983389 0.00000377
-0.24057846 -0.31599671 0.29709756
-0.17549728 0.14506152 0.21672690
-0.12994289 0.02726125 0.16047038
-0.22174679 0.44782901 0.00000162
-0.74157518 -0.03480833 -0.00000169
-0.15743586 -0.68536073 0.19442226
-0.20041353 0.05021164 0.24749672
-0.02721689 0.02558555 0.03361096
-0.08222425 -0.08120510 0.10154119
-0.67708820 -0.21228677 -0.00000110
-0.16419439 0.48977005 0.20276926
-0.22118075 -0.26600793 0.27314273
-0.40862688 0.09236911 0.50462747
-0.04861115 0.20727015 0.06003137
-0.40514502 -0.40253681 0.00000000
-0.32524970 0.20285080 0.40166202
-0.35460174 0.05625101 0.00000561
-0.42919922 -0.33365107 0.00000000
-0.47548166 -0.50549722 0.00000000
-0.40016377 -0.62377936 0.49417448
-0.30186072 0.33971259 0.00000189
-0.42354345 -0.43284723 0.00000000
-0.03951644 0.67663866 0.04880010
-0.33215854 0.26348144 0.00000258
-0.20830595 0.48978612 0.00000118
-0.55825043 0.21585156 -0.00000096
-0.50183660 -0.78227592 0.61973327
-0.36244708 -0.26135033 0.00000000
-0.42360309 -0.36667308 0.00000000
-0.49307579 -0.13748631 0.60891610
-0.17186236 0.28020701 0.00000520
-0.35473022 0.22418305 0.43806869
-0.40695107 0.13217992 0.00000334
-0.44384298 -0.13543804 -0.00000024
-0.07709726 -0.61542386 0.09520972
-0.32598099 -0.17399982 0.40256432
-0.53957951 -0.45793286 -0.00000008
-0.48206905 -0.11619511 -0.00000044
-0.06128006 0.27729937 0.07567659
-0.29406807 -0.65300208 0.36315346
-0.26190042 0.19484951 0.00000508
-0.60193390 -0.60306537 -0.00000009
-0.52516568 -0.04277854 -0.00000075
-0.23085713 -0.33880132 0.28509241
-0.21625575 0.20709500 0.26706123
-0.19278722 -0.16941115 0.23807871
-0.29169828 0.11140590 0.00000590
-0.48002782 -0.41348055 0.00000000
-0.75087607 -0.54803306 -0.00000063
-0.49066973 -0.61948717 0.60594344
-0.07657952 -0.62186545 0.09457035
-0.05816539 0.72258353 0.00000018
-0.72634161 -0.55247766 -0.00000062
-0.64267039 -0.19471730 -0.00000098
-0.75192547 -0.69998986 -0.00000025
-0.30725911 0.49273336 -0.00000077
-0.59912378 -0.15487699 -0.00000087
-0.29974556 0.15403192 0.37016588
-0.34973216 -0.38268152 0.43189508
-0.14834109 -0.22918904 0.18319087
-0.09656538 -0.40553555 0.11925148
-0.13296407 0.58207130 0.16420196
-0.58121061 -0.34847644 -0.00000045
-0.20243716 0.24515244 0.24999622
-0.04132201 0.08101581 0.05102979
-0.60948277 -0.33809507 -0.00000059
-0.26035067 0.37624973 0.32151610
-0.28029552 -0.48242548 0.34614536
-0.30443498 -0.12312740 0.37595642
-0.18979596 -0.68345863 0.23438472
-0.56404293 0.14355166 0.00000013
-0.10319719 0.42692000 0.12744136
-0.30167678 -0.45067036 0.37254971
-0.65097266 -0.16626936 -0.00000107
-0.34003815 -0.14534453 0.41992411
-0.30405855 -0.01568225 0.37549177
-0.78388292 -0.57494414 -0.00000056
-0.48749033 -0.12141373 0.60201848
-0.48139581 -0.64958256 0.00000000
-0.12107442 -0.54226851 0.14951845
-0.03568820 -0.17944326 0.04407243
-0.78868854 -0.60547119 -0.00000049
-0.33266813 -0.13054994 0.41082260
-0.00394815 -0.33199313 0.00487569
-0.19893017 0.59683675 -0.00000043
-0.27419016 -0.71187276 0.33860567
-0.37579864 -0.31536692 0.46408573
-0.22940367 0.03631267 0.28329775
-0.21843848 -0.13437991 0.26975623
-0.20926616 0.18183452 0.00000611
-0.47916126 -0.62781858 0.59173125
-0.41781661 -0.08038214 0.51597583
-0.09196127 0.01780286 0.11356573
-0.00679213 -0.31103277 0.00838781
-0.04463423 0.08718608 0.05512015
-0.47659990 -0.01877880 -0.00000059
-0.49079794 -0.54213244 0.60610199
-0.53996348 -0.46348763 -0.00000007
-0.11494343 0.23063904 0.14194709
-0.06497757 -0.61132199 0.08024276
-0.28545389 0.02511995 0.35251629
-0.37265614 -0.24259154 0.46020508
-0.65371341 -0.32698110 -0.00000080
-0.39977583 0.16434963 0.49369711
-0.21300094 -0.09013016 0.26304126
-0.43666971 -0.19521090 0.53925800
-0.28420410 0.03071806 0.35097286
-0.18711682 -0.53265911 0.23107617
-0.52491659 0.07437100 0.00000204
-0.76183814 -0.52529621 -0.00000069
-0.40228862 -0.40136594 0.00000000
-0.01326516 -0.17137370 0.01638154
-0.09522803 0.23462842 0.11759996
-0.30078089 -0.46099907 0.37144333
-0.15547657 0.11393369 0.19200268
-0.41729236 0.36752614 -0.00000079
-0.40915474 -0.31086054 0.50527847
-0.70401442 -0.33766940 -0.00000099
-0.20222037 0.38664672 0.24972878
-0.41339484 0.32001874 0.00000008
-0.35249871 -0.13875245 0.43531212
-0.66367507 -0.62564623 -0.00000031
-0.50022131 -0.40975267 0.61773962
-0.21936290 0.08838002 0.27089810
-0.08669893 -0.39469030 0.10706711
-0.24101403 -0.46041998 0.29763547
-0.18436386 -0.73304611 0.22767647
-0.41887835 -0.27770254 0.00000000
-0.52800304 -0.09773617 -0.00000067
-0.51068670 -0.61084408 0.00000000
-0.23317154 0.07311147 0.28795090
-0.25160655 0.43004498 0.00000135
-0.02073810 -0.61510170 0.02561011
-0.02316550 0.30312884 0.02860778
-0.52951533 -0.66836691 0.00000000
-0.49724710 0.18465684 0.00000073
-0.47748071 0.14875668 0.00000171
-0.24363172 0.12736616 0.30086869
-0.14585330 -0.15515293 0.18011861
-0.72102189 -0.20128936 -0.00000131
-0.07302088 -0.04899452 0.09017567
-0.29014969 -0.09903214 0.35831505
-0.46936050 -0.70830530 0.57962775
-0.18184271 0.36514434 0.22456360
-0.09387294 0.29047036 0.11592650
-0.16319266 -0.63273191 0.20153151
-0.23565117 -0.56937391 0.29101270
-0.21794084 0.07327596 0.26914191
-0.32264572 -0.10540880 0.00000000
-0.39514405 -0.65494931 0.48797536
-0.07951477 -0.37599778 0.09819517
-0.33193856 -0.62845391 0.40992090
-0.79062897 -0.67972618 -0.00000030
-0.31460232 -0.06567701 0.38851258
-0.09015005 0.21198152 0.11132900
-0.15368634 -0.52262086 0.18979187
-0.61316437 -0.53825092 -0.00000025
-0.12224868 -0.49226177 0.15096857
-0.28918740 0.14409871 0.35712716
-0.49218956 -0.14145392 0.60782164
-0.06901816 0.49530602 0.08523260
-0.58483350 -0.08291616 -0.00000094
-0.43732417 -0.43915752 0.00000000
-0.05349805 -0.03631122 0.06606635
-0.04121447 0.03802743 0.05089698
-0.77455842 -0.19858475 -0.00000150
-0.12134083 -0.27957854 0.14984743
-0.59238684 0.00460074 0.00000191
-0.02292581 0.71403784 0.02831177
-0.06251996 -0.02052312 0.07720778
-0.61084425 0.08471129 0.00000022
-0.12472530 -0.16118477 0.15402701
-0.25336388 0.50730354 0.00000002
-0.71893013 -0.57001042 -0.00000057
-0.69677013 -0.42421952 -0.00000081
-0.44417787 -0.48381814 0.54852945
-0.20420243 0.32646465 0.25217637
-0.64034158 0.00666987 0.00000095
-0.07054928 -0.69431758 0.08712343
-0.68549049 0.11271699 -0.00000168
-0.22631679 -0.58379495 0.27948540
-0.54387963 -0.07133267 -0.00000078
-0.27961415 -0.60670960 0.34530389
-0.19549187 0.31710866 0.00000429
-0.01868541 -0.00796635 0.02307517
-0.07479953 -0.46498787 0.09237218
-0.19502100 0.25220644 0.24083772
-0.37081671 0.01380351 0.00000601
-0.41168430 -0.35721415 0.50840217
-0.26326331 -0.02119394 0.32511216
-0.18626094 -0.45634481 0.23001923
-0.57999742 0.09461422 0.00000064
-0.30024892 0.11731960 0.37078744
-0.44203958 0.04343047 0.54588997
-0.01863731 0.68266118 0.02301577
-0.29333615 0.50584179 -0.00000072
-0.08773917 0.56407493 0.10835195
-0.69160140 -0.19879916 -0.00000119
-0.28858519 -0.07021937 0.35638303
-0.02154515 0.28021058 0.02660675
-0.26878840 -0.14718601 0.33193505
-0.35128209 -0.37310421 0.43380916
-0.07855828 -0.20446803 0.09701398
-0.75563902 -0.25096861 -0.00000137
-0.49779177 -0.57129991 0.00000000
-0.27572098 0.28760195 0.34049729
-0.60373223 -0.42246559 -0.00000042
-0.01959281 -0.28245774 0.02419575
-0.34635389 -0.24071208 0.00000000
-0.51581508 -0.47574708 0.00000000
-0.14405796 0.37823212 0.17790177
-0.42116225 0.25436220 0.00000103
-0.50778943 -0.59649771 0.00000000
-0.07292352 -0.67743659 0.09005544
-0.03836745 -0.10607538 0.04738112
-0.08444841 -0.01355540 0.10428788
-0.00242937 0.19407073 0.00300010
-0.40951166 -0.08063851 -0.00000019
-0.26674315 -0.00525746 0.32940960
-0.16180831 0.47817010 0.19982257
-0.02919619 -0.26433870 0.03605525
-0.02960684 0.12402287 0.03656238
-0.72011465 -0.06359822 -0.00000155
-0.07152405 -0.60695958 0.08832720
-0.03086366 -0.06357299 0.03811446
-0.45860067 0.24569796 0.00000045
-0.32787406 -0.43575707 0.40490153
-0.48656112 0.19658437 0.00000074
-0.39970019 0.06390785 0.49360350
-0.64632887 -0.54971331 -0.00000037
-0.58570111 -0.12994196 -0.00000086
-0.12715857 -0.21126644 0.15703194
-0.31917024 -0.74094582 0.39415291
-0.39393339 -0.12617639 -0.00000004
-0.25066125 -0.43277413 0.30954909
-0.21515040 -0.25148007 0.26569569
-0.03242688 -0.38941535 0.04004493
-0.24670672 -0.00200451 0.30466583
-0.09780593 0.48471388 0.12078360
-0.05602262 -0.22558516 0.06918401
-0.65438151 -0.01542928 -0.00000135
-0.79904389 -0.21083800 -0.00000147
-0.27988461 0.00216711 0.34563851
-0.18488795 -0.36886463 0.22832367
-0.62451452 -0.12332624 -0.00000103
-0.49687615 -0.15025479 0.61360925
-0.63994521 -0.02093961 -0.00000128
-0.72249126 0.00003807 -0.00000051
-0.32879987 -0.17877029 0.40604544
-0.02212327 -0.12440330 0.02732069
-0.13316165 0.29536566 0.16444533
-0.07709287 -0.60294169 0.09520429
-0.30306149 0.03023388 0.37426057
-0.01582925 0.05915268 0.01954802
-0.47695768 -0.23882085 -0.00000020
-0.03817887 -0.00039316 0.04714823
-0.50627446 0.12789702 0.00000150
-0.32595521 -0.40151966 0.40253198
-0.30024397 -0.48202777 0.37078029
-0.41076854 -0.74979395 0.50727046
-0.15794729 -0.20421404 0.19505385
-0.14524508 0.38416448 0.00000405
-0.25724986 0.26897502 0.00000393
-0.68546158 -0.38006309 -0.00000084
-0.13597894 0.39099392 0.00000408
-0.26213825 -0.78521800 0.32372239
-0.02203454 0.61646104 0.02721112
-0.43468821 0.26527843 0.00000058
-0.57986617 -0.02815699 -0.00000101
-0.79170865 -0.55597317 -0.00000061
-0.33253595 -0.74847096 0.41065860
-0.17684831 -0.26257595 0.21839529
-0.12363266 -0.46916822 0.15267769
-0.28272030 -0.36262909 0.34913978
-0.20051895 -0.42098540 0.24762687
-0.09355173 0.54950607 0.00000235
-0.25502542 -0.15990306 0.31493860
-0.21920325 0.34883386 0.27070150
-0.24844588 0.53994763 -0.00000043
-0.00562423 0.35914603 0.00694554
-0.69289130 0.10565416 -0.00000173
-0.51340693 -0.66990298 0.00000000
-0.22639494 0.35444820 0.27958280
-0.76334941 -0.37422201 -0.00000106
-0.75303113 -0.05988351 -0.00000169
-0.48291713 -0.16736503 -0.00000035
-0.12830169 -0.06805787 0.15844361
-0.01737217 0.76590669 0.02145349
-0.28436673 -0.02351397 0.35117361
-0.55610752 -0.23431803 -0.00000054
-0.29919052 -0.06852132 0.36947995
-0.74564946 -0.71001148 -0.00000022
-0.78132439 -0.62647474 -0.00000043
-0.31853756 -0.53032565 0.39337161
-0.09066466 0.51726907 0.11196466
-0.05782178 0.41805485 0.07140585
-0.35896617 0.14042319 0.00000412
-0.38062418 0.08577374 0.00000462
-0.30579564 0.00263610 0.00000735
-0.01896655 -0.27666551 0.02342236
-0.17158069 -0.72219414 0.21189012
-0.44009188 -0.41152644 0.54348367
-0.21896313 0.36375129 0.00000308
-0.24495982 0.53834343 -0.00000033
-0.35744289 -0.51001108 0.44141707
-0.61100185 -0.15990382 -0.00000091
-0.53365469 0.07417562 0.00000188
-0.42385069 -0.49739122 0.52342665
-0.27377933 -0.72654629 0.33809832
-0.09941939 -0.12297492 0.12277598
-0.08690014 0.00959358 0.10731559
-0.08040780 0.39355996 0.09929800
-0.62579697 -0.53989691 -0.00000030
-0.48547682 0.25318363 -0.00000019
-0.39902008 0.19746937 0.00000240
-0.45585683 0.26352775 0.00000021
-0.34477159 -0.15868725 0.00000000
-0.11907061 -0.23826806 0.14704387
-0.35231572 -0.33198172 0.43508571
-0.19665132 -0.25953487 0.24285063
-0.08219068 -0.62885654 0.10149974
-0.71573025 -0.52155215 -0.00000070
-0.64946860 -0.41868377 -0.00000062
-0.11746544 0.66552317 -0.00000001
-0.11298286 -0.22292525 0.13952592
-0.40564328 -0.51774406 0.50094157
-0.27957749 -0.22554179 0.34525874
-0.70132476 -0.66466302 -0.00000034
-0.41394693 0.08619198 0.51119739
-0.63607681 -0.29467258 -0.00000078
-0.01236804 0.64136899 0.01527366
-0.31648093 0.03878623 0.39083278
-0.56515896 -0.60023087 0.00000000
-0.01924060 -0.04337302 0.02376079
-0.13970089 0.09785420 0.17252082
-0.38290688 0.04237563 0.47286475
-0.04331828 0.20897996 0.05349504
-0.35716397 -0.14585456 0.44107342
-0.20024364 0.33619830 0.24728753
-0.07780484 -0.54246545 0.09608354
-0.59690106 -0.42331624 -0.00000038
-0.12266806 0.56103212 0.15148696
-0.10255501 0.30376095 0.12664825
-0.29502070 -0.61845446 0.36432990
-0.57740182 -0.41697443 -0.00000031
-0.36648560 -0.18861686 0.00000000
-0.23886360 -0.41909698 0.29497981
-0.19135046 -0.56006634 0.23630442
-0.23842236 0.17667893 0.29443556
-0.03519550 -0.68723112 0.04346398
-0.39083347 0.22940829 0.00000203
-0.34414828 0.02748204 0.00000630
-0.45496166 -0.42513844 0.00000000
-0.46809152 -0.74315339 0.57806057
-0.53996384 -0.30514896 -0.00000035
-0.08193960 -0.18435101 0.10118967
-0.07249286 0.22355455 0.08952361
-0.02120295 0.72631413 0.02618417
-0.04689481 0.60117060 0.05791181
-0.44237572 0.09072960 0.54630518
-0.11117231 -0.58490139 0.13729002
-0.46045622 -0.60997093 0.56863183
-0.08050443 0.61746383 0.09941760
-0.36440799 -0.05696025 0.45001954
-0.61483783 -0.28999895 -0.00000070
-0.48735282 -0.11270503 0.60184866
-0.16674525 -0.11835726 0.20591871
-0.15168048 -0.52916342 0.18731479
-0.60490018 0.00736407 0.00000162
-0.60761893 0.02500434 0.00000128
-0.15307488 0.46707004 0.00000262
-0.39459014 -0.07689483 0.48729259
-0.35886776 -0.38561666 0.44317698
-0.24226667 0.07312293 0.00000725
-0.08608582 -0.73936522 0.10630996
-0.45296803 -0.73129535 0.55938405
-0.33022863 -0.35849145 0.40780950
-0.75535673 -0.12230629 -0.00000159
-0.46768847 0.03329143 0.00000383
-0.61950201 -0.49544281 -0.00000035
-0.10420082 0.65052611 0.00000050
-0.48757231 0.07318216 0.00000278
-0.29163960 -0.66325110 0.36015451
-0.47859913 -0.62908763 0.59103703
-0.10745008 0.25788862 0.13269334
-0.67346120 -0.04207233 -0.00000139
-0.38598111 -0.38073412 0.47666028
-0.17974342 0.50393695 0.00000149
-0.02992359 -0.05237354 0.03695353
-0.67083222 -0.74518174 -0.00000013
-0.06532864 0.22852691 0.08067629
-0.69029456 -0.33416101 -0.00000094
-0.01431987 -0.12751189 0.01768404
-0.17953154 0.35921374 0.22170943
-0.05673031 -0.23357309 0.07005796
-0.38329193 0.31353438 0.00000077
-0.08859087 -0.55421323 0.10940352
-0.46854430 -0.42876464 0.57862055
-0.45527193 -0.47107720 0.56222999
-0.19662803 -0.39202270 0.24282186
-0.17037328 0.21603008 0.21039923
-0.17619380 -0.32918882 0.21758702
-0.25079048 -0.49527472 0.30970871
-0.32383749 0.13989434 0.00000481
-0.51399690 -0.26575953 -0.00000031
-0.69452834 -0.29427806 -0.00000103
-0.10969643 -0.53351742 0.13546741
-0.04923494 0.67520952 0.06080185
-0.08583996 -0.29806599 0.10600635
-0.11171901 -0.36672664 0.13796516
-0.51055932 -0.47930810 0.00000000
-0.17123443 0.43735036 0.21146318
-0.44141293 -0.18602373 -0.00000014
-0.74325424 -0.57909149 -0.00000055
-0.06523564 -0.11275270 0.08056145
-0.17592604 0.33801055 0.00000428
-0.59086943 0.19347592 -0.00000122
-0.30866820 -0.63695800 0.38118362
-0.13259129 -0.20529063 0.16374096
-0.34869954 0.11004658 0.43062091
-0.28156695 0.23836623 0.34771660
-0.21312466 -0.27510214 0.26319405
-0.19094031 -0.64841449 0.23579791
-0.66148365 -0.78478694 -0.00000002
-0.16678733 -0.61775213 0.20597067
-0.28055686 0.00168621 0.34646866
-0.19182713 0.20704921 0.23689340
-0.06180260 0.53071684 0.07632189
-0.11908121 0.35657680 0.14705700
-0.74342871 -0.78518546 -0.00000004
-0.66139305 0.03270607 0.00000012
-0.52886587 -0.14550768 -0.00000059
-0.50146550 -0.33930376 -0.00000013
-0.44154042 0.19193950 0.00000168
-0.53827095 -0.75324845 0.00000000
-0.16481730 -0.05921029 0.20353784
-0.00009794 0.39297867 0.00012095
-0.17470612 -0.25060943 0.21574982
-0.58642918 -0.16446255 -0.00000080
-0.55302954 -0.50999480 -0.00000004
-0.28651091 -0.74535334 0.35382092
-0.05156253 -0.56784499 0.06367612
-0.32351249 0.19620189 0.00000387
-0.08319701 -0.64932567 0.10274249
-0.25012550 -0.08529366 0.30888766
-0.21145324 0.38082087 0.26113081
-0.08283327 0.61495990 0.10229357
-0.74082804 -0.01107809 -0.00000173
-0.41366392 -0.30376846 0.00000000
-0.04926950 0.52674252 0.06084438
-0.34413573 -0.04942556 0.00000000
-0.49315870 -0.21990596 -0.00000030
-0.20878920 -0.23890886 0.25784004
-0.20713466 0.21634008 0.25579727
-0.15149331 0.45622554 0.00000283
-0.33473605 -0.06793441 0.00000000
-0.29400390 -0.75094461 0.36307424
-0.09211915 0.29402560 0.11376071
-0.13669807 -0.68195176 0.16881254
-0.57340556 -0.30801672 -0.00000049
-0.11819088 -0.04070864 0.14595747
-0.45093268 -0.77229953 0.55687046
-0.12033981 -0.35653087 0.14861123
-0.05771472 0.14681032 0.07127364
-0.74002934 -0.61689681 -0.00000046
-0.18037298 0.44225883 0.00000251
-0.25492486 -0.50411159 0.31481436
-0.31653982 -0.77387315 0.39090452
-0.19338289 0.31994575 0.23881491
-0.43345892 -0.40419453 0.00000000
-0.22718342 0.19142473 0.28055617
-0.15996400 -0.36693504 0.19754434
-0.65967441 -0.49411225 -0.00000053
-0.41858262 -0.51183254 0.51692086
-0.59646171 -0.28740937 -0.00000062
-0.02187193 0.45729050 0.02701030
-0.30938607 0.29740769 0.38207161
-0.79567158 -0.43739435 -0.00000091
-0.00945550 -0.79534000 0.01167688
-0.13950646 0.02592374 0.17228071
-0.22496840 -0.64669037 0.27782023
-0.12443062 0.11708700 0.15366311
-0.42836574 -0.33799329 0.52900279
-0.17664076 -0.65655136 0.21813899
-0.32445392 -0.27406511 0.40067825
-0.14055800 -0.50728667 0.17357931
-0.16243260 0.25275785 0.20059305
-0.08991777 0.62156415 0.00000125
-0.37077135 0.21005049 0.45787847
-0.37458697 0.23460194 0.00000225
-0.34693545 -0.23067711 0.42844167
-0.33728600 0.02199866 0.41652569
-0.48069581 -0.58549243 0.00000000
-0.55242890 0.16326199 0.00000003
-0.03693458 -0.12199460 0.04561162
-0.76474649 -0.58466721 -0.00000054
-0.70546591 0.00979802 -0.00000035
-0.65197515 -0.36439642 -0.00000072
-0.04368803 -0.02765598 0.05395166
-0.17364337 0.17760748 0.21443750
-0.26991674 0.35993135 0.00000217
-0.06226495 0.59389818 0.07689292
-0.20932283 0.46295020 0.00000161
-0.47051954 -0.12171191 0.58106065
-0.59763193 -0.18486594 -0.00000081
-0.16663536 0.57371777 0.00000058
-0.40655038 -0.41606534 0.50206202
-0.62549210 -0.44230673 -0.00000047
-0.13110146 -0.47999564 0.16190113
-0.43789461 -0.04017766 0.54077101
-0.19211425 0.23654798 0.00000555
-0.30673683 0.42156088 0.00000043
-0.37672594 -0.24108906 0.00000000
-0.09741213 0.55864203 0.00000215
-0.72863257 -0.40042296 -0.00000099
-0.08452377 -0.67143196 0.10438093
-0.02284678 -0.31573614 0.02821417
-0.42542002 0.06402375 0.52536589
-0.32940841 0.46614942 -0.00000075
-0.21734664 0.25401923 0.26840851
-0.18704255 -0.14457361 0.23098446
-0.16365731 0.49691114 0.20210603
-0.18467613 -0.52279162 0.22806209
-0.14975879 0.51334143 0.00000191
-0.21865965 -0.01480139 0.27002943
-0.37482184 -0.50430250 0.46287903
-0.12988721 0.11023085 0.16040161
-0.13386551 -0.25206771 0.16531453
-0.09481126 -0.11941690 0.11708526
-0.40272042 0.04445613 0.49733323
-0.63434392 -0.20140150 -0.00000094
-0.24916285 0.12748960 0.30769929
-0.07799510 -0.23247831 0.09631849
-0.19772510 0.42601246 0.00000245
-0.25663650 0.24556616 0.31692904
-0.19633947 -0.55559331 0.24246550
-0.75769532 -0.49196792 -0.00000077
-0.12518553 0.52480680 0.15459582
-0.48254439 0.19436231 0.00000085
-0.16762747 -0.32218930 0.20700818
-0.26344869 0.50807887 -0.00000018
-0.05954084 0.63584697 0.00000156
-0.19500446 -0.48574126 0.24081686
-0.50147325 0.22489598 -0.00000002
-0.32960346 -0.15516758 0.00000000
-0.20020428 0.23447719 0.24723871
-0.00705590 -0.65749973 0.00871355
-0.26958373 -0.32389525 0.33291706
-0.48035321 -0.26370892 0.59320420
-0.61123925 -0.52019757 -0.00000027
-0.53538018 -0.75445938 0.00000000
-0.00069585 -0.00211384 0.00085933
-0.31375080 0.00649137 0.38746116
-0.13897325 -0.51435614 0.17162225
-0.06129816 0.59543830 0.07569900
-0.39022595 -0.04660210 0.48190314
-0.19283526 -0.68055385 0.23813805
-0.07158092 0.67813319 0.08839776
-0.68485469 -0.79258215 -0.00000002
-0.48066041 -0.46422362 0.00000000
-0.15263262 -0.55195189 0.18849061
-0.34306800 0.16464312 0.42366642
-0.00070657 -0.75009799 0.00087257
-0.54843485 0.25048259 -0.00000135
-0.53162766 -0.37881678 -0.00000018
-0.46423051 -0.27527159 -0.00000008
-0.26652437 -0.70202875 0.32913893
-0.29370821 -0.00497751 0.36270979
-0.10326467 0.27589694 0.12752464
-0.25033382 0.14575528 0.00000604
-0.17266187 0.48148826 0.00000200
-0.30909672 0.24648479 0.38171420
-0.29343143 -0.30321410 0.36236733
-0.27463731 0.20879075 0.33915886
-0.31411681 -0.05616881 0.38791302
-0.27530155 0.00872414 0.33997869
-0.06336407 0.66676360 0.00000101
-0.06798638 0.17390780 0.08395842
-0.32844210 0.24323250 0.00000299
-0.27754021 0.11213180 0.34274355
-0.47783947 -0.17586623 0.59010017
-0.47301289 0.02221660 0.00000391
-0.27716821 0.37911654 0.00000171
-0.49287546 -0.45768768 0.00000000
-0.37686443 0.25168556 0.00000192
-0.26992211 -0.41017219 0.33333492
-0.50737560 -0.54021055 0.00000000
-0.30434969 0.33879659 0.00000186
-0.14794932 -0.63674486 0.18270707
-0.34980181 -0.13904625 0.00000000
-0.46062857 0.09835282 0.00000287
-0.09890911 -0.13040341 0.12214583
-0.21497063 -0.05201421 0.26547369
-0.16491994 -0.40857366 0.20366459
-0.67545444 -0.67282134 -0.00000028
-0.21174185 0.31891242 0.00000397
-0.20862952 0.51685387 0.00000072
-0.49954337 -0.03379799 -0.00000066
-0.41336775 0.27606902 0.00000081
-0.21488370 -0.53520578 0.26536632
-0.77358967 -0.24858619 -0.00000138
-0.43677267 0.16326359 0.00000225
-0.11054931 -0.10866050 0.13652065
-0.36331859 0.22054410 0.44867474
-0.20485903 0.28526431 0.25298715
-0.73987693 -0.46619213 -0.00000083
-0.05999017 0.26118690 0.07408366
-0.30091530 -0.69537997 0.37160936
-0.76588404 -0.53531677 -0.00000066
-0.23058818 0.22825956 0.28476095
-0.45662668 -0.60854483 0.56390262
-0.23902524 0.07671423 0.00000724
-0.21422040 0.19438471 0.26454768
-0.21869203 -0.32085934 0.27006936
-0.17698653 -0.14326181 0.21856597
-0.20008267 -0.65969574 0.24708809
-0.35760057 0.02743351 0.44161296
-0.22955108 -0.29151669 0.28347951
-0.16104935 -0.30426082 0.19888468
-0.07628597 -0.29909322 0.09420783
-0.39545715 0.31033382 0.00000059
-0.14414379 0.06020919 0.17800748
-0.74322200 -0.76492208 -0.00000009
-0.67210817 0.01191005 0.00000026
-0.44949123 -0.54206687 0.00000000
-0.57532775 -0.25917292 -0.00000058
-0.36771905 -0.37193051 0.45410779
-0.34603325 0.44230512 -0.00000067
-0.04847305 0.63935435 0.05986087
-0.41973898 0.36909407 -0.00000086
-0.40771601 -0.27461526 0.50350177
-0.29010296 -0.73505247 0.35825685
-0.48375961 -0.53459203 0.59741014
-0.41208839 -0.35392341 0.00000000
-0.06271249 0.59364796 0.07744561
-0.38225472 -0.01550415 0.47205925
-0.05253910 0.13953449 0.06488211
-0.24403699 -0.23435494 0.30136859
-0.34535989 0.13967040 0.42649671
-0.12428904 -0.30236512 0.15348826
-0.74975544 -0.09761866 -0.00000161
-0.13159581 -0.09155853 0.16251160
-0.72375065 -0.51793295 -0.00000071
-0.32374522 -0.05695398 0.39980352
-0.47959656 0.00545266 0.59227043
-0.19691528 0.11028015 0.24317673
-0.11168644 0.58914232 0.13792542
-0.71546066 -0.62666422 -0.00000043
-0.21311204 0.24461876 0.00000512
-0.06821381 0.67753172 0.08423958
-0.61406791 -0.46040788 -0.00000039
-0.41242492 -0.05433814 0.50931746
-0.44211394 -0.03838713 0.54598159
-0.33992863 0.15076861 0.00000432
-0.57847226 -0.52908534 -0.00000012
-0.49286968 -0.68303001 0.60866004
-0.33446613 -0.19638927 0.41304287
-0.20429127 -0.13540435 0.25228542
-0.10000669 0.49523494 0.00000306
-0.52249140 -0.48758975 0.00000000
-0.07634747 0.32262138 0.09428378
-0.38658366 -0.16804886 0.00000000
-0.00171603 0.79427123 0.00211918
-0.06517253 0.18642370 0.08048351
-0.04607346 0.30541244 0.05689750
-0.17692317 -0.42566094 0.21848774
-0.29294205 -0.66022056 0.36176294
-0.32611883 -0.79999596 0.40273395
-0.08800541 0.33638018 0.10868052
-0.40961382 -0.69324511 0.50584459
-0.25565267 0.03165437 0.31571361
-0.20969222 -0.68388063 0.25895521
-0.23057178 0.31170860 0.28474087
-0.42617282 0.31783518 -0.00000013
-0.19368269 -0.61103117 0.23918457
-0.13344394 0.66414887 -0.00000033
-0.28487664 0.35746178 0.00000192
-0.31782526 0.16196342 0.39249322
-0.59178764 -0.63416040 0.00000000
-0.07040019 0.38749808 0.08693930
-0.23370434 0.23512590 0.28860924
-0.77494538 -0.33096865 -0.00000117
-0.21973951 -0.56485075 0.27136293
-0.08653017 0.43129906 0.10685871
-0.45193812 -0.30387187 0.55811334
-0.17694072 -0.15052374 0.21850942
-0.40337244 -0.23401344 0.49813783
-0.19904193 -0.16334581 0.24580285
-0.31849921 -0.14580406 0.00000000
-0.51900131 -0.45023403 -0.00000000
-0.12079932 -0.51912266 0.14917870
-0.12043447 0.34935430 0.14872816
-0.40508717 -0.14004415 0.50025558
-0.08955596 -0.04120391 0.11059534
-0.29220089 0.11783308 0.00000578
-0.12325872 0.49322316 0.15221626
-0.46696627 -0.74413669 0.57667094
-0.31569785 -0.65337014 0.38986477
-0.36082560 -0.62949818 0.44559434
-0.26573020 0.30585346 0.00000315
-0.20738465 0.42987078 0.25610644
-0.17349899 -0.27549899 0.21425910
-0.16159220 -0.46430758 0.19955505
-0.05354036 0.31962636 0.06611860
-0.14848281 -0.46067229 0.18336590
-0.26904213 0.03085894 0.33224875
-0.00184418 -0.45896986 0.00227744
-0.13272579 -0.59198177 0.16390707
-0.29339275 -0.77566332 0.36231953
-0.41847330 0.32405767 -0.00000009
-0.24487412 -0.63258177 0.30240241
-0.03115758 0.11278479 0.03847744
-0.70042706 -0.47062013 -0.00000074
-0.70737571 -0.20144926 -0.00000125
-0.38104099 0.01942864 0.47056043
-0.62442732 -0.62008649 -0.00000015
-0.75665325 -0.67732042 -0.00000031
