ply
format ascii 1.0
element vertex 1164
property float x
property float y
property float z
end_header
-0.03840442 -0.60517466 0.00000090
-0.23556609 0.23128383 0.07948242
-0.10555074 -0.31018996 0.00000233
-0.10804020 -0.37985867 0.00000213
-0.30695933 0.05892363 0.11022265
-0.50990731 -0.67823905 0.00000423
-0.02663183 0.32404765 0.00000868
-0.02260005 -0.19524224 0.00000206
-0.27819327 -0.12759978 0.00000420
-0.24680354 -0.49148962 0.00000283
-0.28820676 0.10419103 0.24567409
-0.57996434 -0.60017133 0.20832910
-0.04665249 -0.27078566 0.00000201
-0.52814841 -0.47507575 0.12268379
-0.41180250 -0.19419228 0.14890353
-0.18637109 -0.52279794 0.00000227
-0.28897703 0.10233119 0.25107417
-0.49849126 -0.40347317 0.03052716
-0.22133431 -0.70568997 0.00000196
-0.55087537 -0.52994549 0.17092676
-0.47737479 -0.35250068 0.21124759
-0.34731710 -0.03850974 0.13308318
-0.49356556 -0.39158249 0.05584392
-0.18317457 -0.30539703 0.00000293
-0.16871884 0.15438361 0.00000759
-0.29457805 -0.19471230 0.00000411
-0.46598911 -0.56149232 0.00000426
-0.75361401 -0.77252531 -0.09446124
-0.61939740 -0.77774948 0.00000474
-0.18547782 -0.62637907 0.00000194
-0.60427707 -0.65886599 0.20702483
-0.69922239 -0.79785848 -0.03451524
-0.40043563 -0.77377146 0.00000310
-0.06043611 -0.16749910 0.00000243
-0.49269730 -0.38949001 0.14623214
-0.60075939 -0.65037370 0.11237048
-0.06648765 0.05881423 0.00001028
-0.11644465 -0.32670999 0.00000236
-0.61515582 -0.68512905 0.15483005
-0.16123298 -0.68993998 0.00000156
-0.33101639 -0.63041985 0.00000303
-0.40546209 -0.24026547 0.00000481
-0.36529487 -0.08192174 0.37436715
-0.67022926 -0.81808472 0.11537412
-0.16505453 -0.54020673 0.00000206
-0.46953490 -0.65838540 0.00000398
-0.55131125 -0.55817753 0.00000491
-0.56658965 -0.56788284 0.21289149
-0.41471845 -0.20123582 0.24249887
-0.05899512 -0.07491714 0.00000271
-0.09408107 0.57286233 0.01324736
-0.06794642 0.19222587 0.00000909
-0.56203610 -0.55688775 0.11569773
-0.24170934 0.21644840 0.18582608
-0.21054278 0.29169682 0.04791214
-0.44702607 -0.45156905 0.00000446
-0.04596209 -0.19358411 0.00000224
-0.00375424 0.55260420 0.00000710
-0.54503053 -0.51583260 0.11426188
-0.27763769 0.12970729 0.24006425
-0.41691104 -0.20653553 0.39909813
-0.44660521 -0.27821952 0.29393840
-0.18128620 0.36232704 0.08722228
-0.27150601 0.14451051 0.24018709
-0.45417237 -0.40649045 0.00000466
-0.13828459 0.46614522 0.01599106
-0.20099908 -0.28306699 0.00000313
-0.16397496 0.36817071 0.00000581
-0.23681529 0.22826278 0.20888297
-0.42975208 -0.23753040 0.24573389
-0.36742136 -0.08704319 0.06652394
-0.58477575 -0.61178684 0.12848313
-0.17981473 -0.40274924 0.00000260
-0.56433064 -0.56242913 0.19211763
-0.06875809 0.63308555 0.00000522
-0.13496532 -0.33500490 0.00000247
-0.43992418 -0.52579135 0.00000418
-0.63282901 -0.72779417 0.03650783
-0.10836755 -0.69198108 0.00000116
-0.56148469 -0.55555868 0.22959907
-0.01694847 0.37749925 0.00000839
-0.47123307 -0.64375699 0.00000404
-0.32587680 0.01325321 0.09869157
-0.15626618 0.42273399 0.00944591
-0.61255294 -0.68908900 0.00000497
-0.21132131 0.28981087 0.20794949
-0.15762299 0.41502544 0.00000551
-0.09518420 0.16355774 0.00000885
-0.18117312 -0.19860670 0.00000325
-0.29955569 -0.22766353 0.00000405
-0.24409601 -0.18416692 0.00000377
-0.52464026 -0.46660307 0.04167243
-0.39653400 -0.34242240 0.00000442
-0.36548284 -0.08236201 0.03675944
-0.13212657 0.48100904 0.09094407
-0.32767689 0.00890990 0.03663503
-0.41692248 -0.20656022 0.32719964
-0.50591314 -0.42139605 0.14848670
-0.30355582 -0.52851886 0.00000314
-0.22477464 -0.52231765 0.00000256
-0.53407192 -0.50774080 0.00000494
-0.53217971 -0.48480517 0.04653219
-0.01516053 0.01798686 0.00001157
-0.35206285 -0.04997074 0.22399770
-0.47414109 -0.34469780 0.31487140
-0.47450879 -0.34558555 0.32143641
-0.02966027 0.28901917 0.00000893
-0.05159291 0.27880764 0.00000863
-0.40979958 -0.18935741 0.16444705
-0.37229890 -0.47267637 0.00000383
-0.54161257 -0.50757867 0.05802482
-0.50536913 -0.42008471 0.19888540
-0.19776919 -0.44338962 0.00000261
-0.03914277 0.59779733 0.00000606
-0.59526330 -0.63710153 0.01517388
-0.22498648 0.25682548 0.07553537
-0.31191412 0.04695660 0.23666164
-0.53151816 -0.48320720 0.02351581
-0.41335654 -0.19795465 0.41336334
-0.34989783 -0.19786818 0.00000452
-0.06074909 0.28186956 0.00000843
-0.45935127 -0.30898520 0.14167349
-0.46388569 -0.31993562 0.22532879
-0.10147592 0.55500567 0.10930479
-0.32355615 0.01884594 0.34670037
-0.20871902 0.29609448 0.17977814
-0.41069326 -0.19271502 0.00000500
-0.67064577 -0.81909025 0.05548637
-0.32246459 -0.39161676 0.00000371
-0.27062851 0.14662986 0.21795106
-0.16345356 -0.38663641 0.00000252
-0.33414689 -0.00671993 0.28098679
-0.28920805 0.10177213 0.28429067
-0.36615524 -0.08399904 0.37871453
-0.36041847 -0.07014774 0.34191322
-0.36765960 -0.76987511 0.00000287
-0.41488791 -0.62577647 0.00000367
-0.18700328 0.34852549 0.06952565
-0.39612278 -0.15633427 0.05539493
-0.21050519 -0.61879307 0.00000215
-0.46605521 -0.32517725 0.32690936
-0.11484209 -0.44139171 0.00000199
-0.26917633 0.15013658 0.19763187
-0.46412328 -0.32050216 0.04953257
-0.16500650 -0.46057466 0.00000231
-0.24195264 -0.68220097 0.00000219
-0.06885264 0.59869546 0.00000551
-0.08473391 -0.68071228 0.00000101
-0.48465741 -0.37007517 0.02727396
-0.42278728 -0.22071537 0.23381433
-0.64864743 -0.76598293 0.10804032
-0.55194747 -0.57128531 0.00000488
-0.07900413 0.60926127 0.01544325
-0.18277346 0.35873455 0.13549586
-0.23940252 -0.59295332 0.00000245
-0.53033549 -0.78921467 0.00000403
-0.31669134 0.03542796 0.12244837
-0.16778237 -0.69416720 0.00000160
-0.56357902 -0.56061405 0.14700957
-0.43397951 -0.44868952 0.00000437
-0.37786886 -0.20717829 0.00000470
-0.29011473 0.09958837 0.15549433
-0.19414267 -0.18621059 0.00000338
-0.04903531 -0.29734439 0.00000194
-0.08420837 -0.05138033 0.00000297
-0.09092385 -0.51496285 0.00000158
-0.25259975 0.19015463 0.23410463
-0.11362721 -0.36173069 0.00000223
-0.24667095 -0.67837352 0.00000224
-0.05025847 0.37959832 0.00000777
-0.48625693 -0.37393898 0.08324674
-0.18150026 0.36180815 0.14050575
-0.07790092 0.25202206 0.00000838
-0.41105804 -0.75652617 0.00000324
-0.02647716 -0.26102784 0.00000188
-0.19394338 -0.07294038 0.00000374
-0.59086168 -0.79394603 0.00000448
-0.34765691 -0.03933939 0.36230561
-0.35510561 -0.12860353 0.00000478
-0.10973907 0.41547132 0.00000638
-0.39804417 -0.16098443 0.34128070
-0.02723079 -0.37837622 0.00000152
-0.09474002 -0.02523329 0.00000314
-0.14387327 -0.64881659 0.00000156
-0.40396678 -0.68419594 0.00000341
-0.35980731 -0.12769046 0.00000482
-0.09294975 -0.20488670 0.00000256
-0.23724699 -0.69119000 0.00000213
-0.09089521 0.58055043 0.09390462
-0.33591044 -0.01097243 0.15312803
-0.00322228 -0.20894568 0.00000183
-0.43404806 -0.24790055 0.21348055
-0.14668763 -0.12676083 0.00000321
-0.04314789 -0.72366184 0.00000056
-0.57891637 -0.76454216 0.00000448
-0.15500541 0.42577508 0.07605699
-0.00503984 0.34947684 0.00000885
-0.38196141 -0.12215224 0.22028476
-0.28208485 -0.46225974 0.00000318
-0.04928955 -0.01613063 0.00000282
-0.38518026 -0.43349376 0.00000405
-0.42219615 -0.21928555 0.16652973
-0.17451707 -0.30167931 0.00000287
-0.10799884 0.20906448 0.00000822
-0.12175889 -0.54520380 0.00000171
-0.19221196 -0.28957260 0.00000305
-0.25626081 0.14943673 0.00000605
-0.47770876 -0.66592503 0.00000402
-0.21670783 -0.18818250 0.00000355
-0.32322854 -0.02138328 0.00000487
-0.13705736 -0.50401217 0.00000196
-0.28598329 -0.35105672 0.00000356
-0.53659922 -0.49547571 0.06946482
-0.19450882 0.20269616 0.00000670
-0.12066447 -0.46574208 0.00000195
-0.49111539 -0.38566959 0.11418450
-0.44457805 -0.62544566 0.00000390
-0.38669255 -0.13357449 0.22707792
-0.43260282 -0.24441747 0.36471900
-0.44371256 -0.38975939 0.00000463
-0.45480472 -0.29800606 0.07317114
-0.18432911 0.33494005 0.00000573
-0.06097088 0.34525341 0.00000788
-0.33431211 -0.00711024 0.06801930
-0.49416062 -0.56458616 0.00000446
-0.47493267 -0.34660265 0.15611930
-0.29250133 -0.05564164 0.00000453
-0.29275420 0.09321897 0.08444829
-0.63939804 -0.74365330 0.04927892
-0.37678599 -0.10965135 0.06453657
-0.35150099 -0.04860716 0.04707237
-0.60082352 -0.65052861 0.14873590
-0.24680203 -0.58107078 0.00000255
-0.23076347 0.24287574 0.14622954
-0.22304045 0.13597126 0.00000677
-0.60183215 -0.65296131 0.04427683
-0.26498419 0.16025630 0.22301231
-0.60659117 -0.66445184 0.07568002
-0.18720178 -0.18663573 0.00000333
-0.45315474 -0.29403356 0.36468306
-0.29228455 -0.34137204 0.00000364
-0.12854487 0.48965499 0.11698671
-0.46357191 -0.31917736 0.20825873
-0.27599117 0.13369113 0.02241314
-0.33353803 -0.00524303 0.10658646
-0.26343188 0.16400418 0.21748167
-0.55466706 -0.53909987 0.24741921
-0.11764515 -0.52933091 0.00000173
-0.06393486 -0.16341755 0.00000247
-0.11734129 0.35174972 0.00000680
-0.24962924 0.19733055 0.12291149
-0.43702370 -0.25507864 0.07067297
-0.44435331 -0.55099040 0.00000413
-0.20489369 0.14055876 0.00000706
-0.30497363 0.06371045 0.28652182
-0.36973709 -0.09263596 0.11850063
-0.27398065 -0.43938351 0.00000319
-0.23293008 -0.16603909 0.00000374
-0.51662934 -0.44726521 0.09663096
-0.35121372 -0.04792535 0.33926722
-0.64513057 -0.75749189 0.00891517
-0.33360696 -0.08032382 0.00000477
-0.00473397 0.78856617 0.00450803
-0.33661833 -0.01268308 0.19446120
-0.21798497 -0.48892766 0.00000262
-0.39406684 -0.15136936 0.02147826
-0.24281633 0.21378309 0.00622113
-0.31480700 0.03996979 0.30620933
-0.19978844 0.31765741 0.11687952
-0.41719490 -0.63498348 0.00000366
-0.13163494 0.13092604 0.00000847
-0.45636356 -0.60422230 0.00000405
-0.18426766 0.35513192 0.01853081
-0.25203604 0.19151695 0.19855586
-0.17732698 0.37188309 0.14713329
-0.45105207 -0.28895739 0.37529367
-0.37175074 -0.09749845 0.14569415
-0.26332581 -0.45626026 0.00000306
-0.18457031 -0.08170601 0.00000364
-0.09405512 0.17864616 0.00000873
-0.03844158 0.53319001 0.00000664
-0.12193180 -0.16769545 0.00000290
-0.60910255 -0.67051542 0.14609545
-0.01154122 0.35329726 0.00000870
-0.33935174 -0.20490085 0.00000442
-0.07046806 -0.03539841 0.00000292
-0.50561148 -0.42066461 0.07075088
-0.19046605 -0.61168611 0.00000203
-0.23433629 0.23424628 0.24240465
-0.44511160 -0.34190345 0.00000479
-0.27137664 -0.62742239 0.00000259
-0.59962630 -0.65783888 0.00000497
-0.31452933 0.04064361 0.22034208
-0.28506574 -0.12604231 0.00000426
-0.11627403 -0.16473027 0.00000286
-0.37485370 -0.10499168 0.19528119
-0.19983412 0.31754622 0.13861766
-0.18355866 0.12452059 0.00000759
-0.31451941 -0.59088808 0.00000303
-0.17566559 0.37589332 0.16476926
-0.53822798 -0.49941322 0.19994548
-0.61425638 -0.68295759 0.11076488
-0.55432010 -0.53825879 0.09216912
-0.21714234 0.27576259 0.08360797
-0.09193569 -0.73451459 0.00000090
-0.62787879 -0.71584421 0.15688692
-0.48635998 -0.37419504 0.26489711
-0.53316385 -0.75150150 0.00000417
-0.08480404 -0.36062366 0.00000201
-0.24639855 0.07809430 0.00000686
-0.50615358 -0.42198092 0.31336010
-0.28922334 -0.77373630 0.00000226
-0.05512565 0.66690809 0.04291297
-0.51226467 -0.44195917 0.00000498
-0.12333716 -0.71957922 0.00000118
-0.17926756 -0.71142501 0.00000163
-0.06699326 0.06149472 0.00001025
-0.30685937 -0.74564099 0.00000248
-0.00139876 0.57671398 0.00000693
-0.26774490 0.15359554 0.11952779
-0.37304112 -0.59640187 0.00000345
-0.54655570 -0.66205978 0.00000455
-0.62832040 -0.71691024 0.12151805
-0.47615433 -0.34954965 0.09680317
-0.63087064 -0.72306705 0.18020310
-0.16168132 -0.19786516 0.00000310
-0.27716872 -0.00784178 0.00000457
-0.52292973 -0.59832585 0.00000458
-0.06843254 -0.69615102 0.00000084
-0.58220947 -0.60559142 0.16573042
-0.29842070 0.04156841 0.00000623
-0.31040329 0.05060698 0.16437651
-0.08999156 0.16684899 0.00000891
-0.34711972 -0.03803408 0.15296119
-0.30152553 -0.21161810 0.00000411
-0.34002140 -0.68065935 0.00000294
-0.16018780 -0.28534678 0.00000282
-0.61965781 -0.69599611 0.03733047
-0.61246943 -0.67864132 0.02510396
-0.43593749 -0.25246561 0.30189598
-0.59520084 -0.63695467 0.15196507
-0.39462283 -0.15271492 0.10143218
-0.51172060 -0.43541071 0.00654559
-0.06502774 0.41737145 0.00000717
-0.08604944 -0.71565765 0.00000091
-0.44668657 -0.65602475 0.00000382
-0.20689511 -0.32009998 0.00000306
-0.21245976 0.28706187 0.22117434
-0.45351723 -0.29489946 0.11624491
-0.09366129 -0.17221045 0.00000267
-0.53828430 -0.49954939 0.26449391
-0.25048384 0.19527140 0.02190470
-0.40583831 -0.17979757 0.25226140
-0.32424992 0.01717801 0.16997419
-0.22475252 0.19414034 0.00000623
-0.27327195 -0.12053273 0.00000419
-0.11856131 -0.72308576 0.00000113
-0.44673952 -0.79876840 0.00000337
-0.10758423 -0.01444680 0.00000327
-0.24114585 -0.24564338 0.00000355
-0.00446345 0.78921926 0.00433860
-0.37591463 -0.10755215 0.17494453
-0.41848379 -0.21031781 0.03400135
-0.24718183 0.12014604 0.00000647
-0.57838434 -0.59635663 0.12950829
-0.57650602 -0.59181863 0.04865555
-0.30768892 0.05715737 0.23147342
-0.36814958 -0.23559470 0.00000454
-0.23033711 0.24390943 0.03616414
-0.02540510 0.72738630 0.00000518
-0.36874157 -0.52526069 0.00000364
-0.61436266 -0.68321127 0.00716988
-0.18862262 0.34461719 0.04089713
-0.29572520 0.08604359 0.15338245
-0.12547563 -0.22084527 0.00000276
-0.31359032 -0.22075216 0.00000418
-0.39763132 -0.15997927 0.13096561
-0.50780249 -0.42595473 0.08476627
-0.16069767 -0.56270909 0.00000195
-0.38264778 -0.12381193 0.28667215
-0.25534907 0.07799855 0.00000669
-0.46748272 -0.32861367 0.07640879
-0.37628740 -0.19243531 0.00000474
-0.05398507 0.66966277 0.01496669
-0.64373821 -0.75413066 0.01572829
-0.46229130 -0.31607985 0.06180424
-0.00681647 0.20735493 0.00001006
-0.48466286 -0.37009099 0.09409474
-0.58711481 -0.61743373 0.13613439
-0.46951067 -0.33350831 0.04462522
-0.54715794 -0.52096784 0.09465088
-0.14800631 -0.33697984 0.00000256
-0.11778071 0.50757247 0.00000543
-0.04960294 -0.45217487 0.00000146
-0.44863150 -0.28310898 0.23419780
-0.30009314 0.07550105 0.08645852
-0.58080322 -0.60219371 0.06388668
-0.25247258 -0.52916133 0.00000275
-0.25402978 0.18670566 0.14839187
-0.33112463 -0.67602527 0.00000289
-0.23096035 0.24240488 0.03437390
-0.32165512 0.02343655 0.31585425
-0.55311066 -0.53534043 0.12925217
-0.29661655 -0.52763593 0.00000309
-0.27902538 -0.21670528 0.00000393
-0.38315338 -0.12503751 0.41234285
-0.16326228 0.40583727 0.17409690
-0.50888675 -0.42857674 0.19184211
-0.42175093 -0.21821906 0.37372059
-0.17116520 -0.20253488 0.00000316
-0.26158160 0.16847332 0.16294159
-0.29669690 -0.53940886 0.00000305
-0.36360461 -0.07783203 0.14966758
-0.19161138 0.29213995 0.00000597
-0.35486412 -0.05672674 0.05433797
-0.45552206 -0.29974410 0.22870170
-0.19027567 0.34062690 0.02773105
-0.48044068 -0.35990444 0.26147944
-0.63114434 -0.72372699 0.03621733
-0.07991371 -0.34986785 0.00000201
-0.28022283 -0.27330634 0.00000376
-0.03845830 0.26703012 0.00000897
-0.04281105 -0.16263071 0.00000231
-0.06566190 -0.45722017 0.00000157
-0.33962038 -0.01992631 0.08664907
-0.14539462 -0.43734273 0.00000223
-0.25268552 -0.25172850 0.00000362
-0.29227436 -0.61447746 0.00000278
-0.54122764 -0.50665504 0.21434695
-0.01673543 -0.78277415 0.00000018
-0.38795295 -0.32955876 0.00000440
-0.23896828 -0.57150406 0.00000252
-0.46705180 -0.32757044 0.00530764
-0.30403939 -0.74740583 0.00000246
-0.32969427 0.00403442 0.16221540
-0.06836189 -0.67236549 0.00000091
-0.19392624 0.33181274 0.04984857
-0.40871009 -0.18672363 0.07714500
-0.02158029 0.48193184 0.00000739
-0.59595907 -0.63878506 0.14821972
-0.35934499 -0.06755199 0.23907682
-0.34071290 -0.02257152 0.27594376
-0.40817514 -0.18543978 0.26584917
-0.08449367 -0.75160128 0.00000079
-0.24369416 0.11543908 0.00000658
-0.52231872 -0.46100354 0.17027664
-0.21957737 0.14425965 0.00000676
-0.45500520 -0.29848939 0.05620914
-0.13540433 0.34063435 0.00000657
-0.38463455 -0.12859869 0.04354616
-0.20387831 0.27538195 0.00000590
-0.62799758 -0.71613085 0.07384516
-0.39797953 -0.16081670 0.05197917
-0.50984544 -0.43088439 0.02450529
-0.29766810 0.08135837 0.02002871
-0.33485287 -0.01898923 0.00000497
-0.29693249 -0.06655919 0.00000453
-0.42348942 -0.56860000 0.00000392
-0.29544902 0.08671013 0.15810126
-0.14483222 0.45033538 0.07689652
-0.20704633 0.30013800 0.04859343
-0.23891717 0.22319612 0.01580572
-0.18450914 0.35454306 0.16445227
-0.10358173 -0.76826984 0.00000088
-0.24400806 0.21090566 0.01440839
-0.14380211 0.45282346 0.04790308
-0.19129030 -0.14766432 0.00000348
-0.42393836 -0.22349198 0.17492586
-0.23701702 -0.41303694 0.00000300
-0.07530569 -0.45224291 0.00000165
-0.37868929 -0.56023735 0.00000361
-0.43984938 -0.39205658 0.00000459
-0.23658431 -0.36732331 0.00000314
-0.70011455 -0.75020134 -0.05357738
-0.10256855 0.55237043 0.04502542
-0.34128603 -0.02395213 0.19893010
-0.27640945 0.13267244 0.24166214
-0.43800512 -0.25745967 0.35987157
-0.06324018 0.13378237 0.00000968
-0.16431189 -0.55267966 0.00000201
-0.22089337 0.26670581 0.10849107
-0.39952984 -0.16457327 0.39490053
-0.29731551 -0.09586753 0.00000444
-0.30764577 -0.49864581 0.00000326
-0.01438718 -0.62279242 0.00000066
-0.00052896 -0.22575568 0.00000179
-0.23263174 -0.02854056 0.00000417
-0.43008345 -0.23833153 0.27421144
-0.32192859 -0.63183701 0.00000295
-0.38011965 -0.11771153 0.36166957
-0.02027190 0.71779519 0.00000535
-0.03082722 -0.20393082 0.00000210
-0.35700652 -0.28755668 0.00000429
-0.19432579 -0.45961314 0.00000253
-0.52742124 -0.47332424 0.25954336
-0.08808346 -0.46444800 0.00000171
-0.28374594 0.11496350 0.16878816
-0.46772537 -0.32920793 0.28747445
-0.26039237 -0.08148164 0.00000421
-0.13628732 -0.65220195 0.00000149
-0.53467357 -0.49083251 0.25297886
-0.25257015 0.19023523 0.00606509
-0.19319083 0.02767842 0.00000826
-0.64024341 -0.74569428 0.13600929
-0.31548148 0.03834044 0.33107299
-0.32819340 -0.05184813 0.00000481
-0.41844288 -0.21021871 0.02714114
-0.28881621 -0.28466138 0.00000379
-0.21370682 0.28405109 0.22376949
-0.25282720 0.18961190 0.07555574
-0.05639150 -0.78317589 0.00000048
-0.37593552 -0.66003418 0.00000327
-0.52421814 -0.46559066 0.20702992
-0.09481464 -0.09898797 0.00000291
-0.24496499 0.20859349 0.06279297
-0.44704172 -0.79729599 0.00000338
-0.00454435 0.38716212 0.00000853
-0.18613464 0.34052542 0.00000565
-0.57876885 -0.59728462 0.12213998
-0.20761789 0.29875359 0.16192061
-0.23821619 0.20519052 0.00000589
-0.52122879 -0.51712614 0.00000482
-0.09191635 -0.60792392 0.00000129
-0.03318717 -0.27143753 0.00000190
-0.59312510 -0.63194120 0.05896351
-0.31929022 0.02914685 0.29344401
-0.54255843 -0.50986773 0.24530812
-0.31051528 0.05033614 0.17582488
-0.12505229 0.16810118 0.00000826
-0.45014229 -0.28675735 0.25838447
-0.02581737 0.43797022 0.00000770
-0.28753385 -0.65001029 0.00000264
-0.48961368 -0.38204718 0.19013962
-0.16558571 0.40022793 0.17572805
-0.25965735 -0.54517406 0.00000276
-0.51323003 -0.51477301 0.00000476
-0.16225244 0.05605431 0.00000857
-0.01072331 0.05317809 0.00001134
-0.26205614 -0.71080798 0.00000226
-0.66425049 -0.80365098 0.02570733
-0.23402305 0.03800381 0.00000743
-0.00633827 0.59198773 0.00000671
-0.10948323 0.02780242 0.00000977
-0.32602340 -0.67234164 0.00000286
-0.03616807 -0.42430341 0.00000145
-0.18313593 -0.07753131 0.00000364
-0.22584805 -0.22833407 0.00000349
-0.16984963 -0.61519390 0.00000186
-0.70354694 -0.74688774 -0.05801657
-0.01331263 0.16501960 0.00001032
-0.32149354 0.02382934 0.24772634
-0.54304171 -0.51103449 0.22166182
-0.40360028 -0.44456989 0.00000416
-0.41904315 -0.50023437 0.00000410
-0.35038456 -0.09325992 0.00000485
-0.32306284 0.02004243 0.20562392
-0.34658980 -0.03675775 0.22807489
-0.43839759 -0.25840700 0.35667664
-0.60805124 -0.68813854 0.00000494
-0.34225723 -0.02629770 0.22255574
-0.42988509 -0.23784722 0.13797247
-0.26546323 0.15910529 0.08711641
-0.25675949 -0.19341902 0.00000383
-0.09202764 -0.45583704 0.00000177
-0.65292501 -0.77630955 0.02180085
-0.54135758 -0.51502413 0.00000497
-0.41847020 -0.31205541 0.00000468
-0.56559092 -0.56546938 0.10269992
-0.22571059 -0.22218257 0.00000351
-0.39198634 -0.14634877 0.07465032
-0.26778117 0.15350723 0.13686486
-0.02333523 -0.35592017 0.00000156
-0.03696658 0.27451357 0.00000893
-0.34226590 -0.11334458 0.00000473
-0.56017178 -0.55238843 0.15309568
-0.54929978 -0.63867116 0.00000465
-0.65928322 -0.79165930 0.03610011
-0.37001210 -0.09330295 0.19472514
-0.35841689 -0.06531528 0.33745185
-0.45429984 -0.74099362 0.00000361
-0.33236000 -0.00240544 0.26643151
-0.00893659 -0.37643522 0.00000139
-0.36623132 -0.37857443 0.00000408
-0.01589273 -0.06793804 0.00000241
-0.07814644 -0.00646381 0.00000307
-0.15009679 -0.25309429 0.00000284
-0.57827294 -0.59608799 0.13645764
-0.38203603 -0.12232644 0.07269301
-0.22705881 -0.36397788 0.00000308
-0.35107580 -0.04758864 0.24609627
-0.31711566 -0.18229777 0.00000432
-0.17889582 0.03158989 0.00000848
-0.02718417 0.28114402 0.00000905
-0.27489749 0.13632341 0.22330827
-0.03183334 0.72314203 0.01281955
-0.63581032 -0.73499143 0.02979335
-0.62824583 -0.71672982 0.04428978
-0.07091901 0.32177931 0.00000790
-0.37399152 -0.10290270 0.00851273
-0.07638127 -0.30053473 0.00000214
-0.46182793 -0.31496891 0.25445825
-0.23983832 -0.68375456 0.00000217
-0.50839597 -0.42739436 0.27144933
-0.04734507 0.56189394 0.00000623
-0.08825591 0.50352019 0.00000600
-0.25033692 0.09157282 0.00000667
-0.53497344 -0.49155077 0.07127029
-0.47768313 -0.77338731 0.00000369
-0.50642544 -0.42263260 0.14314564
-0.63414270 -0.73096538 0.02642489
-0.24408485 0.21071610 0.11813591
-0.25214258 -0.26504332 0.00000357
-0.14696428 -0.12876061 0.00000321
-0.50879502 -0.59610516 0.00000448
-0.47664687 -0.56950146 0.00000432
-0.47752556 -0.35286459 0.20927939
-0.25241756 0.19060072 0.07853169
-0.47626808 -0.34982130 0.02403157
-0.39311773 -0.14908561 0.20990011
-0.13877787 0.13875709 0.00000827
-0.16686364 0.08266978 0.00000826
-0.39428771 -0.45739478 0.00000405
-0.29725781 -0.79328912 0.00000226
-0.06040207 0.23681352 0.00000883
-0.51198137 -0.50779349 0.00000478
-0.02571862 0.50261825 0.00000714
-0.61371779 -0.68165737 0.17871483
-0.33984974 -0.32020783 0.00000406
-0.14731055 0.44435447 0.01889707
-0.14860728 0.44122258 0.05096081
-0.57750785 -0.59423912 0.09316261
-0.21447209 0.21873575 0.00000620
-0.00725067 -0.44911894 0.00000115
-0.24753837 -0.32431975 0.00000335
-0.49405238 -0.39276537 0.24322908
-0.42601797 -0.55919200 0.00000397
-0.36411506 -0.46917424 0.00000378
-0.30373189 -0.42370042 0.00000347
-0.06068416 0.65348810 0.05499454
-0.04824199 -0.50518680 0.00000129
-0.00187340 -0.64249730 0.00000048
-0.04510003 -0.30786389 0.00000188
-0.39863837 -0.16241854 0.33211839
-0.57012695 -0.60361463 0.00000491
-0.17407162 0.37974334 0.11927090
-0.19132192 0.27985260 0.00000609
-0.40928310 -0.49215078 0.00000405
-0.34889662 -0.04232056 0.06946941
-0.46557313 -0.32400471 0.10718593
-0.39995116 -0.16559006 0.38558057
-0.06496604 0.08663507 0.00001007
-0.25018200 0.19599740 0.08879944
-0.34035835 -0.02171397 0.23599428
-0.03706069 -0.19264381 0.00000218
-0.12455475 0.49929190 0.02040597
-0.08775496 0.38185337 0.00000707
-0.31963280 -0.43866050 0.00000354
-0.49616015 -0.39785111 0.17201047
-0.35660860 -0.06094611 0.24786058
-0.03626696 -0.15566795 0.00000229
-0.20583116 0.15881018 0.00000688
-0.53807926 -0.49905437 0.23895581
-0.21351038 0.28452852 0.14502175
-0.29116684 0.09704208 0.31306618
-0.65784538 -0.78818816 0.13877957
-0.58477974 -0.67315352 0.00000481
-0.01234767 0.30432847 0.00000911
-0.40604827 -0.18030784 0.33614707
-0.33538613 -0.23592366 0.00000429
-0.20155895 0.31338531 0.05920867
-0.25221294 0.19109318 0.11742769
-0.39445096 -0.63618344 0.00000349
-0.46687731 -0.32716200 0.35261825
-0.11521354 -0.06645924 0.00000316
-0.45802146 -0.30578107 0.30035040
-0.24874622 0.19946475 0.06323700
-0.46639928 -0.32599789 0.07474186
-0.40682498 -0.18217257 0.07649451
-0.25591543 0.18215816 0.02716284
-0.10652114 -0.56663376 0.00000153
-0.32679382 -0.37385234 0.00000380
-0.55827171 -0.54779696 0.04717950
-0.31248960 -0.24187028 0.00000410
-0.51527607 -0.44399521 0.02497915
-0.26867869 -0.18327679 0.00000395
-0.51046401 -0.65566605 0.00000430
-0.10345646 -0.19329686 0.00000268
-0.33238611 -0.00247107 0.33166185
-0.38440877 -0.12805910 0.18036906
-0.17317934 0.38189876 0.08835057
-0.33119395 -0.75011075 0.00000265
-0.33225030 -0.00213675 0.17052618
-0.23745114 -0.65614736 0.00000224
-0.05284675 0.61338067 0.00000568
-0.28764784 -0.59278119 0.00000282
-0.01454156 -0.42290327 0.00000129
-0.30441865 -0.73626035 0.00000250
-0.06085661 0.65307230 0.04221685
-0.12242271 -0.42354852 0.00000210
-0.06833047 0.63503033 0.00327787
-0.39318669 -0.14925013 0.16028865
-0.20134592 0.31390163 0.00934836
-0.37682879 -0.51820153 0.00000372
-0.03339280 0.69694811 0.00000530
-0.30331197 0.06772489 0.21612592
-0.07016384 -0.44810283 0.00000163
-0.07322325 -0.08675447 0.00000278
-0.39960122 -0.16473395 0.10493092
-0.23876171 0.22356240 0.24096368
-0.44025049 -0.26287216 0.15352540
-0.06107231 -0.38668981 0.00000175
-0.16429429 -0.29127297 0.00000283
-0.02436295 0.74117666 0.02454374
-0.24234165 0.21492162 0.19154239
-0.33211038 -0.53087270 0.00000335
-0.47127664 -0.36734110 0.00000491
-0.28344673 -0.08052310 0.00000439
-0.02137602 -0.31233999 0.00000169
-0.41502902 -0.20197938 0.08820610
-0.55836278 -0.54802185 0.21354766
-0.30143997 -0.44007054 0.00000340
-0.41785771 -0.20880780 0.07177611
-0.00667532 -0.65850139 0.00000049
-0.21330374 -0.34621710 0.00000303
-0.04320819 0.22311445 0.00000927
-0.29662317 -0.00957838 0.00000471
-0.37896454 -0.11491146 0.07845367
-0.22501320 -0.25726390 0.00000339
-0.53659171 -0.49545541 0.01453441
-0.34521246 -0.05362970 0.00000494
-0.32053590 -0.20446628 0.00000428
-0.24014531 -0.40688941 0.00000304
-0.07536637 0.60631818 0.00000533
-0.35496864 -0.22537161 0.00000447
-0.24350552 0.21211398 0.13654391
-0.64946145 -0.76794809 0.14728320
-0.43714347 -0.25537616 0.27754930
-0.30349204 0.06729884 0.00085260
-0.08112336 -0.01073382 0.00000308
-0.57332975 -0.58415395 0.13529041
-0.48525679 -0.37152332 0.05650518
-0.38424054 -0.12764978 0.10098462
-0.27287048 -0.06799915 0.00000435
-0.59112340 -0.62711114 0.17957799
-0.00485604 0.07645523 0.00001124
-0.04294971 -0.37988475 0.00000164
-0.38131398 -0.64438057 0.00000336
-0.10540100 -0.03801136 0.00000318
-0.10508684 -0.37906307 0.00000211
-0.19056237 -0.60301501 0.00000205
-0.21349557 0.28456375 0.15824340
-0.31282017 -0.39461002 0.00000363
-0.33591330 -0.01098003 0.17108920
-0.35896206 -0.73345762 0.00000292
-0.50998509 -0.43123072 0.30767778
-0.29017425 0.09943838 0.31336039
-0.23602389 -0.08565672 0.00000401
-0.10019016 0.48298877 0.00000596
-0.02347054 -0.01797490 0.00000262
-0.33983487 -0.06484338 0.00000486
-0.53598064 -0.68069822 0.00000442
-0.48671722 -0.55084199 0.00000445
-0.08496541 -0.70936126 0.00000092
-0.19702002 0.32434496 0.01702272
-0.27841917 0.12781855 0.29101044
-0.40306857 -0.51316249 0.00000394
-0.01921950 0.27348408 0.00000926
-0.29169774 0.09576449 0.20893054
-0.52444077 -0.46612722 0.18546084
-0.35354704 -0.32122248 0.00000416
-0.60074878 -0.65034819 0.12117744
-0.37968162 -0.11664386 0.10938892
-0.16604929 -0.19154967 0.00000315
-0.30160046 0.07185959 0.14945726
-0.06626144 -0.18063468 0.00000244
-0.60927898 -0.67094016 0.05912253
-0.03412219 -0.61784923 0.00000083
-0.53862375 -0.50036430 0.09072267
-0.63386565 -0.73029739 0.10951597
-0.06452921 0.64420515 0.05914854
-0.18450750 0.31793630 0.00000588
-0.22780021 -0.44175664 0.00000284
-0.18045183 -0.67590570 0.00000175
-0.27394059 -0.04887628 0.00000441
-0.34698209 -0.03770589 0.25509417
-0.31686810 0.03500231 0.09512919
-0.31496578 0.03959693 0.04570590
-0.43228680 -0.24364121 0.03364930
-0.39091787 -0.14376947 0.07962307
-0.11448641 -0.61052394 0.00000146
-0.25863200 0.17559282 0.19978608
-0.17921551 0.24115361 0.00000664
-0.19937205 0.31866401 0.08285523
-0.23274235 -0.23533733 0.00000352
-0.40434685 -0.59552437 0.00000369
-0.22911139 0.24686231 0.19311549
-0.36714745 -0.08638277 0.08712384
-0.36410955 -0.66488248 0.00000317
-0.25872418 -0.62607276 0.00000250
-0.24460128 0.20946525 0.21994384
-0.57642156 -0.59161657 0.09288463
-0.08255898 0.39560604 0.00000704
-0.38672927 -0.17013796 0.00000489
-0.47428614 -0.34504178 0.15512262
-0.51480842 -0.44287199 0.16870581
-0.04735234 -0.35357153 0.00000175
-0.57869595 -0.59710932 0.18935563
-0.29272330 0.09328546 0.28632820
-0.43869913 -0.25912926 0.21415094
-0.02691791 0.29372573 0.00000894
-0.46536058 -0.32350039 0.36180833
-0.13418515 0.47603700 0.14502457
-0.52961731 -0.47861713 0.00140439
-0.47423309 -0.34491208 0.11564908
-0.08887951 0.40287384 0.00000687
-0.31628242 -0.22284280 0.00000419
-0.07440818 0.19053286 0.00000899
-0.23310408 0.23722708 0.09360424
-0.23116624 -0.55030066 0.00000252
-0.20797741 -0.54861045 0.00000235
-0.22249800 0.26283383 0.06012745
-0.01376560 -0.49405751 0.00000106
-0.57032901 -0.57691014 0.18387266
-0.11662500 0.51843435 0.06222558
-0.18682528 0.34895423 0.09355379
-0.17098583 0.38719112 0.16804324
-0.38681015 -0.68302923 0.00000328
-0.52216041 -0.46061984 0.13116276
-0.19587150 -0.60372549 0.00000209
-0.03873656 -0.63279939 0.00000081
-0.43785244 -0.48119423 0.00000430
-0.02253847 -0.43958461 0.00000130
-0.38802785 -0.13679472 0.13969690
-0.48661426 -0.37480125 0.07285673
-0.54198706 -0.50848848 0.22007985
-0.44863105 -0.52066427 0.00000426
-0.05022685 0.40497050 0.00000755
-0.39140257 -0.14494669 0.25589487
-0.34502253 -0.03297201 0.17955960
-0.30054590 -0.01143275 0.00000473
-0.23842771 0.22437800 0.01078085
-0.56136191 -0.55525583 0.00703900
-0.08069493 -0.68998241 0.00000095
-0.18465577 0.35412708 0.00000556
-0.26209125 -0.76447535 0.00000209
-0.08081052 -0.10305484 0.00000279
-0.65705478 -0.78627902 0.00018924
-0.61517429 -0.68517154 0.03048242
-0.31439877 0.04096531 0.05738494
-0.31834829 -0.47169739 0.00000343
-0.40879259 -0.19717732 0.00000497
-0.13279308 -0.27488056 0.00000264
-0.04591687 -0.68433875 0.00000071
-0.36069515 -0.42470261 0.00000389
-0.30135220 0.07245372 0.27929154
-0.35714635 -0.06224740 0.32444599
-0.24941958 0.19783810 0.08769328
-0.02012763 0.45968750 0.00000761
-0.22441399 0.25820887 0.04362986
-0.22587068 0.25469342 0.01071260
-0.06854833 -0.76630044 0.00000062
-0.03118224 -0.55174226 0.00000101
-0.37361452 -0.10199231 0.00441793
-0.55729187 -0.54543018 0.01512804
-0.36460581 -0.08025395 0.26832694
-0.39123327 -0.14453235 0.11665370
-0.30709025 -0.13869093 0.00000438
-0.25183046 0.19202062 0.01587583
-0.13234212 0.48048952 0.06938878
-0.54025197 -0.50429517 0.08978689
-0.46702605 -0.32750818 0.00313283
-0.39795238 -0.63999212 0.00000350
-0.42871872 -0.23502910 0.08191558
-0.05927623 -0.46279502 0.00000150
-0.54227692 -0.50918669 0.16463654
-0.58957344 -0.62336922 0.15824293
-0.40625969 -0.18080720 0.06010210
-0.24534401 -0.73053718 0.00000207
-0.33883539 -0.01803507 0.18256663
-0.01031251 0.65876299 0.00000605
-0.10413978 0.03427802 0.00000981
-0.14050148 -0.57524335 0.00000176
-0.40687370 -0.18229833 0.27836731
-0.37822893 -0.11314757 0.37876964
-0.08326768 0.59896564 0.07763789
-0.49791056 -0.40207103 0.02456699
-0.18290992 0.35840839 0.05328803
-0.25742942 -0.40080687 0.00000319
-0.33687872 -0.09074845 0.00000476
-0.26575169 0.15840723 0.12754805
-0.41276419 -0.24001606 0.00000486
-0.42158875 -0.62848634 0.00000372
-0.06107109 -0.30919570 0.00000199
-0.26066467 0.17068297 0.26228341
-0.33535337 -0.00963142 0.24979174
-0.28660697 -0.45341668 0.00000325
-0.12997645 -0.40445042 0.00000222
-0.64106345 -0.74767399 0.15033618
-0.21143752 -0.62000978 0.00000216
-0.41082177 -0.19183327 0.36383271
-0.50262845 -0.41346642 0.15874648
-0.24718812 0.20322116 0.19255336
-0.44878891 -0.55068010 0.00000416
-0.13776720 -0.12298601 0.00000316
-0.14129393 0.21329828 0.00000758
-0.38655558 -0.13324052 0.14492419
-0.06085229 -0.64326775 0.00000095
-0.10450245 -0.18622942 0.00000271
-0.11231698 -0.78885108 0.00000088
-0.24764618 -0.17319202 0.00000383
-0.01149848 0.74216479 0.00000530
-0.54454780 -0.66256469 0.00000454
-0.19945377 -0.69409519 0.00000184
-0.00105844 -0.14651924 0.00000204
-0.50279099 -0.41385669 0.10590026
-0.31429893 0.04120425 0.11020678
-0.21108952 0.29037824 0.01439230
-0.11780599 0.46366790 0.00000581
-0.07976443 0.31842715 0.00000777
-0.40605825 -0.18031918 0.01872646
-0.43301779 -0.24541529 0.26372591
-0.42677426 -0.23034705 0.40098810
-0.08347806 -0.36874861 0.00000198
-0.31381190 0.04238095 0.08829189
-0.41586855 -0.20401607 0.33348903
-0.08153785 -0.53245103 0.00000145
-0.57690406 -0.59278339 0.20465015
-0.03822856 -0.53081012 0.00000113
-0.48309776 -0.36630946 0.01774048
-0.22734465 -0.08249815 0.00000396
-0.28061080 -0.04657836 0.00000447
-0.15461513 -0.11041474 0.00000332
-0.31243733 0.04569988 0.07799052
-0.32283285 -0.17638530 0.00000438
-0.08415871 0.57546359 0.00000544
-0.48181096 -0.36321408 0.30068383
-0.13005251 0.18046243 0.00000807
-0.21328665 0.28507406 0.00998548
-0.21772946 0.15993814 0.00000666
-0.24573980 0.20672064 0.11887393
-0.30434713 -0.73723054 0.00000249
-0.00051112 0.67805278 0.00000606
-0.60771775 -0.75395560 0.00000473
-0.51453692 -0.44221285 0.07663875
-0.32044676 -0.67242330 0.00000282
-0.03023611 0.17003013 0.00000996
-0.17384386 -0.63498980 0.00000183
-0.64717263 -0.76351005 0.00000500
-0.33050191 0.00207876 0.30838650
-0.46509799 -0.32285458 0.03140416
-0.23689833 0.22806506 0.13994034
-0.34640825 -0.03631282 0.06429980
-0.20753323 -0.43957821 0.00000269
-0.16866545 -0.11834246 0.00000340
-0.42720354 -0.38324329 0.00000453
-0.24615426 -0.25100613 0.00000357
-0.39319348 -0.14927033 0.25510025
-0.32080325 -0.63668483 0.00000293
-0.48137313 -0.36215633 0.28066668
-0.14916334 0.43278870 0.00000551
-0.47615162 -0.34954283 0.09105328
-0.11605369 -0.05280308 0.00000321
-0.27857518 -0.74412978 0.00000228
-0.51097435 -0.43361667 0.19256498
-0.19153947 -0.03660531 0.00000383
-0.03017049 0.64530414 0.00000581
-0.04925959 0.47712237 0.00000693
-0.33589277 -0.01092568 0.05155463
-0.27268919 0.14166114 0.06466080
-0.40089071 -0.16784985 0.17419614
-0.02087262 0.26356110 0.00000932
-0.05904705 -0.65915847 0.00000089
-0.09045112 0.07543734 0.00000970
-0.43253490 -0.74553102 0.00000343
-0.19313116 -0.47983745 0.00000246
-0.31370655 0.04263295 0.14665844
-0.16341542 -0.05144883 0.00000357
-0.01771193 0.44794649 0.00000776
-0.35228449 -0.05049808 0.03198713
-0.08847546 0.58639538 0.01547967
-0.46113306 -0.31329331 0.30327219
-0.37495759 -0.18186328 0.00000476
-0.45587188 -0.30058083 0.03462222
-0.46355337 -0.31913635 0.30080670
-0.20699786 0.25679457 0.00000601
-0.39996201 -0.16561615 0.38339552
-0.18395369 -0.22180776 0.00000319
-0.58990186 -0.70085663 0.00000476
-0.17115508 -0.47369814 0.00000231
-0.20485385 0.30543092 0.05427892
-0.16550095 0.40043542 0.10485864
-0.04997956 -0.14147633 0.00000243
-0.43628457 -0.25330168 0.25494483
-0.70927900 -0.73676789 -0.06718508
-0.10059511 0.11469920 0.00000917
-0.60260761 -0.65483564 0.19923770
-0.24723355 -0.10836556 0.00000403
-0.51473528 -0.44269302 0.10966887
-0.30482709 0.06406430 0.28628081
-0.38342947 -0.12569174 0.10285568
-0.06302272 -0.78117716 0.00000053
-0.29746404 0.08184083 0.27308720
-0.39643610 -0.15710080 0.30762038
-0.34194884 -0.02554741 0.07794497
-0.44747967 -0.28033236 0.33589616
-0.47983938 -0.64485371 0.00000410
-0.18068679 0.29958537 0.00000611
-0.21807715 0.27350396 0.12900680
-0.13848282 0.31551689 0.00000673
-0.55458653 -0.53890043 0.05380918
-0.49226063 -0.38843051 0.01590021
-0.40543613 -0.54270911 0.00000386
-0.29246250 -0.79810405 0.00000221
-0.53859800 -0.50029850 0.00075041
-0.04289106 0.54787892 0.00000643
-0.15799449 -0.06926849 0.00000348
-0.56262380 -0.55830276 0.01734867
-0.42798987 -0.23327453 0.20809503
-0.23823354 -0.10742549 0.00000396
-0.57137090 -0.57942426 0.12064684
-0.58488190 -0.61204320 0.17143159
-0.02841699 -0.29190350 0.00000180
-0.00245597 -0.16875084 0.00000196
-0.18753174 0.07655346 0.00000793
-0.10909577 0.53660965 0.10985960
-0.63043445 -0.72201389 0.09316463
-0.52175182 -0.45963627 0.20190451
-0.44115639 -0.35758561 0.00000471
-0.15864012 0.41699895 0.10596041
-0.19534303 -0.04464754 0.00000383
-0.52943730 -0.47819144 0.24978064
-0.58734679 -0.77781278 0.00000450
-0.12548392 -0.02883849 0.00000336
-0.04156538 0.40247273 0.00000773
-0.45315006 -0.29402134 0.32149574
-0.14489512 0.45018506 0.03818138
-0.09235591 -0.00663842 0.00000318
-0.34838849 -0.04109550 0.11196251
-0.00584988 0.57559264 0.00000686
-0.23970966 0.22127382 0.24127802
-0.29069281 0.09819436 0.11594606
-0.23060805 -0.40095830 0.00000299
-0.06611838 -0.41409889 0.00000170
-0.53211862 -0.48465759 0.04384799
-0.05267701 0.67281932 0.04958552
-0.40064383 -0.68859482 0.00000337
-0.31749982 -0.78764993 0.00000243
-0.36213285 -0.07537090 0.00000500
-0.11144084 0.53094918 0.08527395
-0.62838733 -0.71707189 0.08530794
-0.33338681 -0.00488558 0.29583114
-0.65463829 -0.78044575 0.07727129
-0.05369082 0.10937954 0.00001007
-0.19065890 0.33970189 0.02285645
-0.44469976 -0.32059237 0.00000485
-0.12415507 0.40550786 0.00000620
-0.56370127 -0.56090367 0.01112015
-0.32392985 -0.05207378 0.00000478
-0.22298194 0.26166672 0.02899248
-0.52550048 -0.46868226 0.10074605
-0.07870304 -0.42663005 0.00000176
-0.39908811 -0.16350067 0.24134985
-0.02560040 0.61614162 0.00000615
-0.53785557 -0.49851438 0.27303734
-0.53344411 -0.48786232 0.16035140
-0.50773245 -0.68004167 0.00000421
-0.30317074 0.06807308 0.03639780
-0.25710416 0.17928915 0.00516292
-0.25005707 0.19629861 0.09926863
-0.01393363 0.32307306 0.00000892
-0.27511600 -0.32176131 0.00000357
-0.59943318 -0.64717215 0.12908687
-0.53801376 -0.49889538 0.18428828
-0.36664268 -0.08517190 0.28077900
-0.59467942 -0.63569343 0.05384569
-0.31089345 -0.20971918 0.00000419
-0.26882100 -0.35471654 0.00000342
-0.57535028 -0.58903182 0.13032378
-0.73314160 -0.70477200 -0.10147576
-0.34937203 -0.26635563 0.00000430
-0.50382996 -0.53701198 0.00000462
-0.09124387 0.54843193 0.00000555
-0.36370829 -0.07808934 0.32406366
-0.52669650 -0.47157261 0.17246112
-0.51697201 -0.44809696 0.21064568
-0.19601493 -0.34937322 0.00000289
-0.37842822 -0.15483426 0.00000487
-0.73476374 -0.79392725 -0.06885559
-0.50531441 -0.41994628 0.04153768
-0.50065565 -0.40870643 0.22777036
-0.25335065 0.18834867 0.06207795
-0.38064176 -0.11896774 0.25651112
-0.26572034 0.15848441 0.09003297
-0.57006299 -0.57626283 0.02404750
-0.57054782 -0.57743353 0.03204022
-0.35967901 -0.06836007 0.28169253
-0.27342114 -0.04990372 0.00000441
-0.19682509 0.32481024 0.15032434
-0.74263656 -0.80017388 -0.07373860
-0.05848555 -0.29057211 0.00000203
-0.20962846 -0.23656397 0.00000334
-0.18541111 0.04342887 0.00000826
-0.44135472 -0.43235487 0.00000448
-0.07017721 -0.64303845 0.00000102
-0.00456593 -0.55567062 0.00000080
-0.61161494 -0.67657846 0.02861412
-0.15058327 -0.59758812 0.00000177
-0.35655215 -0.53777891 0.00000351
-0.35583860 -0.05908927 0.30001569
-0.18654388 0.34962994 0.18494342
-0.55069625 -0.55721879 0.00000491
-0.49643397 -0.68619537 0.00000410
-0.37045899 -0.09438861 0.36295414
-0.17893751 0.33909842 0.00000579
-0.30097163 0.07337968 0.09947353
-0.05941931 -0.28143933 0.00000207
-0.37162009 -0.09719226 0.37479699
-0.38612261 -0.13219939 0.24711144
-0.33232841 -0.43316182 0.00000365
-0.27078891 0.14624138 0.24955665
-0.39643118 -0.15708943 0.31984454
-0.26561621 0.12523784 0.00000609
-0.34742409 -0.03877063 0.19619513
-0.24581490 0.20653404 0.25108168
-0.24034858 -0.77191931 0.00000190
-0.36300939 -0.55427998 0.00000351
-0.04349016 -0.13451479 0.00000241
-0.24773312 -0.11696468 0.00000400
-0.60794282 -0.66771567 0.09194801
-0.41468424 -0.20115227 0.21938136
-0.22653982 0.25307760 0.01976331
-0.23170866 -0.10685323 0.00000391
-0.07173090 -0.72197360 0.00000078
-0.29517969 0.08735411 0.31680876
-0.11261045 0.17385010 0.00000844
-0.27912000 0.12613739 0.02245365
-0.03389705 0.08094257 0.00001068
-0.07090359 -0.03810176 0.00000292
-0.16485177 0.14650197 0.00000773
-0.25606459 0.18179706 0.05141619
-0.18844740 -0.10921380 0.00000358
-0.16701044 0.39679244 0.07326048
-0.25103673 0.15733577 0.00000608
-0.51439583 -0.44187096 0.04618429
-0.28622136 -0.09714873 0.00000436
-0.47158051 -0.33851454 0.27394366
-0.27034965 0.14730491 0.17302097
-0.37043855 -0.43760186 0.00000393
-0.33998799 -0.02082144 0.27674478
-0.39637628 -0.68331277 0.00000336
-0.34694728 -0.03761465 0.07645419
-0.65927768 -0.79164588 0.05500711
-0.07176508 0.59713960 0.00000548
-0.12524308 -0.63178068 0.00000147
-0.26996049 -0.47171912 0.00000306
-0.31036475 -0.25974682 0.00000403
-0.40506592 -0.17793629 0.33668610
-0.29185727 0.08439969 0.00000598
-0.08662212 0.06788943 0.00000984
-0.44186708 -0.26678133 0.31226638
-0.53991592 -0.50348836 0.27187163
-0.06637988 -0.79339302 0.00000052
-0.55800289 -0.54715133 0.12895250
-0.73291928 -0.74405032 -0.08623889
