ply
format ascii 1.0
element vertex 1110
property float x
property float y
property float z
end_header
-0.52839005 -0.58492386 0.00000000
-0.72805101 -0.49710387 -0.00000076
-0.21854158 0.22589834 0.00000000
-0.36419395 -0.74657458 0.00000000
-0.29613417 -0.07399394 0.00000000
-0.66653353 -0.10168226 -0.00000125
-0.70587689 -0.02368091 -0.00000156
-0.73629409 -0.54720253 -0.00000063
-0.15979414 0.52682847 -0.00000020
-0.58916807 0.05290642 -0.00000119
-0.07943297 0.15800060 0.00000000
-0.52726460 -0.38042349 -0.00000016
-0.05087525 0.14710175 0.00000000
-0.22656925 0.02204229 0.00000000
-0.22093511 -0.22996292 0.00000000
-0.23754290 0.43149337 -0.00000036
-0.24436510 -0.53173304 0.00000000
-0.74395430 -0.77936506 -0.00000005
-0.20381545 0.35877368 -0.00000009
-0.40993357 0.29730892 -0.00000086
-0.67906934 -0.53381580 -0.00000054
-0.22818181 0.11482342 0.00000000
-0.68597895 -0.27652860 -0.00000102
-0.17897958 0.46729594 -0.00000018
-0.71843565 -0.24744385 -0.00000121
-0.32212770 -0.70860475 0.00000000
-0.66088474 -0.18302587 -0.00000108
-0.66724706 -0.31177938 -0.00000088
-0.12623553 0.41047138 0.00000000
-0.57613969 0.18377335 -0.00000137
-0.40610984 -0.43605080 0.00000000
-0.60272259 -0.03228598 -0.00000110
-0.19698890 0.54343849 -0.00000039
-0.17389908 0.56090504 -0.00000032
-0.15273710 0.19782552 0.00000000
-0.14657167 0.40092999 0.00000000
-0.67000651 -0.11228671 -0.00000125
-0.25611091 -0.13667028 0.00000000
-0.63495213 -0.50103223 -0.00000041
-0.07480602 -0.77015740 0.00000000
-0.62586361 -0.03485670 -0.00000120
-0.65501702 -0.39391288 -0.00000068
-0.12652120 0.41226050 0.00000000
-0.40029430 0.08340751 -0.00000044
-0.72552633 -0.14642064 -0.00000142
-0.06114626 -0.69165844 0.00000000
-0.59136933 -0.17767628 -0.00000080
-0.24872535 -0.02750870 0.00000000
-0.28808051 -0.74806142 0.00000000
-0.20600760 0.39101017 -0.00000016
-0.30242544 -0.28935829 0.00000000
-0.69416505 -0.61845905 -0.00000045
-0.55352378 -0.38668963 -0.00000026
-0.69253677 -0.32984138 -0.00000096
-0.24456573 0.53155339 -0.00000057
-0.51598698 0.21537238 -0.00000117
-0.36252770 -0.23993391 0.00000000
-0.10311559 0.31615740 0.00000000
-0.33455658 -0.65502572 0.00000000
-0.04331897 -0.36022505 0.00000000
-0.70471919 -0.62704849 -0.00000043
-0.58573228 -0.30658686 -0.00000054
-0.00183430 -0.58242506 0.00000000
-0.53305680 -0.70749092 0.00000000
-0.46847451 -0.46717885 0.00000000
-0.59723270 -0.12156927 -0.00000092
-0.48615643 -0.18494760 -0.00000033
-0.63205934 -0.07503607 -0.00000115
-0.57732058 -0.20814846 -0.00000068
-0.05608633 0.34152681 0.00000000
-0.54875678 -0.02139979 -0.00000089
-0.15994531 0.31735843 0.00000000
-0.35035577 -0.60992688 0.00000000
-0.18685868 -0.03065557 0.00000000
-0.25727224 -0.22037710 0.00000000
-0.22909828 0.56809288 -0.00000053
-0.06993827 -0.57602996 0.00000000
-0.39307120 -0.68666244 0.00000000
-0.74242604 -0.13620038 -0.00000151
-0.32684496 -0.73048252 0.00000000
-0.33470282 -0.38032308 0.00000000
-0.22267605 -0.15670215 0.00000000
-0.46215791 -0.60532272 0.00000000
-0.24284907 0.37234777 -0.00000028
-0.21063024 0.11300967 0.00000000
-0.59759498 -0.31044537 -0.00000059
-0.67171556 -0.16865739 -0.00000115
-0.33782127 -0.34860909 0.00000000
-0.12909789 -0.73829228 0.00000000
-0.12638584 0.55508184 -0.00000011
-0.42287832 -0.65472764 0.00000000
-0.25531048 0.02306426 0.00000000
-0.77532303 -0.74757648 -0.00000013
-0.30792624 0.32185310 -0.00000047
-0.23246969 0.09222112 0.00000000
-0.13029894 -0.34290427 0.00000000
-0.52022398 -0.65709996 0.00000000
-0.25079155 -0.28598946 0.00000000
-0.58582234 -0.62953657 0.00000000
-0.18517619 -0.66170037 0.00000000
-0.65151107 -0.63877177 -0.00000024
-0.35822630 0.01829141 -0.00000015
-0.45940852 0.07231098 -0.00000067
-0.50679123 0.09023815 -0.00000091
-0.22842571 0.26290262 -0.00000003
-0.26618406 -0.08350378 0.00000000
-0.78749055 -0.25130221 -0.00000137
-0.45082811 -0.50619328 0.00000000
-0.15242913 -0.34111023 0.00000000
-0.50921792 -0.40389833 -0.00000005
-0.34281531 0.45476332 -0.00000082
-0.77783650 -0.55239010 -0.00000062
-0.07370512 0.40372133 0.00000000
-0.37617311 0.06889334 -0.00000031
-0.04649519 0.27361378 0.00000000
-0.66998726 -0.61646503 -0.00000036
-0.41457418 -0.76905733 0.00000000
-0.00263023 0.60376781 0.00000000
-0.24428388 0.10830374 0.00000000
-0.25007385 0.07849707 0.00000000
-0.20902281 -0.25299302 0.00000000
-0.71330041 -0.26241964 -0.00000117
-0.29782829 0.23177543 -0.00000027
-0.61602676 -0.02467147 -0.00000117
-0.18746911 0.04130770 0.00000000
-0.31805784 -0.73739678 0.00000000
-0.41036820 -0.00165863 -0.00000033
-0.12805583 0.16674966 0.00000000
-0.07309052 -0.32515991 0.00000000
-0.24407998 -0.19383909 0.00000000
-0.18856996 -0.12229956 0.00000000
-0.63302010 -0.67419738 -0.00000010
-0.13286328 -0.69374156 0.00000000
-0.32038310 -0.68622601 0.00000000
-0.58774459 0.00565496 -0.00000110
-0.16183956 -0.07795303 0.00000000
-0.60530120 -0.47259593 -0.00000033
-0.51599187 0.03765828 -0.00000085
-0.56735373 0.19768126 -0.00000136
-0.30881730 -0.04153104 0.00000000
-0.12059586 0.06532681 0.00000000
-0.55977827 -0.28075257 -0.00000048
-0.01242622 -0.61858374 0.00000000
-0.37237507 -0.59021956 0.00000000
-0.10137210 -0.11604629 0.00000000
-0.50491154 -0.47217068 0.00000000
-0.06647368 -0.24947572 0.00000000
-0.74480373 0.05498006 -0.00000186
-0.33936247 -0.78513324 0.00000000
-0.47822797 -0.04297786 -0.00000055
-0.65668476 -0.03848184 -0.00000132
-0.04420144 -0.55135041 0.00000000
-0.04212372 -0.70628041 0.00000000
-0.03055288 0.74964988 -0.00000004
-0.63234502 -0.21994019 -0.00000090
-0.14681578 0.51334417 -0.00000012
-0.49808976 -0.42898425 0.00000000
-0.11100632 0.40328842 0.00000000
-0.24911052 -0.52272993 0.00000000
-0.00773978 -0.42391336 0.00000000
-0.62139547 -0.62186599 -0.00000014
-0.34966668 0.36581135 -0.00000072
-0.05155204 0.42246360 0.00000000
-0.39888453 -0.66081470 0.00000000
-0.38087621 0.31844130 -0.00000077
-0.71062809 -0.61616975 -0.00000046
-0.61243105 -0.75355434 0.00000000
-0.19813074 -0.75972152 0.00000000
-0.41771176 0.25982353 -0.00000083
-0.01649445 0.38946822 0.00000000
-0.08544456 0.28274640 0.00000000
-0.05304680 0.49147683 0.00000000
-0.43041444 -0.65716177 0.00000000
-0.03826848 -0.10527830 0.00000000
-0.27380517 -0.42442483 0.00000000
-0.47878271 -0.49162769 0.00000000
-0.09408029 0.63045812 -0.00000010
-0.27646130 0.10096180 0.00000000
-0.32579356 -0.60976124 0.00000000
-0.67792118 -0.36454383 -0.00000083
-0.09957848 0.23287097 0.00000000
-0.63684857 -0.66430759 -0.00000013
-0.04857142 -0.41176575 0.00000000
-0.43839186 -0.26354590 0.00000000
-0.25156093 0.05299205 0.00000000
-0.15277433 0.62182665 -0.00000034
-0.79353505 -0.12255931 -0.00000169
-0.71663201 0.08306655 -0.00000179
-0.00165731 -0.27085552 0.00000000
-0.24559125 0.01907782 0.00000000
-0.59414226 -0.22812644 -0.00000072
-0.56627041 0.09150121 -0.00000116
-0.50500029 -0.29701281 -0.00000022
-0.05005119 -0.69699496 0.00000000
-0.26139548 -0.34070346 0.00000000
-0.34553882 -0.05974485 0.00000000
-0.77350140 -0.55046225 -0.00000062
-0.17441411 0.24133343 0.00000000
-0.76401705 -0.38357207 -0.00000104
-0.13872679 0.31444198 0.00000000
-0.40737167 0.22007696 -0.00000071
-0.54643571 -0.02293107 -0.00000088
-0.45919842 0.25419834 -0.00000099
-0.43045530 0.00976146 -0.00000044
-0.03344012 0.22796386 0.00000000
-0.71688688 -0.64140171 -0.00000040
-0.56042725 -0.46432680 -0.00000016
-0.45629466 -0.11927677 -0.00000032
-0.15005004 -0.57190472 0.00000000
-0.60685450 -0.25078446 -0.00000073
-0.22159758 -0.35353330 0.00000000
-0.32383052 0.25447047 -0.00000042
-0.10484214 -0.41219121 0.00000000
-0.50776571 -0.61964935 0.00000000
-0.55773610 0.14888905 -0.00000123
-0.54552674 -0.11836804 -0.00000070
-0.28502133 0.44274902 -0.00000058
-0.34902337 -0.34741524 0.00000000
-0.03639833 0.51494783 0.00000000
-0.48440123 0.13822220 -0.00000090
-0.11074682 -0.29895869 0.00000000
-0.26201260 -0.63387400 0.00000000
-0.54673767 -0.21694222 -0.00000054
-0.08725822 0.15850943 0.00000000
-0.06729014 -0.41156855 0.00000000
-0.26481766 -0.02687999 0.00000000
-0.26310763 -0.39416486 0.00000000
-0.06537468 -0.17674603 0.00000000
-0.40029365 -0.46811116 0.00000000
-0.10232035 0.06841004 0.00000000
-0.27281803 -0.48871082 0.00000000
-0.43974602 0.22714274 -0.00000086
-0.59421051 0.18561168 -0.00000145
-0.15451501 0.41287377 0.00000000
-0.27125144 -0.12924784 0.00000000
-0.62557495 -0.61063224 -0.00000018
-0.05649611 -0.02630387 0.00000000
-0.06348725 -0.05481787 0.00000000
-0.70691556 -0.62305552 -0.00000044
-0.44419509 -0.67715663 0.00000000
-0.57407534 0.00765217 -0.00000105
-0.46014625 -0.15872987 -0.00000027
-0.00419732 -0.65185893 0.00000000
-0.26242301 -0.60413134 0.00000000
-0.78538090 -0.27584261 -0.00000131
-0.62299365 -0.33717519 -0.00000065
-0.43097901 -0.52076840 0.00000000
-0.03756561 0.57281011 0.00000000
-0.35218549 -0.16233994 0.00000000
-0.65090495 0.13378869 -0.00000160
-0.01993084 0.67901868 0.00000000
-0.66905457 -0.71162641 -0.00000018
-0.01545434 -0.59844100 0.00000000
-0.54310781 -0.02155471 -0.00000087
-0.61924976 -0.44406068 -0.00000044
-0.08898798 -0.73764348 0.00000000
-0.08055751 -0.20347087 0.00000000
-0.45410451 -0.62925094 0.00000000
-0.11688004 -0.07998875 0.00000000
-0.32879916 -0.07956373 0.00000000
-0.42202029 0.08032498 -0.00000053
-0.22026327 -0.65201950 0.00000000
-0.45420814 -0.08629089 -0.00000037
-0.22657669 0.20354412 0.00000000
-0.00891667 -0.27917132 0.00000000
-0.48847693 -0.07422278 -0.00000054
-0.17266919 -0.69609553 0.00000000
-0.19812268 -0.67420572 0.00000000
-0.70306939 -0.01000122 -0.00000157
-0.68086821 -0.66714782 -0.00000031
-0.10955408 -0.78547704 0.00000000
-0.53223950 0.26596853 -0.00000133
-0.15003401 0.03655951 0.00000000
-0.79560953 -0.50372088 -0.00000074
-0.30937591 0.02517229 0.00000000
-0.24187557 -0.23324348 0.00000000
-0.73997200 -0.10460376 -0.00000156
-0.13839892 0.13448994 0.00000000
-0.22853719 -0.67834491 0.00000000
-0.59267348 -0.46289164 -0.00000030
-0.15454926 0.13780530 0.00000000
-0.53181231 -0.31330860 -0.00000030
-0.67772675 0.01604548 -0.00000151
-0.54599571 0.03144091 -0.00000097
-0.19060108 0.59727824 -0.00000046
-0.24777484 0.01776220 0.00000000
-0.48266000 -0.26135156 -0.00000018
-0.70669788 -0.09127766 -0.00000144
-0.19598286 -0.42361718 0.00000000
-0.05307388 0.67746907 -0.00000001
-0.02021616 0.75532418 -0.00000001
-0.42122674 -0.16077018 -0.00000010
-0.16965953 0.02751595 0.00000000
-0.16016535 -0.05265407 0.00000000
-0.03517913 -0.15567718 0.00000000
-0.03260365 0.72881877 -0.00000001
-0.39291933 -0.22005248 0.00000000
-0.32839108 0.08922209 -0.00000015
-0.52956253 -0.19651429 -0.00000050
-0.00406189 0.30069694 0.00000000
-0.07463330 0.64146286 -0.00000004
-0.37926731 -0.70156497 0.00000000
-0.62304670 -0.10909224 -0.00000105
-0.42456457 -0.63056684 0.00000000
-0.22827737 -0.07980485 0.00000000
-0.23246729 0.44893831 -0.00000037
-0.01294835 -0.75994480 0.00000000
-0.13292563 -0.32295570 0.00000000
-0.17287485 -0.17084563 0.00000000
-0.68409145 -0.54738349 -0.00000054
-0.26911804 0.49933279 -0.00000062
-0.51140803 -0.01621240 -0.00000074
-0.43159992 0.00439295 -0.00000044
-0.24232812 0.28542617 -0.00000012
-0.48532328 -0.44435063 0.00000000
-0.00238447 0.27277565 0.00000000
-0.02362504 0.49779275 0.00000000
-0.51568866 -0.27279738 -0.00000030
-0.09228664 -0.71294636 0.00000000
-0.42619455 -0.08756516 -0.00000025
-0.30316257 -0.16691370 0.00000000
-0.76500088 -0.70114559 -0.00000025
-0.22139341 -0.74821031 0.00000000
-0.19498482 0.04981609 0.00000000
-0.44614112 -0.60025787 0.00000000
-0.33000839 -0.06881324 0.00000000
-0.12588768 -0.67487961 0.00000000
-0.00538137 -0.59151894 0.00000000
-0.53769708 -0.29804409 -0.00000035
-0.09877864 0.11933054 0.00000000
-0.32146043 -0.15570039 0.00000000
-0.45308122 -0.14000976 -0.00000027
-0.64866549 0.11194653 -0.00000155
-0.48750067 -0.55288690 0.00000000
-0.56662720 0.09972553 -0.00000118
-0.07080559 0.35743943 0.00000000
-0.19102976 -0.78699434 0.00000000
-0.21832591 -0.48177513 0.00000000
-0.22796217 0.23170543 0.00000000
-0.41515505 0.04369072 -0.00000043
-0.39600691 -0.52534443 0.00000000
-0.05601444 -0.16147391 0.00000000
-0.41366217 -0.40662256 0.00000000
-0.11866968 -0.39316592 0.00000000
-0.07644543 0.63189310 -0.00000003
-0.15803500 -0.00039722 0.00000000
-0.46989691 0.11921982 -0.00000080
-0.27623233 0.01841951 0.00000000
-0.67743760 -0.35609317 -0.00000085
-0.01225462 0.16901428 0.00000000
-0.16383141 0.05042835 0.00000000
-0.08569451 -0.73046684 0.00000000
-0.37478265 -0.20248026 0.00000000
-0.70723766 -0.09537540 -0.00000144
-0.57926267 -0.61980748 0.00000000
-0.13520946 -0.77768105 0.00000000
-0.24407968 0.55427235 -0.00000061
-0.27210701 0.36233228 -0.00000039
-0.65384763 -0.25277254 -0.00000093
-0.64389527 -0.30789071 -0.00000079
-0.44734970 -0.22781841 -0.00000009
-0.13299626 -0.76683003 0.00000000
-0.00786854 0.03324759 0.00000000
-0.09796644 0.52192771 0.00000000
-0.67504239 -0.79749388 -0.00000001
-0.54712248 -0.41931170 -0.00000018
-0.20841262 -0.32533658 0.00000000
-0.77660000 -0.74522102 -0.00000014
-0.12112595 0.33291650 0.00000000
-0.49175733 -0.56982756 0.00000000
-0.25898674 -0.05494756 0.00000000
-0.08166408 -0.62470275 0.00000000
-0.49954432 0.02893859 -0.00000077
-0.11603764 -0.15168744 0.00000000
-0.42844856 -0.66982150 0.00000000
-0.69367206 -0.21004531 -0.00000117
-0.73007274 -0.01822432 -0.00000167
-0.73216897 -0.04941488 -0.00000162
-0.09086159 0.64926696 -0.00000012
-0.52485716 -0.22414292 -0.00000043
-0.25404412 0.32372138 -0.00000024
-0.15389942 -0.46950185 0.00000000
-0.09795866 0.10467045 0.00000000
-0.73977089 -0.14540954 -0.00000149
-0.16723436 -0.43569401 0.00000000
-0.03349130 -0.75720811 0.00000000
-0.48487264 -0.73492545 0.00000000
-0.72949529 -0.70522618 -0.00000024
-0.42998049 0.03871003 -0.00000049
-0.46491477 0.11999875 -0.00000078
-0.40599388 0.09168749 -0.00000048
-0.20359291 -0.40833625 0.00000000
-0.57217932 0.18805265 -0.00000136
-0.65441132 -0.76605922 -0.00000002
-0.65317190 -0.54972309 -0.00000040
-0.18037333 -0.21615203 0.00000000
-0.20098515 -0.42269474 0.00000000
-0.17491034 -0.44068640 0.00000000
-0.39167410 0.31961733 -0.00000082
-0.27032867 -0.19072966 0.00000000
-0.00770471 0.44567293 0.00000000
-0.29753807 0.30911618 -0.00000040
-0.31334910 0.24230768 -0.00000035
-0.56537813 -0.35714754 -0.00000037
-0.29140311 0.46435302 -0.00000065
-0.43161678 -0.34476861 0.00000000
-0.44610229 -0.53879893 0.00000000
-0.43744341 0.23378433 -0.00000087
-0.64621109 -0.18564846 -0.00000102
-0.00514135 -0.42479628 0.00000000
-0.20865797 0.53068489 -0.00000041
-0.39851153 -0.19448020 0.00000000
-0.21274310 0.39516547 -0.00000019
-0.40427718 0.26172274 -0.00000077
-0.51455122 -0.52344197 0.00000000
-0.04503064 -0.74558222 0.00000000
-0.22569364 -0.14451648 0.00000000
-0.01791688 -0.22923458 0.00000000
-0.61972350 -0.55790770 -0.00000024
-0.69575554 -0.67676437 -0.00000031
-0.07564401 -0.69905168 0.00000000
-0.16314910 -0.23704779 0.00000000
-0.14105956 -0.79896259 0.00000000
-0.57408267 0.15589550 -0.00000131
-0.13189413 -0.15917493 0.00000000
-0.14406960 0.29793701 0.00000000
-0.14596191 0.06890497 0.00000000
-0.51225835 -0.01070512 -0.00000075
-0.52272469 -0.05386202 -0.00000072
-0.76131618 -0.03230161 -0.00000178
-0.68893993 -0.66787052 -0.00000033
-0.09039324 -0.43424803 0.00000000
-0.65374750 -0.06807224 -0.00000126
-0.07778161 -0.03836226 0.00000000
-0.11011565 0.52342260 0.00000000
-0.64189059 -0.15566339 -0.00000105
-0.23185432 0.06366960 0.00000000
-0.44122565 -0.69102055 0.00000000
-0.44571769 -0.69596559 0.00000000
-0.58688897 0.17999226 -0.00000141
-0.40519634 -0.40107250 0.00000000
-0.31514096 -0.62482613 0.00000000
-0.77723569 -0.30227149 -0.00000124
-0.46095255 -0.53396577 0.00000000
-0.31114018 -0.11234692 0.00000000
-0.01229118 0.65745246 0.00000000
-0.03355659 -0.25220245 0.00000000
-0.53943771 -0.44558913 -0.00000010
-0.39576101 -0.78153086 0.00000000
-0.21336235 -0.52503121 0.00000000
-0.69526494 -0.35066375 -0.00000093
-0.04883958 0.62150365 0.00000000
-0.27675048 0.30175418 -0.00000030
-0.25069472 -0.57109910 0.00000000
-0.56521857 -0.27088940 -0.00000052
-0.67709994 -0.54021800 -0.00000052
-0.13991009 0.14378583 0.00000000
-0.45505896 0.08295074 -0.00000067
-0.46291104 -0.14906052 -0.00000030
-0.03365389 0.32518497 0.00000000
-0.38111490 -0.68634421 0.00000000
-0.75754213 -0.26391533 -0.00000134
-0.58971769 -0.34611696 -0.00000049
-0.23584074 0.31484342 -0.00000015
-0.36967531 -0.37185246 0.00000000
-0.68839777 -0.77991074 -0.00000005
-0.55705130 -0.44752213 -0.00000017
-0.19164829 -0.10090840 0.00000000
-0.08785778 0.30031189 0.00000000
-0.43040532 -0.76901793 0.00000000
-0.24709846 0.03593028 0.00000000
-0.26855618 0.32547536 -0.00000031
-0.51843572 -0.45845127 0.00000000
-0.28047970 0.08566899 0.00000000
-0.39449701 0.08524802 -0.00000042
-0.19354223 0.28863886 0.00000000
-0.55544221 -0.56654108 0.00000000
-0.53358203 -0.72671318 0.00000000
-0.35994831 0.36196017 -0.00000076
-0.29014242 -0.42411709 0.00000000
-0.29787412 -0.75314707 0.00000000
-0.73863083 -0.37015519 -0.00000107
-0.38990340 -0.00491130 -0.00000024
-0.07278492 0.50656146 0.00000000
-0.79096979 -0.77630723 -0.00000006
-0.27830738 0.36712486 -0.00000042
-0.53064191 -0.08651650 -0.00000070
-0.74163485 -0.72942960 -0.00000018
-0.14589162 -0.51976711 0.00000000
-0.32214245 -0.39073190 0.00000000
-0.38076636 -0.08377562 -0.00000006
-0.23597413 -0.49871832 0.00000000
-0.56799418 -0.77398294 0.00000000
-0.37573415 -0.49789673 0.00000000
-0.26425034 -0.73988783 0.00000000
-0.27320293 -0.71630883 0.00000000
-0.47952661 -0.30115467 -0.00000010
-0.19686061 -0.08438376 0.00000000
-0.10282942 -0.29314053 0.00000000
-0.56529427 -0.35692173 -0.00000037
-0.60130638 -0.32946298 -0.00000057
-0.09908098 -0.20262098 0.00000000
-0.73703510 0.02843839 -0.00000178
-0.00737712 0.09107595 0.00000000
-0.55131608 0.09047324 -0.00000110
-0.24891672 -0.26072210 0.00000000
-0.61389858 -0.41676632 -0.00000047
-0.21149424 0.29019541 -0.00000000
-0.06206723 0.27937859 0.00000000
-0.46339107 0.17860664 -0.00000088
-0.14231300 -0.57767338 0.00000000
-0.64012295 -0.68537170 -0.00000011
-0.21533650 -0.57412261 0.00000000
-0.79853183 -0.03472758 -0.00000191
-0.32839432 -0.14116253 0.00000000
-0.35526064 -0.36242512 0.00000000
-0.13596794 0.01999099 0.00000000
-0.04289209 -0.02351480 0.00000000
-0.10624404 -0.22799033 0.00000000
-0.15649693 -0.69942492 0.00000000
-0.68555540 0.05748167 -0.00000161
-0.54555225 -0.78933471 0.00000000
-0.58389258 -0.76493740 0.00000000
-0.28983697 -0.56290030 0.00000000
-0.73702270 -0.26496387 -0.00000126
-0.09190809 -0.00181527 0.00000000
-0.05003771 -0.04381902 0.00000000
-0.07319095 -0.31466001 0.00000000
-0.37299618 -0.48243865 0.00000000
-0.45927587 -0.68026090 0.00000000
-0.71851426 -0.56561524 -0.00000059
-0.48811030 -0.34264389 -0.00000006
-0.04299944 -0.75820428 0.00000000
-0.50177741 -0.52735507 0.00000000
-0.10551613 0.05043752 0.00000000
-0.25235951 -0.49025753 0.00000000
-0.32376835 0.46895525 -0.00000080
-0.03750157 -0.67977870 0.00000000
-0.74635184 0.05357928 -0.00000187
-0.67488903 -0.07038909 -0.00000134
-0.71124971 -0.24227388 -0.00000119
-0.02891441 0.12954588 0.00000000
-0.38095334 0.18364559 -0.00000054
-0.54924124 -0.02862551 -0.00000088
-0.68012685 -0.16480105 -0.00000120
-0.23259307 0.04511631 0.00000000
-0.53581578 0.05084376 -0.00000096
-0.07587839 -0.06491243 0.00000000
-0.60396779 -0.50389975 -0.00000027
-0.33812079 -0.52320695 0.00000000
-0.09811609 -0.70529509 0.00000000
-0.34924600 0.28935310 -0.00000059
-0.25043359 -0.24682140 0.00000000
-0.38598940 0.13206428 -0.00000047
-0.11441630 0.62561107 -0.00000018
-0.12560762 0.30960715 0.00000000
-0.20853390 0.24086571 0.00000000
-0.69423187 -0.39481723 -0.00000085
-0.34389761 -0.34241748 0.00000000
-0.53656870 -0.70198035 0.00000000
-0.20668074 0.20914347 0.00000000
-0.68657136 -0.06470914 -0.00000140
-0.18277884 -0.63797629 0.00000000
-0.77032286 -0.20949323 -0.00000148
-0.34662905 0.10067697 -0.00000024
-0.59510076 -0.16048607 -0.00000084
-0.51535571 -0.12243728 -0.00000057
-0.71410787 0.04717780 -0.00000172
-0.48261136 -0.51816285 0.00000000
-0.04457353 0.19754297 0.00000000
-0.27311146 -0.50998312 0.00000000
-0.08965291 0.52924556 0.00000000
-0.21191689 0.16060703 0.00000000
-0.36950839 -0.59150320 0.00000000
-0.04029408 0.43948799 0.00000000
-0.20225959 -0.64545566 0.00000000
-0.28605747 -0.13109054 0.00000000
-0.28686956 -0.38110569 0.00000000
-0.14453809 0.28735983 0.00000000
-0.34513915 -0.06119075 0.00000000
-0.58856463 -0.32391825 -0.00000053
-0.07772159 -0.63628912 0.00000000
-0.76394928 0.02238832 -0.00000189
-0.10082853 0.50396824 0.00000000
-0.16308488 -0.11279669 0.00000000
-0.28507838 -0.49201828 0.00000000
-0.29016837 0.00959431 0.00000000
-0.34975037 -0.22736916 0.00000000
-0.39580855 -0.51425970 0.00000000
-0.60470736 -0.53482622 -0.00000022
-0.78705925 -0.45072913 -0.00000087
-0.27947673 0.42353526 -0.00000053
-0.51332641 0.20406245 -0.00000114
-0.05338535 0.05500382 0.00000000
-0.74602968 0.05381520 -0.00000186
-0.03075434 -0.38097945 0.00000000
-0.11973270 -0.65702420 0.00000000
-0.40619364 -0.33297622 0.00000000
-0.31833649 -0.16073601 0.00000000
-0.12698339 0.54921222 -0.00000010
-0.29174361 0.50762403 -0.00000073
-0.51452690 -0.74560142 0.00000000
-0.02080157 -0.00729880 0.00000000
-0.42675078 -0.07802540 -0.00000027
-0.50090736 -0.29428369 -0.00000020
-0.38184088 0.18920334 -0.00000055
-0.31703067 -0.43324581 0.00000000
-0.01369549 -0.62418914 0.00000000
-0.07140045 -0.56618416 0.00000000
-0.38051763 -0.50745153 0.00000000
-0.56037098 0.10584977 -0.00000116
-0.54813790 -0.47191441 -0.00000009
-0.26043591 -0.79988265 0.00000000
-0.45443395 0.22608706 -0.00000092
-0.29996806 -0.30374154 0.00000000
-0.20752107 -0.20040148 0.00000000
-0.27417308 0.34544337 -0.00000037
-0.65809327 -0.09230451 -0.00000123
-0.17907171 -0.53690875 0.00000000
-0.72782260 -0.09744315 -0.00000152
-0.23837879 -0.27802828 0.00000000
-0.02585817 0.58538580 0.00000000
-0.32568899 0.19449453 -0.00000032
-0.12475776 -0.49953425 0.00000000
-0.09406230 -0.26226896 0.00000000
-0.45814642 -0.35809487 0.00000000
-0.27546734 -0.46194580 0.00000000
-0.12830174 -0.02509401 0.00000000
-0.56854081 -0.67036802 0.00000000
-0.25858644 -0.38645327 0.00000000
-0.11552551 -0.65236461 0.00000000
-0.65044230 -0.15459415 -0.00000109
-0.00568356 0.68110579 0.00000000
-0.49010608 -0.71082175 0.00000000
-0.08231516 -0.19259164 0.00000000
-0.09615842 -0.51478249 0.00000000
-0.49284303 0.00585636 -0.00000070
-0.02469935 0.28562248 0.00000000
-0.33694646 -0.12707318 0.00000000
-0.42551103 -0.40633455 0.00000000
-0.79241043 0.00754525 -0.00000198
-0.27944976 0.28302383 -0.00000028
-0.34215584 -0.54656738 0.00000000
-0.62204063 -0.10931453 -0.00000105
-0.44281104 0.00833419 -0.00000049
-0.12575434 -0.15403382 0.00000000
-0.22468863 0.19194625 0.00000000
-0.09242823 -0.59216958 0.00000000
-0.46908829 -0.66031671 0.00000000
-0.76238000 0.03399000 -0.00000190
-0.75542229 -0.35913971 -0.00000110
-0.20874879 -0.19454831 0.00000000
-0.22782533 -0.63394010 0.00000000
-0.37982169 0.20074449 -0.00000056
-0.41354692 -0.07081346 -0.00000023
-0.75525057 -0.62824148 -0.00000043
-0.09164397 0.35948381 0.00000000
-0.07578257 -0.46667013 0.00000000
-0.49541754 -0.56389666 0.00000000
-0.04042759 -0.55775702 0.00000000
-0.49724022 -0.76894122 0.00000000
-0.23451459 0.55363017 -0.00000057
-0.12186667 0.18314685 0.00000000
-0.40631163 -0.41770908 0.00000000
-0.40743342 -0.00255762 -0.00000032
-0.00536307 0.58661473 0.00000000
-0.56141728 -0.64311898 0.00000000
-0.68388969 -0.15800211 -0.00000123
-0.58869165 -0.13798755 -0.00000085
-0.79823548 -0.62111932 -0.00000045
-0.42578256 -0.12291450 -0.00000019
-0.18673366 -0.54087114 0.00000000
-0.10872997 -0.47793242 0.00000000
-0.72842419 -0.28816104 -0.00000119
-0.26193902 -0.49235168 0.00000000
-0.39941427 -0.02567749 -0.00000025
-0.72806334 -0.53354383 -0.00000067
-0.11280844 -0.25326127 0.00000000
-0.41081727 -0.47332370 0.00000000
-0.43765023 -0.62518877 0.00000000
-0.38573286 -0.39055210 0.00000000
-0.19904996 -0.69149786 0.00000000
-0.43875539 -0.35147795 0.00000000
-0.00868611 -0.73641449 0.00000000
-0.36896351 -0.48187688 0.00000000
-0.04318333 0.14568008 0.00000000
-0.15871309 0.34921232 0.00000000
-0.08365924 -0.64849365 0.00000000
-0.26403454 0.37372515 -0.00000037
-0.40511149 -0.77149928 0.00000000
-0.07171332 0.14174342 0.00000000
-0.37920600 -0.74763131 0.00000000
-0.25899199 0.53390247 -0.00000063
-0.59652382 -0.53606814 -0.00000018
-0.46066272 -0.23705418 -0.00000013
-0.51858199 0.03837181 -0.00000087
-0.24702074 -0.34797180 0.00000000
-0.71904683 -0.33158657 -0.00000107
-0.26751614 0.15785389 -0.00000001
-0.71474683 -0.30567980 -0.00000110
-0.04313341 0.69663793 -0.00000000
-0.08671859 -0.04727892 0.00000000
-0.27322417 0.17405613 -0.00000006
-0.32394809 0.05574503 -0.00000007
-0.39534673 -0.53297621 0.00000000
-0.32502899 0.29133421 -0.00000049
-0.31161341 -0.47579730 0.00000000
-0.52567935 0.04108077 -0.00000090
-0.04180423 0.45304161 0.00000000
-0.65855420 -0.54235834 -0.00000044
-0.35737574 0.38610125 -0.00000079
-0.10821057 -0.53994292 0.00000000
-0.56064498 0.16084455 -0.00000126
-0.36369944 -0.68101853 0.00000000
-0.07439250 0.63085610 -0.00000002
-0.71034157 -0.11950621 -0.00000141
-0.43427855 -0.27469212 0.00000000
-0.64621109 -0.31291747 -0.00000079
-0.14303941 -0.22491907 0.00000000
-0.01106520 0.77363640 -0.00000000
-0.53382319 -0.34193069 -0.00000026
-0.35155207 -0.24097079 0.00000000
-0.68891406 -0.33895490 -0.00000093
-0.46407330 -0.24404137 -0.00000013
-0.22528958 0.05696789 0.00000000
-0.20798004 -0.65296078 0.00000000
-0.13765696 0.65079308 -0.00000032
-0.58198953 -0.25803047 -0.00000061
-0.68120468 -0.68484902 -0.00000028
-0.01650362 -0.12330576 0.00000000
-0.52689022 -0.07830809 -0.00000070
-0.54733449 -0.52208036 0.00000000
-0.74451196 -0.22238670 -0.00000137
-0.51488924 -0.62767816 0.00000000
-0.25122365 0.18638222 0.00000000
-0.11783455 -0.66705149 0.00000000
-0.12250601 -0.66793442 0.00000000
-0.71658719 -0.39266354 -0.00000095
-0.77222657 -0.16411664 -0.00000159
-0.66837484 -0.29589698 -0.00000092
-0.41631532 -0.22431503 0.00000000
-0.68757230 -0.22021930 -0.00000113
-0.26167166 -0.60192680 0.00000000
-0.02366584 -0.24704802 0.00000000
-0.26764217 -0.15493253 0.00000000
-0.52075219 -0.32746789 -0.00000023
-0.52717853 -0.63693976 0.00000000
-0.35316151 -0.67266345 0.00000000
-0.27538487 -0.61036915 0.00000000
-0.11516902 -0.32879749 0.00000000
-0.04932112 -0.03957108 0.00000000
-0.27070180 -0.02385650 0.00000000
-0.50646889 0.18321083 -0.00000107
-0.28250682 0.45091677 -0.00000059
-0.70287949 -0.47522992 -0.00000075
-0.60273874 0.17001964 -0.00000146
-0.33483985 0.32977334 -0.00000060
-0.13982503 -0.58972514 0.00000000
-0.12740833 -0.68404955 0.00000000
-0.13036108 0.32076901 0.00000000
-0.52696347 -0.49447808 0.00000000
-0.12726384 0.31199610 0.00000000
-0.55100268 -0.73709673 0.00000000
-0.60674375 -0.78153986 0.00000000
-0.66921347 -0.36865726 -0.00000079
-0.75454247 -0.14507537 -0.00000155
-0.45667684 0.06523634 -0.00000065
-0.00147601 -0.67866087 0.00000000
-0.47601065 -0.28092405 -0.00000012
-0.40057373 -0.72590613 0.00000000
-0.46093073 -0.42375430 0.00000000
-0.33234221 -0.55093414 0.00000000
-0.74824113 0.01229347 -0.00000180
-0.12400224 0.15417530 0.00000000
-0.24098554 -0.44966200 0.00000000
-0.68769723 -0.16535477 -0.00000123
-0.15007783 0.50963551 -0.00000013
-0.43256968 -0.26639649 0.00000000
-0.19623339 0.11215852 0.00000000
-0.65976018 -0.55438071 -0.00000042
-0.41061565 0.22128852 -0.00000073
-0.45144328 -0.56573915 0.00000000
-0.27413189 0.50517768 -0.00000065
-0.01323421 0.15008053 0.00000000
-0.72368306 -0.34567481 -0.00000106
-0.49548805 -0.61572617 0.00000000
-0.09379932 0.57570249 -0.00000000
-0.17319517 0.47313014 -0.00000016
-0.39878154 -0.46632728 0.00000000
-0.00375605 0.67029887 0.00000000
-0.04787091 0.28792784 0.00000000
-0.41007560 -0.15604816 -0.00000006
-0.48057419 0.26795310 -0.00000111
-0.04899250 0.52817947 0.00000000
-0.18091422 -0.17775749 0.00000000
-0.55115801 -0.12202037 -0.00000072
-0.15764518 -0.52481866 0.00000000
-0.49477842 -0.33493251 -0.00000011
-0.48478454 -0.78703493 0.00000000
-0.16491061 -0.23733588 0.00000000
-0.17765152 0.32628688 0.00000000
-0.68940121 -0.39492053 -0.00000083
-0.19280049 0.39638966 -0.00000011
-0.64973521 -0.17663001 -0.00000105
-0.03062097 -0.56468552 0.00000000
-0.43716100 -0.66753626 0.00000000
-0.64623350 -0.14016622 -0.00000110
-0.20438927 0.40460914 -0.00000017
-0.77565795 -0.67544603 -0.00000031
-0.66103643 -0.65562260 -0.00000025
-0.44995373 0.19527692 -0.00000085
-0.03915126 -0.75509042 0.00000000
-0.28832540 0.24056278 -0.00000024
-0.05959993 -0.74293584 0.00000000
-0.36939698 -0.23861896 0.00000000
-0.31666866 -0.54053819 0.00000000
-0.24774887 -0.06492996 0.00000000
-0.21379741 -0.79695976 0.00000000
-0.52498567 -0.76391673 0.00000000
-0.04358555 -0.02956524 0.00000000
-0.67688805 -0.45167130 -0.00000068
-0.46852168 -0.76187587 0.00000000
-0.37527278 0.32454726 -0.00000076
-0.42610642 -0.18709424 -0.00000007
-0.13333359 0.41257262 0.00000000
-0.58270442 -0.18750392 -0.00000074
-0.22605306 0.52284551 -0.00000047
-0.47099745 -0.28727069 -0.00000009
-0.12880535 0.07554385 0.00000000
-0.64497656 0.08076884 -0.00000148
-0.72575712 -0.09780738 -0.00000151
-0.46885318 -0.00733900 -0.00000057
-0.24106605 -0.02293275 0.00000000
-0.11848991 0.03185008 0.00000000
-0.18463963 -0.74367881 0.00000000
-0.48179781 -0.12169256 -0.00000043
-0.75690567 -0.04299481 -0.00000174
-0.14575769 -0.65823686 0.00000000
-0.22790515 0.27115527 -0.00000004
-0.34683865 0.05858836 -0.00000017
-0.08134400 -0.17557576 0.00000000
-0.49762508 -0.56137502 0.00000000
-0.46844289 0.31533819 -0.00000114
-0.72106153 -0.77320921 -0.00000007
-0.03712230 0.73020601 -0.00000004
-0.39231780 0.12065516 -0.00000047
-0.74454904 -0.31539729 -0.00000121
-0.20968010 0.50842184 -0.00000038
-0.30360642 -0.75325507 0.00000000
-0.63492042 -0.71202636 -0.00000004
-0.65062314 -0.20600858 -0.00000100
-0.19220321 -0.04621748 0.00000000
-0.07013624 0.38050812 0.00000000
-0.02104825 0.43157759 0.00000000
-0.23167253 0.48030069 -0.00000042
-0.01353241 -0.47333676 0.00000000
-0.44997767 0.01517781 -0.00000053
-0.13487512 0.59958476 -0.00000022
-0.54392982 -0.58469707 0.00000000
-0.09128363 -0.33937401 0.00000000
-0.08500327 0.04147536 0.00000000
-0.17720574 -0.13025992 0.00000000
-0.37106714 -0.34610257 0.00000000
-0.13001202 0.13865773 0.00000000
-0.67119366 0.05908628 -0.00000155
-0.05697914 0.22572163 0.00000000
-0.64831543 0.08495603 -0.00000150
-0.69983798 -0.52958089 -0.00000064
-0.36590785 -0.68700749 0.00000000
-0.21558054 0.12120500 0.00000000
-0.37931883 -0.33152148 0.00000000
-0.52394843 0.04604795 -0.00000090
-0.68156374 -0.06826536 -0.00000137
-0.35809794 -0.31604129 0.00000000
-0.28746361 0.10371641 0.00000000
-0.42034721 -0.10779368 -0.00000019
-0.33407471 -0.52540517 0.00000000
-0.16791476 0.36910525 0.00000000
-0.11154584 0.51366258 0.00000000
-0.11835520 0.35402319 0.00000000
-0.60064936 -0.56917357 -0.00000014
-0.17714643 -0.14835879 0.00000000
-0.52352244 0.26382121 -0.00000129
-0.24371879 -0.18196103 0.00000000
-0.16921978 0.40567696 -0.00000003
-0.28063530 -0.69646281 0.00000000
-0.29032066 -0.72459793 0.00000000
-0.01671670 -0.18813498 0.00000000
-0.30993587 -0.55238879 0.00000000
-0.66877669 -0.77991337 -0.00000005
-0.36304197 -0.05334345 -0.00000004
-0.35229492 -0.54062635 0.00000000
-0.35832185 -0.20438294 0.00000000
-0.30177796 -0.05133934 0.00000000
-0.52973580 -0.50066459 0.00000000
-0.39470232 0.04809857 -0.00000036
-0.14396887 0.11766141 0.00000000
-0.64054042 0.05108927 -0.00000141
-0.69588387 -0.71246099 -0.00000022
-0.35802013 -0.77257234 0.00000000
-0.50170380 -0.66737729 0.00000000
-0.68656981 -0.63374031 -0.00000040
-0.09356968 -0.18287085 0.00000000
-0.42191327 0.10033187 -0.00000056
-0.03464614 0.10594046 0.00000000
-0.32706952 -0.71268409 0.00000000
-0.59143502 -0.11398344 -0.00000091
-0.74684703 0.03648156 -0.00000184
-0.31436732 0.43712798 -0.00000070
-0.60219467 0.07459123 -0.00000129
-0.19532873 0.31416190 0.00000000
-0.11608425 0.01047241 0.00000000
-0.55570889 -0.43913671 -0.00000018
-0.72541094 -0.66500187 -0.00000034
-0.53667355 -0.61500645 0.00000000
-0.49006274 0.23419105 -0.00000109
-0.02488793 0.00387548 0.00000000
-0.30149364 0.19013299 -0.00000021
-0.03124987 0.57982469 0.00000000
-0.36294636 -0.61960357 0.00000000
-0.12181184 -0.79203033 0.00000000
-0.60582268 -0.20361269 -0.00000081
-0.00868371 -0.13730782 0.00000000
-0.30701369 -0.57226050 0.00000000
-0.35025635 0.22141956 -0.00000047
-0.20611209 -0.30595854 0.00000000
-0.47744200 -0.56664038 0.00000000
-0.08920725 0.26391307 0.00000000
-0.02343079 -0.62341338 0.00000000
-0.14841825 0.62364405 -0.00000032
-0.31084239 -0.20501059 0.00000000
-0.40118343 -0.67502028 0.00000000
-0.28735313 -0.32486117 0.00000000
-0.25390854 0.10696124 0.00000000
-0.67658079 -0.51737761 -0.00000056
-0.05044703 -0.16625138 0.00000000
-0.37538388 -0.24811146 0.00000000
-0.79236031 -0.39477995 -0.00000101
-0.53121531 0.13498648 -0.00000109
-0.71569508 -0.04643744 -0.00000156
-0.41225213 0.21836540 -0.00000073
-0.23072223 0.03788318 0.00000000
-0.11013684 -0.64328843 0.00000000
-0.48916826 -0.71520340 0.00000000
-0.26879424 -0.53518802 0.00000000
-0.45318678 -0.15532008 -0.00000025
-0.43786350 0.10590668 -0.00000064
-0.17885982 0.00278791 0.00000000
-0.65518659 -0.57911754 -0.00000036
-0.34269884 -0.46988925 0.00000000
-0.18823294 0.36280361 -0.00000003
-0.29671755 -0.51142287 0.00000000
-0.23696388 0.47073549 -0.00000043
-0.27236289 0.03922913 0.00000000
-0.37911826 0.34624755 -0.00000082
-0.03355533 -0.49235934 0.00000000
-0.10485925 0.19084607 0.00000000
-0.26104313 0.46332198 -0.00000052
-0.41522464 0.09118141 -0.00000052
-0.02730958 -0.77787739 0.00000000
-0.22845916 -0.38259631 0.00000000
-0.23256700 -0.69884020 0.00000000
-0.08909702 0.11892943 0.00000000
-0.10171374 0.26562381 0.00000000
-0.51483476 -0.07854805 -0.00000064
-0.12323041 -0.43724900 0.00000000
-0.68907762 0.04890856 -0.00000161
-0.52487004 -0.42229941 -0.00000008
-0.07487388 -0.77287984 0.00000000
-0.66234374 -0.53856432 -0.00000046
-0.38915399 0.03050304 -0.00000030
-0.08828459 0.26127014 0.00000000
-0.42091897 -0.31662071 0.00000000
-0.20068260 0.24303320 0.00000000
-0.48366049 -0.63073909 0.00000000
-0.54701126 -0.54855776 0.00000000
-0.24153833 0.25942129 -0.00000008
-0.20322844 -0.70094770 0.00000000
-0.00813844 0.04854696 0.00000000
-0.53252161 -0.34434181 -0.00000025
-0.56787997 -0.14532085 -0.00000075
-0.62774599 -0.39526993 -0.00000057
-0.02754035 0.04431178 0.00000000
-0.12692717 0.43096375 0.00000000
-0.27618939 0.13210577 0.00000000
-0.35031375 -0.21499729 0.00000000
-0.19214334 -0.74627495 0.00000000
-0.58492047 -0.51842761 -0.00000017
-0.45188072 -0.38808453 0.00000000
-0.01607146 -0.43312934 0.00000000
-0.12376228 -0.63018429 0.00000000
-0.60006714 -0.53063250 -0.00000021
-0.02262508 -0.70007247 0.00000000
-0.18857899 0.10107738 0.00000000
-0.20787802 -0.32419875 0.00000000
-0.50215495 0.15060569 -0.00000100
-0.77288783 -0.15892370 -0.00000160
-0.73373210 -0.62417734 -0.00000044
-0.15380958 -0.31946349 0.00000000
-0.20921817 -0.08600885 0.00000000
-0.41741109 -0.11060549 -0.00000017
-0.68642741 0.02874034 -0.00000157
-0.67600495 -0.34491861 -0.00000086
-0.02100461 -0.56833100 0.00000000
-0.51354539 -0.33267197 -0.00000019
-0.28362092 0.21546704 -0.00000018
-0.08398529 0.15074547 0.00000000
-0.00803814 -0.04350752 0.00000000
-0.39390266 -0.37996435 0.00000000
-0.27907729 0.08376989 0.00000000
-0.04630998 -0.36617646 0.00000000
-0.31641918 -0.36688933 0.00000000
-0.08471165 0.31064987 0.00000000
-0.79193199 -0.07404602 -0.00000181
-0.65868783 -0.43364361 -0.00000063
-0.41386831 0.03882504 -0.00000042
-0.18120266 0.60552132 -0.00000043
-0.26655012 -0.25594667 0.00000000
-0.66795135 -0.02940761 -0.00000138
-0.03773624 -0.20778123 0.00000000
-0.28292710 -0.35154393 0.00000000
-0.14833722 0.31251764 0.00000000
-0.15920600 -0.38763395 0.00000000
-0.08634452 -0.24626616 0.00000000
-0.16028991 -0.50059187 0.00000000
-0.23031071 -0.23366582 0.00000000
-0.42011613 -0.70048064 0.00000000
-0.38894087 -0.61693275 0.00000000
-0.09918106 -0.28816986 0.00000000
-0.41586193 -0.68321866 0.00000000
-0.77714759 -0.29216561 -0.00000127
-0.53796202 -0.49750280 -0.00000000
-0.29095417 -0.13366629 0.00000000
-0.56837344 -0.21082899 -0.00000064
-0.26284683 -0.30420014 0.00000000
-0.15277708 -0.28641674 0.00000000
-0.58436191 -0.34658465 -0.00000047
-0.62868446 0.12875205 -0.00000150
-0.29053688 -0.42164150 0.00000000
-0.73928696 -0.22657263 -0.00000134
-0.42530227 0.34615871 -0.00000101
-0.59240592 -0.00648502 -0.00000110
-0.21248139 -0.21140379 0.00000000
-0.03933440 -0.60416752 0.00000000
-0.26428315 0.36348867 -0.00000036
-0.54796320 0.19782370 -0.00000127
-0.11393873 0.00280791 0.00000000
-0.36238596 -0.64130044 0.00000000
-0.16880274 -0.73927677 0.00000000
-0.31485480 -0.40736747 0.00000000
-0.00339480 -0.37081078 0.00000000
-0.06715979 0.60433441 0.00000000
-0.20299567 -0.65034544 0.00000000
-0.54732949 -0.08406858 -0.00000077
-0.16477938 -0.62403256 0.00000000
-0.33226523 0.27578980 -0.00000049
-0.06197482 -0.12556165 0.00000000
-0.29968825 -0.42263442 0.00000000
-0.06159303 -0.26026437 0.00000000
-0.15103914 -0.78614920 0.00000000
-0.00486520 0.68778259 0.00000000
-0.06913051 -0.71816039 0.00000000
-0.64232355 -0.28315037 -0.00000083
-0.62384045 -0.08225878 -0.00000110
-0.65097028 -0.32942468 -0.00000078
-0.51609534 -0.23731412 -0.00000037
-0.16706721 -0.20712502 0.00000000
-0.22072774 0.38058141 -0.00000020
-0.26774594 -0.48329109 0.00000000
-0.02567233 0.23587717 0.00000000
-0.32286510 0.00327866 0.00000000
-0.38280046 -0.40119293 0.00000000
-0.50115752 -0.27692437 -0.00000024
-0.14155251 -0.29760101 0.00000000
-0.25501299 -0.51437360 0.00000000
-0.42291465 -0.42155188 0.00000000
-0.04335805 -0.62520498 0.00000000
-0.36997047 -0.71703112 0.00000000
-0.13597810 -0.15422194 0.00000000
-0.67015576 -0.15160151 -0.00000118
-0.74139935 -0.39915621 -0.00000100
-0.37561449 -0.15274733 0.00000000
-0.36995846 -0.34153965 0.00000000
-0.19353180 -0.38257954 0.00000000
-0.40294400 0.36686152 -0.00000095
-0.47751826 0.28757352 -0.00000113
-0.28610271 -0.49491683 0.00000000
-0.23832446 0.51377046 -0.00000051
-0.06839271 -0.60544932 0.00000000
-0.68948293 -0.03365401 -0.00000147
-0.20222983 -0.72471970 0.00000000
-0.28487369 -0.69359797 0.00000000
-0.26724312 0.43181303 -0.00000049
-0.27146876 -0.44906837 0.00000000
-0.10317528 0.62459171 -0.00000013
-0.62646604 -0.71017319 -0.00000000
-0.32527700 0.44824618 -0.00000077
-0.60923558 0.06777314 -0.00000131
-0.32221523 0.46330869 -0.00000078
-0.07569087 -0.77031958 0.00000000
-0.56577808 -0.55177641 -0.00000002
-0.38815460 -0.18129943 0.00000000
-0.76108575 -0.66642368 -0.00000033
-0.44029537 -0.71837598 0.00000000
-0.28275368 -0.11969796 0.00000000
-0.13466980 -0.14011715 0.00000000
-0.49948376 0.08827200 -0.00000087
-0.36602521 -0.70601732 0.00000000
-0.47060105 -0.44578305 0.00000000
-0.69901729 -0.42612302 -0.00000082
