ply
format ascii 1.0
element vertex 1122
property float x
property float y
property float z
end_header
-0.45134866 0.16725564 -0.12016926
-0.28279683 0.02503655 -0.00000293
-0.70832294 -0.15311474 -0.19907878
-0.12523235 -0.12657788 0.00000135
-0.58256435 0.06301311 -0.17607029
-0.04153814 0.13527057 -0.00000787
-0.04379730 0.10555440 -0.00000844
-0.67370218 -0.82646900 0.11545373
-0.63848490 -0.66095483 -0.02116429
-0.16073577 0.61052310 -0.05222379
-0.67977875 -0.43629271 -0.10647410
-0.31438893 -0.60441691 -0.00000129
-0.15808216 0.38284200 0.00000091
-0.13785519 -0.41595799 0.00000037
-0.05567976 -0.21878631 0.00000148
-0.32837081 -0.44409123 -0.00000087
-0.58355159 -0.41478297 -0.05102990
-0.59120238 0.12304907 -0.19734554
-0.40905169 -0.40376174 -0.00000123
-0.13607050 -0.14963391 0.00000121
-0.34600419 -0.16584675 -0.00000011
-0.30761981 -0.18833341 0.00000005
-0.35229823 -0.58980054 -0.00000147
-0.22941057 -0.34108868 0.00000005
-0.16524445 0.19503035 -0.00000287
-0.09988016 -0.26248476 0.00000108
-0.17551781 -0.05880296 0.00000126
-0.33918777 0.01040611 -0.00769652
-0.29003826 -0.08249485 0.00000049
-0.21948981 -0.64120275 -0.00000083
-0.23019075 -0.27888408 0.00000024
-0.70779854 -0.19825608 -0.18687297
-0.39698943 0.14689094 -0.08029645
-0.34919095 0.35350198 -0.10428742
-0.22863322 0.44462368 -0.05170293
-0.63080585 0.08049612 -0.21130058
-0.25585401 0.40080327 -0.05746197
-0.60004622 -0.42249632 -0.05947483
-0.36081302 -0.44866341 -0.00000108
-0.51740921 -0.44979745 -0.00000203
-0.62710530 0.02079862 -0.19324955
-0.52728206 0.17748038 -0.17107411
-0.30974919 0.13303059 -0.02125585
-0.71329480 -0.28408849 -0.16778769
-0.26381993 -0.43847436 -0.00000046
-0.67964971 -0.25341028 -0.15449290
-0.43213418 -0.77740443 -0.00000254
-0.39878377 -0.49702358 -0.00000146
-0.22767666 -0.70410627 -0.00000107
-0.31928670 -0.63309658 -0.00000141
-0.00100846 -0.61343253 0.00000058
-0.61113524 -0.40655243 -0.07070954
-0.05721055 -0.02705237 0.00000207
-0.53932160 -0.11220659 -0.10252706
-0.02423483 -0.29060808 0.00000145
-0.51109940 0.21593273 -0.17091210
-0.25854623 -0.22911061 0.00000022
-0.62286711 -0.30190447 -0.10568285
-0.45663181 0.09551222 -0.10465437
-0.14072821 -0.79596907 -0.00000084
-0.24527834 0.28738904 -0.02091714
-0.47497559 -0.19229604 -0.04060443
-0.02675761 -0.27139500 0.00000149
-0.67056131 -0.41369256 -0.10656548
-0.16706020 0.13674001 -0.00000405
-0.05991075 0.70519704 -0.01310338
-0.61819190 -0.27979714 -0.10852876
-0.54915202 -0.35040927 -0.04611834
-0.02641407 0.23137721 -0.00000629
-0.53456879 -0.01200129 -0.12586457
-0.21445975 -0.73560381 -0.00000109
-0.00612276 -0.22414143 0.00000184
-0.49378872 -0.14815816 -0.06415915
-0.22092737 -0.42867026 -0.00000017
-0.39378864 -0.47576731 -0.00000136
-0.45893058 -0.62497103 -0.00000222
-0.39989653 -0.67180485 -0.00000201
-0.10211622 0.50209302 0.00000175
-0.31225982 0.40304643 -0.09386808
-0.55054897 -0.30989382 -0.05766153
-0.62277097 0.02176073 -0.19075041
-0.58441287 -0.68766063 -0.00000318
-0.35917354 0.19217899 -0.06819582
-0.69036275 -0.60204589 -0.06959900
-0.26111746 -0.13054116 0.00000052
-0.35696706 0.06636358 -0.03370350
-0.23433699 -0.67551041 -0.00000103
-0.55447417 0.11438081 -0.17174427
-0.22689284 -0.24010767 0.00000038
-0.72514290 -0.08724065 -0.22708482
-0.00998505 -0.12094550 0.00000206
-0.39150986 -0.37349746 -0.00000103
-0.33045954 -0.06038137 0.00000032
-0.71238726 -0.07692429 -0.22169869
-0.20320848 0.38886812 -0.02089440
-0.29287803 -0.69598371 -0.00000144
-0.44893843 -0.18733701 -0.02537584
-0.59070563 -0.23502007 -0.10285278
-0.64246166 -0.43461230 -0.08322076
-0.54071665 -0.38073286 -0.03278659
-0.59887904 -0.77001327 -0.00000352
-0.24429993 0.31202519 -0.02677554
-0.06973831 0.46732324 0.00000004
-0.59222800 0.05623484 -0.18042368
-0.52295542 -0.43651339 -0.00683762
-0.66909432 -0.59887779 -0.05692758
-0.28417504 -0.40153646 -0.00000047
-0.03999619 -0.22117262 0.00000157
-0.10347940 -0.22708859 0.00000117
-0.45248199 -0.34637469 -0.00000131
-0.69687706 -0.54486054 -0.08877597
-0.23590066 0.39305854 -0.04275517
-0.61048859 -0.00226332 -0.17663276
-0.24326959 0.18258409 -0.00000078
-0.27620578 0.33733454 -0.05369158
-0.51169527 -0.79044926 -0.00000306
-0.03326830 0.64249420 0.00000266
-0.28258327 -0.50048769 -0.00000077
-0.02785063 0.40807655 -0.00000249
-0.63797343 -0.23594041 -0.13262442
-0.63056761 0.07735766 -0.21032389
-0.50037777 -0.13838626 -0.07091315
-0.37290794 0.32484189 -0.11180904
-0.38390288 -0.52468050 -0.00000146
-0.75881898 -0.78444433 -0.06509194
-0.56867224 -0.07632279 -0.13060185
-0.11556300 -0.27462807 0.00000094
-0.58327210 -0.43043047 -0.04673690
-0.24741146 0.14146239 -0.00000153
-0.03904308 -0.32410875 0.00000125
-0.13403346 -0.58913553 -0.00000015
-0.15959395 0.57466477 -0.04206759
-0.05015724 0.63479996 0.00000300
-0.12983511 0.41416273 0.00000072
-0.56153059 0.10343310 -0.17334548
-0.16266379 -0.19028658 0.00000092
-0.28003094 0.24088562 -0.03075300
-0.24172178 -0.35576901 -0.00000007
-0.04998284 0.49043348 -0.00000007
-0.55018687 -0.30558798 -0.05856410
-0.66912669 -0.06071041 -0.19849390
-0.29730248 -0.15570305 0.00000022
-0.45283565 -0.76179564 -0.00000261
-0.13198975 -0.04525489 0.00000156
-0.02513756 -0.18316069 0.00000178
-0.53232980 0.10672349 -0.15566921
-0.32399806 -0.41979375 -0.00000077
-0.49872285 -0.08900385 -0.08285061
-0.56559807 -0.06375774 -0.13195463
-0.21365893 0.08021247 -0.00000385
-0.33805528 -0.09153686 0.00000017
-0.13337332 -0.50149846 0.00000013
-0.37673035 0.17423613 -0.07462467
-0.58545452 -0.32604787 -0.07557683
-0.17620786 -0.29474229 0.00000052
-0.49555978 -0.52993137 -0.00000215
-0.61172312 -0.42709631 -0.06567948
-0.25682437 -0.03292337 0.00000085
-0.20767944 0.16192901 -0.00000229
-0.62825686 -0.49070588 -0.05944771
-0.50581390 -0.41196629 -0.00240944
-0.01782129 -0.15420406 0.00000191
-0.45587596 -0.00126984 -0.07871934
-0.57575017 -0.13817121 -0.11882910
-0.45623469 -0.31397173 -0.00000123
-0.24766074 -0.67086732 -0.00000109
-0.07413532 0.16678648 -0.00000622
-0.05536582 -0.22538979 0.00000146
-0.64280325 -0.15623404 -0.15665515
-0.17624994 -0.77044570 -0.00000097
-0.13384300 -0.40183988 0.00000044
-0.20443681 0.12041100 -0.00000327
-0.12578224 0.64360303 -0.03872985
-0.42634058 -0.51584911 -0.00000169
-0.15145665 0.16040190 -0.00000402
-0.33108127 0.34480372 -0.09050052
-0.07965882 -0.79199606 -0.00000046
-0.53002244 -0.55684286 -0.00000244
-0.21009082 -0.31239671 0.00000026
-0.45771089 -0.19045407 -0.03012628
-0.13511778 0.40600079 0.00000071
-0.24380691 0.18515246 -0.00000071
-0.27388090 -0.47101188 -0.00000062
-0.72459030 -0.02371077 -0.24344322
-0.59563148 0.05337052 -0.18183143
-0.03482551 -0.27763614 0.00000142
-0.31996495 -0.42722017 -0.00000077
-0.31824881 -0.40903246 -0.00000070
-0.21581139 -0.52792424 -0.00000045
-0.10115023 -0.15662636 0.00000140
-0.01161611 0.35466641 -0.00000411
-0.59511942 -0.32671627 -0.08153798
-0.33500603 -0.27505991 -0.00000038
-0.38758612 0.34436053 -0.12626295
-0.02136220 -0.08149470 0.00000212
-0.40007639 -0.45869043 -0.00000135
-0.55180752 -0.19317901 -0.08915833
-0.75363630 -0.72301161 -0.07795898
-0.09958230 -0.71061349 -0.00000032
-0.33923888 0.10789518 -0.03337001
-0.22327457 0.07203969 -0.00000373
-0.68230355 -0.37710693 -0.12364399
-0.59757388 -0.13738672 -0.13289288
-0.00804970 -0.46342659 0.00000100
-0.51547718 -0.14777054 -0.07803267
-0.74863154 -0.68271214 -0.08538056
-0.22450414 -0.78945392 -0.00000132
-0.21569601 -0.23230211 0.00000047
-0.60823172 -0.37689856 -0.07666525
-0.65370810 -0.68880552 -0.02350548
-0.10766142 -0.72638637 -0.00000042
-0.36006129 0.06947322 -0.03648613
-0.53065646 0.14760911 -0.16536020
-0.46804455 -0.73205674 -0.00000261
-0.05174333 -0.01381022 0.00000214
-0.06958335 -0.28759795 0.00000118
-0.64046776 -0.67153615 -0.01964032
-0.12301344 -0.75534230 -0.00000060
-0.04458871 -0.37472838 0.00000106
-0.30697468 -0.42177284 -0.00000067
-0.08167076 -0.39959279 0.00000076
-0.02500688 -0.62997711 0.00000038
-0.70879096 -0.23691177 -0.17733611
-0.46900797 -0.36518458 -0.00000147
-0.02972763 -0.26901692 0.00000148
-0.51773560 -0.79900986 -0.00000312
-0.04514823 -0.59569836 0.00000037
-0.13676038 0.23735009 -0.00000283
-0.73319674 -0.55830467 -0.10830130
-0.45882457 0.27279681 -0.15267511
-0.31878784 -0.01716550 0.00000052
-0.00574868 0.49841899 -0.00000124
-0.11222646 -0.03949484 0.00000170
-0.31270143 0.31506908 -0.07100918
-0.00287044 -0.47653767 0.00000103
-0.27738228 -0.51410359 -0.00000078
-0.59244341 -0.70043719 -0.00000326
-0.32403719 -0.66875732 -0.00000155
-0.73582500 -0.34971878 -0.16483155
-0.40112060 0.02621648 -0.05118050
-0.35946736 -0.63195068 -0.00000164
-0.03014626 0.23584969 -0.00000608
-0.15080366 0.27801645 -0.00000154
-0.43978578 -0.17974512 -0.02156095
-0.73827064 -0.34811899 -0.16680516
-0.24239466 0.39501745 -0.04739390
-0.12869550 -0.44828099 0.00000032
-0.19703025 -0.38267505 0.00000011
-0.62713116 -0.07549681 -0.16793887
-0.46912894 -0.43835568 -0.00000170
-0.25300348 -0.28671139 0.00000008
-0.20439214 -0.20076019 0.00000064
-0.63018161 -0.72720969 -0.00000358
-0.48099062 0.02466024 -0.10148643
-0.59566748 -0.49455819 -0.03774113
-0.12526958 0.21247829 -0.00000370
-0.16515554 0.37837264 0.00000102
-0.38397437 0.35190612 -0.12595420
-0.65203428 -0.38005006 -0.10364977
-0.13870412 0.43263167 0.00000138
-0.60988814 -0.69440109 -0.00000335
-0.54412657 0.10614423 -0.16300748
-0.14696735 -0.45717180 0.00000018
-0.34241930 -0.41234893 -0.00000086
-0.70861298 -0.26763248 -0.16914313
-0.14088717 0.63551170 -0.04619286
-0.16064875 -0.00437382 0.00000152
-0.71995687 -0.12288726 -0.21441625
-0.13876238 -0.05552910 0.00000149
-0.28419492 -0.44150370 -0.00000059
-0.60514474 -0.32797387 -0.08757300
-0.69865412 -0.75716960 -0.03406364
-0.50093096 0.04688644 -0.11999380
-0.11095372 0.52806759 0.00000257
-0.46833324 0.14557730 -0.12525228
-0.48751813 0.04505780 -0.11099607
-0.13208985 -0.43522757 0.00000034
-0.48330107 -0.01378708 -0.09284130
-0.00969613 0.56921953 0.00000039
-0.59403455 -0.75664824 -0.00000345
-0.74999279 -0.37402639 -0.16743416
-0.62549192 -0.04012751 -0.17620063
-0.20332308 0.54204708 -0.06125545
-0.37931293 -0.26406804 -0.00000061
-0.13502724 0.34616223 -0.00000057
-0.19969743 0.19708437 -0.00000179
-0.10031559 -0.47068223 0.00000042
-0.54392534 -0.15772800 -0.09347750
-0.13591044 -0.29265058 0.00000077
-0.34622094 0.40355512 -0.11556624
-0.07741984 0.16364750 -0.00000619
-0.20985910 -0.12574404 0.00000084
-0.56750804 0.14051153 -0.18689318
-0.16533045 -0.58166391 -0.00000032
-0.13378777 0.43791351 0.00000134
-0.01857050 0.61157548 0.00000156
-0.01160776 -0.51296395 0.00000083
-0.06935712 -0.03379016 0.00000198
-0.35251564 -0.33393747 -0.00000067
-0.47828147 -0.52637291 -0.00000203
-0.64368814 -0.51356065 -0.06323500
-0.36171582 -0.69969434 -0.00000187
-0.74788725 -0.80346227 -0.05314877
-0.18761487 0.45049503 -0.02720167
-0.33419195 -0.05498513 0.00000031
-0.19759628 0.43669778 -0.02991071
-0.05496185 0.40873343 -0.00000166
-0.34643820 -0.38967985 -0.00000081
-0.65819103 -0.25730026 -0.13984409
-0.66801929 -0.81274951 0.08834454
-0.49829596 -0.26204303 -0.03706775
-0.00683836 -0.41584533 0.00000124
-0.67218959 -0.52992272 -0.07702917
-0.70669878 -0.56234068 -0.09041475
-0.23015532 -0.40220332 -0.00000015
-0.02236931 0.29236564 -0.00000511
-0.46162155 -0.23722713 -0.02030747
-0.46626127 0.15415984 -0.12619396
-0.43500742 -0.11262857 -0.03617944
-0.58045059 -0.05931132 -0.14255501
-0.61122042 -0.44513601 -0.06061555
-0.53893900 -0.42945465 -0.01884330
-0.55581808 -0.54362041 -0.00000255
-0.07528785 -0.07049930 0.00000183
-0.25955996 0.17440408 -0.00026891
-0.57146829 -0.45035213 -0.03400214
-0.61260003 -0.27577597 -0.10603571
-0.50175571 -0.55032003 -0.00000225
-0.76328945 -0.79946858 -0.06397888
-0.40979651 -0.00482206 -0.04852589
-0.58060747 -0.50340319 -0.02585207
-0.33580640 -0.34383559 -0.00000060
-0.45825154 -0.17334275 -0.03497012
-0.69724745 -0.62739056 -0.06730441
-0.63411903 -0.17395996 -0.14647879
-0.33961666 -0.72186220 -0.00000181
-0.58467764 -0.25336245 -0.09420084
-0.45201546 -0.18247607 -0.02860819
-0.15102142 0.20955072 -0.00000299
-0.59163845 0.09156576 -0.18934187
-0.69810545 -0.26872414 -0.16218403
-0.14727741 0.13350956 -0.00000472
-0.56304806 0.07117658 -0.16582510
-0.18849841 0.17026103 -0.00000269
-0.39063641 0.15887971 -0.07941568
-0.00973054 -0.19390699 0.00000184
-0.52360684 -0.38762200 -0.02011036
-0.02955741 -0.19654895 0.00000171
-0.47338590 -0.16051406 -0.04795415
-0.03429442 -0.29786852 0.00000136
-0.08378209 0.55787265 0.00000238
-0.66493571 0.03804588 -0.22180697
-0.57001066 -0.55637854 -0.00519011
-0.01788429 0.62886286 0.00000190
-0.41442955 0.21718787 -0.10985954
-0.10515971 0.58928448 -0.01134855
-0.40645754 0.19483267 -0.09891781
-0.71082515 -0.05921359 -0.22536495
-0.04884771 0.69096422 -0.00233523
-0.38905874 -0.26435959 -0.00000067
-0.35011798 0.28514856 -0.08689813
-0.33373603 -0.03199519 0.00000039
-0.43542531 0.00966596 -0.06861002
-0.50231260 -0.36009157 -0.01383003
-0.08560773 -0.72446221 -0.00000028
-0.33321691 -0.28092498 -0.00000039
-0.58046263 -0.78790098 -0.00000347
-0.18953356 0.14964604 -0.00000310
-0.08881798 -0.16095944 0.00000146
-0.49493644 -0.27105221 -0.03256500
-0.15179051 0.10063187 -0.00000528
-0.23098156 0.24244912 -0.00001923
-0.44751883 0.26577768 -0.14365014
-0.15198027 0.42442623 0.00000161
-0.14918332 0.39234954 0.00000084
-0.46020871 -0.09903471 -0.05575694
-0.39607191 0.19616933 -0.09267477
-0.22390820 0.36549219 -0.02788994
-0.32451782 0.42559552 -0.10758231
-0.30174750 0.21368304 -0.03738775
-0.36133182 0.24956708 -0.08466016
-0.09791423 -0.19604042 0.00000130
-0.59390992 -0.00984743 -0.16411106
-0.49941659 -0.11740890 -0.07582019
-0.42730224 -0.08549827 -0.03842252
-0.15313761 0.05309441 -0.00000625
-0.61776006 -0.14061609 -0.14486118
-0.30564749 -0.15382691 0.00000017
-0.25551218 0.40701136 -0.05887774
-0.20372760 0.31218311 -0.00105477
-0.00431473 0.32553926 -0.00000495
-0.21543071 0.01659233 -0.00000515
-0.45988300 0.25058022 -0.14750388
-0.54572147 0.08113249 -0.15744177
-0.37564191 -0.11383422 -0.00000012
-0.29785940 0.23554607 -0.04066920
-0.24634618 0.25016114 -0.01180372
-0.28297395 -0.39809266 -0.00000045
-0.38520151 -0.55282414 -0.00000155
-0.18143964 0.19067006 -0.00000247
-0.54437625 -0.71745080 -0.00000303
-0.50488263 -0.01970171 -0.10498937
-0.50942749 -0.54874319 -0.00000229
-0.65362459 0.02601909 -0.21146160
-0.32591197 0.08225843 -0.01816494
-0.18342346 -0.08268118 0.00000113
-0.29245400 0.29076982 -0.05176157
-0.58506721 -0.53923661 -0.01925919
-0.32492092 -0.66769975 -0.00000155
-0.56970078 -0.59061819 -0.00000278
-0.12024154 -0.25535333 0.00000098
-0.10640251 -0.53829587 0.00000018
-0.30389887 0.19937444 -0.03499043
-0.49175102 -0.71658665 -0.00000271
-0.37167627 -0.51575792 -0.00000136
-0.12666324 0.03698142 -0.00000739
-0.60193580 -0.64149737 -0.00307422
-0.43489048 -0.40161803 -0.00000138
-0.73390073 -0.76748973 -0.05372929
-0.05446183 -0.70925409 -0.00000005
-0.46080396 -0.36345464 -0.00000142
-0.25280795 -0.68043405 -0.00000115
-0.43510208 -0.01724256 -0.06132745
-0.45045507 -0.30790359 -0.00000118
-0.37921363 -0.17607500 -0.00000034
-0.61615616 -0.35952353 -0.08626695
-0.10748898 -0.63594460 -0.00000014
-0.01044850 0.55502927 0.00000011
-0.61557943 -0.41271153 -0.07191153
-0.33356416 0.41391510 -0.11025427
-0.19647165 0.23620568 -0.00000105
-0.71183890 -0.24202789 -0.17792588
-0.25597486 0.47119236 -0.07605206
-0.05362553 0.43213996 -0.00000120
-0.46259350 -0.58629566 -0.00000212
-0.00144769 0.59048700 0.00000059
-0.03453909 0.73993748 -0.00613032
-0.48308501 0.00119775 -0.09664535
-0.08858869 0.08460320 -0.00000753
-0.38264555 0.25848252 -0.10053868
-0.70857418 -0.53608078 -0.09851233
-0.43013835 -0.53180146 -0.00000176
-0.15099646 0.20873909 -0.00000301
-0.49370959 0.12622008 -0.13627434
-0.00105530 0.37898993 -0.00000391
-0.20721868 -0.02466535 0.00000117
-0.32336751 0.03811942 -0.00494009
-0.46016279 -0.69003046 -0.00000243
-0.47823673 -0.78909856 -0.00000285
-0.50270826 -0.33746472 -0.02003243
-0.48448861 -0.62321520 -0.00000237
-0.11473070 -0.05004095 0.00000165
-0.60644776 -0.51614588 -0.03890844
-0.56458622 -0.16205153 -0.10545943
-0.31768289 0.41483629 -0.10041248
-0.38765043 -0.66335237 -0.00000191
-0.33402076 -0.55209792 -0.00000124
-0.74075532 -0.64174485 -0.09115455
-0.08124308 -0.69306892 -0.00000016
-0.36510402 -0.55553263 -0.00000144
-0.56844908 0.14940451 -0.18982968
-0.44238159 -0.48980272 -0.00000170
-0.02382178 0.31681797 -0.00000455
-0.74565172 -0.52803940 -0.12416990
-0.21469723 0.22221242 -0.00000080
-0.50881171 -0.04217103 -0.10157446
-0.49258918 -0.23246677 -0.04122308
-0.67193168 -0.29962420 -0.13743725
-0.06465161 0.43821159 -0.00000074
-0.55668956 0.13549848 -0.17870523
-0.65439272 -0.37827590 -0.10561393
-0.14966425 0.41618100 0.00000136
-0.66231936 -0.32828861 -0.12379453
-0.06549946 -0.23447455 0.00000137
-0.74155742 -0.75052083 -0.06305404
-0.12972178 0.38453230 0.00000009
-0.12750292 0.21513851 -0.00000358
-0.34483016 0.40100676 -0.11401280
-0.60344231 -0.25638279 -0.10532149
-0.52066767 -0.63271743 -0.00000262
-0.61874723 0.03323309 -0.19121286
-0.66849160 -0.81388968 0.03965595
-0.39435554 -0.72068119 -0.00000213
-0.52093542 0.02422315 -0.12673531
-0.62564045 -0.21330599 -0.13074653
-0.16981106 -0.17119940 0.00000094
-0.01560206 -0.22791310 0.00000169
-0.16058272 -0.18824472 0.00000094
-0.72436184 -0.37368685 -0.15124895
-0.19563222 -0.45982745 -0.00000012
-0.17985721 -0.76195496 -0.00000097
-0.30809382 0.26612309 -0.05520997
-0.04883865 0.11494678 -0.00000808
-0.36159572 0.20949224 -0.07428746
-0.07072837 0.07289459 -0.00000832
-0.56376809 -0.57376361 -0.00000270
-0.26477614 0.28103080 -0.03162539
-0.62604791 0.08550590 -0.20959710
-0.32550591 -0.17763232 -0.00000002
-0.21364942 -0.02378408 0.00000114
-0.01056747 -0.75607920 0.00000007
-0.23766053 -0.17390920 0.00000052
-0.38219413 -0.67379379 -0.00000191
-0.42016312 -0.24793273 -0.00000081
-0.26119128 -0.54965049 -0.00000079
-0.09685339 -0.52829278 0.00000026
-0.69674015 -0.75355840 -0.03379818
-0.06029538 -0.11523292 0.00000178
-0.61705434 -0.13933355 -0.14475040
-0.18218724 0.26024106 -0.00000097
-0.00888717 -0.74224901 0.00000013
-0.17428070 -0.58125454 -0.00000037
-0.12703446 0.25160849 -0.00000282
-0.11072052 -0.61983216 -0.00000011
-0.49833161 0.22799397 -0.16597711
-0.25349882 0.21939655 -0.00825391
-0.76409549 -0.77388030 -0.07122078
-0.32683060 0.26453367 -0.06668927
-0.60278213 0.10622967 -0.20027450
-0.58155560 -0.27555251 -0.08638215
-0.09699140 -0.77590674 -0.00000051
-0.19774465 -0.00512542 0.00000129
-0.10355592 -0.48188761 0.00000037
-0.56999660 -0.67623830 -0.00000305
-0.52768499 -0.53784561 -0.00000237
-0.15644068 0.60532725 -0.04813002
-0.09431489 -0.26993439 0.00000109
-0.34857672 -0.78886175 -0.00000207
-0.31938162 -0.49925703 -0.00000099
-0.71398234 -0.75115776 -0.04537758
-0.48926312 -0.08350609 -0.07828994
-0.00168128 0.04167645 -0.00001106
-0.60427463 -0.51785874 -0.03707806
-0.36618599 -0.09932509 -0.00000002
-0.03085451 -0.01701840 0.00000226
-0.06676063 -0.58341056 0.00000027
-0.07125288 -0.56440347 0.00000031
-0.44971505 0.22414117 -0.13409369
-0.20117651 -0.29782581 0.00000036
-0.26426092 0.03814602 -0.00000321
-0.11382783 0.16299786 -0.00000510
-0.21313697 -0.02802487 0.00000113
-0.00726029 -0.56077474 0.00000070
-0.11053850 -0.01127964 0.00000180
-0.23822552 -0.43599406 -0.00000030
-0.03021290 0.16044718 -0.00000768
-0.68845159 0.00754893 -0.22871786
-0.13044231 0.39526364 0.00000034
-0.13917442 0.22314894 -0.00000306
-0.43559420 -0.56271195 -0.00000189
-0.22944495 0.19671185 -0.00000090
-0.25612023 0.48014095 -0.07849797
-0.41774401 0.32191122 -0.13950789
-0.33330634 -0.78309697 -0.00000196
-0.42408761 -0.25709599 -0.00000086
-0.04219487 -0.54965675 0.00000053
-0.14698592 -0.18215097 0.00000104
-0.42143902 -0.02252462 -0.05126253
-0.11749614 0.39327824 -0.00000010
-0.43918705 0.02724528 -0.07562224
-0.67769206 -0.70540881 -0.03436760
-0.13422804 -0.56419277 -0.00000007
-0.47184667 -0.61031300 -0.00000226
-0.48394606 -0.53268099 -0.00000209
-0.34696352 -0.43412286 -0.00000095
-0.42998230 -0.46138087 -0.00000154
-0.48721257 -0.06193081 -0.08266252
-0.20884947 0.06357651 -0.00000435
-0.44974476 -0.04293910 -0.06386658
-0.71805567 -0.21917301 -0.18788444
-0.00103448 0.66035438 0.00000206
-0.01791712 -0.51325780 0.00000079
-0.15332505 -0.14161398 0.00000113
-0.50725645 -0.13103364 -0.07721476
-0.09071189 -0.65888840 -0.00000011
-0.76512372 -0.62670618 -0.11058279
-0.31791282 0.24752456 -0.05655308
-0.42958024 0.11027505 -0.09136020
-0.37630531 0.01315905 -0.03198919
-0.30425218 -0.08948053 0.00000038
-0.70047396 -0.23740543 -0.17192525
-0.34013844 0.34948626 -0.09748314
-0.08701711 0.06585988 -0.00000797
-0.53009170 -0.19513901 -0.07485391
-0.35534978 -0.72153085 -0.00000190
-0.29002309 0.43692949 -0.08866011
-0.55679482 -0.34921336 -0.05128586
-0.16953522 0.52731955 -0.03592754
-0.17090976 -0.71024847 -0.00000075
-0.05575724 -0.13442889 0.00000174
-0.00698918 0.40503848 -0.00000318
-0.64266288 -0.58185273 -0.04462219
-0.58963662 -0.49057314 -0.03495984
-0.52557743 0.11804173 -0.15435848
-0.03597924 -0.28618908 0.00000139
-0.32477239 0.17847100 -0.04274664
-0.14943340 0.39474067 0.00000090
-0.06480248 -0.35793334 0.00000099
-0.40184388 -0.68863577 -0.00000208
-0.40503439 0.13732560 -0.08288896
-0.59692580 -0.51806647 -0.03235710
-0.56362456 -0.46627358 -0.02483402
-0.41083398 -0.21076339 -0.00000064
-0.24571398 0.50117970 -0.07742378
-0.16030061 -0.29676956 0.00000061
-0.03267918 0.55382580 0.00000076
-0.18755212 0.18205114 -0.00000247
-0.02137087 -0.54431063 0.00000067
-0.48899946 0.07626199 -0.12014383
-0.69189692 -0.75745779 -0.02969732
-0.20551702 0.20563020 -0.00000143
-0.71233040 -0.16167486 -0.19937198
-0.28885993 0.24215078 -0.03669192
-0.51376742 -0.51919603 -0.00000222
-0.44832617 -0.14170913 -0.03698788
-0.11960552 -0.00298098 0.00000177
-0.38218457 -0.70229620 -0.00000200
-0.71660388 -0.04711800 -0.23221561
-0.54923898 -0.71628511 -0.00000305
-0.31086394 -0.26867175 -0.00000022
-0.27152386 -0.60638565 -0.00000103
-0.34047446 0.30463827 -0.08590084
-0.62595218 -0.33280829 -0.09951363
-0.21176928 0.40217099 -0.02982912
-0.71359503 -0.28199333 -0.16852938
-0.66274178 -0.42233804 -0.09932640
-0.39920038 -0.34671447 -0.00000099
-0.25626165 0.35669303 -0.04611918
-0.61267233 -0.78884327 -0.00000366
-0.57208955 -0.25647193 -0.08538990
-0.27511168 -0.67384177 -0.00000127
-0.13802566 0.44936219 0.00000171
-0.06495526 0.69258040 -0.01298814
-0.24122354 0.01701755 -0.00000436
-0.10942691 0.03190866 -0.00000802
-0.41020569 -0.11609121 -0.01952030
-0.05544466 0.02486279 -0.00000980
-0.64496106 -0.46324492 -0.07727701
-0.48949790 -0.50176519 -0.00000202
-0.25956577 -0.09842576 0.00000063
-0.11753590 0.42642581 0.00000061
-0.46879357 -0.60162616 -0.00000221
-0.74322975 -0.56524545 -0.11284626
-0.27450553 -0.19083983 0.00000025
-0.38624129 0.22636357 -0.09437413
-0.18606932 -0.79865766 -0.00000112
-0.04628701 -0.21124022 0.00000156
-0.29025143 0.24392183 -0.03804130
-0.45404828 0.20626096 -0.13214241
-0.56729269 -0.44727549 -0.03215996
-0.50560552 -0.46928829 -0.00000202
-0.68667060 -0.25611523 -0.15823951
-0.46533787 0.22281446 -0.14366479
-0.46414676 0.18406512 -0.13271683
-0.18696369 -0.23672745 0.00000063
-0.22030199 -0.49665225 -0.00000038
-0.74596655 -0.32349491 -0.17816825
-0.28232002 0.22946800 -0.02920351
-0.49923286 0.15928239 -0.14847732
-0.44370049 0.22025251 -0.12925182
-0.13057198 -0.73637521 -0.00000059
-0.23508881 0.25254047 -0.00528140
-0.41705462 -0.70990670 -0.00000224
-0.42002267 -0.02376274 -0.05003754
-0.01553827 0.46481776 -0.00000165
-0.66205174 -0.17690019 -0.16344191
-0.24721996 0.25664052 -0.01406272
-0.75594789 -0.46027744 -0.14852998
-0.49754226 0.03470287 -0.11463762
-0.10702717 0.29723737 -0.00000245
-0.25544292 -0.66861331 -0.00000113
-0.66034365 -0.28707501 -0.13337976
-0.46644351 -0.52556193 -0.00000196
-0.27365935 0.09122847 -0.00000180
-0.44614229 -0.36608091 -0.00000134
-0.09193743 -0.77191484 -0.00000047
-0.41467714 0.21377078 -0.10911801
-0.43410087 0.21922106 -0.12288505
-0.14237548 0.37853441 0.00000034
-0.59729505 -0.75547963 -0.00000347
-0.64468849 -0.79614210 -0.00000388
-0.22625443 -0.27276021 0.00000028
-0.69230944 -0.06463756 -0.21218140
-0.49486160 0.06161295 -0.12001321
-0.04888887 -0.51312101 0.00000060
-0.57503712 -0.72585642 -0.00000324
-0.18191256 -0.62881708 -0.00000056
-0.52477545 -0.21208388 -0.06702147
-0.21889871 0.06429043 -0.00000403
-0.43867880 0.06400519 -0.08496790
-0.75105441 -0.42960215 -0.15349093
-0.23256446 -0.04519262 0.00000096
-0.35943487 0.11488045 -0.04803112
-0.02668797 0.44531775 -0.00000173
-0.00930173 0.54495496 -0.00000014
-0.25532520 -0.28074273 0.00000008
-0.33717376 -0.08802611 0.00000019
-0.52873379 -0.09384986 -0.10063217
-0.40455100 -0.49245161 -0.00000148
-0.57186866 -0.47789934 -0.02701104
-0.27670187 -0.56969708 -0.00000095
-0.32886201 -0.07326657 0.00000029
-0.23379049 -0.38628209 -0.00000012
-0.23081389 -0.61282408 -0.00000081
-0.59941453 -0.48025030 -0.04388359
-0.38028115 -0.44205332 -0.00000118
-0.36862370 -0.25414640 -0.00000052
-0.74831086 -0.69003767 -0.08325023
-0.07762797 -0.59617722 0.00000017
-0.69902498 -0.55850571 -0.08655087
-0.62564790 -0.43079498 -0.07354851
-0.74787712 -0.75113630 -0.06690489
-0.57905585 -0.35751754 -0.06323687
-0.42870316 0.12705176 -0.09521578
-0.49857494 -0.78366536 -0.00000296
-0.37780049 -0.61296743 -0.00000170
-0.54721862 -0.41765347 -0.02720451
-0.35625118 -0.19963941 -0.00000027
-0.25900403 -0.40231246 -0.00000032
-0.54871684 -0.48644221 -0.01006340
-0.63416964 -0.33461377 -0.10425661
-0.48378307 -0.15932588 -0.05486857
-0.08892570 0.38608068 -0.00000111
-0.24784964 0.17059492 -0.00000090
-0.36284903 -0.62403494 -0.00000164
-0.26375532 -0.02339865 0.00000083
-0.41868639 0.09676941 -0.08089073
-0.21427128 -0.27549195 0.00000035
-0.00223362 -0.79100174 0.00000004
-0.07975963 0.47189006 0.00000043
-0.16981052 -0.33946425 0.00000041
-0.29293200 -0.75974429 -0.00000164
-0.35083526 -0.64913881 -0.00000165
-0.62863171 -0.43164414 -0.07521981
-0.33145282 0.41439518 -0.10903999
-0.40942636 0.05280929 -0.06344872
-0.18012089 -0.56944406 -0.00000037
-0.07314196 -0.09732186 0.00000175
-0.19593275 -0.10329320 0.00000099
-0.14909944 0.30420572 -0.00000104
-0.31053090 0.13004693 -0.02096745
-0.41037789 -0.00983402 -0.04757683
-0.41365957 -0.73827583 -0.00000230
-0.07461440 -0.33301464 0.00000101
-0.34330469 0.14760137 -0.04639499
-0.18245137 0.51878226 -0.04188351
-0.36683032 0.13577087 -0.05822152
-0.74161249 -0.45462319 -0.14091481
-0.72462058 -0.68770933 -0.06882034
-0.66643924 -0.80893493 0.08991413
-0.10533860 0.33938861 -0.00000161
-0.12038254 -0.58693045 -0.00000006
-0.74005002 -0.77859169 -0.05471381
-0.67847222 -0.26845360 -0.14978862
-0.11846636 -0.46691069 0.00000033
-0.40893725 -0.02359633 -0.04304238
-0.25595468 -0.35483587 -0.00000015
-0.17619103 -0.30145314 0.00000049
-0.24635097 -0.72826815 -0.00000126
-0.26257166 0.37231728 -0.05423527
-0.16778181 0.28703421 -0.00000084
-0.69760698 -0.61315268 -0.07127749
-0.70812821 -0.00677655 -0.23744413
-0.09881814 0.16232780 -0.00000557
-0.22314169 -0.68031752 -0.00000097
-0.45900720 -0.31293559 -0.00000125
-0.43681362 -0.32285020 -0.00000115
-0.31192723 -0.06388704 0.00000042
-0.24093170 -0.56347728 -0.00000072
-0.50440079 0.16853233 -0.15419167
-0.39946148 0.23144990 -0.10410636
-0.36123210 0.03394295 -0.02788459
-0.22542691 -0.14706643 0.00000068
-0.40444362 -0.20649636 -0.00000059
-0.06049724 -0.69251037 -0.00000003
-0.16020074 0.29783389 -0.00000084
-0.03874797 0.35850868 -0.00000321
-0.07802905 -0.68865430 -0.00000012
-0.27553490 -0.10494873 0.00000051
-0.46110493 -0.41299203 -0.00000157
-0.54081565 0.09116085 -0.15696429
-0.50101101 -0.62511444 -0.00000248
-0.45320517 0.08806671 -0.10052026
-0.31840006 -0.63100517 -0.00000139
-0.02756693 -0.00934543 0.00000230
-0.14157715 0.40708044 0.00000092
-0.11436204 -0.40158442 0.00000055
-0.64197659 -0.60773164 -0.03737988
-0.54893434 -0.31721053 -0.05471186
-0.70686501 -0.29983151 -0.15956439
-0.16879152 -0.05068684 0.00000132
-0.66462934 -0.23812266 -0.14897625
-0.34280095 -0.44043204 -0.00000095
-0.06476748 0.13834345 -0.00000711
-0.47486636 0.10832785 -0.11960349
-0.31297952 -0.29577300 -0.00000031
-0.30972141 -0.21470927 -0.00000004
-0.67185223 -0.17395768 -0.17043889
-0.00591829 0.72288108 0.00000354
-0.42364484 -0.54973012 -0.00000177
-0.10380463 0.67749882 -0.03368970
-0.50748914 -0.59277564 -0.00000242
-0.06722611 0.17600688 -0.00000623
-0.16112961 -0.56744933 -0.00000025
-0.68253440 -0.12929417 -0.18896890
-0.12916657 -0.62604320 -0.00000024
-0.21749943 -0.10633349 0.00000085
-0.66765589 -0.14734162 -0.17477472
-0.49819168 -0.65665799 -0.00000256
-0.16224889 0.29955789 -0.00000074
-0.13151304 0.05149163 -0.00000694
-0.57497251 -0.34244293 -0.06460892
-0.59293056 -0.41391629 -0.05721322
-0.66920483 -0.13979484 -0.17774320
-0.27660397 0.27320421 -0.03707724
-0.03128728 -0.00041710 0.00000231
-0.24675927 -0.51026022 -0.00000058
-0.67308289 -0.19323932 -0.16614898
-0.72382975 -0.48458663 -0.12174268
-0.50961167 0.18961240 -0.16304483
-0.60230309 -0.52667439 -0.03350754
-0.28410625 -0.40512341 -0.00000048
-0.38506663 0.10202783 -0.06092615
-0.52960885 -0.65831667 -0.00000275
-0.29446799 0.35503501 -0.06994306
-0.23218176 -0.23072849 0.00000038
-0.31978020 0.19285820 -0.04336078
-0.73863292 -0.42211816 -0.14757225
-0.05832162 -0.75711954 -0.00000022
-0.34239140 -0.06474075 0.00000023
-0.34210536 0.19281311 -0.05752478
-0.16509229 -0.02331625 0.00000143
-0.54650819 -0.38472819 -0.03541323
-0.01651171 0.15361901 -0.00000824
-0.70921630 -0.33687082 -0.15131542
-0.10914535 -0.55156565 0.00000012
-0.23110533 -0.53766006 -0.00000058
-0.05308345 0.29796842 -0.00000407
-0.19695070 0.55855107 -0.06154995
-0.07444942 0.57251680 0.00000241
-0.29161298 0.32298139 -0.05969964
-0.22554076 -0.20023111 0.00000051
-0.70618695 -0.38720980 -0.13615195
-0.47027698 -0.42639029 -0.00000167
-0.66435915 -0.58150184 -0.05849099
-0.39775452 -0.56247574 -0.00000166
-0.42412263 0.19798775 -0.11096447
-0.34990051 0.23259181 -0.07293685
-0.25619194 -0.55983466 -0.00000080
-0.00104392 -0.32315868 0.00000150
-0.71716940 -0.20334117 -0.19148570
-0.72531700 -0.26758778 -0.17976120
-0.60884368 0.05180684 -0.18980955
-0.64152586 -0.08763276 -0.17388716
-0.16917923 0.33418718 0.00000021
-0.73248219 -0.21593918 -0.19789517
-0.67097092 -0.81987518 0.05834841
-0.33415034 0.21658929 -0.05872703
-0.26404530 -0.28620642 0.00000001
-0.04875003 0.30364990 -0.00000408
-0.59207124 -0.15585279 -0.12454202
-0.53827393 -0.19994406 -0.07878557
-0.62783939 -0.05621360 -0.17346032
-0.62529254 -0.76757973 -0.00000367
-0.02747454 -0.39640585 0.00000110
-0.09675549 -0.08162458 0.00000166
-0.30743837 -0.33890405 -0.00000041
-0.01870033 0.10134693 -0.00000928
-0.51800078 -0.76996583 -0.00000303
-0.13557990 0.47105461 0.00000210
-0.05254492 0.30790594 -0.00000387
-0.26191986 -0.32830891 -0.00000011
-0.53176183 0.07266574 -0.14635088
-0.37712765 -0.48882130 -0.00000130
-0.26062566 -0.54224181 -0.00000077
-0.43373618 -0.40283576 -0.00000138
-0.45389169 -0.07212048 -0.05882463
-0.34595338 0.29817438 -0.08767969
-0.54257900 -0.59688652 -0.00000264
-0.48988152 -0.29502746 -0.02304944
-0.36846483 0.22574711 -0.08292443
-0.08505286 0.32592225 -0.00000251
-0.67642862 -0.41184562 -0.11077680
-0.30501330 0.34628746 -0.07433832
-0.68764240 -0.54130089 -0.08384859
-0.02376448 -0.69455630 0.00000019
-0.18801224 0.42176718 -0.01989814
-0.55267590 0.03509966 -0.14975034
-0.12637620 0.28143871 -0.00000221
-0.31854913 0.31332991 -0.07426489
-0.39014861 -0.30218136 -0.00000080
-0.08009667 0.27681595 -0.00000370
-0.19336554 -0.38666797 0.00000012
-0.47213468 -0.17136623 -0.04430537
-0.25885230 -0.43826595 -0.00000043
-0.40687791 -0.41060725 -0.00000124
-0.66802746 -0.26403433 -0.14431880
-0.04862824 0.37038344 -0.00000266
-0.63576770 0.04650018 -0.20550981
-0.24253984 -0.05127250 0.00000088
-0.20137145 -0.15364110 0.00000080
-0.28004760 -0.40857273 -0.00000047
-0.56288004 -0.11825702 -0.11589462
-0.22477846 -0.03892791 0.00000102
-0.03652943 -0.01733400 0.00000223
-0.17469570 -0.32770625 0.00000042
-0.13384546 0.42698842 0.00000111
-0.04827421 0.33108240 -0.00000351
-0.32535344 0.10418968 -0.02357852
-0.16225871 -0.73624104 -0.00000078
-0.46916744 -0.36450827 -0.00000147
-0.20270498 -0.74882466 -0.00000106
-0.56889647 -0.12077098 -0.11905370
-0.39743552 -0.29117048 -0.00000081
-0.17398323 0.56775987 -0.04938829
-0.06429160 -0.65011573 0.00000008
-0.75619268 -0.48256984 -0.14282215
-0.05114185 -0.10687717 0.00000186
-0.25472823 -0.26088509 0.00000015
-0.05594178 0.37622902 -0.00000232
-0.63175511 -0.10969713 -0.16187979
-0.39143720 -0.20576520 -0.00000051
-0.11036981 -0.52398127 0.00000020
-0.21235757 0.23668355 -0.00000056
-0.23370217 0.31745312 -0.02147388
-0.28600618 -0.17554870 0.00000023
-0.23282097 0.51536089 -0.07296695
-0.11261488 -0.70889902 -0.00000040
-0.19236834 -0.20154738 0.00000071
-0.12759908 -0.66597432 -0.00000035
-0.04175000 -0.70921946 0.00000003
-0.37723771 0.21270667 -0.08506514
-0.63736856 0.06726842 -0.21198855
-0.03651699 0.48360997 -0.00000062
-0.06386460 0.37472478 -0.00000211
-0.05500035 -0.48743960 0.00000064
-0.41656414 0.10785538 -0.08245894
-0.60556650 -0.11676728 -0.14339121
-0.61901522 -0.09020600 -0.15891676
-0.08337870 0.15452714 -0.00000620
-0.59596497 -0.63420576 -0.00120073
-0.00662900 -0.29477140 0.00000154
-0.06808885 0.45683759 -0.00000024
-0.45149800 0.25232977 -0.14263980
-0.09071501 -0.76910633 -0.00000045
-0.17246056 0.27389765 -0.00000098
-0.58470571 -0.75432384 -0.00000339
-0.61635381 -0.38165915 -0.08057046
-0.44710115 0.16547747 -0.11700452
-0.61738753 -0.46694803 -0.05879461
-0.41596386 0.12616014 -0.08689219
-0.58886182 -0.64853472 -0.00000308
-0.70045990 -0.62377149 -0.07029607
-0.39261863 0.03074078 -0.04697195
-0.43608195 -0.71867245 -0.00000238
-0.21603619 -0.10630273 0.00000086
-0.24710807 0.30879515 -0.02770908
-0.38827544 0.28477204 -0.11102803
-0.02307384 -0.57910889 0.00000055
-0.45912895 0.02188874 -0.08687594
-0.64800644 -0.10740855 -0.17280085
-0.05491474 -0.36993974 0.00000101
-0.54877585 0.12882257 -0.17192438
-0.02845125 0.03621180 -0.00001037
-0.01822749 0.77008867 -0.00370311
-0.55547106 -0.05925978 -0.12670726
-0.53440124 -0.75204444 -0.00000308
-0.44566038 0.24786800 -0.13775958
-0.48165038 -0.04242960 -0.08425977
-0.23738907 -0.11505232 0.00000071
-0.52214760 -0.78111589 -0.00000309
-0.70471346 -0.70075268 -0.05274962
-0.36007053 -0.21754712 -0.00000035
-0.01281208 0.45301068 -0.00000199
-0.38848543 0.08982378 -0.05988716
-0.70997620 -0.19716606 -0.18854243
-0.42315796 -0.52331531 -0.00000169
-0.23429540 0.04023051 -0.00000407
-0.60361546 -0.67415792 -0.00000325
-0.55893117 0.02826190 -0.15192381
-0.25305510 -0.19959991 0.00000035
-0.23908877 -0.34272474 -0.00000001
-0.41760018 -0.59607697 -0.00000188
-0.52298641 -0.45408922 -0.00223458
-0.31651759 -0.45195317 -0.00000082
-0.02473422 -0.07622201 0.00000211
-0.55299485 0.10610061 -0.16862711
-0.25285628 -0.27739319 0.00000011
-0.47290176 -0.55024749 -0.00000207
-0.41256556 -0.42171541 -0.00000131
-0.75236452 -0.41249931 -0.15882111
-0.23526946 -0.24339905 0.00000032
-0.27276409 -0.07129738 0.00000063
-0.19539677 0.32538244 0.00000081
-0.50935870 -0.04906545 -0.10010847
-0.17374393 -0.35487205 0.00000034
-0.53295916 -0.35757113 -0.03395267
-0.12378940 -0.48426789 0.00000024
-0.34564790 -0.36357135 -0.00000072
-0.73660690 -0.79535437 -0.04811877
-0.31876850 -0.34175187 -0.00000049
-0.24408150 0.11306721 -0.00000223
-0.11760366 0.20365219 -0.00000412
-0.29890677 -0.78171033 -0.00000175
-0.08637280 -0.46537179 0.00000052
-0.09572397 0.63877541 -0.01837394
-0.57493299 0.14103919 -0.19174649
-0.14455169 0.62271082 -0.04515297
-0.06342655 -0.11854424 0.00000175
-0.17064747 0.58236068 -0.05111041
-0.31130901 0.07666558 -0.00742148
-0.64232647 -0.62055337 -0.03422976
-0.70538956 -0.52107114 -0.10043799
-0.27956206 0.34664688 -0.05827201
-0.22971599 -0.46771434 -0.00000035
-0.54761475 -0.77694929 -0.00000323
-0.30513817 0.42912200 -0.09620428
-0.71812153 -0.47034055 -0.12186519
-0.09335351 0.29222035 -0.00000297
-0.45306203 -0.75765115 -0.00000260
-0.42503691 0.12654415 -0.09275431
-0.45818648 -0.19628510 -0.02889462
-0.26031390 0.17575078 -0.00110183
-0.09658983 -0.51951146 0.00000029
-0.04067398 -0.27677834 0.00000139
-0.23745589 -0.73649275 -0.00000123
-0.69984347 -0.08359082 -0.21198034
-0.16427512 0.33845273 0.00000015
-0.17023447 -0.26769215 0.00000064
-0.40511757 -0.37780616 -0.00000113
-0.18709795 -0.11333904 0.00000102
-0.39006335 -0.53170973 -0.00000152
-0.50584865 -0.49882132 -0.00000211
-0.00986720 -0.67532015 0.00000033
-0.59986162 -0.43876538 -0.05507861
-0.50647902 -0.53457314 -0.00000223
-0.59925687 0.04710013 -0.18248422
-0.64840424 0.03816329 -0.21134096
-0.30630156 0.15916902 -0.02594148
-0.53812683 -0.16144781 -0.08881723
-0.23131472 -0.30192712 0.00000016
-0.11440117 0.53285301 -0.00237433
-0.64360511 -0.59514832 -0.04172354
-0.71211559 -0.04528675 -0.22984731
-0.19281928 0.52994674 -0.05140326
-0.54973435 0.08493264 -0.16098931
-0.32008427 0.26610786 -0.06281957
-0.08911012 -0.24728867 0.00000119
-0.66407043 -0.17363520 -0.16558246
-0.65532058 -0.34468186 -0.11503882
-0.16872205 0.03310665 -0.00000620
-0.61706799 -0.60795039 -0.02150607
-0.55938870 -0.06399225 -0.12795015
-0.06647524 -0.64620340 0.00000008
-0.58694988 -0.14741647 -0.12350898
-0.63340104 -0.43236250 -0.07805924
-0.65481550 -0.74291909 -0.00997599
-0.08980349 0.25281692 -0.00000392
-0.54584205 0.01596206 -0.14037757
-0.18083465 -0.11524117 0.00000105
-0.55036896 -0.30158290 -0.05973312
-0.70769066 -0.50995678 -0.10482233
-0.02530207 -0.37317240 0.00000118
-0.54180902 -0.15835689 -0.09196828
-0.44371447 -0.08884580 -0.04796339
-0.14750433 0.56661195 -0.03227300
-0.68182200 -0.58701539 -0.06812929
-0.42734101 -0.10528921 -0.03324184
-0.08471622 0.36118200 -0.00000177
-0.07705056 -0.11771442 0.00000167
-0.02578191 -0.37083766 0.00000119
-0.42024037 0.19249214 -0.10705391
-0.67631465 -0.24847151 -0.15367420
-0.43920526 -0.48982847 -0.00000168
-0.60206485 -0.26752320 -0.10151676
-0.71074504 -0.60423392 -0.08196536
-0.37204483 -0.34641331 -0.00000083
-0.10234946 0.20703413 -0.00000451
-0.06980322 0.59011537 0.00000265
-0.70837682 -0.58813608 -0.08469563
-0.64968121 -0.43392038 -0.08798698
-0.38819262 0.12126399 -0.06797045
-0.68258864 -0.70356786 -0.03796089
-0.44740084 -0.10296782 -0.04658984
-0.48192817 -0.76397157 -0.00000280
-0.46810257 -0.30840406 -0.00570217
-0.19511171 -0.02601903 0.00000124
-0.63276464 -0.61300755 -0.03014292
-0.14292571 -0.14519148 0.00000118
-0.08592187 -0.57690471 0.00000018
-0.31962222 -0.61255920 -0.00000134
-0.10991266 -0.45666844 0.00000041
-0.53094351 0.15337896 -0.16706000
-0.07474502 0.37038851 -0.00000187
-0.24226992 -0.05196614 0.00000088
-0.50252318 -0.44105989 -0.00000191
-0.42725030 -0.39622578 -0.00000132
-0.06496870 0.24051069 -0.00000493
-0.17147119 0.15125731 -0.00000361
-0.49436858 -0.09853603 -0.07757867
-0.21073388 -0.26128483 0.00000041
-0.43175936 -0.20418997 -0.01003505
-0.06770190 -0.57658935 0.00000029
-0.00403922 -0.72170222 0.00000027
-0.43593487 -0.69417787 -0.00000230
-0.01150457 -0.06658981 0.00000222
-0.23740646 0.42952174 -0.05330166
-0.63173807 0.05564132 -0.20535535
-0.04041559 -0.07472375 0.00000202
-0.08384549 -0.40286848 0.00000073
-0.19577073 -0.74694216 -0.00000102
-0.26042518 -0.25931820 0.00000012
-0.20227236 -0.45992723 -0.00000016
-0.72558331 -0.30704251 -0.16955307
-0.36188152 0.01728723 -0.02391625
-0.36288512 0.26719499 -0.09028285
-0.26821077 -0.21782634 0.00000020
-0.17287891 -0.43007010 0.00000011
-0.03876766 0.51571810 0.00000013
-0.04929918 -0.60431921 0.00000031
-0.37535626 0.12714212 -0.06136576
-0.54724109 -0.01154794 -0.13403037
