ply
format ascii 1.0
element vertex 1175
property float x
property float y
property float z
end_header
-0.65371323 -0.50026292 -0.06390699
-0.06143362 0.15215823 -0.00000672
-0.11424602 -0.52186686 0.00000035
-0.57114220 -0.75859851 -0.00000329
-0.73662603 -0.39705467 -0.13366564
-0.08348537 -0.62694347 0.00000015
-0.31388277 -0.59240514 -0.00000112
-0.54714185 0.16989078 -0.15884243
-0.41066951 -0.23348624 -0.00000035
-0.28770119 0.11509850 -0.00221984
-0.37986448 0.16484259 -0.06482079
-0.51241142 0.12654775 -0.12959611
-0.04295707 -0.43566665 0.00000111
-0.00800646 0.24587388 -0.00000623
-0.62272340 -0.64100969 -0.01433997
-0.70704609 -0.12642904 -0.17947385
-0.26550889 -0.52842158 -0.00000058
-0.55468690 -0.46668136 -0.01665623
-0.70544660 -0.10551714 -0.18339445
-0.57478023 -0.35503751 -0.05348227
-0.09275658 -0.01593287 0.00000238
-0.57372469 -0.50877297 -0.01754607
-0.70105946 -0.23924948 -0.15020829
-0.41982722 0.31530201 -0.12160228
-0.64847785 -0.08431018 -0.15664570
-0.33828977 -0.32796794 -0.00000027
-0.32543722 -0.23940095 0.00000014
-0.14376995 -0.32125252 0.00000093
-0.62621433 -0.04785963 -0.15266801
-0.59308946 -0.73778081 -0.00000335
-0.09225011 -0.01486922 0.00000239
-0.67587560 -0.54395407 -0.06616358
-0.22520404 0.49770772 -0.05550368
-0.04559101 -0.30181935 0.00000159
-0.11015766 0.66507125 -0.03012180
-0.68369347 -0.41056898 -0.10117435
-0.66736358 -0.75614130 -0.01264754
-0.17616151 -0.30011937 0.00000081
-0.35910413 0.28480634 -0.08088079
-0.09131249 0.38175532 -0.00000065
-0.62477189 -0.60114032 -0.02464482
-0.36349460 0.31203932 -0.08958008
-0.22659723 0.08953292 -0.00000315
-0.39219144 -0.14420117 -0.00060172
-0.00482094 -0.18057364 0.00000229
-0.10967929 -0.41523570 0.00000078
-0.32227460 0.28564298 -0.06062796
-0.25034472 0.21158707 -0.00366889
-0.67976201 -0.26165611 -0.13323322
-0.19763309 -0.26693243 0.00000081
-0.46951756 0.05174874 -0.08858497
-0.14161146 0.05721748 -0.00000644
-0.10453042 -0.29458544 0.00000126
-0.18350163 -0.77452594 -0.00000101
-0.46331185 -0.24721916 -0.01639469
-0.23857568 -0.30162308 0.00000043
-0.09605943 -0.16808116 0.00000179
-0.27235779 0.46101904 -0.07324392
-0.38013858 0.30993018 -0.09833469
-0.39756525 0.10354586 -0.06055234
-0.33903310 0.01430746 -0.00753968
-0.56652951 -0.78376198 -0.00000336
-0.29348037 -0.25564855 0.00000027
-0.06345918 -0.08062586 0.00000231
-0.22722086 0.19511594 -0.00000075
-0.01138581 -0.74951226 0.00000012
-0.04412240 0.18083087 -0.00000660
-0.73021692 -0.29666519 -0.15319186
-0.07580132 -0.13627978 0.00000203
-0.25357494 -0.69745255 -0.00000115
-0.17696427 -0.76384687 -0.00000093
-0.44274530 -0.66641498 -0.00000217
-0.55382317 0.11643464 -0.15025960
-0.27380949 -0.09445557 0.00000099
-0.13358036 -0.32312950 0.00000098
-0.00290227 -0.48596719 0.00000119
-0.43922919 0.30934620 -0.13100344
-0.43400404 -0.22574694 -0.00506239
-0.55719143 -0.19137983 -0.08134996
-0.69093567 -0.61007243 -0.05932029
-0.20478998 0.00001304 -0.00000582
-0.08165590 -0.11979778 0.00000206
-0.53282410 -0.61547506 -0.00000252
-0.43445322 -0.14931066 -0.02288766
-0.34132373 -0.27627346 -0.00000010
-0.26900667 0.18788858 -0.00857944
-0.11453900 0.10732975 -0.00000613
-0.30744806 0.15503913 -0.02236597
-0.36298865 0.18353415 -0.05975048
-0.16051418 0.56612355 -0.03532401
-0.28061056 0.08312692 -0.00000166
-0.71781278 -0.29037413 -0.14775281
-0.01583503 -0.52957010 0.00000092
-0.22657213 -0.62267590 -0.00000070
-0.19280609 -0.36100847 0.00000048
-0.22562963 0.41367513 -0.03641732
-0.39927012 -0.25934148 -0.00000038
-0.54586804 -0.75747359 -0.00000314
-0.03010030 -0.11896887 0.00000237
-0.58932877 -0.51766050 -0.02416477
-0.09400451 -0.78935891 -0.00000053
-0.55254304 0.12533054 -0.15159450
-0.16411632 -0.13609827 0.00000150
-0.61814785 -0.28686708 -0.09323224
-0.42226580 -0.35405794 -0.00000088
-0.61382604 -0.78821754 -0.00000366
-0.41077226 -0.75624549 -0.00000232
-0.33186311 -0.09243011 0.00000065
-0.00326703 -0.10794454 0.00000258
-0.35704157 0.38024241 -0.10168055
-0.52304840 -0.28981963 -0.03976068
-0.09851057 0.34017995 -0.00000137
-0.45672867 -0.23058197 -0.01656575
-0.23078713 0.39218348 -0.03433858
-0.08228921 0.38691154 -0.00000081
-0.60674721 0.03899848 -0.16183355
-0.58024114 -0.12370551 -0.10970672
-0.65106559 -0.47135150 -0.06908515
-0.49939921 0.24359070 -0.14928567
-0.26583371 0.40416071 -0.05654807
-0.33221647 0.42413810 -0.09799276
-0.30327085 -0.23158047 0.00000030
-0.23741087 0.53639090 -0.07117497
-0.72794378 -0.61172915 -0.07948287
-0.64249104 -0.29527915 -0.10481161
-0.03931287 0.73616242 -0.00714051
-0.68870056 -0.69801235 -0.03785829
-0.20866229 0.38535896 -0.02048715
-0.07976324 -0.35868374 0.00000117
-0.58256561 -0.70662487 -0.00000317
-0.46820202 -0.78945374 -0.00000279
-0.24413213 -0.11302503 0.00000110
-0.58619058 -0.55761772 -0.01323481
-0.34164172 0.20757732 -0.05342866
-0.15710562 -0.72572559 -0.00000067
-0.35798150 0.38203487 -0.10261450
-0.70489508 -0.17476159 -0.16716604
-0.27631885 0.34499693 -0.04876447
-0.37751371 0.32677129 -0.10075002
-0.48341346 0.16180076 -0.12160458
-0.20024358 -0.24014661 0.00000089
-0.35292268 0.23778196 -0.06663640
-0.16045141 0.55766112 -0.03334330
-0.32730684 0.04031906 -0.00701123
-0.09713330 -0.09483381 0.00000206
-0.42720518 -0.35693812 -0.00000092
-0.70767319 -0.36208308 -0.12563521
-0.73090661 -0.25649530 -0.16281158
-0.05883654 -0.72297615 -0.00000007
-0.19906493 -0.11846595 0.00000135
-0.16942014 -0.26080218 0.00000100
-0.59182817 -0.52630502 -0.02356452
-0.26577711 -0.69792181 -0.00000122
-0.19027121 0.27038214 -0.00000017
-0.42434865 -0.09086300 -0.03071787
-0.48877430 -0.04657368 -0.07666652
-0.54724205 -0.49972752 -0.00492467
-0.65022153 -0.13482459 -0.14599825
-0.28333515 -0.68649161 -0.00000128
-0.43148509 -0.70204616 -0.00000224
-0.70156598 -0.52004343 -0.08592294
-0.41103661 -0.33933169 -0.00000075
-0.08252542 -0.59331745 0.00000028
-0.05933573 0.04717681 -0.00000915
-0.76885974 -0.69997597 -0.08190379
-0.32626516 0.16210224 -0.03443604
-0.19677521 -0.66593754 -0.00000068
-0.73771393 -0.40119973 -0.13331641
-0.47163117 -0.62311649 -0.00000218
-0.27914873 -0.21369144 0.00000051
-0.00882387 -0.41542751 0.00000139
-0.27150065 0.28337148 -0.03191946
-0.38170725 0.09130561 -0.04893454
-0.16082527 0.58489358 -0.03981273
-0.09416207 0.12792861 -0.00000628
-0.13754575 0.54939640 -0.01872725
-0.06029871 0.58660507 0.00000302
-0.28114870 -0.04734410 0.00000113
-0.06613615 0.19552381 -0.00000560
-0.67860395 -0.01911698 -0.18836027
-0.36436895 -0.03586441 -0.01006777
-0.73433346 -0.36149058 -0.14057077
-0.27282661 -0.73940825 -0.00000142
-0.06542074 -0.43806404 0.00000096
-0.01634797 0.70959944 0.00000446
-0.39934728 -0.74343550 -0.00000220
-0.57049805 -0.17378141 -0.09278350
-0.67659903 -0.75783044 -0.01738581
-0.36907163 -0.67674720 -0.00000177
-0.47552392 -0.61982137 -0.00000219
-0.21879902 0.19534163 -0.00000100
-0.00590502 -0.60306710 0.00000070
-0.14950693 0.63046134 -0.04400746
-0.62102908 -0.32895720 -0.08515338
-0.71967208 -0.05243602 -0.20349702
-0.00033031 -0.54327863 0.00000096
-0.21857400 0.49658900 -0.05156591
-0.63134027 -0.77755862 -0.00000373
-0.11174661 0.34967518 -0.00000076
-0.75666970 -0.31126001 -0.16452006
-0.65735275 -0.64820296 -0.03190976
-0.40420493 0.12988523 -0.07029477
-0.16832069 0.31531271 0.00000017
-0.15215927 0.17745593 -0.00000342
-0.23789325 0.44576514 -0.05060408
-0.43249851 0.20310113 -0.10283681
-0.72642654 -0.19457002 -0.17456403
-0.03675093 -0.70565915 0.00000013
-0.14383323 0.51195765 -0.01360890
-0.61087823 -0.38578418 -0.06645143
-0.17449886 -0.22861011 0.00000109
-0.30333200 -0.72360373 -0.00000154
-0.55281532 0.10638084 -0.14738832
-0.62003285 -0.13167004 -0.12996496
-0.06198477 0.36476895 -0.00000192
-0.06251476 -0.71942735 -0.00000008
-0.46390975 -0.23492859 -0.01955273
-0.61629218 -0.34671244 -0.07844111
-0.25728369 0.12950955 -0.00000132
-0.26747209 -0.51484656 -0.00000055
-0.60352588 -0.74973357 -0.00000345
-0.69891000 -0.62470227 -0.06038288
-0.74481863 -0.24692015 -0.17273597
-0.29427034 -0.22660582 0.00000037
-0.25320432 -0.63598853 -0.00000091
-0.03875378 0.36090830 -0.00000271
-0.45427951 -0.18656296 -0.02532797
-0.16226774 0.32151663 0.00000013
-0.46036121 -0.55587095 -0.00000186
-0.61413497 0.11425029 -0.18323828
-0.24418847 -0.25312209 0.00000058
-0.01703911 -0.36564279 0.00000153
-0.63134104 -0.14566340 -0.13302484
-0.33834618 -0.48147103 -0.00000085
-0.59784633 0.03084812 -0.15501828
-0.26783335 -0.05844717 0.00000116
-0.02844066 0.72723705 0.00000522
-0.06757046 -0.59773415 0.00000035
-0.04967794 0.70981503 -0.00683610
-0.32350484 -0.53651196 -0.00000096
-0.00941971 0.32780111 -0.00000434
-0.03053196 -0.43310046 0.00000119
-0.32566810 -0.55233473 -0.00000104
-0.74835443 -0.20391241 -0.18458813
-0.03487805 0.75579941 -0.00919391
-0.42352563 -0.50367951 -0.00000145
-0.63147438 -0.45350242 -0.06231372
-0.28330517 -0.63737631 -0.00000110
-0.14188196 -0.51719368 0.00000020
-0.37892792 0.25900534 -0.08595285
-0.11259367 0.22847407 -0.00000346
-0.30999765 -0.69243175 -0.00000147
-0.43989503 -0.65812600 -0.00000212
-0.56730580 -0.62069190 -0.00000275
-0.68385679 -0.66121852 -0.04363001
-0.75374943 -0.41450983 -0.13915727
-0.33095315 0.13251214 -0.03023447
-0.32606176 -0.10063219 0.00000065
-0.49872416 -0.57866746 -0.00000218
-0.42051572 -0.23702183 -0.00000043
-0.23365264 0.22724754 0.00000016
-0.04198132 -0.79902083 -0.00000025
-0.58036280 -0.15080425 -0.10354313
-0.16539940 -0.00864819 0.00000197
-0.51623380 -0.30369690 -0.03278668
-0.58724248 -0.18220903 -0.10014098
-0.11231811 -0.62289119 -0.00000001
-0.17248188 0.14874136 -0.00000345
-0.20617744 -0.34704202 0.00000045
-0.69828105 -0.67368907 -0.04876950
-0.52273798 0.01848603 -0.11048076
-0.71964765 -0.72018552 -0.04993868
-0.68789953 -0.21057159 -0.14949708
-0.14784575 -0.75377578 -0.00000072
-0.35852084 -0.61596274 -0.00000147
-0.24721345 -0.59920758 -0.00000074
-0.56072706 0.17558801 -0.16769405
-0.09529311 -0.12621543 0.00000195
-0.51492459 -0.08325132 -0.08274963
-0.10227370 0.19752856 -0.00000447
-0.40048030 0.12932578 -0.06809846
-0.16896003 -0.17630596 0.00000132
-0.32988578 -0.64052916 -0.00000139
-0.21032526 -0.43548805 0.00000010
-0.12151954 -0.37907311 0.00000085
-0.25674438 -0.31572694 0.00000027
-0.27664831 0.28785655 -0.03580839
-0.04209723 -0.13289201 0.00000225
-0.09870404 0.62633264 -0.01485590
-0.58603919 -0.31120086 -0.06981235
-0.23499113 -0.39960065 0.00000008
-0.69742817 -0.30081955 -0.13403493
-0.51605731 -0.02231262 -0.09739080
-0.39001155 -0.34242383 -0.00000064
-0.21641763 -0.22467443 0.00000085
-0.17374504 0.32705426 0.00000060
-0.04491424 0.16087708 -0.00000702
-0.47567508 0.17784877 -0.12099889
-0.35150802 -0.19520316 0.00000015
-0.03691852 -0.33450508 0.00000152
-0.69102859 -0.43677104 -0.09922136
-0.24186124 -0.36067572 0.00000019
-0.71443051 -0.11499365 -0.18620262
-0.18546711 0.18781701 -0.00000218
-0.18556550 -0.47090313 0.00000011
-0.19921978 -0.17756309 0.00000113
-0.27914724 0.06794802 -0.00000205
-0.67277694 -0.32592934 -0.11457647
-0.00153335 -0.70118582 0.00000036
-0.74663657 -0.69133902 -0.07155352
-0.23589866 -0.19656654 0.00000084
-0.55920309 0.00783834 -0.12827533
-0.15245448 -0.38747188 0.00000063
-0.24232747 -0.77459109 -0.00000137
-0.08295165 -0.40097013 0.00000100
-0.25688404 0.19754755 -0.00407080
-0.08672195 -0.53137112 0.00000048
-0.03889288 0.53620392 0.00000124
-0.57614726 -0.12229903 -0.10775749
-0.15798554 -0.17619233 0.00000139
-0.41818106 -0.70536548 -0.00000217
-0.34326741 -0.66236925 -0.00000156
-0.69901615 -0.17671861 -0.16345249
-0.40581325 -0.01944315 -0.03685072
-0.47117808 -0.23045360 -0.02461660
-0.15612894 0.29779235 -0.00000059
-0.37883019 -0.32778949 -0.00000052
-0.09349438 0.26953244 -0.00000311
-0.00720280 -0.19144274 0.00000224
-0.76175541 -0.73550397 -0.06979064
-0.38599229 0.08171571 -0.04910817
-0.40456784 -0.20852958 -0.00000022
-0.03553700 0.39622307 -0.00000201
-0.43205604 -0.70738226 -0.00000226
-0.50052136 -0.62920505 -0.00000238
-0.39949408 -0.57190573 -0.00000156
-0.32628891 -0.71620947 -0.00000166
-0.23960678 -0.27515155 0.00000052
-0.38038716 0.29593685 -0.09525503
-0.28294542 -0.33547562 0.00000003
-0.30081433 0.06160497 -0.00000154
-0.48316193 -0.50128001 -0.00000180
-0.23978819 0.24587737 -0.00569342
-0.07827892 -0.06892127 0.00000227
-0.30799812 -0.51986766 -0.00000081
-0.55914783 -0.65253186 -0.00000282
-0.08100112 -0.62020820 0.00000019
-0.03110981 0.51105297 0.00000044
-0.51979673 0.01356145 -0.10771561
-0.14210267 -0.44446418 0.00000048
-0.35582456 0.39233762 -0.10378616
-0.56102288 0.01300403 -0.13047336
-0.32928765 -0.74826938 -0.00000179
-0.68564945 -0.20065929 -0.15052724
-0.18760262 0.39277408 -0.01050132
-0.34798437 -0.15857966 0.00000031
-0.06671678 0.24233580 -0.00000453
-0.20206371 0.41366518 -0.02333287
-0.61881250 -0.45054924 -0.05596380
-0.50408828 -0.30124855 -0.02660732
-0.01351321 0.41836187 -0.00000218
-0.51006436 -0.09239190 -0.07794977
-0.13220517 0.42305678 0.00000151
-0.70888931 -0.48305127 -0.09849432
-0.19111761 0.05682353 -0.00000495
-0.02847862 -0.65248895 0.00000038
-0.35355932 0.02408083 -0.01785095
-0.38652715 0.21793240 -0.08072703
-0.27748030 -0.73964959 -0.00000145
-0.11138553 -0.28087050 0.00000127
-0.66510803 -0.15602115 -0.14938825
-0.38397387 -0.37267375 -0.00000072
-0.57267630 -0.42805880 -0.03552364
-0.34766534 0.32223520 -0.08313724
-0.12091220 0.42998242 0.00000132
-0.01197590 -0.47327524 0.00000115
-0.41388789 -0.24035586 -0.00000040
-0.47040662 -0.70196986 -0.00000247
-0.25131616 -0.60843390 -0.00000080
-0.54187578 -0.02950763 -0.11006898
-0.16795988 -0.73091125 -0.00000075
-0.25391749 0.12308515 -0.00000157
-0.14073396 0.58279979 -0.02817798
-0.07651159 0.24028030 -0.00000428
-0.17870003 -0.23633710 0.00000104
-0.21002474 -0.21597542 0.00000092
-0.36307821 -0.05197682 -0.00564632
-0.27712625 0.10571153 -0.00000126
-0.24383059 0.28938353 -0.01794137
-0.12671712 -0.68223023 -0.00000032
-0.66558516 -0.09350632 -0.16402791
-0.13334656 -0.19235812 0.00000147
-0.08733388 0.30124646 -0.00000259
-0.17271549 0.31747270 0.00000036
-0.23654865 -0.68214613 -0.00000099
-0.20533141 -0.33764526 0.00000049
-0.03977690 0.11210073 -0.00000828
-0.34743696 -0.34923759 -0.00000041
-0.09336634 -0.16446254 0.00000182
-0.44041514 0.25177097 -0.11842282
-0.00311760 -0.44781008 0.00000130
-0.24255599 -0.68017811 -0.00000101
-0.09761605 0.68119013 -0.02686596
-0.74254537 -0.23742478 -0.17365751
-0.22402802 0.31776237 -0.01347384
-0.01177627 -0.15599470 0.00000234
-0.65725046 -0.59436196 -0.04423331
-0.00857224 0.64341038 0.00000274
-0.55786097 0.05926177 -0.13935468
-0.50660938 0.03676007 -0.10572924
-0.10340979 -0.73825502 -0.00000039
-0.50750273 -0.25380954 -0.03941100
-0.15880468 -0.28755969 0.00000096
-0.47605699 -0.35245562 -0.00000119
-0.07548904 0.17481197 -0.00000579
-0.61440593 -0.60199082 -0.01869478
-0.72526568 -0.47185805 -0.11015879
-0.60053319 -0.56585914 -0.01930179
-0.31026351 0.36115032 -0.07132254
-0.59244514 -0.31948763 -0.07146301
-0.05426573 -0.65576172 0.00000021
-0.26056784 -0.34460986 0.00000014
-0.41888711 -0.08304250 -0.02948427
-0.11896257 0.52664906 -0.00318059
-0.22472495 0.06961076 -0.00000365
-0.41204914 -0.32629642 -0.00000071
-0.38153973 -0.28588828 -0.00000037
-0.09412379 -0.68729198 -0.00000015
-0.27642867 -0.31146017 0.00000016
-0.38976023 -0.09527327 -0.01050266
-0.47011995 -0.02803493 -0.07057375
-0.16446640 0.52090216 -0.02711972
-0.49173668 -0.10163888 -0.06564922
-0.02621172 -0.35497060 0.00000151
-0.32755849 -0.14623785 0.00000047
-0.72535783 -0.64120626 -0.07126928
-0.25103247 0.35415342 -0.03683267
-0.74393320 -0.24777251 -0.17204849
-0.54222792 0.17071620 -0.15630434
-0.06993587 0.33478719 -0.00000236
-0.38823602 -0.78665018 -0.00000229
-0.00720874 -0.67555571 0.00000042
-0.15644193 -0.19668207 0.00000132
-0.09057124 -0.48271990 0.00000064
-0.72575295 -0.55126977 -0.09216900
-0.29343891 -0.00531283 0.00000121
-0.28387988 0.45631525 -0.07855859
-0.00099250 0.03705592 -0.00001114
-0.36705497 -0.28221956 -0.00000027
-0.50332546 0.13422962 -0.12631860
-0.63401383 -0.66328067 -0.01548663
-0.74140269 -0.55151290 -0.10080039
-0.20421207 0.37319291 -0.01521921
-0.70929664 -0.65167731 -0.05994582
-0.14495336 -0.58781123 -0.00000008
-0.03872929 0.19033417 -0.00000655
-0.00013005 -0.29933828 0.00000188
-0.03614109 0.39828452 -0.00000195
-0.14054519 0.05208986 -0.00000659
-0.18034291 -0.20142724 0.00000116
-0.30312937 -0.17877775 0.00000050
-0.55950528 -0.46033958 -0.02078930
-0.65299970 -0.57740843 -0.04577189
-0.56269336 -0.26844969 -0.06668267
-0.56633461 -0.25038448 -0.07285797
-0.27927047 -0.08354363 0.00000100
-0.20155449 0.34049883 -0.00622616
-0.61556369 -0.71120924 -0.00000338
-0.02217271 -0.06815670 0.00000261
-0.15916814 0.05530009 -0.00000595
-0.11299750 0.55544972 -0.00649168
-0.36655486 -0.15613905 0.00000020
-0.19284484 -0.18058313 0.00000116
-0.16495275 -0.21417850 0.00000120
-0.57937950 -0.15256777 -0.10259178
-0.02750555 -0.09752685 0.00000247
-0.53194028 -0.54459053 -0.00000225
-0.22148672 -0.61288297 -0.00000064
-0.11180046 -0.39048162 0.00000086
-0.36029837 0.32872149 -0.09164169
-0.15478881 -0.19323765 0.00000134
-0.00918665 0.67988849 0.00000357
-0.71351612 -0.53976226 -0.08802232
-0.66288674 -0.41594747 -0.08838716
-0.67355341 -0.82610977 0.06992959
-0.56415647 -0.50904548 -0.01217180
-0.43875977 0.18907464 -0.10308735
-0.08046538 0.46762562 0.00000095
-0.34055251 0.42025870 -0.10172837
-0.23567823 0.05774046 -0.00000359
-0.61860019 -0.79706806 -0.00000372
-0.44162160 -0.11752845 -0.03417512
-0.43203697 -0.66825336 -0.00000211
-0.09227695 -0.76889390 -0.00000044
-0.47437826 -0.56420970 -0.00000198
-0.60203403 0.04452733 -0.16048846
-0.02139407 -0.76991129 -0.00000002
-0.32152349 -0.26773256 0.00000006
-0.05431738 -0.47479406 0.00000089
-0.15266836 0.32194170 -0.00000015
-0.60385472 -0.55865794 -0.02280152
-0.67972177 -0.07080400 -0.17709579
-0.01611840 -0.04470840 0.00000274
-0.47817320 -0.42606768 -0.00000148
-0.08793707 0.56535083 0.00000337
-0.48206577 -0.51261199 -0.00000183
-0.10441328 -0.33513209 0.00000111
-0.69850266 -0.53323656 -0.08118876
-0.62578702 -0.33915275 -0.08545029
-0.38174284 -0.47067064 -0.00000107
-0.11653164 0.38023075 0.00000007
-0.21672092 -0.31145984 0.00000052
-0.48759475 -0.71402776 -0.00000262
-0.51192749 -0.09741951 -0.07782798
-0.56950432 -0.06716193 -0.11674815
-0.00360204 0.64413899 0.00000260
-0.28000546 0.48743707 -0.08356397
-0.72155374 -0.55052745 -0.09000867
-0.36015260 -0.67633271 -0.00000171
-0.09023248 -0.28408068 0.00000139
-0.60967851 -0.71582633 -0.00000336
-0.15006413 -0.71290565 -0.00000058
-0.31098190 0.27453634 -0.05180515
-0.26334956 0.42186332 -0.05923962
-0.60415065 -0.25741595 -0.09223400
-0.62978452 -0.05443375 -0.15313828
-0.44713256 0.04838775 -0.07538553
-0.55236381 -0.45390540 -0.01830435
-0.12756108 -0.66022915 -0.00000025
-0.10888305 0.43968764 0.00000118
-0.63354129 -0.21527551 -0.11823951
-0.72230303 -0.18558516 -0.17434096
-0.50656700 -0.05831443 -0.08384411
-0.05110207 0.70813394 -0.00724012
-0.40021706 0.29265702 -0.10550904
-0.59558123 -0.42875621 -0.04807853
-0.08575228 -0.27074912 0.00000147
-0.63732034 -0.49089763 -0.05696028
-0.07395782 0.43523902 0.00000002
-0.19143863 0.42369041 -0.01973977
-0.74869543 -0.19022582 -0.18792459
-0.62099111 -0.22140642 -0.10986277
-0.66587365 -0.64336139 -0.03775326
-0.18162280 -0.27422383 0.00000088
-0.32912394 -0.52428651 -0.00000095
-0.03297773 0.52148569 0.00000073
-0.15342495 0.34410560 0.00000037
-0.64280808 -0.33701897 -0.09538986
-0.62741232 -0.08863239 -0.14395770
-0.11503909 0.27611291 -0.00000232
-0.53166980 -0.39875415 -0.01949805
-0.39236486 0.33740839 -0.11144028
-0.42549592 -0.07777880 -0.03436336
-0.35301727 -0.27646708 -0.00000017
-0.24754614 -0.32453775 0.00000029
-0.41162288 0.06393501 -0.05924798
-0.76123166 -0.57642114 -0.10608013
-0.16370738 0.41683704 -0.00276941
-0.15543567 0.18940638 -0.00000305
-0.52827883 0.13612358 -0.14060648
-0.60758561 -0.39435598 -0.06265258
-0.69244254 -0.75404251 -0.02705166
-0.47140869 -0.05335015 -0.06546814
-0.21179029 -0.50438654 -0.00000017
-0.02448550 -0.51894116 0.00000091
-0.21376720 -0.57616574 -0.00000045
-0.02760518 -0.39427745 0.00000135
-0.23271695 -0.34934291 0.00000029
-0.66201639 -0.59458399 -0.04682796
-0.71600020 -0.61406666 -0.07231536
-0.14381474 -0.66081792 -0.00000035
-0.09021588 0.08669244 -0.00000733
-0.29209098 -0.60619342 -0.00000104
-0.75821584 -0.45226571 -0.13295484
-0.74352652 -0.14718215 -0.19495292
-0.35100991 0.05638049 -0.02386274
-0.36700043 -0.50010991 -0.00000109
-0.36968029 -0.05212630 -0.00927698
-0.55521518 -0.61986554 -0.00000268
-0.53287989 0.20727232 -0.15952073
-0.14359590 0.53179413 -0.01803838
-0.05806968 0.24800865 -0.00000467
-0.72526014 -0.04641611 -0.20798334
-0.36234763 -0.28445184 -0.00000025
-0.42096525 -0.64332443 -0.00000195
-0.48465863 -0.01134682 -0.08248192
-0.30407161 0.45595637 -0.08968511
-0.35248438 0.24183226 -0.06732442
-0.05219609 -0.09001180 0.00000235
-0.40876105 -0.06543363 -0.02791199
-0.24958088 0.12718137 -0.00000161
-0.11011682 0.64461243 -0.02539478
-0.41696933 -0.18643701 -0.00464491
-0.43159175 0.06472043 -0.07051391
-0.03124899 0.58739835 0.00000216
-0.73273617 -0.51990801 -0.10325693
-0.57677156 -0.59342885 -0.00000271
-0.58875322 -0.67495191 -0.00000308
-0.46822846 -0.51605594 -0.00000176
-0.55614841 -0.72793692 -0.00000309
-0.72176385 -0.11948047 -0.18924189
-0.36812204 -0.11730759 0.00000034
-0.47734746 -0.41947007 -0.00000145
-0.25765583 -0.56766742 -0.00000068
-0.10758633 -0.75770932 -0.00000049
-0.25473797 0.30124897 -0.02672477
-0.58583242 0.02749972 -0.14757906
-0.21801144 0.51018411 -0.05437969
-0.23092088 -0.08263563 0.00000130
-0.45065188 -0.18206061 -0.02434945
-0.41020206 0.32363811 -0.11817588
-0.11420724 -0.20217122 0.00000155
-0.37360364 -0.38527274 -0.00000070
-0.21881033 -0.33731574 0.00000041
-0.65715766 -0.01404428 -0.17762119
-0.35052112 -0.37522921 -0.00000052
-0.32235649 -0.30921996 -0.00000011
-0.58139962 -0.67560792 -0.00000304
-0.06790974 -0.02773848 0.00000249
-0.51772267 -0.00747345 -0.10172744
-0.19697540 -0.32072020 0.00000061
-0.36277518 -0.68098366 -0.00000174
-0.11291607 0.64677101 -0.02744508
-0.68686944 -0.77710885 -0.01865403
-0.43083757 0.20072494 -0.10136840
-0.55889940 0.11238875 -0.15214726
-0.26106167 -0.36124811 0.00000007
-0.30732119 -0.17940585 0.00000047
-0.28533757 0.22556017 -0.02630751
-0.23420182 -0.64110696 -0.00000082
-0.50096256 0.23224215 -0.14754406
-0.30236641 -0.11102160 0.00000076
-0.01871099 -0.51654094 0.00000095
-0.28772140 -0.13735884 0.00000075
-0.62461501 -0.72605902 -0.00000349
-0.56896853 0.11008962 -0.15720828
-0.35951406 -0.01237760 -0.01277328
-0.42908576 -0.18213771 -0.01235970
-0.38407871 -0.41020066 -0.00000086
-0.24483258 -0.30009672 0.00000040
-0.01850097 0.37457585 -0.00000301
-0.68733418 -0.37191367 -0.11208390
-0.00818575 0.66874707 0.00000329
-0.42246461 -0.16829599 -0.01186689
-0.10195119 -0.42073336 0.00000081
-0.35049468 -0.14561950 0.00000034
-0.40011600 0.10584470 -0.06249694
-0.47543275 -0.37386644 -0.00000127
-0.73529410 -0.60195678 -0.08581019
-0.16527276 0.01731863 -0.00000662
-0.38099888 -0.77446651 -0.00000220
-0.08848430 -0.06359584 0.00000223
-0.52463204 0.00682514 -0.10885087
-0.52863258 -0.13990167 -0.07733304
-0.40563849 -0.52745980 -0.00000143
-0.57798535 -0.13192888 -0.10656358
-0.11479888 -0.18263200 0.00000162
-0.12753677 -0.51929855 0.00000028
-0.44621256 -0.12590508 -0.03479756
-0.47806457 0.03509474 -0.08950022
-0.30683488 -0.53632742 -0.00000086
-0.31135935 -0.23707879 0.00000023
-0.17948949 -0.61104482 -0.00000037
-0.66512424 -0.17048286 -0.14607188
-0.32183355 -0.38129005 -0.00000037
-0.74239987 -0.24866182 -0.17099287
-0.13596630 -0.02569005 0.00000208
-0.72164434 -0.55147916 -0.08984014
-0.49669167 -0.23954701 -0.03668901
-0.65448028 -0.34710544 -0.09955013
-0.41597158 -0.77789414 -0.00000243
-0.24143209 0.06381744 -0.00000328
-0.01921014 0.17318071 -0.00000752
-0.15128085 -0.40217617 0.00000058
-0.13628013 -0.21596555 0.00000137
-0.22955120 -0.40510976 0.00000010
-0.04799186 -0.47345674 0.00000093
-0.11953254 -0.56849718 0.00000015
-0.73160994 -0.71968782 -0.05669351
-0.68666041 -0.07696320 -0.17953140
-0.48218709 0.09409693 -0.10535584
-0.23517174 0.22631268 0.00000019
-0.05283960 -0.69984251 0.00000006
-0.52634662 -0.44921437 -0.00494006
-0.27903056 0.30607435 -0.04131988
-0.60876024 -0.40196484 -0.06155505
-0.03603013 -0.14019354 0.00000226
-0.73669320 -0.51547343 -0.10647319
-0.17868614 0.28005758 -0.00000031
-0.00470873 -0.08350387 0.00000271
-0.07215212 -0.78068841 -0.00000036
-0.22401950 0.28404856 -0.00571689
-0.12026170 -0.34693450 0.00000097
-0.14095752 -0.63750029 -0.00000024
-0.72073954 -0.03434649 -0.20824914
-0.35233238 0.17423993 -0.05169773
-0.50006002 -0.41054818 -0.00000156
-0.13066193 -0.58763683 0.00000001
-0.17404269 0.28160152 -0.00000041
-0.10998267 0.67710853 -0.03279253
-0.00549828 -0.64811683 0.00000054
-0.50326234 -0.17656820 -0.05481807
-0.74012327 -0.27761593 -0.16307126
-0.33552596 -0.68750340 -0.00000160
-0.12131804 0.63388944 -0.02914726
-0.23384552 0.11814383 -0.00000228
-0.23356140 0.14561278 -0.00000168
-0.31130868 -0.37100500 -0.00000027
-0.22863413 -0.20166795 0.00000086
-0.03199883 -0.35621169 0.00000147
-0.27762312 -0.64929432 -0.00000111
-0.62142211 0.10773644 -0.18578577
-0.00434083 0.65294451 0.00000282
-0.21560694 0.13141513 -0.00000254
-0.56985432 -0.31057802 -0.06097083
-0.60482252 -0.58374947 -0.01756917
-0.27163801 0.49330154 -0.08026739
-0.02904235 0.69478559 0.00000451
-0.30737010 -0.34179676 -0.00000014
-0.10644417 0.44668841 0.00000126
-0.09991475 -0.11340865 0.00000197
-0.50507498 -0.15456374 -0.06088406
-0.63223624 -0.78775370 -0.00000377
-0.23482956 0.52810729 -0.06783725
-0.74278766 -0.24391668 -0.17229922
-0.21574713 -0.00018801 0.00000170
-0.68899292 -0.36545926 -0.11448887
-0.33886564 0.02304621 -0.00945613
-0.64634329 -0.70126110 -0.01359779
-0.22358608 -0.09382699 0.00000130
-0.36371642 -0.38286904 -0.00000063
-0.20987023 -0.69113141 -0.00000086
-0.21214274 0.45051199 -0.03740067
-0.13816148 0.64367908 -0.04074859
-0.51048005 -0.60588825 -0.00000235
-0.30399850 0.44662997 -0.08750001
-0.58835107 0.00005265 -0.14266601
-0.17977846 -0.13125479 0.00000142
-0.59268945 -0.56255645 -0.01570693
-0.51423246 -0.66878819 -0.00000261
-0.03015266 0.21895204 -0.00000616
-0.10400752 -0.53598231 0.00000036
-0.59877944 -0.63916355 -0.00147245
-0.04568400 0.21686712 -0.00000574
-0.35705766 -0.75208455 -0.00000198
-0.46422347 -0.40508693 -0.00000132
-0.67729223 -0.83513582 0.12707476
-0.38746995 0.19026537 -0.07488859
-0.59001333 -0.69118011 -0.00000315
-0.45379299 -0.09644207 -0.04578048
-0.72157460 -0.75719476 -0.04249829
-0.33751175 -0.69464397 -0.00000164
-0.18354554 0.59227651 -0.05412305
-0.20053436 -0.13316433 0.00000129
-0.35798904 0.36258939 -0.09814737
-0.01261384 -0.28580821 0.00000185
-0.34261960 0.25935400 -0.06587715
-0.09068081 -0.76673734 -0.00000042
-0.65837753 0.06127509 -0.19561747
-0.38887534 0.04153118 -0.04146852
-0.01196929 0.09904180 -0.00000941
-0.56927168 -0.24660844 -0.07535671
-0.12741929 0.37388188 0.00000026
-0.24093662 0.45423058 -0.05424011
-0.70078164 -0.33902040 -0.12711254
-0.33061704 0.24968681 -0.05699127
-0.55448705 -0.01732786 -0.11987055
-0.26588663 -0.35812733 0.00000005
-0.11445693 -0.33024275 0.00000107
-0.18454409 -0.45086372 0.00000020
-0.38925993 -0.69192213 -0.00000194
-0.22005276 0.53397667 -0.06098382
-0.49780667 0.21645492 -0.14216200
-0.10649709 -0.65163219 -0.00000009
-0.04630091 -0.25648129 0.00000176
-0.75382286 -0.75422257 -0.06108300
-0.47226369 -0.44431138 -0.00000152
-0.33463442 -0.20440130 0.00000021
-0.45285797 0.22901459 -0.12009757
-0.33288172 -0.29992262 -0.00000013
-0.71396285 -0.50493175 -0.09627937
-0.24482793 -0.36229548 0.00000016
-0.00807069 0.65839309 0.00000306
-0.28652936 0.13746203 -0.00671165
-0.34344071 0.21695109 -0.05658276
-0.57333070 -0.77345818 -0.00000336
-0.39925963 0.06705447 -0.05310204
-0.01769562 -0.67936879 0.00000035
-0.40050778 0.10050301 -0.06148616
-0.25201833 0.40635046 -0.04938226
-0.36878097 0.05285820 -0.03291809
-0.13475309 -0.19593829 0.00000145
-0.15995272 0.45978588 -0.01056084
-0.27611923 -0.60073870 -0.00000092
-0.67075592 -0.76272988 -0.01301565
-0.34106892 -0.18252736 0.00000026
-0.00670582 -0.32645863 0.00000174
-0.38583183 -0.09297418 -0.00885055
-0.12710290 -0.26571569 0.00000124
-0.28726912 -0.29268843 0.00000017
-0.16217078 -0.66371441 -0.00000047
-0.66549522 -0.30528092 -0.11528209
-0.08745572 0.04678125 -0.00000831
-0.03757417 -0.26959515 0.00000176
-0.20479393 -0.77886230 -0.00000116
-0.21030983 0.01929678 -0.00000522
-0.63063955 -0.31316063 -0.09412077
-0.11873067 0.11768939 -0.00000577
-0.20436068 0.56282604 -0.05890633
-0.67055529 -0.69108009 -0.02937965
-0.54046208 0.15136927 -0.15087540
-0.30972144 -0.36991432 -0.00000026
-0.03940547 -0.05069379 0.00000257
-0.10986286 -0.34176230 0.00000106
-0.07562673 -0.46590933 0.00000080
-0.08771819 -0.48579556 0.00000065
-0.62221229 -0.07347237 -0.14455694
-0.26609907 -0.03729706 0.00000125
-0.43631333 0.19340505 -0.10272501
-0.69768351 -0.35875902 -0.12085396
-0.01314150 0.77772743 -0.00216942
-0.38511807 -0.36691296 -0.00000070
-0.72383982 -0.02725673 -0.21160044
-0.19600359 0.38689128 -0.01381226
-0.49097514 -0.43624476 -0.00000160
-0.73633051 -0.47450221 -0.11569297
-0.51998812 -0.68563867 -0.00000271
-0.72754335 -0.76529533 -0.04394892
-0.50417417 -0.02134699 -0.09101613
-0.05019995 0.25435853 -0.00000476
-0.60051858 -0.64705426 -0.00062350
-0.22595848 0.28792596 -0.00768486
-0.53940177 -0.62068480 -0.00000258
-0.03428093 -0.41322038 0.00000124
-0.27579698 0.00791807 -0.00000350
-0.42354372 0.09348991 -0.07266151
-0.12742026 -0.16375467 0.00000162
-0.43577379 0.25900945 -0.11751071
-0.50186867 -0.57083952 -0.00000217
-0.23609857 -0.13682485 0.00000106
-0.25421369 0.10037841 -0.00000207
-0.29157683 -0.06140324 0.00000101
-0.09154870 -0.29138482 0.00000135
-0.17845067 -0.74373400 -0.00000087
-0.49728945 -0.13516311 -0.06102311
-0.12929974 0.58322448 -0.02192814
-0.11662981 0.53038341 -0.00274428
-0.51025736 -0.05325917 -0.08705517
-0.15246896 -0.78164738 -0.00000085
-0.20118104 -0.69660687 -0.00000083
-0.27749014 0.17509300 -0.01034663
-0.01158432 -0.07146741 0.00000266
-0.67067742 -0.44247738 -0.08661166
-0.06717628 -0.11749717 0.00000215
-0.52850032 -0.57413489 -0.00000234
-0.74396980 -0.52093434 -0.10925679
-0.16629724 -0.38209477 0.00000056
-0.62177271 -0.00675046 -0.15965506
-0.58534181 -0.13866223 -0.10909910
-0.45477074 -0.19151010 -0.02446311
-0.64716935 -0.71330249 -0.01128753
-0.57636154 -0.38288572 -0.04795662
-0.26856205 0.41911465 -0.06150120
-0.67870080 -0.70974404 -0.02960969
-0.39016211 -0.41042462 -0.00000089
-0.01305455 -0.69253522 0.00000032
-0.71510661 -0.07209108 -0.19644305
-0.00348675 -0.74988872 0.00000020
-0.28191721 -0.69722164 -0.00000132
-0.52855819 -0.77967840 -0.00000311
-0.02660992 -0.31372550 0.00000166
-0.52857548 -0.05128822 -0.09767730
-0.74842459 -0.23713472 -0.17698780
-0.09840974 0.36188695 -0.00000089
-0.46488273 -0.69695860 -0.00000242
-0.20839737 0.49884459 -0.04643520
-0.27255854 -0.66257226 -0.00000113
-0.73550701 -0.66868210 -0.07058527
-0.57183516 -0.28707555 -0.06747468
-0.72574335 -0.65915471 -0.06735615
-0.67816347 -0.83723909 0.12022927
-0.64393133 -0.61379337 -0.03237133
-0.54671824 -0.28015742 -0.05512227
-0.46086743 -0.05028605 -0.06032093
-0.42402649 0.06890083 -0.06727545
-0.11897291 0.17372584 -0.00000450
-0.70391959 -0.42840421 -0.10830136
-0.40951920 -0.43075517 -0.00000109
-0.36608246 -0.27173606 -0.00000023
-0.06323336 0.55410635 0.00000238
-0.14941637 0.58187640 -0.03278552
-0.67475718 0.01012100 -0.19294783
-0.01420206 0.63953018 0.00000282
-0.45010027 -0.79767710 -0.00000271
-0.00028733 -0.77049553 0.00000011
-0.14809632 -0.58800960 -0.00000010
-0.33241490 0.07810131 -0.01853461
-0.65255958 0.02444417 -0.18391877
-0.17873512 -0.19734776 0.00000118
-0.16831280 -0.71054453 -0.00000068
-0.37205744 -0.12962054 0.00000027
-0.54079348 -0.72920984 -0.00000300
-0.37108499 -0.64445329 -0.00000166
-0.03598601 0.62013340 0.00000304
-0.25248870 -0.18016116 0.00000080
-0.64235789 -0.48225993 -0.06174292
-0.56265157 0.14567505 -0.16188414
-0.10091434 0.43068567 0.00000074
-0.24399266 0.49172673 -0.06455854
-0.13025524 -0.59367526 -0.00000001
-0.25895649 0.24458358 -0.01603684
-0.59900975 -0.28639710 -0.08271614
-0.10536430 -0.46021929 0.00000064
-0.24377097 -0.67891574 -0.00000102
-0.53302163 -0.19083522 -0.06805779
-0.30190298 0.41883895 -0.07994640
-0.54152280 -0.56680006 -0.00000239
-0.35286531 -0.12217285 0.00000041
-0.35812229 -0.05382371 -0.00247046
-0.46953219 -0.59290808 -0.00000206
-0.67458344 -0.47834626 -0.08053224
-0.59458607 -0.51119232 -0.02857054
-0.01207380 0.78471249 -0.00318294
-0.41125277 -0.46896625 -0.00000124
-0.08634043 -0.24721766 0.00000155
-0.16539466 -0.76396549 -0.00000086
-0.18612428 0.40194795 -0.01179011
-0.54625976 0.04533681 -0.12971257
-0.00070132 0.23918977 -0.00000660
-0.47240150 -0.69464344 -0.00000246
-0.18476570 0.31403998 0.00000064
-0.43858743 -0.17585614 -0.01907877
-0.68240154 -0.66595376 -0.04173336
-0.35184336 0.38664335 -0.10026672
-0.31653160 0.40652424 -0.08523553
-0.53154206 -0.77175707 -0.00000310
-0.65888572 -0.10667246 -0.15728138
-0.70961720 -0.04148983 -0.20043223
-0.04061572 -0.79716724 -0.00000023
-0.24908157 0.15824158 -0.00000092
-0.11601695 0.35902902 -0.00000042
-0.50881779 0.01121762 -0.10108193
-0.68804657 0.02905391 -0.20467867
-0.42582443 -0.46093386 -0.00000130
-0.33795297 0.07369589 -0.02059597
-0.35951421 0.09359885 -0.03714179
-0.52693295 -0.18090773 -0.06696051
-0.39392918 -0.75398391 -0.00000221
-0.39945528 0.19765428 -0.08324105
-0.70525426 -0.38888922 -0.11812850
-0.69442445 -0.56004071 -0.07276146
-0.40547994 -0.29161569 -0.00000054
-0.63347113 -0.09682727 -0.14543679
-0.67571604 -0.83133060 0.11410347
-0.12794226 -0.26373494 0.00000124
-0.12462556 -0.43206674 0.00000063
-0.69579101 -0.79822069 -0.01875192
-0.55677205 -0.46772686 -0.01757337
-0.26197585 -0.74546963 -0.00000138
-0.67303920 -0.22649798 -0.13758549
-0.40738979 0.10198425 -0.06564718
-0.22228226 0.05532969 -0.00000405
-0.55414069 -0.68147266 -0.00000290
-0.60292572 -0.41080415 -0.05628360
-0.25665021 -0.58806258 -0.00000075
-0.63285583 -0.03837435 -0.15853599
-0.31435257 0.25261620 -0.04863596
-0.69435859 -0.34184048 -0.12289845
-0.12683938 0.09272177 -0.00000609
-0.36043131 0.37559333 -0.10249329
-0.25865665 -0.28787848 0.00000036
-0.03606481 0.01708631 -0.00001053
-0.72017920 -0.10706064 -0.19121803
-0.14179882 -0.55207145 0.00000007
-0.35276282 0.31889620 -0.08519923
-0.69828784 -0.06807823 -0.18802916
-0.13038450 -0.07895138 0.00000192
-0.42164752 -0.64521551 -0.00000196
-0.03441433 0.07829582 -0.00000920
-0.36292055 -0.57537276 -0.00000135
-0.34129378 0.32926050 -0.08121559
-0.16725697 0.56376159 -0.03852404
-0.20821837 -0.09489323 0.00000139
-0.66577202 -0.26819968 -0.12396230
-0.42125589 0.09061065 -0.07072940
-0.33196867 -0.11984009 0.00000055
-0.07888726 0.23842564 -0.00000425
-0.39985287 -0.07046129 -0.02181072
-0.34405085 0.10026820 -0.03009118
-0.07432198 -0.18077275 0.00000187
-0.43436304 -0.65610617 -0.00000208
-0.57275128 -0.08269246 -0.11497952
-0.31004012 0.41395554 -0.08334067
-0.41961604 -0.13461582 -0.01803003
-0.20547532 -0.31956342 0.00000056
-0.16404836 -0.62876117 -0.00000035
-0.67390031 -0.41576251 -0.09454365
-0.32754958 0.26063123 -0.05780500
-0.30673629 0.10904970 -0.01139595
-0.57601506 -0.26420701 -0.07505351
-0.25316608 0.43244326 -0.05601923
-0.71398169 -0.79823244 -0.02884701
-0.32320419 -0.48362753 -0.00000076
-0.02149009 -0.15917709 0.00000227
-0.42407495 -0.57158554 -0.00000170
-0.52456611 -0.33063582 -0.03121783
-0.21682277 0.40614551 -0.02979699
-0.32118624 0.33807862 -0.07208093
-0.48403290 -0.59571058 -0.00000216
-0.72271359 -0.75290406 -0.04411716
-0.71185160 -0.42324781 -0.11389016
-0.76638776 -0.76440430 -0.06571664
-0.50428808 -0.55157548 -0.00000211
-0.15844277 -0.76287997 -0.00000082
-0.06980565 0.59530604 0.00000350
-0.47864708 -0.53525382 -0.00000190
-0.43945459 -0.36140791 -0.00000101
-0.66195405 -0.40615055 -0.09012212
-0.29149711 0.22278616 -0.02908899
-0.02736076 0.73929584 -0.00122604
-0.62708408 -0.40155199 -0.07182213
-0.54074323 -0.24242035 -0.06048271
-0.06113176 -0.03373597 0.00000250
-0.56057090 -0.57172662 -0.00000253
-0.36070517 0.21847050 -0.06651618
-0.10976763 -0.01729399 0.00000227
-0.28566739 -0.51794738 -0.00000067
-0.55782700 0.14040746 -0.15799461
-0.00831118 0.57536018 0.00000120
-0.10106809 -0.73300427 -0.00000036
-0.72260052 -0.19055550 -0.17336322
-0.17598486 0.51060712 -0.03114672
-0.23703471 0.34426871 -0.02678918
-0.45571411 0.01312088 -0.07204007
-0.27226099 0.43969080 -0.06828593
-0.18824928 -0.74733377 -0.00000094
-0.10638725 0.18591513 -0.00000461
-0.03167900 0.27381253 -0.00000488
-0.32701796 -0.35744068 -0.00000031
-0.26205459 -0.33832863 0.00000015
-0.55397677 0.18059617 -0.16509826
-0.38453841 0.05385072 -0.04189374
-0.03812690 -0.55576324 0.00000069
-0.08158561 0.61115563 -0.00186310
-0.55655485 -0.18216977 -0.08311435
-0.53321719 0.02959879 -0.11885339
-0.18742783 0.11647869 -0.00000372
-0.01820040 0.61806989 0.00000246
-0.56225145 0.06293546 -0.14263670
-0.25999749 -0.44224536 -0.00000023
-0.23331439 -0.53898352 -0.00000043
-0.07754658 0.22302470 -0.00000464
-0.61112911 -0.18759748 -0.11216216
-0.37246150 -0.40830633 -0.00000078
-0.24884181 -0.19290175 0.00000077
-0.20010865 0.03712001 -0.00000513
-0.38559106 0.09939030 -0.05294956
-0.47107875 -0.50476068 -0.00000174
-0.06498533 0.56794220 0.00000274
-0.61381370 -0.44595289 -0.05424569
-0.12132527 0.65420932 -0.03382366
-0.56111646 -0.56859702 -0.00000252
-0.28837964 0.06684560 -0.00000179
-0.17503223 -0.62982619 -0.00000042
-0.22214811 -0.36867720 0.00000028
-0.37975213 -0.20910671 -0.00000008
-0.64331234 -0.04110576 -0.16371265
-0.19665055 -0.47103307 0.00000005
-0.24636362 0.01418469 -0.00000425
-0.06339614 -0.61996239 0.00000029
-0.11141933 -0.21166107 0.00000153
-0.72665745 -0.76801485 -0.04283178
-0.11163504 0.21028098 -0.00000390
-0.75510275 -0.44546914 -0.13278957
-0.40331858 0.16490805 -0.07785595
-0.14008826 -0.16162114 0.00000155
-0.27828225 -0.27846310 0.00000028
-0.34803566 -0.63858080 -0.00000150
-0.17959565 -0.45335597 0.00000022
-0.69503528 0.02274598 -0.20710780
-0.58899635 0.09887862 -0.16574848
-0.33051100 0.31174752 -0.07120276
-0.05015918 -0.51488614 0.00000077
-0.07116285 -0.01513366 0.00000251
-0.73800635 -0.46668002 -0.11842192
-0.38809687 0.11059292 -0.05691658
-0.01199339 -0.75025511 0.00000011
-0.12998743 0.39698976 0.00000086
-0.24187034 0.00507330 -0.00000459
-0.50279307 -0.24703212 -0.03835494
-0.61474723 -0.10420425 -0.13334629
-0.49487934 -0.63063878 -0.00000235
-0.18317476 -0.37610355 0.00000048
-0.16950303 -0.57983536 -0.00000020
-0.44861776 -0.34282306 -0.00000099
-0.45658821 0.27934101 -0.13374051
-0.52788985 0.21199594 -0.15783678
-0.07065918 -0.69662553 -0.00000004
-0.63526297 0.02974929 -0.17553677
-0.73056591 -0.65950954 -0.06995159
-0.38573882 -0.51426190 -0.00000126
-0.43123016 -0.21637261 -0.00567808
-0.31177643 0.21319622 -0.03814154
-0.21536712 0.26445168 0.00000045
-0.58383924 -0.25839803 -0.08073268
-0.72373211 -0.31067953 -0.14636959
-0.03201539 -0.22587861 0.00000196
-0.17568231 -0.26894733 0.00000093
-0.66296446 -0.52654886 -0.06299840
-0.23181982 -0.63663334 -0.00000079
-0.40566543 -0.42475116 -0.00000104
-0.37440112 -0.05458039 -0.01133335
-0.56396538 0.01072424 -0.13158260
-0.31683969 -0.57198632 -0.00000106
-0.26801890 0.33018583 -0.04075122
-0.11003244 0.56550294 -0.00715735
-0.11133848 0.06256469 -0.00000723
-0.19028008 0.16136217 -0.00000263
-0.33023033 0.13792101 -0.03107695
-0.01296081 0.16513626 -0.00000789
-0.68013376 0.02989942 -0.20048045
-0.31254700 -0.45126829 -0.00000058
-0.29077184 -0.79579651 -0.00000174
-0.74902219 -0.37615830 -0.14535183
-0.00911598 0.11999124 -0.00000903
-0.66554773 -0.80678278 0.11394447
-0.66713762 -0.05041632 -0.17479791
-0.71545267 -0.20488085 -0.16610122
-0.73699504 -0.45987359 -0.11942561
-0.68794942 -0.27961978 -0.13364768
-0.57736450 -0.54444820 -0.01136341
-0.72896838 -0.10035166 -0.19763987
-0.48697433 0.04662230 -0.09709696
-0.77429032 -0.71252459 -0.08203286
-0.53882301 -0.15248227 -0.08009726
-0.20229450 0.39787760 -0.01983076
-0.08271996 -0.70213538 -0.00000013
-0.04077172 -0.04713868 0.00000258
-0.51152074 -0.67178637 -0.00000261
-0.60184753 -0.72286403 -0.00000334
-0.66144365 -0.31959072 -0.10974251
-0.67192656 -0.22558774 -0.13717715
-0.65105844 -0.05293212 -0.16529337
-0.36974528 0.00218219 -0.02180086
-0.46161216 -0.65500164 -0.00000224
-0.61653697 -0.52999789 -0.03643198
-0.46050623 -0.76946867 -0.00000266
-0.76294154 -0.47331569 -0.13073780
-0.23007977 -0.21416880 0.00000081
-0.68300134 -0.66678160 -0.04187595
-0.14479297 0.34558979 0.00000015
-0.10846642 0.09092108 -0.00000668
-0.09223314 -0.70446128 -0.00000020
-0.19242305 -0.11543388 0.00000141
-0.43633303 -0.54230517 -0.00000167
-0.06319200 -0.27384695 0.00000159
-0.01400089 0.62476444 0.00000248
-0.62229699 -0.21624494 -0.11177454
-0.25436324 0.08011546 -0.00000252
-0.19755410 0.04503793 -0.00000502
-0.14419936 -0.76925159 -0.00000076
-0.17351654 -0.14784676 0.00000140
-0.55470550 -0.61017877 -0.00000264
-0.07067105 -0.79923439 -0.00000042
-0.35531107 -0.75901520 -0.00000199
-0.16547085 0.38162741 0.00000158
-0.19269446 0.07913476 -0.00000440
-0.41317797 0.12527044 -0.07421484
-0.48108745 -0.66067004 -0.00000238
-0.25493404 -0.01947593 0.00000139
-0.13619912 0.49539834 -0.00556328
-0.23088768 -0.49400869 -0.00000025
-0.58291441 -0.34757015 -0.05971487
-0.59952503 -0.05365685 -0.13651896
-0.28510034 -0.03846664 0.00000114
