ply
format ascii 1.0
element vertex 1147
property float x
property float y
property float z
end_header
-0.28478342 0.20360003 -0.13985297
-0.21360493 -0.65736020 -0.00000111
-0.17051388 0.43745524 -0.07536985
-0.09461905 0.30615714 -0.00000379
-0.06871722 0.12896466 -0.00000767
-0.28383502 0.24742305 -0.20360269
-0.17972890 -0.42184061 -0.00000061
-0.28062052 -0.22632195 -0.00000098
-0.11932878 0.23733816 -0.00000425
-0.34050831 0.04353914 -0.10066486
-0.19628809 -0.31900221 -0.00000058
-0.39357838 0.02644439 -0.27107829
-0.65873992 -0.67129076 -0.18268616
-0.38145560 -0.09154801 -0.04505030
-0.58056188 -0.45369336 -0.22698513
-0.05656555 0.61637908 0.00000049
-0.43056813 -0.18834542 -0.07846320
-0.69982165 -0.81474799 -0.11472294
-0.47231072 -0.08617550 -0.38996172
-0.31942239 -0.22330402 -0.00000121
-0.25591984 -0.11890489 -0.00000069
-0.52975482 -0.71575910 -0.00000309
-0.00736529 0.07144618 -0.00001053
-0.15433139 -0.21562308 -0.00000020
-0.36513540 -0.68435943 -0.00000206
-0.64759606 -0.62958050 -0.20541348
-0.57037401 -0.47138578 -0.16207728
-0.15413640 0.33087116 -0.00000156
-0.68680716 -0.80916071 -0.07507273
-0.21652581 0.29332888 -0.02464805
-0.55440450 -0.33739844 -0.30855992
-0.35213211 0.01924081 -0.10644154
-0.04270870 -0.10633691 0.00000061
-0.53784418 -0.39012870 -0.16625907
-0.58835208 -0.60701597 -0.02051640
-0.14475907 0.02108207 -0.00000726
-0.31076616 0.15774158 -0.16574429
-0.12692806 -0.52226478 -0.00000042
-0.59011805 -0.47076935 -0.23618607
-0.46144873 -0.23539051 -0.12068221
-0.24057552 0.33391485 -0.17606024
-0.00582346 0.59302580 -0.00000145
-0.60375375 -0.55773807 -0.15322442
-0.11968360 0.55905867 -0.07366653
-0.49022818 -0.30083266 -0.12687775
-0.63431942 -0.64461607 -0.13313733
-0.50858122 -0.39432162 -0.05138884
-0.43682665 -0.03333819 -0.33957517
-0.18226810 0.29418597 -0.00000135
-0.16456334 0.46316960 -0.09278901
-0.14116079 0.10374940 -0.00000592
-0.09658447 -0.11143549 0.00000028
-0.54662353 -0.48270282 -0.05669881
-0.66156137 -0.67892724 -0.18141994
-0.20326574 0.39017758 -0.12416588
-0.09759074 -0.18681224 0.00000018
-0.05791919 0.46094397 -0.00000219
-0.41034275 -0.14194603 -0.07473617
-0.18687153 -0.18858542 -0.00000036
-0.30312970 0.15151434 -0.12788899
-0.34816045 -0.08336386 -0.00000121
-0.57966524 -0.53699780 -0.09579808
-0.22392334 0.37018707 -0.17002957
-0.15008678 -0.64169616 -0.00000071
-0.04887643 -0.25626236 0.00000038
-0.48836863 -0.50774032 -0.00000258
-0.32075039 0.17132325 -0.22358757
-0.29145741 -0.12251573 -0.00000091
-0.53523332 -0.26309294 -0.35157239
-0.25072062 0.27801579 -0.12785350
-0.29405829 0.23693863 -0.22539265
-0.52087229 -0.34763962 -0.16858603
-0.24825472 -0.79225922 -0.00000149
-0.18311226 -0.51921070 -0.00000075
-0.23169520 0.27576023 -0.05389240
-0.29505441 0.01772363 -0.00000279
-0.33177117 -0.17831469 -0.00000123
-0.11036557 0.26065913 -0.00000411
-0.48054814 -0.38655201 -0.00000238
-0.14944191 -0.31492585 -0.00000030
-0.48735321 -0.21443737 -0.24883287
-0.01259511 -0.44861349 0.00000036
-0.19221699 0.43644065 -0.15423380
-0.24687086 -0.19353671 -0.00000073
-0.12341960 0.27568313 -0.00000345
-0.47309151 -0.08579218 -0.39344358
-0.63798535 -0.70790118 -0.04958446
-0.40464282 -0.15170912 -0.03862952
-0.28810537 0.23612763 -0.20208926
-0.16609319 0.15234566 -0.00000432
-0.18924338 0.02948642 -0.00000577
-0.25302103 -0.63603783 -0.00000132
-0.24577010 -0.11859634 -0.00000063
-0.04953749 -0.07562476 0.00000061
-0.43828642 -0.20747125 -0.07770719
-0.45745459 -0.05755450 -0.37884277
-0.22736236 0.03470159 -0.00000453
-0.24916063 0.04244111 -0.00000374
-0.50999141 -0.32005697 -0.17060325
-0.37086529 -0.22602196 -0.00000152
-0.15365455 0.45996824 -0.04745243
-0.57569635 -0.62204957 -0.00000325
-0.36960745 -0.79312438 -0.00000222
-0.52784592 -0.49888885 -0.00000281
-0.16695949 0.19594060 -0.00000353
-0.18025102 0.45451888 -0.13764195
-0.35891917 -0.34819466 -0.00000160
-0.43950826 -0.04621800 -0.32974276
-0.51809800 -0.78823221 -0.00000311
-0.02549337 -0.59875453 0.00000010
-0.35345876 -0.31928208 -0.00000153
-0.44379339 -0.32559985 -0.00000209
-0.24318385 -0.64691108 -0.00000128
-0.44885176 -0.25126028 -0.04964539
-0.01576319 -0.44717431 0.00000035
-0.40646550 -0.11973735 -0.09445712
-0.48309293 -0.76205665 -0.00000287
-0.00424949 -0.74959844 0.00000010
-0.14662299 0.47850811 -0.04985373
-0.32315099 0.15189061 -0.20265584
-0.55227047 -0.36971879 -0.25104329
-0.20854884 0.08639339 -0.00000419
-0.14956699 -0.01726852 0.00000008
-0.29169643 -0.25831971 -0.00000108
-0.17670518 0.34762266 -0.00000058
-0.11669953 -0.62406731 -0.00000048
-0.45134631 -0.26122442 -0.04359504
-0.40755317 -0.49014372 -0.00000207
-0.39666954 -0.21215478 -0.00000166
-0.09431994 -0.65166920 -0.00000038
-0.02593986 0.28980750 -0.00000615
-0.08321837 -0.24542938 0.00000019
-0.16344327 0.48825794 -0.12714663
-0.67463970 -0.74985927 -0.12100788
-0.05299516 0.42273879 -0.00000300
-0.45781082 -0.17881516 -0.19403955
-0.33632660 -0.65094042 -0.00000184
-0.14438367 -0.06444641 0.00000005
-0.55185145 -0.35478556 -0.27241170
-0.46781299 -0.70627493 -0.00000271
-0.29050821 -0.41019279 -0.00000127
-0.36217347 -0.05660977 -0.02722678
-0.52910239 -0.26428792 -0.32701954
-0.13725011 -0.42748961 -0.00000036
-0.12093785 0.43251240 -0.00000078
-0.39736259 0.01509433 -0.26767957
-0.32133767 0.08686387 -0.09612687
-0.23700403 0.28306028 -0.08476921
-0.30839726 -0.50836086 -0.00000150
-0.23962156 0.34016523 -0.18211903
-0.18778352 0.43221888 -0.13132551
-0.14228547 -0.38992167 -0.00000035
-0.15572526 0.08402615 -0.00000583
-0.54532778 -0.49547613 -0.03229166
-0.38666102 -0.62121159 -0.00000211
-0.04563917 -0.09436139 0.00000061
-0.40314469 -0.15763441 -0.02398348
-0.38529727 -0.57584292 -0.00000205
-0.10442134 0.21681654 -0.00000505
-0.28680509 0.16190840 -0.08335180
-0.46172541 -0.48099840 -0.00000239
-0.00067762 0.16901243 -0.00000902
-0.12025642 -0.32602823 -0.00000013
-0.14993055 -0.45376584 -0.00000047
-0.50969350 -0.29013866 -0.21542116
-0.10531076 -0.39264500 -0.00000013
-0.16275293 0.01403256 -0.00000684
-0.30150208 0.09734607 -0.03871484
-0.52183372 -0.34243885 -0.18013117
-0.05914136 -0.64998138 -0.00000017
-0.57909620 -0.49907571 -0.15189630
-0.43425637 -0.28647822 -0.00000198
-0.38492930 0.02380229 -0.23497355
-0.49897259 -0.13407372 -0.41523901
-0.29336345 -0.40747967 -0.00000128
-0.14705110 -0.23519488 -0.00000018
-0.04307519 0.59929776 -0.00000021
-0.12469990 -0.29753399 -0.00000012
-0.04122411 -0.48368064 0.00000015
-0.31064519 0.12762018 -0.11906264
-0.09184847 0.45448375 -0.00000127
-0.48214260 -0.13868937 -0.34579054
-0.30954313 0.09541897 -0.06555323
-0.45678851 -0.20545883 -0.14935593
-0.29114562 0.23291422 -0.20842265
-0.41504234 -0.12454513 -0.11885926
-0.66967803 -0.70695239 -0.16848072
-0.27925009 0.19822370 -0.11109698
-0.03078349 -0.78548366 -0.00000017
-0.43354529 -0.54363972 -0.00000230
-0.07674295 0.43218070 -0.00000212
-0.63960689 -0.69871747 -0.06968940
-0.37573603 0.00923524 -0.17854869
-0.55015624 -0.34571755 -0.28004849
-0.22125971 0.37281525 -0.16419344
-0.57118636 -0.47729328 -0.15602018
-0.14714473 0.26909038 -0.00000285
-0.31907302 0.10032010 -0.10838912
-0.14917995 0.23693900 -0.00000335
-0.27723080 0.27048299 -0.21452540
-0.58390814 -0.60416675 -0.00842262
-0.17998783 -0.07862588 -0.00000018
-0.07532430 0.25784421 -0.00000521
-0.41571555 -0.04880143 -0.23761299
-0.40350783 -0.28972569 -0.00000180
-0.14911881 -0.30382779 -0.00000028
-0.22142935 0.33256131 -0.10303616
-0.54654270 -0.50292104 -0.02536640
-0.35638893 -0.32270664 -0.00000155
-0.05834606 0.68628162 -0.04165358
-0.65093297 -0.63962519 -0.20236090
-0.52285540 -0.67117423 -0.00000299
-0.02933517 0.09147944 -0.00000951
-0.07268324 0.62651205 -0.00304013
-0.50224400 -0.74817818 -0.00000297
-0.48985407 -0.30154496 -0.12439816
-0.16417453 -0.79521531 -0.00000098
-0.10271647 0.58737063 -0.05425059
-0.49039817 -0.75588042 -0.00000290
-0.39526495 -0.11610587 -0.05852719
-0.47231254 -0.33804232 -0.00337782
-0.01125308 0.10412204 -0.00000984
-0.46328020 -0.16103721 -0.24159381
-0.43134364 -0.23027290 -0.01698226
-0.19741929 0.03060231 -0.00000551
-0.24294484 0.24275719 -0.04492165
-0.24034078 0.23624213 -0.02527236
-0.20173658 0.19482370 -0.00000250
-0.23614164 0.33062437 -0.15457983
-0.10676892 -0.21826932 0.00000008
-0.07668804 -0.04903355 0.00000048
-0.19615692 -0.66655165 -0.00000102
-0.27039251 -0.52860993 -0.00000129
-0.56988561 -0.52690816 -0.07504614
-0.51574415 -0.41055682 -0.05301187
-0.52270448 -0.28889075 -0.26554897
-0.23790392 0.26302907 -0.05735782
-0.30838162 0.12067492 -0.10001458
-0.34432545 0.09320841 -0.19104685
-0.53596640 -0.34265634 -0.23216644
-0.66312754 -0.75964761 -0.06332450
-0.36146441 -0.03905954 -0.05153715
-0.46227607 -0.11771707 -0.30436525
-0.07701258 0.62558615 -0.01766143
-0.10223092 0.28223285 -0.00000398
-0.10717136 -0.36341929 -0.00000010
-0.35864151 -0.71235776 -0.00000206
-0.40209541 -0.55153614 -0.00000212
-0.13606682 0.47829330 -0.01040799
-0.09567002 -0.51287925 -0.00000022
-0.40105993 -0.75364089 -0.00000236
-0.10193741 0.34531561 -0.00000288
-0.56697088 -0.50422835 -0.09905682
-0.49985084 -0.71215099 -0.00000291
-0.67160040 -0.78294724 -0.05895819
-0.05451399 -0.06011021 0.00000060
-0.39778417 -0.23216963 -0.00000169
-0.64242685 -0.65394938 -0.14885436
-0.15580109 0.47412062 -0.07712903
-0.68957472 -0.80622900 -0.08982787
-0.35275528 -0.02478154 -0.04118069
-0.51982683 -0.33036748 -0.19122308
-0.46933585 -0.41307831 -0.00000235
-0.47230485 -0.30347916 -0.05640035
-0.04806426 0.19925793 -0.00000706
-0.00288603 -0.33097550 0.00000057
-0.18886271 -0.76726037 -0.00000110
-0.14359681 -0.33609632 -0.00000029
-0.09440346 0.38415915 -0.00000243
-0.22107092 -0.54280710 -0.00000101
-0.26132920 -0.48021621 -0.00000118
-0.23231871 0.34294537 -0.15932544
-0.47288182 -0.72595578 -0.00000276
-0.56406850 -0.53920299 -0.03461941
-0.33167595 0.04243073 -0.06623507
-0.18504901 -0.40384167 -0.00000062
-0.47263724 -0.46326816 -0.00000243
-0.40175131 -0.49898085 -0.00000205
-0.09151647 0.18152869 -0.00000606
-0.04681609 0.66910249 0.00000112
-0.23606052 0.23479648 -0.00719276
-0.18170726 0.38228703 -0.03216928
-0.11479109 -0.22707812 0.00000002
-0.00391102 -0.28438780 0.00000067
-0.00345322 -0.77178156 0.00000006
-0.29268315 -0.08019474 -0.00000087
-0.02618606 -0.05579637 0.00000077
-0.13480638 -0.58893269 -0.00000055
-0.03506879 -0.31383598 0.00000040
-0.05125305 0.52340037 -0.00000129
-0.22917473 0.18423660 -0.00000186
-0.57866746 -0.53373379 -0.09711072
-0.18796767 -0.58661145 -0.00000087
-0.16252945 0.42735186 -0.03027565
-0.33423030 -0.40835020 -0.00000153
-0.16461501 0.47699508 -0.11420118
-0.49271354 -0.18819062 -0.30898181
-0.22745220 -0.22438791 -0.00000065
-0.40642729 -0.79706085 -0.00000245
-0.19131088 0.43359217 -0.14650413
-0.48127612 -0.16613150 -0.30045888
-0.28345278 -0.41242182 -0.00000123
-0.41017142 -0.10512192 -0.13062268
-0.38277483 -0.44489351 -0.00000187
-0.06380344 -0.61957574 -0.00000016
-0.15475766 -0.23287208 -0.00000023
-0.44557977 -0.23098890 -0.06863550
-0.04437296 0.26542416 -0.00000602
-0.26844874 0.24207631 -0.13838185
-0.62454534 -0.68989468 -0.02742044
-0.40210623 -0.07519809 -0.14666709
-0.32988152 0.14285333 -0.21372464
-0.09344815 0.47006825 -0.00000095
-0.28847790 0.20468096 -0.15520205
-0.32699496 0.16777074 -0.24127424
-0.49588087 -0.12527189 -0.41729257
-0.32806259 0.07958274 -0.10987042
-0.03448869 0.35917106 -0.00000467
-0.08138630 0.45180762 -0.00000164
-0.55876225 -0.51375216 -0.05402157
-0.50621843 -0.19627413 -0.34661719
-0.35960630 0.04912840 -0.18001182
-0.27652875 0.15515830 -0.03491180
-0.22676712 0.16125473 -0.00000233
-0.17609109 -0.39032856 -0.00000055
-0.54593301 -0.34599629 -0.26397124
-0.22167777 0.18669236 -0.00000204
-0.45274705 -0.10201745 -0.29315263
-0.38129079 -0.07474755 -0.07022665
-0.39845496 -0.07602868 -0.13186242
-0.60316849 -0.56379473 -0.14175928
-0.05054091 -0.39387810 0.00000020
-0.33792126 0.06391706 -0.12235661
-0.02591735 0.40913540 -0.00000406
-0.18082723 -0.67112726 -0.00000093
-0.51085472 -0.33414117 -0.15218465
-0.50939703 -0.42435575 -0.00831240
-0.39566207 -0.30908212 -0.00000177
-0.30556598 -0.72147053 -0.00000175
-0.57312936 -0.47952768 -0.15979023
-0.19966754 -0.38910261 -0.00000069
-0.27094778 -0.56039828 -0.00000134
-0.04354302 0.24108751 -0.00000647
-0.15305041 -0.43705514 -0.00000047
-0.32528871 0.02878286 -0.02161888
-0.07599115 0.18007579 -0.00000656
-0.27075052 0.22651604 -0.12302757
-0.17671233 -0.35636106 -0.00000051
-0.08890073 -0.58225983 -0.00000026
-0.34194997 0.06930202 -0.14555047
-0.09805595 0.57065040 -0.01131704
-0.41779274 -0.21272182 -0.00000179
-0.03840775 -0.31584349 0.00000037
-0.42759734 -0.00365602 -0.35093501
-0.29523295 0.24408691 -0.24071731
-0.44179058 -0.62665248 -0.00000245
-0.23081335 0.33066672 -0.13490073
-0.44667795 -0.09207966 -0.28591698
-0.52150232 -0.34513718 -0.17476149
-0.41933897 -0.24513862 -0.00000184
-0.39060175 -0.08923857 -0.08248632
-0.02358349 0.35625762 -0.00000505
-0.13215835 -0.52580494 -0.00000045
-0.32117718 0.11151897 -0.13337535
-0.00568764 -0.77659845 -0.00000001
-0.50169784 -0.31952634 -0.14068580
-0.52715957 -0.44886127 -0.03651825
-0.09281143 0.06892528 -0.00000799
-0.30969045 -0.27415630 -0.00000121
-0.02443641 0.26027906 -0.00000671
-0.63769436 -0.64452821 -0.14577833
-0.64443135 -0.72834516 -0.04209085
-0.42510620 -0.03910438 -0.28729424
-0.43340230 -0.18209159 -0.09856426
-0.39720026 -0.65611392 -0.00000222
-0.35716829 -0.34080648 -0.00000158
-0.12477318 0.35130763 -0.00000209
-0.57275379 -0.54767454 -0.05379987
-0.28773898 -0.66698140 -0.00000157
-0.17217901 0.41687995 -0.04995896
-0.06925395 -0.42018259 0.00000006
-0.36993644 0.06012022 -0.23516171
-0.65263277 -0.72863692 -0.07203402
-0.39293629 0.06333351 -0.32532021
-0.03205343 -0.07917112 0.00000071
-0.06802534 0.04535228 -0.00000915
-0.17198139 -0.09073073 -0.00000015
-0.15541238 -0.17561492 -0.00000016
-0.60972583 -0.68917310 -0.00000354
-0.43091059 -0.04312390 -0.30263305
-0.28823432 0.10494032 -0.00120739
-0.27503368 -0.44389874 -0.00000121
-0.61090600 -0.51608342 -0.24366409
-0.22689687 -0.16018201 -0.00000057
-0.35911199 -0.02244648 -0.06831968
-0.60076857 -0.52798331 -0.18783370
-0.24270339 -0.38733444 -0.00000095
-0.08605221 -0.39482683 -0.00000001
-0.43027440 -0.01467591 -0.34394050
-0.39027050 -0.03805842 -0.15981542
-0.13576081 -0.72919202 -0.00000073
-0.24447866 0.25808597 -0.07413345
-0.06435252 0.28026730 -0.00000515
-0.33750296 0.04645976 -0.09401133
-0.01814934 0.38068545 -0.00000479
-0.40502298 -0.17519870 -0.00398398
-0.14017054 -0.69145072 -0.00000071
-0.12746127 -0.77707374 -0.00000074
-0.10810774 -0.32183638 -0.00000005
-0.12497399 0.28351110 -0.00000327
-0.08868958 0.58769041 -0.00276456
-0.39667010 -0.73194587 -0.00000231
-0.13246533 -0.77437872 -0.00000077
-0.00565890 0.60853487 -0.00000118
-0.12881947 0.50818330 -0.02943092
-0.14929394 -0.19248188 -0.00000014
-0.32927042 0.16334742 -0.24291661
-0.12518983 -0.04572774 0.00000019
-0.19169743 0.32139787 -0.00000059
-0.52437693 -0.45894936 -0.01072297
-0.49950266 -0.38529038 -0.03161015
-0.37983319 -0.60143977 -0.00000204
-0.11205202 -0.59563226 -0.00000042
-0.21941067 0.31788152 -0.07302391
-0.30558398 -0.02996206 -0.00000088
-0.33934578 0.01849741 -0.05792046
-0.00842802 -0.11720650 0.00000080
-0.47607517 -0.26646015 -0.12719192
-0.18882565 -0.36252177 -0.00000059
-0.45518628 -0.21868081 -0.12312430
-0.13828342 -0.05171056 0.00000010
-0.40476677 -0.63932699 -0.00000224
-0.37463874 -0.04833997 -0.08611033
-0.55936700 -0.40115988 -0.22908062
-0.04852631 -0.27236897 0.00000037
-0.26730484 -0.32696339 -0.00000102
-0.11127623 -0.53213125 -0.00000034
-0.08709864 -0.33252576 0.00000006
-0.30546230 0.09030146 -0.04257678
-0.10834934 0.25961286 -0.00000419
-0.46900707 -0.18997051 -0.21840511
-0.37876919 0.05023234 -0.25271472
-0.08056728 -0.17955697 0.00000029
-0.09074052 0.55351150 0.00000042
-0.59984422 -0.60712683 -0.06293049
-0.09278985 0.42764267 -0.00000172
-0.29832160 -0.61235327 -0.00000157
-0.00261138 0.20162861 -0.00000839
-0.53628504 -0.29580975 -0.30525202
-0.30727619 0.22554503 -0.25688374
-0.16451924 0.11549915 -0.00000501
-0.02462422 -0.09651127 0.00000073
-0.50830519 -0.37057140 -0.08682041
-0.34764925 0.08800877 -0.19538228
-0.23134099 0.27767575 -0.05551997
-0.02982443 0.63770884 0.00000006
-0.24394864 -0.67274964 -0.00000131
-0.35721821 0.13367653 -0.30093583
-0.55075186 -0.36337322 -0.25515589
-0.10345477 -0.00762728 0.00000037
-0.35298049 0.07557868 -0.19605833
-0.44894686 -0.13969649 -0.22123730
-0.39398089 -0.11062593 -0.06218024
-0.14211532 0.06374760 -0.00000660
-0.51818138 -0.36631718 -0.12994651
-0.12397294 -0.39461133 -0.00000024
-0.14871243 0.11128633 -0.00000556
-0.24343902 -0.66674054 -0.00000130
-0.34964678 -0.00968447 -0.05283460
-0.00156718 -0.66747051 0.00000018
-0.09168205 0.51244199 -0.00000027
-0.37074867 -0.09490539 -0.00022231
-0.31284320 -0.65831912 -0.00000171
-0.29461062 0.12565127 -0.05662412
-0.67814875 -0.80093646 -0.05561161
-0.46021184 -0.12593029 -0.28410965
-0.24363168 -0.02408995 -0.00000050
-0.56484044 -0.79594749 -0.00000340
-0.40083948 0.01994662 -0.28801098
-0.27004954 0.28802732 -0.21484388
-0.17876877 -0.43065858 -0.00000062
-0.29358268 -0.55874401 -0.00000147
-0.23215348 -0.66022396 -0.00000123
-0.61319453 -0.64935297 -0.04758746
-0.01993786 -0.45142782 0.00000032
-0.21790133 -0.39456546 -0.00000081
-0.21300304 -0.40494087 -0.00000079
-0.34637555 -0.00111069 -0.05387293
-0.55087239 -0.48648933 -0.06663122
-0.27196231 0.24375784 -0.15398237
-0.27973163 -0.51254135 -0.00000133
-0.43471253 -0.08693949 -0.24946856
-0.36846915 -0.63750595 -0.00000202
-0.05027110 0.41025934 -0.00000330
-0.04875817 0.15469895 -0.00000782
-0.09450647 -0.50487077 -0.00000020
-0.23910043 -0.65901250 -0.00000127
-0.49157214 -0.14023341 -0.37836203
-0.26754326 0.28497162 -0.20086658
-0.41908914 -0.18786635 -0.03666281
-0.64658415 -0.62559134 -0.20778684
-0.37252414 -0.74961424 -0.00000219
-0.15003198 0.51609564 -0.12017898
-0.25204912 0.28072530 -0.13693513
-0.08181617 0.31290025 -0.00000406
-0.07887629 -0.43860424 -0.00000002
-0.33114216 0.10028154 -0.15305237
-0.28549653 -0.55340528 -0.00000141
-0.13113281 0.23374332 -0.00000395
-0.35212478 -0.75181085 -0.00000207
-0.04460635 0.06437453 -0.00000953
-0.05950832 0.40848503 -0.00000306
-0.30782720 0.15006354 -0.14306884
-0.17991057 0.38955548 -0.03666798
-0.51835644 -0.25938737 -0.29472205
-0.23661581 -0.50618488 -0.00000106
-0.04636903 -0.14620225 0.00000054
-0.43132329 -0.14110231 -0.15377502
-0.69022393 -0.78910339 -0.11852025
-0.31670967 0.03946267 -0.00622156
-0.02428341 -0.38835067 0.00000037
-0.31579125 0.07541278 -0.05799823
-0.09043376 0.23363186 -0.00000518
-0.50826758 -0.20881510 -0.33496103
-0.25103804 0.17949827 -0.00000128
-0.42851874 0.00061074 -0.36089826
-0.52000797 -0.30063885 -0.23752484
-0.35342211 -0.19901650 -0.00000138
-0.28604573 -0.04740922 -0.00000079
-0.26281840 0.08079933 -0.00000265
-0.09073516 0.52674311 -0.00000004
-0.05491195 0.30113363 -0.00000507
-0.56857955 -0.61364353 -0.00000320
-0.11369470 0.58650404 -0.09360059
-0.02241949 -0.10992362 0.00000073
-0.53636301 -0.30266035 -0.29502597
-0.08787296 0.41190448 -0.00000214
-0.26794475 -0.17256340 -0.00000083
-0.14096460 -0.27535900 -0.00000019
-0.49103656 -0.21338087 -0.26410314
-0.22317722 0.29989481 -0.05937302
-0.18688865 0.35073650 -0.00294204
-0.04528917 0.54918486 -0.00000102
-0.21736953 -0.32312575 -0.00000072
-0.30605513 -0.51175708 -0.00000149
-0.22706924 -0.64165980 -0.00000117
-0.20013195 0.16525169 -0.00000307
-0.23322248 -0.19680753 -0.00000065
-0.34833163 0.03027996 -0.10930271
-0.06548032 0.08525054 -0.00000853
-0.05617589 -0.70235747 -0.00000022
-0.01529277 0.43402010 -0.00000394
-0.24619474 -0.41904157 -0.00000101
-0.41331863 -0.08260916 -0.17683959
-0.58452022 -0.47745800 -0.20517619
-0.12942351 -0.09759758 0.00000010
-0.47715086 -0.39011371 -0.00000237
-0.17708242 -0.20456602 -0.00000032
-0.23886135 -0.41909853 -0.00000097
-0.45821306 -0.67008871 -0.00000260
-0.17194891 -0.74149328 -0.00000096
-0.42057011 -0.09383952 -0.18647264
-0.63405395 -0.59427899 -0.20941696
-0.50896263 -0.20652822 -0.34104675
-0.36477515 -0.47892401 -0.00000180
-0.22229423 0.28397897 -0.03167184
-0.30425516 0.18424277 -0.18229437
-0.01464522 -0.16138224 0.00000071
-0.02586192 0.35489157 -0.00000501
-0.27175808 0.15562236 -0.01794630
-0.00420382 -0.36100173 0.00000058
-0.18287134 0.40399188 -0.06979762
-0.37531438 -0.37720591 -0.00000174
-0.02388311 -0.70748645 -0.00000003
-0.04115567 0.54643399 -0.00000120
-0.03721260 0.61496329 -0.00000012
-0.08800236 0.62990189 -0.06500854
-0.11253717 -0.05793053 0.00000025
-0.26911983 0.07401996 -0.00000258
-0.18594415 -0.75548595 -0.00000107
-0.16463362 0.48843697 -0.13183236
-0.31603754 -0.01936605 -0.00000093
-0.61473322 -0.66903669 -0.02307641
-0.12086396 -0.58054507 -0.00000046
-0.22937967 0.07996274 -0.00000368
-0.32284856 0.15634798 -0.20837680
-0.29747009 0.13295123 -0.07842472
-0.42323259 -0.68669617 -0.00000241
-0.35325125 -0.66498190 -0.00000196
-0.66969353 -0.81679130 0.09013298
-0.00749435 0.08453081 -0.00001029
-0.22640800 -0.19021085 -0.00000060
-0.62458926 -0.66086489 -0.07214128
-0.45331430 -0.37397644 -0.00000220
-0.30863366 0.20141841 -0.22488201
-0.33653060 -0.20691845 -0.00000129
-0.22051789 -0.41031453 -0.00000084
-0.52623105 -0.34146008 -0.19792803
-0.10920398 -0.37873480 -0.00000013
-0.13239369 0.42792749 -0.00000052
-0.26839489 0.13330196 -0.00000157
-0.03955380 0.21658690 -0.00000702
-0.04167504 -0.00766671 0.00000074
-0.25649595 0.31805825 -0.21071541
-0.37632987 0.02449195 -0.20416677
-0.14368533 -0.64626741 -0.00000068
-0.22560127 0.34617981 -0.13939837
-0.30576837 -0.67827415 -0.00000169
-0.25441244 -0.79048508 -0.00000152
-0.26569742 -0.74000782 -0.00000153
-0.64269656 -0.63223505 -0.18318343
-0.34700361 0.01857316 -0.08641294
-0.32775912 0.07678678 -0.10445432
-0.18338978 -0.28979772 -0.00000047
-0.15959816 -0.72261178 -0.00000087
-0.22587450 0.26352584 -0.01354504
-0.25321504 -0.67609012 -0.00000137
-0.12555327 0.29031193 -0.00000313
-0.45489985 -0.21383473 -0.12950125
-0.44172016 -0.09459494 -0.26368505
-0.18318632 0.07814574 -0.00000510
-0.43656117 -0.49646699 -0.00000226
-0.02241169 0.43892390 -0.00000364
-0.23345876 -0.56995434 -0.00000112
-0.60844451 -0.66842669 -0.00070995
-0.11451932 0.57626134 -0.08093464
-0.40722543 -0.10850574 -0.11451243
-0.28530064 0.20974530 -0.15120190
-0.24367253 0.29698673 -0.13085520
-0.37502289 -0.31167564 -0.00000165
-0.13816869 -0.73725951 -0.00000076
-0.04852211 -0.54435664 0.00000003
-0.52776480 -0.41802305 -0.08609459
-0.54511255 -0.45123383 -0.09940180
-0.18255863 0.42781362 -0.10520286
-0.53074038 -0.73872042 -0.00000313
-0.60201097 -0.48021534 -0.26575747
-0.21397986 0.26559216 -0.00000089
-0.10651175 0.40225771 -0.00000175
-0.34240770 -0.78916800 -0.00000205
-0.33644390 -0.53767937 -0.00000170
-0.56292522 -0.43178111 -0.19526491
-0.28012115 0.18280637 -0.09066058
-0.24930008 0.21297282 -0.02275507
-0.18813296 0.17770010 -0.00000321
-0.03494125 0.23033011 -0.00000691
-0.68374616 -0.74635166 -0.16013664
-0.51557416 -0.19291288 -0.38644433
-0.08723282 0.15177876 -0.00000671
-0.44038534 -0.47137150 -0.00000225
-0.39838710 -0.54982710 -0.00000209
-0.04852241 0.16575141 -0.00000764
-0.53140599 -0.36077297 -0.18746050
-0.36213732 -0.35724998 -0.00000163
-0.58007425 -0.66786253 -0.00000334
-0.34868687 -0.32961920 -0.00000152
-0.13897905 0.48756799 -0.03543502
-0.03171219 0.07649841 -0.00000970
-0.51749671 -0.19868413 -0.38471004
-0.11644963 0.57847595 -0.09148669
-0.51723951 -0.39821813 -0.07749156
-0.41426823 -0.79135567 -0.00000249
-0.02411635 0.12678857 -0.00000905
-0.21687897 0.34700820 -0.10834915
-0.65769112 -0.77162147 -0.02480044
-0.02983939 0.35125402 -0.00000495
-0.15065955 0.49169135 -0.08504631
-0.35532513 0.13709985 -0.29917535
-0.07332073 0.44993120 -0.00000191
-0.04863926 -0.53588384 0.00000004
-0.05237115 0.50887352 -0.00000151
-0.45880947 -0.20965271 -0.15040739
-0.04216843 -0.33744073 0.00000032
-0.35669830 -0.44978005 -0.00000172
-0.42015097 -0.08367969 -0.20051380
-0.00343373 -0.12071719 0.00000083
-0.27285659 -0.49749365 -0.00000127
-0.43355861 -0.06872583 -0.27314880
-0.13256592 0.35768196 -0.00000174
-0.63313395 -0.59176910 -0.20986044
-0.35937306 0.02073630 -0.13556844
-0.67170990 -0.82165921 0.07789473
-0.24742839 -0.65152878 -0.00000131
-0.23755969 -0.43644512 -0.00000098
-0.32750627 0.15317968 -0.22077301
-0.34577596 -0.73305386 -0.00000200
-0.62451380 -0.64407313 -0.09763523
-0.47424528 -0.30119282 -0.06710000
-0.44213662 -0.10687877 -0.24637373
-0.30399424 -0.46998668 -0.00000142
-0.47720411 -0.18785127 -0.25203216
-0.34420368 0.10541118 -0.20932564
-0.29825625 0.22136563 -0.21704531
-0.14932136 0.14574744 -0.00000494
-0.57787895 -0.42554027 -0.26025602
-0.06032933 0.62286323 0.00000072
-0.42810699 -0.44253519 -0.00000214
-0.67690879 -0.75446749 -0.12234306
-0.06914921 0.66856003 -0.05448411
-0.01547641 -0.76965404 -0.00000006
-0.19465955 0.33905143 -0.01380182
-0.47539091 -0.16939095 -0.27364814
-0.00118461 0.05565215 -0.00001099
-0.07138976 0.44279113 -0.00000210
-0.40663517 -0.16285221 -0.02890865
-0.27986318 0.24073206 -0.17861493
-0.55609679 -0.49695909 -0.06992041
-0.00044208 0.69614279 0.00000020
-0.42856455 -0.16372301 -0.10883180
-0.41709942 -0.66710782 -0.00000235
-0.56678808 -0.70670599 -0.00000330
-0.42888361 -0.75209296 -0.00000253
-0.51253235 -0.30514207 -0.20291182
-0.49020490 -0.36962628 -0.02120003
-0.47803763 -0.10595164 -0.38082880
-0.60740066 -0.54020232 -0.19365434
-0.69077826 -0.81113696 -0.08675444
-0.09329398 -0.67156857 -0.00000040
-0.34479111 0.15004458 -0.28001025
-0.04127341 -0.64329886 -0.00000005
-0.34372708 0.13447560 -0.25217065
-0.21522576 0.29222989 -0.01814385
-0.18980230 -0.73885739 -0.00000107
-0.66530663 -0.76222032 -0.06745023
-0.15551583 0.50916487 -0.12986144
-0.19773857 0.34077650 -0.02785898
-0.30860728 0.10657360 -0.07920661
-0.35559088 0.13404682 -0.29547405
-0.31794772 -0.00718676 -0.00000093
-0.32307157 -0.30521858 -0.00000133
-0.31105411 -0.06698024 -0.00000096
-0.33098567 -0.40321186 -0.00000150
-0.34488645 -0.75295931 -0.00000202
-0.51736796 -0.40601909 -0.06599392
-0.39575484 -0.02449829 -0.20095120
-0.10067015 -0.15396228 0.00000020
-0.15157937 0.29206496 -0.00000231
-0.02232074 -0.01227895 0.00000085
-0.44993940 -0.03946796 -0.37875614
-0.35763389 -0.45436522 -0.00000173
-0.57876140 -0.51157647 -0.13146815
-0.22592662 -0.38887137 -0.00000085
-0.07717590 -0.30602157 0.00000015
-0.14894024 0.02620132 -0.00000705
-0.35009861 0.08507075 -0.19994891
-0.58716673 -0.57013321 -0.07273537
-0.49527207 -0.22391126 -0.26363480
-0.50707895 -0.73718262 -0.00000298
-0.31526169 -0.07099205 -0.00000099
-0.29027978 -0.26527911 -0.00000108
-0.47255445 -0.26631612 -0.11436694
-0.60102725 -0.50750440 -0.22022559
-0.52809078 -0.31941524 -0.23865589
-0.25371245 -0.65230632 -0.00000135
-0.18264537 -0.64766562 -0.00000091
-0.12728691 0.32483175 -0.00000247
-0.02285439 -0.65021789 0.00000005
-0.36605012 -0.65304130 -0.00000203
-0.54259682 -0.35056037 -0.24460348
-0.05862243 0.32817644 -0.00000449
-0.49431226 -0.28701571 -0.16321903
-0.27230254 -0.48105198 -0.00000124
-0.35151452 -0.67754245 -0.00000197
-0.06560170 0.65001959 -0.01288109
-0.01939488 0.23087329 -0.00000737
-0.55584216 -0.69519848 -0.00000322
-0.01533855 0.49309298 -0.00000291
-0.60302484 -0.60185266 -0.08281179
-0.23182435 0.34165484 -0.15551274
-0.27270699 -0.64278591 -0.00000145
-0.46434569 -0.18678442 -0.20602262
-0.26747382 -0.60011876 -0.00000136
-0.12729745 0.14638320 -0.00000560
-0.47293147 -0.56017995 -0.00000255
-0.25531858 -0.14199120 -0.00000072
-0.38198087 0.00204933 -0.19065940
-0.29691789 -0.34192634 -0.00000122
-0.45884457 -0.64786208 -0.00000258
-0.22176933 0.37371209 -0.16745843
-0.01309192 -0.11842578 0.00000077
-0.54944056 -0.47044757 -0.08594815
-0.53246504 -0.39243919 -0.14278032
-0.45889357 -0.19211105 -0.17764382
-0.37263748 -0.02156612 -0.11978986
-0.32335469 0.17226259 -0.23467971
-0.00392837 -0.57767749 0.00000025
-0.50050002 -0.20530118 -0.31157178
-0.51552141 -0.45929298 -0.00000269
-0.20105127 0.29914072 -0.00000070
-0.39315879 -0.00700605 -0.21818031
-0.53017950 -0.36093628 -0.18266490
-0.09833122 0.58837765 -0.03954662
-0.25319052 -0.76020908 -0.00000148
-0.24929903 0.20567922 -0.01155619
-0.48873362 -0.31830913 -0.09451498
-0.36229527 0.05018375 -0.19159564
-0.42824799 -0.18621196 -0.07314050
-0.57335228 -0.42524612 -0.24393333
-0.18823260 0.40556088 -0.09207215
-0.14343098 0.52125233 -0.10363392
-0.27300364 -0.08380670 -0.00000075
-0.39234340 -0.16371006 -0.00000157
-0.46657699 -0.66153508 -0.00000264
-0.44972169 -0.22347975 -0.09550929
-0.67361116 -0.80475062 -0.03294292
-0.02344590 0.70791125 0.00000110
-0.02429023 0.28197619 -0.00000633
-0.12434984 -0.01575081 0.00000023
-0.19054890 0.38443899 -0.06823523
-0.17414176 0.17814499 -0.00000363
-0.23481539 0.30644587 -0.11255378
-0.29971230 -0.35301843 -0.00000125
-0.19510649 -0.59512228 -0.00000092
-0.00077836 -0.77669334 0.00000002
-0.32468876 -0.01352240 -0.00000098
-0.28455538 0.26467431 -0.23275101
-0.57386535 -0.41977915 -0.25422603
-0.17998035 0.16697124 -0.00000365
-0.11274786 0.48282444 -0.00000015
-0.03647230 -0.43305174 0.00000024
-0.20941374 -0.03611651 -0.00000031
-0.12477985 0.35640278 -0.00000200
-0.14681125 -0.52948201 -0.00000055
-0.64398307 -0.61990231 -0.20688052
-0.06221853 -0.57075155 -0.00000009
-0.55554187 -0.49037510 -0.07796988
-0.37985471 -0.35619596 -0.00000174
-0.00957039 0.55015838 -0.00000208
-0.10261578 0.35394591 -0.00000271
-0.41470337 -0.31261727 -0.00000189
-0.35039389 0.12359739 -0.26017764
-0.15254471 0.45502242 -0.03574854
-0.55455983 -0.49940887 -0.06046487
-0.48195276 -0.30738828 -0.08615074
-0.20727529 -0.17607389 -0.00000047
-0.20181803 0.39142364 -0.12071396
-0.19919363 -0.03803081 -0.00000025
-0.31317133 0.21064520 -0.25585863
-0.37129170 -0.32347345 -0.00000165
-0.61127573 -0.67347735 -0.00344855
-0.51513612 -0.72586805 -0.00000302
-0.45786238 -0.53347790 -0.00000243
-0.07128856 0.21234573 -0.00000613
-0.62497979 -0.60860324 -0.15380546
-0.25205943 -0.47566545 -0.00000112
-0.54246342 -0.40553659 -0.15972629
-0.26107639 -0.11378614 -0.00000072
-0.51519245 -0.64536399 -0.00000292
-0.04872743 -0.18363680 0.00000048
-0.41941598 -0.10666683 -0.16250734
-0.46057698 -0.16110747 -0.23146918
-0.11924433 -0.37664276 -0.00000019
-0.05833946 0.08720378 -0.00000871
-0.55789429 -0.35355031 -0.29669970
-0.33861041 0.13160416 -0.22880337
-0.54856896 -0.36173674 -0.24957897
-0.06517409 -0.07096839 0.00000052
-0.20090231 -0.31792179 -0.00000061
-0.22046714 -0.73572278 -0.00000125
-0.26299983 0.22928730 -0.09856090
-0.52874905 -0.33221999 -0.22144106
-0.50893164 -0.40564749 -0.03530328
-0.42705637 -0.37065479 -0.00000204
-0.36058155 -0.58260936 -0.00000190
-0.16238023 -0.53801227 -0.00000065
-0.43053550 -0.17027028 -0.10608585
-0.27794486 0.20772120 -0.12083814
-0.38086212 -0.77084589 -0.00000226
-0.42690536 -0.18615174 -0.06825771
-0.27247560 -0.71533781 -0.00000154
-0.09615285 -0.54803395 -0.00000027
-0.42630064 -0.17999531 -0.07546651
-0.21043682 0.32982984 -0.05811056
-0.43093511 -0.67477214 -0.00000244
-0.18190554 0.27362353 -0.00000172
-0.03941082 -0.19591002 0.00000052
-0.05276319 -0.70538372 -0.00000020
-0.38339087 -0.10844125 -0.02629201
-0.54842919 -0.44011241 -0.12876198
-0.38615331 -0.02696122 -0.16159216
-0.57725656 -0.46652776 -0.19503734
-0.53453994 -0.45250040 -0.05828073
-0.49448463 -0.44520152 -0.00000254
-0.60202247 -0.50430781 -0.22882006
-0.29235560 -0.61483699 -0.00000153
-0.10087355 -0.14723337 0.00000021
-0.56476945 -0.52714962 -0.05571757
-0.04653248 0.58123916 -0.00000042
-0.52902889 -0.42852536 -0.07465869
-0.47631446 -0.66557962 -0.00000271
-0.24138458 -0.20017818 -0.00000071
-0.21654987 -0.45961282 -0.00000088
-0.67501712 -0.78656507 -0.06606604
-0.68621391 -0.77783269 -0.12096022
-0.12655026 0.11821080 -0.00000611
-0.47274145 -0.23404749 -0.16458902
-0.55274683 -0.37389240 -0.24640238
-0.20689802 0.41054028 -0.16888011
-0.44976830 -0.13748269 -0.22767913
-0.30197909 0.23382966 -0.24997120
-0.17062756 0.39466840 -0.01011740
-0.23469692 -0.46941689 -0.00000100
-0.56744248 -0.38297313 -0.28691971
-0.13922720 0.50922924 -0.06960250
-0.36226380 -0.28891751 -0.00000155
-0.01291747 -0.79354829 -0.00000007
-0.36836582 -0.03552513 -0.08253548
-0.03548201 -0.69278550 -0.00000008
-0.36232421 0.08193686 -0.24044085
-0.36518991 -0.57427651 -0.00000192
-0.20092699 0.27299500 -0.00000116
-0.01983656 -0.35998741 0.00000043
-0.56284726 -0.68617916 -0.00000325
-0.36467087 0.00876006 -0.13681719
-0.30663234 0.09716310 -0.05744428
-0.06436616 -0.78274727 -0.00000037
-0.14353099 -0.77267420 -0.00000083
-0.06158489 -0.61056018 -0.00000013
-0.03238315 0.50927216 -0.00000211
-0.27361563 -0.77315205 -0.00000162
-0.52795690 -0.39206919 -0.12664317
-0.34599659 -0.03145593 -0.00589172
-0.39941323 -0.56791401 -0.00000212
-0.50134164 -0.75474852 -0.00000297
-0.03940807 0.10795322 -0.00000892
-0.33606538 0.14908545 -0.24620478
-0.37554890 0.08171662 -0.28910720
-0.23145232 -0.21722865 -0.00000067
-0.43047917 -0.14855707 -0.13920480
-0.59428257 -0.51299477 -0.18680531
-0.05119293 0.50574303 -0.00000160
-0.09210191 -0.31989434 0.00000004
-0.08596768 0.24943069 -0.00000504
-0.12160128 -0.26952809 -0.00000007
-0.02897891 0.39880684 -0.00000415
-0.62428731 -0.69057977 -0.02541276
-0.41655070 -0.36316624 -0.00000197
-0.15364645 0.36906704 -0.00000090
-0.21026687 0.29343727 -0.00162180
-0.48979771 -0.44237694 -0.00000251
-0.14077601 -0.68991786 -0.00000071
-0.13004889 0.45953763 -0.00000003
-0.63907397 -0.68474251 -0.08916500
-0.23331703 -0.05678082 -0.00000048
-0.17649862 -0.45358354 -0.00000063
-0.07505893 -0.50132436 -0.00000008
-0.41508928 -0.07101045 -0.20120367
-0.11578465 -0.01626237 0.00000028
-0.01001355 0.49116626 -0.00000310
-0.22993477 -0.65372819 -0.00000120
-0.27858207 0.11827081 -0.00000152
-0.48663908 -0.30828363 -0.10214176
-0.58087790 -0.49600762 -0.16320764
-0.29513437 0.21018285 -0.18831255
-0.15094748 0.51472628 -0.12146941
-0.10263642 0.47493315 -0.00000059
-0.04500703 0.27812305 -0.00000577
-0.33385083 0.03117398 -0.05701614
-0.52190977 -0.68306714 -0.00000300
-0.31268305 0.16044760 -0.17700090
-0.44162208 -0.77892965 -0.00000264
-0.54772353 -0.78213882 -0.00000328
-0.28811651 0.23370816 -0.19841689
-0.62339121 -0.58121777 -0.18995333
-0.50192207 -0.28659210 -0.19206753
-0.01665047 -0.74560046 -0.00000003
-0.62583166 -0.77796102 -0.00000375
-0.28999302 0.22648299 -0.19428040
-0.34639362 0.04003420 -0.11709318
-0.25403216 0.05934454 -0.00000330
-0.06201385 0.68366319 -0.05122594
-0.47765306 -0.16240574 -0.29275218
-0.43073389 -0.19095919 -0.07506554
-0.21296857 -0.17135996 -0.00000050
-0.62620324 -0.66648346 -0.06949782
-0.60596311 -0.49767643 -0.25360098
-0.03843190 -0.52833980 0.00000011
-0.51247692 -0.72878641 -0.00000300
-0.53745550 -0.58874732 -0.00000298
-0.47175026 -0.10185094 -0.36382496
-0.14321290 -0.63379472 -0.00000066
-0.20803155 -0.54466045 -0.00000094
-0.10414984 0.11176708 -0.00000690
-0.27475172 -0.65382481 -0.00000148
-0.01627318 0.09681393 -0.00000981
-0.41753060 -0.16177584 -0.07093402
-0.00573291 -0.08366687 0.00000094
-0.08533742 0.62105882 -0.04156025
-0.40777588 -0.25821579 -0.00000178
-0.59421188 -0.60348761 -0.04764559
-0.07849001 0.08554462 -0.00000813
-0.23159549 0.17139876 -0.00000201
-0.29225072 0.10921698 -0.02265441
-0.63149107 -0.62732691 -0.14919420
-0.23868904 0.30358469 -0.12251595
-0.56821591 -0.50664550 -0.09996009
-0.53495407 -0.31760168 -0.26687163
-0.22162050 -0.23091348 -0.00000063
-0.50832111 -0.20750549 -0.33716965
-0.36309513 -0.04295721 -0.05159735
-0.57439715 -0.66455072 -0.00000330
-0.30587471 -0.22751512 -0.00000113
-0.12999494 -0.70720422 -0.00000067
-0.36503464 -0.10813447 -0.00000134
-0.06300357 0.09985181 -0.00000835
-0.23867068 -0.43957505 -0.00000099
-0.45982572 -0.15602332 -0.23648900
-0.03706569 0.22332907 -0.00000697
-0.24823917 -0.61918277 -0.00000127
-0.05867182 -0.73378879 -0.00000027
-0.15945479 0.42261818 -0.01161671
-0.08302248 -0.17227653 0.00000028
-0.09216116 0.36963397 -0.00000275
-0.35436890 0.13409460 -0.29101938
-0.13399248 -0.04504248 0.00000013
-0.15022229 -0.17800958 -0.00000013
-0.22912651 0.31363085 -0.10250171
-0.27275795 -0.28044006 -0.00000100
-0.32522029 0.16573919 -0.23157994
-0.28050402 -0.72096938 -0.00000159
-0.35555777 -0.01914602 -0.06021537
-0.54481745 -0.46363199 -0.07927833
-0.35239920 -0.04269184 -0.01237059
-0.58804405 -0.44930571 -0.26144558
-0.23246324 0.36260355 -0.19003412
-0.07225734 0.64447033 -0.02902612
-0.42978904 -0.19147442 -0.07077352
-0.25288045 -0.51989353 -0.00000118
-0.36779204 -0.35086063 -0.00000166
-0.27997831 0.08438812 -0.00000207
-0.22168709 0.35165375 -0.13329627
-0.20759863 -0.51047212 -0.00000089
-0.48039010 -0.12282188 -0.36365169
-0.20688611 0.23627941 -0.00000162
-0.21085930 -0.06637570 -0.00000036
-0.62055469 -0.66764754 -0.04678016
-0.11374423 0.22423933 -0.00000464
-0.66900843 -0.78792489 -0.04171305
-0.37263507 -0.01937221 -0.12314841
-0.42612433 -0.44415590 -0.00000213
-0.00305610 -0.34367526 0.00000059
-0.00192189 -0.17690518 0.00000079
-0.16170967 -0.53294611 -0.00000064
-0.41167751 -0.17399742 -0.03048632
-0.26978740 -0.64041686 -0.00000143
-0.01399211 0.28342402 -0.00000662
-0.40942320 -0.03119044 -0.24132769
-0.05186783 0.14299092 -0.00000793
-0.05818945 -0.45220187 0.00000008
-0.37879169 -0.73713750 -0.00000221
-0.37199822 -0.00656051 -0.14045322
-0.69909346 -0.79695588 -0.13933389
-0.28221580 -0.71673775 -0.00000160
-0.34730303 0.15194587 -0.29223645
-0.06401197 -0.12185849 0.00000046
-0.08255257 0.08205287 -0.00000807
-0.41101128 -0.68479365 -0.00000234
-0.11887720 0.44951266 -0.00000055
-0.11876486 -0.26064929 -0.00000004
-0.55728292 -0.42036119 -0.19188581
-0.30473694 0.22306708 -0.24367122
-0.31887946 0.15595886 -0.19307201
-0.54659003 -0.31304470 -0.31698361
-0.18715861 0.39668724 -0.07447232
-0.12307604 -0.54126930 -0.00000042
-0.66622800 -0.80842507 0.08170716
-0.08046231 -0.63747066 -0.00000028
-0.41475347 -0.78484762 -0.00000248
-0.33195952 -0.75262338 -0.00000194
-0.15979373 -0.10974553 -0.00000010
-0.31036523 -0.30792719 -0.00000126
-0.35733208 -0.05376979 -0.01364599
-0.27025014 0.19815715 -0.07764536
-0.58374804 -0.42812696 -0.27803388
-0.54951364 -0.46348000 -0.09691349
-0.22336817 0.31582519 -0.08453219
-0.52393895 -0.39495510 -0.10732506
-0.55179733 -0.38477728 -0.22617660
-0.59246331 -0.46237180 -0.25776601
-0.14062157 -0.04890374 0.00000009
-0.53457886 -0.41506514 -0.11588431
-0.50242442 -0.20080027 -0.32561117
-0.23316091 -0.30993563 -0.00000079
-0.08444721 0.25918579 -0.00000492
-0.30347878 -0.25106874 -0.00000115
-0.55246365 -0.44880223 -0.13037369
-0.32005978 -0.02639453 -0.00000096
-0.46227297 -0.18527605 -0.20065726
-0.45677793 -0.15371776 -0.22873425
-0.44322175 -0.40621167 -0.00000218
-0.18607368 0.13467757 -0.00000403
-0.50019914 -0.32280102 -0.13010608
-0.43546942 -0.01676574 -0.35998306
-0.14002921 0.08300415 -0.00000632
-0.48415822 -0.16710410 -0.30964568
-0.04841986 0.70586836 -0.03493587
-0.55142951 -0.49493593 -0.05573090
-0.15920673 -0.41687974 -0.00000048
-0.12264288 0.55451280 -0.07765472
-0.42595357 -0.07001456 -0.24299009
-0.43458831 -0.09296775 -0.23975547
-0.41679943 -0.25116715 -0.00000183
-0.10162330 0.57152665 -0.02588085
-0.11839878 -0.75478083 -0.00000066
-0.43111047 -0.20785503 -0.05052746
-0.14365809 0.28711924 -0.00000264
-0.38973704 -0.11595574 -0.03827388
-0.27135789 0.21227193 -0.10341491
-0.54077089 -0.33246809 -0.26560739
-0.59816831 -0.46611786 -0.27315667
-0.12320155 0.20384048 -0.00000471
-0.33999091 0.12740338 -0.22747102
-0.64811707 -0.68822181 -0.11733458
-0.64898324 -0.63781345 -0.19791687
-0.54537994 -0.30903059 -0.31866094
-0.04216287 -0.51169956 0.00000011
-0.05541395 0.61177236 0.00000038
-0.15528671 0.21241385 -0.00000360
-0.00524219 -0.68805146 0.00000018
-0.55013001 -0.44890320 -0.12157135
-0.61195403 -0.63830894 -0.05994223
-0.28984338 0.14292884 -0.06547838
-0.47972107 -0.12839051 -0.35262534
-0.35299459 0.01205524 -0.09860831
-0.20112886 0.33595833 -0.03302634
-0.58169633 -0.66468930 -0.00000334
-0.47638828 -0.42026377 -0.00000240
-0.54740602 -0.56785911 -0.00000301
-0.11424983 -0.46493021 -0.00000027
-0.32131729 0.06180057 -0.05758161
-0.38877630 -0.29588467 -0.00000172
-0.55993694 -0.37641668 -0.26917097
-0.63115036 -0.60143179 -0.18767853
-0.06110698 0.53373766 -0.00000082
-0.24469964 0.29733768 -0.13519986
-0.15714279 -0.75617152 -0.00000089
-0.53181928 -0.35484958 -0.19808367
-0.41135141 0.00607646 -0.30567387
-0.48812988 -0.66762829 -0.00000278
-0.01204821 0.11330185 -0.00000965
-0.01783021 -0.59815353 0.00000014
-0.27092069 0.03173619 -0.00000327
-0.19889569 -0.30791149 -0.00000059
-0.04957606 0.39493701 -0.00000359
-0.16396637 0.19049080 -0.00000372
-0.48610616 -0.46017286 -0.00000251
-0.10888764 0.57170922 -0.05307925
