ply
format ascii 1.0
element vertex 1139
property float x
property float y
property float z
end_header
-0.31564128 -0.44866765 0.00000326
-0.34583846 0.39823061 0.11824721
-0.37831739 0.15834679 0.07416950
-0.11214206 0.39692712 0.00000634
-0.18613470 -0.29793870 0.00000266
-0.69988853 -0.65290737 0.06464077
-0.36842561 -0.69855046 0.00000303
-0.03088689 0.31658047 0.00000837
-0.28545374 -0.13159594 0.00000382
-0.59394950 -0.24142124 0.10714950
-0.24198408 0.07490136 0.00000760
-0.68071359 -0.68107009 0.04431617
-0.74577767 -0.77514195 0.06151640
-0.63995796 -0.01648223 0.19887277
-0.51483679 -0.36517861 0.02122977
-0.55691838 -0.28122023 0.07188103
-0.19481048 -0.54824263 0.00000210
-0.01345750 0.71064699 0.00000469
-0.23449914 0.02787591 0.00000818
-0.01366005 -0.70510083 0.00000034
-0.07296771 0.16642162 0.00000923
-0.44022161 0.05002285 0.08539611
-0.69786376 -0.22336322 0.18056075
-0.14175761 -0.54936254 0.00000170
-0.20866583 0.50769407 0.05772815
-0.11217252 0.17098553 0.00000860
-0.58238864 -0.14725423 0.12523580
-0.18981500 0.38170075 0.01091204
-0.59794515 -0.32352477 0.08737056
-0.67610592 -0.16337276 0.18259770
-0.41679180 -0.62134850 0.00000359
-0.38830781 -0.43022874 0.00000385
-0.47562292 -0.75610197 0.00000370
-0.48593900 0.08485659 0.12503365
-0.56096703 -0.55636817 0.00000484
-0.05862768 0.50615853 0.00000605
-0.50138265 -0.34683561 0.01737037
-0.03844041 -0.02650171 0.00000222
-0.36113256 -0.40765256 0.00000371
-0.66919243 -0.23106135 0.15956429
-0.50523442 -0.48596147 0.00000460
-0.14773141 -0.51524669 0.00000183
-0.26621363 0.19384678 0.00998114
-0.19606233 -0.33285034 0.00000265
-0.47250921 -0.18492563 0.04253941
-0.27456725 0.14743717 0.00281772
-0.73663640 -0.55489409 0.11561390
-0.28988335 -0.26178381 0.00000353
-0.59317672 -0.68526316 0.00000476
-0.69190305 -0.13388044 0.20105904
-0.45291293 -0.76312339 0.00000351
-0.57414651 -0.71119440 0.00000455
-0.45621064 0.01659494 0.08680827
-0.07578596 0.62187922 0.00132689
-0.40010974 0.16246137 0.08965433
-0.22596377 -0.11674389 0.00000341
-0.05214920 0.38900837 0.00000732
-0.36350447 -0.27469343 0.00000406
-0.65937716 -0.31875947 0.12915643
-0.41038471 -0.36209145 0.00000419
-0.57936603 -0.23426531 0.09949202
-0.15067804 0.09132429 0.00000881
-0.57740319 -0.10317950 0.13398159
-0.29677251 -0.25615373 0.00000360
-0.28961456 0.36980903 0.07343611
-0.50067222 -0.12185647 0.07831575
-0.69263971 -0.48635519 0.10532790
-0.57464665 -0.09122834 0.13542733
-0.46437901 -0.41869900 0.00000446
-0.04436391 -0.32761991 0.00000152
-0.08239535 -0.78475916 0.00000066
-0.64489120 -0.68115288 0.02068569
-0.19221058 -0.66799319 0.00000178
-0.26574773 0.40607274 0.06760637
-0.41925433 -0.41533589 0.00000412
-0.11563443 0.64763719 0.03461922
-0.05506161 -0.06029077 0.00000226
-0.23142108 -0.20184223 0.00000324
-0.60202938 -0.66581053 0.00000488
-0.32229716 -0.02704234 0.00000436
-0.22372609 0.14738895 0.00000715
-0.56180358 -0.11294146 0.12103630
-0.01135464 -0.09655127 0.00000176
-0.13338788 -0.35552391 0.00000212
-0.45993057 -0.50878739 0.00000420
-0.06926939 -0.75885218 0.00000063
-0.66253048 -0.49395677 0.08341016
-0.52847862 -0.03410179 0.12059561
-0.03353803 -0.57355171 0.00000082
-0.27150753 0.40793130 0.07190956
-0.63066810 0.06775329 0.21574469
-0.62352854 0.02016685 0.19804965
-0.38726854 0.16205667 0.08108120
-0.44176283 -0.03009418 0.06454190
-0.05341751 -0.47010162 0.00000123
-0.00050007 -0.38640893 0.00000103
-0.22467059 -0.27770108 0.00000300
-0.56640410 -0.00497314 0.15354076
-0.13187744 -0.17492947 0.00000256
-0.45510915 -0.04645084 0.06887248
-0.38018540 -0.00119419 0.03184993
-0.16988797 -0.76483548 0.00000137
-0.40990466 -0.39943677 0.00000409
-0.09667871 -0.30088308 0.00000198
-0.23605579 -0.46485007 0.00000262
-0.55752581 -0.64887309 0.00000458
-0.48206893 -0.45718300 0.00000449
-0.43936783 0.14099765 0.10966726
-0.33470371 -0.39211318 0.00000354
-0.42581469 -0.34134707 0.00000436
-0.68812269 -0.46970937 0.10689491
-0.56076407 -0.57125270 0.00000480
-0.52716923 -0.40143448 0.01946023
-0.38967949 -0.06786609 0.01990701
-0.45307094 0.03648134 0.09016762
-0.02538500 -0.26466072 0.00000153
-0.65862381 -0.48979148 0.08197259
-0.28061882 -0.28548276 0.00000340
-0.51651728 -0.40570697 0.01127406
-0.10662976 -0.54868340 0.00000143
-0.00805996 0.52699751 0.00000661
-0.28955165 -0.51693636 0.00000289
-0.42150962 -0.72293746 0.00000337
-0.10254483 -0.67540103 0.00000109
-0.41991121 -0.31104934 0.00000439
-0.01701056 -0.75576860 0.00000024
-0.48472926 0.18766262 0.15229982
-0.31532937 -0.51110286 0.00000310
-0.60589439 -0.00840497 0.17862897
-0.22471373 -0.12638973 0.00000338
-0.05788639 0.40527529 0.00000707
-0.19971220 -0.73098993 0.00000168
-0.00949871 -0.10104793 0.00000182
-0.60638523 -0.27514157 0.10614012
-0.73352152 -0.68389279 0.07834784
-0.34434971 -0.67100006 0.00000292
-0.11216312 -0.77192956 0.00000092
-0.38909560 -0.57575667 0.00000350
-0.49696800 -0.01290299 0.10561613
-0.49781081 -0.09469987 0.08384309
-0.12177598 0.60932791 0.02820918
-0.07524238 0.38162065 0.00000705
-0.12799333 0.47157723 0.00000535
-0.00341647 -0.60273135 0.00000049
-0.65627325 -0.14201489 0.17535768
-0.11974278 -0.08094019 0.00000270
-0.22469935 -0.45836484 0.00000255
-0.52562237 0.10002394 0.15532619
-0.17925648 -0.36375079 0.00000244
-0.08693577 0.05887327 0.00001010
-0.24999128 -0.70818067 0.00000212
-0.51415545 -0.75620222 0.00000399
-0.27451614 -0.38734794 0.00000310
-0.08981876 0.44323710 0.00000621
-0.00655658 -0.04749085 0.00000188
-0.36656457 -0.48138103 0.00000356
-0.68172574 -0.09833379 0.20405529
-0.32280403 -0.59591329 0.00000295
-0.27830422 -0.57361066 0.00000267
-0.75470227 -0.78459162 0.06481850
-0.50769144 -0.28135237 0.03940326
-0.02917652 -0.32844245 0.00000140
-0.44190717 0.19417574 0.12585700
-0.11980627 0.09565209 0.00000924
-0.12773496 -0.66910917 0.00000129
-0.28306830 -0.49462050 0.00000290
-0.16759808 -0.43581122 0.00000217
-0.60537153 -0.43793935 0.06103243
-0.62426633 -0.01096736 0.19003701
-0.14868973 0.60137641 0.04377541
-0.36544633 -0.18822855 0.00000429
-0.56306046 -0.59961045 0.00000475
-0.61382294 -0.21957719 0.12620942
-0.09722657 -0.15170681 0.00000235
-0.17885023 -0.68643957 0.00000163
-0.40707994 -0.16355892 0.00525259
-0.40760884 -0.67290562 0.00000339
-0.27285323 -0.45617962 0.00000292
-0.26810354 -0.74657291 0.00000216
-0.40790182 -0.22903275 0.00000450
-0.03877823 -0.58287394 0.00000084
-0.46371639 0.26308033 0.15903898
-0.07281251 0.65818298 0.00927733
-0.48385009 0.22054464 0.16069639
-0.50810122 0.12301300 0.15005478
-0.30349928 -0.62830478 0.00000272
-0.26890633 -0.07837541 0.00000383
-0.63258642 0.06744878 0.21692576
-0.43091211 -0.07275780 0.04574495
-0.15759780 0.31597733 0.00000646
-0.05671042 -0.25513136 0.00000179
-0.29188469 -0.68725419 0.00000248
-0.28221324 0.24652745 0.03490573
-0.39277503 -0.75446403 0.00000308
-0.34065354 -0.32026386 0.00000377
-0.06796093 0.12214983 0.00000975
-0.55040425 -0.24892133 0.07640485
-0.47790861 0.06204161 0.11351351
-0.31380039 -0.23547690 0.00000378
-0.53701353 -0.64549339 0.00000444
-0.58770525 -0.74014950 0.00000458
-0.54968584 -0.13677818 0.10654361
-0.41149756 -0.07050133 0.03356626
-0.23861665 0.01846399 0.00000821
-0.48854110 -0.76234722 0.00000378
-0.17012288 0.31948686 0.00000624
-0.03440776 -0.14408810 0.00000190
-0.47846994 0.00789128 0.09910178
-0.35330620 -0.55852234 0.00000327
-0.56950408 -0.73472863 0.00000446
-0.51360005 -0.04251149 0.10849468
-0.65696180 -0.29314658 0.13455634
-0.28670740 -0.49773449 0.00000292
-0.49681452 0.10418335 0.13747656
-0.18314327 0.14879398 0.00000775
-0.31720322 -0.63470542 0.00000281
-0.21106625 -0.23041742 0.00000302
-0.53957218 -0.74399579 0.00000421
-0.72015280 -0.40553790 0.14552094
-0.54824799 -0.70552933 0.00000437
-0.19568311 0.38854566 0.01664774
-0.54228663 -0.22034742 0.07885509
-0.21892975 -0.02785547 0.00000358
-0.16373911 -0.46708477 0.00000207
-0.24909075 -0.24177682 0.00000327
-0.09958850 0.05288865 0.00000997
-0.37278551 0.18225273 0.07704957
-0.62396264 -0.07342522 0.17278750
-0.74331260 -0.37393233 0.16941150
-0.61039865 -0.06590849 0.16590039
-0.65882671 -0.63655531 0.04204351
-0.18766862 0.49739134 0.04107812
-0.40630254 -0.57036728 0.00000364
-0.12802131 -0.32220516 0.00000216
-0.62426257 -0.18223780 0.14328206
-0.08709140 0.69500673 0.02873928
-0.19646926 -0.54532182 0.00000212
-0.45280755 -0.24891469 0.01208819
-0.67836058 -0.31654495 0.14227149
-0.53047276 -0.03674352 0.12118868
-0.57032216 -0.12709296 0.12278725
-0.51416808 -0.75924683 0.00000398
-0.26252058 -0.24306105 0.00000337
-0.16740330 0.50816673 0.03066421
-0.53043276 -0.44620585 0.00938952
-0.17815077 -0.48280782 0.00000214
-0.00641545 -0.36060363 0.00000110
-0.34948328 0.18834929 0.06335706
-0.12309643 -0.40154314 0.00000192
-0.36348379 -0.60979986 0.00000322
-0.59152204 0.03696562 0.18154225
-0.37785333 -0.12684318 0.00000453
-0.31568980 0.11702780 0.02161744
-0.67227650 -0.09459205 0.19884942
-0.16611680 -0.04493801 0.00000314
-0.13489100 0.39427400 0.00000602
-0.26762602 0.36745986 0.05830388
-0.42952582 -0.37374350 0.00000431
-0.71923870 -0.33184272 0.16503537
-0.23089068 0.49090454 0.06779171
-0.30558473 -0.58184260 0.00000285
-0.25178462 0.36369050 0.04683510
-0.28370911 0.33959064 0.06129543
-0.11213212 -0.09266578 0.00000261
-0.16304301 0.39478669 0.00000559
-0.60153407 -0.23022962 0.11520294
-0.32637417 -0.44471860 0.00000335
-0.48244256 -0.74019051 0.00000379
-0.48681968 -0.17714882 0.05409321
-0.29455018 0.33481997 0.06713767
-0.49295774 0.15321130 0.14831825
-0.67646432 -0.76664734 0.01815541
-0.46520320 -0.08639897 0.06461987
-0.08911207 0.07801228 0.00000988
-0.56349164 0.06181340 0.16985239
-0.55717373 -0.55967516 0.00000480
-0.43877092 -0.45958632 0.00000416
-0.25854287 -0.79689437 0.00000196
-0.29001617 0.44651884 0.09464060
-0.68698025 -0.02103512 0.22861867
-0.45603743 0.15799613 0.12529306
-0.17586476 -0.23641311 0.00000274
-0.06117580 -0.67263657 0.00000078
-0.20068263 0.01050277 0.00000887
-0.63084447 -0.68273377 0.01099703
-0.39738384 0.32442492 0.13206983
-0.03918394 0.25569788 0.00000885
-0.69785434 -0.46333471 0.11504853
-0.36623663 -0.75074935 0.00000289
-0.68751073 -0.15861858 0.19141151
-0.32293138 0.42247707 0.10976969
-0.00092567 0.20775791 0.00000991
-0.19442879 0.41855675 0.02401338
-0.17928797 -0.65557551 0.00000171
-0.60142571 -0.11914656 0.14545438
-0.25879034 -0.07686564 0.00000376
-0.63724923 -0.08362871 0.17875835
-0.22092353 0.36711004 0.02743038
-0.21575080 0.20063271 0.00000674
-0.01098410 -0.22173534 0.00000145
-0.09109515 -0.40122932 0.00000168
-0.31345791 0.25090605 0.05669192
-0.70886070 -0.36741817 0.14848474
-0.36045316 -0.10569965 0.00000446
-0.19025698 0.36271772 0.00602143
-0.19950552 0.28108624 0.00000618
-0.27026257 -0.37030053 0.00000311
-0.45978314 -0.34187108 0.00000461
-0.30526039 -0.46362391 0.00000314
-0.30607590 -0.68970281 0.00000258
-0.00803040 -0.18542372 0.00000160
-0.52322781 -0.32748842 0.03704812
-0.64836276 -0.01936150 0.20362572
-0.00078561 0.51899767 0.00000680
-0.76074731 -0.68860191 0.09500507
-0.33604056 -0.45778152 0.00000339
-0.08193398 -0.72530943 0.00000080
-0.65003568 -0.10752674 0.18066137
-0.26161140 -0.34165567 0.00000312
-0.62617874 -0.32736653 0.10492842
-0.15613815 -0.40408865 0.00000217
-0.15856926 -0.36418623 0.00000229
-0.32200709 -0.17108265 0.00000400
-0.27377778 0.34041288 0.05497490
-0.34644848 -0.29473513 0.00000388
-0.70191985 -0.06429217 0.22665615
-0.39762396 0.29143277 0.12322206
-0.45497939 -0.64548820 0.00000382
-0.23982319 0.51965708 0.08152704
-0.18425284 0.58562392 0.06291222
-0.27393135 -0.76355290 0.00000216
-0.34528053 0.25061232 0.07758359
-0.02455604 -0.76593143 0.00000027
-0.73107404 -0.47845575 0.13281377
-0.66232711 -0.74723089 0.01413872
-0.69521117 -0.67614663 0.05521450
-0.10732153 -0.57518709 0.00000137
-0.72480285 -0.14464916 0.21980126
-0.00920396 -0.63406247 0.00000041
-0.36307678 -0.37781879 0.00000379
-0.39870149 0.17980120 0.09345959
-0.10352742 0.57191139 0.00596922
-0.28515124 -0.15814991 0.00000376
-0.42659056 0.08130414 0.08495194
-0.50783736 -0.58876848 0.00000436
-0.66147399 -0.48690873 0.08463783
-0.20640028 0.43551427 0.03653183
-0.50820732 -0.39003289 0.01007622
-0.65787822 -0.34228903 0.12174564
-0.24565855 -0.74792147 0.00000198
-0.41619655 -0.08261733 0.03335564
-0.33247837 -0.48331249 0.00000330
-0.35835746 -0.42657396 0.00000364
-0.09837092 -0.70579320 0.00000098
-0.47251424 -0.55747640 0.00000417
-0.28550684 -0.33838272 0.00000331
-0.71798718 -0.24223223 0.18867189
-0.60725343 -0.12618551 0.14737353
-0.16978317 0.43720806 0.01286268
-0.45301703 -0.10953639 0.05027298
-0.55325168 -0.70760566 0.00000440
-0.68332237 -0.69208527 0.04302857
-0.07112390 -0.10573112 0.00000227
-0.53311354 0.09873252 0.15991051
-0.72001392 -0.42736021 0.13947250
-0.69086158 -0.76181191 0.02896361
-0.12056045 -0.02303875 0.00000285
-0.42034951 -0.09564121 0.03253736
-0.19535241 0.01241357 0.00000893
-0.33412939 -0.41355237 0.00000349
-0.00275942 -0.25420642 0.00000136
-0.63638443 -0.17772743 0.15250187
-0.61427194 -0.36728483 0.08618487
-0.15908611 -0.50582165 0.00000194
-0.50309914 -0.39587083 0.00511623
-0.60148859 -0.45951670 0.05258340
-0.36006501 0.30545506 0.10229757
-0.50491899 -0.53334361 0.00000448
-0.17571747 -0.72940707 0.00000150
-0.01561159 -0.58626831 0.00000065
-0.67817765 -0.55966932 0.07578416
-0.36713663 0.36680940 0.12370609
-0.47026876 -0.25555003 0.02178425
-0.63104409 -0.57422364 0.04074907
-0.67239398 -0.07123018 0.20530401
-0.16441870 -0.51720732 0.00000195
-0.54913896 -0.51879758 0.00190166
-0.44144675 -0.56578523 0.00000392
-0.68243319 -0.40993708 0.11946172
-0.69997519 -0.43228644 0.12492158
-0.47392431 0.15469287 0.13617922
-0.10423459 -0.70432419 0.00000103
-0.50924069 0.17034686 0.16372664
-0.46649972 -0.57760870 0.00000408
-0.37319949 -0.74599445 0.00000295
-0.68252325 -0.50292736 0.09413713
-0.75493360 -0.50538981 0.14118572
-0.70236427 -0.35832483 0.14668563
-0.43306747 -0.72016561 0.00000347
-0.59737271 -0.09900154 0.14828244
-0.51020408 -0.79406750 0.00000386
-0.35062930 -0.70140183 0.00000289
-0.73105466 -0.40761894 0.15213756
-0.74190396 -0.44030231 0.15036590
-0.43165427 -0.68726695 0.00000354
-0.55253464 -0.51110101 0.00624042
-0.72520524 -0.44655409 0.13765436
-0.35674194 0.17833731 0.06540767
-0.74400383 -0.77800101 0.05956695
-0.44542173 -0.57098961 0.00000393
-0.31920463 -0.18123609 0.00000396
-0.74533373 -0.37117308 0.17149673
-0.61396664 -0.76152778 0.00000473
-0.27861208 0.15299791 0.00700130
-0.10982707 0.67263418 0.03761558
-0.57766163 0.10214589 0.19020049
-0.48177820 0.16916345 0.14530520
-0.63091654 -0.36463928 0.09787622
-0.30280504 -0.36989799 0.00000336
-0.63429916 -0.21790357 0.14016058
-0.31772858 -0.17617141 0.00000396
-0.05077958 0.08642007 0.00001037
-0.00754216 0.37241372 0.00000816
-0.51300198 -0.58549201 0.00000441
-0.31849313 0.23391087 0.05537100
-0.72758090 -0.40008652 0.15190440
-0.08588081 -0.28873411 0.00000193
-0.46318784 -0.37742433 0.00000455
-0.04940267 -0.31276092 0.00000159
-0.10613649 0.15668999 0.00000883
-0.63410789 -0.07899037 0.17795429
-0.68230945 -0.54929507 0.08133900
-0.16051497 -0.75733668 0.00000132
-0.03571652 -0.64162821 0.00000067
-0.44243988 0.17399430 0.12069904
-0.31821382 -0.18255277 0.00000394
-0.15520962 -0.78161061 0.00000122
-0.48281327 -0.26161876 0.02839476
-0.32016024 -0.27879280 0.00000372
-0.53039122 -0.36098215 0.03262605
-0.35680756 -0.13211460 0.00000436
-0.15986925 -0.65760249 0.00000156
-0.55892140 -0.47011724 0.02163697
-0.43709332 -0.21239950 0.01169986
-0.50970143 -0.28875592 0.03870690
-0.53294623 -0.25411728 0.06348123
-0.00973557 0.34312403 0.00000842
-0.42335308 -0.08056529 0.03863213
-0.70022839 -0.40136024 0.13353051
-0.66405475 0.00595585 0.22087809
-0.38482925 -0.57926732 0.00000346
-0.56966424 -0.51007855 0.01780833
-0.40350613 0.33770677 0.13973016
-0.10564047 0.52699727 0.00000514
-0.54919684 -0.41857362 0.02929835
-0.39242476 -0.12227911 0.00686284
-0.02576055 0.13501117 0.00001026
-0.22094071 0.46305153 0.05363129
-0.68439233 -0.64233333 0.05731468
-0.29417238 -0.63648027 0.00000263
-0.18764257 -0.13005032 0.00000309
-0.49134153 -0.09597148 0.07923257
-0.72469807 -0.45954275 0.13377452
-0.63014328 -0.60925657 0.03059233
-0.44455460 0.12672949 0.10919062
-0.55160570 -0.09375135 0.11955407
-0.37212476 -0.79328895 0.00000282
-0.19921184 -0.61078393 0.00000198
-0.47616807 -0.08463788 0.07232668
-0.35816613 -0.09831808 0.00000446
-0.64496076 -0.36571530 0.10683797
-0.15323903 0.18522963 0.00000784
-0.19737473 0.18998060 0.00000712
-0.33894983 0.03954968 0.01579677
-0.45678586 -0.79469907 0.00000346
-0.42880598 -0.75282437 0.00000335
-0.73941886 -0.26029095 0.19786653
-0.37762651 0.11517144 0.06192840
-0.11545958 -0.44276667 0.00000176
-0.29577288 0.45312953 0.10023895
-0.58870786 -0.40902048 0.05794479
-0.03398565 0.43605679 0.00000713
-0.60234427 -0.11768516 0.14645866
-0.40346760 -0.49361661 0.00000381
-0.33315727 -0.00550773 0.00000450
-0.64458251 -0.63296688 0.03363579
-0.59884745 0.09596057 0.20247401
-0.23191251 -0.13174666 0.00000342
-0.73306572 -0.55466092 0.11332435
-0.19591264 -0.35700586 0.00000259
-0.54467744 -0.42109337 0.02563213
-0.00365540 0.76384181 0.00000431
-0.48897082 -0.09974367 0.07664050
-0.01310329 0.26138610 0.00000919
-0.71346438 -0.69124663 0.06312207
-0.42514101 -0.30440623 0.00000445
-0.38395709 -0.31052932 0.00000412
-0.57630461 -0.34360906 0.06762641
-0.37972090 0.21928523 0.09172907
-0.03518217 -0.09680172 0.00000202
-0.54221517 -0.47197890 0.01011899
-0.27884802 -0.64462477 0.00000249
-0.15482949 -0.14245854 0.00000281
-0.66865456 -0.65601265 0.04320892
-0.52418453 0.01136142 0.13017602
-0.08303798 0.38568890 0.00000689
-0.16570932 -0.36707327 0.00000233
-0.11394862 0.49737391 0.00000531
-0.15245441 0.33942884 0.00000631
-0.50427777 -0.24286745 0.04765899
-0.34548444 -0.77000129 0.00000268
-0.53080982 -0.15119918 0.09016731
-0.64314073 -0.59377515 0.04338398
-0.24366914 -0.50002915 0.00000259
-0.71194082 -0.49164689 0.11660352
-0.51164633 -0.07588435 0.09809718
-0.07584999 0.06428139 0.00001021
-0.45038217 -0.74639088 0.00000353
-0.41711292 0.02326325 0.06286225
-0.57419795 -0.00862753 0.15767953
-0.55685252 -0.54724073 0.00000483
-0.47598642 -0.19018196 0.04339613
-0.11227867 -0.56740278 0.00000143
-0.43193933 -0.66261810 0.00000360
-0.70124578 -0.36513603 0.14408925
-0.14116818 0.58443427 0.03419376
-0.57145542 -0.03373006 0.14901979
-0.39468181 0.31729734 0.12834346
-0.16952479 0.34745106 0.00000597
-0.16415367 -0.33541125 0.00000240
-0.30192530 -0.05254081 0.00000415
-0.75702143 -0.64784372 0.10367552
-0.23671924 0.49709487 0.07332267
-0.38213715 -0.55309689 0.00000350
-0.49459243 -0.39482382 0.00000474
-0.41178033 0.22568592 0.11460420
-0.19104080 -0.43571323 0.00000235
-0.27439705 0.39778879 0.07104518
-0.16643973 0.02190290 0.00000927
-0.16402721 0.60329580 0.05440712
-0.07886140 -0.53018284 0.00000127
-0.48768297 -0.29883561 0.02144475
-0.45513996 -0.03456440 0.07213748
-0.35143912 -0.22630677 0.00000409
-0.34998226 -0.64113635 0.00000304
-0.74313176 -0.61009485 0.10482620
-0.72633624 -0.43370613 0.14190686
-0.09578365 0.62031835 0.01407976
-0.03076661 -0.36836058 0.00000131
-0.29200920 -0.67941374 0.00000250
-0.06379821 0.61829716 0.00000485
-0.59645474 -0.11816032 0.14244761
-0.74824142 -0.41303101 0.16198689
-0.13168012 0.25129983 0.00000750
-0.14113556 -0.44553164 0.00000195
-0.14979327 0.02630502 0.00000948
-0.06222389 -0.66812879 0.00000080
-0.49714449 -0.42288971 0.00000469
-0.22334826 -0.55376035 0.00000230
-0.01508401 -0.38138470 0.00000116
-0.52611458 -0.17484467 0.08061844
-0.03288722 0.55495495 0.00000595
-0.67983580 -0.63263720 0.05695854
-0.18647970 0.07880154 0.00000840
-0.63050985 -0.55392128 0.04593905
-0.35177538 0.32365221 0.10180188
-0.11757355 0.47250277 0.00000550
-0.05058762 0.49293628 0.00000631
-0.13312352 -0.28557673 0.00000229
-0.24394675 -0.57676876 0.00000240
-0.01962411 0.62620032 0.00000544
-0.71631193 -0.12291885 0.22013730
-0.34210148 -0.23313975 0.00000400
-0.48516169 0.07452761 0.12170182
-0.38320720 -0.74155599 0.00000304
-0.47497270 -0.73839992 0.00000374
-0.58308333 -0.59328151 0.00393953
-0.70505011 -0.08621504 0.22273469
-0.30419597 -0.12910052 0.00000397
-0.36063597 -0.15448934 0.00000433
-0.10490284 0.18627335 0.00000855
-0.16780800 0.20095868 0.00000746
-0.03347760 0.27151522 0.00000878
-0.31580618 -0.28598434 0.00000367
-0.34445074 0.17654167 0.05681733
-0.11837074 0.43402061 0.00000587
-0.71589702 -0.48406860 0.12127945
-0.44871074 0.20130634 0.13228717
-0.00878215 0.48437318 0.00000702
-0.53676099 -0.16913037 0.08919450
-0.01492663 -0.08008286 0.00000191
-0.25506261 0.07149112 0.00000744
-0.02358035 -0.73369336 0.00000034
-0.50588608 0.05358435 0.12964270
-0.14648274 0.48704550 0.01111152
-0.46740854 -0.18925191 0.03799699
-0.57580107 -0.25292078 0.09205017
-0.31861880 0.07505588 0.01209045
-0.09038808 -0.79298073 0.00000070
-0.43931076 -0.56760174 0.00000390
-0.33617562 -0.50328755 0.00000328
-0.14505258 0.47560981 0.00704736
-0.21891293 0.43218949 0.04387038
-0.35241395 0.25044876 0.08224003
-0.06979421 -0.24903665 0.00000190
-0.43831784 -0.01536448 0.06629240
-0.52592331 -0.02614781 0.12108284
-0.48234597 0.04670569 0.11225153
-0.48001266 0.04921306 0.11139826
-0.00434923 -0.19951113 0.00000153
-0.09203510 -0.79427850 0.00000071
-0.56423002 -0.79676902 0.00000426
-0.19021025 0.48115087 0.03831987
-0.40631559 -0.08830421 0.02529149
-0.34513277 -0.61133528 0.00000308
-0.46452826 0.13521899 0.12467112
-0.52448553 -0.51455724 0.00000467
-0.04466061 -0.50398606 0.00000108
-0.70584458 -0.65665197 0.06754382
-0.73746473 -0.49874148 0.13148797
-0.63448483 -0.00989262 0.19706461
-0.33272508 -0.10418800 0.00000425
-0.36590970 0.03008938 0.03098152
-0.04353659 0.26470047 0.00000870
-0.48594704 0.02567018 0.10888256
-0.48645994 -0.00271944 0.10147092
-0.62707400 -0.16301148 0.15038317
-0.08048907 0.50914794 0.00000569
-0.30932665 -0.03504467 0.00000425
-0.05301632 -0.73886973 0.00000055
-0.14963450 0.32458520 0.00000650
-0.72764438 -0.73026896 0.06181512
-0.17851719 -0.37911898 0.00000240
-0.41391355 -0.41698772 0.00000408
-0.06357518 -0.20358443 0.00000197
-0.73771900 -0.34984228 0.17230108
-0.66682416 -0.65230447 0.04301488
-0.58819759 -0.44093952 0.04889542
-0.33245015 -0.40790421 0.00000349
-0.31404459 0.14835012 0.02908341
-0.15980075 0.21027471 0.00000749
-0.34099802 0.22936049 0.06896010
-0.07830543 0.47522640 0.00000607
-0.44917408 -0.69811141 0.00000364
-0.41247183 -0.26908994 0.00000444
-0.54062027 -0.23502845 0.07374938
-0.20083967 -0.74291986 0.00000166
-0.03480703 -0.63489187 0.00000068
-0.33874452 -0.42700434 0.00000349
-0.07182246 -0.77920699 0.00000059
-0.42521587 -0.62012035 0.00000366
-0.04565138 0.69909799 0.00254628
-0.01071841 -0.41276434 0.00000097
-0.31384781 0.24206260 0.05453483
-0.11402374 0.63957357 0.03135659
-0.74023390 -0.35371119 0.17290241
-0.05340223 0.46125373 0.00000658
-0.06392007 0.06873279 0.00001035
-0.42253038 0.11499688 0.09147343
-0.37550259 -0.25169039 0.00000420
-0.44207644 -0.73410219 0.00000350
-0.10238245 0.40945107 0.00000636
-0.56520647 -0.40353721 0.04395364
-0.60962373 -0.05018913 0.16968067
-0.03771759 -0.33898246 0.00000144
-0.56541383 -0.36678007 0.05412405
-0.06959161 -0.05474902 0.00000239
-0.26537204 -0.21383759 0.00000347
-0.12326374 0.43175375 0.00000582
-0.58536184 -0.77478462 0.00000448
-0.54743105 -0.31485882 0.05644616
-0.53208369 0.02972899 0.14039561
-0.56239408 -0.32470343 0.06361983
-0.58978653 -0.26257291 0.09863212
-0.23900682 -0.20699729 0.00000329
-0.37296468 -0.22648413 0.00000425
-0.43449607 0.12733407 0.10272685
-0.43587384 0.00612888 0.07054890
-0.11974818 -0.50230503 0.00000165
-0.10517359 -0.69297779 0.00000106
-0.63383204 -0.51910365 0.05763277
-0.40294892 -0.10504391 0.01850328
-0.13084690 0.41924527 0.00000583
-0.61052239 0.04419794 0.19603819
-0.15352485 -0.70171613 0.00000140
-0.18657942 0.06269885 0.00000856
-0.44110364 -0.45942327 0.00000418
-0.76203173 -0.79493988 0.06682408
-0.52554280 0.09298519 0.15335234
-0.36273605 -0.30712044 0.00000397
-0.36449641 -0.55449468 0.00000336
-0.40177783 -0.24179646 0.00000443
-0.22652017 0.38896734 0.03708517
-0.03665946 0.75484496 0.01183790
-0.17853349 0.57784510 0.05701969
-0.75311357 -0.73581022 0.07708756
-0.71001655 -0.73099023 0.05000087
-0.29679623 -0.24805284 0.00000362
-0.46699107 -0.36373746 0.00000461
-0.25888908 0.45387021 0.07613386
-0.05083583 0.28189903 0.00000841
-0.72479475 -0.30702767 0.17547087
-0.25909361 -0.57821244 0.00000251
-0.70924908 -0.51903921 0.10735217
-0.48348299 -0.73716986 0.00000380
-0.16165230 0.10694345 0.00000849
-0.43401724 -0.51858366 0.00000398
-0.10137722 0.63755143 0.02247023
-0.12456846 0.18523934 0.00000827
-0.43780172 -0.50454617 0.00000404
-0.61940342 -0.63946390 0.01526868
-0.72304446 -0.11871344 0.22572216
-0.38430244 -0.38931105 0.00000393
-0.69978178 -0.64341635 0.06716121
-0.17510636 0.14795637 0.00000788
-0.08353493 -0.65672100 0.00000099
-0.00225723 -0.69177657 0.00000027
-0.49658579 -0.29815909 0.02749658
-0.03950955 -0.09604155 0.00000206
-0.47788775 -0.11214622 0.06595093
-0.67549145 -0.69191563 0.03791403
-0.74842668 -0.74928176 0.07032135
-0.30792922 -0.09268774 0.00000409
-0.49317351 0.10014632 0.13397506
-0.58893913 0.11094069 0.20003340
-0.44782013 -0.15988007 0.03310555
-0.07499943 -0.73590976 0.00000073
-0.36102346 -0.07664731 0.00000453
-0.62771595 -0.29254815 0.11544600
-0.30562973 -0.13616781 0.00000397
-0.12861350 0.50796884 0.00504682
-0.05397608 -0.00147999 0.00000240
-0.11712879 -0.45424312 0.00000175
-0.59578550 -0.52851874 0.02998916
-0.34535578 -0.35929579 0.00000371
-0.28482220 0.38497466 0.07441766
-0.22042540 -0.36582989 0.00000275
-0.09886300 0.10361395 0.00000947
-0.10691879 0.64900184 0.02924794
-0.18409334 -0.50291574 0.00000213
-0.16109560 -0.76503456 0.00000130
-0.08875561 -0.64273554 0.00000106
-0.51873982 -0.77946121 0.00000396
-0.04305003 -0.64655012 0.00000071
-0.03302978 -0.17977726 0.00000180
-0.72286409 -0.76022547 0.05048740
-0.16638649 0.12726638 0.00000822
-0.72689760 -0.78250545 0.04706378
-0.25034419 -0.40533286 0.00000288
-0.53764570 -0.39280424 0.02872030
-0.70211214 -0.05964628 0.22805110
-0.41085663 0.17486256 0.10012198
-0.40744060 0.27428442 0.12501037
-0.17343348 -0.04397753 0.00000320
-0.41427562 0.10746985 0.08397867
-0.18684722 -0.31396347 0.00000262
-0.63990742 -0.59605360 0.04063120
-0.74426728 -0.62639177 0.10112590
-0.43311614 -0.28779548 0.00000455
-0.59700030 -0.52760834 0.03103826
-0.75806409 -0.60546321 0.11593141
-0.37638670 -0.08491740 0.00649218
-0.10174321 -0.46624053 0.00000160
-0.45298278 -0.07055476 0.06089140
-0.06321738 -0.43282211 0.00000139
-0.05369882 0.04415646 0.00001075
-0.02128285 0.71131176 0.00000457
-0.41918072 -0.45194685 0.00000403
-0.63424873 -0.73499936 0.00000495
-0.09650192 -0.61956024 0.00000118
-0.20490852 -0.74874824 0.00000167
-0.21886037 0.37391031 0.02792701
-0.23690222 -0.66950315 0.00000211
-0.51943481 -0.03856421 0.11341739
-0.68479443 -0.63297349 0.06013465
-0.15278907 -0.71476287 0.00000137
-0.45855457 0.00029675 0.08390399
-0.00579141 -0.07155278 0.00000182
-0.19663402 -0.39052996 0.00000251
-0.01438847 0.02216540 0.00001156
-0.07197137 0.51890475 0.00000572
-0.28490779 -0.01985247 0.00000410
-0.50756305 -0.77389026 0.00000389
-0.09758446 0.06242689 0.00000990
-0.20628737 0.11060714 0.00000778
-0.06749788 -0.54499823 0.00000115
-0.27847642 -0.65011358 0.00000248
-0.01134170 -0.44041672 0.00000090
-0.07759946 0.35402086 0.00000729
-0.12219810 0.50072014 0.00000515
-0.31109485 -0.36026192 0.00000345
-0.54049271 -0.40598774 0.02699777
-0.14055295 0.16479629 0.00000823
-0.34429777 0.13879056 0.04641143
-0.69391000 -0.50889266 0.10001296
-0.22454466 -0.76691532 0.00000178
-0.29246053 -0.42169517 0.00000315
-0.03492078 0.51005411 0.00000637
-0.65298581 -0.23192164 0.14864890
-0.70888638 -0.12679110 0.21418662
-0.37129799 -0.73661047 0.00000296
-0.13410978 0.35539511 0.00000642
-0.02965790 -0.11633808 0.00000193
-0.42675164 -0.62688953 0.00000365
-0.76547736 -0.76910561 0.07614692
-0.56197232 -0.04223354 0.14044894
-0.69895971 -0.70442766 0.04996493
-0.47332981 0.01393589 0.09736435
-0.38595897 -0.78008622 0.00000296
-0.32471502 0.38723266 0.10132431
-0.23329227 -0.40457273 0.00000275
-0.59360456 -0.54647100 0.02365136
-0.10393111 -0.32801294 0.00000196
-0.25529462 -0.51687455 0.00000263
-0.40422669 -0.30761454 0.00000428
-0.09695329 -0.52438706 0.00000142
-0.10357793 0.52712792 0.00000517
-0.69253421 -0.29656991 0.15706487
-0.06773918 0.31475291 0.00000783
-0.47698146 -0.16644023 0.05053278
-0.43006307 -0.03830582 0.05458991
-0.56845647 0.12852250 0.19133422
-0.12727311 0.06134479 0.00000947
-0.55128092 -0.20504984 0.08895838
-0.71665263 -0.46149611 0.12793912
-0.56919998 0.06680702 0.17497748
-0.29399124 -0.45024934 0.00000309
-0.21335842 -0.43231159 0.00000253
-0.17161827 -0.75223887 0.00000141
-0.01062371 -0.20926377 0.00000156
-0.33255121 -0.41074762 0.00000348
-0.11063017 -0.31451336 0.00000205
-0.59430772 -0.41562665 0.05983191
-0.55021453 -0.12728886 0.10948236
-0.00173459 0.34316099 0.00000854
-0.22162341 -0.52230692 0.00000237
-0.21038888 0.46846735 0.04815577
-0.46454957 -0.49145234 0.00000428
-0.70068002 -0.45132357 0.12018946
-0.35246691 0.38265720 0.11836446
-0.70614326 -0.67384750 0.06304672
-0.55555999 -0.50274336 0.01051562
-0.66929173 -0.50038034 0.08611249
-0.60725713 -0.00886704 0.17940089
-0.09997768 -0.30953813 0.00000198
-0.43793979 -0.18950844 0.01850639
-0.63874716 -0.43835291 0.08291483
-0.31400758 -0.60378087 0.00000286
-0.21236423 0.40119797 0.03109474
-0.54754394 0.02356089 0.14890052
-0.14943403 -0.39798072 0.00000213
-0.66075486 -0.66471672 0.03562685
-0.01112544 -0.26410905 0.00000142
-0.46351427 -0.75681907 0.00000360
-0.05121199 -0.67566699 0.00000070
-0.50627404 0.01840091 0.12029419
-0.13092956 0.05455648 0.00000948
-0.18300882 -0.50398302 0.00000212
-0.38257217 0.06056445 0.05028140
-0.73019397 -0.67539960 0.07847326
-0.49502072 0.12605965 0.14226609
-0.16710512 0.38611186 0.00000562
-0.64059836 -0.75772268 0.00000494
-0.16438463 -0.13864955 0.00000289
-0.24501674 -0.74892551 0.00000198
-0.08135331 0.11395762 0.00000963
-0.05079073 0.73576492 0.01594238
-0.69129151 -0.64755440 0.06043628
-0.16078673 0.22665279 0.00000731
-0.26562575 -0.37643376 0.00000306
-0.50224209 -0.01358372 0.10890607
-0.50506514 -0.67541343 0.00000412
-0.55668330 -0.46207529 0.02235729
-0.23859449 0.33332565 0.02985367
-0.71475410 -0.31382006 0.16699959
-0.08819230 0.35144177 0.00000715
-0.71519798 -0.40844375 0.14146236
-0.44282216 0.17718755 0.12182266
-0.43046519 0.11455842 0.09658296
-0.29816639 0.33447090 0.06942555
-0.49591815 -0.75026560 0.00000387
-0.39075357 0.24576025 0.10622686
-0.52962548 -0.63322812 0.00000441
-0.07640865 0.60075164 0.00000484
-0.16287123 -0.48478499 0.00000202
-0.60692436 0.08420665 0.20458832
-0.31581324 0.27969620 0.06610311
-0.67719346 -0.30493602 0.14467128
-0.32397437 -0.63410574 0.00000286
-0.18476877 0.10565351 0.00000816
-0.39414084 -0.10006484 0.01405770
-0.61097324 -0.17611395 0.13619573
-0.16588634 0.58609778 0.05093769
-0.44060808 0.25963050 0.14286835
-0.13375418 -0.77640820 0.00000107
-0.09386184 -0.42670617 0.00000164
-0.16434747 -0.69932175 0.00000149
-0.63087052 -0.49492508 0.06228119
-0.62787247 -0.34961686 0.09997085
-0.50638384 -0.74504495 0.00000396
-0.40364617 -0.54343450 0.00000369
-0.55000961 -0.48935580 0.01051226
-0.66350663 -0.43322611 0.10063139
-0.73089981 -0.60752505 0.09746640
-0.04735811 0.10982986 0.00001019
-0.13878454 0.16289195 0.00000828
-0.39969525 0.33902493 0.13757846
-0.42918864 -0.18181325 0.01483977
-0.25250533 -0.33268699 0.00000307
-0.22263078 -0.69112337 0.00000195
-0.13613243 0.20215026 0.00000792
-0.52644509 -0.48609498 0.00000476
-0.10196473 0.56001240 0.00169125
-0.19582811 -0.52214277 0.00000217
-0.33508152 -0.62212783 0.00000297
-0.13552043 -0.41203561 0.00000199
-0.49460992 0.22990456 0.17034239
-0.02625317 0.38971248 0.00000771
-0.27959079 -0.79351431 0.00000213
-0.31238210 -0.71213472 0.00000258
-0.63451213 -0.28593299 0.12173063
-0.34748039 -0.08378415 0.00000441
-0.31540695 0.09953022 0.01665465
-0.08871019 0.62736219 0.01134098
-0.21203440 -0.64545065 0.00000199
-0.31395292 -0.21939448 0.00000382
-0.48576546 -0.22359930 0.04071867
-0.44861633 0.24337095 0.14370754
-0.35869652 -0.35919127 0.00000381
-0.37591609 -0.40149546 0.00000383
-0.33702928 -0.19301873 0.00000406
-0.02454668 -0.46344230 0.00000103
-0.41673988 -0.70465845 0.00000338
-0.60629344 -0.19781800 0.12718698
-0.73306048 -0.31618860 0.17841756
-0.13102588 0.61601603 0.03613078
-0.00694930 -0.33298558 0.00000117
-0.07196499 0.64795196 0.00592599
-0.12371163 -0.48206857 0.00000173
-0.57209337 -0.49497190 0.02353291
-0.72269535 -0.43414837 0.13938667
-0.00638801 0.63077301 0.00000560
-0.55309474 -0.14323564 0.10702742
-0.00231015 -0.29534462 0.00000126
-0.25109878 -0.52876222 0.00000257
-0.08642657 0.64045447 0.01340987
-0.13359421 0.42955121 0.00000569
-0.69282669 -0.46469808 0.11136293
-0.62026751 -0.38586757 0.08506347
-0.54714000 0.12465870 0.17623146
-0.53532135 -0.05793937 0.11859806
-0.11575741 -0.03119757 0.00000280
-0.39473513 -0.73210114 0.00000315
-0.28908810 0.46394181 0.09878490
-0.04072084 -0.50456309 0.00000105
-0.58204997 -0.53282213 0.01976241
-0.08517141 0.33481786 0.00000737
-0.49067736 -0.77671736 0.00000376
-0.33637777 -0.19958045 0.00000404
-0.21134967 -0.58356351 0.00000214
-0.70679224 -0.75750434 0.04063832
-0.66321945 -0.29543909 0.13805448
-0.12169761 0.30416846 0.00000712
-0.62066609 -0.43741721 0.07125443
-0.11022734 0.62867260 0.02587898
-0.34215802 -0.41585141 0.00000354
-0.11422967 -0.25998166 0.00000221
-0.25924048 0.10589282 0.00000703
-0.31620428 0.25680059 0.06011092
-0.56087887 -0.19545753 0.09790211
-0.41032946 -0.51115841 0.00000382
-0.66355085 -0.79665703 0.00145314
-0.28215143 -0.41450158 0.00000309
-0.12101466 0.60324919 0.02604813
-0.22288668 0.44564971 0.05016348
-0.25096339 -0.12190140 0.00000359
-0.69355929 -0.42934206 0.12149702
-0.14446341 -0.35420436 0.00000220
-0.61747128 -0.60287076 0.02398437
-0.26540804 -0.78173590 0.00000205
-0.14399704 0.01589933 0.00000967
-0.06338268 -0.45617935 0.00000134
-0.41372773 0.02772851 0.06185024
-0.32042766 0.42005843 0.10745944
-0.05054989 0.24527483 0.00000878
-0.60855663 -0.21276297 0.12459891
-0.60223895 -0.00585913 0.17691489
-0.22029001 -0.25652844 0.00000302
-0.39052618 0.04743185 0.05193839
-0.13655214 -0.66467017 0.00000137
-0.12548274 -0.25582492 0.00000231
-0.70222443 -0.41851607 0.13016284
-0.14845750 -0.46794456 0.00000195
-0.73779130 -0.24817519 0.20010120
-0.11139935 -0.16474129 0.00000243
-0.14737795 0.51155108 0.01839088
-0.52599448 -0.29800507 0.04691962
-0.05621725 0.52611679 0.00000589
-0.10579513 0.67454785 0.03548074
-0.13482150 -0.41331917 0.00000198
-0.67589414 -0.60467529 0.06199378
-0.57316500 -0.06394211 0.14189930
-0.34115085 0.38970423 0.11283057
-0.15363640 -0.43441162 0.00000207
-0.44398147 -0.71271884 0.00000357
-0.48657373 -0.07432892 0.08199834
-0.67435735 -0.70457631 0.03371061
-0.09537763 0.30378398 0.00000752
-0.27107835 0.34958810 0.05570052
-0.69181752 -0.18943109 0.18583874
-0.45145127 -0.14114431 0.04061294
-0.12223753 -0.01031133 0.00000290
-0.00550711 0.38084570 0.00000811
-0.16340408 0.31414467 0.00000639
-0.71604335 -0.70458966 0.06117943
-0.49639428 -0.64795387 0.00000413
-0.24971737 -0.16131631 0.00000348
-0.67872787 -0.08938148 0.20452335
-0.59693831 -0.21098587 0.11742728
-0.65210092 0.01636446 0.21584155
-0.50147116 -0.65491539 0.00000415
-0.09788662 0.26987484 0.00000782
-0.31907013 -0.14061730 0.00000406
-0.42659146 0.14802399 0.10316534
-0.15482622 0.45805877 0.00869743
-0.62465423 -0.64556646 0.01706323
-0.25066593 -0.02796561 0.00000382
-0.77335399 -0.80209917 0.07233155
-0.51298201 -0.43027493 0.00223779
-0.14520727 0.56365424 0.03118320
-0.07768460 -0.68229848 0.00000088
-0.23513669 -0.46994385 0.00000260
-0.55520201 -0.07641594 0.12665625
-0.52332526 -0.53138041 0.00000462
-0.66517901 -0.24572480 0.15291661
-0.10007921 0.17349872 0.00000875
-0.37560663 0.20359796 0.08473546
-0.24741265 0.29709360 0.02577462
-0.07898147 -0.30950561 0.00000182
-0.36234397 -0.00547433 0.01892364
-0.10750444 -0.44217965 0.00000171
-0.28425622 -0.59548444 0.00000266
-0.05464232 0.14531538 0.00000972
-0.30017254 -0.74187064 0.00000241
-0.72028106 -0.42646086 0.13989405
-0.46312320 0.10683606 0.11599734
-0.44654539 -0.50747401 0.00000410
-0.26350287 0.04670559 0.00000756
-0.66098130 -0.41171587 0.10483889
-0.42955178 -0.10329238 0.03651329
-0.28734800 0.38157037 0.07515294
-0.47259051 -0.02601595 0.08597131
-0.31471229 0.20827053 0.04588018
-0.27647400 0.37516698 0.06623876
-0.42825228 -0.54546887 0.00000387
-0.09318057 -0.54788423 0.00000133
-0.00392260 -0.58515966 0.00000054
-0.73092276 -0.76563698 0.05432113
-0.21904051 -0.02142428 0.00000360
-0.54797065 0.04879402 0.15606976
-0.02596391 0.18237121 0.00000978
-0.13953282 0.12447879 0.00000865
-0.20432067 0.31742758 0.00292667
-0.06188198 0.03903105 0.00001068
-0.00824586 -0.62100619 0.00000045
-0.00303153 -0.49430937 0.00000079
-0.46973792 0.02283846 0.09742739
-0.10647973 -0.07854838 0.00000261
-0.28121769 0.42469937 0.08288603
-0.47415999 -0.44270366 0.00000447
-0.75044638 -0.42597240 0.15990734
-0.13089029 -0.75269711 0.00000111
-0.01438751 -0.09411198 0.00000187
-0.38603187 0.04507981 0.04833450
-0.05712764 -0.02274645 0.00000237
-0.03958866 0.18683492 0.00000953
-0.07392898 -0.51157576 0.00000128
-0.02756911 0.01190737 0.00001146
-0.54361659 -0.12818676 0.10488907
-0.53366446 -0.72215635 0.00000422
-0.00041681 0.64884615 0.00000551
-0.32285747 -0.66874194 0.00000276
-0.18315104 0.04076581 0.00000883
-0.69227237 -0.61461115 0.07007530
-0.03527049 -0.36708668 0.00000135
-0.55405164 -0.48468614 0.01445077
-0.27107832 0.22112383 0.02063301
-0.17545195 -0.45099530 0.00000220
-0.11506358 0.04850810 0.00000978
-0.02651136 0.22680135 0.00000933
-0.32035577 -0.73437238 0.00000258
-0.72488832 -0.25058371 0.19094023
-0.18549791 0.28391853 0.00000636
-0.53484195 -0.34173799 0.04081236
-0.60771048 -0.37154558 0.08069765
-0.39424419 0.20387946 0.09709487
-0.19339992 -0.30827799 0.00000269
-0.44903094 -0.15764783 0.03451284
-0.00742812 0.29997391 0.00000889
-0.52544832 -0.22456153 0.06660792
-0.44826123 -0.24057902 0.01136749
-0.16928722 0.58716697 0.05347081
-0.07090164 0.32809153 0.00000765
-0.19085662 -0.17855541 0.00000299
-0.14714043 0.62994206 0.05055208
-0.61677492 -0.45759064 0.06318322
-0.58171189 -0.36981034 0.06403767
-0.18317474 -0.57302034 0.00000195
-0.48604327 -0.14388166 0.06266263
-0.46983898 -0.01607445 0.08687176
-0.40354729 0.27197775 0.12181493
-0.50114048 -0.20342793 0.05635744
-0.14353956 0.09787815 0.00000886
-0.28778458 -0.77568513 0.00000223
-0.62714094 -0.14414079 0.15557849
-0.15181416 -0.08596260 0.00000293
-0.02039884 -0.38456604 0.00000119
-0.26741445 -0.32638076 0.00000320
-0.61906612 -0.71821600 0.00000487
-0.12673353 0.13053948 0.00000878
-0.12201202 0.19399323 0.00000822
-0.18018906 0.07145685 0.00000857
-0.10734626 0.48527554 0.00000553
-0.05400090 0.20858558 0.00000910
-0.35642195 -0.07294573 0.00000451
-0.52859700 -0.17493217 0.08223052
-0.51856858 0.17321566 0.17065705
-0.24156216 0.26381335 0.01283434
-0.01248720 0.75415617 0.00000427
-0.37944898 -0.66142321 0.00000321
-0.19353262 0.18464547 0.00000723
-0.75279647 -0.45622525 0.15319791
-0.11616121 0.02453121 0.00001000
-0.35868987 0.17749763 0.06646219
-0.69308347 -0.13281290 0.20212837
-0.30284050 0.16358899 0.02585947
-0.72819793 -0.61179119 0.09452124
-0.18489470 0.57865864 0.06143395
-0.38088906 -0.37091184 0.00000395
