ply
format ascii 1.0
element vertex 1383
property float x
property float y
property float z
end_header
-0.13677219 -0.59651875 0.00000000
-0.72682989 -0.46356672 -0.00000042
0.02666701 0.23064934 0.00000000
-0.28462896 0.39550894 -0.00000025
0.63249326 -0.32571986 -0.00000071
-0.49107024 0.17647652 -0.00000050
-0.45407110 -0.03034637 -0.00000024
0.00071175 0.60485947 0.00000000
-0.32976648 -0.64174372 0.00000000
0.43786719 -0.77298003 0.00000000
0.63210791 -0.72776741 0.00000000
0.53622371 0.20898438 -0.00000124
-0.77015305 -0.18146694 -0.00000077
0.62785178 -0.62340879 -0.00000016
0.76853144 -0.77662694 -0.00000006
-0.67924535 -0.43421319 -0.00000036
-0.72896743 -0.62403756 -0.00000022
0.32504892 0.46862912 -0.00000071
-0.28062069 -0.52146059 0.00000000
-0.61355299 -0.60024309 -0.00000007
-0.34465808 -0.13029455 0.00000000
0.23203783 0.46525365 -0.00000040
0.14546344 -0.28331092 0.00000000
0.58205980 -0.75077128 0.00000000
0.58402473 -0.75901276 0.00000000
-0.23613124 0.19813578 0.00000000
0.56130898 -0.09557026 -0.00000081
-0.11992565 -0.68037289 0.00000000
0.15303679 -0.79962635 0.00000000
-0.10931064 -0.04778911 0.00000000
-0.00901553 -0.79086179 0.00000000
-0.18171331 -0.50705916 0.00000000
-0.05334575 0.68433017 -0.00000001
-0.65473217 -0.51066071 -0.00000024
0.23439927 0.01043296 0.00000000
-0.51159436 -0.40824634 -0.00000002
0.45953965 -0.13469020 -0.00000031
-0.07913238 -0.52598727 0.00000000
-0.77507114 -0.02837706 -0.00000092
0.63910902 0.03052379 -0.00000137
0.61550856 -0.17429402 -0.00000090
0.24639098 0.36242893 -0.00000028
-0.06312196 -0.72919977 0.00000000
-0.03462400 0.29091120 0.00000000
0.55287266 -0.24095511 -0.00000052
0.18603256 -0.18262780 0.00000000
0.01530617 -0.60332656 0.00000000
-0.03931942 0.63058949 0.00000000
0.38219091 0.37724814 -0.00000088
0.52030146 -0.63909256 0.00000000
-0.78174841 -0.50950140 -0.00000036
0.33190283 0.37613249 -0.00000067
0.14645442 0.44882816 -0.00000000
0.10850838 -0.10565654 0.00000000
0.13640065 0.57394886 -0.00000018
0.23711915 -0.49031058 0.00000000
0.05050587 0.30746341 0.00000000
0.22565989 -0.45041955 0.00000000
-0.48002279 -0.59524703 0.00000000
-0.20739804 0.09594117 0.00000000
-0.78758174 -0.06147971 -0.00000092
-0.23341952 -0.17959611 0.00000000
-0.18245490 0.31823459 0.00000000
-0.50656533 -0.25145754 -0.00000015
0.09386449 -0.77159077 0.00000000
0.09666919 0.67634207 -0.00000019
0.60007030 0.03420499 -0.00000121
0.73778129 -0.58502036 -0.00000054
-0.03159298 -0.19652076 0.00000000
-0.31334731 -0.07840869 0.00000000
0.05316255 -0.65343267 0.00000000
0.20795190 -0.27995494 0.00000000
0.57555926 -0.59235758 0.00000000
0.00617993 -0.24068385 0.00000000
0.44156066 0.04249406 -0.00000055
0.52573574 -0.12796593 -0.00000060
-0.76351887 -0.02357579 -0.00000090
0.33164534 -0.60851109 0.00000000
-0.33091995 -0.53088838 0.00000000
0.56615007 -0.60267025 0.00000000
0.07755326 -0.62666917 0.00000000
0.34535310 0.33812559 -0.00000066
0.73397076 -0.45253503 -0.00000087
-0.33150798 0.14934932 -0.00000013
-0.00740245 0.53844112 0.00000000
-0.31722641 -0.03157140 0.00000000
-0.31631887 0.07067396 -0.00000003
-0.04611151 -0.72878218 0.00000000
-0.76798445 -0.04078911 -0.00000090
-0.40081087 0.18159743 -0.00000031
-0.36695617 -0.27277446 0.00000000
0.57688278 -0.48015255 -0.00000020
0.09001240 -0.62868315 0.00000000
0.72807151 -0.55157465 -0.00000062
-0.09465397 -0.24189258 0.00000000
-0.42167696 -0.39775845 0.00000000
-0.26715106 0.20407218 -0.00000004
0.53484029 -0.57357818 0.00000000
-0.27503484 0.48827717 -0.00000031
0.21648262 -0.05710734 0.00000000
-0.39232329 -0.65071207 0.00000000
-0.54233623 -0.64992827 0.00000000
0.66074884 -0.53757268 -0.00000046
0.78023070 -0.79880905 -0.00000000
0.13198207 -0.68242735 0.00000000
-0.52488881 -0.46660149 -0.00000000
-0.04453163 0.69108611 0.00000000
0.12994961 -0.63803148 0.00000000
-0.21267854 0.39571768 -0.00000010
0.09050789 0.01046014 0.00000000
-0.18744797 -0.08397027 0.00000000
-0.05101721 0.42784849 0.00000000
0.37101549 -0.32239297 0.00000000
-0.00289474 -0.75099695 0.00000000
-0.40164000 -0.54186094 0.00000000
-0.42834783 -0.21942282 -0.00000001
-0.20074420 -0.14837667 0.00000000
0.02673596 0.66998100 0.00000000
0.13510920 -0.79773730 0.00000000
-0.28070453 0.50942683 -0.00000034
-0.37064010 0.28759250 -0.00000034
-0.24431966 -0.62340027 0.00000000
0.69306505 -0.75225407 -0.00000012
-0.44533488 -0.76359916 0.00000000
0.32600859 -0.74793857 0.00000000
0.28788826 -0.72007102 0.00000000
0.04246103 0.36270356 0.00000000
-0.73597133 -0.18904349 -0.00000070
-0.35634586 -0.46959206 0.00000000
-0.11551068 0.22301173 0.00000000
-0.33709562 -0.54644895 0.00000000
0.36208197 -0.18400340 0.00000000
-0.56325281 -0.53708237 -0.00000002
0.73744088 -0.57695323 -0.00000056
-0.37227654 0.00373013 -0.00000009
0.69339949 -0.18640786 -0.00000122
0.34203789 -0.35082218 0.00000000
0.62700069 0.08464845 -0.00000141
-0.48784262 -0.23721991 -0.00000012
0.44764912 -0.58317202 0.00000000
-0.38865596 -0.72617549 0.00000000
0.32642749 -0.05558134 0.00000000
-0.58891261 0.03326934 -0.00000058
-0.71766454 -0.43487188 -0.00000044
-0.52582115 -0.11057999 -0.00000032
0.39403218 0.27943048 -0.00000076
0.50840306 -0.01439926 -0.00000073
-0.47025424 0.20269407 -0.00000048
-0.56529915 -0.42304721 -0.00000013
0.68592209 0.07763518 -0.00000165
-0.11309837 0.68121505 -0.00000014
-0.54613048 -0.68608785 0.00000000
-0.49047941 -0.42130637 0.00000000
-0.02500036 0.53956288 0.00000000
-0.50474107 -0.47172073 0.00000000
-0.23999241 -0.62123638 0.00000000
-0.43355408 -0.20550330 -0.00000004
0.74714535 0.02868918 -0.00000183
-0.07392165 0.62004381 0.00000000
-0.11149418 0.41718218 0.00000000
0.57839489 -0.62584472 0.00000000
0.53442448 -0.55308551 0.00000000
-0.08495555 -0.18672752 0.00000000
0.11896802 0.53046662 -0.00000003
0.59912848 -0.43938738 -0.00000037
0.05425982 0.67112499 -0.00000000
-0.32408345 -0.10278825 0.00000000
-0.32227072 -0.18896863 0.00000000
0.39646634 0.17348330 -0.00000058
0.02814336 -0.56226385 0.00000000
0.59795827 -0.54899943 -0.00000017
-0.14942405 0.39291999 0.00000000
-0.52826619 -0.46749818 -0.00000001
0.21256246 -0.72474647 0.00000000
-0.51769137 -0.45917493 0.00000000
-0.10482173 0.32936543 0.00000000
-0.52126276 -0.40467188 -0.00000005
0.56687069 -0.16489814 -0.00000071
-0.58154839 -0.57210612 -0.00000003
-0.63916409 -0.03438850 -0.00000063
-0.43650615 -0.27822533 0.00000000
-0.30636624 0.21809866 -0.00000014
0.54015988 0.13021986 -0.00000112
0.26910186 -0.23994276 0.00000000
-0.01815151 0.57982951 0.00000000
-0.00615196 0.51107097 0.00000000
-0.04810782 0.17578724 0.00000000
0.38702574 -0.44814023 0.00000000
0.53644282 -0.29686296 -0.00000035
0.28476712 -0.56167752 0.00000000
0.30468178 0.34876099 -0.00000050
-0.01443920 0.02587836 0.00000000
0.01802461 0.55820662 0.00000000
0.39802042 0.15725039 -0.00000056
0.45881248 -0.12967981 -0.00000031
0.71082163 -0.00292431 -0.00000161
0.06379316 0.37655288 0.00000000
0.47763547 -0.48623735 0.00000000
-0.18282042 -0.73485172 0.00000000
-0.79308492 -0.26313016 -0.00000067
-0.66547805 0.09528210 -0.00000080
-0.07741145 -0.48396173 0.00000000
0.00897121 0.78757542 0.00000004
0.50652206 -0.54678077 0.00000000
0.12127871 -0.66436690 0.00000000
-0.17206766 0.58949107 -0.00000018
0.10590884 -0.21386145 0.00000000
-0.71672153 -0.33069012 -0.00000053
-0.19884825 -0.65161383 0.00000000
0.47174007 0.15461946 -0.00000087
-0.67671418 0.04440066 -0.00000078
-0.15107468 0.40913284 0.00000000
0.00890784 -0.26998281 0.00000000
0.52831805 -0.35301197 -0.00000022
0.67531741 -0.34503892 -0.00000086
-0.36502701 -0.68735808 0.00000000
-0.71667534 -0.47944891 -0.00000040
-0.24792726 -0.01716040 0.00000000
0.58086377 -0.71779752 0.00000000
-0.14148489 -0.67199856 0.00000000
0.69742399 -0.48773047 -0.00000070
0.60525918 -0.03485356 -0.00000111
-0.14939205 -0.26941112 0.00000000
0.74821287 -0.75077373 -0.00000012
0.33754045 -0.48411834 0.00000000
0.40554646 -0.76268411 0.00000000
-0.47959071 -0.61137640 0.00000000
-0.02954217 -0.24173813 0.00000000
-0.18780909 -0.06690791 0.00000000
-0.01079383 -0.28256702 0.00000000
0.50587577 -0.72121912 0.00000000
-0.34642079 -0.34670630 0.00000000
-0.63877106 -0.47202951 -0.00000024
-0.36135209 -0.23997259 0.00000000
-0.55699098 -0.54652005 0.00000000
0.26086748 -0.37182501 0.00000000
-0.39377812 0.19962697 -0.00000031
-0.19543251 -0.08247563 0.00000000
-0.36008751 -0.52430439 0.00000000
-0.39527318 -0.74211746 0.00000000
-0.42445600 -0.50349623 0.00000000
0.43876216 -0.26498863 0.00000000
0.30315900 -0.13508722 0.00000000
-0.06056125 -0.64786464 0.00000000
0.06971378 0.00466197 0.00000000
-0.26691240 0.08597387 0.00000000
-0.16378772 0.57893813 -0.00000015
-0.38449329 -0.26850453 0.00000000
0.07310972 0.07843507 0.00000000
0.39000684 -0.10428626 -0.00000007
-0.67699277 0.03238711 -0.00000077
0.74123859 -0.31961152 -0.00000118
-0.04810630 -0.44549522 0.00000000
0.14485827 0.09787593 0.00000000
0.30203670 0.36218345 -0.00000052
-0.15048458 -0.66687036 0.00000000
0.35742939 0.43833646 -0.00000089
0.31321836 0.39479554 -0.00000062
-0.44568279 -0.08105763 -0.00000017
-0.37765661 -0.53100491 0.00000000
0.64440995 0.11059598 -0.00000153
0.21315105 -0.25662580 0.00000000
0.06881381 -0.76717544 0.00000000
-0.40602952 -0.59599245 0.00000000
0.77677149 -0.43491247 -0.00000091
-0.29128808 0.27451292 -0.00000016
0.60420662 -0.61794573 -0.00000007
0.20128325 0.34167454 -0.00000005
0.66425377 0.03077305 -0.00000148
-0.66126907 -0.51975262 -0.00000024
-0.12930936 -0.24386188 0.00000000
-0.59852737 -0.08413434 -0.00000050
0.51522356 -0.29315111 -0.00000027
0.54576737 0.00592967 -0.00000093
0.56724703 -0.64004582 0.00000000
0.69178718 -0.42587900 -0.00000079
0.13471827 0.50545746 -0.00000005
-0.72805566 -0.17726175 -0.00000069
-0.37711486 -0.65083128 0.00000000
0.37794432 -0.65193802 0.00000000
-0.78714222 -0.00466526 -0.00000097
0.20821077 -0.33977067 0.00000000
-0.02641366 -0.24647358 0.00000000
0.11367500 0.10622929 0.00000000
0.42865726 -0.33529910 0.00000000
0.04549563 -0.53012538 0.00000000
0.79383034 -0.77222157 -0.00000007
-0.59820896 -0.44975126 -0.00000017
0.27729598 -0.27722105 0.00000000
-0.61770779 0.05410510 -0.00000066
0.06187900 -0.34796187 0.00000000
-0.50380009 -0.48683074 0.00000000
0.07314900 -0.34477270 0.00000000
0.39343828 -0.65831566 0.00000000
0.00097239 -0.21990041 0.00000000
-0.56804347 -0.75061375 0.00000000
0.31943607 -0.41350615 0.00000000
0.06684237 -0.12087233 0.00000000
0.23539972 -0.26794252 0.00000000
-0.31968945 0.22849061 -0.00000018
0.77587736 -0.64469689 -0.00000039
-0.07681560 -0.41103515 0.00000000
0.14652856 -0.73999465 0.00000000
0.61755162 -0.72545391 0.00000000
-0.12721202 -0.35931742 0.00000000
0.77610630 -0.25339034 -0.00000137
-0.06405386 0.29745054 0.00000000
-0.22592489 -0.34486133 0.00000000
-0.53184837 -0.43176246 -0.00000005
-0.41561720 0.14768751 -0.00000031
0.09366575 0.47416517 0.00000000
-0.31439525 -0.07884232 0.00000000
-0.23569772 0.15983400 0.00000000
0.28510332 -0.66317368 0.00000000
-0.41277418 -0.44424880 0.00000000
0.75791049 -0.12920213 -0.00000159
0.28487036 0.46725723 -0.00000063
0.10208658 0.30441248 0.00000000
-0.58748460 -0.06006306 -0.00000049
0.20469058 0.04386232 0.00000000
0.27123153 -0.46259910 0.00000000
0.02383468 -0.15462185 0.00000000
-0.27873987 0.06260315 0.00000000
-0.23563546 0.18798652 0.00000000
0.71600658 -0.55288196 -0.00000062
-0.47208333 -0.47844833 0.00000000
0.40719840 -0.37919179 0.00000000
-0.32306609 -0.23924591 0.00000000
0.59255570 -0.02005268 -0.00000108
-0.57362944 -0.18025897 -0.00000036
-0.54905033 -0.52552921 0.00000000
0.66597730 -0.50625581 -0.00000053
0.18228355 -0.68260312 0.00000000
0.61414355 0.02209299 -0.00000125
-0.22173148 0.28004259 -0.00000001
0.29950929 -0.33280647 0.00000000
-0.76092374 -0.37839267 -0.00000053
0.59664071 -0.62712908 -0.00000002
-0.52147287 -0.33375454 -0.00000011
0.43252572 0.29144356 -0.00000095
0.64244944 0.12553822 -0.00000155
-0.06538740 0.52243155 0.00000000
0.42404225 0.19724607 -0.00000074
-0.08744684 -0.79034191 0.00000000
-0.18215542 -0.26128733 0.00000000
0.67123377 0.02003064 -0.00000149
0.17791443 0.36672878 0.00000000
-0.08968692 -0.11823035 0.00000000
-0.67445236 -0.37426797 -0.00000040
0.24145336 -0.57997310 0.00000000
0.05135979 -0.60131568 0.00000000
-0.58706462 -0.21091464 -0.00000036
0.75183499 -0.76252079 -0.00000009
-0.03654236 0.15996873 0.00000000
-0.28262159 -0.57902598 0.00000000
-0.40109864 -0.38111180 0.00000000
0.57262498 -0.02488815 -0.00000099
0.39234170 -0.37605244 0.00000000
0.20645864 0.15039554 0.00000000
0.34358299 -0.61947572 0.00000000
-0.31096259 0.28587440 -0.00000021
-0.37570250 -0.06080449 -0.00000004
-0.09812444 -0.12428394 0.00000000
-0.60031670 -0.31504440 -0.00000030
0.68635750 -0.67422092 -0.00000031
0.29449826 -0.77441567 0.00000000
0.25975719 -0.45940283 0.00000000
0.29542834 -0.67107195 0.00000000
-0.00789726 0.01775949 0.00000000
0.76613688 -0.70321542 -0.00000024
-0.71142554 -0.19459872 -0.00000064
-0.00184540 0.08242785 0.00000000
-0.43185556 0.14493185 -0.00000034
-0.40418097 -0.70443749 0.00000000
0.42638689 -0.11685390 -0.00000020
-0.31656808 -0.16941524 0.00000000
-0.04045437 0.20039663 0.00000000
0.35556859 0.01373927 -0.00000013
0.19672342 0.58625466 -0.00000046
0.13886379 -0.32193929 0.00000000
-0.41914636 -0.07054122 -0.00000012
-0.03322492 -0.75523221 0.00000000
0.37706530 -0.77937943 0.00000000
-0.70351553 -0.40098470 -0.00000044
-0.23509459 0.54998946 -0.00000028
-0.21608382 0.51305163 -0.00000021
0.15797368 -0.12983906 0.00000000
-0.03336416 -0.41951454 0.00000000
-0.78293496 -0.46802226 -0.00000041
0.00476047 0.34867662 0.00000000
-0.32623735 0.16660297 -0.00000014
-0.26411155 0.29546699 -0.00000012
0.56773657 -0.76203638 0.00000000
0.75856984 -0.53962177 -0.00000065
-0.75386733 -0.54060590 -0.00000032
-0.77041519 -0.66410667 -0.00000017
0.10436926 -0.01846921 0.00000000
-0.71506101 -0.75261378 -0.00000006
-0.00646003 0.55029041 0.00000000
-0.06210749 -0.26463738 0.00000000
0.64604098 0.03371675 -0.00000140
-0.05616967 -0.20930138 0.00000000
-0.20143007 0.38354540 -0.00000006
0.70330542 -0.51653481 -0.00000067
-0.74702334 -0.32718414 -0.00000059
0.04301859 -0.39706513 0.00000000
0.02026340 0.34639740 0.00000000
-0.50130630 -0.53992385 0.00000000
0.03032754 0.16495328 0.00000000
-0.41652665 -0.68444759 0.00000000
-0.48326996 -0.36903474 0.00000000
-0.27127120 -0.17708258 0.00000000
0.12954062 -0.74221015 0.00000000
0.54817593 -0.14276519 -0.00000067
0.62057042 -0.51260424 -0.00000033
0.26663846 0.12603410 0.00000000
-0.73073715 -0.01498218 -0.00000084
0.59660876 -0.59338266 -0.00000008
0.02321814 0.16268213 0.00000000
0.79584628 -0.65433830 -0.00000036
-0.44090110 0.28725055 -0.00000049
0.67225659 -0.09300350 -0.00000129
0.02827236 0.25960061 0.00000000
-0.26979184 -0.43670109 0.00000000
0.52010256 -0.34206620 -0.00000020
0.79701102 -0.28400084 -0.00000129
-0.40969983 -0.22571033 0.00000000
-0.02998210 0.11853219 0.00000000
0.42624334 -0.45443305 0.00000000
0.29282048 -0.33176962 0.00000000
-0.15670672 -0.64010280 0.00000000
-0.52207488 -0.53533542 0.00000000
-0.62761366 -0.12943193 -0.00000052
0.31973532 0.43800971 -0.00000072
0.67935520 -0.02252403 -0.00000145
0.66516471 -0.26668370 -0.00000095
-0.54196161 -0.38596109 -0.00000011
0.58623838 -0.44097337 -0.00000031
-0.55793983 -0.22360715 -0.00000029
-0.48899803 0.26833835 -0.00000057
-0.04138279 -0.09164498 0.00000000
-0.31610125 -0.73011255 0.00000000
-0.11097480 0.59207880 -0.00000005
0.58822292 -0.30130094 -0.00000056
0.50573850 -0.71795958 0.00000000
-0.09133514 -0.48905692 0.00000000
0.07641325 0.40312439 0.00000000
0.26806650 -0.04520612 0.00000000
0.40373299 0.19602139 -0.00000066
-0.14809245 -0.31660852 0.00000000
0.08389457 0.11103426 0.00000000
-0.00356156 -0.37801859 0.00000000
-0.31834006 -0.79412711 0.00000000
-0.12927514 -0.68155432 0.00000000
-0.69912767 -0.44898051 -0.00000039
0.24387206 -0.63741308 0.00000000
0.74792659 -0.11599859 -0.00000157
-0.72859681 -0.37614390 -0.00000052
0.49428788 0.29998896 -0.00000114
-0.07052754 0.39387918 0.00000000
0.09709257 -0.75336397 0.00000000
0.27422673 0.04164722 0.00000000
0.10390201 -0.51095414 0.00000000
0.12408841 -0.07605854 0.00000000
0.47872365 -0.47058746 0.00000000
-0.63191968 -0.57126743 -0.00000014
-0.36133167 -0.04382087 -0.00000003
0.48783514 0.12530658 -0.00000089
0.27953354 0.18312421 -0.00000010
-0.18371587 -0.66366971 0.00000000
0.24014175 0.49939802 -0.00000049
-0.55578154 -0.29435137 -0.00000022
0.19541991 0.23721501 0.00000000
0.17869666 -0.44818145 0.00000000
0.67005694 -0.74712920 -0.00000012
-0.61361557 0.12851058 -0.00000072
0.27589741 -0.07116927 0.00000000
-0.75475895 -0.55991030 -0.00000030
0.43912226 0.29860950 -0.00000099
-0.24747160 -0.26196614 0.00000000
-0.03104648 -0.53810900 0.00000000
0.59563065 -0.00012326 -0.00000113
-0.69138163 0.00391074 -0.00000077
-0.76452386 -0.52265972 -0.00000035
-0.25972551 -0.41714239 0.00000000
0.40670985 -0.51054674 0.00000000
-0.04597459 0.06471064 0.00000000
-0.44171837 -0.10894748 -0.00000014
0.17794813 0.07193331 0.00000000
-0.13954386 0.48364630 -0.00000002
0.51082695 0.17795072 -0.00000108
-0.00033507 0.03169436 0.00000000
0.43010202 -0.48537999 0.00000000
-0.21045136 -0.02056571 0.00000000
0.11581201 -0.19228365 0.00000000
0.25168741 0.26858976 -0.00000013
0.20060726 -0.43964118 0.00000000
0.62250769 -0.67573178 -0.00000005
0.20556632 0.01869617 0.00000000
-0.21456173 -0.19610386 0.00000000
-0.12079846 -0.29413864 0.00000000
0.59344006 -0.53829485 -0.00000017
-0.01319659 0.40735146 0.00000000
-0.23953012 -0.43043041 0.00000000
0.34308264 -0.23447174 0.00000000
-0.59929192 -0.20911814 -0.00000039
0.50249314 0.10870778 -0.00000092
-0.53653687 -0.19378977 -0.00000027
-0.51896524 -0.11325608 -0.00000030
-0.08025344 -0.22166196 0.00000000
0.59166086 0.20017046 -0.00000146
0.27028435 -0.22301012 0.00000000
0.09579760 -0.24350905 0.00000000
0.67611992 0.06699869 -0.00000159
-0.54258311 -0.11648828 -0.00000035
0.08138118 0.63425338 -0.00000005
0.58269542 -0.56527632 -0.00000007
-0.22005640 -0.10549838 0.00000000
0.69716460 -0.14484492 -0.00000131
-0.59341866 -0.70297170 0.00000000
-0.78031749 -0.22369555 -0.00000072
0.05223463 0.37440151 0.00000000
0.33178008 -0.41867599 0.00000000
-0.16617198 0.14098229 0.00000000
-0.71913832 -0.27569896 -0.00000058
-0.12872954 0.17163575 0.00000000
0.01760216 -0.21996294 0.00000000
0.61898899 -0.48288158 -0.00000037
0.11002260 0.65686464 -0.00000022
-0.68852657 -0.05860302 -0.00000071
0.33217236 0.26550052 -0.00000047
-0.24794602 -0.28607118 0.00000000
-0.17092878 -0.11759034 0.00000000
0.33907622 -0.41514266 0.00000000
-0.25112545 -0.40262499 0.00000000
-0.44589761 -0.24159285 -0.00000003
-0.23402242 -0.10856121 0.00000000
-0.18761668 -0.70690775 0.00000000
-0.65042555 -0.24009253 -0.00000047
0.70324552 -0.21541630 -0.00000121
-0.54473847 -0.36960304 -0.00000013
0.00709244 0.27705985 0.00000000
0.42359486 -0.69773579 0.00000000
0.20861532 -0.34015176 0.00000000
-0.45133686 -0.07176367 -0.00000019
-0.31981525 -0.66863185 0.00000000
0.24436466 -0.31283388 0.00000000
-0.49595091 0.01096218 -0.00000036
-0.43714544 -0.78667438 0.00000000
0.31136519 0.30602717 -0.00000046
-0.79010814 -0.39455417 -0.00000051
-0.63305169 -0.76641613 0.00000000
-0.18077232 -0.75209844 0.00000000
-0.17501892 -0.22682007 0.00000000
-0.52448225 0.19517489 -0.00000058
0.12978414 0.16954312 0.00000000
0.66729468 -0.20590949 -0.00000107
-0.53181440 -0.45184758 -0.00000003
-0.34776747 -0.62926108 0.00000000
-0.47697654 -0.54726988 0.00000000
-0.00436465 -0.27480182 0.00000000
0.65601778 -0.25239909 -0.00000094
0.08567965 -0.07922794 0.00000000
0.14505485 -0.16977683 0.00000000
-0.43726632 -0.25915378 0.00000000
-0.10736294 -0.21071114 0.00000000
-0.31154901 -0.48451003 0.00000000
-0.41892380 -0.49853820 0.00000000
-0.42970815 -0.27162287 0.00000000
-0.03684189 -0.08874457 0.00000000
0.75524074 -0.44350067 -0.00000089
0.03381848 0.55948073 0.00000000
0.78174514 -0.73089516 -0.00000017
-0.18860799 0.23461153 0.00000000
-0.06435721 -0.29044825 0.00000000
0.73018563 -0.71830219 -0.00000020
0.23561195 0.45318368 -0.00000039
0.38777152 0.24136400 -0.00000067
0.56978732 -0.29242530 -0.00000050
0.22484356 -0.29337627 0.00000000
-0.16613863 0.46683586 -0.00000006
-0.15947086 -0.44150278 0.00000000
-0.00166064 -0.01256704 0.00000000
0.44918969 -0.44517809 0.00000000
0.71201766 -0.23023131 -0.00000122
0.36199239 0.07575160 -0.00000026
0.04575634 0.35561201 0.00000000
0.68281400 -0.05083201 -0.00000141
-0.16879652 0.47474328 -0.00000007
-0.07843315 -0.74846655 0.00000000
0.37466598 -0.65371692 0.00000000
-0.29150307 0.19975570 -0.00000009
0.32311749 -0.14987136 0.00000000
0.05955179 -0.37642732 0.00000000
0.07750166 -0.44490710 0.00000000
-0.21443738 0.44103834 -0.00000014
-0.19226778 0.30905324 0.00000000
-0.13233992 0.28201851 0.00000000
-0.00176869 0.46560594 0.00000000
-0.27557039 0.27955753 -0.00000013
-0.09283602 -0.10143721 0.00000000
0.32379141 0.19231774 -0.00000031
-0.16451180 -0.69195509 0.00000000
-0.13562126 0.58040267 -0.00000010
-0.24037808 0.08655441 0.00000000
0.23871747 -0.70027834 0.00000000
0.67078382 0.00910556 -0.00000146
-0.04245464 -0.04819639 0.00000000
0.27958909 -0.14381979 0.00000000
-0.03313371 -0.45500010 0.00000000
0.28517765 -0.29920277 0.00000000
-0.50072235 -0.33361378 -0.00000007
-0.47966638 -0.40050912 0.00000000
-0.17064820 0.62321776 -0.00000021
0.39450526 -0.23589313 0.00000000
0.02517644 -0.36645532 0.00000000
0.20335431 -0.46752986 0.00000000
0.63254166 -0.19821838 -0.00000093
-0.43394780 -0.65250194 0.00000000
0.72181314 -0.52032530 -0.00000070
0.44478950 0.04446893 -0.00000056
-0.39252019 0.02337735 -0.00000015
0.03461825 -0.00246341 0.00000000
-0.12916683 0.33580431 0.00000000
0.53480637 -0.12895396 -0.00000064
0.23991153 -0.09634856 0.00000000
-0.19672120 0.02789207 0.00000000
0.43639314 -0.63403332 0.00000000
0.09024823 0.55929118 0.00000000
0.18911120 -0.57514364 0.00000000
-0.50073892 -0.54030579 0.00000000
0.54432708 -0.78151983 0.00000000
0.48899925 -0.64679700 0.00000000
0.45107049 -0.71491742 0.00000000
0.16320321 0.36488822 0.00000000
0.12172244 0.18376188 0.00000000
0.54010850 -0.24524584 -0.00000046
-0.44571286 0.22416458 -0.00000044
0.18141283 -0.21896254 0.00000000
-0.02495074 0.75996798 -0.00000002
0.20224421 0.49872515 -0.00000033
0.15246958 -0.00079907 0.00000000
0.05022207 -0.05583749 0.00000000
-0.20986293 0.31647372 -0.00000002
-0.18491341 -0.07824683 0.00000000
-0.53226495 -0.49285680 0.00000000
0.28435403 0.33347940 -0.00000039
-0.66995496 -0.36448389 -0.00000040
0.54944503 0.17549849 -0.00000124
-0.38833857 -0.00973597 -0.00000011
0.23235784 0.46627405 -0.00000040
0.34690419 -0.29017079 0.00000000
-0.75836712 -0.39995468 -0.00000050
0.03621735 0.18567272 0.00000000
-0.65887266 -0.00187451 -0.00000070
0.49917313 0.27485171 -0.00000120
0.01970908 -0.58465451 0.00000000
0.03864249 -0.09847779 0.00000000
0.42602068 0.17597908 -0.00000072
0.30188921 -0.53533149 0.00000000
-0.48023176 0.03959935 -0.00000035
0.00530880 0.33769828 0.00000000
-0.75748777 -0.16078281 -0.00000077
-0.50797963 -0.41907048 -0.00000001
0.23100428 -0.32309183 0.00000000
0.27001131 0.10576043 0.00000000
-0.12326071 -0.53583264 0.00000000
0.69219035 -0.24145551 -0.00000111
-0.33771205 -0.05370194 0.00000000
0.31277683 -0.79287547 0.00000000
0.07298084 -0.22711146 0.00000000
-0.34868622 -0.61550289 0.00000000
0.18608829 -0.62149227 0.00000000
0.44841748 0.32353631 -0.00000107
0.02528878 -0.56736946 0.00000000
-0.21401988 0.18304420 0.00000000
-0.47716385 -0.40746313 0.00000000
0.16574042 -0.72298777 0.00000000
0.12655142 0.02229468 0.00000000
-0.45463780 -0.27324209 -0.00000002
-0.44921595 0.05906844 -0.00000030
0.69314754 -0.43077007 -0.00000078
-0.53325665 -0.33617270 -0.00000013
-0.04487510 0.64211553 0.00000000
-0.46452326 0.23907115 -0.00000050
-0.10117229 0.57410532 -0.00000002
-0.45099965 -0.68307352 0.00000000
-0.01508346 -0.14068882 0.00000000
-0.16269851 -0.38087264 0.00000000
-0.43076542 -0.61061418 0.00000000
-0.46666980 -0.53211153 0.00000000
0.55083102 -0.32779914 -0.00000036
0.48233300 -0.13300987 -0.00000041
-0.03435016 0.22057571 0.00000000
0.35718229 -0.54871124 0.00000000
-0.09841941 -0.21270323 0.00000000
0.38786581 -0.42766073 0.00000000
-0.67773312 -0.76899153 -0.00000004
0.13596870 0.25370571 0.00000000
0.25140324 -0.19162102 0.00000000
-0.60575086 -0.11692928 -0.00000048
-0.50334448 -0.60349435 0.00000000
-0.08071514 -0.54956478 0.00000000
0.11736165 -0.26553705 0.00000000
0.78933179 -0.26994407 -0.00000133
-0.13437627 0.40488690 0.00000000
-0.65467548 -0.12629263 -0.00000058
0.50824183 0.03435384 -0.00000082
-0.19736962 -0.48029605 0.00000000
0.60529077 -0.29559037 -0.00000065
-0.47489709 -0.25112030 -0.00000008
-0.07660669 0.23706865 0.00000000
-0.21137328 0.52605230 -0.00000021
-0.34300527 -0.42708710 0.00000000
0.63506711 -0.34505430 -0.00000069
0.15426718 -0.33476454 0.00000000
-0.30842906 -0.62096089 0.00000000
0.70507067 -0.62569559 -0.00000044
0.19463634 0.04232203 0.00000000
0.49035034 -0.09127444 -0.00000052
-0.49516821 0.25168321 -0.00000057
0.31252784 -0.54063803 0.00000000
0.53710902 -0.58440572 0.00000000
-0.00633315 0.60135102 0.00000000
0.33873537 -0.05308911 0.00000000
0.23508807 0.49970815 -0.00000047
-0.47164625 -0.44069421 0.00000000
-0.34699205 -0.39594772 0.00000000
-0.04077586 -0.10356686 0.00000000
-0.05230306 0.23086824 0.00000000
-0.33904350 -0.18403950 0.00000000
0.13978280 -0.09430054 0.00000000
-0.47875348 -0.39322051 0.00000000
0.10729490 -0.07107955 0.00000000
-0.10132490 -0.59436256 0.00000000
0.49982297 -0.57215339 0.00000000
0.64744639 -0.41170970 -0.00000062
0.15630165 0.09124379 0.00000000
0.36883712 0.12411404 -0.00000038
-0.06043178 0.55458069 0.00000000
0.76330316 -0.55002362 -0.00000062
0.49612817 -0.20298792 -0.00000034
0.08485496 0.54435968 0.00000000
-0.16008168 -0.59965092 0.00000000
0.24456774 -0.37140653 0.00000000
-0.29373911 0.26658204 -0.00000016
-0.50009084 -0.36354965 -0.00000004
0.35235661 -0.38470662 0.00000000
0.54175985 0.07221136 -0.00000103
-0.02291964 -0.44006747 0.00000000
-0.38276592 0.04206244 -0.00000015
-0.04966270 -0.00217027 0.00000000
0.17131171 -0.31521615 0.00000000
0.13345404 -0.51743621 0.00000000
0.24248058 -0.56304467 0.00000000
-0.13122228 -0.63924408 0.00000000
0.65646160 -0.49345124 -0.00000052
0.04610407 -0.26577151 0.00000000
0.00149214 0.27263370 0.00000000
0.04979372 0.25560427 0.00000000
-0.24459895 0.05660586 0.00000000
0.73461235 -0.60800523 -0.00000048
0.06970554 0.50348115 0.00000000
-0.46477467 -0.31469899 -0.00000001
0.05396656 -0.07172850 0.00000000
-0.36516395 0.33598903 -0.00000037
0.57379353 -0.38027123 -0.00000036
-0.34037754 -0.51230592 0.00000000
-0.58157861 -0.15645573 -0.00000040
-0.01114644 -0.08610349 0.00000000
0.29232296 -0.15865460 0.00000000
-0.03818107 0.08529840 0.00000000
0.29862931 0.40640193 -0.00000058
-0.71065545 -0.07289934 -0.00000074
-0.27783838 0.26994243 -0.00000012
-0.04192524 0.36315173 0.00000000
-0.73474181 -0.30207959 -0.00000059
-0.36675227 -0.50170332 0.00000000
-0.12467436 0.42195788 0.00000000
0.57270807 -0.34634814 -0.00000042
-0.53068888 -0.61529934 0.00000000
-0.37495312 -0.56075543 0.00000000
0.30276582 -0.08904415 0.00000000
0.53751779 0.00560275 -0.00000089
0.06873198 0.52001381 0.00000000
-0.42869884 0.27277187 -0.00000045
0.05089643 0.60694766 0.00000000
-0.47941118 -0.54297900 0.00000000
0.12683094 -0.61180991 0.00000000
-0.19172631 -0.03220982 0.00000000
0.13423835 -0.73820567 0.00000000
-0.60924524 0.15833776 -0.00000073
-0.30625853 0.48762727 -0.00000038
-0.01720164 -0.25779921 0.00000000
-0.47325474 0.19323711 -0.00000047
0.43543690 -0.52679241 0.00000000
0.53040665 -0.48415869 0.00000000
-0.27201852 0.28921425 -0.00000013
0.20501283 -0.69938558 0.00000000
-0.44806632 0.10310556 -0.00000034
-0.16544008 -0.15718544 0.00000000
-0.19183742 -0.16395752 0.00000000
0.61626369 0.01699724 -0.00000125
-0.08449980 0.37351471 0.00000000
0.42538515 -0.55891943 0.00000000
0.46106049 -0.23359965 -0.00000014
-0.33937603 0.05186509 -0.00000006
0.17208898 0.08065864 0.00000000
0.29954952 -0.43122599 0.00000000
-0.09493514 -0.68432367 0.00000000
-0.50492698 -0.04955539 -0.00000033
-0.58460081 -0.25601292 -0.00000031
0.34531826 -0.27068201 0.00000000
0.79061395 -0.56385529 -0.00000059
0.43626258 0.27072018 -0.00000093
0.50371164 -0.10830273 -0.00000054
-0.22230022 -0.28836501 0.00000000
-0.49340793 0.09057327 -0.00000043
0.63169605 -0.44337076 -0.00000050
0.31140116 -0.50701493 0.00000000
0.61794084 0.11339366 -0.00000142
-0.14944203 0.62223077 -0.00000016
-0.25006434 -0.68812406 0.00000000
0.16788641 -0.42164207 0.00000000
-0.46660331 -0.62467688 0.00000000
0.30703887 0.02733911 0.00000000
0.48020163 0.24418455 -0.00000107
-0.73035491 -0.11130396 -0.00000075
-0.29155049 -0.16591151 0.00000000
-0.33625305 0.13487118 -0.00000013
0.14401422 -0.73766226 0.00000000
0.04953563 0.57733184 0.00000000
-0.04102153 0.26396689 0.00000000
0.00932349 0.40173593 0.00000000
0.35144734 -0.75805777 0.00000000
0.17335971 -0.74752820 0.00000000
-0.38809603 -0.67972755 0.00000000
0.03392061 0.00737344 0.00000000
-0.31486952 0.02046281 0.00000000
-0.53561670 -0.29044190 -0.00000018
0.13279489 0.18021347 0.00000000
0.40582556 0.34621590 -0.00000093
0.05921522 0.46438739 0.00000000
-0.08235593 0.05213995 0.00000000
0.50312769 -0.41951317 0.00000000
0.12978017 -0.63258487 0.00000000
0.79620808 -0.62258458 -0.00000044
-0.74606013 -0.52030516 -0.00000035
-0.35030815 0.23004326 -0.00000024
-0.16126038 0.14834946 0.00000000
0.78432345 -0.26231733 -0.00000134
0.48854405 -0.76939583 0.00000000
-0.20646884 -0.27639568 0.00000000
-0.22338060 0.51823378 -0.00000023
-0.54650635 -0.63405401 0.00000000
0.19755761 -0.44975796 0.00000000
-0.26424271 0.50223869 -0.00000030
-0.50584537 0.04616047 -0.00000041
-0.77566230 -0.47123060 -0.00000041
0.35377523 -0.47699144 0.00000000
0.34508026 -0.45395574 0.00000000
-0.32250157 0.47484580 -0.00000040
-0.24958780 -0.76333249 0.00000000
-0.78554225 -0.13378018 -0.00000083
-0.24320032 -0.13426204 0.00000000
0.67189240 -0.79583704 -0.00000001
0.11312067 -0.69849586 0.00000000
0.07168945 -0.34909353 0.00000000
0.11097996 -0.65812844 0.00000000
0.05682827 -0.46185711 0.00000000
-0.25386220 0.11294952 0.00000000
-0.13783871 0.51659971 -0.00000004
0.29950881 -0.35013634 0.00000000
-0.22650768 0.20705885 0.00000000
-0.03887458 -0.27145395 0.00000000
-0.11576684 -0.17324051 0.00000000
-0.60187775 -0.44978130 -0.00000018
0.61918294 0.02213214 -0.00000127
-0.55142224 -0.03179920 -0.00000044
-0.79754537 -0.23379743 -0.00000071
-0.20184541 0.41418126 -0.00000009
-0.34001347 -0.41623917 0.00000000
0.16463391 0.06561480 0.00000000
0.54825163 -0.24968036 -0.00000048
0.07634329 -0.45802543 0.00000000
0.57644194 0.17158681 -0.00000135
0.34768173 0.27287850 -0.00000055
-0.08364041 0.23712642 0.00000000
0.70399445 -0.27919710 -0.00000110
0.21288174 -0.68247890 0.00000000
-0.45666832 -0.49102730 0.00000000
0.49526036 0.16438623 -0.00000099
0.44281426 0.20870969 -0.00000084
0.51969701 -0.79182345 0.00000000
-0.10166609 -0.01287608 0.00000000
-0.79837793 -0.25171253 -0.00000069
0.07315639 -0.19101556 0.00000000
-0.15790848 -0.71160555 0.00000000
0.08743915 0.29855770 0.00000000
0.22890171 -0.12693655 0.00000000
0.36860669 -0.76204836 0.00000000
-0.61040062 -0.34223345 -0.00000029
0.60565329 -0.20235991 -0.00000081
-0.05055725 -0.71104574 0.00000000
0.77140868 -0.35596535 -0.00000111
0.67827761 -0.26281807 -0.00000102
-0.50149363 0.03684900 -0.00000040
0.01125015 0.50477195 0.00000000
-0.51296949 -0.40226412 -0.00000003
0.34998283 -0.17010605 0.00000000
-0.00811867 -0.58111656 0.00000000
-0.52999723 -0.36658797 -0.00000010
-0.67810911 -0.36756870 -0.00000042
0.12982266 -0.37990555 0.00000000
-0.15458323 -0.02817658 0.00000000
0.24271682 -0.23131239 0.00000000
-0.52387947 0.21100669 -0.00000060
-0.46865922 -0.60320789 0.00000000
-0.29891181 -0.15557484 0.00000000
-0.00045509 0.67991376 0.00000000
0.12518544 -0.46726635 0.00000000
0.06033608 -0.03636655 0.00000000
-0.58005869 -0.76522291 0.00000000
0.60640645 -0.09362626 -0.00000101
0.30655083 -0.51472795 0.00000000
-0.58313119 -0.70670766 0.00000000
-0.52997482 -0.59579766 0.00000000
-0.74273223 -0.32513389 -0.00000059
-0.39641026 0.05297485 -0.00000019
0.28712893 0.49445149 -0.00000069
0.49558553 -0.00133375 -0.00000070
0.37383458 -0.71458972 0.00000000
0.25538456 -0.19864069 0.00000000
-0.03267656 0.22364365 0.00000000
0.47256288 -0.28409362 -0.00000010
0.14939767 0.60959464 -0.00000030
0.04950706 -0.63286084 0.00000000
0.70693964 -0.11303116 -0.00000140
0.26388800 0.30957749 -0.00000026
0.62139761 -0.74048948 0.00000000
0.48175022 -0.02334273 -0.00000060
0.72381830 -0.77004808 -0.00000007
0.44504234 -0.06932130 -0.00000036
-0.48767385 -0.64230090 0.00000000
0.74252254 -0.02169126 -0.00000172
-0.78087038 -0.54619330 -0.00000032
-0.22663771 -0.65348971 0.00000000
-0.54521388 -0.06142596 -0.00000040
0.47372448 -0.17009863 -0.00000031
0.61190188 -0.04225862 -0.00000112
-0.07789028 -0.53728706 0.00000000
-0.33431923 -0.78225750 0.00000000
0.08939314 -0.60387129 0.00000000
-0.16981225 -0.54103541 0.00000000
0.47044858 -0.42774710 0.00000000
0.06287243 0.17405120 0.00000000
0.39124468 0.02458014 -0.00000030
0.46260706 0.07227556 -0.00000069
-0.37821391 0.11302214 -0.00000020
-0.03069156 -0.58863884 0.00000000
0.34592423 0.36920163 -0.00000071
0.07204716 0.42373753 0.00000000
0.01994810 0.31050649 0.00000000
0.11325363 -0.79249632 0.00000000
-0.65866727 -0.22159024 -0.00000050
-0.01787662 -0.45170254 0.00000000
-0.69646013 0.01995302 -0.00000080
0.16880386 -0.62518853 0.00000000
-0.21840525 -0.29366711 0.00000000
0.56766105 -0.52149409 -0.00000009
-0.01518141 0.34139439 0.00000000
0.59027106 -0.66436785 0.00000000
-0.12930554 0.64192820 -0.00000014
-0.64810890 -0.05263490 -0.00000063
-0.63786685 0.10739589 -0.00000075
-0.32442892 -0.09376027 0.00000000
-0.39228007 0.02808002 -0.00000015
0.24165702 -0.16615619 0.00000000
-0.22036752 -0.23057824 0.00000000
0.05402666 -0.47749519 0.00000000
0.43931738 0.33874714 -0.00000106
0.74234074 0.01783623 -0.00000179
-0.01587100 -0.46035522 0.00000000
0.55117470 -0.50151664 -0.00000005
-0.23427238 0.55908990 -0.00000029
-0.34246844 0.15476675 -0.00000016
0.58802080 0.02170436 -0.00000113
0.49010569 0.06695598 -0.00000080
0.32992229 -0.73801196 0.00000000
-0.66101897 -0.44647378 -0.00000031
-0.08045399 -0.52672935 0.00000000
0.47489893 -0.16287802 -0.00000032
-0.16155885 0.10084757 0.00000000
0.03469478 0.09755150 0.00000000
-0.39529067 -0.49197999 0.00000000
0.54371452 -0.70404345 0.00000000
-0.46537122 -0.44301370 0.00000000
0.46315914 0.08871902 -0.00000072
0.00955270 -0.30487484 0.00000000
-0.28506133 -0.15351070 0.00000000
0.12594792 -0.35550430 0.00000000
0.34114006 -0.02680393 0.00000000
0.32041824 0.04672101 -0.00000004
-0.16408421 -0.67148185 0.00000000
-0.32113862 -0.00179378 0.00000000
-0.77114087 -0.00313010 -0.00000094
0.30281568 -0.38596427 0.00000000
-0.42615128 -0.41177118 0.00000000
-0.65865117 -0.74751574 -0.00000004
-0.01457287 -0.49632844 0.00000000
-0.64992547 -0.71569663 -0.00000005
-0.11960181 0.62501842 -0.00000010
-0.39591929 -0.76856196 0.00000000
-0.04291097 -0.19417199 0.00000000
0.37196985 -0.74963945 0.00000000
0.71201485 -0.78286374 -0.00000004
-0.00849436 0.67992204 0.00000000
0.10945871 -0.05571081 0.00000000
0.29088947 -0.24663903 0.00000000
-0.62367570 -0.76966208 0.00000000
0.51025701 -0.05015605 -0.00000067
-0.72642905 -0.29165620 -0.00000059
0.69031155 -0.79038352 -0.00000002
0.06360711 -0.70436460 0.00000000
-0.69794458 -0.69822556 -0.00000013
0.12761994 0.45892060 0.00000000
-0.71917182 -0.05207761 -0.00000078
0.47922567 -0.42006198 0.00000000
0.20106873 0.02696769 0.00000000
0.04769881 0.31372920 0.00000000
-0.67786986 -0.34599257 -0.00000043
0.79400462 -0.01845496 -0.00000194
-0.28408790 -0.47288132 0.00000000
-0.19891143 -0.76406968 0.00000000
0.43796492 0.03417361 -0.00000052
-0.32609758 -0.21561943 0.00000000
0.56757087 0.15705034 -0.00000129
-0.52871239 -0.09286872 -0.00000034
0.71024483 -0.29470438 -0.00000110
-0.74035203 -0.10248369 -0.00000078
0.60740745 -0.56327724 -0.00000018
0.28527540 -0.69919926 0.00000000
0.10655584 -0.16067548 0.00000000
0.12135816 -0.00489621 0.00000000
0.75952446 -0.69568050 -0.00000026
0.16219284 -0.03708062 0.00000000
-0.18815121 0.00826727 0.00000000
0.12600526 -0.52909148 0.00000000
-0.45646831 -0.57268250 0.00000000
-0.27308047 -0.27878591 0.00000000
-0.06564526 -0.52830684 0.00000000
0.10689497 0.15456641 0.00000000
0.19110411 0.02557032 0.00000000
-0.75546950 -0.66732180 -0.00000017
0.14150351 0.02450399 0.00000000
-0.01383589 -0.49355790 0.00000000
0.25150290 -0.22784604 0.00000000
-0.47253969 -0.12361403 -0.00000019
-0.04164994 -0.29260758 0.00000000
-0.76531178 -0.30596548 -0.00000062
0.72788221 -0.68035531 -0.00000030
0.49758694 -0.18059717 -0.00000039
0.12082828 0.20246096 0.00000000
-0.31672391 0.22783992 -0.00000017
0.10434654 -0.12753139 0.00000000
-0.33596689 0.23935156 -0.00000022
0.49578169 0.19124971 -0.00000104
-0.05536315 0.71768951 -0.00000005
-0.75142539 -0.28449890 -0.00000064
-0.11799232 0.63947910 -0.00000011
-0.36078411 0.22789773 -0.00000026
0.75167912 -0.15198307 -0.00000153
0.00971782 0.47296047 0.00000000
0.79100609 -0.24924660 -0.00000138
0.40973783 0.06467116 -0.00000045
0.65100819 -0.58460981 -0.00000033
-0.52297735 0.21510100 -0.00000060
0.62119102 -0.56992942 -0.00000023
0.25401303 -0.69050276 0.00000000
0.13533746 -0.10568796 0.00000000
-0.48786151 -0.29063296 -0.00000008
-0.02744546 0.29422167 0.00000000
0.67022842 -0.37290397 -0.00000079
-0.74141353 -0.03906844 -0.00000084
-0.19402917 -0.02757845 0.00000000
0.55637515 -0.18482392 -0.00000063
0.25912276 0.30527905 -0.00000023
0.53499323 -0.04175948 -0.00000080
-0.32122025 -0.35215485 0.00000000
0.53869784 0.07008244 -0.00000101
0.16623020 0.35072228 0.00000000
-0.46061757 -0.02017162 -0.00000026
-0.21455637 0.29327986 -0.00000001
0.72708553 -0.31469932 -0.00000113
0.14332929 0.28745282 0.00000000
-0.25719756 -0.65282089 0.00000000
-0.03381843 -0.43175983 0.00000000
0.63511759 0.16119182 -0.00000158
0.18166208 -0.00629296 0.00000000
0.46482682 0.07506575 -0.00000070
-0.09586936 0.62715358 -0.00000005
-0.35485750 0.10115414 -0.00000014
0.75474864 -0.42648697 -0.00000093
-0.13049480 -0.69948101 0.00000000
0.53041887 -0.09892468 -0.00000067
-0.10979462 0.33570522 0.00000000
-0.39912406 -0.07388380 -0.00000008
0.07896666 0.24203795 0.00000000
0.12239655 -0.55924213 0.00000000
0.28811100 -0.09406585 0.00000000
-0.56574661 0.03586267 -0.00000053
-0.56176496 0.06471236 -0.00000055
0.21672398 0.56208485 -0.00000050
0.69939578 -0.68875498 -0.00000028
0.24590281 0.43097594 -0.00000040
0.25781703 -0.43976995 0.00000000
-0.01029033 -0.74115413 0.00000000
0.70257580 -0.03901364 -0.00000152
0.48364764 0.29118612 -0.00000116
0.31694844 -0.72460794 0.00000000
-0.48093045 -0.56136900 0.00000000
-0.22194618 0.09654706 0.00000000
0.41979912 0.05519890 -0.00000047
-0.40488046 0.04023729 -0.00000019
-0.62724704 -0.31504810 -0.00000035
-0.30532736 0.16508690 -0.00000009
-0.19701228 -0.44341111 0.00000000
0.73697662 -0.34622043 -0.00000112
0.46129784 0.27382395 -0.00000104
-0.22329232 0.28227934 -0.00000002
0.41586801 -0.19223464 -0.00000002
0.52098411 0.18352386 -0.00000113
0.45387688 -0.48787174 0.00000000
-0.45361283 0.02479475 -0.00000028
0.03837091 0.75520080 0.00000001
-0.03601949 -0.74021870 0.00000000
0.56970704 -0.19177368 -0.00000068
0.34565714 0.18991666 -0.00000040
-0.42452240 -0.76708400 0.00000000
0.27469292 -0.07839427 0.00000000
-0.15397289 -0.04381578 0.00000000
-0.52105606 -0.42254847 -0.00000003
-0.42707491 -0.74672610 0.00000000
0.00240763 0.18443882 0.00000000
-0.59159839 -0.26015246 -0.00000033
-0.45916590 -0.52775824 0.00000000
0.52850378 0.27014375 -0.00000130
0.30048704 -0.23647140 0.00000000
-0.53740895 -0.26087639 -0.00000021
-0.63933074 -0.23191440 -0.00000045
-0.75344574 -0.55645436 -0.00000030
0.01204873 -0.64084756 0.00000000
-0.74124736 -0.57891959 -0.00000028
0.47605258 -0.26488563 -0.00000015
-0.31937510 0.33936501 -0.00000027
0.66934156 -0.14189553 -0.00000119
-0.65459132 -0.50193161 -0.00000025
0.37229601 0.28176847 -0.00000067
0.20491078 -0.47428063 0.00000000
0.08750223 -0.06881416 0.00000000
0.78133410 -0.14232901 -0.00000164
0.05201220 0.59116971 0.00000000
0.00007754 -0.74195093 0.00000000
0.37441605 -0.59901166 0.00000000
-0.34340051 -0.05190154 0.00000000
0.32694066 -0.49277645 0.00000000
0.31531769 -0.46458086 0.00000000
0.77368343 -0.19212523 -0.00000152
0.51706249 -0.30301708 -0.00000026
0.72608304 -0.52940691 -0.00000068
-0.49410585 0.26802054 -0.00000058
-0.47868767 -0.63368160 0.00000000
-0.49367091 0.11309539 -0.00000045
0.28681323 0.08069954 0.00000000
-0.35392305 -0.31497100 0.00000000
0.00178569 -0.69737357 0.00000000
0.68835223 -0.27238807 -0.00000104
0.50513816 0.14097369 -0.00000099
0.49077553 -0.05399924 -0.00000058
-0.44677711 0.26280621 -0.00000048
0.03014597 0.42019248 0.00000000
-0.63422215 -0.41684383 -0.00000028
0.17610848 0.08795803 0.00000000
0.73589480 -0.60810876 -0.00000048
-0.56217736 0.11265903 -0.00000059
-0.62166589 -0.30060589 -0.00000035
0.67181915 -0.04331239 -0.00000138
-0.11634324 -0.68124014 0.00000000
0.78618151 -0.41894099 -0.00000095
0.45299354 0.26406655 -0.00000099
0.78338593 -0.33318526 -0.00000117
0.79876465 -0.08697560 -0.00000178
-0.00992426 -0.24829026 0.00000000
-0.74051410 -0.22822799 -0.00000067
0.07101924 0.36394036 0.00000000
-0.57087213 -0.56484365 -0.00000001
0.12236827 0.52680391 -0.00000004
-0.27664977 0.43568799 -0.00000027
0.69735396 -0.09529430 -0.00000139
-0.31507868 -0.54748195 0.00000000
-0.07905006 0.08157602 0.00000000
0.64868337 -0.63224930 -0.00000024
-0.56133568 -0.33664167 -0.00000019
0.73192036 -0.02937639 -0.00000166
0.23587337 -0.75994676 0.00000000
0.42158669 -0.63498724 0.00000000
0.05652151 -0.50882649 0.00000000
-0.70399243 -0.05413276 -0.00000075
-0.77204943 -0.07163653 -0.00000088
-0.13447581 -0.29900369 0.00000000
0.71637136 -0.57039976 -0.00000057
-0.36066112 -0.44811878 0.00000000
0.02721182 -0.67686963 0.00000000
0.36113521 0.07732248 -0.00000026
0.43358546 -0.00186025 -0.00000043
0.36727884 -0.06994752 -0.00000003
-0.42725918 0.00761862 -0.00000021
-0.71599740 -0.54269111 -0.00000032
-0.69630450 -0.62344998 -0.00000022
-0.67189229 -0.68453568 -0.00000012
-0.65494502 -0.21124268 -0.00000050
-0.42180321 -0.39525580 0.00000000
-0.58200854 0.03301249 -0.00000056
0.39205298 -0.13900203 -0.00000001
0.13571636 0.54839242 -0.00000013
-0.13649520 0.05826227 0.00000000
-0.07267343 -0.78566003 0.00000000
-0.13999243 -0.25602123 0.00000000
-0.66218466 -0.01424489 -0.00000069
-0.09280911 -0.74206221 0.00000000
0.42788532 0.30021396 -0.00000094
-0.28108612 -0.48937497 0.00000000
-0.16217865 0.03041531 0.00000000
0.74878216 -0.46447986 -0.00000084
-0.37788892 -0.49007314 0.00000000
-0.40814590 -0.58830261 0.00000000
-0.10735506 0.06095387 0.00000000
0.06092633 0.29621747 0.00000000
-0.40731615 -0.22491100 0.00000000
0.19704103 0.15925406 0.00000000
-0.08855948 0.44762573 0.00000000
0.14502947 0.35353452 0.00000000
0.51400524 -0.02989082 -0.00000073
-0.20900963 -0.51166886 0.00000000
0.09874944 -0.72758329 0.00000000
-0.05519459 -0.37250164 0.00000000
-0.61166245 -0.07790101 -0.00000053
0.41388282 -0.57908946 0.00000000
-0.76919049 0.01492382 -0.00000095
0.32943690 0.14238350 -0.00000024
-0.10436980 -0.62559682 0.00000000
-0.67763793 -0.47519141 -0.00000032
0.00802505 0.73630047 0.00000000
-0.72299516 -0.52992421 -0.00000034
0.25468922 -0.27592555 0.00000000
0.21334612 -0.21066631 0.00000000
-0.56285894 -0.40066403 -0.00000014
0.67049074 -0.03024722 -0.00000139
-0.14693891 0.06357594 0.00000000
0.06949621 0.18805899 0.00000000
-0.15167269 0.51986682 -0.00000008
-0.46715608 -0.78274560 0.00000000
0.33811823 -0.13036910 0.00000000
-0.07108520 0.66575241 -0.00000003
-0.16024078 -0.36412066 0.00000000
-0.21317032 -0.23975629 0.00000000
-0.18297163 0.00835109 0.00000000
0.31548971 0.01611745 0.00000000
0.40149483 0.36293364 -0.00000094
-0.21323226 -0.34890923 0.00000000
0.36696863 0.27080300 -0.00000063
-0.14203097 -0.43987405 0.00000000
0.48245370 -0.57995230 0.00000000
-0.79515767 -0.11863901 -0.00000085
0.73649764 -0.20997591 -0.00000136
0.17759502 0.57614756 -0.00000036
-0.00235183 0.20529534 0.00000000
-0.69246942 -0.53333503 -0.00000030
-0.24030268 -0.48308629 0.00000000
-0.72789359 -0.76516861 -0.00000004
-0.33798459 0.23944721 -0.00000023
0.30328009 0.40218428 -0.00000059
-0.32233739 -0.37378085 0.00000000
-0.70826364 -0.61033899 -0.00000024
0.28744897 0.21499759 -0.00000019
-0.02184948 0.35840020 0.00000000
0.63500762 0.16351143 -0.00000158
0.00073199 0.47235844 0.00000000
-0.05991747 -0.78057820 0.00000000
0.54306602 -0.37337032 -0.00000024
-0.26565495 0.14212522 0.00000000
-0.13037401 0.20908816 0.00000000
-0.13129434 -0.37628657 0.00000000
-0.20789251 -0.01152845 0.00000000
0.76184267 -0.23841368 -0.00000140
0.79024339 -0.29699862 -0.00000126
-0.77897173 -0.02886603 -0.00000093
-0.37677112 -0.46534261 0.00000000
-0.48421904 -0.58548868 0.00000000
-0.08845002 0.47612634 0.00000000
0.06530449 -0.32064274 0.00000000
0.14897208 -0.29406410 0.00000000
0.57555991 -0.02371092 -0.00000100
-0.35874528 -0.77851099 0.00000000
-0.79652399 -0.50986010 -0.00000036
-0.31301925 -0.74689567 0.00000000
0.19189587 -0.60689700 0.00000000
0.68208307 -0.43573657 -0.00000073
0.08382365 -0.59962499 0.00000000
-0.50382090 -0.14039117 -0.00000024
-0.57401621 -0.43239924 -0.00000014
-0.54727286 -0.34130523 -0.00000016
0.65862983 -0.05247342 -0.00000130
0.27806634 0.41966945 -0.00000051
0.61000705 -0.30730048 -0.00000065
-0.39377433 -0.27061692 0.00000000
0.24522515 0.08649320 0.00000000
0.70452458 -0.22513452 -0.00000119
0.70276815 -0.06530148 -0.00000147
0.06219212 0.09326048 0.00000000
-0.26766455 0.39518067 -0.00000021
-0.43351093 -0.79717088 0.00000000
-0.00121349 -0.30377564 0.00000000
0.32177258 0.44047305 -0.00000074
-0.45786560 0.17882195 -0.00000043
0.50696361 -0.07775382 -0.00000061
0.70039690 -0.61269641 -0.00000047
-0.02930381 -0.12924004 0.00000000
0.38366979 -0.23514163 0.00000000
0.56319100 -0.76480711 0.00000000
-0.13671529 -0.12232472 0.00000000
0.13473181 0.35965776 0.00000000
0.50229836 -0.39126506 -0.00000004
0.39368841 0.25433129 -0.00000072
0.32064253 0.47134012 -0.00000079
0.60041034 -0.63162130 -0.00000003
-0.51669943 0.03848356 -0.00000043
0.52223206 -0.41511640 -0.00000008
0.02165555 -0.23391850 0.00000000
0.61573553 -0.11035526 -0.00000102
-0.65381461 -0.47081813 -0.00000027
-0.16817521 -0.45032394 0.00000000
-0.74840826 -0.15358678 -0.00000075
0.14766316 -0.14889452 0.00000000
0.64582855 -0.65701485 -0.00000018
0.14460449 0.14000721 0.00000000
-0.03877059 -0.65151298 0.00000000
-0.11054636 -0.43011239 0.00000000
0.62619597 -0.62282979 -0.00000016
0.01029365 0.05773015 0.00000000
0.26441833 -0.61853462 0.00000000
0.30077988 0.14114767 -0.00000012
-0.62158436 -0.05214695 -0.00000057
-0.36903593 -0.77986896 0.00000000
0.34545806 -0.57050771 0.00000000
0.01121547 0.02232423 0.00000000
0.19500215 0.29769444 0.00000000
-0.12207142 0.33191630 0.00000000
0.07928257 0.68474358 -0.00000013
0.12762026 0.14048468 0.00000000
-0.11707617 -0.66351169 0.00000000
0.27781314 -0.44873747 0.00000000
0.23945361 -0.77307391 0.00000000
0.64985675 -0.17072563 -0.00000106
-0.37898928 0.14587338 -0.00000023
0.11561895 0.29668978 0.00000000
-0.04605092 -0.29119638 0.00000000
0.52019054 0.12303011 -0.00000102
-0.34385610 0.29066265 -0.00000028
-0.53274727 0.01988877 -0.00000045
-0.73235029 -0.27861607 -0.00000061
0.29317796 0.25879973 -0.00000029
0.46298558 0.14520051 -0.00000082
0.08001008 0.41571334 0.00000000
-0.35000405 -0.44661781 0.00000000
-0.26880977 0.39984480 -0.00000022
0.44780713 -0.26425686 -0.00000003
-0.05956591 -0.45047146 0.00000000
-0.39050007 -0.11771116 -0.00000002
-0.53056741 0.08116303 -0.00000050
0.64984637 -0.36270249 -0.00000072
-0.78694290 -0.73625004 -0.00000008
0.02186921 0.76398313 -0.00000003
