ply
format ascii 1.0
element vertex 1164
property float x
property float y
property float z
end_header
-0.05658728 -0.20814180 0.00000225
-0.11131190 0.57932115 -0.00225235
-0.05937413 -0.17042851 0.00000240
-0.00233833 0.05794046 -0.00001055
-0.79758602 -0.67520368 -0.02116027
-0.11336502 0.25033274 -0.00000263
-0.14215058 -0.27021614 0.00000146
-0.52185881 -0.25011629 -0.00985422
-0.77229500 -0.58307242 -0.02262034
-0.26607418 -0.78119224 -0.00000152
-0.65708429 -0.35695127 -0.02017529
-0.31553006 -0.69170111 -0.00000143
-0.52920842 -0.19001332 -0.01351216
-0.47526327 -0.59747744 -0.00000198
-0.77787805 -0.51489478 -0.02645731
-0.20060793 0.04374014 -0.00000491
-0.00291023 -0.03410924 0.00000336
-0.07038103 0.62431222 0.00000495
-0.15143250 0.20533201 -0.00000255
-0.56339896 -0.22711378 -0.01564771
-0.61907417 0.07700736 -0.03625413
-0.59134769 -0.79091889 -0.00000353
-0.00907439 0.57242858 0.00000187
-0.13404042 -0.58505809 0.00000013
-0.13103624 -0.13864310 0.00000210
-0.06006860 0.33367458 -0.00000226
-0.11235825 -0.40772778 0.00000104
-0.30962536 -0.63960373 -0.00000117
-0.06561351 -0.28887019 0.00000184
-0.51409876 0.02316605 -0.02181495
-0.71521908 -0.20626789 -0.03385094
-0.07511681 0.06148179 -0.00000827
-0.06405087 -0.08899704 0.00000272
-0.33304489 -0.40662348 -0.00000029
-0.08141936 0.52156401 0.00000284
-0.26920465 0.50623173 -0.01673064
-0.65475005 -0.39149523 -0.01828731
-0.45580998 -0.36196530 -0.00000083
-0.34716505 -0.63264912 -0.00000136
-0.21720488 -0.14467339 0.00000156
-0.15650883 0.40009218 0.00000223
-0.00633728 -0.72914547 0.00000027
-0.39292008 0.07720170 -0.01060650
-0.13060208 -0.44066504 0.00000078
-0.66703582 -0.03204687 -0.03657101
-0.05907965 -0.46988162 0.00000109
-0.50819707 -0.54726470 -0.00000196
-0.36870295 -0.37242928 -0.00000035
-0.02130673 -0.74068075 0.00000013
-0.45486560 -0.54861927 -0.00000165
-0.26921165 0.42098713 -0.01272593
-0.45661429 -0.07121316 -0.01085871
-0.44836512 -0.38573086 -0.00000089
-0.01940540 0.31852433 -0.00000385
-0.61000472 -0.43600506 -0.01111959
-0.39958191 0.26959321 -0.02040244
-0.20338535 -0.23280276 0.00000125
-0.65671170 0.12562835 -0.04280857
-0.51837909 -0.32833618 -0.00578402
-0.65047222 0.08836139 -0.04034969
-0.51889431 -0.14618528 -0.01440145
-0.71453464 0.03139731 -0.04494081
-0.04983146 -0.19443725 0.00000235
-0.74828243 0.04432953 -0.04937707
-0.59911460 -0.12477580 -0.02450828
-0.00025601 -0.29424101 0.00000221
-0.78853929 -0.75467944 -0.01639948
-0.40499818 -0.70837373 -0.00000204
-0.26089138 -0.15482345 0.00000125
-0.31791484 0.12200821 -0.00420268
-0.10852729 0.10620153 -0.00000620
-0.14183214 0.36416557 0.00000093
-0.60962349 -0.69386852 -0.00000322
-0.42635271 -0.12346363 -0.00497042
-0.30745178 -0.76606739 -0.00000171
-0.09983724 0.41393077 0.00000084
-0.58949411 -0.43401477 -0.00888621
-0.28824681 -0.51794779 -0.00000051
-0.09381660 0.51279145 0.00000301
-0.24867401 -0.48861426 -0.00000014
-0.69073057 -0.17370898 -0.03260266
-0.44021273 -0.10294527 -0.00750695
-0.40927613 -0.73683882 -0.00000219
-0.35020554 -0.79398453 -0.00000209
-0.51478416 0.04050794 -0.02270757
-0.43512076 -0.11749206 -0.00624574
-0.70491767 -0.78615892 -0.00543394
-0.51835728 -0.70888209 -0.00000273
-0.14107728 -0.58872288 0.00000007
-0.22555698 -0.34864625 0.00000061
-0.43774807 -0.29129410 -0.00000042
-0.54552424 0.02410836 -0.02542439
-0.00782008 -0.48084342 0.00000141
-0.02852621 -0.57107341 0.00000083
-0.55005026 -0.73125172 -0.00000302
-0.69173503 0.07073356 -0.04420258
-0.19448978 0.55366677 -0.01048327
-0.77717930 -0.13425238 -0.04426410
-0.72570348 -0.28324348 -0.03142342
-0.07538803 0.37031984 -0.00000093
-0.66174799 -0.74295324 -0.00256676
-0.38877130 -0.57156295 -0.00000135
-0.20105623 0.58984661 -0.01292820
-0.32441401 -0.58753735 -0.00000103
-0.33509004 -0.27874362 0.00000026
-0.31503135 -0.30616564 0.00000026
-0.03966574 -0.53150749 0.00000094
-0.39401358 -0.34580791 -0.00000039
-0.40893358 -0.74362206 -0.00000222
-0.56768060 -0.36791217 -0.00951757
-0.02542445 0.02145304 -0.00001072
-0.48160252 -0.22912411 -0.00627360
-0.58432966 0.00635652 -0.02899266
-0.41125998 -0.52343696 -0.00000127
-0.10647290 -0.17275736 0.00000210
-0.29020804 -0.64968723 -0.00000109
-0.69093823 -0.30838412 -0.02629805
-0.45984182 -0.35996237 -0.00000085
-0.50831592 0.00131017 -0.02013192
-0.53595054 0.25713685 -0.03528788
-0.12160903 -0.51172006 0.00000053
-0.23551375 -0.42839143 0.00000020
-0.40654013 0.06064658 -0.01137377
-0.70017874 -0.69830447 -0.00902454
-0.13025221 0.07449640 -0.00000630
-0.10659547 -0.15390632 0.00000218
-0.23457511 -0.67317927 -0.00000086
-0.52403730 -0.57868057 -0.00000219
-0.40178478 0.38981235 -0.02630121
-0.13846619 0.18989933 -0.00000331
-0.04992533 0.71040446 -0.00144755
-0.69950253 -0.21670938 -0.03157730
-0.15592113 -0.67860508 -0.00000041
-0.04141980 -0.43501177 0.00000135
-0.02387984 -0.17488952 0.00000259
-0.14698792 -0.07677521 0.00000228
-0.35591206 -0.40141389 -0.00000040
-0.14678068 0.37510470 0.00000134
-0.01772791 0.70982140 0.00000539
-0.47534877 -0.49031904 -0.00000151
-0.24285333 0.03815051 -0.00000377
-0.07668854 -0.44445404 0.00000109
-0.70596290 -0.25413212 -0.03055178
-0.15175021 0.16068393 -0.00000360
-0.62144667 -0.57492524 -0.00589002
-0.49866262 -0.39300522 -0.00050852
-0.48022664 0.00847104 -0.01728172
-0.18174373 -0.33308437 0.00000095
-0.16989727 0.08328281 -0.00000489
-0.25721899 -0.39246249 0.00000023
-0.57971364 -0.75059575 -0.00000328
-0.11221777 0.65694970 -0.00600276
-0.10326439 -0.53494126 0.00000054
-0.31068403 -0.58142477 -0.00000092
-0.06556416 -0.11943891 0.00000258
-0.43978405 -0.22321647 -0.00180696
-0.33545670 -0.71866083 -0.00000167
-0.69623548 -0.31887603 -0.02640601
-0.46805957 -0.69658244 -0.00000237
-0.49865127 0.28031161 -0.03214531
-0.05872468 0.62124854 0.00000453
-0.17823824 -0.32267970 0.00000101
-0.68413353 -0.07999540 -0.03625769
-0.20941795 -0.12231346 0.00000170
-0.23769407 0.27941257 -0.00249795
-0.20535357 0.26594046 0.00000051
-0.35190353 -0.48441398 -0.00000074
-0.34248281 -0.72313523 -0.00000173
-0.26816356 -0.41899124 0.00000005
-0.18288761 0.04602363 -0.00000539
-0.04530738 -0.13885507 0.00000262
-0.56503636 -0.10528036 -0.02155823
-0.01445103 -0.57480758 0.00000090
-0.09291652 0.09153738 -0.00000702
-0.79642808 -0.20735367 -0.04301279
-0.03830770 0.01933353 -0.00001038
-0.02347348 0.55487305 0.00000189
-0.38936692 -0.73919153 -0.00000208
-0.08576685 -0.61258429 0.00000030
-0.16865993 0.61304992 -0.01034324
-0.72498733 -0.78095275 -0.00795535
-0.31987599 -0.52433592 -0.00000072
-0.61862838 -0.50864387 -0.00868475
-0.46880087 -0.79634994 -0.00000281
-0.54701930 -0.38239223 -0.00649319
-0.31502837 -0.19555065 0.00000074
-0.31548971 -0.65172136 -0.00000126
-0.59132355 0.09026383 -0.03372878
-0.16361797 0.18660893 -0.00000263
-0.00448674 0.64520025 0.00000346
-0.29656103 -0.25502199 0.00000059
-0.21598293 0.35805437 -0.00373012
-0.30774525 -0.30222508 0.00000032
-0.51492077 -0.57757664 -0.00000213
-0.10905010 0.53231198 0.00000393
-0.04037943 0.59980977 0.00000346
-0.42450613 -0.49521700 -0.00000123
-0.55151963 -0.63961142 -0.00000263
-0.49798292 -0.50931132 -0.00000173
-0.50351346 -0.74965155 -0.00000282
-0.33602098 -0.08678006 0.00000109
-0.19044013 0.33724958 0.00000176
-0.66986525 -0.77644402 -0.00191396
-0.35058793 -0.79135209 -0.00000208
-0.66188818 -0.76308888 -0.00163653
-0.51819021 0.20679531 -0.03090755
-0.06893480 0.46955243 0.00000123
-0.34736195 -0.17287835 0.00000065
-0.38218015 -0.79995590 -0.00000231
-0.06552768 -0.34906852 0.00000158
-0.01068543 0.45200446 -0.00000094
-0.00123403 0.25271156 -0.00000596
-0.71346140 -0.61037898 -0.01466292
-0.04705460 -0.46354511 0.00000119
-0.46861443 -0.34180489 -0.00000082
-0.64006889 -0.68566841 -0.00279904
-0.11581906 0.24199645 -0.00000276
-0.18904026 -0.46285558 0.00000033
-0.16956995 0.58754760 -0.00924817
-0.29265118 -0.69292080 -0.00000130
-0.35347915 -0.70108211 -0.00000170
-0.50194114 -0.37968266 -0.00150647
-0.39781824 -0.29722542 -0.00000020
-0.55053163 0.23239617 -0.03577948
-0.44770187 0.22625355 -0.02382510
-0.00225788 0.27217555 -0.00000547
-0.17108311 0.56875432 -0.00853677
-0.78883922 -0.12910502 -0.04582872
-0.15583694 -0.06923234 0.00000226
-0.56827438 0.15207648 -0.03401836
-0.15634793 0.37418655 0.00000161
-0.34000897 -0.19164695 0.00000061
-0.17895930 -0.02172556 0.00000232
-0.28491300 -0.12809956 0.00000122
-0.37249509 -0.27952126 0.00000003
-0.23493862 0.01666418 -0.00000451
-0.45666939 -0.17756446 -0.00586768
-0.27772352 0.10949567 -0.00000102
-0.07443072 0.26902530 -0.00000336
-0.59552872 -0.29344401 -0.01617603
-0.23631303 0.02608804 -0.00000425
-0.78642869 -0.57160097 -0.02476274
-0.64669979 0.14845233 -0.04274529
-0.57258099 0.09092505 -0.03163353
-0.00941694 -0.25854614 0.00000238
-0.32220930 -0.20108046 0.00000068
-0.58499604 -0.11880967 -0.02318690
-0.54671216 -0.23371062 -0.01344465
-0.55230653 -0.66757137 -0.00000275
-0.40883717 -0.51286989 -0.00000121
-0.44098023 -0.48816127 -0.00000130
-0.47556478 0.04287269 -0.01836932
-0.31400388 0.34941801 -0.01444461
-0.08799568 0.18622613 -0.00000492
-0.72943652 -0.54400057 -0.01959427
-0.01907600 -0.23584150 0.00000235
-0.33775103 -0.63994157 -0.00000134
-0.59178048 -0.43461213 -0.00911753
-0.05666913 0.58464879 0.00000360
-0.74655682 -0.79678035 -0.00965855
-0.41104040 -0.61170501 -0.00000166
-0.17174210 -0.66556454 -0.00000045
-0.19627592 0.11725532 -0.00000329
-0.20364711 -0.57384419 -0.00000024
-0.61339092 -0.33997717 -0.01601594
-0.36018616 -0.28313142 0.00000009
-0.23254089 -0.04669148 0.00000189
-0.49903223 -0.38540587 -0.00090754
-0.45651162 -0.47102970 -0.00000132
-0.62719512 -0.04121078 -0.03162056
-0.04268646 0.58567470 0.00000320
-0.03597908 -0.28693840 0.00000203
-0.31055352 -0.09195355 0.00000122
-0.42495626 -0.62647057 -0.00000181
-0.13689306 -0.59168565 0.00000009
-0.40690973 0.01218699 -0.00913866
-0.06404597 0.00874213 -0.00000986
-0.24774981 0.24328174 -0.00194103
-0.24415916 0.34492064 -0.00630953
-0.76338536 -0.39788437 -0.03031142
-0.22728531 0.13156143 -0.00000202
-0.07230947 0.38989621 -0.00000056
-0.40153745 -0.59840161 -0.00000154
-0.17122269 -0.00322525 0.00000245
-0.23316321 0.01796796 -0.00000454
-0.76896620 -0.67095524 -0.01811316
-0.68322563 0.06652552 -0.04303947
-0.50129658 0.00403684 -0.01946371
-0.00552753 0.43787974 -0.00000143
-0.37229773 -0.54818040 -0.00000115
-0.52207285 -0.63527870 -0.00000243
-0.60002500 0.12872715 -0.03652326
-0.76308894 -0.48035967 -0.02640235
-0.45253640 -0.11845729 -0.00817616
-0.31623098 -0.37344438 -0.00000004
-0.21127412 -0.56897801 -0.00000026
-0.09335695 -0.04789861 0.00000273
-0.01908248 0.54195952 0.00000145
-0.07335854 -0.43999016 0.00000113
-0.40547055 0.05136215 -0.01081617
-0.16705520 -0.57454336 -0.00000002
-0.20168063 0.04056835 -0.00000495
-0.69588470 -0.78914708 -0.00426880
-0.00109257 -0.22643840 0.00000250
-0.76608771 -0.05645413 -0.04666140
-0.60225672 -0.61945236 -0.00162070
-0.02199220 -0.51440310 0.00000112
-0.18599027 0.59930283 -0.01166338
-0.55324268 -0.77588636 -0.00000323
-0.24124505 0.06277131 -0.00000323
-0.74589920 -0.00177330 -0.04694042
-0.06821563 0.47885957 0.00000143
-0.15277481 -0.36170691 0.00000100
-0.48452485 -0.47762063 -0.00000151
-0.32105705 -0.38842610 -0.00000014
-0.24112128 0.04254293 -0.00000371
-0.23271734 -0.69664806 -0.00000095
-0.17456843 -0.34096140 0.00000095
-0.14255738 -0.76477128 -0.00000071
-0.29478323 0.33709520 -0.01168503
-0.15942189 -0.25526300 0.00000142
-0.21740545 -0.10510245 0.00000173
-0.26260096 -0.17599639 0.00000115
-0.01559217 -0.31062147 0.00000205
-0.18056899 0.30343571 0.00000066
-0.69934279 -0.26668656 -0.02921083
-0.29741043 -0.13480093 0.00000112
-0.04912917 0.72260058 -0.00193030
-0.57091063 -0.75029522 -0.00000323
-0.01830312 -0.03586198 0.00000323
-0.64848310 0.05335934 -0.03847934
-0.40874952 -0.50107759 -0.00000116
-0.71042430 -0.69787318 -0.01020711
-0.35170144 -0.30944571 0.00000002
-0.35029069 -0.78204405 -0.00000204
-0.21876006 0.39678147 -0.00586490
-0.00396845 -0.70933342 0.00000037
-0.42816862 0.15983589 -0.01848823
-0.28976211 -0.29177913 0.00000047
-0.31428227 -0.00337878 0.00000159
-0.75632471 -0.25916883 -0.03602856
-0.36334717 -0.40191138 -0.00000045
-0.75911242 -0.51711935 -0.02422394
-0.38516518 -0.49297902 -0.00000098
-0.55692440 -0.03058204 -0.02414790
-0.16082449 -0.58697516 -0.00000004
-0.68924129 -0.08547922 -0.03657948
-0.14265619 0.23988023 -0.00000200
-0.57764059 0.21921621 -0.03823573
-0.24293110 -0.10375862 0.00000158
-0.14192735 0.15081617 -0.00000414
-0.75834095 -0.72048736 -0.01458032
-0.19157709 -0.72802937 -0.00000084
-0.00896864 0.19669735 -0.00000706
-0.62179691 -0.32402387 -0.01771921
-0.47907108 -0.05118284 -0.01434759
-0.04972476 -0.29516947 0.00000191
-0.46794924 0.15493475 -0.02277097
-0.01016940 0.43025351 -0.00000147
-0.59174824 -0.04471351 -0.02743459
-0.25036076 -0.65772671 -0.00000089
-0.07547843 0.71307921 -0.00447219
-0.23410495 0.33005238 -0.00447026
-0.27165943 -0.27718627 0.00000065
-0.41140696 -0.79259533 -0.00000245
-0.15690909 -0.24569219 0.00000148
-0.66433394 0.13191138 -0.04396862
-0.27670971 -0.49530485 -0.00000034
-0.33887723 -0.63268477 -0.00000131
-0.78660005 -0.17336708 -0.04349486
-0.65632248 0.00002427 -0.03686257
-0.21534148 -0.24288435 0.00000114
-0.23082842 -0.21744636 0.00000116
-0.30057442 0.04132607 -0.00000195
-0.22277369 -0.06371663 0.00000188
-0.29757422 -0.44467023 -0.00000024
-0.18262050 -0.50249147 0.00000020
-0.69887143 -0.07004351 -0.03839730
-0.72369343 -0.20379101 -0.03492873
-0.26448104 0.31958196 -0.00742438
-0.20308588 0.37708080 -0.00316099
-0.10873214 0.03750298 -0.00000783
-0.33657521 -0.37116402 -0.00000016
-0.11213371 -0.23420227 0.00000180
-0.33712506 -0.23717724 0.00000043
-0.08381404 -0.00891092 0.00000296
-0.30224720 0.38809744 -0.01492832
-0.05690897 0.11665754 -0.00000751
-0.75744474 -0.53676647 -0.02311155
-0.09316294 0.63079941 -0.00261227
-0.76829541 -0.30706868 -0.03513579
-0.69700390 -0.37026376 -0.02407856
-0.18521357 -0.07160912 0.00000207
-0.16538380 0.15513901 -0.00000332
-0.63087344 -0.02942100 -0.03259184
-0.27333331 0.43078277 -0.01365380
-0.52604669 -0.48823068 -0.00000181
-0.42497966 -0.08495200 -0.00662425
-0.09774235 -0.36110929 0.00000133
-0.46345136 -0.77915365 -0.00000271
-0.25669220 -0.63733786 -0.00000084
-0.36098140 0.13327122 -0.00961773
-0.71251810 -0.02563278 -0.04203227
-0.64826363 0.05391716 -0.03848065
-0.72490048 -0.10777335 -0.03957738
-0.63433510 -0.64475113 -0.00407118
-0.14820403 0.07261831 -0.00000580
-0.29921699 -0.00194414 0.00000169
-0.08556040 -0.71200025 -0.00000013
-0.63194805 0.00496918 -0.03432969
-0.65802306 -0.68186611 -0.00501456
-0.30913892 -0.68337083 -0.00000136
-0.07774809 -0.49904704 0.00000085
-0.59182078 -0.60736281 -0.00100483
-0.56774580 -0.73921245 -0.00000316
-0.78793263 -0.34320173 -0.03566565
-0.08279131 -0.57623100 0.00000048
-0.24183545 -0.42046389 0.00000020
-0.06580539 -0.68866092 0.00000009
-0.10643809 -0.11631802 0.00000235
-0.74967653 -0.71322870 -0.01393848
-0.09200501 -0.71055043 -0.00000016
-0.04080629 -0.33088303 0.00000181
-0.07345291 -0.44833723 0.00000110
-0.26391965 0.04676084 -0.00000293
-0.37977263 0.29308087 -0.01925876
-0.07767306 0.05150618 -0.00000843
-0.73923928 -0.07304305 -0.04283601
-0.52114999 -0.51952326 -0.00000192
-0.69177949 -0.47324663 -0.01864686
-0.25440431 0.54094142 -0.01668252
-0.31192058 -0.05037368 0.00000140
-0.75097799 -0.75988841 -0.01189362
-0.61881697 -0.16872683 -0.02467830
-0.33211136 -0.57660693 -0.00000103
-0.27954891 -0.35945597 0.00000024
-0.22545326 -0.61664748 -0.00000056
-0.06414836 -0.63772845 0.00000032
-0.09698864 -0.24950159 0.00000182
-0.03775066 -0.31770563 0.00000188
-0.15186231 0.56170440 -0.00602494
-0.32635257 -0.09475325 0.00000112
-0.73208594 -0.09593926 -0.04094862
-0.01017537 -0.79939473 0.00000002
-0.31247553 -0.16224606 0.00000090
-0.22045505 0.16092017 -0.00000153
-0.22079811 0.51775318 -0.01178038
-0.30152804 -0.14597072 0.00000104
-0.32185987 0.25301054 -0.01080582
-0.34767887 -0.40066695 -0.00000035
-0.50909156 -0.65448099 -0.00000244
-0.03064044 -0.55215991 0.00000090
-0.52521920 -0.27627710 -0.00900619
-0.26112941 0.42648295 -0.01206725
-0.12672266 -0.60043246 0.00000011
-0.37846917 -0.36886993 -0.00000040
-0.22283611 -0.11704251 0.00000164
-0.61595333 -0.35692194 -0.01551043
-0.68722826 -0.49016669 -0.01733549
-0.19262768 -0.30818421 0.00000099
-0.68967527 0.01851543 -0.04151526
-0.29045317 -0.07157459 0.00000143
-0.28825149 0.49047738 -0.01815120
-0.42910460 0.24659993 -0.02267131
-0.66842562 -0.47391263 -0.01596611
-0.35031754 0.17661031 -0.01044437
-0.57771480 0.11741015 -0.03346045
-0.15192139 -0.41909447 0.00000075
-0.64156330 -0.61722678 -0.00618453
-0.21370678 0.58197361 -0.01399348
-0.34089759 0.44232827 -0.02186135
-0.21704860 -0.29005191 0.00000092
-0.62725568 -0.64405465 -0.00330076
-0.16604728 0.44601598 -0.00219818
-0.61674994 -0.32301205 -0.01719418
-0.45014963 -0.42304745 -0.00000107
-0.22983232 0.19619688 -0.00000040
-0.21607333 0.50411987 -0.01060376
-0.18865462 0.35503834 -0.00048805
-0.43854818 -0.45141011 -0.00000112
-0.52083945 -0.27065244 -0.00877361
-0.37336880 0.38661525 -0.02292728
-0.64849055 -0.60021460 -0.00776979
-0.26197237 -0.34398574 0.00000041
-0.31743598 -0.03926301 0.00000141
-0.00801433 -0.14661542 0.00000287
-0.47443131 -0.18898080 -0.00734631
-0.61392468 -0.67710865 -0.00023523
-0.33052221 -0.77105629 -0.00000187
-0.59546405 0.05842618 -0.03270250
-0.02087026 -0.37848288 0.00000172
-0.17160676 0.45390657 -0.00319966
-0.27366465 -0.12406097 0.00000131
-0.08769597 -0.47923115 0.00000087
-0.73690832 -0.09330599 -0.04161945
-0.24904972 0.54243660 -0.01614526
-0.15350720 -0.18603300 0.00000176
-0.30854583 0.44102088 -0.01812967
-0.12232443 0.40307915 0.00000126
-0.51619250 -0.12801518 -0.01494871
-0.22614126 0.40420154 -0.00705094
-0.61113489 0.01215882 -0.03230631
-0.13740315 -0.13406189 0.00000208
-0.06426106 0.12289124 -0.00000714
-0.36825079 0.42630690 -0.02421168
-0.10820235 -0.62404138 0.00000012
-0.77162993 -0.18471865 -0.04126319
-0.43022302 -0.63743168 -0.00000189
-0.37286255 -0.05952829 -0.00190628
-0.64358467 -0.39950231 -0.01664437
-0.60656607 0.17850390 -0.03960419
-0.75674540 -0.48947102 -0.02525458
-0.63406152 -0.13341492 -0.02806701
-0.62090766 0.13906536 -0.03937814
-0.21052223 0.51381320 -0.01042947
-0.49216688 0.26011804 -0.03046081
-0.59704983 -0.20891167 -0.02032064
-0.67277730 0.05769292 -0.04143910
-0.09952164 0.55010587 0.00000407
-0.46790951 0.19352797 -0.02457990
-0.01170693 0.59727156 0.00000254
-0.63081276 0.08257900 -0.03784765
-0.53483272 -0.72494280 -0.00000290
-0.29984203 0.47707745 -0.01883648
-0.09855804 0.54860342 0.00000400
-0.29849517 0.05420548 -0.00000170
-0.13098750 -0.12220403 0.00000217
-0.46351254 -0.53514916 -0.00000164
-0.67049080 -0.67028290 -0.00697329
-0.11003832 0.43194193 0.00000158
-0.41067901 -0.59866154 -0.00000160
-0.70162183 -0.16913924 -0.03405298
-0.50689340 -0.43344849 -0.00000146
-0.54717851 -0.49172202 -0.00137402
-0.14725879 -0.22533806 0.00000163
-0.28790548 0.01734497 -0.00000290
-0.34947962 0.19801028 -0.01135486
-0.02265057 0.59218276 0.00000275
-0.49467278 -0.27155897 -0.00576245
-0.31774685 0.46284255 -0.02019888
-0.18431753 0.11263285 -0.00000376
-0.44286221 -0.45201662 -0.00000115
-0.20200036 -0.77719116 -0.00000112
-0.18223070 -0.08898904 0.00000201
-0.31774089 -0.65768290 -0.00000130
-0.00035824 -0.09127217 0.00000310
-0.73756850 -0.14519367 -0.03925623
-0.22985978 -0.28473720 0.00000087
-0.44061083 -0.30471990 -0.00000049
-0.46013159 -0.16636880 -0.00678653
-0.02657159 0.76686341 -0.00145103
-0.47093475 -0.50928444 -0.00000157
-0.04456629 -0.60518026 0.00000058
-0.49129856 -0.27877343 -0.00504065
-0.04732307 0.44710010 0.00000005
-0.22115108 0.36602134 -0.00469079
-0.16493434 -0.19875626 0.00000163
-0.47080138 -0.48848566 -0.00000148
-0.27022427 0.40242347 -0.01196853
-0.39913633 -0.32692546 -0.00000034
-0.13330926 0.05163926 -0.00000675
-0.07648976 0.24974497 -0.00000376
-0.21486704 -0.15372290 0.00000153
-0.07752402 0.30470434 -0.00000242
-0.68108112 -0.43867558 -0.01905759
-0.16579674 -0.41641533 0.00000068
-0.58395147 -0.28286353 -0.01535977
-0.38319129 -0.49389440 -0.00000097
-0.29996049 -0.32481414 0.00000027
-0.09370670 0.26215020 -0.00000295
-0.25567743 0.24381115 -0.00286528
-0.48910230 -0.01814667 -0.01703793
-0.61292666 -0.47616753 -0.00956391
-0.79706228 -0.28693616 -0.03934522
-0.26256546 0.15692291 -0.00000035
-0.77863038 -0.46868584 -0.02871397
-0.29569495 -0.42207533 -0.00000013
-0.01229825 0.07980883 -0.00000973
-0.07598778 -0.26923460 0.00000186
-0.14778729 -0.10702776 0.00000214
-0.08299635 -0.06423333 0.00000272
-0.01914109 0.55965406 0.00000187
-0.67401922 -0.43114537 -0.01861027
-0.23608796 0.53759181 -0.01444717
-0.06982127 -0.51647329 0.00000082
-0.31139335 0.11973230 -0.00335588
-0.16479999 -0.70858645 -0.00000059
-0.14232080 -0.72411531 -0.00000053
-0.47227526 0.23242766 -0.02690302
-0.19544394 -0.35997352 0.00000075
-0.48365214 -0.07470855 -0.01376186
-0.65744060 -0.02381969 -0.03586903
-0.39289793 -0.66530603 -0.00000178
-0.61947256 -0.68034762 -0.00071243
-0.32456705 -0.43390977 -0.00000036
-0.08009484 0.70388389 -0.00456384
-0.54222834 -0.68560010 -0.00000277
-0.39567739 -0.57378775 -0.00000140
-0.38529035 0.36293474 -0.02316705
-0.09881693 0.30545202 -0.00000176
-0.62637973 -0.78673577 -0.00000372
-0.10648271 -0.53575176 0.00000051
-0.64603078 0.11705743 -0.04119420
-0.73430103 -0.74184000 -0.01084981
-0.24625589 0.23600768 -0.00142975
-0.47645941 -0.05912178 -0.01367826
-0.77643281 -0.02023830 -0.04953676
-0.78611118 -0.10776511 -0.04652198
-0.07051128 -0.39815968 0.00000133
-0.61951536 -0.37473065 -0.01507774
-0.45705026 -0.51724899 -0.00000152
-0.02440649 -0.27079844 0.00000217
-0.18795864 -0.25382209 0.00000126
-0.35381168 -0.77291632 -0.00000202
-0.07360334 0.12389625 -0.00000684
-0.48886770 0.00236522 -0.01797513
-0.69638115 -0.71109569 -0.00799268
-0.79578364 -0.33148351 -0.03710692
-0.70167261 -0.13778704 -0.03553193
-0.22226340 -0.57841969 -0.00000037
-0.10953256 -0.38328496 0.00000116
-0.00275335 0.23969232 -0.00000622
-0.22732274 -0.71611691 -0.00000101
-0.20348366 -0.24906904 0.00000118
-0.36189529 0.42679372 -0.02351349
-0.30045503 -0.57589650 -0.00000083
-0.38324416 0.14383204 -0.01263963
-0.40516999 -0.38791528 -0.00000064
-0.50179791 -0.17495590 -0.01111000
-0.12069932 -0.51869959 0.00000050
-0.33971155 0.42627108 -0.02097230
-0.15600184 0.57917184 -0.00731533
-0.40748915 0.33988491 -0.02460239
-0.00830273 -0.00117753 0.00000344
-0.75489610 -0.59622180 -0.02002866
-0.10197520 0.66782010 -0.00535155
-0.55114925 -0.18950553 -0.01602516
-0.45736837 0.12195963 -0.02002114
-0.37797621 0.13746487 -0.01174281
-0.61112177 -0.20630892 -0.02203937
-0.61807650 -0.33989266 -0.01655148
-0.72839212 -0.60373861 -0.01666875
-0.55376691 -0.66091210 -0.00000273
-0.62686938 -0.48466474 -0.01074641
-0.38571709 -0.28656060 -0.00000008
-0.12335404 0.39994195 0.00000122
-0.46801203 -0.65030426 -0.00000217
-0.24353355 -0.55337137 -0.00000039
-0.67890519 -0.57055724 -0.01261383
-0.15310797 0.27632168 -0.00000082
-0.52790004 -0.06664459 -0.01916062
-0.36210573 0.23026082 -0.01430267
-0.78383392 -0.71166021 -0.01788712
-0.12817273 -0.24823172 0.00000164
-0.48310730 -0.24587297 -0.00565731
-0.66321039 0.06212963 -0.04056223
-0.00582662 -0.10172003 0.00000302
-0.58972758 -0.65762264 -0.00000294
-0.17154279 -0.59038532 -0.00000012
-0.18818094 0.59816921 -0.01185864
-0.54682899 -0.72750300 -0.00000298
-0.21700695 -0.42431650 0.00000033
-0.44739476 0.00819877 -0.01354421
-0.09461892 -0.63060981 0.00000017
-0.36152878 0.32729122 -0.01879652
-0.66964322 -0.59432793 -0.01044613
-0.35587996 0.29938263 -0.01684429
-0.47047046 -0.44314426 -0.00000128
-0.01036711 0.43755177 -0.00000130
-0.19245329 -0.24460585 0.00000127
-0.15372227 0.06927475 -0.00000572
-0.27767763 -0.30600709 0.00000049
-0.39398143 0.29879788 -0.02113935
-0.31593269 0.16335353 -0.00592056
-0.75746369 -0.40680912 -0.02922028
-0.32695758 0.29042113 -0.01314201
-0.03284977 -0.53117758 0.00000098
-0.11492872 0.33329773 -0.00000062
-0.34252107 -0.10152093 0.00000099
-0.02670589 -0.44286630 0.00000140
-0.25953561 -0.70350289 -0.00000114
-0.10253681 -0.52509087 0.00000058
-0.68565208 -0.17462698 -0.03198338
-0.04190527 -0.66020596 0.00000036
-0.23832946 0.52044547 -0.01389579
-0.46015376 -0.77916497 -0.00000269
-0.39895672 -0.37322471 -0.00000054
-0.01192938 -0.40993425 0.00000172
-0.38026810 -0.49554136 -0.00000096
-0.76864189 -0.19207153 -0.04057871
-0.25747344 -0.26454923 0.00000079
-0.02709438 -0.40092939 0.00000158
-0.07738055 -0.46644378 0.00000099
-0.02468387 -0.25945079 0.00000222
-0.70578426 -0.09941816 -0.03780128
-0.44118097 0.32279348 -0.02762157
-0.06381131 0.63208759 0.00000494
-0.00822236 0.04359271 -0.00001072
-0.20442989 -0.00671496 0.00000224
-0.64731562 -0.49119774 -0.01275903
-0.34885648 0.05926210 -0.00476461
-0.21081568 -0.23451430 0.00000120
-0.54196829 -0.02601938 -0.02266555
-0.17066877 -0.17829236 0.00000169
-0.43664467 -0.11686186 -0.00644824
-0.39591387 -0.68068004 -0.00000187
-0.31329182 -0.48803720 -0.00000053
-0.12471774 0.59206092 -0.00437184
-0.13364390 0.26888117 -0.00000158
-0.45298201 -0.56902075 -0.00000172
-0.57346624 0.06394981 -0.03046644
-0.01557252 0.38345969 -0.00000242
-0.12097430 0.34446940 -0.00000017
-0.02804890 0.13359189 -0.00000798
-0.05000085 -0.16155525 0.00000249
-0.11811302 -0.54953921 0.00000038
-0.09095974 0.33739638 -0.00000124
-0.63232821 -0.17194448 -0.02605993
-0.34898028 -0.54343903 -0.00000098
-0.07543161 0.13388091 -0.00000654
-0.34316868 -0.26600543 0.00000027
-0.00261942 0.33140555 -0.00000405
-0.15155508 0.20196494 -0.00000263
-0.06287611 -0.52348757 0.00000083
-0.62568367 -0.28305405 -0.02008526
-0.41337821 0.25932524 -0.02148513
-0.38940427 -0.20630305 0.00000025
-0.65218920 -0.52560633 -0.01169512
-0.16265786 -0.02719757 0.00000240
-0.68151653 -0.38228539 -0.02175667
-0.00176464 -0.53499556 0.00000116
-0.67741156 -0.28946775 -0.02565232
-0.43856853 -0.77602452 -0.00000254
-0.13694882 -0.67373490 -0.00000027
-0.06290076 -0.41024992 0.00000133
-0.43827575 0.26784459 -0.02471002
-0.29715428 0.43580589 -0.01659228
-0.12288623 0.26703912 -0.00000195
-0.58105940 -0.51606208 -0.00407405
-0.01881473 -0.64934570 0.00000055
-0.30565745 -0.71360451 -0.00000147
-0.19685960 -0.34364250 0.00000081
-0.22571760 -0.45678678 0.00000014
-0.02053034 -0.14879572 0.00000273
-0.32593453 -0.41512075 -0.00000028
-0.24229701 -0.14055510 0.00000142
-0.06555616 0.52296257 0.00000240
-0.21786763 -0.63563544 -0.00000060
-0.08132145 -0.19915348 0.00000214
-0.14285512 -0.39335990 0.00000092
-0.43002069 0.25517064 -0.02317797
-0.02746376 0.19633020 -0.00000651
-0.16473214 0.55281705 -0.00706740
-0.08333206 0.17449956 -0.00000534
-0.34663334 0.13475908 -0.00805988
-0.26310071 0.10932427 -0.00000146
-0.57713777 -0.62794989 -0.00000273
-0.38719890 -0.57848269 -0.00000137
-0.15389942 -0.76454091 -0.00000077
-0.33969286 0.08063036 -0.00472907
-0.00848256 0.02874960 -0.00001106
-0.57989067 -0.45462665 -0.00682821
-0.23379046 -0.02524844 0.00000198
-0.74328673 -0.65867430 -0.01577706
-0.35106003 -0.25254256 0.00000028
-0.46573907 -0.16566090 -0.00745595
-0.17199823 0.21895415 -0.00000161
-0.39078382 -0.18279518 0.00000034
-0.33573428 0.05717088 -0.00317766
-0.79359651 -0.46040273 -0.03080100
-0.33972782 -0.54895818 -0.00000095
-0.71084726 -0.36108464 -0.02608038
-0.65968502 -0.09512868 -0.03277296
-0.22017051 0.25164640 0.00000062
-0.03395494 -0.14285032 0.00000267
-0.21146122 0.58594036 -0.01392513
-0.09128134 0.69360358 -0.00534987
-0.14060183 -0.60550064 0.00000000
-0.79213560 -0.58231241 -0.02490683
-0.47365147 0.00280957 -0.01626976
-0.01171222 -0.29412502 0.00000214
-0.69519198 -0.44554573 -0.02033562
-0.62029755 -0.64199835 -0.00260800
-0.11829984 -0.48632196 0.00000066
-0.10033201 0.52028513 0.00000338
-0.19527444 -0.32004371 0.00000092
-0.18020158 -0.00138903 0.00000241
-0.38668227 0.02380421 -0.00738977
-0.50575060 0.10518893 -0.02472199
-0.10766426 0.60026240 -0.00282253
-0.72017479 -0.61188376 -0.01535380
-0.18809316 0.25172010 -0.00000035
-0.42506182 0.09842740 -0.01525028
-0.62205350 0.05355476 -0.03549013
-0.12919787 0.36632717 0.00000060
-0.15178141 -0.58504558 0.00000002
-0.04315903 -0.11495088 0.00000274
-0.73191935 -0.38412705 -0.02738824
-0.07685267 -0.38039809 0.00000137
-0.16461493 -0.56735533 0.00000002
-0.71890587 -0.62373316 -0.01465306
-0.74555695 -0.24022132 -0.03569730
-0.42330647 0.24420978 -0.02190122
-0.63395464 -0.25738037 -0.02222995
-0.45186630 -0.26125264 -0.00139041
-0.50694102 0.11283823 -0.02521646
-0.32916328 0.41486183 -0.01923951
-0.44386214 -0.07838011 -0.00907524
-0.38578221 -0.24167521 0.00000011
-0.27474380 -0.62077183 -0.00000087
-0.07904980 0.53143477 0.00000301
-0.75073683 -0.11450694 -0.04219207
-0.56581295 0.13052619 -0.03272651
-0.18710853 -0.11716389 0.00000186
-0.74124151 -0.74513733 -0.01148222
-0.44338161 0.02185308 -0.01373052
-0.01901481 -0.05222360 0.00000316
-0.60552430 -0.57988715 -0.00385050
-0.11293476 -0.07038019 0.00000251
-0.04367889 0.35109156 -0.00000234
-0.35232988 -0.61240429 -0.00000131
-0.41383559 -0.04309619 -0.00732672
-0.54143387 -0.54582822 -0.00000216
-0.20657498 0.52097702 -0.01031828
-0.04607467 -0.54529697 0.00000084
-0.07575344 -0.75140673 -0.00000024
-0.17677274 0.61498314 -0.01135447
-0.47574514 0.09184135 -0.02069074
-0.25592226 -0.74555892 -0.00000131
-0.34185591 0.23194499 -0.01208450
-0.20046508 0.30154386 0.00000121
-0.28104424 0.46173146 -0.01598283
-0.44986793 0.03310102 -0.01499490
-0.47091776 -0.72037977 -0.00000249
-0.10205472 0.19177194 -0.00000437
-0.04393723 -0.15783849 0.00000254
-0.74610025 -0.61783075 -0.01801544
-0.24414468 -0.38393646 0.00000035
-0.72093588 -0.73037803 -0.00987220
-0.06649827 -0.54195809 0.00000073
-0.31338900 0.42358193 -0.01785969
-0.65613317 -0.27957678 -0.02370309
-0.54557556 -0.10571210 -0.01933015
-0.15249306 -0.19218312 0.00000174
-0.21213599 0.44626817 -0.00743872
-0.08170000 -0.47834551 0.00000091
-0.63590133 0.02182937 -0.03557042
-0.57287729 -0.22073022 -0.01702297
-0.15628934 -0.29160711 0.00000128
-0.78416950 -0.19696654 -0.04211021
-0.59651297 -0.22211356 -0.01963939
-0.15675588 0.08127307 -0.00000534
-0.09661536 -0.57312185 0.00000041
-0.37394190 -0.22801097 0.00000025
-0.00107614 -0.35064042 0.00000196
-0.03125625 0.04619712 -0.00000996
-0.41762060 0.20122734 -0.01923649
-0.00200911 -0.00877368 0.00000346
-0.52466166 -0.74963468 -0.00000295
-0.33043680 -0.62822127 -0.00000124
-0.14436172 -0.06372244 0.00000235
-0.31860584 -0.15658513 0.00000089
-0.15059084 -0.04250940 0.00000241
-0.70119572 -0.73931855 -0.00721270
-0.05387179 0.24724455 -0.00000450
-0.20081282 0.32737777 -0.00056765
-0.43077475 -0.18846659 -0.00241771
-0.69409311 -0.69777179 -0.00835920
-0.18396738 0.56829369 -0.00997682
-0.03516772 0.18669684 -0.00000650
-0.64306873 -0.75150543 -0.00004579
-0.44592765 0.14650735 -0.01987667
-0.60549629 -0.15981445 -0.02358587
-0.70774621 -0.78382617 -0.00586444
-0.12840858 -0.73758769 -0.00000050
-0.08794795 0.02048349 -0.00000886
-0.08277498 0.66057223 -0.00283275
-0.30726919 0.25389859 -0.00919226
-0.21624061 0.27604890 0.00000108
-0.73533267 -0.67993242 -0.01387582
-0.38378406 -0.14169990 0.00000056
-0.65837336 0.12446852 -0.04294258
-0.34185264 0.32908183 -0.01664843
-0.65094453 -0.57708609 -0.00913496
-0.44878688 0.22316615 -0.02380312
-0.35045865 -0.15841220 0.00000069
-0.68001962 -0.09682877 -0.03500000
-0.14296775 -0.47359106 0.00000057
-0.34242678 -0.20455723 0.00000054
-0.30684322 -0.57639003 -0.00000087
-0.61318958 -0.13954341 -0.02541116
-0.73549402 -0.71214885 -0.01238030
-0.42525703 0.23008282 -0.02145870
-0.60757864 -0.00926599 -0.03089613
-0.73018503 -0.43532208 -0.02478589
-0.44379902 0.12177477 -0.01847304
-0.38175419 -0.32220405 -0.00000021
-0.37628746 -0.06997911 -0.00180377
-0.79109317 -0.45218658 -0.03090308
-0.72093558 -0.47125980 -0.02204792
-0.39106968 0.02045419 -0.00773010
-0.23885937 0.55098677 -0.01539099
-0.55458200 -0.55778736 -0.00000229
-0.20791179 0.15343224 -0.00000208
-0.06679251 0.35944167 -0.00000145
-0.67915881 -0.25662425 -0.02739381
-0.01728147 -0.59642911 0.00000079
-0.21154793 0.37994468 -0.00425556
-0.25652865 -0.73187500 -0.00000125
-0.36495352 -0.28729960 0.00000004
-0.28394976 -0.51129091 -0.00000045
-0.39336342 0.29814494 -0.02103856
-0.17783272 0.48674396 -0.00544896
-0.42370293 -0.35175678 -0.00000060
-0.34793511 -0.50142801 -0.00000079
-0.08717770 0.70178556 -0.00526870
-0.68848240 -0.52144289 -0.01600815
-0.31824538 -0.79806978 -0.00000191
-0.29950449 -0.15880831 0.00000100
-0.36745590 -0.44719046 -0.00000067
-0.36656892 -0.76499486 -0.00000206
-0.63161409 -0.32918540 -0.01859042
-0.45368391 0.25200465 -0.02571375
-0.60387224 -0.09997241 -0.02621350
-0.45706218 -0.73687601 -0.00000248
-0.26069295 0.29724085 -0.00594486
-0.40598458 -0.64805573 -0.00000179
-0.78889263 -0.66996813 -0.02042008
-0.20190772 -0.74732614 -0.00000099
-0.39247519 0.19385375 -0.01603732
-0.59395736 -0.31038362 -0.01520179
-0.53059638 0.25811815 -0.03472653
-0.62158287 -0.03070919 -0.03147731
-0.13468374 -0.38101599 0.00000102
-0.02674313 0.54649943 0.00000179
-0.18907198 -0.50336599 0.00000016
-0.74736732 -0.31829831 -0.03223396
-0.39177170 -0.22280930 0.00000016
-0.45295480 0.31275314 -0.02848551
-0.09140739 -0.11596472 0.00000244
-0.32348877 0.39568341 -0.01769459
-0.58151239 -0.11802824 -0.02282840
-0.73881203 -0.70739478 -0.01298010
-0.15302072 0.13686958 -0.00000413
-0.08948046 0.46362635 0.00000171
-0.67102671 -0.14506984 -0.03171300
-0.56340528 -0.24716355 -0.01470633
-0.42949146 -0.70672709 -0.00000218
-0.50850791 0.18949115 -0.02899602
-0.10605922 -0.34750205 0.00000134
-0.23617497 -0.71696883 -0.00000106
-0.75798452 -0.37024891 -0.03099729
-0.66051495 -0.01165447 -0.03678943
-0.08917055 -0.69172996 -0.00000006
-0.29546201 -0.57531035 -0.00000080
-0.64473861 -0.19795454 -0.02624570
-0.38339272 -0.32686901 -0.00000024
-0.20832728 0.06538702 -0.00000416
-0.12770066 0.31756210 -0.00000060
-0.55959386 -0.02347317 -0.02478478
-0.64447504 -0.37090954 -0.01808891
-0.54266942 -0.16015804 -0.01644213
-0.71382773 -0.03186804 -0.04188787
-0.79741436 -0.68518919 -0.02067159
-0.29285243 0.18073271 -0.00411876
-0.78890610 -0.32583061 -0.03659233
-0.27233571 0.02001547 -0.00000331
-0.00574836 -0.52496582 0.00000117
-0.13685609 0.16164209 -0.00000403
-0.14764850 0.27348638 -0.00000105
-0.00225325 -0.43451968 0.00000159
-0.19181056 0.49198791 -0.00728113
-0.44898045 -0.01818609 -0.01248432
-0.77602571 -0.33989206 -0.03447040
-0.01122754 -0.65894789 0.00000063
-0.06139110 0.08076432 -0.00000823
-0.38297331 0.14046387 -0.01245064
-0.08477646 -0.48855817 0.00000085
-0.44690156 -0.41275883 -0.00000100
-0.57214195 0.13207617 -0.03351735
-0.76381856 -0.78345340 -0.01224300
-0.26919261 -0.07184194 0.00000156
-0.12984134 -0.42787278 0.00000084
-0.17991588 0.37783945 -0.00056805
-0.48591849 -0.65084392 -0.00000228
-0.72686839 -0.65266877 -0.01419670
-0.24916650 -0.06105605 0.00000173
-0.20551863 0.25043753 0.00000015
-0.12941313 -0.34955433 0.00000119
-0.26948738 -0.48955894 -0.00000027
-0.04988437 0.42561102 -0.00000039
-0.04993186 0.10926994 -0.00000790
-0.21502808 -0.69155657 -0.00000082
-0.43153942 0.09594806 -0.01586865
-0.38382310 -0.29857081 -0.00000012
-0.09289510 0.65512580 -0.00372494
-0.30263954 0.38975891 -0.01505090
-0.23935874 -0.00535555 0.00000203
-0.29064465 -0.40599686 -0.00000003
-0.20851576 0.38055533 -0.00394026
-0.54097074 0.23492196 -0.03481360
-0.37430286 -0.50300086 -0.00000096
-0.68502402 0.08175227 -0.04395897
-0.20587435 -0.21595474 0.00000131
-0.22886719 0.23773631 0.00000055
-0.15648402 -0.14459975 0.00000192
-0.28716332 -0.41519842 -0.00000005
-0.19458351 -0.22256862 0.00000135
-0.30863586 0.01372296 -0.00000236
-0.70975870 0.01256824 -0.04351424
-0.43603897 0.07554727 -0.01542052
-0.21362311 0.37387356 -0.00420572
-0.71680522 -0.66449159 -0.01249955
-0.37831157 -0.55962008 -0.00000123
-0.72562569 -0.08119577 -0.04090850
-0.26762345 -0.16119149 0.00000118
-0.60263109 -0.11120892 -0.02554471
-0.17719004 -0.46831381 0.00000038
-0.12903979 -0.50213587 0.00000052
-0.25051442 0.33038414 -0.00634747
-0.05059455 0.07996477 -0.00000857
-0.17152458 0.59293973 -0.00972329
-0.02591173 0.65986258 0.00000445
-0.61342478 -0.22357756 -0.02148921
-0.34601155 -0.38577089 -0.00000028
-0.11723713 0.15963019 -0.00000467
-0.54123640 -0.51308185 -0.00000201
-0.00856853 -0.07370323 0.00000313
-0.31782243 0.07567835 -0.00201523
-0.00789069 0.23833928 -0.00000610
-0.66684264 -0.74409258 -0.00309120
-0.18095763 0.60624206 -0.01141842
-0.24699503 0.01952009 -0.00000408
-0.32659915 -0.72514474 -0.00000164
-0.38297325 0.40723902 -0.02498597
-0.76172966 -0.02791215 -0.04750814
-0.19684549 0.27438745 0.00000046
-0.09751256 0.43604067 0.00000130
-0.67124420 -0.75639325 -0.00301257
-0.41169101 -0.44848627 -0.00000095
-0.65178615 -0.44463021 -0.01545433
-0.02405216 -0.35678655 0.00000179
-0.12177557 0.63375688 -0.00599728
-0.12553442 -0.68117023 -0.00000024
-0.39632341 -0.07918853 -0.00364407
-0.39128524 0.14465468 -0.01359053
-0.09690377 0.52945477 0.00000350
-0.42116043 -0.32095495 -0.00000045
-0.24066211 0.28380573 -0.00304110
-0.11638886 -0.20127553 0.00000192
-0.48432681 -0.53864688 -0.00000178
-0.19395453 -0.05413714 0.00000209
-0.11949116 0.33262822 -0.00000049
-0.69211179 -0.13600042 -0.03453122
-0.26140687 -0.45182586 -0.00000005
-0.55780584 -0.24197663 -0.01431481
-0.79610986 -0.47014290 -0.03062844
-0.02776180 0.45555711 -0.00000034
-0.01392084 -0.34033608 0.00000193
-0.31408256 0.00114934 -0.00000249
-0.34315413 -0.65589255 -0.00000144
-0.08692000 -0.55691159 0.00000054
-0.56291556 -0.68240446 -0.00000288
-0.23534191 -0.04030600 0.00000190
-0.76272172 -0.68626124 -0.01668555
-0.00314227 0.73658508 0.00000559
-0.16481474 0.62787890 -0.01060376
-0.73825592 -0.18453117 -0.03748580
-0.54651093 -0.42943719 -0.00422495
-0.02459444 0.68507069 0.00000501
-0.31996495 0.32506227 -0.01397644
-0.01035857 -0.29983243 0.00000213
-0.20053042 -0.32483247 0.00000087
-0.41429603 -0.71544981 -0.00000213
-0.44416472 0.07564335 -0.01634688
-0.49486843 -0.12866224 -0.01249914
-0.21311867 -0.34501907 0.00000070
-0.58342570 -0.44634193 -0.00761853
-0.14929959 0.41553852 0.00000237
-0.40539518 -0.03879793 -0.00657114
-0.08481396 -0.36408797 0.00000140
-0.03594357 0.70518810 0.00000583
-0.05268913 -0.66863805 0.00000026
-0.07305089 0.61419368 0.00000479
-0.28045601 -0.60456198 -0.00000084
-0.06377426 -0.35628197 0.00000156
-0.30697519 -0.74124062 -0.00000160
-0.31357247 -0.43732652 -0.00000031
-0.41034636 0.22983257 -0.01975536
-0.17464747 -0.28967690 0.00000118
-0.20646533 0.29356536 0.00000120
-0.58441353 -0.53989911 -0.00333450
-0.24773267 0.54876328 -0.01629317
-0.48705873 -0.58525503 -0.00000200
-0.48304862 0.28434330 -0.03056466
-0.13859244 -0.03352104 0.00000252
-0.30474633 0.06829974 -0.00018506
-0.10575285 -0.73555648 -0.00000036
-0.40833333 -0.71557146 -0.00000210
-0.39743546 -0.11567683 -0.00205571
-0.53458351 -0.73197001 -0.00000293
-0.13952895 -0.63413620 -0.00000012
-0.44245112 -0.56668574 -0.00000165
-0.17940669 0.16730797 -0.00000261
-0.03706607 -0.23408024 0.00000225
-0.77674788 -0.63733757 -0.02057562
-0.14332704 0.06676027 -0.00000609
-0.28833276 -0.10446134 0.00000130
-0.43135482 -0.62561893 -0.00000184
-0.25160271 -0.26705933 0.00000081
-0.06150165 0.70109302 -0.00232334
-0.26892737 -0.78603089 -0.00000156
-0.07181920 0.31640652 -0.00000232
-0.07239828 -0.09503105 0.00000265
-0.03802183 -0.25215101 0.00000217
-0.59037083 -0.22698385 -0.01871373
-0.26271084 0.46017915 -0.01382999
-0.19657435 -0.56131214 -0.00000014
-0.15141939 -0.43249068 0.00000069
-0.41974652 -0.56195313 -0.00000149
-0.71127677 -0.37253398 -0.02559112
-0.21266933 -0.41436496 0.00000040
-0.79354668 -0.21272612 -0.04243346
-0.28704274 -0.50675541 -0.00000045
-0.04250440 0.27814621 -0.00000411
-0.02235284 -0.13610235 0.00000277
-0.77792883 -0.19712751 -0.04139468
-0.38354757 -0.05962398 -0.00311398
-0.59324843 -0.06945879 -0.02644204
-0.59328628 -0.75632018 -0.00000339
-0.20388316 -0.26189557 0.00000112
-0.37432748 -0.18373087 0.00000044
-0.34161821 0.33171880 -0.01674574
-0.40410614 -0.13564064 -0.00187441
-0.64434212 -0.05889837 -0.03273474
-0.02360952 -0.36476463 0.00000176
-0.37242278 0.10910662 -0.00978028
-0.75067407 -0.72179073 -0.01364932
-0.35895959 0.11107693 -0.00834549
-0.16156214 0.61453551 -0.00960782
-0.36281145 -0.57154399 -0.00000119
-0.38397318 0.09463580 -0.01041069
-0.17482150 -0.49601772 0.00000027
-0.37846935 0.24175429 -0.01669915
-0.05547454 -0.73261386 -0.00000004
-0.77629626 -0.24875398 -0.03878359
-0.09155291 -0.67233878 0.00000001
-0.26113817 -0.29724982 0.00000062
-0.22205873 0.06222352 -0.00000382
-0.70473701 -0.51605678 -0.01810529
-0.74485862 -0.66203034 -0.01579768
-0.35297903 -0.76131654 -0.00000196
-0.06786346 -0.09617762 0.00000267
-0.46705532 0.09136254 -0.01968240
-0.26456499 -0.73022652 -0.00000129
-0.12501501 0.29908240 -0.00000112
-0.49588850 0.16142352 -0.02624552
-0.12998874 -0.45312566 0.00000073
-0.14722002 -0.09999131 0.00000217
-0.01570973 0.73607528 0.00000596
-0.15107095 -0.74597019 -0.00000068
-0.26789272 0.34325391 -0.00892374
-0.59367204 -0.52218026 -0.00521744
-0.34458536 -0.39618823 -0.00000031
