ply
format ascii 1.0
element vertex 1370
property float x
property float y
property float z
end_header
-0.47965568 0.34229901 0.02436766
-0.57980263 0.38810021 0.18635803
0.67135435 -0.57608283 -0.00000046
-0.20272855 -0.20902088 -0.00000037
0.17678936 -0.71643215 -0.00000005
-0.41393563 -0.60393620 -0.00000012
-0.55427796 0.53956074 0.32613653
0.02918875 0.14534034 -0.00000059
-0.43637064 -0.67344022 -0.00000008
0.34733933 -0.16388245 -0.00000040
0.20353433 0.37093788 -0.00000081
-0.73240870 0.19064125 0.13657580
0.50002813 0.09986232 -0.00000123
0.69605321 -0.18921401 -0.00000130
-0.53491247 0.35726118 0.10230491
0.42131293 0.21440563 -0.00000121
0.71097946 -0.60600430 -0.00000048
0.27206805 -0.07098405 -0.00000046
-0.78778994 -0.79897559 0.00000000
0.40758550 0.10398438 -0.00000095
0.05650148 0.63504589 -0.00000090
-0.20293964 -0.28901425 -0.00000032
-0.36361998 -0.66104186 -0.00000009
-0.38166055 0.48067066 0.06918173
0.45631236 -0.50971407 -0.00000018
-0.06220056 -0.07162482 -0.00000046
0.08824998 -0.52665657 -0.00000017
0.18520442 -0.12809123 -0.00000042
-0.30533466 0.38577297 -0.00000060
-0.53461266 -0.44873950 -0.00000020
-0.01321960 0.58034921 -0.00000086
-0.66923541 0.39876536 0.29745871
0.26876971 -0.08955405 -0.00000044
-0.00184250 0.17915134 -0.00000061
-0.61220330 0.51695269 0.36533603
-0.13311598 -0.66405404 -0.00000008
-0.59031975 0.37315807 0.18144675
-0.53241569 -0.15215427 -0.00000026
-0.29849812 -0.44413260 -0.00000022
-0.77910525 -0.59306782 0.00000000
-0.35511333 0.05080278 -0.00000048
0.24102131 -0.27501997 -0.00000033
-0.64659351 -0.06737473 -0.00000015
-0.19492374 0.24571221 -0.00000065
-0.51854491 -0.38552889 -0.00000023
0.46190968 0.17470460 -0.00000126
0.45261782 0.28538743 -0.00000144
0.62166476 -0.55473435 -0.00000035
0.12020377 -0.10150276 -0.00000044
-0.66065592 0.36098611 0.24600428
-0.11632806 -0.13593315 -0.00000042
0.12492122 -0.05544630 -0.00000047
-0.07887830 -0.09723423 -0.00000044
0.17939249 -0.46464413 -0.00000021
0.21073177 0.01278922 -0.00000051
0.06886374 0.71707040 -0.00000106
-0.05325223 0.03265258 -0.00000052
0.16465612 0.34554240 -0.00000072
0.36291844 0.04890784 -0.00000070
-0.02841183 0.74900323 -0.00000096
-0.56192613 -0.06677441 -0.00000024
0.40125424 0.22893025 -0.00000117
-0.73187345 0.09210120 0.02661065
0.52747279 -0.70782888 -0.00000006
0.01215216 0.43145752 -0.00000077
0.45847610 0.09547228 -0.00000109
-0.60469651 0.30994681 0.12724461
-0.33559462 -0.69912356 -0.00000006
0.25021231 0.41275540 -0.00000105
-0.11783136 0.11300060 -0.00000057
-0.03564936 -0.26293844 -0.00000034
0.35542908 0.36719501 -0.00000129
0.32772535 -0.10237377 -0.00000044
-0.54679060 -0.67610222 -0.00000008
0.16775152 -0.71776074 -0.00000005
0.69313383 0.06337528 -0.00000178
-0.20978370 0.44665271 -0.00000071
0.00317813 -0.75409192 -0.00000003
-0.51080322 0.56234127 0.30316758
0.78475088 -0.62421864 -0.00000044
-0.43131292 0.00765426 -0.00000039
-0.43379000 -0.72576290 -0.00000005
-0.36453390 0.65293819 0.24137536
-0.16616884 -0.28722236 -0.00000032
-0.18388605 0.21862993 -0.00000064
-0.52232403 0.58162111 0.33735383
0.28059804 0.09769909 -0.00000056
-0.32751751 0.08969264 -0.00000052
0.74872679 -0.73938990 -0.00000015
0.22725019 -0.02475339 -0.00000048
-0.06470096 -0.44389623 -0.00000022
0.09988072 0.20481969 -0.00000063
-0.63420576 -0.37135300 -0.00000011
-0.72943103 -0.18098387 -0.00000004
-0.46374616 0.60536462 0.29869041
-0.42923704 0.55230772 0.20149902
0.06853273 -0.49916846 -0.00000019
-0.22647659 -0.65348679 -0.00000009
-0.44284147 0.66429293 0.34089354
-0.18834235 -0.14801554 -0.00000041
0.15015578 -0.23713069 -0.00000035
-0.77138734 -0.31832382 0.00000000
0.55550885 -0.59267920 -0.00000013
0.24568138 -0.74814129 -0.00000003
-0.40446997 0.61531985 0.24394791
-0.20587650 0.47467101 -0.00000072
0.27134755 0.36009595 -0.00000101
0.13972995 -0.35140312 -0.00000028
-0.20114300 0.71324444 0.12695922
0.17874886 -0.17582534 -0.00000039
0.39255986 -0.12954240 -0.00000044
-0.34880027 -0.43701598 -0.00000023
-0.49755624 0.38794982 0.09490434
-0.78749275 0.03629668 0.02640532
0.04479032 0.68590772 -0.00000093
-0.27871552 0.47012249 -0.00000064
-0.54591781 -0.49286422 -0.00000018
0.08283944 -0.14009874 -0.00000041
-0.71998060 0.18648776 0.11817158
0.48457876 0.28802699 -0.00000155
-0.56223959 -0.41003159 -0.00000018
0.01759794 0.12921372 -0.00000058
0.74236858 -0.71164805 -0.00000022
0.06138693 0.09426747 -0.00000056
-0.01832803 0.12441616 -0.00000058
0.79572266 -0.79408389 -0.00000001
0.39665711 -0.52778637 -0.00000017
-0.45736092 -0.44654703 -0.00000022
0.16752771 0.57340020 -0.00000109
0.11078682 -0.14376974 -0.00000041
0.43436480 0.06347227 -0.00000095
-0.35729939 0.31718826 -0.00000053
-0.59674025 0.52236778 0.35418358
-0.48794311 -0.15098754 -0.00000031
-0.57045662 -0.39010200 -0.00000017
0.06478086 0.59988809 -0.00000087
-0.78063172 -0.16905403 0.00000000
-0.73712480 0.06686938 0.00443404
-0.77705538 0.05045599 0.03053628
-0.23338585 -0.34957874 -0.00000028
-0.15493776 0.40892431 -0.00000076
-0.42855650 -0.01604137 -0.00000039
-0.57875592 -0.14981395 -0.00000021
0.38912675 -0.56974417 -0.00000014
0.02751818 0.47567847 -0.00000080
0.22634222 0.22404025 -0.00000064
0.11453817 0.20221250 -0.00000063
-0.46067059 -0.66433448 -0.00000008
0.40031752 -0.32032448 -0.00000030
-0.69732863 -0.27305102 -0.00000006
-0.60041463 0.37673718 0.19662370
0.27507320 -0.02325040 -0.00000049
-0.30869490 -0.13847871 -0.00000041
0.25387943 -0.04183676 -0.00000047
0.55500299 0.03616687 -0.00000129
0.01583443 0.09548961 -0.00000056
0.62556380 -0.74598598 -0.00000003
0.00145562 0.12801178 -0.00000058
-0.61821258 0.22933438 0.05277347
0.25080171 0.43067765 -0.00000108
0.75594658 -0.64312786 -0.00000039
-0.59491736 -0.20200726 -0.00000018
0.74293840 -0.28677168 -0.00000126
0.05499376 -0.56006140 -0.00000015
0.22048251 0.57738721 -0.00000124
0.10558103 -0.78982681 -0.00000001
-0.60876930 -0.19858231 -0.00000017
-0.18574773 0.09016466 -0.00000056
0.70674747 -0.61262953 -0.00000047
0.56109965 -0.46617863 -0.00000033
0.30229115 -0.37998742 -0.00000026
-0.04398224 -0.78668243 -0.00000001
-0.40647218 0.46249783 0.07655035
-0.23441327 -0.66804749 -0.00000008
-0.00156135 0.53591484 -0.00000083
0.09199104 -0.13443708 -0.00000042
0.41812098 0.19089460 -0.00000115
0.67747790 -0.32459694 -0.00000097
-0.33101085 -0.61652148 -0.00000011
-0.22300792 -0.66746342 -0.00000008
-0.58518809 0.38329694 0.18700425
-0.47271609 0.65270996 0.36119586
-0.73373520 -0.63363296 0.00000000
-0.17218062 0.60918003 -0.00000078
-0.38796997 -0.76391292 -0.00000002
0.29141623 -0.44586116 -0.00000022
-0.06849092 -0.34435496 -0.00000028
0.37838474 -0.06287710 -0.00000053
-0.50164950 -0.22848663 -0.00000028
-0.04562712 0.44712776 -0.00000078
0.19542815 -0.27957270 -0.00000033
-0.77929890 0.06504933 0.04922381
0.59785438 -0.63432550 -0.00000012
0.17173183 0.05848252 -0.00000054
-0.56989378 -0.32349640 -0.00000019
0.75091314 0.02559568 -0.00000189
0.05925072 -0.51522613 -0.00000018
-0.30767441 -0.17836107 -0.00000039
-0.71395719 -0.08914961 -0.00000008
-0.28892711 0.02200261 -0.00000051
0.08646416 -0.55886149 -0.00000015
0.17854425 0.56339800 -0.00000111
0.52267331 -0.43983275 -0.00000025
-0.72963512 -0.20136230 -0.00000004
0.34450942 -0.67536789 -0.00000008
-0.04132936 -0.71515709 -0.00000005
-0.06185759 0.76251417 0.02704874
0.36147204 -0.69965309 -0.00000006
-0.44221881 -0.39450529 -0.00000025
0.34804720 -0.04652115 -0.00000047
-0.06337770 0.19705828 -0.00000062
-0.07657776 -0.53420657 -0.00000017
-0.39552978 -0.57902336 -0.00000014
-0.44772151 0.60940993 0.28539419
0.65645266 -0.78436279 -0.00000001
0.40043807 0.00703783 -0.00000073
0.47892299 0.30297765 -0.00000156
-0.49785343 -0.39152873 -0.00000025
-0.56059545 0.55898970 0.35471314
-0.38169864 0.40432009 -0.00000052
-0.53041965 -0.41256702 -0.00000021
-0.10306869 0.47928575 -0.00000080
-0.67427725 -0.41228199 -0.00000006
0.25509992 -0.07987863 -0.00000045
0.10534721 0.41090173 -0.00000076
-0.09928545 -0.58077747 -0.00000014
0.33053499 -0.27695331 -0.00000033
-0.15563387 -0.33297789 -0.00000029
0.35769451 0.32455742 -0.00000122
-0.46646938 -0.05928095 -0.00000035
-0.48723894 0.61801374 0.33880505
0.45611492 0.18710710 -0.00000126
0.21931680 -0.60077149 -0.00000012
-0.01148854 -0.21206746 -0.00000037
0.09811999 0.52936000 -0.00000083
-0.43001264 0.57318842 0.22553574
-0.02800257 0.00765915 -0.00000050
-0.02103014 -0.75445139 -0.00000003
0.62915200 0.11685405 -0.00000168
-0.26140165 0.62303752 0.09371921
-0.59625256 -0.70713997 -0.00000006
-0.66498905 -0.37483788 -0.00000008
0.55412358 -0.18813999 -0.00000085
-0.60367858 0.28355640 0.09682372
-0.43329272 0.35692841 -0.00000046
0.29827437 -0.23798342 -0.00000035
0.59429669 -0.17216177 -0.00000101
0.33888277 -0.05726338 -0.00000046
0.39758328 0.15372860 -0.00000101
-0.41765076 -0.79726982 -0.00000000
-0.67834556 0.14236949 0.02299257
0.21394511 -0.16398124 -0.00000040
-0.33290076 -0.11699375 -0.00000043
0.03465706 -0.23180515 -0.00000036
-0.74518615 -0.10112624 -0.00000004
-0.59132755 -0.66095012 -0.00000009
-0.31287932 -0.39962283 -0.00000025
-0.36992982 0.49140802 0.06807916
-0.20451649 -0.38029680 -0.00000026
0.46403816 -0.01626830 -0.00000089
0.54558253 -0.70752496 -0.00000006
-0.57763231 -0.13632891 -0.00000021
0.20180161 0.45898050 -0.00000098
-0.03424706 0.73616844 -0.00000095
0.32563254 -0.52612811 -0.00000017
-0.25414157 -0.26685858 -0.00000033
0.29196960 0.36852548 -0.00000109
-0.61676133 0.25392336 0.07845433
0.78575367 -0.02001575 -0.00000192
-0.35239097 0.24997647 -0.00000052
0.42634350 -0.56607503 -0.00000015
0.61144978 -0.47460607 -0.00000047
0.17854169 0.01038584 -0.00000051
0.43020231 -0.32181278 -0.00000030
0.53423995 -0.06869631 -0.00000102
-0.04090635 0.69311231 -0.00000093
-0.14580569 0.72846437 0.08243202
-0.02332216 0.39587265 -0.00000075
0.70367897 -0.41684061 -0.00000088
-0.13852796 0.45861962 -0.00000079
-0.76852578 -0.25233647 0.00000000
0.50743216 0.06003618 -0.00000118
-0.48902893 0.62229306 0.34554151
0.53409940 -0.17303994 -0.00000081
-0.21806251 0.34424326 -0.00000068
0.05964352 -0.60874772 -0.00000012
0.12781022 0.01973575 -0.00000051
-0.52334762 0.63708800 0.40005383
-0.72727287 -0.48290390 0.00000000
0.35928008 -0.46643966 -0.00000021
0.52942640 -0.14963636 -0.00000084
0.50042993 0.07566278 -0.00000119
-0.56930000 0.34559095 0.12751934
0.03628921 0.35100546 -0.00000072
0.11413278 -0.17566480 -0.00000039
0.07365036 0.11579261 -0.00000057
-0.42533806 0.06125662 -0.00000041
0.70639712 -0.41456801 -0.00000089
-0.02832960 -0.36234874 -0.00000027
-0.23333170 -0.19243595 -0.00000038
-0.04070224 -0.11263468 -0.00000043
-0.19625466 0.67659676 0.08085758
-0.07111042 0.03755092 -0.00000052
-0.37330455 -0.29648626 -0.00000031
0.06023755 -0.13809276 -0.00000041
-0.20455658 0.68630075 0.10084272
0.51418537 0.07233644 -0.00000123
0.52912480 -0.55646735 -0.00000015
0.55537015 0.21756601 -0.00000164
0.79043299 -0.36087504 -0.00000110
-0.17323256 -0.38529289 -0.00000026
0.50787693 -0.12553613 -0.00000082
0.10945440 -0.58202010 -0.00000014
0.05408912 0.14290185 -0.00000059
0.03744091 -0.22913577 -0.00000036
-0.28181285 -0.65220761 -0.00000009
-0.71582538 0.25570863 0.19038886
-0.11160321 0.14570506 -0.00000059
0.15373176 -0.25983304 -0.00000034
-0.16857938 0.30452475 -0.00000069
0.33674851 -0.79623240 -0.00000000
-0.58280087 -0.52102512 -0.00000014
-0.11419173 0.45963269 -0.00000079
-0.57296294 0.36756945 0.15597916
0.30699292 -0.74160826 -0.00000004
0.06526321 0.32637870 -0.00000070
0.39328057 -0.42488101 -0.00000023
-0.43591490 0.14404164 -0.00000041
0.56998831 -0.14955726 -0.00000097
-0.20291856 0.35683241 -0.00000070
-0.05170434 -0.17368002 -0.00000039
-0.05629231 0.37777346 -0.00000074
0.25284636 0.53023231 -0.00000128
0.33727226 -0.78425139 -0.00000001
0.40351266 -0.42527926 -0.00000023
0.16513513 0.58665019 -0.00000111
0.49421969 -0.78541285 -0.00000001
0.12219547 -0.48090076 -0.00000020
-0.05870502 0.20034280 -0.00000063
-0.76992899 -0.48887414 0.00000000
-0.32633322 0.23136298 -0.00000055
-0.16400820 0.03064213 -0.00000052
0.73708832 -0.73881525 -0.00000015
0.04208455 0.49402562 -0.00000081
-0.21257854 0.26066622 -0.00000066
-0.16440433 0.60569012 -0.00000079
-0.38827097 -0.40670034 -0.00000025
0.51800001 -0.17712753 -0.00000075
0.16059105 -0.02867424 -0.00000048
-0.28375900 0.44513512 -0.00000063
-0.25078401 -0.45437598 -0.00000022
-0.75380051 0.00379814 -0.00000005
0.44064093 -0.48074132 -0.00000020
-0.05468935 0.46704048 -0.00000079
-0.69301993 -0.12319575 -0.00000009
-0.56556535 -0.21577588 -0.00000021
0.56324989 0.19737422 -0.00000163
-0.17333736 0.54004073 -0.00000077
0.08947567 -0.09262062 -0.00000044
0.68822229 -0.09736824 -0.00000145
-0.08718188 0.58793521 -0.00000087
0.39362192 -0.07059682 -0.00000056
-0.14331467 0.74495107 0.09796614
-0.56724507 0.44127890 0.23144405
-0.23510049 0.65850455 0.10389248
-0.19838727 0.70935744 0.11958631
-0.63268644 0.22570401 0.06480883
-0.45918292 -0.51327747 -0.00000018
0.46491945 -0.75563771 -0.00000003
-0.29165345 0.14636531 -0.00000057
-0.24764907 0.52791053 -0.00000069
-0.24469960 0.16409642 -0.00000060
-0.15246923 -0.02157256 -0.00000049
0.06602817 0.08170261 -0.00000055
-0.60536146 0.10785864 -0.00000023
-0.66412920 -0.23293176 -0.00000010
-0.45570737 -0.73978478 -0.00000004
0.18371150 0.52156311 -0.00000104
0.09376050 -0.59583336 -0.00000013
-0.78880042 -0.05830373 -0.00000000
-0.24144943 -0.64578038 -0.00000010
0.52682352 0.16747028 -0.00000145
-0.26704943 -0.28304812 -0.00000032
-0.56246835 -0.73008996 -0.00000004
-0.21923281 -0.70435274 -0.00000006
-0.71456999 0.25189114 0.18475839
-0.32938254 0.52891016 0.06469912
-0.73232168 -0.72600603 0.00000000
-0.30483964 -0.21011297 -0.00000037
-0.28489929 0.55746037 0.04701466
0.15526800 -0.34066439 -0.00000029
-0.40389431 -0.13030024 -0.00000040
0.23219846 -0.05208934 -0.00000047
0.28281477 0.10847033 -0.00000057
-0.22533786 0.55766249 -0.00000072
0.41751230 0.05858638 -0.00000089
-0.16970563 -0.62331200 -0.00000011
0.02134938 0.50176883 -0.00000081
0.18782552 -0.68605024 -0.00000007
0.07386158 -0.42468849 -0.00000023
-0.11698659 -0.66612720 -0.00000008
-0.59311253 -0.30059147 -0.00000017
0.34879106 -0.72503293 -0.00000005
0.56847477 -0.21172243 -0.00000085
0.56621242 -0.58020025 -0.00000014
0.14883974 -0.23709247 -0.00000035
0.39131069 0.10538347 -0.00000090
0.28482535 -0.12640384 -0.00000042
-0.62008208 -0.28907987 -0.00000014
0.11387412 -0.56661934 -0.00000015
0.46642217 -0.45076025 -0.00000022
-0.61060923 0.45027775 0.28956288
0.09990951 -0.59960222 -0.00000013
-0.46880102 0.63853854 0.34112126
-0.38168150 0.52424526 0.11756906
-0.71820444 -0.25687331 -0.00000004
-0.30577213 -0.46190414 -0.00000021
-0.34967223 0.04864209 -0.00000049
-0.28529313 0.14263421 -0.00000058
-0.05555466 -0.37729615 -0.00000026
0.76831728 -0.28287989 -0.00000129
0.22165401 -0.37714231 -0.00000026
-0.54081500 0.57708329 0.35284078
0.74652326 -0.76074517 -0.00000010
-0.56690425 -0.06063582 -0.00000024
0.19611873 0.18720506 -0.00000062
0.02559031 -0.25650191 -0.00000034
0.43150008 -0.35662434 -0.00000028
0.15873864 -0.10810618 -0.00000043
0.51743621 -0.62338036 -0.00000011
-0.54760814 -0.52208370 -0.00000017
0.29667622 -0.15636924 -0.00000040
-0.37932450 0.65815336 0.26358017
-0.42609155 -0.14009905 -0.00000037
-0.65725577 0.34717596 0.22690231
-0.68775386 -0.66129088 0.00000000
-0.24381363 -0.34275520 -0.00000029
0.12897307 -0.37080497 -0.00000027
-0.32957700 -0.33983281 -0.00000029
-0.29713869 0.02188866 -0.00000051
-0.47909254 0.54530871 0.24906638
-0.59879827 0.47015429 0.29851505
0.30419916 -0.78023827 -0.00000001
0.44947979 -0.27573612 -0.00000034
0.71849203 -0.58350134 -0.00000054
0.72984481 -0.64687377 -0.00000038
0.11113838 -0.79985338 -0.00000000
0.69304901 -0.79488540 -0.00000001
-0.57675922 0.45013291 0.25183123
-0.50564492 0.38628131 0.10203020
0.53419632 0.18770133 -0.00000152
0.07765301 -0.36063361 -0.00000027
-0.18214586 0.69740027 0.08828814
-0.48972034 -0.35404110 -0.00000027
-0.02175572 -0.78976500 -0.00000001
-0.75100565 0.08058848 0.03506766
-0.25074229 0.44506773 -0.00000067
-0.29684386 0.55270511 0.05499418
-0.08503892 -0.50291687 -0.00000019
-0.42661819 0.17489704 -0.00000043
0.72307014 -0.42518246 -0.00000092
0.65868992 -0.47877252 -0.00000061
-0.18867870 0.69824606 0.09647782
0.61174905 -0.38217562 -0.00000065
0.66420734 -0.62573195 -0.00000034
-0.05277397 -0.66543734 -0.00000008
0.46002522 0.28652051 -0.00000147
-0.46114850 -0.01061364 -0.00000036
0.40407276 -0.79172748 -0.00000001
-0.69586182 -0.41964865 -0.00000003
-0.17959933 0.07777746 -0.00000055
-0.21408238 0.59954250 0.01512117
-0.68534428 -0.15648979 -0.00000009
0.70248771 -0.49410933 -0.00000072
0.78303295 -0.79714715 -0.00000001
-0.50511688 0.42538732 0.14484844
-0.20413215 -0.55937111 -0.00000015
-0.26489562 0.21295190 -0.00000061
0.69604546 0.06097736 -0.00000179
0.48033413 0.31272328 -0.00000159
0.61928511 -0.77051657 -0.00000002
0.16976035 0.30787960 -0.00000069
-0.38437298 -0.13025528 -0.00000042
-0.39198288 -0.38022345 -0.00000026
-0.44614637 0.61491472 0.28975582
0.63100654 -0.09581092 -0.00000127
-0.63664567 0.35205421 0.20944124
-0.40048084 -0.49393061 -0.00000019
0.08155799 0.17064625 -0.00000061
-0.59976476 0.53377098 0.37019721
-0.61958992 0.54632860 0.40613961
0.53097636 -0.45631450 -0.00000025
-0.30739874 -0.47033450 -0.00000021
-0.34734079 0.33227351 -0.00000054
-0.36650717 0.33821407 -0.00000052
-0.27514338 0.49841455 -0.00000065
-0.55388647 0.59315544 0.38518789
-0.62482303 0.47913224 0.33736530
0.03712800 -0.28371018 -0.00000032
-0.54009175 -0.68275934 -0.00000007
-0.38731879 0.60375315 0.21207325
-0.65710044 0.07926363 -0.00000017
-0.55579996 0.48358625 0.26569867
-0.65298766 0.19072855 0.04852174
-0.33862969 -0.01644100 -0.00000049
0.38960889 0.15835278 -0.00000100
-0.42440516 -0.52001917 -0.00000017
0.12418526 -0.40048358 -0.00000025
-0.00968538 0.77418220 -0.00000098
0.18083997 0.42753688 -0.00000085
0.72409087 -0.48495302 -0.00000079
-0.30799937 -0.32525232 -0.00000030
-0.70232296 0.29169613 0.21534538
-0.35932356 -0.30247852 -0.00000031
-0.34741092 -0.60247540 -0.00000012
-0.71460617 0.00128464 -0.00000009
-0.57247394 0.62668127 0.44302955
-0.42982411 0.52632153 0.17330796
0.08909060 -0.05557706 -0.00000047
0.68633324 -0.12614238 -0.00000139
0.24482791 -0.11842275 -0.00000043
-0.48555982 0.36713061 0.05848170
-0.37468249 0.40240741 -0.00000053
-0.50785244 0.60944688 0.35217592
-0.46531785 -0.28474161 -0.00000030
0.18903512 -0.02794157 -0.00000048
0.04580141 0.12493410 -0.00000058
0.61306065 -0.07875729 -0.00000125
-0.37888488 -0.57245123 -0.00000014
-0.36677015 -0.49797806 -0.00000019
0.72407424 -0.37306252 -0.00000103
0.64936799 -0.43497470 -0.00000067
-0.43789154 0.63489121 0.30276594
-0.75790745 -0.19387151 -0.00000001
-0.78753322 -0.54097241 0.00000000
0.12545212 0.29504040 -0.00000068
0.34663588 -0.18657844 -0.00000038
0.09495891 0.60788131 -0.00000093
-0.18755388 -0.43651393 -0.00000023
-0.20304319 -0.18301114 -0.00000039
-0.14546575 -0.69085395 -0.00000007
-0.24740800 -0.02679336 -0.00000048
-0.58896786 -0.42957911 -0.00000015
-0.16533189 0.16149773 -0.00000060
-0.65296680 0.48380387 0.37378779
0.10305195 0.37455386 -0.00000073
0.28368506 0.18065825 -0.00000070
-0.74500525 -0.54756248 0.00000000
0.07758978 0.72236627 -0.00000110
0.67197567 0.00461906 -0.00000160
-0.77806169 -0.30096519 0.00000000
-0.35512120 -0.47901222 -0.00000020
0.07819565 -0.58041739 -0.00000014
0.54941618 -0.63597554 -0.00000010
0.66069919 -0.65032095 -0.00000029
0.30264550 0.20651542 -0.00000081
0.36355817 -0.10931808 -0.00000043
-0.08193430 -0.79842395 -0.00000000
0.17948817 -0.55834967 -0.00000015
-0.02515062 0.67684650 -0.00000092
-0.46817356 -0.10968484 -0.00000033
0.15706664 0.59409410 -0.00000110
-0.08248105 -0.65644354 -0.00000009
0.61375833 -0.78284967 -0.00000001
0.61602092 -0.08356074 -0.00000125
-0.08432334 -0.42891011 -0.00000023
-0.73211521 -0.45479912 0.00000000
0.67985588 -0.71720260 -0.00000021
-0.00375346 -0.08035496 -0.00000045
0.49233875 -0.30230421 -0.00000043
0.50408334 -0.23015848 -0.00000060
0.59322852 -0.74930668 -0.00000003
-0.67344499 0.32500213 0.22025995
0.29370263 -0.17528033 -0.00000039
0.13771015 0.54970300 -0.00000095
-0.46330264 -0.64016485 -0.00000010
0.67008024 -0.37600681 -0.00000085
0.36390767 0.41768438 -0.00000142
0.16733769 -0.75409436 -0.00000003
-0.25232351 -0.26155534 -0.00000034
-0.59336334 0.35667166 0.16652632
0.79850549 -0.34107959 -0.00000115
0.71351808 -0.31191179 -0.00000111
-0.42869210 -0.07010325 -0.00000038
-0.71644664 -0.24735790 -0.00000004
-0.15416561 0.67537838 0.03278978
0.01372972 -0.50764191 -0.00000018
-0.18385962 -0.23616730 -0.00000035
-0.32200375 -0.37922537 -0.00000026
-0.00813920 0.48490185 -0.00000080
-0.32346430 -0.30057982 -0.00000031
-0.72303015 0.13482741 0.06421773
0.63519478 0.09133710 -0.00000165
-0.25583404 0.48744196 -0.00000067
-0.17300577 0.08396337 -0.00000055
-0.29913357 0.20868093 -0.00000057
-0.58702683 0.47419322 0.28993252
-0.15438513 -0.63688946 -0.00000010
0.35312659 -0.14416733 -0.00000041
0.21853773 -0.58301467 -0.00000014
-0.38362029 -0.06372165 -0.00000043
-0.56914943 -0.08978982 -0.00000023
-0.37354103 -0.54847068 -0.00000016
-0.65120769 -0.13514537 -0.00000013
0.56960970 -0.18234600 -0.00000091
0.06395309 0.36976019 -0.00000073
0.75681055 -0.79445171 -0.00000001
-0.69588250 0.18328926 0.08787455
0.02840877 0.19093767 -0.00000062
0.75980330 -0.03030063 -0.00000181
0.35898584 -0.37138417 -0.00000027
0.77345204 -0.44991168 -0.00000088
-0.47534022 0.41517377 0.10046262
0.38397679 -0.31057206 -0.00000031
0.00517035 -0.77227223 -0.00000002
-0.43186831 0.65948254 0.32337502
0.22994675 0.43381023 -0.00000102
-0.03430570 0.08957900 -0.00000056
0.27218279 -0.79687458 -0.00000000
0.30803952 -0.68928486 -0.00000007
0.32077903 -0.16501836 -0.00000040
0.26178804 0.05275954 -0.00000053
-0.56415945 0.54313660 0.34107319
-0.06707228 0.71180588 -0.00000091
-0.41605628 -0.04048285 -0.00000040
-0.05427541 0.51335162 -0.00000082
0.27084416 -0.15731691 -0.00000040
0.24357229 -0.67248845 -0.00000008
-0.49537855 0.47373411 0.18770052
0.16794270 0.29668123 -0.00000069
-0.19012456 -0.50374609 -0.00000019
-0.06308001 -0.44019669 -0.00000022
-0.07178015 0.40138778 -0.00000075
0.05291123 0.64899725 -0.00000091
-0.61879802 0.11839673 -0.00000022
0.27046418 -0.41010031 -0.00000024
-0.47991139 -0.72613949 -0.00000005
-0.00327021 0.64435148 -0.00000090
-0.21337552 -0.76010281 -0.00000002
-0.60820532 -0.09521048 -0.00000019
-0.40351215 0.07947774 -0.00000044
-0.55053949 -0.60933977 -0.00000012
-0.62821984 0.20803185 0.04023670
0.72618413 -0.41354761 -0.00000096
-0.73344427 -0.69406915 0.00000000
-0.62334955 0.31677714 0.15552907
-0.70587766 -0.78496480 0.00000000
-0.51897889 0.52166688 0.26709658
0.71922767 -0.29729408 -0.00000116
0.71220148 -0.77235931 -0.00000007
0.74927884 0.04954550 -0.00000192
-0.69506747 -0.54169941 -0.00000001
0.11137632 -0.16682868 -0.00000040
0.38546342 -0.09895061 -0.00000048
-0.09255031 0.11356964 -0.00000057
-0.09950912 0.46744505 -0.00000079
0.35159561 0.03571677 -0.00000063
-0.50071603 -0.44716245 -0.00000022
0.27204296 0.25378463 -0.00000081
0.40901336 -0.42210066 -0.00000024
0.50956202 -0.24213123 -0.00000060
-0.40290305 0.45542806 0.06474208
0.31307846 -0.22142763 -0.00000036
-0.43127880 0.42272905 0.05994371
-0.28195167 -0.12245294 -0.00000042
-0.43569720 -0.09340607 -0.00000037
-0.14916699 0.73708242 0.09572820
-0.36767364 -0.75646180 -0.00000003
0.59572661 -0.21988276 -0.00000092
0.56588930 -0.38812259 -0.00000049
0.27266806 0.45109841 -0.00000119
-0.76213753 0.09493143 0.06334261
-0.64238626 -0.30667049 -0.00000011
-0.05711015 -0.31493947 -0.00000030
0.00124635 -0.33809721 -0.00000029
0.44221318 -0.70664024 -0.00000006
0.38256383 -0.31375599 -0.00000030
-0.24576260 0.31744856 -0.00000065
0.12724137 -0.15036504 -0.00000041
-0.44945243 -0.72466344 -0.00000005
0.23139212 0.50562608 -0.00000117
-0.31265011 0.44038925 -0.00000060
0.79138929 -0.26869196 -0.00000133
0.78902477 -0.19333263 -0.00000152
-0.61125886 -0.07770035 -0.00000019
-0.58933306 -0.21867326 -0.00000018
-0.62057614 0.15953866 -0.00000022
0.29464093 0.30788270 -0.00000098
-0.61171299 -0.37454790 -0.00000013
-0.52091271 0.39251876 0.12589920
-0.44440684 0.39131951 0.03965284
0.49378175 -0.25524431 -0.00000052
0.61267579 -0.46465424 -0.00000049
0.45598367 -0.03430956 -0.00000083
-0.55047864 -0.13476279 -0.00000024
-0.62671375 -0.25271457 -0.00000014
-0.22969151 0.55510324 -0.00000071
-0.61120325 0.33177206 0.15869078
-0.76003337 -0.61943817 0.00000000
-0.59848607 -0.59244013 -0.00000011
-0.72491670 0.04160303 -0.00000009
-0.11687898 0.66971475 -0.00000085
0.48045093 -0.49386063 -0.00000019
-0.18647750 0.73295683 0.13256085
0.62430638 -0.23888148 -0.00000097
0.67904538 0.10267687 -0.00000181
-0.73172426 -0.01996535 -0.00000007
0.60645282 0.15048531 -0.00000167
-0.68572176 0.19078219 0.08491347
-0.45579249 0.51133931 0.18550177
0.76980752 -0.54164690 -0.00000065
-0.78569198 -0.24071330 0.00000000
0.22763714 0.26612556 -0.00000069
-0.18633360 -0.71582222 -0.00000005
-0.07867010 0.73066956 0.01036443
-0.53033185 -0.21484986 -0.00000025
-0.19296221 0.45917666 -0.00000073
0.75461400 -0.03026062 -0.00000180
-0.26378909 0.53580642 -0.00000067
-0.74183571 -0.76880938 0.00000000
0.21525484 -0.48709214 -0.00000020
-0.49823460 -0.09569273 -0.00000030
0.56931448 -0.70692152 -0.00000006
-0.49958706 -0.59396333 -0.00000013
0.58194399 -0.67356265 -0.00000008
0.30958492 -0.35418338 -0.00000028
-0.35189304 0.54560322 0.10821183
0.09654598 -0.05356951 -0.00000047
-0.70350254 -0.49527451 -0.00000001
-0.35760728 0.39302331 -0.00000054
0.31890991 -0.32265112 -0.00000030
-0.28072798 -0.71226567 -0.00000005
-0.56070983 -0.59112400 -0.00000013
0.61006808 -0.46301380 -0.00000049
-0.65062457 -0.60050023 -0.00000005
0.25322601 0.53146064 -0.00000129
0.32620978 0.20720762 -0.00000089
-0.45417154 -0.04106278 -0.00000036
-0.12666814 0.12204532 -0.00000058
0.14678393 0.43353814 -0.00000077
0.50423932 -0.74686277 -0.00000003
-0.10131486 -0.16552757 -0.00000040
-0.48875412 0.43795016 0.14063081
0.26449162 0.42472374 -0.00000111
-0.60773772 -0.00756293 -0.00000020
0.13908395 0.58680928 -0.00000103
0.39875215 -0.45809206 -0.00000021
-0.52560192 0.46598357 0.21264353
0.55878025 -0.69341660 -0.00000007
-0.31891936 -0.14786917 -0.00000041
0.60449344 -0.30688149 -0.00000078
-0.37668186 -0.25333187 -0.00000034
0.30099401 0.44107410 -0.00000126
-0.22584744 -0.07271474 -0.00000045
-0.68785679 0.12686972 0.01634582
-0.49212343 0.29221332 -0.00000038
0.20002919 0.44126689 -0.00000094
0.52406687 -0.53581548 -0.00000017
0.75861412 -0.69335967 -0.00000027
-0.51135260 -0.77833152 -0.00000001
-0.08897462 0.45914820 -0.00000079
-0.55660081 -0.10579637 -0.00000024
0.76878554 -0.20934768 -0.00000148
-0.56603712 0.44072163 0.22948477
-0.61380881 -0.07832273 -0.00000018
-0.04889936 -0.50319719 -0.00000019
-0.56091726 -0.08793992 -0.00000024
-0.07359514 0.66399205 -0.00000090
-0.23782238 0.69249505 0.14464030
0.11137667 0.28240204 -0.00000068
-0.27283183 0.56381309 0.04067168
-0.10130969 0.39769387 -0.00000075
0.18746920 -0.36766398 -0.00000027
0.12906785 0.65635967 -0.00000113
0.19164596 -0.62703007 -0.00000011
-0.38689977 -0.75687379 -0.00000003
-0.17830819 0.63694829 0.01693198
-0.62127799 0.33636123 0.17496648
0.08963585 0.58910882 -0.00000088
0.29004553 0.18033236 -0.00000072
0.55576473 -0.14086840 -0.00000094
0.55809945 -0.37545463 -0.00000049
-0.63472575 0.30792922 0.15833525
-0.03263159 0.33222535 -0.00000071
-0.50703603 -0.31559402 -0.00000025
-0.00845618 0.32008779 -0.00000070
-0.14512248 0.66494054 0.01116754
0.14609809 -0.19051719 -0.00000038
0.03331839 0.45047602 -0.00000078
-0.02552929 -0.78071839 -0.00000001
0.07948867 0.27745304 -0.00000067
-0.30177206 -0.03582815 -0.00000048
-0.31800470 0.53901047 0.06328112
0.40166432 -0.31575811 -0.00000030
0.11890096 -0.46154776 -0.00000021
-0.35199884 0.36083817 -0.00000054
0.45741382 0.16419443 -0.00000122
-0.55725461 0.20361669 -0.00000030
0.27855971 -0.73146522 -0.00000004
-0.37942022 0.62434828 0.22616549
-0.69325703 -0.59297222 -0.00000001
-0.01362391 0.12203585 -0.00000058
0.40623847 -0.09193353 -0.00000056
0.74501806 -0.29007387 -0.00000126
0.54173857 -0.44628403 -0.00000030
-0.24553090 0.11794070 -0.00000057
0.13908325 0.46628737 -0.00000079
0.43852997 0.15993176 -0.00000115
-0.15871035 -0.39081118 -0.00000026
-0.01597239 0.59461588 -0.00000087
-0.41366324 0.00299154 -0.00000041
-0.22720519 0.64903939 0.08462377
-0.07106752 0.17340535 -0.00000061
0.52212566 0.08399209 -0.00000127
-0.27378550 -0.11334762 -0.00000043
-0.07651463 -0.20303392 -0.00000037
-0.12375468 -0.20046663 -0.00000037
0.00798559 0.26280808 -0.00000066
-0.61189753 -0.70923489 -0.00000006
0.38022009 -0.59768867 -0.00000013
-0.64792281 0.28848881 0.15140575
0.00690790 -0.20592940 -0.00000037
-0.26396447 -0.47030130 -0.00000021
-0.46244857 0.46473694 0.14116482
0.12415417 0.29168946 -0.00000068
-0.59631169 -0.29930359 -0.00000016
-0.22853725 0.06939589 -0.00000054
-0.50604981 -0.72370720 -0.00000005
-0.63018793 0.17712861 0.00812116
-0.12171391 -0.60419810 -0.00000012
0.28249222 0.17657115 -0.00000069
0.64131087 -0.78796470 -0.00000001
0.10830305 -0.33851454 -0.00000029
-0.19478004 -0.16702014 -0.00000040
0.22948943 0.07962552 -0.00000055
0.65170819 0.03233225 -0.00000159
-0.47296473 0.40662754 0.08834044
0.76704580 -0.33678302 -0.00000116
0.03279558 -0.44970262 -0.00000022
0.43681812 0.02966879 -0.00000090
-0.77334899 -0.73552024 0.00000000
-0.11733630 0.32180583 -0.00000070
0.03527721 0.04527650 -0.00000053
0.13522732 -0.59287965 -0.00000013
0.63847929 -0.34747279 -0.00000081
0.11792909 -0.48738453 -0.00000020
-0.30776453 -0.36867329 -0.00000027
0.62922496 -0.68501890 -0.00000012
-0.44930172 -0.61699289 -0.00000011
0.39853776 -0.01996624 -0.00000068
-0.05681387 0.29310241 -0.00000068
-0.23115379 -0.28132281 -0.00000032
0.07896565 0.60759759 -0.00000088
0.70780134 -0.24591641 -0.00000123
0.47011045 -0.40371862 -0.00000025
0.78792197 -0.55077910 -0.00000062
-0.22166115 0.15933558 -0.00000060
-0.47156063 0.34959725 0.02348321
0.65012366 -0.56636786 -0.00000042
0.62354344 -0.60699308 -0.00000025
-0.46278095 0.04293463 -0.00000037
-0.63841188 0.53040743 0.40935922
-0.19666512 -0.63811445 -0.00000010
-0.01558601 -0.27335775 -0.00000033
-0.42560714 0.60548031 0.25648740
-0.51864958 0.28565946 0.00478261
0.35718608 -0.61066163 -0.00000012
-0.19377339 0.45905262 -0.00000073
-0.11987809 0.13609441 -0.00000059
-0.39939812 0.34505421 -0.00000049
0.03669002 -0.15996103 -0.00000040
0.17624417 0.14280915 -0.00000059
-0.27623466 0.70431358 0.20039257
0.13609096 0.42920431 -0.00000077
-0.44440311 0.43405220 0.08707838
0.26901832 0.41855401 -0.00000112
-0.31168571 0.69989461 0.23483583
-0.25208101 -0.52819610 -0.00000017
-0.14400475 0.72855312 0.08053165
-0.16073591 -0.17863540 -0.00000039
-0.40615496 0.40938854 0.01725148
-0.37499079 0.23273952 -0.00000050
0.14619417 0.58182949 -0.00000104
-0.70966631 0.21288569 0.13602304
-0.37164405 0.56396228 0.15051083
-0.17772049 -0.20355670 -0.00000037
-0.58172220 0.39659765 0.19792005
0.60516268 -0.40552354 -0.00000059
-0.71684206 0.24226013 0.17659064
-0.25610161 0.36985341 -0.00000065
-0.41797337 -0.15701661 -0.00000038
-0.42559087 0.00096928 -0.00000040
-0.12606426 -0.38785303 -0.00000026
-0.53858143 -0.40367404 -0.00000021
-0.30161658 -0.04514927 -0.00000047
-0.27067846 0.33657548 -0.00000063
0.59766865 -0.54778928 -0.00000028
-0.65323001 -0.43726286 -0.00000008
0.59506559 -0.45604903 -0.00000045
0.05398323 -0.40383476 -0.00000025
-0.28056419 -0.54224032 -0.00000016
0.73306280 -0.02720632 -0.00000173
-0.09012097 -0.74808669 -0.00000003
-0.72419083 0.20456032 0.14290360
0.28204733 -0.76666647 -0.00000002
0.43826500 -0.23028111 -0.00000039
0.11130347 0.22643635 -0.00000064
0.02757808 -0.46205941 -0.00000021
-0.60443258 0.16660081 -0.00000024
-0.54966253 0.00914557 -0.00000027
0.11671900 -0.20167005 -0.00000037
0.09564511 -0.62169975 -0.00000011
0.01504379 0.39791101 -0.00000075
-0.15678056 -0.34972313 -0.00000028
-0.13438012 0.33124551 -0.00000071
-0.41239145 -0.29183787 -0.00000032
0.22819532 -0.41125944 -0.00000024
0.63709837 -0.16048113 -0.00000117
-0.00350965 -0.01890411 -0.00000049
-0.76811886 -0.33788171 0.00000000
-0.03701388 -0.01031083 -0.00000049
0.27851534 0.39750910 -0.00000111
0.59415263 -0.54122180 -0.00000029
0.49241996 0.21321648 -0.00000143
0.02729825 0.29919004 -0.00000069
0.64103621 -0.22567563 -0.00000105
-0.73493701 -0.76948780 0.00000000
-0.77859730 -0.66391975 0.00000000
-0.37329292 -0.73213345 -0.00000004
0.18541928 -0.24147791 -0.00000035
-0.26537183 -0.50326860 -0.00000019
-0.13153023 -0.28626448 -0.00000032
-0.48684976 -0.17329922 -0.00000030
-0.30674288 -0.00701824 -0.00000050
-0.00057553 0.33511996 -0.00000071
0.15110925 0.07386788 -0.00000055
-0.12822248 -0.26596752 -0.00000033
0.79516715 -0.19028255 -0.00000152
0.16741951 -0.27746302 -0.00000033
0.26951212 0.39775330 -0.00000108
-0.57307732 -0.49479616 -0.00000015
-0.63478118 0.27785540 0.12501746
-0.37408590 0.66314250 0.26330328
0.34318659 -0.11408334 -0.00000043
-0.50465339 0.50684500 0.23474526
0.77580225 -0.52518082 -0.00000069
-0.18124214 -0.32650790 -0.00000030
-0.61357188 -0.04949905 -0.00000019
0.11859436 -0.79979903 -0.00000000
-0.38930002 0.51741779 0.11844715
-0.43663222 0.57431954 0.23413844
-0.60606200 -0.68949145 -0.00000007
0.10540374 -0.24482536 -0.00000035
0.30645746 -0.61849582 -0.00000011
-0.06577105 -0.55527490 -0.00000015
0.26007622 -0.56837821 -0.00000014
-0.55734986 0.50128996 0.28706864
-0.73210722 -0.34882176 -0.00000001
-0.65546566 0.14973655 0.00577454
-0.56878221 0.58437675 0.39197740
-0.41760936 -0.32434455 -0.00000030
-0.59061730 0.22225475 0.01428714
-0.63272870 0.31826311 0.16758843
-0.60623151 0.07981241 -0.00000022
-0.16205484 0.25069705 -0.00000066
-0.66252667 0.36433247 0.25179487
-0.69460154 -0.61773008 0.00000000
0.22745173 -0.53782308 -0.00000016
-0.30889079 0.33382165 -0.00000059
0.25070170 0.11059446 -0.00000057
-0.65201253 0.16681866 0.02090149
-0.22787927 -0.66004050 -0.00000009
-0.12005518 0.73571527 0.06189885
-0.58061093 0.54791981 0.36464202
0.13908888 -0.75173849 -0.00000003
0.36822978 -0.19043456 -0.00000038
-0.71721780 -0.31202757 -0.00000003
0.37851456 0.30863109 -0.00000125
0.38549608 -0.44344074 -0.00000022
-0.34449768 -0.73412079 -0.00000004
-0.25393417 0.28262675 -0.00000063
-0.00602166 0.24901216 -0.00000066
0.17380036 -0.00319329 -0.00000050
-0.72887087 -0.18607759 -0.00000004
-0.29157570 0.69829500 0.21073987
0.68908226 0.05748587 -0.00000176
-0.48847708 0.14015226 -0.00000036
-0.01571804 -0.14774632 -0.00000041
-0.37167317 0.43871191 0.01152592
0.17223561 -0.57944131 -0.00000014
0.27683449 0.23149940 -0.00000078
0.29137218 -0.53641206 -0.00000016
-0.11271271 0.34076533 -0.00000071
-0.09873440 -0.45140162 -0.00000022
0.37682882 0.04242617 -0.00000073
0.36258072 0.01180413 -0.00000062
0.10675200 -0.29343492 -0.00000032
0.32595742 -0.34012341 -0.00000029
-0.30808198 -0.78030938 -0.00000001
0.06371301 -0.38752401 -0.00000026
0.62522817 -0.03458232 -0.00000137
0.21051806 -0.60222250 -0.00000012
0.13502491 -0.58365965 -0.00000014
-0.28288576 -0.73019361 -0.00000004
-0.11397956 0.14677635 -0.00000059
-0.74062872 -0.66340333 0.00000000
0.56969082 -0.16022786 -0.00000095
-0.33910021 0.63112921 0.18893968
0.67099416 -0.63362956 -0.00000035
-0.39307028 0.47274402 0.07304773
0.07688364 0.07548903 -0.00000055
-0.11841288 -0.77351898 -0.00000002
-0.46926272 -0.19093929 -0.00000032
0.55741554 -0.52511615 -0.00000020
-0.19838776 -0.40050402 -0.00000025
0.49620622 -0.63255167 -0.00000010
0.20786412 0.05275711 -0.00000053
0.33337423 0.03692359 -0.00000058
0.60930270 -0.56638670 -0.00000028
-0.24939077 0.65522724 0.11611601
-0.76770407 -0.00613257 -0.00000003
0.72770917 -0.27469063 -0.00000123
0.09788864 -0.76089108 -0.00000002
-0.36710799 0.30820072 -0.00000052
-0.26556298 -0.70067698 -0.00000006
-0.52849430 -0.01476086 -0.00000029
0.59540904 -0.01942907 -0.00000131
0.04424424 -0.72958195 -0.00000004
-0.31209144 0.50279737 0.01652442
0.22478285 -0.71808392 -0.00000005
-0.53230929 -0.70934117 -0.00000006
-0.73955315 -0.78488308 0.00000000
-0.00826762 -0.39738867 -0.00000025
0.37767753 -0.22609261 -0.00000036
-0.25709248 0.02591298 -0.00000052
-0.30564645 -0.50857329 -0.00000018
0.55820847 -0.69377387 -0.00000007
-0.71336800 -0.18469626 -0.00000006
-0.62127405 -0.67382419 -0.00000007
-0.69418561 -0.57797414 -0.00000001
-0.06976956 -0.43549642 -0.00000023
-0.12857994 -0.47964928 -0.00000020
0.40948564 0.12969716 -0.00000100
0.35785514 -0.65809053 -0.00000009
-0.55957377 0.27764502 0.04130982
-0.00469063 -0.77267355 -0.00000002
0.40712869 -0.00765364 -0.00000073
-0.11299750 -0.41632783 -0.00000024
-0.29066628 -0.37937427 -0.00000026
0.06323165 -0.37464723 -0.00000027
-0.43789354 0.36906359 0.00772145
-0.62902904 0.13189150 -0.00000021
-0.44292992 0.13924094 -0.00000041
0.10141712 0.27981409 -0.00000067
-0.61813629 0.36846933 0.20711666
-0.25068575 -0.19290639 -0.00000038
0.48216099 0.11310684 -0.00000120
-0.36481819 -0.67794031 -0.00000008
0.46124548 0.10761957 -0.00000113
-0.45761710 -0.72003347 -0.00000005
-0.77303225 -0.49979559 0.00000000
0.32437709 -0.48788303 -0.00000020
-0.58261055 -0.52869266 -0.00000014
-0.56452870 0.62893665 0.43671423
0.43218154 -0.03142391 -0.00000076
0.00059526 -0.01598743 -0.00000049
-0.15073238 0.18540245 -0.00000062
0.15788040 0.04071125 -0.00000053
-0.46211916 -0.66368949 -0.00000009
0.14816521 -0.30101824 -0.00000031
-0.35768744 0.22185108 -0.00000051
0.48304072 -0.27657098 -0.00000045
0.37726897 -0.23395228 -0.00000035
-0.53411961 0.03301273 -0.00000029
-0.46136811 -0.18980825 -0.00000033
0.70497686 -0.29651597 -0.00000112
-0.40118259 0.17504819 -0.00000046
0.53679723 -0.29984874 -0.00000057
-0.71238273 0.11694924 0.03255677
0.67052042 -0.35541576 -0.00000089
-0.68552470 0.04549220 -0.00000013
-0.53289205 -0.29626620 -0.00000023
-0.62872177 -0.73513037 -0.00000004
-0.52916759 0.34517682 0.08251593
0.31480247 -0.65404475 -0.00000009
-0.43388787 -0.60966504 -0.00000012
-0.04139082 -0.49217960 -0.00000019
0.59714228 -0.07070581 -0.00000121
-0.05505961 -0.75243008 -0.00000003
-0.17703252 0.20444998 -0.00000063
-0.53735846 0.31390449 0.05689758
0.31846273 0.16837636 -0.00000079
-0.25829810 0.41295451 -0.00000065
-0.19828822 -0.22063136 -0.00000036
0.18549788 -0.65313321 -0.00000009
0.38114271 -0.00216297 -0.00000066
0.58736646 -0.12217106 -0.00000108
-0.29919657 0.30612424 -0.00000059
0.17444174 -0.00883921 -0.00000049
-0.59275180 -0.12309015 -0.00000020
0.34034777 -0.23020774 -0.00000036
0.48466122 -0.72504300 -0.00000005
-0.38758802 -0.10717954 -0.00000042
-0.70913744 0.01645516 -0.00000010
-0.62942678 0.36212197 0.21260315
-0.05629985 0.02836894 -0.00000052
0.66972280 -0.41671723 -0.00000077
-0.47287855 -0.31264213 -0.00000029
-0.41836041 -0.34237930 -0.00000029
-0.76856732 -0.33619142 0.00000000
-0.45137566 -0.47493470 -0.00000020
0.53852528 -0.73178977 -0.00000004
-0.63565463 0.46305156 0.33153924
-0.46058884 -0.68120855 -0.00000007
0.08112920 0.66961139 -0.00000101
-0.31335112 0.61298066 0.14021672
0.23523587 -0.54658175 -0.00000016
-0.27390215 -0.13020568 -0.00000042
-0.57192534 -0.14808977 -0.00000022
0.12220447 -0.63541418 -0.00000010
-0.53775901 -0.25854468 -0.00000023
-0.52381694 -0.62956613 -0.00000011
-0.08638151 -0.52734554 -0.00000017
-0.48241642 0.60308188 0.31687924
-0.23316392 -0.60447401 -0.00000012
-0.24427329 0.08857356 -0.00000056
0.62898594 0.11490535 -0.00000168
-0.50349259 0.45116758 0.17165953
-0.18467356 -0.38408405 -0.00000026
0.15046483 0.37308449 -0.00000073
-0.28836587 -0.43301341 -0.00000023
0.34189266 0.04341538 -0.00000062
-0.73212564 -0.33726698 -0.00000001
0.20894626 -0.34525922 -0.00000028
-0.60861331 0.30524954 0.12637836
0.22337896 0.38430539 -0.00000090
0.32714695 0.18215069 -0.00000084
-0.52121127 0.56403196 0.31659615
-0.06310015 0.24106283 -0.00000065
0.16729535 -0.03985759 -0.00000048
0.27106676 -0.48485884 -0.00000020
-0.69091046 -0.27533627 -0.00000007
0.16559291 -0.22540335 -0.00000036
0.17652231 0.40123761 -0.00000079
-0.01224463 0.52316254 -0.00000083
-0.38221920 -0.57192272 -0.00000014
-0.62698537 0.54422021 0.41200778
0.47264498 -0.55975884 -0.00000015
0.09418095 -0.17688942 -0.00000039
-0.62493593 0.36968860 0.21601705
-0.18700698 0.64427698 0.03472116
0.26523733 -0.36821431 -0.00000027
-0.71769011 0.26546833 0.20329103
-0.48232287 0.32006830 0.00265383
-0.73374557 -0.07096352 -0.00000006
-0.71273237 -0.19244289 -0.00000006
0.43815210 0.14379229 -0.00000112
-0.35556570 0.35967174 -0.00000054
0.50363320 -0.14385229 -0.00000077
-0.16576639 -0.06135270 -0.00000046
-0.30962223 0.32570878 -0.00000058
0.32970741 -0.60028183 -0.00000012
-0.24584265 0.56443751 0.01140898
0.52980053 0.09195694 -0.00000131
-0.71881568 0.25235549 0.18998623
-0.45329377 0.05763102 -0.00000038
0.13191317 0.30138233 -0.00000069
-0.01436414 -0.66980898 -0.00000008
0.27361587 -0.36964574 -0.00000027
-0.33954304 -0.53344965 -0.00000017
0.27645320 -0.71144807 -0.00000006
0.12890431 -0.47672641 -0.00000020
0.25886154 0.01075475 -0.00000051
-0.46698174 0.36727408 0.03802080
0.15000691 0.21695101 -0.00000064
-0.21426570 0.12624469 -0.00000058
-0.47756970 -0.51888663 -0.00000018
0.53154159 -0.64163268 -0.00000010
-0.38339719 0.26480606 -0.00000049
-0.35585165 -0.23983847 -0.00000035
0.19611827 -0.53072685 -0.00000017
-0.72274870 -0.34044763 -0.00000002
-0.56099093 0.12318886 -0.00000028
0.27739912 0.27971134 -0.00000087
0.70520163 -0.25521046 -0.00000120
0.20264404 -0.55302590 -0.00000015
0.68248451 -0.00834233 -0.00000161
-0.64271629 -0.28606114 -0.00000012
-0.64040750 0.29227158 0.14726293
0.43073791 -0.45402664 -0.00000022
-0.72250915 0.04521194 -0.00000009
-0.17108989 -0.18066919 -0.00000039
-0.10559158 -0.08781977 -0.00000045
0.35648704 -0.76296562 -0.00000002
-0.36565307 -0.74708849 -0.00000003
0.09588686 0.31715086 -0.00000070
0.45359099 -0.79772818 -0.00000000
0.59318215 -0.52980638 -0.00000030
0.66674465 -0.20583899 -0.00000117
-0.47414508 0.40309647 0.08573134
-0.20288584 0.36588120 -0.00000070
0.57610011 -0.24524333 -0.00000080
-0.04571061 -0.55772030 -0.00000015
-0.43138167 0.49049556 0.13527294
-0.77443719 -0.55469406 0.00000000
0.55360657 -0.62696582 -0.00000011
-0.76944822 -0.27096903 0.00000000
-0.39937240 0.40547851 0.00538359
0.46270144 0.03334084 -0.00000099
0.08825666 -0.56187302 -0.00000015
0.16198222 -0.71114397 -0.00000006
0.38651308 -0.13090447 -0.00000042
-0.45449412 0.47413620 0.14276841
0.55939370 0.23097131 -0.00000168
-0.36523464 0.66359740 0.25398397
0.49010047 -0.24101762 -0.00000054
0.08372660 -0.21623437 -0.00000036
0.04025247 0.39859393 -0.00000075
0.65117830 -0.20760690 -0.00000112
-0.06107552 0.59958076 -0.00000087
-0.18707702 0.37041792 -0.00000072
-0.39336395 -0.22360703 -0.00000036
0.76359808 -0.18535547 -0.00000152
-0.67090517 -0.14218377 -0.00000011
-0.66109294 -0.33167526 -0.00000009
-0.02019519 0.08235176 -0.00000055
-0.33552879 0.56971979 0.11681621
-0.57397300 0.21298797 -0.00000028
0.66430336 -0.23118877 -0.00000111
0.39428732 0.26781967 -0.00000122
-0.27037215 0.58819622 0.06500486
0.50857341 -0.69847256 -0.00000006
-0.38887760 0.20856133 -0.00000048
-0.22291481 -0.38709185 -0.00000026
0.60170972 -0.77948999 -0.00000001
-0.76130635 -0.30447137 0.00000000
-0.35657883 0.47169617 0.03138216
-0.19512284 -0.09413817 -0.00000044
-0.36946771 0.35553694 -0.00000052
-0.32519597 -0.57132018 -0.00000014
-0.13510686 0.68881744 0.02655234
-0.48698452 -0.02429375 -0.00000033
-0.39049047 -0.11093003 -0.00000042
-0.27379382 0.63684541 0.12279913
-0.77107310 -0.46688375 0.00000000
0.00052523 -0.64896882 -0.00000009
-0.23286165 -0.18446457 -0.00000038
0.02466515 0.14788271 -0.00000059
0.30568084 -0.64347559 -0.00000010
0.47208929 -0.79906571 -0.00000000
-0.37004325 -0.22896738 -0.00000036
-0.33222774 -0.06012533 -0.00000046
0.54748601 -0.07044217 -0.00000105
0.31541893 0.04221213 -0.00000053
0.28388432 -0.65628481 -0.00000009
0.47049284 0.03005395 -0.00000100
0.04685005 -0.05409014 -0.00000047
0.64214301 -0.04819509 -0.00000140
0.25308239 -0.52956247 -0.00000017
-0.05157341 -0.60062718 -0.00000012
-0.62134451 0.42152059 0.26956001
-0.17724513 0.25604439 -0.00000066
0.27352685 -0.35779923 -0.00000028
-0.28808939 0.71036530 0.22026742
0.63061231 0.04071324 -0.00000154
0.11328128 -0.46568489 -0.00000021
-0.65592843 -0.16905445 -0.00000012
-0.43708530 -0.57469451 -0.00000014
0.72095448 -0.15440539 -0.00000145
0.32264882 -0.06941105 -0.00000046
0.18234406 0.11094640 -0.00000057
0.10996641 0.16970485 -0.00000061
-0.29267243 -0.45223701 -0.00000022
0.14510135 0.08509629 -0.00000055
-0.62367982 -0.57512587 -0.00000008
0.77921218 -0.17105593 -0.00000157
-0.28989792 -0.70009696 -0.00000006
0.19644535 -0.47751880 -0.00000020
0.10162980 0.27281180 -0.00000067
-0.57404619 0.26985267 0.04872419
-0.34596986 0.09905814 -0.00000050
0.76782769 -0.66306615 -0.00000034
-0.44878912 -0.13311470 -0.00000035
0.26111278 0.19752160 -0.00000066
0.53185093 -0.46315917 -0.00000024
0.22144923 0.09712609 -0.00000056
-0.21077546 0.29124811 -0.00000068
0.09527778 -0.54177773 -0.00000016
0.66808677 -0.55870396 -0.00000049
-0.43727162 -0.26850480 -0.00000033
0.06194860 0.05237955 -0.00000053
0.57488549 -0.34328309 -0.00000061
-0.53139114 0.29460523 0.02885376
-0.68172109 0.35989305 0.26817176
-0.38976854 0.01239900 -0.00000044
-0.57912672 -0.11914010 -0.00000021
-0.33711216 0.03881969 -0.00000050
-0.47890130 -0.08807248 -0.00000033
-0.06768859 -0.31233093 -0.00000030
-0.23766980 0.65730417 0.10541191
-0.05739885 -0.37867099 -0.00000026
-0.41146955 -0.19886276 -0.00000038
0.12490671 -0.77596438 -0.00000002
0.10923982 0.68862969 -0.00000110
0.29884213 -0.29126489 -0.00000032
0.13184549 0.63584590 -0.00000110
0.59712338 -0.19757259 -0.00000097
-0.02145153 -0.11648879 -0.00000043
0.12225689 -0.41490382 -0.00000024
-0.70996469 -0.28607455 -0.00000004
-0.03109840 -0.78429312 -0.00000001
0.49652138 -0.32823423 -0.00000039
-0.56061971 0.34536687 0.11763621
0.05540716 -0.15270227 -0.00000040
-0.20666203 0.20161942 -0.00000063
0.38599044 -0.19901167 -0.00000038
0.75097769 -0.62350559 -0.00000044
-0.60098881 0.50389880 0.33840007
-0.69064432 0.23132460 0.13537577
0.74687457 -0.28238016 -0.00000128
-0.44884610 0.12823012 -0.00000040
0.19280460 0.34268886 -0.00000073
0.11272730 -0.14731316 -0.00000041
-0.25800347 0.60793900 0.07318942
-0.17867219 0.33831388 -0.00000071
0.03313618 0.58215320 -0.00000086
-0.28650659 -0.62863135 -0.00000011
0.11019219 -0.66753829 -0.00000008
0.46376431 -0.45408309 -0.00000022
0.26781183 0.46223667 -0.00000120
-0.09720793 0.15644929 -0.00000060
-0.31640831 0.48352143 -0.00000060
-0.30246973 -0.23173395 -0.00000036
-0.60487401 0.13459031 -0.00000023
-0.21805894 0.17993204 -0.00000061
0.37589371 0.33420336 -0.00000129
0.04903233 -0.31527030 -0.00000030
-0.16414422 -0.76062733 -0.00000002
0.21875209 0.42691672 -0.00000097
-0.05163562 0.62894094 -0.00000089
-0.71114564 -0.12663536 -0.00000007
-0.17048930 -0.35653085 -0.00000028
0.22672969 -0.07260258 -0.00000045
-0.31017855 0.40141413 -0.00000060
-0.71087766 0.07596113 -0.00000011
0.55814528 -0.55452096 -0.00000015
0.62197423 -0.76167589 -0.00000002
0.51070505 -0.31385580 -0.00000046
-0.08719050 0.54165620 -0.00000084
0.61257756 -0.23949531 -0.00000093
-0.17521438 -0.12291715 -0.00000042
0.31664100 -0.79836881 -0.00000000
-0.03839195 0.32481781 -0.00000070
0.40210149 -0.15872867 -0.00000042
0.07877055 -0.56672466 -0.00000015
-0.58473366 -0.34470201 -0.00000017
-0.17148705 -0.55469644 -0.00000015
0.17683721 0.59896803 -0.00000117
-0.47221568 0.42102203 0.10348567
0.35579163 -0.29396337 -0.00000032
0.78917402 -0.75790083 -0.00000011
0.16508628 0.33675602 -0.00000071
0.40291375 -0.07579307 -0.00000058
0.24214543 -0.22580300 -0.00000036
-0.12472979 0.71178955 0.04053174
0.00177828 -0.15224586 -0.00000040
-0.07671033 0.16561845 -0.00000060
-0.26252893 0.02317481 -0.00000051
-0.07780907 -0.49808577 -0.00000019
-0.26989174 0.04257043 -0.00000053
