ply
format ascii 1.0
element vertex 1369
property float x
property float y
property float z
end_header
-0.41456729 0.61635035 0.11221996
-0.48901162 -0.14016539 -0.00000031
-0.21089809 -0.06272093 -0.00000046
0.18527390 -0.23889595 -0.00000035
0.11213582 -0.13983320 -0.00000041
-0.43672159 0.13865349 -0.00000041
0.25902569 -0.49976513 -0.00000019
-0.13629723 0.60608000 -0.00000082
-0.28357473 -0.62569207 -0.00000011
-0.38627386 -0.74594623 -0.00000003
0.72377455 -0.44722515 -0.00000088
-0.48720136 -0.54090375 -0.00000016
0.59214735 -0.58032429 -0.00000020
-0.25124186 0.26942021 -0.00000063
0.39292735 -0.68088520 -0.00000007
0.12842892 0.59863275 -0.00000102
-0.19589095 -0.59599441 -0.00000013
0.79887271 -0.70557868 -0.00000024
0.35075033 0.41248462 -0.00000137
-0.38870534 0.44264650 0.01523549
0.78803962 -0.33320984 -0.00000117
0.37668577 -0.79753107 -0.00000000
-0.47055486 0.35565761 0.01273803
0.04204487 -0.63674837 -0.00000010
0.39302412 -0.07261481 -0.00000056
-0.63526940 0.27841836 0.05524930
0.29970333 0.15478785 -0.00000070
-0.01702561 0.39578497 -0.00000075
-0.55587780 -0.65682298 -0.00000009
0.73425347 -0.15275820 -0.00000149
0.30655065 -0.27075258 -0.00000033
-0.13773641 0.66943598 0.00348439
-0.19474591 -0.17637484 -0.00000039
0.26321280 -0.50205296 -0.00000019
-0.30797902 -0.20407023 -0.00000037
-0.72203100 0.71834761 0.31120965
-0.58514982 0.01048656 -0.00000023
0.26899505 0.33056062 -0.00000095
-0.40708956 -0.63871437 -0.00000010
0.12280240 0.61941338 -0.00000104
-0.05121415 -0.29364091 -0.00000032
0.42954978 0.17686467 -0.00000116
0.31114507 0.33292311 -0.00000108
0.02514902 0.36333933 -0.00000073
-0.35830665 0.47238976 0.01491693
0.52281779 -0.11592822 -0.00000089
-0.22382306 -0.66331017 -0.00000009
-0.54044706 0.68338346 0.20597167
-0.20965169 -0.69476092 -0.00000007
-0.56053680 0.46425143 0.10924144
0.51249295 0.11059151 -0.00000130
-0.21671182 0.27983972 -0.00000067
-0.41827229 0.40000013 0.00887927
-0.69833636 -0.22597004 -0.00000007
0.14834183 -0.73369920 -0.00000004
-0.42900133 -0.10987925 -0.00000038
-0.10127833 0.13742837 -0.00000059
-0.19862746 -0.66313982 -0.00000009
-0.70383614 -0.05381345 -0.00000009
0.61352700 -0.67906374 -0.00000008
-0.03395332 -0.31998917 -0.00000030
-0.46065992 0.53215253 0.09370176
-0.63540339 0.73519981 0.27730021
0.61991078 0.17401977 -0.00000167
0.62763566 0.12089434 -0.00000168
0.42410228 0.31619895 -0.00000141
-0.10822600 -0.41200474 -0.00000024
0.16266425 -0.58331156 -0.00000014
-0.29956442 0.28789401 -0.00000059
-0.74120361 -0.52411181 0.00000000
0.12289217 -0.76045847 -0.00000002
-0.62425637 0.71915030 0.26408327
-0.18294689 0.27817935 -0.00000067
-0.03713671 0.66694039 -0.00000092
-0.57247543 0.44498134 0.10567854
0.10496854 -0.20662652 -0.00000037
-0.67718601 -0.17050198 -0.00000010
-0.43531811 0.09071855 -0.00000041
0.26023293 -0.47944856 -0.00000020
-0.20239162 -0.68369263 -0.00000007
-0.34223458 -0.03708288 -0.00000048
-0.68566263 -0.22759217 -0.00000008
0.09419374 0.02440691 -0.00000052
0.50550264 -0.12519801 -0.00000081
0.42362303 -0.17186432 -0.00000046
0.39131990 -0.15055889 -0.00000041
-0.52646852 -0.08881687 -0.00000028
0.11430899 -0.22346927 -0.00000036
-0.15717895 -0.65899110 -0.00000009
0.43915936 -0.72591865 -0.00000005
-0.08067180 -0.45164827 -0.00000022
-0.50881284 -0.33331493 -0.00000025
0.75502086 -0.56160110 -0.00000060
0.41334933 -0.34704009 -0.00000028
0.65493345 -0.02358749 -0.00000149
0.13046838 -0.37297526 -0.00000027
-0.68535316 0.35292220 0.11579611
-0.35296655 -0.16566965 -0.00000040
0.79876530 -0.40170902 -0.00000100
-0.59351760 -0.11664505 -0.00000020
0.57354671 -0.55017263 -0.00000020
-0.73750669 0.63522869 0.27833647
0.69784588 -0.74945307 -0.00000013
0.24439077 -0.08988791 -0.00000044
-0.63393259 -0.68484706 -0.00000005
-0.72082001 0.33117187 0.12246207
-0.72550845 -0.67506707 0.00000000
0.09463313 -0.28594822 -0.00000032
0.34983569 -0.79069346 -0.00000001
0.33414340 0.42580113 -0.00000134
-0.17438193 -0.12325802 -0.00000042
0.44362557 -0.32870728 -0.00000029
-0.31956720 0.32618645 -0.00000057
-0.21367735 0.62848961 0.02049107
0.62542039 0.13389392 -0.00000170
0.18437159 0.21108493 -0.00000063
0.59580636 -0.44649622 -0.00000048
0.16069022 0.18200792 -0.00000061
0.25738019 0.08010476 -0.00000055
-0.18692908 -0.47832647 -0.00000020
0.65199006 -0.00343166 -0.00000152
-0.01902811 -0.25014481 -0.00000034
0.59407717 -0.42947936 -0.00000050
0.28775495 0.36333770 -0.00000107
0.07389241 0.68869525 -0.00000102
0.49381936 0.15169977 -0.00000132
0.52904987 -0.61074787 -0.00000012
-0.03883282 0.22197133 -0.00000064
0.38134164 0.02742383 -0.00000071
-0.45383847 0.16391961 -0.00000040
-0.31001139 -0.05039622 -0.00000047
-0.75940216 -0.77783179 0.00000000
-0.41571534 0.33440328 -0.00000047
-0.64328748 0.42355445 0.12967873
-0.73132646 0.44998276 0.18530732
-0.73791254 -0.17619643 -0.00000003
-0.48363230 0.25847784 -0.00000038
0.17968959 0.40727720 -0.00000081
-0.43207514 0.51515383 0.07154919
-0.07489427 -0.59733009 -0.00000013
-0.75603104 0.02090108 -0.00000005
0.65571082 -0.31555593 -0.00000092
0.76530629 -0.11676528 -0.00000166
-0.15846942 -0.63942230 -0.00000010
0.38805503 -0.36792317 -0.00000027
0.59533262 -0.70487207 -0.00000006
-0.29998919 -0.73348951 -0.00000004
0.43629918 -0.31932151 -0.00000030
-0.24601454 -0.73276383 -0.00000004
-0.14117761 0.27245012 -0.00000067
0.52542883 0.09700561 -0.00000131
0.77311862 0.01389886 -0.00000194
-0.00824385 -0.60943305 -0.00000012
0.78836459 -0.12382598 -0.00000169
0.35444835 -0.19790833 -0.00000038
0.79847693 -0.72582871 -0.00000019
-0.62156475 0.53646022 0.17399161
-0.56237942 0.34439617 0.05189002
0.68625075 -0.19889815 -0.00000125
0.51621521 -0.55473524 -0.00000015
-0.09596075 0.07232943 -0.00000055
-0.06691475 -0.15532099 -0.00000040
-0.00616428 -0.24204209 -0.00000035
-0.65830374 -0.35852376 -0.00000009
0.45438543 -0.60203075 -0.00000012
0.73836249 -0.75946176 -0.00000010
0.01641003 -0.19646534 -0.00000038
0.48993400 0.15935948 -0.00000132
-0.70667481 -0.71608031 0.00000000
-0.55839145 -0.30635068 -0.00000020
-0.31109643 0.12876701 -0.00000055
-0.61477470 -0.78386718 -0.00000001
-0.15900311 0.63330454 -0.00000080
-0.59488481 -0.74605405 -0.00000003
-0.23183721 0.24672762 -0.00000065
-0.75649911 -0.32798442 0.00000000
-0.60749954 0.31430617 0.05919439
-0.56226557 0.40905637 0.08325807
0.72080749 0.00630312 -0.00000176
-0.12434739 0.64108443 -0.00000084
0.13965952 0.37190881 -0.00000073
-0.18075494 -0.61723417 -0.00000011
-0.09097244 -0.55539489 -0.00000015
-0.45477292 -0.00146158 -0.00000037
-0.49739546 0.62497687 0.15666509
0.50501370 -0.03759753 -0.00000098
-0.33950332 -0.51640391 -0.00000018
-0.72239172 -0.44713008 -0.00000000
-0.55577177 0.63587910 0.19033307
0.75399220 -0.26009312 -0.00000135
0.38667119 0.38347864 -0.00000143
0.19751929 -0.34249392 -0.00000029
0.43611631 -0.01819414 -0.00000080
-0.70971560 -0.35644081 -0.00000003
-0.49784398 -0.74277371 -0.00000004
-0.67604011 -0.75143301 0.00000000
-0.10640495 -0.78244650 -0.00000001
-0.32282603 -0.79311895 -0.00000000
-0.68951744 -0.53425497 -0.00000002
0.29423732 -0.49823987 -0.00000019
0.31161362 -0.75584155 -0.00000003
0.21950372 -0.10781907 -0.00000043
0.08009195 0.35510641 -0.00000072
0.30547500 -0.62106556 -0.00000011
0.21496467 0.05859261 -0.00000054
0.47646558 -0.75330126 -0.00000003
-0.19791251 -0.14481242 -0.00000041
-0.59782720 0.49296322 0.14131704
-0.74617535 0.37903190 0.15804309
0.17110258 0.53853589 -0.00000104
-0.21582633 -0.75743419 -0.00000003
-0.46245262 -0.14992750 -0.00000033
0.59237695 -0.34296167 -0.00000067
-0.67443365 0.66086465 0.26014277
-0.35406536 0.49257529 0.02266544
0.17195843 0.00959333 -0.00000051
-0.74613291 0.04307034 -0.00000007
0.59806496 0.06618807 -0.00000148
-0.16671330 -0.06311029 -0.00000046
-0.56275064 0.70194095 0.22582932
-0.69970995 -0.26861408 -0.00000006
0.22794683 -0.73967099 -0.00000004
0.52296114 -0.79236418 -0.00000000
-0.22430535 0.55454016 -0.00000072
-0.33034629 0.23169908 -0.00000054
-0.21307664 0.13803190 -0.00000059
0.11037425 -0.32333559 -0.00000030
-0.05602458 -0.06529311 -0.00000046
-0.62454349 0.17295796 -0.00000022
0.05632215 -0.23777436 -0.00000035
0.70663768 -0.56071734 -0.00000060
-0.51111257 0.54970956 0.12675299
0.37730235 0.31955254 -0.00000127
0.19417270 0.60577214 -0.00000124
0.57559860 -0.10632573 -0.00000107
-0.52173710 0.71645808 0.21295260
0.53145379 -0.08099072 -0.00000098
-0.53513658 0.08993064 -0.00000030
-0.23433822 0.47131220 -0.00000069
-0.42168999 0.19847956 -0.00000044
-0.19010715 -0.34054947 -0.00000029
-0.21666838 -0.50966269 -0.00000018
-0.14557683 -0.30164465 -0.00000031
-0.46902201 0.46400556 0.06464769
-0.62939358 -0.15717770 -0.00000015
-0.26417425 -0.53078902 -0.00000017
0.17076313 -0.41555375 -0.00000024
-0.30119479 0.48837417 -0.00000062
-0.34776962 -0.03213617 -0.00000048
-0.55772871 0.34647450 0.05063991
0.77042675 -0.07767302 -0.00000175
-0.52332020 -0.66220170 -0.00000009
0.26729658 -0.65939218 -0.00000009
-0.50174755 -0.73541564 -0.00000004
-0.08767598 0.22962996 -0.00000064
0.69874889 -0.22718284 -0.00000123
0.15772033 -0.63659310 -0.00000010
-0.36301130 0.50765431 0.03434103
0.56991309 -0.75105602 -0.00000003
0.01492734 0.43504834 -0.00000077
0.68795091 0.03086181 -0.00000170
-0.49794298 0.35218498 0.02436047
0.31657407 -0.15774503 -0.00000040
-0.53902096 -0.37465182 -0.00000021
0.13914843 0.25493288 -0.00000066
-0.39212444 -0.51394665 -0.00000018
-0.19484690 0.67253953 0.03274711
-0.29387382 0.61993223 0.05530616
0.07688163 -0.09658663 -0.00000044
-0.37437668 -0.51423180 -0.00000018
-0.50258845 0.62315989 0.15830573
0.37459311 0.22771402 -0.00000108
0.25314134 0.46679980 -0.00000116
-0.56981581 0.45656881 0.11001725
-0.41937992 0.14393649 -0.00000043
0.09604771 -0.26539779 -0.00000033
0.04497772 0.21729346 -0.00000064
0.11204871 0.14875016 -0.00000059
-0.30902898 0.10215988 -0.00000054
-0.27918893 0.03381123 -0.00000052
-0.29233330 -0.75680315 -0.00000003
-0.75605816 -0.46326384 0.00000000
-0.60959804 0.16128717 -0.00000023
0.58079690 0.01025972 -0.00000132
-0.44366425 0.57656235 0.10702437
0.20830402 0.10383372 -0.00000056
-0.21542749 0.25924140 -0.00000066
0.77612776 -0.10085411 -0.00000173
-0.53620613 0.43155345 0.08152676
-0.54242939 -0.55602992 -0.00000015
-0.31922862 0.71205306 0.11239680
0.23798676 0.37322664 -0.00000093
0.44556853 -0.22081082 -0.00000043
-0.38736704 0.57320368 0.07803288
0.29892635 -0.77537972 -0.00000002
-0.11240036 0.76595950 0.03807983
0.39205432 -0.59483552 -0.00000013
-0.67573184 -0.74941480 0.00000000
0.32044816 -0.44371939 -0.00000022
-0.78364038 -0.24504371 0.00000000
-0.55973095 -0.23232049 -0.00000021
0.28670058 -0.70690328 -0.00000006
0.38753888 -0.11725263 -0.00000045
-0.08491534 0.32022184 -0.00000070
-0.45027974 0.43447360 0.04118750
0.55409652 -0.17428365 -0.00000087
-0.17395239 -0.29727882 -0.00000031
0.08859313 -0.17682797 -0.00000039
0.12317414 0.08529524 -0.00000055
-0.57645619 0.03232318 -0.00000024
-0.03518656 -0.71411318 -0.00000005
-0.54865617 -0.25680417 -0.00000022
0.76090556 -0.08982607 -0.00000170
0.06476763 -0.47103298 -0.00000021
-0.08013716 -0.58757418 -0.00000013
-0.55062819 0.61805463 0.17917103
-0.46701625 -0.76855332 -0.00000002
0.65219653 -0.07689628 -0.00000138
-0.15986381 -0.34927151 -0.00000028
0.29523620 0.42244741 -0.00000121
-0.65040243 0.02465225 -0.00000016
0.13989994 -0.57525545 -0.00000014
-0.75560397 0.30652049 0.12738635
0.61861473 -0.78754514 -0.00000001
-0.17471503 -0.14054669 -0.00000041
-0.52538306 0.43200707 0.07648743
0.05200153 0.29691568 -0.00000069
0.69107503 -0.59331065 -0.00000049
-0.20495000 -0.69884390 -0.00000006
0.09679689 -0.46942681 -0.00000021
-0.02910743 -0.65939289 -0.00000009
0.27395061 -0.56749350 -0.00000015
-0.32246968 0.25540668 -0.00000056
-0.44552550 -0.57394314 -0.00000014
0.40228200 -0.01865632 -0.00000069
-0.30444410 -0.56233591 -0.00000015
-0.35359156 -0.65407276 -0.00000009
0.21458793 -0.74818802 -0.00000003
0.35373652 -0.00130635 -0.00000057
0.78543127 -0.63428611 -0.00000041
0.07479830 0.47992396 -0.00000080
0.28447437 -0.30584010 -0.00000031
0.53763074 -0.54425359 -0.00000016
-0.58330810 0.59540164 0.18404394
0.51711583 0.10355459 -0.00000130
-0.03525095 0.26080593 -0.00000066
0.35619462 -0.66977364 -0.00000008
0.35186523 -0.43716624 -0.00000023
-0.19886982 -0.01655968 -0.00000049
0.21483412 -0.31708944 -0.00000030
-0.37298366 0.13361754 -0.00000048
0.29915604 -0.59503913 -0.00000013
0.52607489 0.03161518 -0.00000118
0.66484284 -0.57641369 -0.00000044
0.11063395 0.59939539 -0.00000096
-0.07400811 -0.17461953 -0.00000039
-0.08984430 0.40049896 -0.00000075
-0.42284688 0.26262391 -0.00000045
0.34797958 -0.08075958 -0.00000045
0.55048555 -0.02540100 -0.00000115
0.33323228 -0.79141057 -0.00000001
0.48073119 -0.22606045 -0.00000054
-0.61364555 0.05819676 -0.00000021
-0.64663959 -0.31503963 -0.00000011
-0.45908132 0.47053099 0.06298795
0.27993312 -0.52601975 -0.00000017
0.38901651 -0.64283919 -0.00000010
0.33481297 -0.61440015 -0.00000012
-0.55606562 0.73658466 0.23941667
-0.16089576 0.54094428 -0.00000078
0.25802085 -0.46021044 -0.00000021
-0.50215983 0.41332847 0.05612409
-0.61012781 -0.30046797 -0.00000015
0.02990338 0.31268138 -0.00000070
0.61378849 -0.68536985 -0.00000007
0.04707358 0.11486799 -0.00000057
-0.11333462 0.74675590 0.02920132
-0.72919703 -0.77092510 0.00000000
-0.08984889 0.25295204 -0.00000066
-0.51563412 -0.28637215 -0.00000025
0.36229473 -0.79772985 -0.00000000
-0.45521995 -0.43658942 -0.00000023
0.00100370 0.78371662 -0.00000099
-0.77019691 0.12037944 0.04401796
-0.26909405 -0.46078864 -0.00000021
-0.79261976 -0.74480528 0.00000000
-0.08611325 0.40491229 -0.00000075
0.60690486 0.02600694 -0.00000143
-0.24505697 0.39465141 -0.00000066
-0.02155532 0.63320625 -0.00000090
-0.16170111 -0.47215495 -0.00000020
0.02659528 -0.46593022 -0.00000021
-0.31956288 0.49200982 0.00562317
-0.38103661 0.49742123 0.03812791
0.34935090 0.10960950 -0.00000077
0.77749014 -0.79267144 -0.00000002
-0.45668331 0.67927539 0.16326775
0.40663734 -0.42761651 -0.00000023
-0.78255177 0.16817866 0.07325146
-0.76404208 -0.19625589 -0.00000000
0.12584773 -0.79188216 -0.00000001
-0.64471972 0.32550949 0.08272717
0.13315563 0.53533310 -0.00000091
0.29468486 -0.63368022 -0.00000010
-0.15116803 -0.25183612 -0.00000034
-0.65230042 -0.76878560 -0.00000002
0.57085162 -0.14065085 -0.00000099
0.02753981 -0.62589508 -0.00000011
0.30730906 -0.08017294 -0.00000045
0.10327201 0.00969168 -0.00000051
0.46910796 -0.47596270 -0.00000020
0.11543998 0.63180536 -0.00000104
-0.09818671 -0.50008720 -0.00000019
-0.61456633 0.09480646 -0.00000022
-0.56969923 0.65991253 0.20878126
-0.22503279 -0.63415408 -0.00000010
0.18323204 -0.29886720 -0.00000031
-0.18022859 0.04075540 -0.00000053
-0.22701775 0.16001739 -0.00000060
-0.61369443 0.58508635 0.19379807
0.04142306 0.02686547 -0.00000052
0.17153715 0.50395626 -0.00000097
0.46300802 -0.07189180 -0.00000078
0.29669335 -0.24995705 -0.00000034
-0.08924542 -0.71976960 -0.00000005
-0.62118286 -0.28155950 -0.00000014
0.13923366 0.46227440 -0.00000079
0.68851042 -0.53578866 -0.00000060
0.61117792 -0.05828543 -0.00000128
-0.31967089 -0.74759895 -0.00000003
-0.48028469 0.10020169 -0.00000036
-0.59067333 0.35859331 0.07253974
-0.08652026 -0.10304504 -0.00000044
0.11359824 0.15200043 -0.00000060
-0.62272727 -0.00950228 -0.00000019
-0.21217139 -0.79400659 -0.00000000
-0.45641080 -0.10695832 -0.00000035
-0.72259057 -0.37085065 -0.00000001
-0.38401672 0.43046266 0.00703587
-0.71517867 -0.73659116 0.00000000
0.37747961 -0.12617534 -0.00000042
-0.46825430 -0.44998980 -0.00000022
-0.75669897 -0.31957886 0.00000000
-0.29725045 0.39419597 -0.00000061
0.42293912 -0.73565561 -0.00000004
0.46550497 -0.63254118 -0.00000010
-0.00844529 0.36136082 -0.00000073
-0.47321025 0.70690918 0.18472895
-0.20641801 -0.27195936 -0.00000033
-0.21494797 0.21546288 -0.00000063
0.68135798 -0.36684126 -0.00000090
-0.73034674 -0.73619205 0.00000000
-0.56845009 -0.44680157 -0.00000017
-0.03723376 0.32978463 -0.00000071
-0.22397241 -0.65253562 -0.00000009
-0.56909335 -0.54202586 -0.00000015
-0.20972721 -0.42755353 -0.00000023
-0.27108982 0.18334314 -0.00000060
0.13420224 -0.36213973 -0.00000027
0.09582942 0.22273155 -0.00000064
0.46341395 -0.71422756 -0.00000005
-0.65711832 0.44807452 0.14831640
-0.20315380 -0.14526609 -0.00000041
0.62457049 -0.79640031 -0.00000000
-0.69260591 -0.75070524 0.00000000
0.46070576 0.17094219 -0.00000125
0.70415902 -0.10782800 -0.00000148
0.61969388 -0.00205822 -0.00000142
0.52642530 -0.13371885 -0.00000086
-0.45744678 0.68641311 0.16710757
0.34711525 -0.68744689 -0.00000007
0.14639819 -0.59521610 -0.00000013
-0.03023842 -0.69094020 -0.00000007
-0.28970733 -0.04707244 -0.00000047
0.27106494 0.46058771 -0.00000121
0.43603641 -0.17490520 -0.00000049
-0.63032377 0.16138442 -0.00000021
0.39862528 0.18861070 -0.00000108
-0.05654445 -0.29814851 -0.00000031
-0.66307843 -0.42317662 -0.00000007
-0.15079212 0.70734632 0.02825274
0.73228699 -0.63415253 -0.00000041
0.18612464 0.44469640 -0.00000090
0.15101241 -0.32002392 -0.00000030
-0.23092370 -0.75331861 -0.00000003
-0.71841192 0.39064741 0.15019552
-0.43287984 -0.74300313 -0.00000004
-0.03315950 0.65203828 -0.00000091
0.18656826 -0.14976420 -0.00000041
0.40408456 -0.25687021 -0.00000034
0.54749960 -0.10736371 -0.00000098
0.03546849 -0.39783579 -0.00000025
-0.47312823 0.68571252 0.17438796
-0.72471237 -0.69092035 0.00000000
-0.23940511 -0.37385792 -0.00000027
-0.11273389 0.03430221 -0.00000052
-0.25839460 0.60980874 0.03314425
-0.53662598 0.65880042 0.19216788
-0.77645069 -0.32024813 0.00000000
-0.66126603 0.39449349 0.12429296
0.30110353 -0.58031940 -0.00000014
-0.26545873 0.39718059 -0.00000064
-0.76005191 0.03499857 -0.00000005
-0.34295481 -0.05919606 -0.00000046
-0.08031475 -0.25217974 -0.00000034
0.40627664 -0.05004169 -0.00000064
-0.02933268 0.04947804 -0.00000053
-0.25256065 0.64128190 0.04560428
-0.30503008 0.29809242 -0.00000058
0.53389060 -0.00050538 -0.00000115
-0.71964246 -0.29832077 -0.00000003
0.66857910 -0.03066535 -0.00000152
-0.21767539 0.14441834 -0.00000059
-0.07398421 0.08595613 -0.00000055
0.44108513 -0.79687411 -0.00000000
-0.03359084 0.34100994 -0.00000071
-0.69318968 -0.79185039 0.00000000
-0.65989089 -0.40188324 -0.00000008
0.66837192 -0.54738200 -0.00000051
0.21134591 0.31359687 -0.00000073
-0.40772292 0.66934317 0.13464712
-0.34173205 0.61995703 0.07857630
-0.19971508 -0.13452511 -0.00000042
0.72824240 -0.70386428 -0.00000024
0.64271140 -0.41945052 -0.00000068
-0.28504974 -0.55517370 -0.00000015
-0.76122916 0.09476470 0.02721163
-0.22852747 0.59473497 0.01130395
0.75204730 -0.11563780 -0.00000162
-0.58564961 0.36400992 0.07273065
-0.72941512 -0.00398161 -0.00000007
0.03468186 0.04564623 -0.00000053
-0.68125159 0.04652530 -0.00000014
-0.21117730 0.13575709 -0.00000058
-0.70030618 0.06943223 -0.00000012
0.75217134 -0.36582327 -0.00000109
0.41513482 0.30659795 -0.00000137
-0.29458353 0.47424120 -0.00000063
0.17270523 -0.24460904 -0.00000035
0.10981899 -0.17815843 -0.00000039
0.49891478 -0.07283907 -0.00000089
0.16521806 0.32482749 -0.00000070
0.01095746 -0.49645704 -0.00000019
-0.03323902 -0.09478120 -0.00000044
0.04111085 -0.65458763 -0.00000009
0.79685491 -0.45994890 -0.00000085
-0.06999210 0.04137222 -0.00000053
0.18710622 -0.67978776 -0.00000008
-0.39234936 0.37133142 -0.00000050
0.02921093 -0.57676208 -0.00000014
0.20811114 -0.67819309 -0.00000008
-0.54029602 0.05532410 -0.00000029
-0.50635231 -0.36968797 -0.00000025
0.46545184 -0.04255218 -0.00000085
-0.28679854 0.42809695 -0.00000063
-0.20364799 0.49863759 -0.00000073
-0.78405786 -0.21279527 0.00000000
0.00295079 0.19336618 -0.00000062
0.58351827 -0.33840066 -0.00000065
0.70788777 -0.47461209 -0.00000078
-0.40969992 -0.47783607 -0.00000020
-0.08875396 0.74267399 0.01527193
0.44057319 0.11481318 -0.00000107
-0.45831028 0.11434953 -0.00000039
-0.19389568 -0.12672400 -0.00000042
-0.29439268 -0.06299516 -0.00000046
0.05692182 -0.67961872 -0.00000008
-0.08238106 0.58428127 -0.00000087
0.00636227 -0.79574960 -0.00000000
-0.25078717 0.54576629 -0.00000069
-0.23609662 0.63399404 0.03406138
0.14711834 -0.55966294 -0.00000015
-0.13907667 0.67208922 0.00542513
0.53925753 0.15943119 -0.00000148
-0.40094343 -0.71715295 -0.00000005
0.56560093 -0.17267212 -0.00000091
0.51479727 0.12616017 -0.00000133
-0.15420122 -0.33316118 -0.00000029
-0.09291398 0.62935752 -0.00000087
-0.14923944 0.45567462 -0.00000078
0.31587940 -0.05426653 -0.00000047
-0.69005251 -0.57083029 -0.00000001
0.59218019 -0.38457727 -0.00000058
-0.42499372 0.28674561 -0.00000045
-0.48321044 -0.43988407 -0.00000023
0.04590819 -0.78861433 -0.00000001
0.21183048 -0.67794603 -0.00000008
-0.29798120 0.57130718 0.03367160
-0.18244772 -0.54660988 -0.00000016
-0.67083013 0.55720472 0.20801499
0.55894423 -0.53376371 -0.00000019
-0.06510524 0.31061926 -0.00000069
-0.44406986 -0.51681525 -0.00000018
-0.43239629 0.51937121 0.07375482
0.47178230 -0.57793981 -0.00000014
-0.39865068 0.22188042 -0.00000047
-0.60527360 -0.67155069 -0.00000008
0.48728320 0.13309442 -0.00000126
0.52529317 -0.27646270 -0.00000058
0.32475621 -0.64013857 -0.00000010
0.12479830 -0.30647394 -0.00000031
0.15372263 0.19224249 -0.00000062
0.05530468 0.10850809 -0.00000057
-0.56122446 -0.36720124 -0.00000019
-0.08122121 0.57514226 -0.00000086
-0.52603865 0.39611974 0.05936563
-0.77315295 -0.74487132 0.00000000
-0.29922056 -0.37690243 -0.00000026
-0.71085411 0.17555016 0.04199030
-0.53220695 -0.57232744 -0.00000014
-0.27209243 0.21416187 -0.00000060
-0.59192419 0.02483926 -0.00000023
-0.40996793 0.29854545 -0.00000047
0.41910088 -0.44870007 -0.00000022
-0.21843264 -0.25438413 -0.00000034
-0.23932765 0.39236555 -0.00000067
-0.45248309 -0.13453907 -0.00000035
-0.63257283 0.16521439 -0.00000021
-0.55564630 0.64914620 0.19671959
0.19850560 -0.55384892 -0.00000015
-0.42042750 0.66549116 0.13894930
-0.12703449 0.18412495 -0.00000062
-0.35839081 0.61498576 0.08425617
-0.42005768 -0.17001398 -0.00000037
-0.60717338 0.20467447 0.00575743
0.58406872 -0.58041775 -0.00000018
-0.50402927 0.54829103 0.12262125
-0.37325239 -0.00490796 -0.00000045
-0.41531980 0.32623813 -0.00000047
-0.04416210 -0.64512783 -0.00000010
-0.63495833 -0.40709546 -0.00000010
0.53196776 -0.26372582 -0.00000063
0.29049399 -0.22722460 -0.00000036
-0.31753376 0.02875370 -0.00000052
0.17034949 0.47199085 -0.00000091
0.00515853 -0.62315458 -0.00000011
-0.54572815 0.62156653 0.17849644
-0.19151039 -0.60128725 -0.00000012
0.10647104 -0.50946373 -0.00000018
-0.19318715 -0.12092561 -0.00000042
0.17128743 -0.69502687 -0.00000007
-0.08423031 0.63085359 -0.00000088
-0.03105698 -0.73096251 -0.00000004
0.33543971 -0.55086762 -0.00000016
0.57419860 0.12724859 -0.00000153
-0.50616008 0.14159399 -0.00000034
-0.16497809 -0.25084022 -0.00000034
0.30828774 -0.26507059 -0.00000033
-0.39098135 -0.64229381 -0.00000010
0.34477222 0.37594119 -0.00000128
0.00720770 -0.33525234 -0.00000029
0.60560811 -0.35292494 -0.00000069
-0.79186285 -0.23584883 0.00000000
-0.26766822 -0.51653755 -0.00000018
-0.48404783 0.58147228 0.12903608
0.27526116 0.11824166 -0.00000057
-0.41367444 -0.04155188 -0.00000040
-0.63893449 0.09570837 -0.00000019
-0.42748192 -0.06147190 -0.00000039
0.14443581 -0.67946082 -0.00000008
0.00058612 -0.04075999 -0.00000047
0.35912248 0.31992617 -0.00000121
-0.75523591 -0.30624422 0.00000000
0.73891389 -0.16349487 -0.00000149
-0.73318678 -0.19550905 -0.00000004
-0.41819990 -0.76707578 -0.00000002
0.32340264 0.10525287 -0.00000068
0.10798362 0.23546880 -0.00000065
-0.35735801 0.38646695 -0.00000054
-0.17352340 0.10921832 -0.00000057
-0.04752009 0.15233292 -0.00000060
-0.24419940 0.68910199 0.06478038
0.18173762 -0.26363936 -0.00000034
-0.74358732 0.09705752 0.01975233
-0.07159410 0.06671155 -0.00000054
-0.33053881 0.71727687 0.12043199
-0.56113154 0.50760472 0.13059916
0.05794862 0.41157392 -0.00000076
0.37703085 0.29958817 -0.00000123
-0.76905710 0.01604950 -0.00000004
-0.15101339 -0.13842712 -0.00000041
-0.44645205 -0.16377722 -0.00000035
0.03374181 0.34200707 -0.00000071
-0.21501417 0.19125193 -0.00000062
-0.49167281 0.11878968 -0.00000035
-0.37707195 0.69409758 0.13178150
-0.03405432 -0.24608199 -0.00000035
-0.36552948 0.35197234 -0.00000053
-0.13361838 -0.33340955 -0.00000029
-0.03297803 0.11843945 -0.00000057
-0.63737041 -0.15785690 -0.00000014
0.63707715 -0.27518639 -0.00000094
0.05419308 -0.43593615 -0.00000023
-0.07102813 -0.11108115 -0.00000043
-0.18778910 -0.31070593 -0.00000031
0.30812642 -0.56848103 -0.00000014
0.08750041 -0.33089018 -0.00000029
-0.44389510 -0.21617627 -0.00000034
-0.68189585 -0.59504318 -0.00000002
-0.11194478 -0.47168261 -0.00000021
-0.14133850 0.75775200 0.04815452
-0.47010478 -0.23876858 -0.00000031
0.33852112 0.22436851 -0.00000096
-0.00049566 -0.38455757 -0.00000026
-0.17869885 0.48324952 -0.00000075
-0.74143940 -0.21332566 -0.00000002
0.38266423 -0.53620899 -0.00000016
0.14053009 -0.67721736 -0.00000008
0.08590642 0.61893827 -0.00000092
0.35085380 0.41945943 -0.00000138
-0.14060716 0.09096983 -0.00000056
0.44060034 0.18261279 -0.00000121
-0.47832587 0.25802249 -0.00000039
-0.13549794 0.27457640 -0.00000067
0.35693353 -0.75479430 -0.00000003
-0.20582098 -0.73677212 -0.00000004
-0.62300384 -0.59711397 -0.00000008
0.50893915 0.17482781 -0.00000141
-0.46678209 0.04204169 -0.00000036
-0.37714380 -0.41220891 -0.00000024
0.05896060 -0.07613900 -0.00000045
-0.39001763 -0.21836342 -0.00000036
-0.20107196 -0.68271172 -0.00000007
0.16827329 0.36906180 -0.00000073
0.56138021 -0.76579583 -0.00000002
0.32581875 0.24503820 -0.00000096
-0.47817862 -0.67662680 -0.00000008
-0.07373946 0.07226620 -0.00000055
-0.13947624 0.49276105 -0.00000079
-0.01544223 -0.63737190 -0.00000010
0.76532924 -0.27366796 -0.00000132
0.06647845 -0.11804802 -0.00000043
-0.66953641 -0.13918641 -0.00000011
-0.25872993 -0.03869879 -0.00000048
0.29490888 -0.78680134 -0.00000001
0.26523015 -0.62033153 -0.00000011
-0.63761353 -0.04725981 -0.00000016
-0.42810047 -0.30940065 -0.00000031
-0.43147808 0.13307305 -0.00000042
0.70212305 0.03467740 -0.00000175
0.02616448 0.47830510 -0.00000080
-0.33159646 0.43185577 -0.00000058
0.28558698 -0.01054483 -0.00000049
-0.48012117 0.37343138 0.02602469
0.34222761 -0.68429124 -0.00000007
0.47346595 -0.76054615 -0.00000002
-0.55922794 0.10236942 -0.00000028
0.15729694 -0.58063787 -0.00000014
-0.30236682 -0.12495343 -0.00000042
0.19772378 -0.61146802 -0.00000012
0.39498499 -0.52788627 -0.00000017
-0.58912039 0.34987503 0.06754816
-0.45712295 -0.50097978 -0.00000019
0.06796834 -0.59854555 -0.00000013
-0.39889479 0.64492583 0.11849053
0.17589462 0.54221970 -0.00000106
0.61269087 -0.14004868 -0.00000113
-0.41640085 -0.31336159 -0.00000030
0.01849377 -0.35736322 -0.00000028
-0.57155514 0.13439693 -0.00000027
-0.20254721 -0.49362114 -0.00000019
0.22827733 0.42270285 -0.00000099
-0.63299340 0.51242888 0.16786696
0.36620983 -0.23391087 -0.00000035
0.47485560 0.26704055 -0.00000148
-0.27726623 0.55397499 0.01518151
-0.07230211 -0.72989488 -0.00000004
-0.43611121 0.53001541 0.08073300
-0.64077026 0.15360552 -0.00000020
0.48099828 -0.56648207 -0.00000015
0.73326552 -0.37597087 -0.00000105
-0.01088449 -0.31756696 -0.00000030
0.45250186 -0.38456541 -0.00000026
0.37057731 0.17925841 -0.00000098
-0.51610744 -0.34266722 -0.00000024
0.68886793 -0.55304462 -0.00000057
0.43603089 -0.63040650 -0.00000011
0.09995889 0.57450998 -0.00000088
-0.30972919 -0.19695900 -0.00000038
-0.75568849 -0.06603751 -0.00000004
-0.63090557 -0.54122561 -0.00000008
0.14477761 -0.10410124 -0.00000043
0.63532519 -0.69931036 -0.00000011
-0.10759525 0.13278474 -0.00000058
-0.62676042 -0.52619159 -0.00000009
0.01284322 -0.36288241 -0.00000027
-0.22606356 0.62734288 0.02595322
-0.63444048 -0.57717597 -0.00000007
-0.25984555 -0.71395010 -0.00000005
-0.62393171 -0.30695537 -0.00000013
0.25213251 -0.67568696 -0.00000008
-0.48125112 0.39444634 0.03678662
0.13729931 -0.29342306 -0.00000032
0.37400886 -0.13365558 -0.00000042
-0.44784054 0.49872655 0.07122754
-0.00114556 0.06748923 -0.00000054
-0.47567284 -0.35770157 -0.00000028
0.07575913 0.41266888 -0.00000076
-0.47167990 -0.22585289 -0.00000031
-0.55177969 -0.67373663 -0.00000008
-0.73353702 -0.60419464 0.00000000
-0.02113320 -0.29379261 -0.00000032
0.72034961 -0.66833419 -0.00000033
-0.26157370 -0.52831835 -0.00000017
-0.08808799 0.24929665 -0.00000066
0.13059761 0.18137652 -0.00000061
0.61799449 -0.35013068 -0.00000073
-0.60864902 0.25225133 0.02959578
-0.38649485 -0.01675659 -0.00000044
-0.39959577 0.43328315 0.01597764
-0.06107964 0.25436947 -0.00000066
-0.22796699 0.35334378 -0.00000068
0.50258642 -0.40705127 -0.00000025
0.71158457 -0.43693659 -0.00000086
-0.65733677 0.00221587 -0.00000015
-0.49156556 -0.62035948 -0.00000011
0.16142586 0.10195172 -0.00000056
-0.02446914 -0.72570986 -0.00000005
-0.16897459 -0.67313826 -0.00000008
-0.23808414 0.66894197 0.05201115
-0.07319280 -0.22112928 -0.00000036
-0.25618112 0.17240787 -0.00000061
-0.22620292 -0.67171520 -0.00000008
-0.13998786 -0.73756623 -0.00000004
-0.52782482 0.18176360 -0.00000032
-0.01301444 -0.75873345 -0.00000003
0.28507617 0.49068528 -0.00000131
-0.37269846 -0.28315249 -0.00000032
-0.58887154 -0.22320235 -0.00000018
-0.42787498 -0.35755315 -0.00000028
0.20070240 -0.47146448 -0.00000021
-0.30818582 -0.52464414 -0.00000017
0.31440058 0.24865349 -0.00000093
0.45928833 -0.29019582 -0.00000034
-0.04384363 -0.23826215 -0.00000035
-0.63090003 -0.14446083 -0.00000015
-0.00566676 0.70726895 -0.00000094
-0.68725425 -0.70507717 0.00000000
-0.68699807 -0.09001677 -0.00000010
0.34281069 -0.39060649 -0.00000026
0.49527356 -0.65742517 -0.00000009
-0.18149458 -0.59155059 -0.00000013
0.64994353 -0.15525152 -0.00000122
-0.29519233 -0.12297093 -0.00000042
0.50704026 0.18272820 -0.00000142
-0.39335689 0.12014225 -0.00000046
0.15592074 -0.55680221 -0.00000015
0.27860680 -0.18554753 -0.00000038
0.42855427 0.14763138 -0.00000110
-0.18821310 0.39327675 -0.00000072
0.08446148 -0.10081562 -0.00000044
0.38141614 -0.00303992 -0.00000065
-0.43843049 0.03678839 -0.00000039
-0.35975680 0.21358231 -0.00000051
0.17248045 0.56137347 -0.00000109
-0.55281317 0.35133657 0.05061391
-0.16940100 0.65757787 0.01310993
0.66928190 -0.71545571 -0.00000019
-0.23988901 0.68385375 0.06013506
0.55146724 -0.15812558 -0.00000090
-0.56367207 -0.09918234 -0.00000023
0.70777506 -0.77282012 -0.00000007
-0.36557207 -0.40528405 -0.00000025
-0.01955345 -0.57574612 -0.00000014
0.66322702 -0.19226091 -0.00000119
-0.23856632 -0.24979299 -0.00000034
-0.63630819 0.50696331 0.16682176
0.25507540 -0.07662096 -0.00000045
0.71772057 -0.76737934 -0.00000008
-0.77428991 -0.12054968 -0.00000001
-0.46433967 0.13402852 -0.00000038
0.01187640 -0.21187221 -0.00000037
-0.51942116 -0.28023326 -0.00000025
-0.72103405 0.58591878 0.24636754
0.17775314 -0.43608886 -0.00000023
-0.67329979 0.50347859 0.18310542
-0.47835660 0.39964402 0.03790590
-0.49162778 -0.72075158 -0.00000005
0.42390552 -0.38251385 -0.00000026
0.24678421 -0.76786703 -0.00000002
-0.16797614 0.10021147 -0.00000056
-0.02834681 -0.64652467 -0.00000010
0.14408508 0.52882445 -0.00000093
0.39206165 0.25364134 -0.00000119
0.19750597 0.33439854 -0.00000072
0.36350098 -0.60239494 -0.00000012
-0.65170008 0.25808647 0.05335344
-0.32715887 0.72362804 0.12187595
-0.35564950 -0.48981473 -0.00000019
0.29622468 0.37674952 -0.00000112
0.77645463 -0.19239943 -0.00000152
-0.19266614 0.75630593 0.07239595
-0.24804761 0.22300823 -0.00000063
0.36243170 0.29256549 -0.00000117
-0.22565883 0.67898953 0.05085562
-0.57077855 0.10997874 -0.00000026
0.15975179 -0.70862359 -0.00000006
-0.33546996 0.43566406 -0.00000058
-0.58930320 0.16379020 -0.00000025
-0.30824408 0.75642258 0.12862119
-0.70036978 0.23654361 0.06653656
-0.14510576 -0.20620662 -0.00000037
-0.76011121 0.25320581 0.10366707
-0.13032918 0.31713167 -0.00000070
0.02467623 -0.40604818 -0.00000025
0.37176558 -0.15875044 -0.00000040
0.31248552 -0.65226305 -0.00000009
-0.02153910 -0.09900500 -0.00000044
0.39289680 -0.54770613 -0.00000016
-0.34660521 -0.47047925 -0.00000021
-0.51067382 0.48593009 0.09554441
0.18472853 -0.56383878 -0.00000015
0.00265520 -0.11503517 -0.00000043
-0.58023560 -0.32473275 -0.00000018
-0.13054460 -0.33964902 -0.00000029
0.68887520 -0.14178766 -0.00000137
-0.24047171 -0.59435689 -0.00000013
-0.43720436 -0.06303790 -0.00000038
0.52985924 0.14615087 -0.00000142
-0.09409986 0.17384838 -0.00000061
-0.07277880 -0.21705662 -0.00000036
0.35633269 -0.45436236 -0.00000022
0.23005439 0.37268281 -0.00000090
-0.53943765 -0.52672821 -0.00000017
-0.38432768 -0.34653363 -0.00000028
-0.10026391 0.67249870 -0.00000087
-0.45583418 -0.47683492 -0.00000020
-0.28844655 0.47397515 -0.00000063
0.39244100 -0.23265693 -0.00000035
0.37041607 0.08934417 -0.00000080
0.79016328 -0.24933232 -0.00000138
-0.09149607 0.38194528 -0.00000074
-0.22556067 0.29332104 -0.00000067
-0.31569871 -0.49824363 -0.00000019
-0.45936769 0.00683485 -0.00000036
-0.46838221 0.41201735 0.03907171
-0.49564132 -0.05299092 -0.00000032
0.38990781 -0.67184478 -0.00000008
0.25342301 0.52269703 -0.00000127
-0.23108099 -0.18861531 -0.00000038
-0.23657916 0.00386090 -0.00000050
-0.39195403 -0.44371906 -0.00000022
-0.62351221 0.49705195 0.15578645
0.19790690 0.32630780 -0.00000071
0.11369866 -0.42683405 -0.00000023
0.32729053 -0.28358856 -0.00000032
0.13664354 0.24507222 -0.00000065
0.43800497 -0.48273563 -0.00000020
0.60245454 -0.15302417 -0.00000107
-0.27601823 0.46836409 -0.00000064
-0.52422953 0.26926741 -0.00000034
0.55069578 0.12779976 -0.00000145
0.70660371 -0.26123080 -0.00000119
0.12502591 -0.64225084 -0.00000010
-0.47267079 0.11682560 -0.00000037
-0.71210200 0.25019321 0.07887154
-0.46645534 0.53112906 0.09602083
-0.01825267 -0.73513114 -0.00000004
-0.30667600 -0.53034151 -0.00000017
-0.48331234 0.14207284 -0.00000036
0.16708936 0.20694257 -0.00000063
-0.78274637 -0.73207617 0.00000000
-0.15103057 0.10674605 -0.00000057
-0.00005528 -0.41237059 -0.00000024
-0.14212342 0.53271800 -0.00000080
-0.66308969 0.64581168 0.24731442
0.21698073 -0.65738511 -0.00000009
0.13662422 0.49399504 -0.00000084
-0.41513488 0.41754347 0.01588020
-0.41931266 -0.65115041 -0.00000009
0.10024695 0.01817875 -0.00000051
-0.06025873 0.31895980 -0.00000070
0.00587463 -0.79795116 -0.00000000
-0.52085286 -0.72856528 -0.00000004
0.31629318 -0.70791674 -0.00000006
0.28547236 -0.36801577 -0.00000027
0.22742702 -0.60663533 -0.00000012
0.06979413 0.17430189 -0.00000061
-0.08827571 0.04514632 -0.00000053
-0.11761757 -0.47777528 -0.00000020
0.21628132 -0.04994433 -0.00000047
0.35236016 -0.40094933 -0.00000025
-0.76963675 -0.58300388 0.00000000
0.21164224 -0.35633421 -0.00000028
0.74441749 -0.53041875 -0.00000067
0.43066084 -0.77485460 -0.00000002
-0.49158099 0.67656827 0.17891172
-0.31558281 -0.36305878 -0.00000027
-0.52995676 -0.68819165 -0.00000007
-0.33323026 0.23797147 -0.00000054
-0.43033400 -0.20646659 -0.00000036
0.64811260 -0.11051563 -0.00000130
-0.22068030 -0.02159007 -0.00000049
-0.58802205 -0.00848192 -0.00000022
0.73259932 -0.77969062 -0.00000005
0.54824287 0.23346008 -0.00000165
-0.62471956 0.18385188 0.00416520
-0.46042094 -0.72309643 -0.00000005
-0.61378497 -0.33266085 -0.00000014
-0.58745676 0.28081375 0.03317749
-0.21298549 -0.18101178 -0.00000039
-0.65549928 0.24124150 0.04701350
-0.59778535 -0.79458547 -0.00000000
0.15841997 0.57989693 -0.00000108
-0.43933132 0.34393248 -0.00000045
-0.14847493 -0.17790128 -0.00000039
0.00189483 0.61989260 -0.00000089
-0.66365182 -0.63050556 -0.00000003
-0.15552297 0.50716716 -0.00000078
0.00645807 0.57448846 -0.00000086
-0.44847807 0.01395578 -0.00000038
0.02040106 -0.68483835 -0.00000007
-0.78508472 0.14345486 0.06246724
-0.35495633 -0.21238922 -0.00000037
-0.42586946 -0.36455363 -0.00000027
-0.50023866 0.11678729 -0.00000034
-0.56470335 0.24603254 0.00521694
-0.39901802 -0.17273849 -0.00000039
-0.21941268 0.56812024 -0.00000072
0.67802125 -0.67959815 -0.00000028
0.52283847 -0.23575725 -0.00000065
0.02755254 -0.20856205 -0.00000037
-0.63132256 0.50962174 0.16569078
0.01779963 0.05131672 -0.00000053
0.32080969 0.12614419 -0.00000071
0.38797221 -0.11407329 -0.00000046
0.15547542 -0.45473051 -0.00000022
-0.58172810 0.64618683 0.20795666
-0.14207754 -0.77592134 -0.00000002
-0.65880609 -0.08618488 -0.00000013
0.21543466 -0.34505501 -0.00000028
-0.18618576 -0.30713913 -0.00000031
-0.00175168 -0.42888373 -0.00000023
-0.29721135 -0.32432869 -0.00000030
-0.22353372 -0.03881147 -0.00000048
0.08069667 0.41284466 -0.00000076
-0.57102281 -0.33096921 -0.00000018
-0.16848363 -0.04692654 -0.00000047
0.20073828 -0.51544952 -0.00000018
-0.04319278 0.13154370 -0.00000058
-0.27818656 -0.50174344 -0.00000019
0.04078192 0.50987595 -0.00000082
0.52071434 -0.11913066 -0.00000087
0.32461143 -0.11901943 -0.00000043
-0.05180155 -0.07703682 -0.00000045
-0.10067272 0.00427958 -0.00000050
0.07700583 0.72269017 -0.00000109
-0.05219590 0.69074565 -0.00000092
0.31584439 0.23252837 -0.00000090
-0.14199331 -0.19417685 -0.00000038
-0.22989482 0.45968974 -0.00000069
0.51769894 0.21940462 -0.00000152
0.74598998 -0.41057354 -0.00000097
0.24449173 -0.36044624 -0.00000027
-0.44518298 0.01735939 -0.00000038
-0.13972779 -0.31879437 -0.00000030
-0.04054694 -0.21156946 -0.00000037
-0.60939527 -0.13535766 -0.00000018
-0.52206266 -0.01609989 -0.00000029
-0.27419940 -0.26600859 -0.00000033
-0.62886369 0.48415694 0.15212047
-0.79766846 -0.26958743 0.00000000
-0.00719339 0.03725598 -0.00000052
-0.76729250 -0.08163467 -0.00000002
0.20293967 -0.19874652 -0.00000038
-0.64993560 -0.11670842 -0.00000014
0.00470909 0.31223756 -0.00000070
0.38883278 0.00018861 -0.00000068
-0.33215562 0.01807811 -0.00000050
-0.18639848 0.43130490 -0.00000073
-0.67404246 -0.30530497 -0.00000008
0.72092265 -0.41523415 -0.00000094
-0.45077530 0.12484789 -0.00000040
0.51003009 0.28685954 -0.00000158
-0.68138057 0.15586399 0.01809976
0.15591744 -0.12696509 -0.00000042
-0.57261586 0.57824039 0.17050774
-0.56024855 -0.06192608 -0.00000024
0.34005460 -0.74714732 -0.00000003
0.79684532 -0.51023412 -0.00000072
-0.25832310 -0.78294981 -0.00000001
0.47699714 -0.49460220 -0.00000019
0.53253990 -0.52448136 -0.00000017
0.04161066 0.31092826 -0.00000069
0.25750458 -0.07194432 -0.00000046
0.10473798 0.69352424 -0.00000113
0.09590812 -0.41409141 -0.00000024
-0.05644679 -0.00921787 -0.00000049
0.32621676 -0.76831162 -0.00000002
-0.28560767 -0.24864700 -0.00000034
0.71465600 -0.00306888 -0.00000172
-0.24718291 -0.24942619 -0.00000034
-0.66730887 0.49818164 0.17761974
0.11738291 0.56879419 -0.00000092
0.19385116 0.48163950 -0.00000100
-0.69472504 -0.55291408 -0.00000001
0.64731199 -0.67990047 -0.00000018
-0.05365641 -0.24185486 -0.00000035
-0.21309696 -0.33133763 -0.00000029
-0.06600279 0.59312743 -0.00000087
-0.51650476 -0.10617507 -0.00000028
0.12890683 -0.62242126 -0.00000011
0.63363791 0.11759607 -0.00000170
0.01845924 0.62044382 -0.00000089
-0.73693323 -0.62050468 0.00000000
0.08307763 -0.08822285 -0.00000044
0.71671045 0.00021685 -0.00000173
-0.34776312 0.18225420 -0.00000052
-0.59802240 -0.13398093 -0.00000019
0.69071007 -0.13748667 -0.00000138
-0.46684617 0.26246372 -0.00000040
-0.59782672 -0.35978511 -0.00000015
0.30216384 0.09525058 -0.00000059
-0.67220998 -0.58318126 -0.00000003
-0.12459971 0.70623302 0.01498274
-0.44688091 -0.78567356 -0.00000001
-0.48574340 0.52548659 0.10265229
-0.53870183 0.72312987 0.22443946
-0.06440193 -0.04773237 -0.00000047
-0.05386801 -0.21885416 -0.00000036
0.75676328 -0.16334599 -0.00000154
-0.51977742 -0.65111780 -0.00000009
0.10329641 -0.10884252 -0.00000043
-0.00002563 -0.15381321 -0.00000040
-0.45715323 -0.41490689 -0.00000024
-0.56132400 0.37571609 0.06659788
-0.41753006 -0.50296891 -0.00000019
-0.27450758 0.18895189 -0.00000060
-0.42992806 0.25076017 -0.00000044
-0.61945635 -0.61195099 -0.00000008
-0.53816950 -0.20443521 -0.00000024
-0.10878748 -0.28962633 -0.00000032
0.35755298 -0.10220840 -0.00000044
0.57001114 -0.67688996 -0.00000008
-0.36791894 -0.72304195 -0.00000005
0.14300479 0.10702937 -0.00000057
-0.53063178 0.41433832 0.07045160
-0.67602468 -0.73918039 0.00000000
-0.21519187 0.64196563 0.02777614
-0.16086756 -0.62657088 -0.00000011
-0.15057658 -0.63446724 -0.00000010
0.48629948 -0.59338111 -0.00000013
-0.22359525 -0.34076726 -0.00000029
-0.75463587 0.22743051 0.08847996
-0.14844690 0.76901793 0.05708407
0.67633986 -0.05276127 -0.00000150
0.27236456 -0.59570539 -0.00000013
-0.27775469 0.63785297 0.05618167
0.33408979 -0.53165591 -0.00000017
-0.46043706 -0.47505930 -0.00000020
-0.36410195 0.61273873 0.08593966
-0.36181727 -0.69063556 -0.00000007
-0.41040391 0.74247241 0.17148933
0.35547444 -0.06153610 -0.00000046
-0.02581192 0.58043420 -0.00000086
-0.74593669 0.05339678 -0.00000007
-0.79026073 -0.08442076 0.00000000
-0.78679639 0.05789689 0.02171988
0.70537877 -0.38294503 -0.00000095
-0.14585884 0.51250482 -0.00000079
-0.35184890 -0.24050748 -0.00000035
-0.11250783 -0.52351302 -0.00000017
-0.37424326 0.32534558 -0.00000051
-0.49310333 -0.10659327 -0.00000031
-0.21702929 0.36659855 -0.00000069
0.26257613 0.44288617 -0.00000114
-0.30362210 0.57328594 0.03737459
-0.45798311 -0.17683859 -0.00000033
-0.04625656 0.11385905 -0.00000057
0.21927372 -0.46995723 -0.00000021
-0.61400408 0.59598136 0.19924328
0.60975432 -0.21323475 -0.00000098
-0.67535925 0.31764823 0.09379692
0.18223161 -0.45516762 -0.00000022
-0.71251363 -0.42089295 -0.00000002
0.54329526 -0.61333781 -0.00000012
0.53429961 -0.63328189 -0.00000010
0.52033675 -0.66796196 -0.00000008
0.07456437 0.46927768 -0.00000079
-0.48817489 0.11597251 -0.00000035
-0.33892557 0.12298888 -0.00000051
-0.29886964 -0.78734523 -0.00000001
0.72853643 -0.46036226 -0.00000085
-0.14274995 0.70176691 0.02163293
0.43941766 0.09652316 -0.00000103
-0.10231637 -0.65980113 -0.00000009
0.62030083 0.03284857 -0.00000149
-0.21928771 -0.34289026 -0.00000029
0.78480464 -0.40061873 -0.00000100
-0.35672009 -0.20667259 -0.00000037
0.47177017 -0.30678469 -0.00000035
0.02589185 0.15515755 -0.00000060
0.28878611 0.28744811 -0.00000092
0.08242077 -0.65201533 -0.00000009
-0.59626317 0.73353654 0.25747052
-0.00445603 0.08778822 -0.00000055
-0.60198766 -0.13131428 -0.00000019
0.14191872 0.11585230 -0.00000057
-0.55975962 -0.28943673 -0.00000020
-0.50647593 0.49484929 0.09783885
0.13974150 -0.31839275 -0.00000030
0.60892850 0.03353340 -0.00000145
-0.32297382 -0.44958666 -0.00000022
0.55497223 -0.46081778 -0.00000032
-0.71167141 0.18478756 0.04687667
-0.54648244 0.50929421 0.12430105
-0.53018016 -0.72068870 -0.00000005
0.53632653 -0.59632379 -0.00000013
0.37008926 -0.73787153 -0.00000004
0.17361386 -0.63279271 -0.00000010
-0.73845065 0.43257675 0.18031061
-0.60814935 -0.32465971 -0.00000015
-0.11408915 -0.31152663 -0.00000031
0.01052141 0.42029795 -0.00000076
-0.71375763 0.52959865 0.21546090
0.20759995 -0.78278929 -0.00000001
-0.68279701 0.18446234 0.03268627
0.18488914 0.35004461 -0.00000072
0.21167757 -0.38131356 -0.00000026
0.24287042 0.22733732 -0.00000066
-0.21161908 -0.23855089 -0.00000035
-0.20575488 -0.66690272 -0.00000008
0.43041795 -0.16443186 -0.00000050
-0.66501838 0.54920536 0.20130306
0.51891661 0.01341727 -0.00000113
0.33440730 0.25204957 -0.00000100
-0.34118181 0.70111501 0.11774996
-0.65796083 -0.04119899 -0.00000014
-0.42847016 -0.17240918 -0.00000036
-0.66074836 0.52389532 0.18692780
0.58643132 0.05584846 -0.00000143
-0.34739810 0.46136311 0.00425690
-0.35499763 0.19074705 -0.00000051
-0.32186842 0.18114637 -0.00000054
0.49204043 -0.65941036 -0.00000009
0.62675029 -0.02014782 -0.00000141
-0.04862632 0.24901053 -0.00000066
-0.30757397 0.51101506 0.00903292
-0.25176215 -0.17510609 -0.00000039
0.23749080 0.28098530 -0.00000075
0.25170383 0.52801847 -0.00000128
-0.23989148 0.02364349 -0.00000051
0.00289479 0.41121668 -0.00000076
-0.22996607 0.13189258 -0.00000058
-0.12463708 -0.26631427 -0.00000033
0.00190611 0.15043853 -0.00000059
-0.44594300 0.02806063 -0.00000038
-0.49568924 -0.72426343 -0.00000005
0.08006488 0.19143578 -0.00000062
-0.17526408 0.44535789 -0.00000075
-0.07015769 -0.55952317 -0.00000015
0.53814769 -0.72882652 -0.00000004
0.33892038 -0.52002859 -0.00000017
0.28289336 -0.51007581 -0.00000018
0.42652786 -0.03311309 -0.00000074
0.53752035 -0.54360062 -0.00000016
0.57685906 -0.32613868 -0.00000065
-0.27677217 -0.50216591 -0.00000019
-0.50670207 -0.04034341 -0.00000031
-0.66968274 -0.74402314 -0.00000000
-0.17125855 -0.49647000 -0.00000019
-0.71471155 0.34094712 0.12424404
-0.42206630 -0.50883639 -0.00000018
0.13618238 0.51604050 -0.00000088
-0.69518524 0.28877741 0.08940141
0.78076923 -0.29648429 -0.00000126
-0.03305471 -0.78375268 -0.00000001
-0.68108183 -0.23665366 -0.00000008
0.29793137 0.07999275 -0.00000055
0.62721890 0.06794696 -0.00000158
-0.37990230 0.74223095 0.15654881
0.22200352 -0.69135904 -0.00000007
-0.29146650 -0.19368795 -0.00000038
0.08674064 -0.24055196 -0.00000035
0.76067692 -0.30360147 -0.00000124
0.43376133 -0.70813245 -0.00000006
0.24894321 -0.45311329 -0.00000022
-0.12183863 0.01111156 -0.00000051
0.31578526 0.11852956 -0.00000068
-0.34839579 0.55416071 0.04983923
0.78458452 -0.61731225 -0.00000046
-0.33189780 0.66803342 0.09716114
0.11208396 -0.53968567 -0.00000016
-0.76176029 -0.49597308 0.00000000
-0.56379122 0.02354693 -0.00000026
0.32692388 -0.27947894 -0.00000033
0.21013916 -0.03766913 -0.00000048
0.01818404 0.68769568 -0.00000093
-0.05521574 -0.30383787 -0.00000031
0.15767074 0.53248596 -0.00000098
0.37957025 -0.09537550 -0.00000047
-0.69799054 -0.09669730 -0.00000009
0.68728083 0.05904420 -0.00000175
-0.19370057 0.05282657 -0.00000053
-0.03657603 0.38294429 -0.00000074
-0.48456031 -0.11482376 -0.00000032
-0.01751085 0.39237356 -0.00000075
0.72472113 -0.44139585 -0.00000090
0.72998518 -0.30793580 -0.00000118
-0.20185646 0.06086498 -0.00000054
0.00555609 -0.39987922 -0.00000025
-0.24911824 0.19521780 -0.00000062
0.53305167 -0.50117242 -0.00000019
0.49511310 -0.48197010 -0.00000020
-0.45452654 0.19160651 -0.00000040
-0.09477975 -0.47265601 -0.00000020
-0.59063900 0.16263124 -0.00000025
-0.26232350 -0.08543206 -0.00000045
0.56924760 -0.16848898 -0.00000093
-0.73970503 0.44082460 0.18492849
-0.41447103 0.23550493 -0.00000045
0.15432081 -0.76724720 -0.00000002
-0.53929085 -0.51259130 -0.00000018
-0.75476402 0.05097436 0.00278863
-0.34470057 0.71317935 0.12532300
-0.65810430 0.72679853 0.28424954
-0.71744037 -0.31166023 -0.00000003
-0.28238395 -0.32292145 -0.00000030
-0.15587518 -0.23722538 -0.00000035
-0.60879415 0.45405534 0.12773842
0.35251233 0.11287448 -0.00000079
-0.56973380 -0.77834606 -0.00000001
-0.20510206 0.24769349 -0.00000065
0.49460185 -0.62824482 -0.00000011
-0.71393847 -0.05167834 -0.00000008
0.70310336 -0.00775974 -0.00000167
-0.05185499 -0.46659791 -0.00000021
-0.20013814 0.16272652 -0.00000060
-0.55139619 -0.23772113 -0.00000022
0.32420495 -0.33134994 -0.00000029
0.36551747 -0.27911255 -0.00000033
0.28897247 0.31857011 -0.00000099
0.68010813 0.11081305 -0.00000183
0.68704462 -0.43551007 -0.00000079
-0.45641968 0.08882020 -0.00000038
-0.21079384 0.63071877 0.02017305
0.05049266 0.66958034 -0.00000092
-0.46260133 0.39514676 0.02806360
-0.57612073 0.47638899 0.12271346
0.21167307 -0.69946486 -0.00000006
0.43536696 0.25562084 -0.00000133
0.32246152 0.03766514 -0.00000054
-0.34659439 0.29080650 -0.00000054
-0.46835920 0.13055067 -0.00000038
-0.16431069 -0.36096978 -0.00000027
-0.62902731 0.01461235 -0.00000019
-0.17587195 0.73557681 0.05416041
-0.47375500 0.53259021 0.10027839
-0.08416159 0.10128453 -0.00000056
0.78928041 -0.74861681 -0.00000013
-0.08952694 -0.48999733 -0.00000019
0.49812219 0.13474254 -0.00000130
-0.29416233 0.32136855 -0.00000060
0.21993332 -0.64891028 -0.00000009
0.27655432 0.41574219 -0.00000114
0.00189811 0.55395889 -0.00000085
-0.79687017 -0.17729890 0.00000000
0.66073805 -0.43617851 -0.00000070
-0.74214065 0.25146839 0.09408940
-0.03663590 0.15868966 -0.00000060
-0.25102988 0.24826309 -0.00000063
-0.57457280 -0.04150820 -0.00000023
0.46504986 -0.55141407 -0.00000016
0.42963374 -0.50960279 -0.00000018
0.76033056 -0.11098717 -0.00000166
0.55675614 0.11034756 -0.00000144
-0.52829403 -0.37810177 -0.00000022
-0.40671325 0.14882860 -0.00000045
0.66451764 0.09978077 -0.00000176
