ply
format ascii 1.0
element vertex 1202
property float x
property float y
property float z
end_header
-0.34201252 0.24612407 -0.04850168
-0.05742159 0.68561471 -0.00432155
-0.75383830 -0.33255076 -0.12265926
-0.18958478 -0.19651029 0.00000112
-0.62956452 -0.62485272 -0.01695858
-0.65208685 -0.55554736 -0.03902923
-0.04692705 0.31670490 -0.00000346
-0.54705459 0.18946391 -0.12672684
-0.69184440 -0.63116479 -0.04266351
-0.58425909 -0.75688732 -0.00000336
-0.08772712 0.70568579 -0.02095946
-0.19816777 0.43757159 -0.02069439
-0.05292118 -0.23484258 0.00000180
-0.62284595 0.02662318 -0.13032027
-0.25109941 -0.74820566 -0.00000132
-0.17722887 -0.54866171 -0.00000013
-0.65696079 -0.35040048 -0.07773757
-0.34895915 -0.60880357 -0.00000139
-0.50885040 0.22052194 -0.11581003
-0.10101941 -0.35982397 0.00000104
-0.34686974 0.14342588 -0.03226773
-0.46823096 0.05400401 -0.06859518
-0.36798391 -0.38576645 -0.00000067
-0.37139106 -0.50199813 -0.00000112
-0.15689032 -0.45435098 0.00000035
-0.73430073 -0.60204387 -0.06615076
-0.70018625 -0.20312607 -0.12264115
-0.34591222 -0.76597482 -0.00000196
-0.24455671 0.07368548 -0.00000296
-0.27697229 -0.44644785 -0.00000035
-0.33769646 -0.48763442 -0.00000087
-0.06890598 0.48291457 0.00000095
-0.48211968 -0.34203202 -0.00390590
-0.01266407 0.25492126 -0.00000588
-0.09596961 0.17482305 -0.00000517
-0.31757453 0.20525789 -0.03068072
-0.01883443 -0.06720625 0.00000263
-0.30393347 -0.54994577 -0.00000090
-0.19633630 -0.42082632 0.00000024
-0.77926832 -0.56310052 -0.09247269
-0.52927637 0.18451260 -0.11818406
-0.18661645 0.00378665 -0.00000628
-0.74604952 -0.54922193 -0.08063841
-0.68299413 -0.49843305 -0.06253678
-0.16477385 0.61165273 -0.03737249
-0.14528003 -0.15860946 0.00000153
-0.69809246 -0.51593834 -0.06591762
-0.26704884 -0.26818565 0.00000038
-0.12108904 -0.15612307 0.00000168
-0.10144391 -0.59634960 0.00000015
-0.04800781 -0.31465673 0.00000153
-0.23823068 0.18639728 -0.00000062
-0.05623326 0.59947193 0.00000319
-0.13686357 0.10956608 -0.00000540
-0.22242171 0.27266988 -0.00171669
-0.53032070 0.15837386 -0.11396953
-0.51597267 0.12602279 -0.10201503
-0.51715249 -0.28372034 -0.02940447
-0.21732527 -0.38255641 0.00000025
-0.50167084 -0.76929498 -0.00000291
-0.65139574 -0.24163111 -0.09474997
-0.60338604 -0.42270833 -0.04175315
-0.76535422 -0.74349976 -0.05428580
-0.35262552 -0.43959144 -0.00000078
-0.02925788 0.42671889 -0.00000152
-0.01078211 -0.66463482 0.00000044
-0.07508498 -0.51705146 0.00000061
-0.05591381 0.17521945 -0.00000637
-0.11541794 0.13269392 -0.00000553
-0.53517050 -0.32557759 -0.02969755
-0.03010690 -0.60625786 0.00000054
-0.55962789 0.11103693 -0.11814835
-0.00920917 0.61474913 0.00000211
-0.32157150 0.11966837 -0.01712920
-0.11365640 0.44973919 0.00000155
-0.25612170 -0.77399766 -0.00000145
-0.75523943 -0.74643344 -0.04940475
-0.63181925 -0.68028247 -0.00803851
-0.37913293 0.31159416 -0.07617705
-0.31264770 -0.26391038 0.00000012
-0.60233206 0.01900310 -0.12012268
-0.64979011 0.06366197 -0.14853793
-0.48276073 -0.23594639 -0.02311311
-0.69543558 -0.30895531 -0.10170918
-0.51865512 -0.06004236 -0.06996728
-0.15906037 -0.03737768 0.00000190
-0.06853597 -0.56069869 0.00000048
-0.15259896 0.46597996 -0.00613193
-0.28502497 -0.40939596 -0.00000026
-0.31772891 0.42963436 -0.07078731
-0.30844536 0.32392073 -0.04792312
-0.40849891 -0.21895613 -0.00000029
-0.35294732 0.12142790 -0.03096052
-0.75738347 -0.21332099 -0.14546332
-0.23035417 -0.36343929 0.00000025
-0.00607996 -0.31371582 0.00000185
-0.02029254 -0.65941268 0.00000040
-0.46059155 -0.63263237 -0.00000215
-0.45185104 -0.38851601 -0.00000118
-0.04043364 -0.50991559 0.00000084
-0.12650837 -0.39513388 0.00000075
-0.30662331 -0.23939674 0.00000025
-0.03274269 0.25568166 -0.00000526
-0.74188483 -0.80024719 -0.03404830
-0.43582794 0.14959854 -0.07169420
-0.66496068 -0.75509006 -0.00896705
-0.02447766 0.33764446 -0.00000366
-0.29727772 -0.35190228 -0.00000011
-0.39467379 0.31836608 -0.08408081
-0.39468989 -0.52203119 -0.00000134
-0.12072406 0.44267768 0.00000160
-0.07470829 -0.40094107 0.00000105
-0.03646601 -0.13741107 0.00000226
-0.33712214 -0.61538321 -0.00000134
-0.34893012 -0.17365453 0.00000024
-0.54018152 -0.30637568 -0.03528299
-0.10938269 -0.35943201 0.00000099
-0.18036956 0.00431971 -0.00000646
-0.28456169 -0.39469126 -0.00000020
-0.04941287 -0.75320148 -0.00000012
-0.35561201 -0.77856183 -0.00000207
-0.09583789 0.20926459 -0.00000440
-0.28653198 0.07219846 -0.00000173
-0.02624405 0.08107199 -0.00000938
-0.45417458 -0.48843801 -0.00000157
-0.76756066 -0.17989755 -0.15581223
-0.27369419 0.04753577 -0.00000267
-0.18303487 -0.44284463 0.00000023
-0.54822826 -0.20223799 -0.05733311
-0.23175909 -0.44716987 -0.00000008
-0.02914852 -0.53837073 0.00000081
-0.56076282 -0.04064518 -0.09156954
-0.05951613 -0.79808950 -0.00000035
-0.04768351 0.49561101 0.00000059
-0.22655582 -0.46502557 -0.00000011
-0.35967705 -0.23523033 -0.00000005
-0.06768577 -0.42594498 0.00000099
-0.63946521 -0.16230430 -0.10376599
-0.46391070 0.28952414 -0.10876259
-0.36911133 -0.41598627 -0.00000079
-0.52834392 -0.02036843 -0.08122124
-0.60148680 -0.46099105 -0.03410335
-0.23891255 0.08069420 -0.00000297
-0.08615561 0.50023544 0.00000186
-0.76009417 -0.38921577 -0.11524237
-0.34638357 0.33605835 -0.06643362
-0.45763278 -0.60527277 -0.00000203
-0.57855672 0.14985324 -0.13323005
-0.37443981 -0.01740703 -0.01544475
-0.49064529 0.10943619 -0.08814361
-0.55122125 -0.58810604 -0.00000253
-0.16303957 0.58599389 -0.03204650
-0.04042892 0.47781470 -0.00000003
-0.05366387 0.00684754 -0.00001023
-0.53942949 -0.34891129 -0.02736850
-0.41038656 -0.41186431 -0.00000102
-0.17275982 -0.79959893 -0.00000104
-0.60149181 -0.43457806 -0.03881890
-0.05451221 -0.40468746 0.00000115
-0.28135735 -0.75962770 -0.00000155
-0.55915213 -0.09776963 -0.08068175
-0.56983393 0.09689925 -0.12002244
-0.47498780 -0.20327301 -0.02559496
-0.42864090 -0.48096594 -0.00000139
-0.35356319 -0.63637960 -0.00000152
-0.26573056 -0.23600946 0.00000051
-0.25775006 0.28578219 -0.01927674
-0.41992164 -0.57728142 -0.00000170
-0.46592176 0.06689482 -0.06990069
-0.03461978 -0.21860798 0.00000197
-0.09754940 -0.36114505 0.00000106
-0.66648835 0.03194982 -0.15007281
-0.27140027 0.19308577 -0.00861581
-0.66130304 0.03205054 -0.14785688
-0.24904922 0.16119303 -0.00000086
-0.00374810 -0.51490730 0.00000105
-0.01680731 0.23997475 -0.00000609
-0.54740697 -0.54559594 -0.00000235
-0.16953035 -0.05971295 0.00000175
-0.28991646 -0.60545433 -0.00000102
-0.00195585 0.16898745 -0.00000814
-0.50071967 -0.17553391 -0.04163080
-0.40241233 -0.73732805 -0.00000219
-0.76639467 -0.75387830 -0.05288196
-0.04907930 -0.45164838 0.00000101
-0.42527583 -0.62457466 -0.00000191
-0.32079530 0.16484459 -0.02485651
-0.54367840 0.21585660 -0.12998211
-0.12908943 0.13485976 -0.00000507
-0.73291981 -0.76762635 -0.03600733
-0.73677289 -0.50194210 -0.08507913
-0.56711793 -0.62429243 -0.00000276
-0.39151838 -0.16196962 0.00000003
-0.24520813 0.03557073 -0.00000380
-0.00048512 0.31095389 -0.00000499
-0.17289107 -0.09107302 0.00000161
-0.32942194 -0.28327984 -0.00000005
-0.25396433 -0.46328253 -0.00000027
-0.42099515 0.04182099 -0.04607099
-0.71624434 -0.21142615 -0.12807813
-0.07849305 -0.31003892 0.00000136
-0.66354424 -0.05460018 -0.13335957
-0.19224600 0.16205388 -0.00000255
-0.56263936 -0.67968577 -0.00000294
-0.63524115 -0.79540563 -0.00000382
-0.40642124 -0.47105750 -0.00000122
-0.27553001 0.44185275 -0.05478756
-0.65029633 -0.10242689 -0.11911741
-0.72480774 -0.52284831 -0.07619369
-0.08464788 0.49275818 0.00000164
-0.10637262 0.26716217 -0.00000278
-0.41293010 0.22299364 -0.07492674
-0.41782284 -0.12971228 -0.01409409
-0.51951319 -0.26746884 -0.03332160
-0.16009991 0.44631919 -0.00585502
-0.30583161 -0.75445062 -0.00000168
-0.26868916 -0.31049651 0.00000021
-0.21917656 0.13967825 -0.00000224
-0.76259834 -0.57706279 -0.08279955
-0.29867756 -0.35399371 -0.00000013
-0.09610655 0.25575280 -0.00000335
-0.15003212 -0.07214406 0.00000182
-0.70122242 -0.02715775 -0.15448917
-0.03342648 0.71955121 -0.00003996
-0.75226271 -0.05041869 -0.17232744
-0.32832909 0.28835797 -0.05014323
-0.32351333 -0.58014864 -0.00000113
-0.28697169 -0.03738759 0.00000113
-0.36289373 0.29233038 -0.06574326
-0.55088151 -0.78560072 -0.00000327
-0.23498648 0.13538007 -0.00000186
-0.43139881 0.07118846 -0.05579373
-0.01353497 0.57457781 0.00000134
-0.35757819 -0.05135604 -0.00212222
-0.15236571 -0.31188771 0.00000091
-0.16192764 0.50431168 -0.01699123
-0.16115935 -0.14139870 0.00000150
-0.50485271 -0.76455361 -0.00000291
-0.29715070 0.46194467 -0.06768760
-0.55520487 0.15612626 -0.12428902
-0.02762448 -0.04049154 0.00000268
-0.23216863 -0.45928842 -0.00000012
-0.24645866 -0.22716355 0.00000066
-0.69746506 -0.08455047 -0.14262868
-0.00561773 -0.73944944 0.00000025
-0.24139366 -0.23215830 0.00000067
-0.34304821 -0.07530265 0.00000065
-0.44862890 -0.19840592 -0.01510755
-0.29649338 0.27266800 -0.03362790
-0.19092417 0.06813695 -0.00000471
-0.35026041 0.29802480 -0.06131673
-0.21492603 -0.71430433 -0.00000098
-0.63644409 -0.40204883 -0.05968192
-0.01120117 0.46875134 -0.00000112
-0.62215179 -0.49495882 -0.03694466
-0.20448510 0.45437199 -0.02641407
-0.44006532 -0.07173220 -0.03402318
-0.71582890 -0.15915345 -0.13722725
-0.58351958 0.14199537 -0.13396591
-0.40828246 0.28482774 -0.08395877
-0.56586438 -0.00669314 -0.09982617
-0.50429535 0.14466313 -0.10031059
-0.15323681 0.32276919 -0.00000011
-0.47832590 -0.34078985 -0.00249314
-0.42413893 -0.37180719 -0.00000095
-0.51819962 -0.05281750 -0.07106032
-0.71756405 -0.12341960 -0.14435150
-0.55387825 -0.15728433 -0.06778922
-0.10266221 -0.41341749 0.00000083
-0.05186473 0.49757424 0.00000076
-0.01468776 -0.23080090 0.00000205
-0.32508913 -0.30943280 -0.00000012
-0.63523179 -0.69828486 -0.00629616
-0.34061074 0.20758697 -0.04102080
-0.32065812 0.18781275 -0.02889609
-0.42878100 -0.55105537 -0.00000165
-0.11103129 0.27986005 -0.00000235
-0.05485321 0.40171164 -0.00000131
-0.13378666 0.05811385 -0.00000666
-0.54831272 0.20373534 -0.12981561
-0.56226546 0.14812715 -0.12590343
-0.12662928 0.37924412 0.00000035
-0.40112767 -0.46363464 -0.00000116
-0.26616302 0.48514268 -0.05847718
-0.23193082 -0.45610100 -0.00000011
-0.51675254 0.23976494 -0.12264836
-0.20304427 0.49014530 -0.03217708
-0.18844844 0.27101886 -0.00000022
-0.12002956 0.58882493 -0.01402212
-0.02829065 -0.71671629 0.00000014
-0.33944461 -0.37222418 -0.00000044
-0.14217788 -0.04619399 0.00000197
-0.47283405 -0.28594008 -0.00991510
-0.06065344 -0.67137432 0.00000012
-0.25960031 0.38087615 -0.03704343
-0.74304789 -0.22882360 -0.13652097
-0.21513560 -0.54856175 -0.00000036
-0.49708900 -0.63163197 -0.00000237
-0.32318285 -0.04663005 0.00000087
-0.07065571 0.10886679 -0.00000742
-0.48744532 -0.11019852 -0.04757109
-0.54307032 -0.09186374 -0.07480730
-0.47059575 -0.33222687 -0.00069090
-0.41796181 -0.16715837 -0.00747169
-0.00651173 -0.50106698 0.00000115
-0.66586274 -0.21052717 -0.10653316
-0.66509110 -0.47947577 -0.05820672
-0.67009228 -0.66309685 -0.02759407
-0.46944904 0.15365712 -0.08690309
-0.25422567 0.00799770 -0.00000415
-0.42589509 0.32078210 -0.09796271
-0.17135797 -0.58628160 -0.00000023
-0.17687362 0.56229275 -0.03377701
-0.11927153 0.27998087 -0.00000210
-0.56615591 -0.72588021 -0.00000314
-0.35932267 0.35914603 -0.07612805
-0.11985224 -0.08118198 0.00000197
-0.03831355 0.33509949 -0.00000330
-0.30214494 -0.64507359 -0.00000124
-0.09367442 0.47523704 0.00000152
-0.03525109 -0.12033706 0.00000234
-0.11193062 -0.54633349 0.00000028
-0.65574044 -0.27611876 -0.09046743
-0.49414983 0.24863511 -0.11449356
-0.16502158 -0.58081019 -0.00000017
-0.27921107 0.40424556 -0.04966242
-0.08677274 -0.70371848 -0.00000016
-0.60123891 0.03615209 -0.12271196
-0.12874970 0.46552032 0.00000236
-0.12424355 -0.74138921 -0.00000053
-0.59155434 -0.61295807 -0.00270566
-0.31880599 -0.06851224 0.00000082
-0.03814142 0.63984954 0.00000355
-0.00310923 0.42561260 -0.00000233
-0.40956950 -0.00967848 -0.03195848
-0.70113873 -0.55309582 -0.06059915
-0.02962949 -0.77719587 -0.00000009
-0.34811068 -0.19555371 0.00000017
-0.26034129 -0.43264505 -0.00000019
-0.05307487 -0.12522419 0.00000221
-0.72364289 -0.64018977 -0.05475205
-0.05674976 -0.28302822 0.00000160
-0.67712373 -0.72470915 -0.01962855
-0.36498582 -0.27046487 -0.00000022
-0.01632214 -0.00256517 0.00000289
-0.05449104 0.53453088 0.00000167
-0.35246944 0.28311580 -0.05960791
-0.10671058 -0.63615149 -0.00000003
-0.41276148 0.03975430 -0.04215496
-0.04095540 0.22220014 -0.00000576
-0.03273869 -0.31715983 0.00000161
-0.03948239 -0.11289131 0.00000234
-0.57561040 -0.36619624 -0.03987143
-0.47979671 -0.15401582 -0.03645670
-0.25336093 -0.61732376 -0.00000084
-0.06539545 0.61678356 0.00000385
-0.06032022 -0.04613745 0.00000246
-0.47428647 -0.15982293 -0.03304650
-0.76069158 -0.72531551 -0.05552210
-0.76285887 -0.45871952 -0.10403034
-0.17506535 -0.13203168 0.00000145
-0.33942905 0.03938277 -0.01049558
-0.52368933 -0.51970577 -0.00000211
-0.27272454 -0.46588835 -0.00000039
-0.34639475 -0.30869108 -0.00000025
-0.19592331 0.21577708 -0.00000123
-0.31898347 -0.33518523 -0.00000018
-0.56743693 -0.00960391 -0.09998423
-0.18137416 -0.76511192 -0.00000096
-0.47591978 -0.37691650 -0.00000129
-0.70384413 -0.50722015 -0.06995127
-0.47422293 -0.30662581 -0.00682208
-0.00883854 0.49125147 -0.00000068
-0.28699201 0.47784406 -0.06614828
-0.42006084 -0.49711937 -0.00000140
-0.23302093 -0.09169549 0.00000125
-0.22529696 0.30383214 -0.00851632
-0.49184394 -0.43183702 -0.00000159
-0.24996389 -0.24973360 0.00000055
-0.05997625 -0.11456746 0.00000221
-0.41971338 0.19524357 -0.07289710
-0.04969027 -0.11023706 0.00000229
-0.32741764 0.33413461 -0.05791944
-0.42065167 -0.59299994 -0.00000176
-0.16800191 0.21152233 -0.00000217
-0.02885333 0.50369203 0.00000020
-0.18465780 -0.23456842 0.00000101
-0.60606176 -0.26477629 -0.07108893
-0.56529582 -0.31106597 -0.04526575
-0.36234939 -0.16673850 0.00000019
-0.11522418 0.58495635 -0.01126152
-0.23351349 -0.71850824 -0.00000110
-0.69044113 -0.12477369 -0.13242477
-0.14239205 -0.49668026 0.00000028
-0.58874565 -0.06512007 -0.09925757
-0.30401719 -0.08296192 0.00000085
-0.41115725 -0.41964424 -0.00000106
-0.53547579 0.20442963 -0.12440911
-0.46240345 -0.13674285 -0.03204571
-0.57620233 -0.29476094 -0.05287413
-0.18794170 0.30647463 0.00000057
-0.33733764 -0.38129121 -0.00000047
-0.73240834 -0.06486906 -0.16119510
-0.68215972 -0.68311781 -0.02922017
-0.33216998 -0.43414667 -0.00000063
-0.25189418 -0.76684815 -0.00000140
-0.00391730 -0.07489385 0.00000270
-0.77558815 -0.56891394 -0.08984982
-0.30602369 0.15575066 -0.01686980
-0.42909962 -0.05371092 -0.03251484
-0.29882920 0.28799939 -0.03737011
-0.06152409 -0.45784971 0.00000091
-0.03459664 0.18417077 -0.00000681
-0.21265639 0.17799233 -0.00000158
-0.42384070 -0.22786233 -0.00000041
-0.19866174 -0.49267742 -0.00000005
-0.00842536 -0.56984699 0.00000090
-0.05663676 0.53345883 0.00000171
-0.44227037 -0.22149722 -0.00824751
-0.56433660 -0.63731396 -0.00000280
-0.06084184 -0.54432523 0.00000059
-0.74018204 -0.77239859 -0.03828435
-0.34261987 0.14696310 -0.03106802
-0.27586800 -0.11763829 0.00000089
-0.34894049 -0.52397639 -0.00000107
-0.21257699 0.50143862 -0.03829926
-0.13430817 0.61223370 -0.02435094
-0.31957772 -0.39634284 -0.00000042
-0.19613948 -0.13815817 0.00000130
-0.34609750 -0.50385201 -0.00000098
-0.49019569 -0.19379155 -0.03383878
-0.00009305 -0.10526930 0.00000261
-0.46931213 -0.13975295 -0.03448495
-0.12282738 -0.46231759 0.00000052
-0.00819409 -0.63350725 0.00000066
-0.57618356 -0.41132244 -0.03206559
-0.23416094 -0.75318307 -0.00000124
-0.05896403 0.72193789 -0.01146794
-0.28044051 -0.36366630 -0.00000006
-0.48071414 0.02444260 -0.06869794
-0.25029308 -0.60559869 -0.00000078
-0.52771497 -0.76637471 -0.00000306
-0.24327566 -0.72132367 -0.00000117
-0.51970422 -0.56646359 -0.00000226
-0.18899561 0.05928910 -0.00000496
-0.36567962 -0.13336359 0.00000029
-0.01822605 -0.24234188 0.00000198
-0.21379007 -0.56519902 -0.00000041
-0.75588411 -0.59127849 -0.07737017
-0.03865689 -0.47650126 0.00000098
-0.41739267 -0.62731874 -0.00000187
-0.24557219 0.34871563 -0.02526077
-0.67769712 -0.61360216 -0.03970274
-0.14690706 -0.02148303 0.00000203
-0.29856408 0.07563719 -0.00000129
-0.18972418 -0.15677437 0.00000127
-0.76132798 -0.56157500 -0.08501609
-0.58465964 -0.05870169 -0.09864259
-0.48712248 -0.61489725 -0.00000225
-0.36647928 -0.34302065 -0.00000050
-0.08138613 -0.30843273 0.00000135
-0.76199466 -0.70114183 -0.06039733
-0.37947330 0.16418537 -0.05001853
-0.14638615 -0.38974178 0.00000065
-0.40591514 0.03994438 -0.03923933
-0.13528202 -0.69248229 -0.00000041
-0.20771661 0.49594733 -0.03522540
-0.13452388 -0.36754158 0.00000081
-0.37449428 -0.60742229 -0.00000154
-0.13246845 -0.53507984 0.00000019
-0.41850987 0.08692987 -0.05304998
-0.50412691 -0.58912492 -0.00000225
-0.00834485 -0.41664791 0.00000139
-0.57451510 -0.17989784 -0.07264461
-0.39598674 -0.73368132 -0.00000214
-0.61929816 -0.17570101 -0.09268696
-0.17489682 -0.08930296 0.00000161
-0.64296436 -0.14615001 -0.10815623
-0.03116380 0.06371829 -0.00000963
-0.65918982 -0.05686207 -0.13107996
-0.41420513 -0.52333069 -0.00000146
-0.74025029 -0.53292108 -0.08104898
-0.63563216 -0.46767324 -0.04762139
-0.20582514 -0.48863602 -0.00000007
-0.54744965 -0.07141938 -0.08034230
-0.76817548 -0.50222874 -0.09855650
-0.38961613 -0.49840316 -0.00000122
-0.40798229 0.35679924 -0.09667274
-0.12864685 0.20455845 -0.00000352
-0.71640927 -0.30118731 -0.11213128
-0.73642325 -0.22079360 -0.13509998
-0.34771782 -0.49863303 -0.00000097
-0.57400525 -0.04136041 -0.09714701
-0.11081200 -0.26738685 0.00000133
-0.47358558 -0.31545606 -0.00497174
-0.07788581 -0.73682594 -0.00000023
-0.75677180 -0.70093155 -0.05818481
-0.28799939 0.41722471 -0.05576473
-0.00201919 0.42597091 -0.00000235
-0.31729546 -0.04693867 0.00000091
-0.45740482 -0.44447815 -0.00000143
-0.27531028 0.06352931 -0.00000226
-0.14112239 -0.11416565 0.00000172
-0.55472016 -0.17091551 -0.06571946
-0.43841639 0.09182201 -0.06249910
-0.62558711 0.02195162 -0.13066757
-0.73643243 -0.16411304 -0.14521861
-0.08423519 -0.49494097 0.00000064
-0.53158581 -0.34058774 -0.02547462
-0.34902582 -0.41692150 -0.00000067
-0.17588703 -0.25475663 0.00000098
-0.75454015 -0.25474477 -0.13684624
-0.06965319 0.09855696 -0.00000768
-0.08233610 -0.42498505 0.00000091
-0.27657491 -0.52658361 -0.00000064
-0.21159297 -0.52729374 -0.00000025
-0.18805581 -0.47461361 0.00000009
-0.12859987 0.48162505 0.00000272
-0.30167568 -0.73692006 -0.00000158
-0.62755829 -0.50855297 -0.03684801
-0.62879324 -0.36675903 -0.06268324
-0.49841741 0.13035783 -0.09522547
-0.33654135 0.02346280 -0.00641057
-0.32037774 -0.75905466 -0.00000178
-0.42266148 0.18397976 -0.07215717
-0.24252611 -0.22757319 0.00000068
-0.25274417 0.45120388 -0.04663968
-0.25202897 0.46567595 -0.04891411
-0.04522356 -0.17186062 0.00000208
-0.69583029 -0.36955321 -0.09106550
-0.56378198 -0.17219600 -0.06939496
-0.35385188 -0.74052447 -0.00000191
-0.18146650 -0.63263100 -0.00000047
-0.29817432 0.45819539 -0.06745954
-0.77667856 -0.60982960 -0.08301812
-0.15901428 -0.14118154 0.00000151
-0.38134316 -0.50305182 -0.00000119
-0.71732777 -0.28918090 -0.11466954
-0.53069800 0.19066899 -0.11989516
-0.21860568 0.17840379 -0.00000139
-0.74496812 -0.15522183 -0.15048261
-0.43209854 -0.29404870 -0.00000071
-0.54315114 -0.25483716 -0.04575942
-0.07108080 0.66229743 -0.00604522
-0.30218518 -0.24643977 0.00000025
-0.37851626 -0.63921237 -0.00000168
-0.12034202 0.34936941 -0.00000051
-0.10326821 -0.49672747 0.00000051
-0.38880733 0.06915255 -0.03708116
-0.69586813 -0.19917960 -0.12148507
-0.28399050 -0.26225835 0.00000030
-0.53185523 -0.14945138 -0.05969908
-0.39664280 -0.48418736 -0.00000121
-0.07509703 0.49769583 0.00000146
-0.29727417 0.37546134 -0.05230779
-0.32883725 -0.64548463 -0.00000141
-0.43987596 0.16072024 -0.07542284
-0.48116338 -0.77650875 -0.00000282
-0.00719471 0.37420711 -0.00000336
-0.04362547 -0.72947663 0.00000000
-0.30765048 0.46942595 -0.07354614
-0.55410278 0.00807441 -0.09739429
-0.14191163 0.12732349 -0.00000485
-0.12892348 -0.43275246 0.00000060
-0.38345012 -0.67968941 -0.00000186
-0.52550352 -0.19031821 -0.04966993
-0.24545529 -0.47908497 -0.00000028
-0.02181516 -0.17415370 0.00000222
-0.22047250 0.19205835 -0.00000103
-0.56273103 -0.62472564 -0.00000274
-0.00260697 -0.29579651 0.00000188
-0.10415445 -0.69405246 -0.00000023
-0.04240958 0.48572448 0.00000021
-0.21380524 -0.68146116 -0.00000085
-0.36503953 -0.77434713 -0.00000211
-0.76327246 -0.59705198 -0.07952284
-0.15598518 -0.77329034 -0.00000084
-0.25457948 0.23883586 -0.00953319
-0.69912285 -0.45537397 -0.07716927
-0.51636809 -0.16207346 -0.05077450
-0.14253949 -0.22219288 0.00000131
-0.52400547 0.23618670 -0.12513450
-0.41160786 -0.57978642 -0.00000166
-0.04337444 0.59429204 0.00000268
-0.13282299 0.31877008 -0.00000082
-0.69820893 -0.58874172 -0.05297590
-0.25338185 -0.72710329 -0.00000126
-0.37249583 -0.28541800 -0.00000032
-0.04755084 -0.54080027 0.00000069
-0.64957666 -0.47054791 -0.05311599
-0.28723478 0.30880871 -0.03608844
-0.57761335 -0.40284854 -0.03419375
-0.19340689 -0.66013789 -0.00000064
-0.24762940 -0.21127585 0.00000071
-0.00970140 -0.14390375 0.00000250
-0.11110375 -0.58160329 0.00000015
-0.35302746 0.22580905 -0.04962191
-0.42373484 -0.38319263 -0.00000099
-0.13573015 0.53350270 -0.01091397
-0.69863665 -0.07782899 -0.14433287
-0.13702936 -0.18615893 0.00000147
-0.43807304 0.06380365 -0.05735129
-0.58512211 -0.77087891 -0.00000342
-0.23305303 -0.61313987 -0.00000071
-0.13666736 -0.72493809 -0.00000054
-0.59912103 -0.04749718 -0.10687230
-0.41599810 0.04583127 -0.04463379
-0.02131434 -0.73984885 0.00000010
-0.62176621 -0.50435859 -0.03510116
-0.20455731 -0.55122709 -0.00000030
-0.76102471 -0.09932650 -0.16737457
-0.10633683 -0.30189106 0.00000123
-0.66674638 -0.58473384 -0.04013652
-0.17326619 -0.02207340 0.00000187
-0.24348655 0.00269453 -0.00000459
-0.57395375 -0.26255912 -0.05765183
-0.65035439 -0.43540806 -0.05972175
-0.33775967 -0.14870106 0.00000040
-0.13924894 0.16009530 -0.00000420
-0.56643271 -0.60045671 -0.00000267
-0.26974145 0.41844144 -0.04811597
-0.53120273 -0.60770267 -0.00000248
-0.25988382 0.24967045 -0.01375185
-0.50295961 -0.32043710 -0.01673778
-0.27358240 0.03444225 -0.00000297
-0.44757125 -0.26660910 -0.00248100
-0.34497568 0.16752550 -0.03575231
-0.56238538 -0.07808125 -0.08558811
-0.61276269 -0.70523733 -0.00000334
-0.59170383 -0.67862517 -0.00000312
-0.14350820 -0.49747849 0.00000027
-0.16043466 -0.37228990 0.00000064
-0.42801794 0.21124279 -0.07932993
-0.08412000 0.35023543 -0.00000158
-0.14975107 -0.77229172 -0.00000080
-0.52127451 -0.39834151 -0.01072613
-0.60708064 -0.45792896 -0.03705971
-0.73847669 -0.37825960 -0.10788451
-0.07558690 0.37503341 -0.00000128
-0.33832705 0.41439509 -0.07694194
-0.02640546 -0.71316296 0.00000017
-0.76827705 -0.48304597 -0.10202346
-0.70069575 -0.46805555 -0.07558387
-0.38848430 0.08575048 -0.03990391
-0.23509194 -0.35186213 0.00000026
-0.37820989 0.14350381 -0.04578359
-0.06281699 0.53405458 0.00000191
-0.08876791 0.44857395 0.00000077
-0.16065508 -0.71389061 -0.00000065
-0.54048944 -0.47526044 -0.00527807
-0.00164667 -0.37572578 0.00000158
-0.37007868 -0.33786947 -0.00000050
-0.57890040 -0.46198934 -0.02419451
-0.75383192 -0.01901547 -0.17860739
-0.09207633 0.30948639 -0.00000226
-0.72423524 -0.09886409 -0.15160754
-0.75828767 -0.30677032 -0.12917665
-0.33708334 -0.38325340 -0.00000047
-0.14902583 0.11744512 -0.00000486
-0.15578774 -0.45188630 0.00000037
-0.18605605 0.51197255 -0.02875330
-0.65905166 -0.22670664 -0.10071157
-0.36768603 -0.31172550 -0.00000039
-0.00461393 0.41014203 -0.00000263
-0.09014643 0.01885229 -0.00000886
-0.18118545 0.28201851 -0.00000019
-0.64802343 -0.61817139 -0.02610334
-0.28658181 -0.48998603 -0.00000057
-0.10443404 0.35743865 -0.00000081
-0.43326890 -0.67691129 -0.00000215
-0.55747598 -0.37934467 -0.02971243
-0.09515805 -0.51221734 0.00000050
-0.30123135 -0.75769335 -0.00000166
-0.05685723 -0.76917779 -0.00000023
-0.49808291 -0.30007020 -0.01827128
-0.14560223 -0.03048197 0.00000201
-0.12378477 0.43020359 0.00000142
-0.60809153 -0.62582636 -0.00753386
-0.35638627 -0.00850303 -0.00925585
-0.09158344 0.04871836 -0.00000814
-0.09269675 0.40698805 -0.00000005
-0.16438664 0.21766135 -0.00000214
-0.30646864 0.06448493 -0.00077508
-0.12956682 0.09435369 -0.00000597
-0.62491852 -0.08908646 -0.11056473
-0.23619245 -0.44750178 -0.00000010
-0.03805660 0.27654135 -0.00000463
-0.31089610 -0.04166239 0.00000097
-0.39123961 -0.25134301 -0.00000030
-0.23534068 -0.19495542 0.00000085
-0.47966224 -0.17852665 -0.03202480
-0.42979941 -0.37621668 -0.00000100
-0.32171345 -0.29701349 -0.00000006
-0.36139849 0.06550205 -0.02462146
-0.26065135 0.09647870 -0.00000196
-0.14114280 -0.37222901 0.00000075
-0.31962639 0.26840931 -0.04283410
-0.62478328 -0.20905222 -0.08909853
-0.46253607 -0.71605241 -0.00000248
-0.39116412 0.37599376 -0.09285241
-0.13668868 -0.53102154 0.00000018
-0.09371099 0.22377910 -0.00000414
-0.03158668 -0.17316617 0.00000216
-0.07576650 0.25113922 -0.00000406
-0.31843624 -0.34850109 -0.00000023
-0.43863145 -0.62170357 -0.00000198
-0.50958711 -0.27650762 -0.02743227
-0.65423042 -0.40360546 -0.06706683
-0.66741168 -0.78819805 -0.00411482
-0.10725671 -0.23939782 0.00000145
-0.06488823 0.13131990 -0.00000709
-0.04059272 0.33173698 -0.00000331
-0.07849690 0.61374253 -0.00057558
-0.39104143 -0.36620504 -0.00000073
-0.44555932 -0.07298243 -0.03616700
-0.25012639 -0.60059857 -0.00000076
-0.48964384 -0.59667647 -0.00000219
-0.10294004 0.25291583 -0.00000320
-0.03534240 -0.40058666 0.00000128
-0.11963388 0.58987141 -0.01403840
-0.04979244 0.05133026 -0.00000934
-0.59850353 0.09636823 -0.13227911
-0.64481878 -0.16351634 -0.10585611
-0.31536970 -0.11662065 0.00000066
-0.07441402 0.03161585 -0.00000904
-0.78208321 -0.67934209 -0.07294185
-0.23307297 0.07771853 -0.00000322
-0.70249945 -0.24565361 -0.11604865
-0.49163929 -0.68183047 -0.00000252
-0.42817959 -0.64886069 -0.00000202
-0.28724608 0.39003131 -0.05058751
-0.33344373 -0.35867411 -0.00000036
-0.07933910 -0.57441711 0.00000037
-0.32924238 0.43369326 -0.07647185
-0.36775926 -0.20660649 0.00000001
-0.17030196 0.61277527 -0.03995442
-0.09079448 0.47764942 0.00000149
-0.39392298 -0.39675793 -0.00000087
-0.08659381 -0.67624432 -0.00000006
-0.41163176 -0.66505319 -0.00000198
-0.29545444 -0.70658302 -0.00000143
-0.42551023 -0.15779504 -0.01239460
-0.38599265 -0.55737585 -0.00000142
-0.47736460 -0.22142521 -0.02337967
-0.09596207 0.08683338 -0.00000715
-0.58687258 -0.26221305 -0.06327926
-0.46049872 0.17089495 -0.08612322
-0.38813028 -0.03230837 -0.01868373
-0.44445306 0.26164451 -0.09540472
-0.34028769 0.16858715 -0.03392209
-0.06899385 0.40235677 -0.00000086
-0.61420023 0.13298783 -0.14557634
-0.24857335 0.46984711 -0.04816970
-0.59353966 -0.38436577 -0.04435337
-0.48034719 -0.43278366 -0.00000152
-0.77050203 -0.58302981 -0.08513970
-0.21798335 -0.19736908 0.00000094
-0.42472282 -0.76383644 -0.00000243
-0.48294166 -0.12855560 -0.04235499
-0.51277220 -0.73597318 -0.00000285
-0.32778931 -0.48802140 -0.00000081
-0.65383118 -0.44985524 -0.05864153
-0.19816120 -0.20326973 0.00000104
-0.67979693 -0.47544074 -0.06526234
-0.55926001 0.16958876 -0.12843844
-0.29460594 -0.46887863 -0.00000054
-0.26796532 -0.45357010 -0.00000032
-0.34255269 -0.71281809 -0.00000174
-0.62356174 -0.72865683 -0.00000350
-0.06092081 -0.51085120 0.00000072
-0.00595584 0.73379022 0.00000469
-0.17480867 -0.19276249 0.00000122
-0.45368594 -0.11022888 -0.03302145
-0.58753085 -0.64414859 -0.00000296
-0.24655049 -0.37802163 0.00000009
-0.24583586 0.31631708 -0.01959283
-0.57834423 0.16022833 -0.13498995
-0.25428265 -0.62372750 -0.00000087
-0.69257343 -0.26822487 -0.10774449
-0.39730471 0.08562684 -0.04368184
-0.17320137 -0.47535068 0.00000017
-0.10412156 -0.75779665 -0.00000047
-0.17357337 -0.07507211 0.00000167
-0.50103712 -0.02474195 -0.06867648
-0.66013986 -0.53935379 -0.04538838
-0.35491970 0.00687899 -0.01136895
-0.19665907 -0.29264218 0.00000072
-0.39362267 0.18573356 -0.05995963
-0.26365265 0.04509575 -0.00000303
-0.42343950 0.32914662 -0.09839745
-0.05114799 0.07031135 -0.00000887
-0.09518152 -0.11268856 0.00000200
-0.51511657 -0.49111646 -0.00000195
-0.02492650 -0.68662661 0.00000027
-0.64866233 -0.74274105 -0.00414906
-0.25733453 -0.01906818 0.00000138
-0.14992303 -0.72968680 -0.00000064
-0.42223197 -0.02223877 -0.03517233
-0.09344140 -0.52435088 0.00000047
-0.46048161 0.28148824 -0.10585126
-0.21117833 0.33880448 -0.00867456
-0.38789022 -0.13854073 0.00000014
-0.29372022 -0.36762962 -0.00000015
-0.55456209 -0.07112349 -0.08345928
-0.13537942 -0.18585044 0.00000149
-0.47128031 -0.56649506 -0.00000197
-0.00610236 -0.56225270 0.00000092
-0.39530125 -0.67522079 -0.00000192
-0.47093260 -0.79168737 -0.00000281
-0.19782618 0.30541319 0.00000084
-0.46420157 -0.13995965 -0.03224633
-0.72098142 -0.18528843 -0.13478325
-0.68555588 -0.49516010 -0.06422449
-0.32142165 -0.64650422 -0.00000136
-0.27021825 -0.72060704 -0.00000133
-0.45726621 -0.58613986 -0.00000196
-0.34481761 -0.49950191 -0.00000095
-0.08485035 0.27339050 -0.00000329
-0.64150769 0.04781527 -0.14214186
-0.12550808 -0.18543483 0.00000155
-0.64762253 -0.56498557 -0.03542166
-0.30178371 0.45610076 -0.06864075
-0.55875075 -0.71950543 -0.00000307
-0.03986046 0.04442324 -0.00000980
-0.65018868 0.07802617 -0.15127294
-0.22454271 0.03001165 -0.00000455
-0.09210203 0.22338697 -0.00000419
-0.30974689 0.40536317 -0.06301729
-0.05619827 0.71974915 -0.00988582
-0.40602082 -0.72764158 -0.00000218
-0.48742503 -0.75975269 -0.00000279
-0.05658302 0.35878602 -0.00000222
-0.49581155 -0.20599987 -0.03407964
-0.49816021 -0.45609111 -0.00000172
-0.23033579 -0.29835367 0.00000049
-0.56317806 -0.49374300 -0.01175457
-0.74603140 -0.48347512 -0.09236324
-0.39467511 0.01562213 -0.03005659
-0.40500450 0.32387701 -0.08951492
-0.17100853 -0.10122064 0.00000159
-0.09658958 0.12023046 -0.00000638
-0.39884248 -0.18229116 -0.00000009
-0.17732354 -0.58363694 -0.00000026
-0.22198118 -0.63778329 -0.00000073
-0.38459939 -0.35399228 -0.00000065
-0.01968494 0.21339752 -0.00000660
-0.36368364 -0.46255952 -0.00000093
-0.22992031 0.32846457 -0.01490382
-0.15177946 -0.00585097 0.00000206
-0.54840100 -0.36032751 -0.02919637
-0.54286599 0.08846969 -0.10689985
-0.25767577 0.45216534 -0.04893588
-0.25731710 0.05543920 -0.00000299
-0.73676991 -0.49873707 -0.08564980
-0.40903831 -0.14131834 -0.00823845
-0.72393119 -0.15469912 -0.14151275
-0.72342622 -0.28957114 -0.11722724
-0.37808478 -0.14123245 0.00000019
-0.28665906 0.23539615 -0.02273990
-0.74941343 -0.71207017 -0.05302705
-0.36930537 0.20898323 -0.05363218
-0.08366111 0.13689411 -0.00000640
-0.70784718 -0.16703984 -0.13238125
-0.57574999 -0.46996447 -0.02141411
-0.58820891 -0.45934477 -0.02867673
-0.38147563 -0.01033406 -0.01973810
-0.50289774 0.17933369 -0.10589546
-0.36247715 -0.43131071 -0.00000081
-0.32874608 -0.69478071 -0.00000159
-0.41366258 -0.37598026 -0.00000091
-0.39177075 0.04389177 -0.03385007
-0.33215144 -0.26970959 -0.00000002
-0.02847678 -0.61856639 0.00000051
-0.56335306 -0.12384307 -0.07783878
-0.49751827 0.16708606 -0.10139228
-0.03076888 -0.38500753 0.00000137
-0.58217579 -0.33090329 -0.04899800
-0.66786641 -0.24548708 -0.10115778
-0.45055288 -0.72701812 -0.00000245
-0.06129874 -0.71049821 -0.00000003
-0.05310802 -0.36953512 0.00000129
-0.47305581 -0.50321430 -0.00000174
-0.07081163 -0.05843476 0.00000235
-0.47822103 -0.27069417 -0.01495656
-0.63273001 0.09128988 -0.14611831
-0.29586297 0.01452899 -0.00000274
-0.02524380 0.76441509 -0.00452067
-0.20923059 -0.48996246 -0.00000010
-0.66712767 -0.41285771 -0.07097215
-0.30522230 0.35954750 -0.05289218
-0.19763707 -0.24149621 0.00000090
-0.27415752 0.25105405 -0.02014815
-0.39941284 -0.29128647 -0.00000050
-0.15987070 -0.63230598 -0.00000034
-0.71494359 -0.44237977 -0.08630391
-0.00749593 -0.55169582 0.00000097
-0.64999110 -0.56678814 -0.03612040
-0.49536195 0.22535157 -0.11086080
-0.59993678 -0.45964894 -0.03367505
-0.76148254 -0.02008200 -0.18171312
-0.50775367 0.13324888 -0.09976363
-0.62826550 -0.61551344 -0.01806554
-0.15496443 -0.30761099 0.00000091
-0.50038558 0.16940185 -0.10304083
-0.34926084 0.16490407 -0.03713064
-0.51415044 0.12747245 -0.10148867
-0.76087135 -0.59066957 -0.07962739
-0.73310667 -0.60480523 -0.06514359
-0.29685482 0.29366505 -0.03753055
-0.60923809 -0.27430746 -0.07075652
-0.11566696 -0.22731511 0.00000145
-0.48191798 -0.48549512 -0.00000173
-0.72664100 -0.12477793 -0.14801966
-0.40121025 -0.72568679 -0.00000214
-0.74580550 -0.26372516 -0.13148072
-0.04779284 -0.31736028 0.00000152
-0.27089176 -0.43323171 -0.00000026
-0.21826267 -0.44567296 0.00000001
-0.25885639 -0.06431024 0.00000120
-0.38495791 -0.55694425 -0.00000141
-0.18586914 -0.03249749 0.00000176
-0.19985262 0.37522909 -0.01029521
-0.37372905 0.23667175 -0.06047901
-0.01531074 -0.30432948 0.00000177
-0.54852653 -0.53724700 -0.00000233
-0.50822031 -0.56232750 -0.00000218
-0.21416958 0.54428494 -0.04663134
-0.17426929 -0.12534688 0.00000148
-0.38429546 -0.18733351 -0.00000002
-0.37989682 -0.53816652 -0.00000131
-0.57190591 -0.50489640 -0.01352438
-0.15762433 0.26760218 -0.00000122
-0.23650821 -0.21157870 0.00000078
-0.06551927 0.70346701 -0.01099593
-0.06252129 0.32792667 -0.00000273
-0.50329852 -0.07884203 -0.05999655
-0.05013412 -0.06276111 0.00000246
-0.27026156 -0.13485816 0.00000086
-0.72319525 -0.21521485 -0.13039663
-0.02390875 0.33099598 -0.00000383
-0.02301785 -0.35136697 0.00000154
-0.31213546 -0.31828374 -0.00000008
-0.48734489 -0.03940463 -0.06016102
-0.08521713 0.47350630 0.00000123
-0.15202110 0.39150330 0.00000140
-0.59995961 -0.79014575 -0.00000358
-0.22445469 -0.60233974 -0.00000061
-0.39545420 -0.14925221 -0.00097034
-0.12772846 0.60563254 -0.02033829
-0.34945235 -0.07904619 0.00000059
-0.21456026 -0.40685284 0.00000018
-0.04598219 -0.63021713 0.00000036
-0.52338749 -0.42497039 -0.00688450
-0.28908604 -0.53630400 -0.00000076
-0.57803965 -0.28842804 -0.05479579
-0.43386930 -0.14119984 -0.01895727
-0.04970410 -0.33387631 0.00000145
-0.19101945 -0.15028927 0.00000128
-0.47864515 -0.11237968 -0.04339057
-0.33553475 -0.64584589 -0.00000145
-0.53336340 -0.60442215 -0.00000249
-0.28245234 -0.41872716 -0.00000027
-0.16151698 0.10641679 -0.00000473
-0.06309422 0.63095188 0.00000410
-0.20457396 -0.56105334 -0.00000034
-0.08607014 0.16493000 -0.00000569
-0.69189388 -0.78371203 -0.01546249
-0.61601281 -0.13104367 -0.09924070
-0.53876805 -0.60450715 -0.00000252
-0.53846371 -0.13444708 -0.06522365
-0.04987011 -0.77010572 -0.00000019
-0.73797923 -0.77973223 -0.03602667
-0.11494217 -0.42552757 0.00000071
-0.23640998 -0.33414766 0.00000032
-0.30721551 -0.61831552 -0.00000117
-0.38240999 -0.36289933 -0.00000067
-0.37491256 -0.39120987 -0.00000073
-0.20537685 0.54157001 -0.04235877
-0.02517043 0.18178868 -0.00000715
-0.38941926 -0.70260829 -0.00000199
-0.21665822 -0.71156734 -0.00000098
-0.44650367 -0.31517482 -0.00000088
-0.08134244 0.06569535 -0.00000807
-0.18255028 -0.04643181 0.00000172
-0.05500718 0.21988901 -0.00000539
-0.52982736 0.11609283 -0.10621191
-0.76643515 -0.37916005 -0.11976859
-0.14898393 0.59342027 -0.02731628
-0.08742570 0.49169251 0.00000170
-0.16638760 0.40291879 -0.00081905
-0.28505322 -0.76563764 -0.00000159
-0.21722151 -0.53287482 -0.00000031
-0.10442458 0.11509656 -0.00000626
-0.38745466 -0.12999691 -0.00096009
-0.09358109 0.28942460 -0.00000266
-0.71445262 -0.43004555 -0.08829345
-0.41360137 -0.11247137 -0.01535205
-0.02979070 -0.32735285 0.00000159
-0.11258184 -0.66780227 -0.00000018
-0.54652435 -0.63543278 -0.00000268
-0.25460923 0.44980615 -0.04719375
-0.63027483 -0.44962937 -0.04853329
-0.22325514 -0.68801910 -0.00000093
-0.11514481 -0.35332909 0.00000098
-0.25798234 -0.48101914 -0.00000036
-0.72704881 -0.27690271 -0.12104860
-0.31266135 0.30558699 -0.04646779
-0.29168689 0.22386293 -0.02284788
-0.04971051 -0.64519209 0.00000028
-0.69896209 -0.61967301 -0.04778061
-0.01408727 0.14239772 -0.00000837
-0.47265261 0.11820323 -0.08195649
-0.68240160 -0.02358978 -0.14701749
-0.08689195 -0.72265279 -0.00000023
-0.33957645 -0.57759678 -0.00000122
-0.03314980 0.21025482 -0.00000627
-0.63528568 0.06185289 -0.14196631
-0.55068362 -0.61425900 -0.00000263
-0.70163524 -0.37028065 -0.09343658
-0.07568694 -0.62618721 0.00000019
-0.26982307 -0.56706715 -0.00000076
-0.34194800 -0.00413620 -0.00381482
-0.33115181 0.02572632 -0.00449259
-0.32034439 0.16384967 -0.02448471
-0.12995441 0.46034062 0.00000228
-0.41423118 -0.65774786 -0.00000197
-0.26805577 -0.20064354 0.00000063
-0.45698038 -0.22673485 -0.01365022
-0.60784763 -0.65495414 -0.00223092
-0.41178435 0.24519210 -0.07839446
-0.10957340 -0.48321480 0.00000053
-0.63852203 -0.29866123 -0.07902668
-0.09120273 0.05854312 -0.00000793
-0.29644349 -0.28861907 0.00000013
-0.47892642 0.12249346 -0.08542497
-0.12322405 0.52760941 -0.00447444
-0.77031052 -0.74081206 -0.05690064
-0.01927032 0.05838228 -0.00001010
-0.11190213 0.08946874 -0.00000661
-0.60338128 -0.08365047 -0.10225613
-0.50117981 -0.38940328 -0.00366398
-0.07798127 -0.71338242 -0.00000015
-0.29597318 0.25400916 -0.03007411
-0.60528016 -0.08664830 -0.10253923
-0.27503890 -0.24139333 0.00000043
-0.17523558 -0.64826494 -0.00000049
-0.03736363 0.14780439 -0.00000755
-0.51629329 -0.33989155 -0.01901055
-0.10772789 -0.74749184 -0.00000045
-0.69485366 -0.11982104 -0.13520961
-0.31841829 -0.16683342 0.00000045
-0.19135843 -0.54234427 -0.00000019
-0.53859949 -0.37974042 -0.02150944
-0.48572618 -0.49522930 -0.00000179
-0.70897985 -0.29914328 -0.10929529
-0.10814009 -0.73451984 -0.00000041
-0.00714716 -0.54956573 0.00000097
-0.26790109 -0.64019156 -0.00000102
-0.35059187 0.32215321 -0.06576527
-0.45364892 -0.19613557 -0.01767542
-0.32431039 0.41912588 -0.07174750
-0.28942993 -0.61713821 -0.00000106
-0.11016939 0.02329794 -0.00000815
-0.62763292 -0.17574425 -0.09627002
-0.71778536 -0.32143712 -0.10911053
-0.28415656 0.38205257 -0.04783267
-0.13892229 0.15079129 -0.00000441
-0.24184883 0.12699635 -0.00000184
-0.06244413 0.46748212 0.00000040
-0.50012362 -0.31119484 -0.01716527
-0.08737302 0.04113234 -0.00000844
-0.15113887 -0.40006495 0.00000059
-0.42246097 0.24763633 -0.08343034
-0.28869587 -0.70249563 -0.00000138
-0.64881843 -0.20067649 -0.10094801
-0.00096315 0.14360516 -0.00000874
-0.14360847 -0.71947765 -0.00000056
-0.36647105 -0.36912230 -0.00000060
-0.43010724 -0.19389550 -0.00793294
-0.04761877 -0.12021295 0.00000226
-0.07151049 0.19308724 -0.00000550
-0.00032094 -0.07947565 0.00000270
-0.46000010 -0.49015045 -0.00000161
-0.61726409 -0.74055970 -0.00000350
-0.26940531 -0.56320196 -0.00000074
-0.26975125 -0.00247628 0.00000136
-0.40065962 0.22980823 -0.07085645
-0.32617790 -0.00201289 0.00000102
-0.55268162 -0.24773538 -0.05113268
-0.53161818 -0.76694864 -0.00000308
-0.19037248 -0.43005443 0.00000024
-0.62157160 -0.59143507 -0.01947849
-0.57424486 0.07273966 -0.11761145
-0.52777064 -0.23598924 -0.04249661
-0.41710389 -0.00075267 -0.03679727
-0.00925118 0.77609962 0.00000574
-0.75721312 -0.12547494 -0.16106625
-0.14949319 0.14391893 -0.00000425
-0.39179295 -0.02503099 -0.02156033
-0.35221320 -0.29497501 -0.00000023
-0.55253321 -0.02220758 -0.09131427
-0.14658600 0.23208578 -0.00000235
-0.40605360 -0.61210948 -0.00000175
-0.53964865 -0.42665273 -0.01358992
-0.30015153 -0.06351238 0.00000095
-0.11558414 -0.10930876 0.00000189
-0.13139015 0.51245511 -0.00528826
-0.56170309 -0.34205624 -0.03818769
-0.11333841 0.03909203 -0.00000770
-0.20011856 -0.49217182 -0.00000005
-0.24039988 -0.22409926 0.00000071
-0.29569238 0.22345801 -0.02450127
-0.40079564 -0.46686926 -0.00000117
-0.21005912 -0.50224972 -0.00000015
-0.19059259 0.17657782 -0.00000228
-0.47448179 -0.10243346 -0.04337182
-0.52721298 -0.10541925 -0.06555665
-0.54014629 -0.01526807 -0.08721610
-0.19511501 -0.53129357 -0.00000017
-0.60943097 -0.50720400 -0.02927914
-0.22540420 -0.68050838 -0.00000091
-0.07262434 0.12161757 -0.00000707
-0.39844808 -0.53549999 -0.00000141
-0.70631617 -0.50261700 -0.07183768
-0.36355948 -0.06483290 -0.00229412
-0.08814739 -0.72292310 -0.00000024
-0.48063084 0.11948424 -0.08562227
-0.57970387 -0.03718597 -0.10034702
-0.61524928 -0.46221808 -0.03981351
-0.14819770 0.43993193 0.00000237
-0.10879509 0.33472255 -0.00000119
-0.11521643 0.63214505 -0.01967903
-0.76002282 -0.07630911 -0.17105043
-0.15458913 0.57503283 -0.02644987
-0.70585048 -0.70119905 -0.03619972
-0.73928905 -0.20601532 -0.13897182
-0.20406151 -0.77539784 -0.00000114
-0.54976481 0.10006141 -0.11194055
-0.71748781 -0.10636660 -0.14736179
-0.17447612 0.06188344 -0.00000534
-0.61553389 -0.36899453 -0.05657192
-0.00970812 -0.68649668 0.00000037
-0.33905557 0.29514480 -0.05597553
-0.55688196 -0.54251480 -0.00033874
-0.02152077 0.45321146 -0.00000115
-0.03678603 0.32716715 -0.00000353
-0.45005733 -0.18962267 -0.01729033
-0.56881058 -0.59280944 -0.00000266
-0.21954755 0.23730133 -0.00000004
-0.42079172 -0.47148362 -0.00000131
-0.27353865 -0.18068439 0.00000067
-0.04612915 0.42599240 -0.00000102
-0.01135215 0.13684648 -0.00000858
-0.55715376 -0.29468235 -0.04468166
-0.06811335 -0.71172750 -0.00000008
-0.27091771 -0.72127277 -0.00000134
-0.48826835 -0.60479653 -0.00000221
-0.43703446 -0.23458032 -0.00365710
-0.25704908 -0.03878109 0.00000130
-0.06279563 0.01718376 -0.00000972
-0.07676964 0.07513239 -0.00000799
-0.21498545 -0.41251659 0.00000016
-0.69702625 -0.33102074 -0.09845691
-0.17410903 0.42829308 -0.00867365
-0.39204946 -0.60545868 -0.00000164
-0.42695972 0.02429630 -0.04551335
-0.24970929 -0.05585132 0.00000128
-0.02342021 -0.03990212 0.00000271
-0.33499572 0.07320231 -0.01462073
-0.46749741 -0.78991419 -0.00000278
-0.14173517 -0.06932916 0.00000188
-0.44197768 0.14181986 -0.07295552
-0.39407447 -0.09639466 -0.00980837
-0.05701623 -0.33461425 0.00000140
-0.07407355 0.02736470 -0.00000915
-0.35147643 0.10573728 -0.02752683
-0.42518580 -0.01741273 -0.03730612
-0.51473105 0.03170263 -0.08464864
-0.52204305 -0.45858511 -0.00030673
-0.07259408 0.26720551 -0.00000380
-0.67776388 -0.29908657 -0.09585696
-0.41348171 -0.61009341 -0.00000178
-0.54610014 0.01177763 -0.09460745
-0.65945280 0.04738415 -0.14979604
-0.57718503 0.17192964 -0.13657865
-0.74660814 -0.20174181 -0.14288755
-0.65112472 -0.30780837 -0.08282387
-0.13919264 0.43531376 0.00000200
-0.12238686 -0.09098013 0.00000192
-0.60082185 0.06912133 -0.12841567
-0.56415063 -0.70738333 -0.00000306
-0.67123234 -0.54519421 -0.04912502
-0.17610440 -0.42523640 0.00000034
-0.53319591 -0.38690841 -0.01790234
-0.34699836 0.27978483 -0.05665645
-0.28836629 0.16042282 -0.01009638
-0.65195465 -0.72111404 -0.00942683
-0.28858104 -0.53911912 -0.00000076
-0.17433354 0.05753689 -0.00000544
-0.30649972 -0.28438377 0.00000008
-0.45057708 -0.04019815 -0.04417911
-0.47191638 -0.17038468 -0.03014067
