ply
format ascii 1.0
element vertex 1106
property float x
property float y
property float z
end_header
-0.37853411 -0.61222386 0.00000012
-0.50462824 -0.40119869 0.00000021
-0.71454114 -0.35756055 -0.00000098
-0.50374192 -0.10765610 -0.00000025
-0.04788697 -0.19299181 0.00000038
-0.11541504 0.05564008 -0.00000761
-0.03527526 -0.31009713 0.00000031
-0.18791088 -0.40567869 0.00000025
-0.31087476 0.48574781 -0.00000016
-0.29942855 -0.66891098 0.00000008
-0.03389829 -0.62040061 0.00000011
-0.19093218 -0.23727690 0.00000035
-0.68176478 0.04412607 -0.00000144
-0.22808404 -0.74421233 0.00000003
-0.15915485 0.53181529 0.00000058
-0.49053815 -0.75129837 0.00000003
-0.34330788 -0.28209758 0.00000032
-0.71266532 -0.21649837 -0.00000119
-0.22210667 -0.69970357 0.00000006
-0.06920027 0.70919001 0.00000077
-0.01128452 0.33289465 -0.00000625
-0.46693432 -0.73202199 0.00000004
-0.24073951 -0.57886457 0.00000014
-0.41857055 -0.18734720 0.00000033
-0.69610500 -0.08192463 -0.00000132
-0.59142590 -0.62346768 0.00000010
-0.23933800 -0.19600834 0.00000038
-0.25365368 -0.26445648 0.00000033
-0.42908165 -0.65445769 0.00000009
-0.36537719 0.24847034 -0.00000008
-0.46037331 0.13355775 -0.00000040
-0.12768598 -0.73226351 0.00000004
-0.02224246 0.04732105 -0.00001056
-0.47903565 -0.49246186 0.00000019
-0.39891717 -0.06505355 0.00000024
-0.57086474 -0.76055783 0.00000002
-0.10576045 0.61777633 0.00000072
-0.50799072 -0.31093252 0.00000005
-0.45749578 -0.34855059 0.00000028
-0.52685726 0.24988224 -0.00000094
-0.48658583 0.17377254 -0.00000060
-0.68906105 -0.54664642 -0.00000054
-0.19320877 -0.06129373 0.00000046
-0.71618265 -0.62512553 -0.00000044
-0.14361914 0.56667697 0.00000060
-0.09224859 -0.05048250 0.00000047
-0.08858550 -0.44340998 0.00000022
-0.21613188 -0.10453304 0.00000043
-0.06731081 0.25515154 -0.00000582
-0.68017578 -0.35140973 -0.00000080
-0.12226905 -0.33262709 0.00000029
-0.05297040 -0.54620594 0.00000016
-0.45309758 0.05784976 -0.00000024
-0.63658184 -0.50685674 -0.00000032
-0.71532935 -0.25438544 -0.00000115
-0.59933770 -0.01085126 -0.00000091
-0.45538381 0.17202444 -0.00000043
-0.35739961 -0.06483172 0.00000046
-0.06361407 0.09209749 -0.00000858
-0.41521010 -0.05782646 0.00000014
-0.60940379 -0.21624024 -0.00000064
-0.47812355 -0.65505064 0.00000009
-0.41483623 0.37489575 -0.00000054
-0.73056453 -0.48969871 -0.00000078
-0.52531630 -0.75544727 0.00000003
-0.29967314 0.24239603 0.00000028
-0.57373667 -0.43597266 -0.00000010
-0.25406873 0.39456055 0.00000029
-0.41927406 0.05118027 -0.00000005
-0.10919690 0.11413321 -0.00000685
-0.01121968 0.34816310 -0.00000600
-0.67016643 -0.04014188 -0.00000124
-0.10163379 0.62931061 0.00000073
-0.15530485 -0.61121166 0.00000012
-0.74996346 -0.78254765 -0.00000004
-0.47265700 -0.77695209 0.00000001
-0.43676409 -0.60165900 0.00000012
-0.48452097 -0.28538030 0.00000014
-0.02586236 0.02699750 -0.00001078
-0.34024996 0.10206664 0.00000029
-0.75181204 -0.60138506 -0.00000050
-0.08069338 0.26559106 -0.00000525
-0.18074873 -0.17304875 0.00000039
-0.63433081 -0.05199194 -0.00000103
-0.19028202 -0.01822535 0.00000049
-0.30583224 -0.20008104 0.00000037
-0.20169741 0.45492521 0.00000047
-0.44000572 -0.78436190 0.00000001
-0.18015724 0.00301799 -0.00000651
-0.15098178 0.48534954 0.00000069
-0.79685801 -0.12453282 -0.00000169
-0.27395916 0.42169285 0.00000014
-0.05495802 -0.65065873 0.00000009
-0.51842988 -0.12229842 -0.00000030
-0.36399683 0.21916591 -0.00000002
-0.30618954 0.30080953 0.00000016
-0.75199372 -0.09762458 -0.00000159
-0.08018217 -0.11527129 0.00000043
-0.49461195 -0.30709699 0.00000012
-0.06055887 0.37413046 -0.00000409
-0.57814115 0.05610684 -0.00000091
-0.36437544 -0.35221830 0.00000028
-0.56418473 -0.56562775 0.00000015
-0.20418909 0.53656787 0.00000033
-0.60426593 -0.31163937 -0.00000046
-0.64269948 -0.51793247 -0.00000034
-0.67697507 -0.36541021 -0.00000076
-0.29367366 -0.43282187 0.00000023
-0.23052248 0.23854296 -0.00000117
-0.53985327 0.10859388 -0.00000078
-0.41035065 0.06654612 -0.00000003
-0.43188611 -0.42952487 0.00000023
-0.67623615 -0.63457835 -0.00000033
-0.01980304 0.47625646 -0.00000366
-0.12766682 -0.06039895 0.00000046
-0.17228076 0.56722623 0.00000045
-0.10200678 -0.15427107 0.00000040
-0.19030982 -0.51478720 0.00000018
-0.12240852 -0.77386296 0.00000002
-0.30512676 0.12459295 0.00000044
-0.68443084 -0.76602310 -0.00000008
-0.28510991 0.44123495 0.00000005
-0.55416715 -0.05164758 -0.00000061
-0.37458676 0.39780152 -0.00000036
-0.44639921 -0.04031076 -0.00000005
-0.69816542 -0.60898405 -0.00000048
-0.22822131 -0.21078658 0.00000037
-0.64713413 -0.34314659 -0.00000064
-0.69841689 -0.41648424 -0.00000080
-0.13419355 0.16892056 -0.00000521
-0.45239756 -0.30572948 0.00000031
-0.59584248 -0.44880548 -0.00000020
-0.23988819 -0.44809118 0.00000022
-0.21138620 -0.23098280 0.00000036
-0.45321429 -0.29905355 0.00000031
-0.02624338 0.27183846 -0.00000679
-0.76452547 -0.20518570 -0.00000149
-0.27139825 -0.60801232 0.00000012
-0.52668440 -0.48843268 0.00000019
-0.54614884 -0.22177555 -0.00000029
-0.79416621 -0.64891833 -0.00000038
-0.57541174 -0.56191808 0.00000009
-0.55124635 -0.70126319 0.00000006
-0.60711241 -0.12158729 -0.00000078
-0.35452536 0.32468584 -0.00000014
-0.09055877 -0.21264306 0.00000037
-0.25818577 0.08156006 -0.00000288
-0.39148438 -0.48997796 0.00000019
-0.36494055 -0.40110528 0.00000025
-0.18073937 -0.32068056 0.00000030
-0.77976531 -0.03039225 -0.00000184
-0.00343836 0.64349514 -0.00000144
-0.44746500 -0.16767949 0.00000015
-0.14364678 -0.33710903 0.00000029
-0.73614866 -0.09052959 -0.00000152
-0.53578180 -0.07846840 -0.00000047
-0.18014757 0.25733599 -0.00000238
-0.71817499 -0.58608437 -0.00000053
-0.00145996 -0.00174506 0.00000052
-0.76923656 -0.18072817 -0.00000155
-0.26111448 -0.42052972 0.00000024
-0.07177240 0.70882809 0.00000076
-0.06328625 -0.11242309 0.00000043
-0.41550672 -0.06090595 0.00000015
-0.34422517 -0.73603004 0.00000004
-0.40619078 -0.27165291 0.00000033
-0.14935784 0.50504792 0.00000067
-0.13703001 0.42955869 -0.00000088
-0.20239243 0.24527384 -0.00000191
-0.40365770 0.11703815 -0.00000007
-0.46167582 0.01188225 -0.00000021
-0.30993599 -0.40655679 0.00000025
-0.51112717 -0.48365781 0.00000020
-0.21670665 -0.42438444 0.00000023
-0.02923183 0.59837264 -0.00000139
-0.56786299 -0.52811456 0.00000008
-0.15384227 -0.53910702 0.00000016
-0.24507552 -0.33861569 0.00000029
-0.79886764 -0.28253898 -0.00000129
-0.19507918 0.36677477 0.00000065
-0.25840741 0.04914937 -0.00000340
-0.66662812 0.03718056 -0.00000135
-0.60303891 -0.25226504 -0.00000055
-0.44229132 0.11611159 -0.00000028
-0.31905943 -0.77569824 0.00000002
-0.14545707 -0.60461122 0.00000012
-0.67895854 -0.06827281 -0.00000125
-0.60288668 -0.37508184 -0.00000035
-0.64285630 -0.51980996 -0.00000034
-0.69304156 -0.17588867 -0.00000115
-0.02583802 -0.19079490 0.00000038
-0.05889180 -0.66395903 0.00000009
-0.14750630 0.11717522 -0.00000564
-0.18299581 0.57643634 0.00000038
-0.29772809 0.17135337 0.00000041
-0.30771270 0.11411801 0.00000045
-0.19546671 0.51264554 0.00000041
-0.11571546 -0.72182620 0.00000005
-0.69693953 -0.20661719 -0.00000112
-0.28805912 -0.61032379 0.00000012
-0.12703791 -0.78023386 0.00000001
-0.02310463 -0.23421237 0.00000035
-0.06487689 0.20344546 -0.00000674
-0.66943467 -0.42848256 -0.00000062
-0.32319191 0.43273863 -0.00000014
-0.13115685 -0.53054529 0.00000017
-0.16803011 -0.25521696 0.00000034
-0.55716336 -0.34905097 -0.00000015
-0.76636744 -0.14016058 -0.00000160
-0.61088002 -0.62469184 -0.00000000
-0.48332867 -0.06081000 -0.00000021
-0.07016033 0.45508021 -0.00000249
-0.17116152 0.57038391 0.00000045
-0.10791758 -0.52815616 0.00000017
-0.52182668 -0.00294900 -0.00000051
-0.61179912 -0.54847455 -0.00000013
-0.02193910 0.29797444 -0.00000650
-0.64340895 -0.16507117 -0.00000090
-0.31074184 -0.11897912 0.00000043
-0.72029465 -0.24980713 -0.00000118
-0.52198356 -0.00828399 -0.00000050
-0.49163678 0.30519828 -0.00000084
-0.41014391 -0.19499385 0.00000038
-0.35832000 -0.55977601 0.00000015
-0.36629432 0.41038710 -0.00000034
-0.50067687 -0.02159542 -0.00000037
-0.36548948 0.08648286 0.00000018
-0.21559729 -0.59948939 0.00000013
-0.52286685 0.27332658 -0.00000090
-0.38880315 -0.37414992 0.00000027
-0.47246784 0.05057127 -0.00000033
-0.50369912 -0.49829337 0.00000019
-0.15207124 -0.35859022 0.00000028
-0.10363220 -0.39686438 0.00000025
-0.15380281 -0.05132948 0.00000047
-0.04463226 0.42242265 -0.00000379
-0.37130997 -0.61996394 0.00000011
-0.54326344 0.21463093 -0.00000097
-0.33079839 0.18689027 0.00000021
-0.30019644 -0.79233831 0.00000000
-0.29340324 -0.68961525 0.00000007
-0.43786567 -0.31683242 0.00000030
-0.58053577 0.21310738 -0.00000117
-0.10166683 -0.45606425 0.00000021
-0.06880505 0.55237222 -0.00000095
-0.08342129 -0.08435469 0.00000045
-0.76077771 -0.66445303 -0.00000034
-0.16551648 -0.36500728 0.00000027
-0.46443626 0.23761094 -0.00000059
-0.37159830 -0.29942369 0.00000031
-0.40759191 -0.63195693 0.00000011
-0.70702958 -0.03824167 -0.00000144
-0.29804304 -0.03333822 0.00000048
-0.26092422 -0.75796783 0.00000003
-0.70046663 -0.25555995 -0.00000106
-0.33483362 -0.11807625 0.00000043
-0.57936949 0.17897904 -0.00000111
-0.44767249 -0.70404744 0.00000006
-0.42881259 -0.13975665 0.00000020
-0.09393176 -0.55689329 0.00000015
-0.04501419 -0.07551839 0.00000045
-0.45620319 -0.15952341 0.00000009
-0.25763637 -0.71170735 0.00000006
-0.25615522 -0.24837548 0.00000034
-0.27584058 0.17417738 0.00000052
-0.73231286 -0.19271407 -0.00000133
-0.39495009 0.38905653 -0.00000046
-0.38278729 -0.56264800 0.00000015
-0.29808331 -0.56773907 0.00000015
-0.07389640 -0.77629220 0.00000001
-0.66647381 -0.65431434 -0.00000025
-0.29464728 -0.02082895 0.00000049
-0.55399996 -0.11712525 -0.00000050
-0.64458346 -0.53995591 -0.00000032
-0.68365848 0.04170251 -0.00000145
-0.57758582 -0.53787059 0.00000004
-0.25651792 -0.50079823 0.00000019
-0.19847782 -0.67811477 0.00000008
-0.72399718 -0.32129854 -0.00000109
-0.65055901 0.06976073 -0.00000131
-0.31986421 0.40579912 -0.00000008
-0.23178914 -0.23164114 0.00000036
-0.52953690 0.13543881 -0.00000077
-0.12286959 0.04924561 -0.00000749
-0.61536604 -0.57429981 -0.00000010
-0.19447196 -0.50858802 0.00000018
-0.17965642 0.08977668 -0.00000512
-0.06347637 -0.61427975 0.00000012
-0.31267244 0.06238612 0.00000050
-0.08358577 -0.02104217 0.00000049
-0.37396410 0.28329721 -0.00000018
-0.73210031 -0.75262880 -0.00000012
-0.49189037 -0.15975331 -0.00000010
-0.33649439 0.33816686 -0.00000006
-0.70205849 -0.32317787 -0.00000097
-0.67924571 -0.15194507 -0.00000112
-0.22617126 0.13315456 -0.00000301
-0.74861932 -0.45159170 -0.00000087
-0.52369016 -0.15740947 -0.00000028
-0.32367304 0.37181962 -0.00000005
-0.04592839 0.53860134 -0.00000186
-0.17843424 -0.25566202 0.00000034
-0.68443018 -0.72355992 -0.00000019
-0.16134250 -0.43575576 0.00000023
-0.24567750 0.52788699 0.00000012
-0.45997918 -0.68708318 0.00000007
-0.10972623 0.07786392 -0.00000742
-0.57264537 -0.04864923 -0.00000071
-0.75164557 -0.10136672 -0.00000158
-0.36723745 0.28936461 -0.00000015
-0.50330240 -0.36095652 0.00000015
-0.00003136 -0.19270901 0.00000038
-0.13500801 -0.26147598 0.00000034
-0.58042407 -0.57232541 0.00000008
-0.09183069 -0.29272512 0.00000032
-0.40569848 -0.49362561 0.00000019
-0.52454722 -0.42417935 0.00000014
-0.16053811 -0.35864756 0.00000028
-0.35853395 0.32013723 -0.00000015
-0.57071561 -0.00882658 -0.00000076
-0.29321587 0.26011464 0.00000029
-0.17853916 0.13017049 -0.00000450
-0.65488380 -0.56614870 -0.00000033
-0.50212431 -0.30376470 0.00000007
-0.22707634 0.16636875 -0.00000244
-0.72305375 -0.55830944 -0.00000060
-0.27812433 -0.67007494 0.00000008
-0.44456479 -0.79630703 0.00000000
-0.16114770 0.44839078 0.00000070
-0.71111733 -0.67604679 -0.00000031
-0.25237796 0.17968132 -0.00000146
-0.22303686 -0.00246397 0.00000050
-0.56710523 -0.71333915 0.00000005
-0.04371722 -0.02603219 0.00000048
-0.65199310 -0.01139920 -0.00000119
-0.01906881 0.22788689 -0.00000772
-0.18790802 0.20862968 -0.00000294
-0.57754165 -0.59151733 0.00000012
-0.34677157 -0.77276105 0.00000002
-0.18758553 0.07853368 -0.00000506
-0.18905137 0.43862262 0.00000056
-0.66035569 -0.10667409 -0.00000109
-0.65035486 -0.01549838 -0.00000118
-0.65942639 0.08892087 -0.00000139
-0.28117704 0.26642430 0.00000035
-0.54594165 -0.15195586 -0.00000040
-0.59862554 0.12491374 -0.00000112
-0.05360371 0.36514065 -0.00000445
-0.35647970 -0.46018836 0.00000021
-0.33018544 -0.22964796 0.00000036
-0.74857801 -0.79688591 -0.00000001
-0.53741229 -0.64957637 0.00000009
-0.42300600 -0.05057914 0.00000009
-0.35782492 -0.07030845 0.00000046
-0.23473237 0.03094471 -0.00000441
-0.08370277 -0.03460430 0.00000048
-0.71376938 -0.20257287 -0.00000122
-0.73987705 -0.00690952 -0.00000167
-0.66149163 -0.41494191 -0.00000060
-0.21466342 -0.06346895 0.00000046
-0.02208006 0.10608290 -0.00000961
-0.11336434 0.39194283 -0.00000221
-0.59279060 -0.59008467 0.00000004
-0.35833627 0.15721960 0.00000011
-0.24863219 0.01138097 -0.00000431
-0.79336298 -0.37922361 -0.00000105
-0.35377058 0.15720499 0.00000013
-0.52837348 -0.06286648 -0.00000045
-0.17062715 -0.60013425 0.00000012
-0.23971540 -0.12178447 0.00000042
-0.23541149 -0.32033285 0.00000030
-0.19387698 0.38693598 0.00000062
-0.10951974 0.19032317 -0.00000560
-0.14409801 0.22896308 -0.00000393
-0.11537926 -0.18987958 0.00000038
-0.50788105 -0.27393317 -0.00000001
-0.02192443 0.45005322 -0.00000403
-0.10480082 0.36462298 -0.00000291
-0.27472606 -0.21242584 0.00000037
-0.04560036 -0.34929335 0.00000028
-0.69190830 0.10779883 -0.00000159
-0.55996221 -0.70536798 0.00000006
-0.47360906 -0.48775759 0.00000020
-0.02045089 0.36584011 -0.00000544
-0.68077916 -0.61833268 -0.00000038
-0.43940562 -0.43571711 0.00000023
-0.06745060 -0.13103107 0.00000042
-0.34118292 0.06171248 0.00000035
-0.03809808 0.03391185 -0.00001030
-0.23209617 0.02172881 -0.00000464
-0.15976699 -0.16866361 0.00000039
-0.49437958 -0.60290152 0.00000012
-0.28622329 -0.61979061 0.00000011
-0.32656381 -0.23966987 0.00000035
-0.60750300 -0.46776611 -0.00000023
-0.18547878 0.31100571 -0.00000135
-0.00238720 -0.51546443 0.00000021
-0.45172560 -0.27606970 0.00000030
-0.28321433 -0.41609657 0.00000024
-0.05422135 0.13341554 -0.00000820
-0.10073461 -0.30140361 0.00000031
-0.02113060 0.04827732 -0.00001058
-0.58846933 -0.31712505 -0.00000037
-0.23273233 0.35899511 0.00000046
-0.17706951 -0.76364344 0.00000002
-0.71598530 -0.48972815 -0.00000078
-0.02683034 0.46521538 -0.00000363
-0.29631269 0.42794049 0.00000001
-0.77549845 -0.26812539 -0.00000133
-0.69393933 -0.33800352 -0.00000090
-0.07463893 -0.14375879 0.00000041
-0.04223778 -0.67929018 0.00000008
-0.35338420 -0.23607185 0.00000035
-0.74263275 -0.37595385 -0.00000106
-0.68431818 -0.10161385 -0.00000122
-0.33118042 0.38886595 -0.00000012
-0.65600634 -0.56357092 -0.00000034
-0.11029715 -0.63092422 0.00000011
-0.27099034 -0.51654166 0.00000018
-0.23518494 -0.67478991 0.00000008
-0.49271452 -0.59549052 0.00000013
-0.34784427 0.33116731 -0.00000011
-0.09230995 -0.29447073 0.00000032
-0.76682532 -0.02943868 -0.00000178
-0.16833654 -0.54500318 0.00000016
-0.72600013 -0.32500198 -0.00000109
-0.12830654 -0.14821325 0.00000041
-0.44974482 -0.66000378 0.00000009
-0.54573590 -0.15275110 -0.00000040
-0.13978949 -0.07012435 0.00000046
-0.18409409 -0.37411729 0.00000027
-0.02417923 0.52709818 -0.00000270
-0.01133083 -0.66673213 0.00000008
-0.08217098 0.56484228 -0.00000034
-0.66442084 -0.75985789 -0.00000007
-0.50069362 -0.75997758 0.00000003
-0.26295114 0.01884925 -0.00000376
-0.18426961 -0.08867428 0.00000044
-0.63417196 -0.62877643 -0.00000012
-0.11577423 -0.24342734 0.00000035
-0.64111626 -0.27175024 -0.00000072
-0.43787283 -0.43665078 0.00000023
-0.54996651 -0.46400300 0.00000007
-0.31658670 -0.28595975 0.00000032
-0.10416711 0.09904832 -0.00000725
-0.73798460 -0.43951657 -0.00000090
-0.39750260 -0.38054913 0.00000026
-0.26933777 -0.13166250 0.00000042
-0.53491324 -0.57577705 0.00000014
-0.29239497 -0.16936311 0.00000039
-0.06294828 -0.18805829 0.00000038
-0.38457200 0.33379570 -0.00000031
-0.34400550 -0.42647809 0.00000023
-0.11613667 -0.73819083 0.00000004
-0.75807774 -0.22343412 -0.00000142
-0.01650252 0.02561268 -0.00001109
-0.75321031 -0.44796497 -0.00000088
-0.20687164 -0.36811098 0.00000027
-0.40743479 0.10325877 -0.00000007
-0.24931061 -0.11944591 0.00000043
-0.73203111 -0.20397744 -0.00000131
-0.11656537 -0.53373915 0.00000017
-0.46041685 -0.78341842 0.00000001
-0.19719687 -0.58066344 0.00000014
-0.27583030 0.50378460 -0.00000000
-0.58389688 -0.70146209 0.00000006
-0.21554488 -0.11807650 0.00000043
-0.12866615 -0.42322415 0.00000024
-0.20772222 0.51614690 0.00000034
-0.57350731 -0.28879333 -0.00000033
-0.25055289 0.00110670 -0.00000442
-0.54098517 -0.18731004 -0.00000032
-0.76480752 -0.65434039 -0.00000036
-0.31536049 0.20524535 0.00000026
-0.69282734 -0.71464509 -0.00000021
-0.47580442 -0.44931024 0.00000022
-0.50687218 -0.18597400 -0.00000014
-0.09380145 0.13679263 -0.00000695
-0.11890947 -0.50628430 0.00000018
-0.21139184 0.32226396 0.00000063
-0.59927881 -0.43441242 -0.00000024
-0.14363520 -0.33205566 0.00000029
-0.19162939 -0.58518785 0.00000013
-0.44116518 -0.70902663 0.00000006
-0.55221933 -0.33955273 -0.00000014
-0.16343533 -0.33890283 0.00000029
-0.22141133 0.43681395 0.00000039
-0.54772741 -0.35417968 -0.00000009
-0.32387000 -0.05092972 0.00000047
-0.66639209 -0.09794836 -0.00000113
-0.50993854 -0.73075247 0.00000004
-0.18370472 -0.58129382 0.00000014
-0.15829304 0.62899917 0.00000043
-0.09131786 -0.14540909 0.00000041
-0.72180527 -0.00894734 -0.00000157
-0.59741139 -0.30661824 -0.00000043
-0.41736582 0.22273618 -0.00000031
-0.02401970 -0.78372347 0.00000001
-0.40804726 0.37956116 -0.00000051
-0.12060002 -0.41358897 0.00000024
-0.51619297 -0.13287973 -0.00000028
-0.11847362 -0.43788439 0.00000023
-0.25282431 -0.01415018 0.00000049
-0.73239619 -0.47677082 -0.00000081
-0.66996902 0.06428353 -0.00000141
-0.52081311 -0.26178780 -0.00000010
-0.26458669 0.15537909 -0.00000149
-0.70085347 -0.44197085 -0.00000077
-0.54666883 -0.40105081 -0.00000001
-0.51808977 -0.36892560 0.00000009
-0.14036803 -0.30798271 0.00000031
-0.12977412 -0.37410399 0.00000027
-0.57803255 -0.34599504 -0.00000027
-0.02496623 -0.77009094 0.00000002
-0.56148130 -0.35661918 -0.00000016
-0.46003982 -0.57918024 0.00000014
-0.60793388 -0.03316794 -0.00000092
-0.51721603 -0.06763005 -0.00000038
-0.02364202 0.47299951 -0.00000360
-0.08058847 0.70766360 0.00000072
-0.06886471 0.41243574 -0.00000322
-0.06779676 0.38172144 -0.00000375
-0.71986127 -0.79795676 -0.00000001
-0.01532348 -0.35579103 0.00000028
-0.32081312 0.05414202 0.00000047
-0.10707357 -0.53696007 0.00000016
-0.58056980 -0.55950272 0.00000006
-0.49375263 -0.61147994 0.00000012
-0.29957232 -0.39081928 0.00000026
-0.18418150 -0.18639974 0.00000038
-0.48088297 0.09050066 -0.00000044
-0.72570896 -0.73319870 -0.00000017
-0.24469970 -0.34600657 0.00000028
-0.47363779 0.29565230 -0.00000073
-0.35677320 -0.57046008 0.00000014
-0.23177294 0.56408679 0.00000019
-0.14415088 0.49669516 0.00000071
-0.14416292 -0.65593922 0.00000009
-0.00367916 -0.25849435 0.00000034
-0.68549293 -0.06827903 -0.00000128
-0.38790631 -0.46539336 0.00000021
-0.56398702 -0.74044865 0.00000004
-0.15742581 0.00120963 -0.00000723
-0.72998965 -0.59902114 -0.00000050
-0.21254486 -0.67986977 0.00000008
-0.36298919 -0.20404153 0.00000037
-0.40565351 0.30095577 -0.00000037
-0.19592744 -0.77284998 0.00000002
-0.40545812 0.20252693 -0.00000022
-0.27150434 -0.25444579 0.00000034
-0.71276104 -0.03876502 -0.00000147
-0.10289619 -0.34869850 0.00000028
-0.16350920 -0.72953504 0.00000004
-0.23272513 -0.67891616 0.00000008
-0.73749542 -0.00073153 -0.00000167
-0.47680840 -0.31390193 0.00000022
-0.13732301 -0.59476835 0.00000013
-0.00239242 -0.49190015 0.00000019
-0.00681182 -0.33051896 0.00000029
-0.45951384 0.31163526 -0.00000068
-0.22115888 -0.53575271 0.00000017
-0.36641002 -0.28994900 0.00000032
-0.41792256 -0.57669556 0.00000014
-0.13780709 0.21936966 -0.00000428
-0.29259548 -0.68977022 0.00000007
-0.55967647 -0.18584120 -0.00000042
-0.04844386 -0.68446690 0.00000007
-0.29540262 0.29089373 0.00000023
-0.68418711 -0.01277051 -0.00000136
-0.07326804 0.55833393 -0.00000072
-0.62645322 0.16433293 -0.00000133
-0.79424095 -0.14685570 -0.00000163
-0.16218574 0.32629064 -0.00000180
-0.04678875 -0.63174236 0.00000011
-0.59401649 -0.28516477 -0.00000045
-0.07842184 0.31972867 -0.00000444
-0.54145592 -0.76120049 0.00000002
-0.59063649 -0.00279857 -0.00000088
-0.78576988 -0.36493522 -0.00000109
-0.53915906 -0.56171852 0.00000015
-0.22048753 -0.75301403 0.00000003
-0.38301390 -0.08939831 0.00000037
-0.40578213 -0.62062067 0.00000011
-0.04587602 0.09549917 -0.00000906
-0.27212259 -0.34792686 0.00000028
-0.26017201 -0.26032245 0.00000034
-0.08570036 -0.75532186 0.00000003
-0.31382248 -0.33521903 0.00000029
-0.54950804 0.24851985 -0.00000103
-0.19784132 0.59893000 0.00000026
-0.55076993 -0.59693789 0.00000013
-0.26881230 0.48285499 0.00000007
-0.73306799 -0.07191760 -0.00000153
-0.41558567 0.06448928 -0.00000005
-0.19546384 0.11055499 -0.00000430
-0.75994682 -0.01217265 -0.00000177
-0.30718690 -0.23020016 0.00000036
-0.57062900 -0.08001165 -0.00000065
-0.54937673 -0.05862519 -0.00000057
-0.52308553 -0.75904995 0.00000003
-0.60307461 -0.02838862 -0.00000090
-0.19433206 -0.26313704 0.00000034
-0.14641230 0.64039129 0.00000047
-0.29157922 0.35200146 0.00000015
-0.46262982 -0.05578222 -0.00000011
-0.22193763 -0.15988760 0.00000040
-0.45402342 -0.25171742 0.00000024
-0.17372254 -0.00221200 0.00000050
-0.25570965 0.43516392 0.00000021
-0.22357509 -0.42137319 0.00000024
-0.72829652 -0.32336077 -0.00000111
-0.56211239 -0.56216031 0.00000015
-0.60803628 0.08599029 -0.00000111
-0.43994081 -0.45577547 0.00000022
-0.21570000 0.07376934 -0.00000429
-0.73865205 -0.50078464 -0.00000075
-0.20059483 -0.37957615 0.00000026
-0.33957234 0.42057553 -0.00000021
-0.11238923 0.32817966 -0.00000328
-0.55946577 -0.31620985 -0.00000022
-0.41135895 -0.68994814 0.00000007
-0.18612616 -0.59755474 0.00000013
-0.12602071 -0.72605675 0.00000005
-0.75611824 -0.59085512 -0.00000052
-0.27054167 -0.13640317 0.00000041
-0.04600871 -0.65301198 0.00000009
-0.57584596 0.17247330 -0.00000108
-0.11364117 -0.40027142 0.00000025
-0.48643595 -0.32096770 0.00000018
-0.54499352 -0.73992950 0.00000004
-0.19884787 -0.69790637 0.00000006
-0.33800915 0.36562836 -0.00000011
-0.03323170 -0.47642088 0.00000020
-0.34614429 -0.11298422 0.00000043
-0.71621484 -0.08429933 -0.00000142
-0.37347940 0.35388362 -0.00000029
-0.46545649 0.08165621 -0.00000034
-0.45423430 -0.52967507 0.00000017
-0.54699486 0.10857219 -0.00000082
-0.19499780 0.59455562 0.00000029
-0.13871288 -0.61574090 0.00000012
-0.23218869 0.30048355 0.00000055
-0.34990892 -0.73386627 0.00000004
-0.59331334 0.20283897 -0.00000122
-0.32401437 -0.61468929 0.00000012
-0.40995169 -0.24026470 0.00000035
-0.30324584 -0.16231272 0.00000040
-0.07443394 0.29739034 -0.00000492
-0.79611397 -0.38996515 -0.00000103
-0.26442939 -0.35808864 0.00000028
-0.28457576 0.45920905 0.00000002
-0.60433686 -0.20591137 -0.00000063
-0.20080151 0.51100236 0.00000039
-0.02108170 -0.47979769 0.00000020
-0.03818441 -0.66043288 0.00000009
-0.05108281 -0.48889408 0.00000019
-0.27436185 -0.55565697 0.00000015
-0.27269605 -0.55269796 0.00000015
-0.13087609 0.14768533 -0.00000565
-0.07903869 0.25429779 -0.00000548
-0.52519351 -0.55751401 0.00000015
-0.53528267 -0.56532246 0.00000015
-0.17332999 -0.34038833 0.00000029
-0.43615988 -0.49300924 0.00000019
-0.73752093 -0.36146778 -0.00000109
-0.31784734 -0.69187707 0.00000007
-0.60926998 -0.24328998 -0.00000060
-0.75130582 -0.44454896 -0.00000089
-0.33143812 -0.31021255 0.00000031
-0.15637571 0.51463830 0.00000062
-0.39448389 -0.21103621 0.00000037
-0.65885139 -0.15783778 -0.00000100
-0.06734370 -0.74949247 0.00000003
-0.74802184 -0.31815550 -0.00000120
-0.72350699 -0.21109708 -0.00000126
-0.06280597 -0.09781654 0.00000044
-0.41160905 0.18268217 -0.00000022
-0.60219210 -0.58047551 -0.00000002
-0.64874077 -0.69899660 -0.00000009
-0.17647780 0.06551186 -0.00000561
-0.48863918 -0.04185737 -0.00000027
-0.05034156 0.70259774 0.00000089
-0.01176099 0.74058270 0.00000039
-0.78016710 -0.41295511 -0.00000097
-0.53829765 -0.07629137 -0.00000048
-0.25852025 0.50378191 0.00000009
-0.00754995 -0.62026632 0.00000011
-0.00544967 0.59843540 -0.00000211
-0.18758412 -0.73254776 0.00000004
-0.08255641 -0.71196151 0.00000006
-0.01115035 0.24543975 -0.00000768
-0.12903078 -0.14530323 0.00000041
-0.31009793 -0.36649463 0.00000027
-0.72355449 -0.07278253 -0.00000148
-0.31521994 -0.38496119 0.00000026
-0.04492766 0.11420041 -0.00000879
-0.69895828 -0.51816672 -0.00000064
-0.46923411 0.00846339 -0.00000025
-0.20627879 0.13416028 -0.00000359
-0.21845499 0.35388726 0.00000054
-0.10151480 -0.23491134 0.00000035
-0.31927484 0.10455425 0.00000040
-0.26621279 -0.36984462 0.00000027
-0.60220397 -0.46032956 -0.00000022
-0.00790808 0.21750212 -0.00000823
-0.38356459 -0.22585917 0.00000036
-0.37293041 -0.11747999 0.00000043
-0.00554175 0.79136419 0.00000103
-0.00753072 -0.65169019 0.00000009
-0.79999822 -0.50283515 -0.00000074
-0.39367491 -0.43743110 0.00000023
-0.67791802 -0.79885697 -0.00000000
-0.18323416 -0.32307208 0.00000030
-0.28185096 -0.42881745 0.00000023
-0.15094568 -0.13362557 0.00000042
-0.53509223 -0.00911591 -0.00000057
-0.12510137 -0.39590999 0.00000025
-0.19431198 0.51497406 0.00000042
-0.24412020 0.20538212 -0.00000130
-0.30455703 -0.62167788 0.00000011
-0.54989547 -0.02986591 -0.00000062
-0.42765298 -0.28757709 0.00000032
-0.00672362 0.73359507 0.00000012
-0.24056616 -0.67928839 0.00000008
-0.06049073 0.22515576 -0.00000652
-0.42071518 -0.09735950 0.00000018
-0.13111518 -0.25290120 0.00000034
-0.24520625 0.54130054 0.00000010
-0.15030421 -0.11020669 0.00000043
-0.51077676 0.06999756 -0.00000057
-0.32380685 0.19296348 0.00000023
-0.04087853 -0.75910234 0.00000003
-0.45839393 -0.75426739 0.00000003
-0.10876606 -0.24571921 0.00000035
-0.50744849 -0.71600294 0.00000005
-0.24860910 -0.13668346 0.00000041
-0.03412685 0.54261029 -0.00000215
-0.18526658 -0.29809135 0.00000031
-0.23218071 0.02250611 -0.00000463
-0.55316341 0.06338530 -0.00000078
-0.19797356 0.49322104 0.00000043
-0.08653875 0.34065190 -0.00000385
-0.53595960 -0.19083922 -0.00000029
-0.32167831 -0.61366165 0.00000012
-0.62845045 0.13200419 -0.00000129
-0.34394053 -0.47416949 0.00000020
-0.34836483 -0.78563762 0.00000001
-0.10690410 -0.78948766 0.00000001
-0.13531625 -0.55882984 0.00000015
-0.78962690 -0.47645873 -0.00000081
-0.49625891 -0.46875098 0.00000021
-0.44080827 -0.53303206 0.00000017
-0.38968334 -0.68255168 0.00000007
-0.78615457 -0.43410280 -0.00000091
-0.79302317 -0.01969744 -0.00000193
-0.58173227 -0.58403820 0.00000009
-0.41957831 -0.56065476 0.00000015
-0.12604429 -0.15724328 0.00000040
-0.60797536 0.18506391 -0.00000127
-0.59095347 -0.46487284 -0.00000015
-0.15717964 0.52737445 0.00000059
-0.19382630 -0.44503355 0.00000022
-0.13585630 -0.02622214 0.00000048
-0.00793073 -0.32597226 0.00000030
-0.55644542 -0.40570921 -0.00000006
-0.02056105 -0.26271573 0.00000034
-0.10727762 -0.38015524 0.00000026
-0.52399421 0.18604968 -0.00000082
-0.42052439 0.28630543 -0.00000043
-0.21573250 -0.76765394 0.00000002
-0.13366701 0.10377925 -0.00000628
-0.53973103 -0.32627225 -0.00000009
-0.31256506 0.10736731 0.00000043
-0.60991734 -0.39193621 -0.00000036
-0.13158433 0.26010239 -0.00000380
-0.06075166 -0.23803338 0.00000035
-0.45595115 -0.08630982 -0.00000003
-0.76503694 -0.13104331 -0.00000161
-0.75014353 -0.79479861 -0.00000001
-0.38487393 -0.17043917 0.00000039
-0.15918940 0.03038901 -0.00000670
-0.76205766 0.03754079 -0.00000185
-0.57170761 -0.55349034 0.00000009
-0.33335426 0.42921972 -0.00000019
-0.27254722 0.45327407 0.00000010
-0.51589733 -0.62911969 0.00000011
-0.59899753 -0.45641461 -0.00000020
-0.22511193 -0.55363482 0.00000015
-0.12404048 0.60458142 0.00000065
-0.68391609 -0.32844824 -0.00000086
-0.52251279 0.08711767 -0.00000066
-0.18227826 -0.02072929 0.00000049
-0.42083293 0.13189098 -0.00000019
-0.17626175 0.16303137 -0.00000403
-0.09224333 0.34125242 -0.00000367
-0.23485921 0.56243742 0.00000016
-0.14464182 0.45183146 0.00000078
-0.41787761 -0.69037837 0.00000007
-0.10757524 -0.05156185 0.00000047
-0.00626207 -0.31458017 0.00000040
-0.72332460 -0.22637475 -0.00000123
-0.27418241 -0.22940315 0.00000036
-0.14389156 -0.21015199 0.00000037
-0.77974319 -0.61928666 -0.00000045
-0.13971467 -0.31322426 0.00000030
-0.05966297 0.07709354 -0.00000895
-0.70342964 -0.30005825 -0.00000101
-0.41873860 -0.73852289 0.00000004
-0.25106362 -0.61991233 0.00000011
-0.78433299 -0.63001186 -0.00000042
-0.16579191 -0.58321214 0.00000014
-0.61637396 -0.05290589 -0.00000094
-0.39374357 -0.61161071 0.00000012
-0.29897514 0.10682152 0.00000050
-0.35979670 -0.42193642 0.00000024
-0.06567583 0.33413175 -0.00000459
-0.28926376 0.50494617 0.00000000
-0.59305710 0.01783259 -0.00000092
-0.12549242 0.19919437 -0.00000498
-0.74260461 0.04318126 -0.00000176
-0.55137008 -0.26755741 -0.00000025
-0.05530151 0.10497696 -0.00000863
-0.02867326 0.08581698 -0.00000974
-0.41999224 0.35719663 -0.00000054
-0.16577069 0.13525183 -0.00000480
-0.21256781 -0.07424371 0.00000045
-0.45703831 0.16350907 -0.00000043
-0.43431032 -0.58545041 0.00000013
-0.02569544 -0.21915151 0.00000036
-0.22992255 -0.41344109 0.00000024
-0.05319370 0.61876005 -0.00000034
-0.18351632 -0.54814577 0.00000016
-0.77461165 -0.13693194 -0.00000165
-0.33827734 0.10454658 0.00000030
-0.05195509 0.47968248 -0.00000264
-0.06676259 -0.41017976 0.00000024
-0.79628754 -0.31359661 -0.00000122
-0.58580565 -0.52777237 -0.00000002
-0.33793762 0.01608406 0.00000044
-0.32724303 0.04958580 0.00000044
-0.15761447 0.02437489 -0.00000685
-0.55671048 -0.74953824 0.00000003
-0.33871892 0.25791624 0.00000005
-0.17970225 -0.15717153 0.00000040
-0.72348881 -0.60365063 -0.00000049
-0.42776242 0.10652176 -0.00000018
-0.61987466 -0.53222561 -0.00000020
-0.48238638 -0.66314012 0.00000009
-0.49407226 -0.72007918 0.00000005
-0.56559515 -0.32256797 -0.00000024
-0.33367458 0.04843425 0.00000041
-0.55691582 -0.69201905 0.00000007
-0.68867689 0.06821355 -0.00000151
-0.20907274 0.23940225 -0.00000180
-0.79415470 0.00155793 -0.00000197
-0.17222825 0.28744560 -0.00000213
-0.28217247 0.09292650 -0.00000197
-0.30419406 -0.31966063 0.00000030
-0.20811711 0.36295155 0.00000058
-0.05550332 -0.28697076 0.00000032
-0.67829967 -0.42296910 -0.00000068
-0.70309263 -0.61609071 -0.00000046
-0.49207321 -0.07126463 -0.00000024
-0.11779589 -0.79384995 0.00000000
-0.24837042 0.26654175 0.00000052
-0.78023994 -0.69900566 -0.00000025
-0.68882012 -0.56241989 -0.00000052
-0.57912409 -0.78968006 0.00000001
-0.02432732 0.30261412 -0.00000635
-0.56607109 -0.77814496 0.00000001
-0.45608801 0.11382309 -0.00000035
-0.11008427 -0.32130197 0.00000030
-0.38021997 -0.68288648 0.00000007
-0.43962336 -0.36224020 0.00000027
-0.75769734 -0.68462008 -0.00000029
-0.64190388 0.09843960 -0.00000131
-0.03133771 0.51664746 -0.00000266
-0.13298061 -0.40798941 0.00000025
-0.35386077 -0.73465580 0.00000004
-0.17392369 -0.46951947 0.00000021
-0.42843571 -0.59283549 0.00000013
-0.10726339 -0.48712763 0.00000020
-0.13912106 -0.09900402 0.00000044
-0.04311111 0.75485384 0.00000087
-0.02137277 -0.28033099 0.00000032
-0.23363258 0.28390500 0.00000057
-0.51560074 -0.25115815 -0.00000008
-0.16506654 0.15563798 -0.00000449
-0.02784756 -0.47970918 0.00000020
-0.11359398 0.50190973 -0.00000042
-0.60135794 -0.56350273 -0.00000005
-0.07406516 0.39762774 -0.00000330
-0.59584785 -0.02380995 -0.00000087
-0.12009579 0.15196157 -0.00000591
-0.20884764 -0.70143253 0.00000006
-0.12527482 0.53489625 0.00000075
-0.63583744 -0.28250360 -0.00000068
-0.28676265 -0.14350878 0.00000041
-0.52682072 -0.08551988 -0.00000041
-0.03680571 -0.53207618 0.00000017
-0.15279411 0.40444136 -0.00000082
-0.36001584 -0.76978594 0.00000002
-0.20096998 0.12567145 -0.00000389
-0.30656829 0.27193904 0.00000020
-0.55206567 -0.16224883 -0.00000042
-0.78652233 -0.61369181 -0.00000047
-0.35681981 -0.43940714 0.00000023
-0.71545088 -0.52199876 -0.00000070
-0.27168760 -0.62818533 0.00000011
-0.40623251 -0.41054040 0.00000024
-0.34385687 -0.11446362 0.00000043
-0.40210500 -0.62401533 0.00000011
-0.19292457 -0.79796535 0.00000000
-0.55805558 -0.64847332 0.00000009
-0.13035399 -0.16501758 0.00000040
-0.30907142 0.12767884 0.00000042
-0.30566919 0.14499420 0.00000041
-0.13237251 0.29583633 -0.00000320
-0.13493907 0.21096201 -0.00000450
-0.16523093 -0.30624166 0.00000031
-0.57634795 -0.51977909 0.00000002
-0.55144089 0.01208442 -0.00000069
-0.47224993 -0.42049193 0.00000024
-0.00351884 -0.63304323 0.00000016
-0.06676363 -0.70803457 0.00000006
-0.13476236 0.01249187 -0.00000773
-0.04662258 -0.34163052 0.00000029
-0.67602110 0.07174932 -0.00000145
-0.30589011 0.02005687 -0.00000244
-0.00533489 -0.02926633 0.00000056
-0.75734317 -0.54999065 -0.00000063
-0.29090428 0.30997431 0.00000022
-0.64347559 -0.74523181 0.00000002
-0.63341027 -0.65122378 -0.00000008
-0.03852695 0.66006154 -0.00000011
-0.14371923 -0.16149481 0.00000040
-0.35413501 -0.05084698 0.00000046
-0.32176137 -0.07588446 0.00000045
-0.24355558 -0.78183115 0.00000001
-0.17840585 0.40870285 0.00000067
-0.47653928 0.08160652 -0.00000040
-0.65828454 -0.20197536 -0.00000092
-0.75905913 -0.52958435 -0.00000068
-0.45541954 -0.58467782 0.00000013
-0.63889486 -0.47590265 -0.00000039
-0.62759298 -0.53991771 -0.00000022
-0.46471590 -0.24999133 0.00000018
-0.69699603 0.00424575 -0.00000146
-0.51220477 -0.20158362 -0.00000015
-0.04689913 0.43534261 -0.00000351
-0.34304214 0.06465399 0.00000034
-0.78181267 -0.06666205 -0.00000180
-0.60583997 -0.64534193 0.00000006
-0.64889210 0.07435895 -0.00000131
-0.27469608 0.51892877 0.00000007
-0.47639298 -0.51611519 0.00000018
-0.04294752 -0.79193079 0.00000001
-0.18269542 0.27832833 -0.00000196
-0.03867740 -0.43326622 0.00000023
-0.76682389 -0.08156129 -0.00000169
-0.25221398 0.01095222 -0.00000421
-0.08018169 -0.62877500 0.00000011
-0.30127156 0.22587620 0.00000030
-0.03705552 -0.26923147 0.00000033
-0.15607297 -0.46734765 0.00000021
-0.35857105 -0.49583933 0.00000019
-0.44961670 -0.78789878 0.00000001
-0.15415645 -0.06535504 0.00000046
-0.36716023 0.05321345 0.00000022
-0.57432389 -0.24683234 -0.00000040
-0.66172945 -0.44818932 -0.00000055
-0.20794880 0.47902623 0.00000040
-0.60447741 -0.13056827 -0.00000075
-0.51445293 -0.53619218 0.00000016
-0.37183425 0.03176025 0.00000023
-0.53144944 -0.23713081 -0.00000019
-0.23043349 0.24162535 -0.00000112
-0.24841622 0.28185332 0.00000050
-0.44538313 -0.72706354 0.00000005
-0.63520843 -0.13520555 -0.00000091
-0.37562686 -0.32932514 0.00000029
-0.60587645 0.06374909 -0.00000107
-0.57851583 -0.54192638 0.00000004
-0.56919909 -0.28286278 -0.00000032
-0.52969581 -0.24751934 -0.00000017
-0.54774308 -0.17329025 -0.00000038
-0.42811862 0.31330445 -0.00000051
-0.37592885 0.26773024 -0.00000016
-0.21695819 0.28894404 0.00000065
-0.73029947 -0.31135735 -0.00000113
-0.02657925 0.64853305 -0.00000066
-0.74465024 -0.47491187 -0.00000081
-0.09206232 -0.30695134 0.00000031
-0.35473549 0.37742633 -0.00000022
-0.63701355 -0.55299354 -0.00000025
-0.55484366 -0.36771375 -0.00000011
-0.29339817 0.04995894 -0.00000233
-0.25376144 -0.53334326 0.00000017
-0.56117469 0.22811902 -0.00000109
-0.27431455 -0.24808003 0.00000034
-0.31387606 -0.30126959 0.00000031
-0.23223586 -0.51298052 0.00000018
-0.33111820 0.20725136 0.00000017
-0.27535877 0.17148940 0.00000053
-0.33157939 -0.06266849 0.00000046
-0.73810399 -0.57407147 -0.00000056
-0.02372194 0.75770956 0.00000094
-0.13753034 -0.74806619 0.00000003
-0.52283555 -0.71993947 0.00000005
-0.26195619 -0.19010963 0.00000038
-0.54969937 0.01924972 -0.00000070
-0.01217730 -0.02873017 0.00000048
-0.73513788 -0.54436439 -0.00000064
-0.01990430 0.07370089 -0.00001020
-0.19814266 -0.17171027 0.00000039
-0.25858754 -0.17737775 0.00000039
-0.13243340 0.35616186 -0.00000222
-0.29404566 0.19847320 0.00000038
-0.45437497 -0.62438607 0.00000011
-0.15631361 -0.67317545 0.00000008
-0.79440075 -0.61816531 -0.00000045
-0.42016727 -0.24507274 0.00000035
-0.57701391 -0.20824720 -0.00000048
-0.28412223 -0.61702484 0.00000011
-0.21562311 -0.29889962 0.00000031
-0.09248515 -0.00748176 0.00000050
-0.26745361 0.41496634 0.00000018
-0.39460519 0.36979586 -0.00000042
-0.22054218 0.15468349 -0.00000283
-0.35001770 -0.15527901 0.00000040
-0.32839024 -0.50404257 0.00000018
-0.32100385 -0.24906628 0.00000034
-0.39252582 -0.42305371 0.00000024
-0.41616374 -0.37011659 0.00000027
-0.55805469 0.19475687 -0.00000102
-0.53188950 0.23910072 -0.00000095
-0.27503878 -0.04423720 0.00000047
-0.26732874 -0.41291061 0.00000024
-0.15574259 -0.21889605 0.00000036
-0.23651388 -0.69070035 0.00000007
-0.32810986 0.41356024 -0.00000014
-0.70979351 0.06186259 -0.00000162
-0.07170522 0.49501434 -0.00000179
-0.21293204 0.35629290 0.00000057
-0.01974525 0.06559614 -0.00001034
-0.22339578 0.37427601 0.00000048
-0.00351155 -0.63964796 0.00000015
-0.08917106 -0.66489869 0.00000008
-0.05982489 -0.66515052 0.00000008
-0.53037322 -0.15066785 -0.00000032
-0.33399427 0.46155310 -0.00000025
-0.32733911 -0.61439002 0.00000012
-0.51750982 0.03312283 -0.00000055
-0.60091937 0.05628466 -0.00000103
-0.63182169 0.06265912 -0.00000120
-0.69819355 -0.04141163 -0.00000139
-0.25060683 -0.56931758 0.00000014
-0.58770776 -0.49818027 -0.00000008
-0.22723217 0.56721252 0.00000023
-0.43047196 -0.30181986 0.00000031
-0.07306874 -0.71226346 0.00000005
-0.64207333 0.15053234 -0.00000140
-0.13746142 -0.77065468 0.00000002
-0.63933009 -0.28980210 -0.00000068
-0.21104307 0.03637180 -0.00000504
-0.17080386 0.04329646 -0.00000614
-0.11590616 0.00801784 -0.00000837
-0.41153130 0.27407134 -0.00000036
-0.07134880 -0.37546664 0.00000027
-0.08858353 0.44701749 -0.00000206
-0.62165892 -0.33927518 -0.00000051
-0.37345365 0.42036191 -0.00000039
-0.25675857 0.33721814 0.00000036
-0.28174925 0.28126255 0.00000032
-0.59086567 -0.51885897 -0.00000006
-0.15707484 0.36875436 -0.00000127
-0.51912653 -0.19058841 -0.00000020
-0.20241454 -0.21983919 0.00000036
-0.77511507 -0.54374921 -0.00000064
-0.21086591 0.50836301 0.00000034
-0.63639611 -0.30578777 -0.00000064
-0.50444072 -0.73256236 0.00000004
-0.14129974 -0.67156374 0.00000008
-0.77878463 -0.34791404 -0.00000113
-0.21114956 0.43940881 0.00000045
-0.07087021 0.48277885 -0.00000202
-0.45665932 -0.54823291 0.00000016
-0.27219781 -0.76325101 0.00000002
-0.04420491 -0.55389428 0.00000015
-0.39181036 -0.59235984 0.00000013
-0.65259880 0.12007460 -0.00000140
-0.38440922 0.01842902 0.00000019
-0.65406859 -0.06048296 -0.00000113
-0.21480900 0.02410354 -0.00000513
-0.03565066 0.15631175 -0.00000838
-0.49302286 0.01214247 -0.00000038
-0.27687213 0.17063174 0.00000052
-0.23192386 -0.13852741 0.00000041
-0.25403032 -0.29553470 0.00000032
-0.79363769 -0.44890773 -0.00000088
-0.43657061 0.13342270 -0.00000027
-0.59597164 -0.09505359 -0.00000076
-0.47518918 -0.11036865 -0.00000009
-0.16951837 -0.19807166 0.00000038
-0.66435963 0.07741263 -0.00000140
-0.01790212 0.38114473 -0.00000527
