ply
format ascii 1.0
element vertex 1123
property float x
property float y
property float z
end_header
-0.66736960 -0.46869367 -0.00000038
-0.00759530 -0.61442423 0.00000052
-0.23095402 -0.63985610 0.00000040
-0.27320769 0.52377540 0.00000199
-0.60485840 -0.55654377 0.00000024
-0.59196711 -0.78905052 0.00000003
-0.03597940 0.60062909 0.00000099
-0.47755224 -0.75070029 0.00000012
-0.02904489 0.64457655 0.00000168
-0.32565305 -0.58915043 0.00000053
-0.67209810 -0.75803280 -0.00000010
-0.07227952 -0.27347699 0.00000132
-0.31590208 0.27563861 0.00000185
-0.29443944 -0.52716064 0.00000068
-0.01711709 -0.03109651 0.00000192
-0.22692591 0.34137785 0.00000254
-0.42229316 -0.16421098 0.00000139
-0.63903379 -0.29164508 -0.00000032
-0.26061755 0.46747833 0.00000212
-0.29212844 -0.07961118 0.00000180
-0.45791480 -0.71687812 0.00000021
-0.77693689 -0.68404251 -0.00000029
-0.34713691 0.31050631 0.00000154
-0.49351773 -0.49367234 0.00000077
-0.06603104 -0.66430438 0.00000034
-0.01122355 0.15869331 -0.00000852
-0.20340407 -0.39397046 0.00000102
-0.78353477 -0.40936801 -0.00000098
-0.32805148 -0.07144421 0.00000182
-0.21522410 -0.16375886 0.00000159
-0.56428385 0.12729754 -0.00000012
-0.65278709 -0.36038315 -0.00000037
-0.17081809 -0.48340595 0.00000079
-0.37346455 -0.07313458 0.00000172
-0.48573565 -0.01937782 0.00000070
-0.29352152 -0.72648722 0.00000018
-0.27922577 -0.67371035 0.00000032
-0.40120563 0.08384529 0.00000132
-0.15622593 0.63508737 0.00000284
-0.17474586 -0.49506682 0.00000076
-0.46599892 -0.48258057 0.00000079
-0.37182137 0.40857100 0.00000123
-0.18980178 -0.76510543 0.00000009
-0.07778045 0.50062311 0.00000012
-0.06711771 0.42533422 -0.00000167
-0.15604906 0.23506305 -0.00000306
-0.22852933 -0.62919062 0.00000043
-0.75224876 -0.37657577 -0.00000106
-0.72747105 -0.23821495 -0.00000113
-0.75379688 -0.63304955 -0.00000042
-0.76278698 -0.26592356 -0.00000134
-0.27991611 -0.05952152 0.00000185
-0.68145251 -0.08222298 -0.00000090
-0.03243776 -0.05924945 0.00000185
-0.16160382 0.31445879 -0.00000132
-0.37767240 -0.75729859 0.00000011
-0.75080800 -0.75793004 -0.00000011
-0.47217771 -0.09687473 0.00000090
-0.10420117 0.37200969 -0.00000173
-0.24348548 -0.08443261 0.00000179
-0.00579018 0.50991756 -0.00000164
-0.12878157 -0.20540617 0.00000149
-0.23974670 -0.23072258 0.00000142
-0.41007590 -0.68452853 0.00000029
-0.21550025 0.17597426 -0.00000263
-0.29784137 -0.42500758 0.00000094
-0.21685603 -0.59493142 0.00000051
-0.54828823 0.05321764 0.00000009
-0.63021797 -0.67645520 0.00000015
-0.56845015 -0.15052344 0.00000013
-0.07928799 0.22530039 -0.00000534
-0.43618745 -0.56880206 0.00000058
-0.30646068 0.10372046 0.00000211
-0.36584988 -0.08694306 0.00000178
-0.01908294 -0.39862370 0.00000100
-0.43495104 0.14571667 0.00000096
-0.23853163 -0.27655548 0.00000131
-0.78388005 -0.22282338 -0.00000144
-0.38085696 -0.26063135 0.00000135
-0.29539993 -0.40177813 0.00000100
-0.19562402 -0.31908816 0.00000120
-0.43928677 -0.49355653 0.00000077
-0.01074709 0.13727397 -0.00000896
-0.39494041 -0.36284709 0.00000109
-0.28616622 0.28465191 0.00000209
-0.74867183 -0.65615666 -0.00000036
-0.08078541 -0.78108668 0.00000005
-0.51539326 -0.44876176 0.00000088
-0.16419394 0.48429042 0.00000293
-0.27412230 -0.32486871 0.00000119
-0.00212289 0.79238963 0.00000398
-0.45146787 -0.14763051 0.00000113
-0.70405370 -0.13747320 -0.00000104
-0.55293679 -0.25036141 0.00000037
-0.21917187 0.46033311 0.00000248
-0.51922393 -0.20678894 0.00000061
-0.74569923 -0.61095202 -0.00000047
-0.33219966 -0.78081816 0.00000005
-0.61347973 -0.78305209 0.00000004
-0.33556667 -0.32909241 0.00000118
-0.12941238 0.02499567 -0.00000799
-0.64956409 -0.53499025 -0.00000016
-0.24204037 -0.52801400 0.00000068
-0.09784986 -0.49786818 0.00000076
-0.06243038 0.39401513 -0.00000242
-0.77959311 -0.13814023 -0.00000165
-0.10870181 0.55915087 0.00000332
-0.49328306 0.11756808 0.00000050
-0.05184546 -0.22136213 0.00000145
-0.03931042 -0.64713526 0.00000038
-0.61700159 -0.13282634 -0.00000030
-0.15346958 0.27029616 -0.00000243
-0.48598123 0.24257764 0.00000043
-0.68385118 -0.50850004 -0.00000048
-0.11004602 0.67642790 0.00000319
-0.26228297 -0.74977213 0.00000013
-0.21441732 -0.76161188 0.00000010
-0.66402572 -0.65334719 -0.00000016
-0.10306950 -0.35017219 0.00000112
-0.03146528 -0.40884656 0.00000098
-0.11692981 -0.61674559 0.00000046
-0.58105880 0.02877946 -0.00000016
-0.16408709 -0.14978078 0.00000163
-0.04809862 -0.54921341 0.00000063
-0.54235822 -0.59728134 0.00000051
-0.39021847 -0.47328895 0.00000082
-0.58836198 -0.41878620 0.00000024
-0.18512122 -0.07694391 0.00000181
-0.71395314 -0.17989814 -0.00000108
-0.34457004 -0.37018046 0.00000107
-0.30876511 -0.52229679 0.00000069
-0.72949207 -0.55819929 -0.00000060
-0.64885050 -0.61069643 -0.00000008
-0.08767027 -0.64124835 0.00000040
-0.37051097 0.31152400 0.00000134
-0.22255690 -0.67372155 0.00000032
-0.31924897 -0.70813954 0.00000023
-0.15918775 0.59123862 0.00000286
-0.75136775 -0.06079811 -0.00000152
-0.23168962 -0.16375908 0.00000159
-0.14475106 -0.41254869 0.00000097
-0.65548623 -0.63100898 -0.00000011
-0.70714235 -0.34957632 -0.00000085
-0.68776089 -0.17617039 -0.00000086
-0.79670578 -0.56805640 -0.00000058
-0.53819627 0.13251413 0.00000010
-0.11300734 -0.73804623 0.00000015
-0.28007784 -0.69469273 0.00000026
-0.00867490 -0.47157282 0.00000089
-0.41725081 -0.45988411 0.00000085
-0.40676811 0.32167563 0.00000102
-0.45084149 0.05349410 0.00000092
-0.58811009 -0.45575792 0.00000028
-0.15682796 0.16882019 -0.00000436
-0.29830164 -0.23125908 0.00000142
-0.21963847 -0.28348252 0.00000129
-0.66402060 -0.04569954 -0.00000079
-0.32844326 -0.26088381 0.00000135
-0.08558081 -0.78893197 0.00000003
-0.43271926 0.31235471 0.00000081
-0.78010637 -0.19076551 -0.00000152
-0.44690993 -0.10207314 0.00000112
-0.16377024 -0.00743488 0.00000198
-0.05678085 0.49471253 -0.00000056
-0.54558742 -0.38370001 0.00000057
-0.20714918 -0.51950425 0.00000070
-0.02211753 0.66250908 0.00000185
-0.56207287 -0.43601793 0.00000048
-0.66359860 -0.64614910 -0.00000017
-0.37607899 0.12391195 0.00000149
-0.19403856 -0.67363691 0.00000032
-0.12472370 -0.14612043 0.00000163
-0.50241750 -0.12996732 0.00000067
-0.46760160 -0.19719972 0.00000104
-0.18571052 -0.14271903 0.00000164
-0.10393280 -0.45784608 0.00000086
-0.32084528 0.13281044 0.00000195
-0.26076686 -0.57998711 0.00000055
-0.48200843 -0.37189978 0.00000107
-0.70310658 0.00205009 -0.00000118
-0.29769105 -0.62470067 0.00000044
-0.10370187 -0.39276642 0.00000102
-0.46305346 -0.26621121 0.00000115
-0.44426954 -0.54144430 0.00000065
-0.78300095 -0.66412622 -0.00000034
-0.32934308 -0.25543106 0.00000136
-0.59027910 -0.13872714 -0.00000007
-0.23259169 -0.64677525 0.00000038
-0.19789001 -0.24545833 0.00000139
-0.08506455 -0.01707554 0.00000196
-0.47307780 -0.51292020 0.00000072
-0.79592019 -0.50179273 -0.00000075
-0.18057778 -0.53854591 0.00000065
-0.54446292 -0.50349200 0.00000070
-0.50964582 -0.44426060 0.00000089
-0.19181766 -0.12543386 0.00000169
-0.16993430 -0.20238677 0.00000149
-0.06639823 0.61958724 0.00000220
-0.30011490 -0.77755708 0.00000006
-0.32007843 -0.29191414 0.00000127
-0.05427729 0.40674686 -0.00000239
-0.29499552 -0.17148499 0.00000157
-0.42474461 -0.45222297 0.00000087
-0.31073785 0.27900147 0.00000189
-0.79603553 -0.20735823 -0.00000148
-0.23560806 0.33912331 0.00000247
-0.08370265 0.46876499 -0.00000035
-0.26301682 -0.67372978 0.00000032
-0.03212576 -0.16799238 0.00000158
-0.35897788 0.21783902 0.00000154
-0.54305059 -0.74884200 0.00000013
-0.58707386 -0.53540152 0.00000037
-0.06539569 0.47075474 -0.00000081
-0.07969149 0.40035006 -0.00000183
-0.50493032 -0.33053958 0.00000086
-0.66081423 -0.56310338 -0.00000023
-0.27016273 0.28087151 0.00000223
-0.48252630 0.28181797 0.00000042
-0.16056527 0.36687002 -0.00000030
-0.16767640 -0.02707029 0.00000193
-0.79987127 -0.35378963 -0.00000112
-0.53989851 -0.67783850 0.00000031
-0.45697826 0.02848673 0.00000090
-0.11238665 0.63080096 0.00000322
-0.00773454 -0.74692583 0.00000013
-0.30670574 -0.13507825 0.00000166
-0.22730160 0.12253846 -0.00000338
-0.68731493 -0.43673420 -0.00000059
-0.19598860 -0.62753141 0.00000043
-0.01104011 0.57420510 -0.00000022
-0.34038788 -0.13619165 0.00000166
-0.23195840 0.18579406 -0.00000198
-0.31229597 -0.34330565 0.00000114
-0.10275468 0.02930756 -0.00000862
-0.22223610 0.06692954 -0.00000463
-0.74163920 -0.57750195 -0.00000056
-0.08141273 0.37413272 -0.00000231
-0.46660206 0.00829799 0.00000084
-0.34278795 -0.69271278 0.00000027
-0.22095057 -0.19880909 0.00000150
-0.60647815 -0.43060073 0.00000010
-0.34797201 -0.45163226 0.00000087
-0.42323315 -0.26595372 0.00000134
-0.21669029 -0.57853138 0.00000055
-0.18058938 0.25867918 -0.00000192
-0.50662369 -0.13631922 0.00000065
-0.18871510 -0.64571178 0.00000039
-0.16409402 -0.50971943 0.00000073
-0.04893663 0.14475818 -0.00000778
-0.01096754 0.50583667 -0.00000159
-0.15409020 -0.19670285 0.00000151
-0.40986922 -0.34424886 0.00000114
-0.06008802 -0.41328451 0.00000097
-0.10820630 -0.79858607 0.00000000
-0.53553927 0.10239187 0.00000015
-0.61616355 -0.04689863 -0.00000038
-0.00701718 0.43464461 -0.00000312
-0.59678984 0.03423824 -0.00000030
-0.72057933 -0.41507798 -0.00000089
-0.11279605 -0.42188662 0.00000095
-0.35616717 -0.71932596 0.00000020
-0.43735179 -0.39791921 0.00000101
-0.53501683 -0.28820503 0.00000056
-0.25100520 0.02834232 -0.00000462
-0.63799286 -0.79660803 0.00000001
-0.48791668 -0.17729504 0.00000085
-0.43950105 0.11002759 0.00000096
-0.52823436 -0.53832531 0.00000065
-0.50201541 -0.12986065 0.00000068
-0.23774675 0.33780327 0.00000245
-0.57882005 0.06433396 -0.00000018
-0.30616370 0.32168356 0.00000188
-0.51783741 0.26329863 0.00000014
-0.10578984 0.31201193 -0.00000289
-0.40402979 -0.52448934 0.00000069
-0.01897470 0.76129329 0.00000388
-0.57408798 -0.04852269 -0.00000002
-0.25132990 0.19852792 0.00000248
-0.79489183 -0.49644279 -0.00000076
-0.35850435 -0.10372671 0.00000174
-0.04956079 0.23204249 -0.00000601
-0.20840614 -0.16223679 0.00000159
-0.26589680 -0.42124531 0.00000095
-0.36494777 -0.12351567 0.00000169
-0.72886729 -0.64833760 -0.00000038
-0.00494843 0.28468981 -0.00000617
-0.05062976 0.70116210 0.00000367
-0.13969424 0.51671988 0.00000310
-0.39177832 -0.53312993 0.00000067
-0.42163768 0.26043224 0.00000096
-0.12146032 -0.74246132 0.00000014
-0.25083813 -0.39742711 0.00000101
-0.70072401 0.05977288 -0.00000121
-0.52820200 0.21277316 0.00000010
-0.79553980 -0.46591693 -0.00000084
-0.30082762 -0.23412132 0.00000141
-0.75506073 0.04169743 -0.00000166
-0.73499763 -0.53207666 -0.00000067
-0.33200645 -0.40605870 0.00000098
-0.16363730 -0.33168238 0.00000117
-0.00053423 -0.30140924 0.00000125
-0.57453245 -0.07179332 -0.00000000
-0.45437357 -0.41426912 0.00000096
-0.70936757 0.08931297 -0.00000132
-0.02175280 0.12979624 -0.00000881
-0.75551295 -0.14720713 -0.00000147
-0.18276209 -0.09017690 0.00000177
-0.53881514 -0.07332185 0.00000031
-0.38007641 -0.21972206 0.00000145
-0.06020564 0.36695734 -0.00000303
-0.26382354 0.38870573 0.00000217
-0.00058690 -0.41719177 0.00000096
-0.30858165 -0.64478004 0.00000039
-0.21200098 0.46399108 0.00000254
-0.59178686 -0.61821437 0.00000042
-0.32123935 0.39993408 0.00000167
-0.11443412 0.54135275 0.00000329
-0.09237194 0.55816847 0.00000167
-0.55634725 -0.23103765 0.00000032
-0.19999795 -0.54576582 0.00000064
-0.08902313 -0.62206531 0.00000044
-0.02162204 0.19520833 -0.00000751
-0.58525419 0.10008613 -0.00000027
-0.03887104 0.48969898 -0.00000115
-0.65994525 -0.20765102 -0.00000059
-0.53523159 -0.64390349 0.00000039
-0.31376258 0.14011244 0.00000201
-0.70689440 -0.31673676 -0.00000088
-0.51727468 0.10645049 0.00000030
-0.19073416 -0.22846019 0.00000143
-0.22263882 -0.48492840 0.00000079
-0.05709763 -0.32286501 0.00000119
-0.00610731 0.67622679 0.00000169
-0.33088842 0.43002111 0.00000156
-0.30249327 0.45540556 0.00000177
-0.08328239 -0.64682919 0.00000038
-0.45367637 -0.35192084 0.00000112
-0.53478831 -0.57197261 0.00000057
-0.42675713 -0.60120910 0.00000050
-0.23401819 0.07755291 -0.00000409
-0.65774649 -0.28805202 -0.00000049
-0.42116398 -0.01760893 0.00000125
-0.52052146 0.04324648 0.00000034
-0.29924664 0.37960806 0.00000188
-0.32099164 0.29066288 0.00000179
-0.38384357 -0.23720750 0.00000141
-0.06605580 -0.29080769 0.00000127
-0.38306350 -0.49099156 0.00000077
-0.40789828 -0.51325107 0.00000072
-0.19543341 -0.01093864 0.00000197
-0.06802751 -0.05318408 0.00000187
-0.25647825 0.28960437 0.00000234
-0.73183936 -0.29960161 -0.00000111
-0.62172788 -0.08044560 -0.00000040
-0.06060928 -0.16882446 0.00000158
-0.05674105 0.72533828 0.00000359
-0.30557191 -0.37905052 0.00000105
-0.54120511 -0.66713554 0.00000033
-0.62351280 -0.40264645 -0.00000008
-0.11719315 -0.06225688 0.00000184
-0.56526530 -0.10166891 0.00000011
-0.16075453 -0.72830713 0.00000018
-0.33369973 0.33699161 0.00000163
-0.12446471 -0.54627931 0.00000063
-0.54721993 -0.12940492 0.00000029
-0.15195118 0.38281563 -0.00000022
-0.73338878 -0.53087348 -0.00000067
-0.05037495 -0.34152904 0.00000115
-0.38893735 -0.73902446 0.00000015
-0.09937649 0.32378218 -0.00000283
-0.09875284 0.01189816 -0.00000908
-0.54481900 -0.33854210 0.00000053
-0.48749143 -0.11939867 0.00000079
-0.10057189 0.25434127 -0.00000418
-0.42676201 0.22695532 0.00000095
-0.37567359 -0.01194961 0.00000163
-0.02785297 -0.02505897 0.00000194
-0.33821681 0.23260316 0.00000170
-0.75547785 -0.70102793 -0.00000025
-0.55980670 -0.75755507 0.00000011
-0.17540431 0.02909021 -0.00000665
-0.06416312 0.18210152 -0.00000662
-0.29045486 0.37297592 0.00000196
-0.25193691 -0.44577861 0.00000089
-0.36057606 0.33920461 0.00000140
-0.13838375 -0.53402603 0.00000066
-0.70065427 -0.54716885 -0.00000059
-0.72355205 -0.74706244 -0.00000013
-0.34742385 -0.64449275 0.00000039
-0.59147555 -0.72487187 0.00000019
-0.63538319 -0.10656792 -0.00000048
-0.65444112 -0.07278741 -0.00000068
-0.51462114 -0.61898041 0.00000045
-0.16898069 -0.71878594 0.00000020
-0.11822038 0.60259205 0.00000320
-0.28191125 0.08678603 -0.00000261
-0.74876130 -0.42043331 -0.00000095
-0.51318341 -0.35495767 0.00000082
-0.22485273 0.37465918 0.00000252
-0.36529046 -0.59984410 0.00000050
-0.34948185 -0.60058737 0.00000050
-0.48160604 -0.79751331 0.00000001
-0.38958794 -0.72270745 0.00000019
-0.72278118 -0.00911822 -0.00000133
-0.39950442 0.34083742 0.00000107
-0.50368017 -0.55570835 0.00000061
-0.47237492 0.23040207 0.00000056
-0.55436832 -0.20413047 0.00000031
-0.09833941 0.03968701 -0.00000854
-0.23002496 0.54274565 0.00000230
-0.09905376 -0.70191324 0.00000025
-0.48377791 -0.02209811 0.00000072
-0.28711107 -0.21126835 0.00000147
-0.20577544 -0.47586405 0.00000081
-0.10428897 -0.29436350 0.00000126
-0.79581034 -0.46800634 -0.00000083
-0.78492951 -0.01935817 -0.00000185
-0.70399421 -0.34218603 -0.00000083
-0.67703426 -0.79522341 -0.00000001
-0.17685720 0.15622567 -0.00000407
-0.38234720 0.25168180 0.00000130
-0.00290084 -0.23147570 0.00000142
-0.30218878 -0.43182576 0.00000092
-0.74340308 -0.06424467 -0.00000145
-0.55244881 -0.49309689 0.00000062
-0.17788789 0.12230997 -0.00000472
-0.31626990 -0.16997372 0.00000158
-0.44314817 -0.55830026 0.00000060
-0.53437364 -0.26988474 0.00000055
-0.70148104 -0.21529596 -0.00000094
-0.30032197 -0.41811386 0.00000095
-0.19526047 0.41251892 0.00000273
-0.46921581 0.01956614 0.00000080
-0.43336615 0.36221194 0.00000075
-0.10135704 0.40137324 -0.00000122
-0.60987306 -0.21130979 -0.00000016
-0.49580231 -0.77704048 0.00000006
-0.20783231 0.41182557 0.00000263
-0.07975590 0.52258897 0.00000062
-0.00421640 -0.02167943 0.00000198
-0.09962958 0.60910857 0.00000335
-0.09927999 0.54080582 0.00000151
-0.19775461 -0.65627563 0.00000036
-0.32557973 -0.14036874 0.00000165
-0.69823253 -0.44388995 -0.00000067
-0.46331897 -0.74758071 0.00000013
-0.78076094 -0.69861913 -0.00000025
-0.40502709 -0.52563381 0.00000069
-0.61426663 -0.73272425 0.00000017
-0.27969345 0.50023550 0.00000192
-0.44811460 -0.21941395 0.00000123
-0.77700913 -0.39096552 -0.00000102
-0.57925725 -0.39823577 0.00000030
-0.46940854 -0.09037897 0.00000092
-0.04451857 0.47260642 -0.00000134
-0.01090578 -0.07294849 0.00000182
-0.23797908 0.24418995 0.00000254
-0.57795721 -0.05141267 -0.00000005
-0.52444404 0.00387578 0.00000035
-0.33858329 0.20741998 0.00000172
-0.19333103 0.02049109 -0.00000634
-0.08663673 0.08702542 -0.00000791
-0.01754244 -0.70433420 0.00000024
-0.43314001 0.05649521 0.00000107
-0.33059901 0.27561325 0.00000172
-0.71074748 -0.09135521 -0.00000114
-0.14819939 -0.20171675 0.00000150
-0.41304773 0.16289744 0.00000113
-0.39412439 0.12413769 0.00000134
-0.78691232 -0.43667164 -0.00000091
-0.75067008 -0.60018718 -0.00000050
-0.00529400 0.31175372 -0.00000562
-0.62424266 -0.20603599 -0.00000029
-0.44287929 0.28697515 0.00000075
-0.03736459 -0.18552627 0.00000154
-0.73408955 -0.24949788 -0.00000118
-0.10035202 0.67468816 0.00000327
-0.03647700 0.71487665 0.00000378
-0.05424448 -0.21816353 0.00000145
-0.13594823 0.15881857 -0.00000513
-0.39102685 -0.19403875 0.00000151
-0.68000352 -0.52174634 -0.00000044
-0.52299047 -0.68210196 0.00000029
-0.52547425 -0.36501035 0.00000072
-0.52247012 0.17049222 0.00000019
-0.07528284 -0.18726160 0.00000153
-0.79712445 -0.33898997 -0.00000115
-0.38924217 -0.56309253 0.00000059
-0.28747004 -0.71508646 0.00000021
-0.07881003 0.22957736 -0.00000527
-0.57523835 -0.50978833 0.00000045
-0.09684065 0.44987631 -0.00000037
-0.00231512 0.67580521 0.00000158
-0.18987237 -0.64592248 0.00000039
-0.27700424 0.50407469 0.00000194
-0.64124864 0.15174975 -0.00000073
-0.70168716 -0.60413080 -0.00000049
-0.62177348 -0.16022871 -0.00000031
-0.08983833 -0.31911850 0.00000120
-0.60054201 -0.11852165 -0.00000017
-0.12893309 -0.11630268 0.00000171
-0.28578135 0.43257642 0.00000194
-0.68109584 -0.07322388 -0.00000091
-0.64412439 0.04508837 -0.00000072
-0.42053044 0.05062487 0.00000119
-0.76365697 -0.48634252 -0.00000078
-0.55085814 -0.08034652 0.00000021
-0.43763098 -0.72892886 0.00000018
-0.37273753 -0.35916376 0.00000110
-0.37436056 -0.75770020 0.00000011
-0.02522311 0.17581250 -0.00000780
-0.26529664 0.11104963 -0.00000257
-0.06223787 -0.33693019 0.00000116
-0.13059765 0.09213831 -0.00000661
-0.59868670 0.01105456 -0.00000029
-0.11095447 -0.25217482 0.00000137
-0.57894206 0.16158774 -0.00000028
-0.05722840 0.15833282 -0.00000728
-0.11295997 0.56381440 0.00000328
-0.64636320 -0.20779058 -0.00000047
-0.37393248 -0.24906643 0.00000138
-0.53413945 -0.65974814 0.00000035
-0.22600047 -0.16103075 0.00000160
-0.24657942 -0.41974753 0.00000095
-0.47889996 -0.43857646 0.00000090
-0.00287333 -0.17466740 0.00000159
-0.58385301 -0.26120660 0.00000012
-0.54278249 -0.11594715 0.00000032
-0.44134501 0.10331323 0.00000095
-0.13971008 0.42108417 0.00000022
-0.47164750 -0.79563296 0.00000001
-0.38542476 0.33500314 0.00000119
-0.23011045 -0.11606652 0.00000171
-0.72951448 -0.11717816 -0.00000128
-0.46254846 0.04816429 0.00000083
-0.34909517 -0.68290949 0.00000029
-0.18930060 0.39295447 0.00000281
-0.51610261 0.20888785 0.00000021
-0.17335553 0.49864355 0.00000283
-0.45572606 0.30916131 0.00000062
-0.59040743 -0.59808671 0.00000041
-0.56089866 -0.35487980 0.00000041
-0.63919550 -0.05464858 -0.00000057
-0.25876617 0.04138641 -0.00000414
-0.14381067 -0.05197108 0.00000187
-0.43572316 0.06694843 0.00000104
-0.43882161 -0.38514942 0.00000104
-0.33633891 0.43231797 0.00000151
-0.73342443 -0.54179949 -0.00000065
-0.11545221 -0.33776328 0.00000116
-0.35730803 0.03178740 0.00000175
-0.79620332 -0.51738453 -0.00000071
-0.51695383 -0.79091901 0.00000002
-0.28715736 -0.53854066 0.00000065
-0.35584125 -0.12383984 0.00000169
-0.27550352 0.28204021 0.00000218
-0.33717877 0.03321385 0.00000192
-0.63451165 -0.78742313 0.00000003
-0.05275536 -0.04658341 0.00000188
-0.30863154 0.42409334 0.00000175
-0.00370549 -0.39103308 0.00000105
-0.43670669 0.21582307 0.00000088
-0.21757270 -0.70792454 0.00000023
-0.55427331 -0.37695128 0.00000049
-0.45478418 -0.47152337 0.00000082
-0.50604755 -0.06878058 0.00000058
-0.10219094 -0.40639842 0.00000098
-0.27667710 0.16463663 0.00000230
-0.16506760 0.26541466 -0.00000221
-0.29231790 -0.70673746 0.00000023
-0.05817164 -0.09038306 0.00000177
-0.47548759 -0.69572467 0.00000026
-0.22059081 0.07066345 -0.00000460
-0.47676399 0.05344921 0.00000070
-0.11081774 -0.50951636 0.00000073
-0.53451258 0.02480568 0.00000024
-0.35504317 -0.11890624 0.00000170
-0.08158091 -0.43667549 0.00000091
-0.51881945 -0.51950049 0.00000070
-0.50518477 -0.58296955 0.00000054
-0.28962040 -0.64764190 0.00000038
-0.20571807 -0.17091775 0.00000157
-0.25913766 -0.17321655 0.00000157
-0.34777674 0.44839647 0.00000144
-0.22222260 -0.08975328 0.00000178
-0.04584068 0.33311310 -0.00000409
-0.44022241 -0.00087475 0.00000107
-0.11971958 -0.20904616 0.00000148
-0.48514873 -0.49413291 0.00000076
-0.23862055 0.04137870 -0.00000469
-0.27281713 0.08722896 -0.00000285
-0.50529569 -0.26750180 0.00000079
-0.75641680 -0.56131268 -0.00000060
-0.62464511 -0.16849551 -0.00000033
-0.02845841 -0.45213985 0.00000087
-0.79613429 -0.69233042 -0.00000027
-0.75938910 -0.48703861 -0.00000078
-0.44601682 -0.40729728 0.00000098
-0.64277393 -0.63817960 0.00000000
-0.65277910 -0.59128702 -0.00000013
-0.13947779 -0.17823423 0.00000155
-0.66807538 -0.30846170 -0.00000055
-0.16693896 -0.23114660 0.00000142
-0.29524878 -0.09706549 0.00000176
-0.51842535 -0.06050123 0.00000047
-0.58893472 0.10822843 -0.00000031
-0.23161687 -0.73431391 0.00000016
-0.72436404 -0.03219422 -0.00000132
-0.14099444 0.55309492 0.00000305
-0.30288050 0.16993095 0.00000207
-0.63729465 -0.66338110 0.00000008
-0.49690866 -0.45742771 0.00000086
-0.13794468 -0.56214613 0.00000059
-0.62052232 -0.49054971 0.00000004
-0.64933169 -0.70890462 0.00000002
-0.60021639 -0.44360149 0.00000016
-0.47912106 0.01815341 0.00000072
-0.13217734 -0.11745831 0.00000171
-0.33662808 -0.67342645 0.00000032
-0.31460479 0.33428904 0.00000180
-0.04646496 -0.40023920 0.00000100
-0.21282239 -0.54466534 0.00000064
-0.22190186 -0.43190834 0.00000092
-0.34076732 0.04034197 0.00000188
-0.10797842 -0.49170446 0.00000077
-0.20897174 0.18346442 -0.00000266
-0.70953083 -0.30063978 -0.00000092
-0.70183492 0.05408301 -0.00000122
-0.07898866 -0.26872668 0.00000133
-0.30235115 -0.14336161 0.00000164
-0.54465562 -0.65676796 0.00000036
-0.58136678 -0.04214643 -0.00000009
-0.62968570 -0.17997499 -0.00000036
-0.65512562 0.07528178 -0.00000084
-0.15112846 -0.48741591 0.00000078
-0.43364796 -0.71550131 0.00000021
-0.61286914 0.09603823 -0.00000050
-0.67122871 -0.42464694 -0.00000046
-0.09474628 -0.72385579 0.00000019
-0.00145102 -0.24297881 0.00000140
-0.08398611 0.33373970 -0.00000304
-0.29362988 0.08627086 -0.00000230
-0.38268453 -0.08478911 0.00000165
-0.07937201 -0.70458233 0.00000024
-0.39896899 -0.62380904 0.00000044
-0.19236778 -0.52221954 0.00000069
-0.37248823 -0.69701773 0.00000026
-0.37010261 -0.03784552 0.00000171
-0.14773545 0.47064364 0.00000308
-0.20079149 0.21381868 -0.00000227
-0.40236384 0.02798918 0.00000137
-0.67756021 -0.78693300 -0.00000003
-0.00925583 -0.52482843 0.00000069
-0.11548183 0.43703726 -0.00000012
-0.68249160 0.00789558 -0.00000101
-0.05749367 -0.28592691 0.00000129
-0.70144880 -0.53017926 -0.00000061
-0.26457471 -0.78768182 0.00000003
-0.65917528 -0.50726926 -0.00000027
-0.25545567 -0.56133664 0.00000060
-0.17204581 0.26286593 -0.00000207
-0.26527780 0.38500887 0.00000217
-0.01124887 0.61416423 0.00000059
-0.38655233 -0.43454117 0.00000091
-0.05017518 -0.77655536 0.00000006
-0.18769088 -0.19274446 0.00000152
-0.05635278 -0.20106030 0.00000150
-0.16127522 0.41891831 0.00000302
-0.25373340 0.05393037 -0.00000403
-0.30141044 -0.08817212 0.00000178
-0.36095735 -0.72250563 0.00000019
-0.23576711 0.43680382 0.00000236
-0.36859995 -0.52859521 0.00000068
-0.04036644 0.43230590 -0.00000226
-0.45533293 -0.18941963 0.00000114
-0.04148563 0.20244773 -0.00000682
-0.08448915 0.41894409 -0.00000133
-0.49300995 -0.45197275 0.00000087
-0.06675488 -0.78257328 0.00000004
-0.12056953 -0.00201609 0.00000199
-0.40274414 -0.12165650 0.00000152
-0.42000422 0.22250591 0.00000101
-0.45213130 -0.41872877 0.00000095
-0.44120890 -0.40238392 0.00000099
-0.52470809 -0.00883480 0.00000036
-0.18324429 0.10527049 -0.00000492
-0.22264901 0.37399948 0.00000254
-0.22949819 -0.33688489 0.00000116
-0.18750885 -0.39061350 0.00000102
-0.30896100 0.41559669 0.00000176
-0.44104305 -0.22051661 0.00000129
-0.11138203 0.56072831 0.00000330
-0.42479411 0.31180999 0.00000088
-0.30058271 -0.69322002 0.00000027
-0.13321930 -0.17639072 0.00000156
-0.17296854 0.60981399 0.00000272
-0.48362529 -0.46267575 0.00000084
-0.40790370 -0.62656605 0.00000043
-0.08700153 -0.64220113 0.00000039
-0.69183648 -0.60647523 -0.00000045
-0.46811193 -0.01527371 0.00000085
-0.54258800 -0.62094015 0.00000045
-0.28295854 -0.29296303 0.00000127
-0.62404358 -0.54953694 0.00000007
-0.32787186 -0.32774830 0.00000118
-0.79655856 0.00014440 -0.00000194
-0.56136799 -0.24963032 0.00000030
-0.43260154 -0.66946554 0.00000033
-0.20667633 -0.15104233 0.00000162
-0.14319728 0.45440218 0.00000314
-0.19946317 0.34762090 0.00000277
-0.27958938 -0.41920131 0.00000095
-0.64133793 -0.78653628 0.00000003
-0.00659893 -0.75181437 0.00000012
-0.60381764 -0.49290374 0.00000018
-0.01215817 0.25013518 -0.00000667
-0.23457035 0.13790496 -0.00000287
-0.68177307 -0.35445717 -0.00000062
-0.43742257 -0.22562140 0.00000133
-0.12137197 -0.03378071 0.00000192
-0.19917171 -0.24666139 0.00000138
-0.57811725 0.07734641 -0.00000019
-0.65088505 0.13162211 -0.00000086
-0.23792198 -0.17905816 0.00000155
-0.06408117 0.61301380 0.00000200
-0.52953655 -0.29923105 0.00000062
-0.52854609 0.09307988 0.00000022
-0.56347650 -0.28970861 0.00000032
-0.35785210 -0.68088508 0.00000030
-0.72547811 -0.74782217 -0.00000013
-0.08904026 0.43219972 -0.00000094
-0.26216429 0.51562518 0.00000206
-0.13193810 0.00508600 -0.00000831
-0.39354819 -0.20522602 0.00000149
-0.51796365 -0.56596416 0.00000059
-0.54239404 -0.69811261 0.00000025
-0.05143610 0.16891980 -0.00000722
-0.08871547 -0.61911011 0.00000045
-0.05735070 0.60488212 0.00000166
-0.00341267 -0.00608532 0.00000198
-0.15399188 0.63141334 0.00000286
-0.01860446 0.09086034 -0.00000968
-0.14270154 0.65070319 0.00000301
-0.47331017 -0.57243621 0.00000057
-0.21432082 -0.18463539 0.00000154
-0.46350539 -0.63449508 0.00000041
-0.02526897 -0.07673921 0.00000181
-0.24300872 0.28117904 0.00000246
-0.07553858 -0.15754402 0.00000161
-0.15915854 0.38422635 0.00000001
-0.04542080 0.46317014 -0.00000150
-0.02483356 -0.68949097 0.00000028
-0.39195067 -0.48506358 0.00000079
-0.00114329 -0.32071954 0.00000120
-0.77710223 -0.45378679 -0.00000087
-0.66022080 -0.23052381 -0.00000057
-0.14678092 0.36195338 -0.00000077
-0.34386760 0.43622598 0.00000144
-0.03364923 0.71447909 0.00000320
-0.06728079 0.22144102 -0.00000574
-0.00288241 0.31889740 -0.00000554
-0.44892317 -0.16931725 0.00000117
-0.21688451 -0.50618869 0.00000073
-0.27040663 -0.06491935 0.00000184
-0.01090037 -0.11702236 0.00000179
-0.74084997 -0.37706378 -0.00000106
-0.63598609 -0.23779532 -0.00000035
-0.16754106 -0.34142122 0.00000115
-0.23965876 -0.56272632 0.00000059
-0.02683297 0.46705481 -0.00000193
-0.32418796 -0.33164585 0.00000117
-0.28272346 0.17295955 0.00000224
-0.61493397 -0.11719443 -0.00000030
-0.57327795 -0.33114678 0.00000028
-0.13676818 -0.75146466 0.00000012
-0.22563276 0.35948136 0.00000253
-0.47497258 0.05191558 0.00000072
-0.41480288 -0.34909573 0.00000113
-0.08651136 -0.66292500 0.00000034
-0.25172666 -0.03961682 0.00000190
-0.29158407 -0.34285274 0.00000114
-0.32216567 -0.17650636 0.00000156
-0.68823022 -0.54514587 -0.00000048
-0.32980105 0.43937939 0.00000156
-0.61197895 -0.48836818 0.00000011
-0.06309260 0.25133702 -0.00000526
-0.76513183 -0.21945100 -0.00000145
-0.31832552 0.00178604 -0.00000332
-0.33842927 -0.47162846 0.00000082
-0.43273324 -0.70173895 0.00000025
-0.41732270 -0.69749552 0.00000026
-0.26027110 -0.36608049 0.00000108
-0.17359692 0.60946238 0.00000272
-0.00987001 -0.70138669 0.00000032
-0.41449559 -0.14202623 0.00000144
-0.43451536 -0.04594250 0.00000117
-0.60519516 -0.12551835 -0.00000021
-0.21672013 -0.77309448 0.00000007
-0.17845921 -0.02737998 0.00000193
-0.26767427 0.46921667 0.00000206
-0.72480333 -0.60791659 -0.00000048
-0.65678030 -0.77828223 0.00000003
-0.26195464 0.39340776 0.00000219
-0.25219440 0.24775007 0.00000242
-0.04742258 0.26930314 -0.00000533
-0.75304615 -0.34182245 -0.00000115
-0.69257259 -0.53464532 -0.00000053
-0.27184716 -0.29701713 0.00000126
-0.48552543 0.00333023 0.00000068
-0.32001472 -0.52133095 0.00000070
-0.43979344 -0.40559956 0.00000099
-0.36891860 -0.06236577 0.00000174
-0.21484549 0.05105535 -0.00000514
-0.31793284 -0.17956915 0.00000155
-0.67436916 0.01885872 -0.00000095
-0.27013338 -0.52531928 0.00000069
-0.59731412 -0.71338177 0.00000022
-0.06774065 -0.78456771 0.00000004
-0.08774840 -0.47049680 0.00000082
-0.00456562 0.09431956 -0.00000999
-0.42166561 0.10967655 0.00000112
-0.38925251 -0.76284695 0.00000009
-0.09929845 -0.02385721 0.00000194
-0.29499611 -0.77043891 0.00000007
-0.01136661 -0.38974014 0.00000103
-0.00239947 0.41603187 -0.00000361
-0.65057129 -0.67852318 -0.00000002
-0.46300054 0.12362632 0.00000075
-0.29250240 0.05308123 -0.00000299
-0.02008325 0.16766796 -0.00000810
-0.76026487 -0.12765212 -0.00000153
-0.35944378 -0.65977693 0.00000035
-0.29509920 0.21000828 0.00000209
-0.65621686 0.02003425 -0.00000079
-0.09293381 -0.60613042 0.00000048
-0.38737270 0.20597667 0.00000131
-0.76072538 -0.79583007 -0.00000001
-0.00120452 -0.56437624 0.00000059
-0.75702238 -0.52272433 -0.00000069
-0.28918734 -0.54822391 0.00000063
-0.21803230 -0.21646950 0.00000146
-0.56371760 -0.49713200 0.00000053
-0.31546402 -0.47197783 0.00000082
-0.27033129 -0.28222919 0.00000129
-0.32252279 0.04213598 0.00000203
-0.07391775 0.14252189 -0.00000714
-0.48541969 -0.55061877 0.00000062
-0.66099840 -0.56566203 -0.00000023
-0.06610766 0.57478172 0.00000129
-0.48986989 0.14590016 0.00000050
-0.24577877 -0.41833282 0.00000095
-0.37393206 0.02330599 0.00000161
-0.39715755 -0.62532818 0.00000044
-0.07435396 0.15901178 -0.00000680
-0.51771331 0.06396785 0.00000034
-0.04094275 0.62314653 0.00000157
-0.68684715 -0.32273701 -0.00000070
-0.33524558 -0.46758416 0.00000083
-0.53427696 -0.70996237 0.00000023
-0.21057144 -0.72989142 0.00000018
-0.07251396 -0.71844000 0.00000020
-0.27813295 -0.30315247 0.00000124
-0.70877725 -0.65662336 -0.00000036
-0.57614297 0.14556809 -0.00000024
-0.27991229 0.17157649 0.00000226
-0.64749348 -0.35246050 -0.00000033
-0.33115560 -0.05984050 0.00000185
-0.04803594 -0.50199556 0.00000075
-0.19061968 0.11086492 -0.00000461
-0.48079136 -0.45106602 0.00000087
-0.08218880 -0.01941051 0.00000195
-0.66869915 -0.72216547 -0.00000013
-0.33927298 -0.79300421 0.00000002
-0.65601057 -0.03049612 -0.00000074
-0.04152680 0.43908352 -0.00000209
-0.43116197 -0.66410989 0.00000034
-0.57166940 -0.24730833 0.00000021
-0.57583195 -0.15230061 0.00000007
-0.68312526 -0.00342053 -0.00000100
-0.66368079 -0.71024871 -0.00000010
-0.76203030 -0.43984392 -0.00000090
-0.63355941 -0.02564249 -0.00000055
-0.13579065 -0.50733393 0.00000073
-0.07097576 -0.76105773 0.00000010
-0.77446663 -0.61742079 -0.00000046
-0.79496884 -0.50842553 -0.00000073
-0.25160083 -0.70544511 0.00000024
-0.15918276 0.54203779 0.00000291
-0.20253083 -0.58135229 0.00000055
-0.62574333 -0.75866938 0.00000010
-0.17281833 -0.44978526 0.00000088
-0.16771194 -0.67044681 0.00000032
-0.44925472 -0.72465086 0.00000019
-0.24110447 0.26245928 0.00000250
-0.12025307 0.07961813 -0.00000714
-0.49994627 0.10190003 0.00000046
-0.05590738 0.53200042 0.00000016
-0.24237937 0.54799414 0.00000219
-0.34945804 0.22330710 0.00000161
-0.73034000 -0.52215010 -0.00000069
-0.11645376 -0.56047750 0.00000060
-0.01314811 -0.54948151 0.00000063
-0.45975164 -0.75591910 0.00000011
-0.32764307 0.04383791 0.00000199
-0.42621854 0.23067051 0.00000095
-0.22005139 -0.12962204 0.00000168
-0.59532446 -0.19291748 -0.00000005
-0.26355374 0.33873191 0.00000223
-0.17915183 -0.48447895 0.00000079
-0.24121800 0.27119929 0.00000249
-0.05219216 -0.48980874 0.00000078
-0.00046775 -0.74046850 0.00000015
-0.04734137 0.57382190 0.00000076
-0.46752974 -0.22817405 0.00000107
-0.49729556 -0.12590489 0.00000071
-0.37029147 0.06007268 0.00000161
-0.00977480 -0.35473156 0.00000111
-0.31037316 -0.30377716 0.00000124
-0.63812488 -0.60298026 0.00000001
-0.13966846 0.26502949 -0.00000291
-0.25445449 -0.74513108 0.00000014
-0.33041412 0.23594049 0.00000176
-0.55125153 0.16469415 -0.00000005
-0.75067627 -0.40541920 -0.00000099
-0.01485702 0.72417194 0.00000289
-0.11087020 0.07481446 -0.00000749
-0.11748220 -0.26686400 0.00000133
-0.48675057 -0.58657241 0.00000053
-0.35636440 0.39223155 0.00000138
-0.63817012 -0.09373636 -0.00000052
-0.23676883 -0.14042677 0.00000165
-0.40162390 0.21670511 0.00000118
-0.14389275 -0.04009887 0.00000190
-0.60041440 -0.43598405 0.00000016
-0.04091290 -0.07722423 0.00000181
-0.46490955 0.00352636 0.00000086
-0.47103575 0.07129518 0.00000073
-0.24641962 -0.50869924 0.00000073
-0.13166946 0.33502382 -0.00000172
-0.70873100 0.07772727 -0.00000130
-0.16348572 -0.34442309 0.00000114
-0.47726673 -0.70610613 0.00000023
-0.57251769 -0.14682552 0.00000009
-0.00260336 -0.30300698 0.00000124
-0.03273777 0.63796729 0.00000165
-0.31522164 0.34193581 0.00000178
-0.41697684 -0.52207386 0.00000069
-0.13825902 0.31858614 -0.00000187
-0.25271788 -0.20643070 0.00000148
-0.79118800 0.00219128 -0.00000193
-0.62276238 -0.05006266 -0.00000044
-0.32996440 -0.75415444 0.00000011
-0.20715009 -0.32207429 0.00000119
-0.18861751 0.40574765 0.00000280
-0.75144398 -0.05336216 -0.00000153
-0.79464859 -0.41811901 -0.00000095
-0.00600251 0.65084743 0.00000118
-0.02571942 -0.59707993 0.00000051
-0.44916686 -0.02371358 0.00000102
-0.54083151 -0.52491575 0.00000069
-0.42204317 -0.47199684 0.00000082
-0.29786375 0.38573930 0.00000189
-0.54291850 -0.07264250 0.00000027
-0.26144266 0.05782111 -0.00000374
-0.02802947 -0.64111882 0.00000040
-0.53102046 -0.24889523 0.00000055
-0.06383501 0.59517390 0.00000164
-0.09664272 -0.78215951 0.00000004
-0.07835266 0.31097227 -0.00000365
-0.58558387 -0.57860106 0.00000043
-0.10592935 0.09034911 -0.00000732
-0.31993479 -0.53497171 0.00000066
-0.34865814 -0.61762875 0.00000046
-0.35467985 -0.58189058 0.00000055
-0.20379212 -0.45214650 0.00000087
-0.05641179 0.34633788 -0.00000354
-0.19325525 0.44696590 0.00000272
-0.45996886 0.05966327 0.00000084
-0.77539366 0.00759257 -0.00000180
-0.43042108 0.28837383 0.00000086
-0.39969230 -0.32947069 0.00000118
-0.65676588 -0.65325832 -0.00000010
-0.11493034 -0.59107530 0.00000052
-0.06701645 -0.07976933 0.00000180
-0.25242969 0.19206005 0.00000247
-0.05516872 0.07178205 -0.00000907
-0.02587368 -0.50218350 0.00000074
-0.72238863 -0.14597400 -0.00000119
-0.47606784 -0.55957752 0.00000060
-0.36852929 -0.75079221 0.00000012
-0.05760010 0.35967839 -0.00000324
-0.11875049 0.59074342 0.00000320
-0.60707778 -0.14636354 -0.00000020
-0.43107238 -0.45486075 0.00000086
-0.79843384 -0.65076572 -0.00000037
-0.67772597 -0.41798034 -0.00000052
-0.64737976 -0.37327188 -0.00000031
-0.36752981 -0.52612549 0.00000068
-0.59915805 -0.46751338 0.00000020
-0.11051332 0.07781890 -0.00000744
-0.34425983 -0.25525662 0.00000136
-0.45468220 -0.33384931 0.00000117
-0.03081241 0.74126196 0.00000380
-0.08250729 0.67291558 0.00000343
-0.18238097 0.08242310 -0.00000540
-0.44400296 0.30631518 0.00000072
-0.60375732 -0.69210517 0.00000027
-0.48591080 -0.56694502 0.00000058
-0.60718369 0.01861808 -0.00000037
-0.27306500 0.52570432 0.00000195
-0.39619875 0.10332388 0.00000134
-0.71372265 -0.27128756 -0.00000098
-0.15232019 0.21910886 -0.00000348
-0.09243313 -0.21532403 0.00000146
-0.54834294 -0.27788869 0.00000044
-0.36253357 0.28355125 0.00000144
-0.49197719 0.01132304 0.00000062
-0.55006468 -0.75935042 0.00000010
-0.45661882 -0.03564317 0.00000097
-0.06395253 -0.28362849 0.00000129
-0.01942535 -0.20842411 0.00000148
-0.14741260 -0.47031119 0.00000082
-0.39851570 -0.38417417 0.00000104
-0.04995940 -0.39767331 0.00000101
-0.40606838 0.35537556 0.00000099
-0.64118105 -0.52329266 -0.00000010
-0.18965638 0.37328446 0.00000282
-0.61117947 -0.35390013 -0.00000002
-0.48235908 0.14803174 0.00000056
-0.27096188 0.34654757 0.00000216
-0.33430243 -0.56466305 0.00000059
-0.72492099 -0.06107637 -0.00000130
-0.06134044 0.60863531 0.00000184
-0.16248901 0.04486428 -0.00000669
-0.64758587 0.00099751 -0.00000070
-0.13938801 -0.78726864 0.00000003
-0.54400861 0.04405694 0.00000014
-0.07875792 0.13356408 -0.00000719
-0.49151266 0.28593913 0.00000034
-0.06999331 -0.34558123 0.00000114
-0.28673759 -0.13259003 0.00000167
-0.09093884 0.24779196 -0.00000457
-0.39854226 -0.73359740 0.00000017
-0.25237495 0.00541338 -0.00000504
-0.19354282 -0.45560944 0.00000086
-0.52481455 0.26622492 0.00000007
-0.48660809 0.21289864 0.00000045
-0.64966410 -0.62832159 -0.00000007
-0.33673191 -0.56897509 0.00000058
-0.04083923 -0.53060031 0.00000067
-0.61243403 -0.58245510 0.00000020
-0.41106951 -0.74017584 0.00000015
-0.26886609 -0.55960310 0.00000060
-0.17262715 0.59097862 0.00000274
-0.09429874 0.03075884 -0.00000882
-0.56749862 -0.72426707 0.00000019
-0.22996663 0.21640055 -0.00000143
-0.39470300 -0.45683989 0.00000086
-0.67283696 -0.41238976 -0.00000049
-0.75852060 -0.59117526 -0.00000052
-0.34290612 -0.17052798 0.00000157
-0.64467305 -0.13849279 -0.00000053
-0.00320582 -0.41710177 0.00000098
-0.57667696 -0.48459378 0.00000041
-0.53272182 -0.21424091 0.00000050
-0.45254368 -0.73450667 0.00000016
-0.75816882 -0.62358320 -0.00000044
-0.74168915 -0.55632436 -0.00000061
-0.68118763 -0.59324592 -0.00000037
-0.41532674 -0.79490769 0.00000001
-0.39404428 -0.14069036 0.00000161
-0.16230896 0.28605247 -0.00000187
-0.00938125 0.02075845 -0.00001133
-0.40767059 -0.78605896 0.00000003
-0.27703717 -0.50237787 0.00000074
-0.78208452 -0.17931400 -0.00000155
-0.04390008 -0.10407245 0.00000174
-0.15686598 0.49305221 0.00000298
-0.04182517 -0.31739050 0.00000121
-0.21406662 0.32827446 0.00000266
-0.33449873 0.40733138 0.00000155
-0.47411978 -0.31122473 0.00000110
-0.08272901 -0.37161180 0.00000107
-0.52716118 0.21827257 0.00000010
-0.20215449 0.21890464 -0.00000213
-0.41844487 -0.43482161 0.00000091
-0.06515026 0.31278971 -0.00000397
-0.61427337 -0.54513687 0.00000015
-0.21437304 0.16853324 -0.00000281
-0.50408584 -0.09927664 0.00000063
-0.41470456 -0.06621949 0.00000136
-0.62188530 0.04150238 -0.00000052
-0.51496881 -0.04770873 0.00000048
-0.30039614 0.12310961 0.00000214
-0.62731194 -0.67352962 0.00000017
-0.06458644 -0.53714323 0.00000066
-0.05086762 -0.45216039 0.00000087
-0.02993250 0.73191816 0.00000382
-0.37170473 -0.76652557 0.00000008
-0.31383920 -0.54779828 0.00000063
-0.03550252 -0.75028247 0.00000012
-0.79867524 -0.02230718 -0.00000194
-0.76872891 -0.21912324 -0.00000145
-0.01118360 -0.68731678 0.00000028
-0.33193457 0.32870141 0.00000165
-0.34279898 -0.72765172 0.00000018
-0.22485979 0.13741116 -0.00000314
-0.39750922 0.08534738 0.00000135
-0.14480951 -0.69510269 0.00000026
-0.18037359 -0.72686702 0.00000018
-0.56383872 0.08026482 -0.00000007
-0.15153702 -0.40098700 0.00000100
-0.10191410 0.21606755 -0.00000491
-0.33256334 -0.53272241 0.00000067
-0.26512229 0.13958170 -0.00000201
-0.37720573 0.29230320 0.00000131
-0.26811996 -0.60285681 0.00000049
-0.07867796 -0.60793096 0.00000048
-0.57474929 -0.28579274 0.00000022
-0.15407218 -0.16086917 0.00000160
-0.63534117 -0.34048903 -0.00000024
-0.04311394 0.16808727 -0.00000747
-0.71662962 -0.59120196 -0.00000052
