ply
format ascii 1.0
element vertex 1136
property float x
property float y
property float z
end_header
-0.09218871 0.21251345 -0.00000445
-0.57953382 -0.40209392 0.00000078
-0.14961500 -0.73874074 -0.00000018
-0.54056293 0.23543032 0.00000093
-0.14236657 0.35103711 0.00000020
-0.05859973 -0.68223310 0.00000034
-0.18808582 0.45855176 0.00000496
-0.21740279 0.39363769 0.00000465
-0.09859796 -0.45075533 0.00000123
-0.36376259 -0.78202063 -0.00000102
-0.60779709 0.08001594 0.00000022
-0.76625866 -0.46466723 -0.00000084
-0.12425697 0.20649472 -0.00000372
-0.55971444 -0.66117764 -0.00000108
-0.01205017 0.66544724 0.00000413
-0.78896886 -0.12511119 -0.00000169
-0.03115463 -0.32737410 0.00000207
-0.64566582 -0.41560677 0.00000001
-0.02575556 0.50975060 0.00000081
-0.60687369 -0.64579189 0.00000058
-0.29478258 -0.13214044 0.00000203
-0.78034067 -0.41545317 -0.00000096
-0.36635941 -0.73688412 -0.00000083
-0.62642568 -0.38059026 0.00000022
-0.68997717 -0.08238616 -0.00000067
-0.34693426 -0.73244208 -0.00000075
-0.29592744 -0.30966893 0.00000125
-0.19729979 -0.65292597 0.00000005
-0.23466454 0.13343577 -0.00000246
-0.01822956 -0.07527427 0.00000312
-0.02101905 -0.04770805 0.00000323
-0.24001621 -0.50629795 0.00000056
-0.09231550 -0.23232806 0.00000220
-0.07610987 -0.56113422 0.00000082
-0.14930058 -0.74507171 -0.00000021
-0.29537198 -0.71797711 -0.00000053
-0.01709799 0.73321342 0.00000588
-0.07099764 -0.29529113 0.00000199
-0.37832612 -0.22163288 0.00000139
-0.31215426 -0.51252204 0.00000032
-0.22850636 -0.27751863 0.00000160
-0.12141129 -0.77398068 -0.00000025
-0.27574348 -0.21911031 0.00000171
-0.25828689 0.01001861 -0.00000475
-0.23542036 0.39787176 0.00000443
-0.21350025 -0.34628740 0.00000134
-0.42243698 -0.72948712 -0.00000097
-0.77379340 -0.42702925 -0.00000093
-0.06869431 0.18086091 -0.00000584
-0.08261182 -0.23639432 0.00000222
-0.06613213 -0.76595038 -0.00000005
-0.59684056 0.15120111 0.00000031
-0.02347052 0.14436361 -0.00000793
-0.56485426 -0.40822238 0.00000096
-0.18147039 -0.74537951 -0.00000031
-0.75504768 -0.69595522 -0.00000026
-0.59971124 -0.08261416 0.00000039
-0.06734074 -0.09169990 0.00000290
-0.27661824 -0.58392745 0.00000011
-0.22645836 -0.67111760 -0.00000012
-0.71239996 -0.60637498 -0.00000048
-0.35120061 -0.29537559 0.00000115
-0.26841193 0.46189705 0.00000401
-0.46410233 0.24779069 0.00000182
-0.49183071 -0.39853165 0.00000027
-0.75777745 -0.72316223 -0.00000019
-0.75101376 -0.23634069 -0.00000131
-0.16147645 -0.71475452 -0.00000011
-0.12996958 -0.32623866 0.00000168
-0.71572405 -0.43561667 -0.00000080
-0.25101307 -0.74848443 -0.00000053
-0.18702573 -0.57802844 0.00000041
-0.04692091 -0.08685234 0.00000298
-0.55365330 -0.79074645 -0.00000163
-0.26330552 0.41151398 0.00000410
-0.68740743 -0.61903536 -0.00000038
-0.00506113 -0.57471371 0.00000099
-0.31528446 -0.23694657 0.00000151
-0.18316489 -0.21776883 0.00000199
-0.14252485 0.37629148 0.00000081
-0.04893642 0.45535848 0.00000014
-0.56113881 -0.35926023 0.00000098
-0.24435046 -0.15957633 0.00000206
-0.18486737 -0.21185659 0.00000202
-0.50224572 -0.55421627 -0.00000044
-0.40793684 -0.75147069 -0.00000102
-0.33228609 0.01711680 0.00000348
-0.11410780 -0.21241862 0.00000223
-0.12982354 0.52029759 0.00000561
-0.05618779 0.45367181 0.00000030
-0.48424217 -0.59107727 -0.00000055
-0.44262230 0.21468380 0.00000209
-0.14187135 -0.59148657 0.00000048
-0.78553981 -0.06404966 -0.00000180
-0.13283731 0.47916955 0.00000299
-0.20932157 0.29169750 0.00000061
-0.62079906 -0.33547711 0.00000027
-0.11386086 -0.19674368 0.00000230
-0.38699788 -0.23506775 0.00000130
-0.39521322 -0.60629821 -0.00000035
-0.31269014 -0.57826078 0.00000003
-0.49654272 -0.01854782 0.00000157
-0.17760579 0.01049519 -0.00000693
-0.01762466 -0.07656568 0.00000317
-0.40982771 -0.64469957 -0.00000056
-0.39323822 -0.64202291 -0.00000050
-0.01694579 -0.15669422 0.00000276
-0.53691173 -0.36162013 0.00000126
-0.58864385 0.21035942 0.00000038
-0.04240831 0.57651615 0.00000284
-0.41640583 -0.52701157 -0.00000006
-0.14225203 -0.62713522 0.00000033
-0.43519419 -0.53462535 -0.00000015
-0.05246612 -0.54031295 0.00000098
-0.21856700 -0.66545457 -0.00000007
-0.32279783 -0.34021863 0.00000104
-0.33042717 0.46785584 0.00000330
-0.21632247 -0.40104643 0.00000109
-0.12097370 0.45614541 0.00000212
-0.34665874 0.28809634 0.00000318
-0.25754827 -0.66592962 -0.00000019
-0.15309210 -0.29278946 0.00000176
-0.27609330 0.49294689 0.00000391
-0.62232006 -0.05738731 0.00000011
-0.79602957 -0.24932517 -0.00000138
-0.45208466 0.10571722 0.00000203
-0.29319647 0.13155325 0.00000388
-0.56276441 -0.61019421 -0.00000087
-0.35870066 0.11268085 0.00000312
-0.19793321 0.37013620 0.00000489
-0.54629678 -0.28205380 0.00000111
-0.22621363 0.25117686 0.00000011
-0.63468301 -0.24521446 0.00000006
-0.13500737 0.21311183 -0.00000327
-0.13601585 -0.40215579 0.00000133
-0.11203623 -0.36649945 0.00000156
-0.42206702 0.11350623 0.00000238
-0.36601606 -0.15107252 0.00000173
-0.66394341 -0.41378599 -0.00000020
-0.55530220 0.17652895 0.00000079
-0.27244407 0.44348741 0.00000398
-0.70967698 -0.70481569 -0.00000024
-0.53561550 -0.43846393 0.00000132
-0.59602064 0.19918817 0.00000030
-0.74774158 -0.59221870 -0.00000052
-0.00128739 -0.31036445 0.00000214
-0.57151479 -0.15854095 0.00000076
-0.68250597 0.10331557 -0.00000067
-0.13148136 0.45515454 0.00000238
-0.08396009 -0.58175123 0.00000070
-0.69977182 -0.13314582 -0.00000076
-0.36840579 -0.19380666 0.00000154
-0.67602175 0.09251068 -0.00000059
-0.10854338 0.60515189 0.00000582
-0.53867322 -0.10427299 0.00000112
-0.08576270 0.31758273 -0.00000213
-0.04403156 0.12331244 -0.00000788
-0.04013271 -0.13562626 0.00000279
-0.42483065 -0.73156625 -0.00000098
-0.11546051 0.07601068 -0.00000706
-0.52084577 -0.62882614 -0.00000082
-0.25812393 0.19785123 0.00000426
-0.12987860 0.23814639 -0.00000282
-0.72641015 -0.45549670 -0.00000086
-0.27471218 -0.12463377 0.00000213
-0.40244025 0.20155255 0.00000257
-0.41785556 -0.01321631 0.00000249
-0.28775957 -0.79895037 -0.00000086
-0.77813256 -0.14091061 -0.00000165
-0.16103917 0.04134235 -0.00000664
-0.66772425 -0.50610822 -0.00000020
-0.13789366 -0.56760228 0.00000060
-0.28110674 0.17274404 0.00000401
-0.73620778 -0.29753622 -0.00000111
-0.16176948 -0.06246864 0.00000274
-0.45263654 0.10818923 0.00000202
-0.19341663 -0.49054408 0.00000077
-0.46470380 -0.21607463 0.00000204
-0.27056015 -0.02096796 0.00000259
-0.64948553 -0.07301033 -0.00000020
-0.69885451 -0.28111139 -0.00000068
-0.75766188 -0.34170809 -0.00000115
-0.37377727 -0.53163540 0.00000005
-0.09468968 -0.30460960 0.00000188
-0.19715901 -0.47498181 0.00000083
-0.78476292 -0.48739919 -0.00000078
-0.03196225 -0.21122411 0.00000248
-0.06801315 -0.14760143 0.00000265
-0.21750204 0.37553748 0.00000465
-0.30793265 -0.42356360 0.00000072
-0.48095965 -0.35978204 0.00000192
-0.59048164 0.10705389 0.00000041
-0.77001578 -0.64160007 -0.00000040
-0.10328614 0.23358327 -0.00000365
-0.75087178 -0.12663817 -0.00000136
-0.22470342 -0.38988996 0.00000112
-0.18722109 -0.30119061 0.00000162
-0.31190845 -0.61551321 -0.00000013
-0.33460781 0.31008193 0.00000331
-0.26644602 -0.51055628 0.00000046
-0.10536881 -0.31902325 0.00000179
-0.54262257 -0.22890335 0.00000113
-0.67358893 -0.72092271 -0.00000017
-0.14971767 -0.59850591 0.00000043
-0.10443791 -0.02174937 0.00000309
-0.00391554 -0.51316434 0.00000124
-0.13190977 0.08124072 -0.00000649
-0.14108317 -0.42993432 0.00000119
-0.70863831 -0.83400393 0.12243404
-0.41019726 -0.11149023 0.00000263
-0.68607044 -0.30322960 -0.00000052
-0.14822453 -0.75931263 -0.00000027
-0.63926256 0.11756477 -0.00000017
-0.58217841 -0.54430461 0.00000082
-0.70051193 -0.78981733 -0.00000003
-0.44213319 0.29611373 0.00000206
-0.56812441 -0.62607032 -0.00000095
-0.16748451 0.47945437 0.00000519
-0.40209928 -0.71450067 -0.00000084
-0.68713903 -0.50034952 -0.00000043
-0.04978741 0.08044922 -0.00000874
-0.09588368 -0.62197876 0.00000049
-0.59915411 0.03163338 0.00000034
-0.60269225 0.11770554 0.00000026
-0.08844323 -0.34341216 0.00000173
-0.06003711 -0.52396655 0.00000103
-0.28179517 -0.71936738 -0.00000050
-0.18871219 -0.49128416 0.00000078
-0.71894777 -0.78064573 -0.00000005
-0.29471323 -0.26062059 0.00000147
-0.58327812 -0.49541098 0.00000078
-0.45684811 -0.53286964 -0.00000021
-0.04127931 -0.26171353 0.00000223
-0.54507941 0.03224631 0.00000098
-0.07338190 0.51888919 0.00000232
-0.62152600 0.13937932 0.00000003
-0.08387170 -0.20255917 0.00000236
-0.51781988 -0.75195581 -0.00000135
-0.01661324 0.11279693 -0.00000887
-0.48958987 -0.76779467 -0.00000134
-0.56946611 -0.35954785 0.00000088
-0.53516406 -0.42702618 0.00000132
-0.21415547 -0.51125783 0.00000062
-0.19335625 -0.47716197 0.00000083
-0.17938592 0.26609817 -0.00000081
-0.39927167 0.35672009 0.00000253
-0.20866472 -0.69679940 -0.00000018
-0.00250109 0.29619607 -0.00000490
-0.66804868 -0.47439733 -0.00000022
-0.55083257 -0.54413539 -0.00000054
-0.35943383 -0.75743002 -0.00000090
-0.65602297 -0.17958044 -0.00000022
-0.73600644 -0.11486574 -0.00000119
-0.41556129 -0.11035456 0.00000257
-0.36291122 -0.57004756 -0.00000009
-0.35920072 -0.52400255 0.00000012
-0.65299886 -0.03565344 -0.00000026
-0.32175112 -0.64621514 -0.00000030
-0.74873036 -0.60305315 -0.00000049
-0.03067481 -0.08499255 0.00000304
-0.09305246 -0.48201817 0.00000111
-0.68886197 -0.41944164 -0.00000049
-0.43380851 0.02207800 0.00000229
-0.48395231 -0.49592406 -0.00000013
-0.15966319 0.21611410 -0.00000253
-0.58886313 -0.03417404 0.00000049
-0.29977989 -0.48009601 0.00000049
-0.07662441 -0.76196551 -0.00000006
-0.69763786 0.03208300 -0.00000081
-0.08810880 0.45859274 0.00000128
-0.61673576 -0.12490185 0.00000021
-0.51743799 -0.02902055 0.00000133
-0.48172212 0.30709478 0.00000159
-0.55473655 0.24064212 0.00000080
-0.16908495 -0.68300694 0.00000000
-0.00202712 -0.65910298 0.00000062
-0.24129154 -0.49967647 0.00000059
-0.09767151 0.37338710 -0.00000048
-0.01426243 -0.33370489 0.00000200
-0.02755463 0.63468289 0.00000382
-0.11773499 0.46996364 0.00000236
-0.46210316 -0.39804295 0.00000036
-0.06964908 0.40891880 -0.00000040
-0.60962147 -0.23109356 0.00000035
-0.63743651 -0.26139298 0.00000004
-0.60541892 -0.23911503 0.00000040
-0.13178568 0.32281780 -0.00000075
-0.19771411 -0.17024393 0.00000216
-0.25159845 0.32579327 0.00000428
-0.20848779 -0.19682153 0.00000201
-0.22916850 0.20668899 -0.00000087
-0.32235041 -0.76255447 -0.00000081
-0.51205790 -0.45177856 -0.00000002
-0.42100263 0.19203499 0.00000235
-0.16258080 -0.74999332 -0.00000027
-0.55531251 -0.05717434 0.00000090
-0.04303273 -0.24639486 0.00000229
-0.74631715 -0.46437079 -0.00000084
-0.31062245 -0.49988985 0.00000038
-0.64018244 -0.09089659 -0.00000008
-0.44636488 -0.32884333 0.00000071
-0.01216246 -0.75617254 0.00000019
-0.39291504 -0.68114084 -0.00000067
-0.43771973 -0.41388959 0.00000037
-0.39964187 0.06586514 0.00000267
-0.12098966 0.60428667 0.00000568
-0.70568824 -0.49724406 -0.00000065
-0.65198594 -0.51345623 -0.00000001
-0.20885032 0.21499395 -0.00000122
-0.00878296 -0.17063126 0.00000273
-0.05042664 -0.67979306 0.00000037
-0.21264635 -0.21725032 0.00000191
-0.26297456 0.28641278 0.00000416
-0.53236413 -0.18691157 0.00000123
-0.23683441 -0.72236037 -0.00000038
-0.11720258 -0.66549891 0.00000023
-0.38601634 0.33249307 0.00000270
-0.47752926 -0.78255773 -0.00000136
-0.21744245 0.51009887 0.00000459
-0.44645512 0.32209092 0.00000199
-0.47159034 -0.06479739 0.00000189
-0.00369263 0.52133358 0.00000048
-0.25883693 0.00769254 -0.00000479
-0.00539356 -0.16812178 0.00000275
-0.57399940 -0.77831948 -0.00000164
-0.25683907 0.12165296 -0.00000214
-0.25851122 -0.31962964 0.00000132
-0.40235195 -0.38734403 0.00000059
-0.33009702 0.30714363 0.00000337
-0.19516000 -0.18746428 0.00000209
-0.44269204 -0.52345771 -0.00000013
-0.26129642 -0.43742064 0.00000080
-0.64200747 -0.09716389 -0.00000010
-0.25096673 0.23747042 0.00000433
-0.68187749 -0.26495287 -0.00000048
-0.48192075 0.30904031 0.00000158
-0.77108407 -0.24820764 -0.00000138
-0.07631048 0.65090716 0.00000618
-0.58290881 -0.27572978 0.00000068
-0.38025409 -0.29756561 0.00000105
-0.07634304 -0.06193856 0.00000300
-0.12125461 -0.34890488 0.00000161
-0.29599300 -0.32962778 0.00000116
-0.41380963 0.34927201 0.00000236
-0.20027643 -0.26332504 0.00000174
-0.01072458 -0.17141037 0.00000275
-0.11013797 -0.74100882 -0.00000007
-0.79614866 -0.44918120 -0.00000088
-0.70724905 -0.38518184 -0.00000072
-0.29969779 -0.18989068 0.00000176
-0.25550693 0.27311778 0.00000426
-0.21639086 -0.54516929 0.00000046
-0.51103848 -0.20651357 0.00000149
-0.35207212 0.27468535 0.00000312
-0.20243964 -0.49116075 0.00000074
-0.15787841 -0.05209251 0.00000280
-0.01537878 -0.55408043 0.00000103
-0.19275688 0.24324268 -0.00000099
-0.41722864 -0.22217801 0.00000127
-0.52201605 -0.47332063 -0.00000015
-0.51505607 0.19273072 0.00000125
-0.75245404 -0.61718714 -0.00000046
-0.52681285 0.06772978 0.00000117
-0.21702771 -0.46071967 0.00000083
-0.68835336 -0.71034932 -0.00000022
-0.46280333 -0.29340214 0.00000210
-0.23041147 -0.61963385 0.00000009
-0.58121580 -0.05028846 0.00000059
-0.01096042 -0.29933098 0.00000219
-0.41471812 -0.32097188 0.00000084
-0.23900604 -0.51081848 0.00000054
-0.00334871 -0.17510989 0.00000273
-0.71303934 -0.07075371 -0.00000094
-0.36673984 0.03156583 0.00000307
-0.36229289 0.31727961 0.00000298
-0.37820685 0.22008079 0.00000284
-0.13481362 0.48333097 0.00000557
-0.18714914 0.15442568 -0.00000325
-0.13681088 0.12716356 -0.00000526
-0.10096898 0.11202826 -0.00000660
-0.76799613 -0.00264442 -0.00000162
-0.39791998 0.36764261 0.00000254
-0.00303145 -0.52938336 0.00000117
-0.69725537 -0.41315317 -0.00000059
-0.15922721 -0.19534187 0.00000216
-0.41073644 0.16534765 0.00000249
-0.68937838 -0.59785235 -0.00000041
-0.19797787 -0.00226180 0.00000289
-0.30098295 -0.06280236 0.00000232
-0.03185717 -0.38112509 0.00000174
-0.62774926 0.04168732 0.00000000
-0.60686445 -0.41918179 0.00000047
-0.63307977 -0.40548760 0.00000016
-0.41455051 0.36099511 0.00000235
-0.29639983 -0.62055373 -0.00000011
-0.48600268 0.26924855 0.00000155
-0.64131105 -0.37432790 0.00000004
-0.71412998 -0.79275715 -0.00000002
-0.57341892 -0.53393149 0.00000092
-0.22523966 -0.35128519 0.00000128
-0.39927462 0.24731812 0.00000258
-0.13652404 -0.73455793 -0.00000013
-0.07556106 -0.58299732 0.00000072
-0.27864566 -0.59799463 0.00000004
-0.69561130 -0.17132626 -0.00000069
-0.61633378 -0.63969576 0.00000047
-0.25435653 0.26354602 0.00000428
-0.25608766 -0.33234939 0.00000127
-0.37516814 -0.12099577 0.00000184
-0.12856615 0.19781339 -0.00000381
-0.00615435 -0.12019866 0.00000297
-0.50888270 0.16618691 0.00000134
-0.48068544 -0.38096988 0.00000038
-0.13447376 0.64342219 0.00000550
-0.49417132 -0.66472787 -0.00000090
-0.37834367 0.32490090 0.00000279
-0.60933006 -0.04986396 0.00000026
-0.58846211 -0.01069293 0.00000049
-0.74886584 0.03448632 -0.00000142
-0.77033222 -0.26729667 -0.00000133
-0.14555806 0.17471543 -0.00000390
-0.40396729 0.39217535 0.00000246
-0.36455500 -0.76681638 -0.00000095
-0.34072286 -0.08627409 0.00000209
-0.55244583 0.01613522 0.00000090
-0.75133592 -0.02788188 -0.00000142
-0.13096389 -0.65026522 0.00000026
-0.11928198 0.08516223 -0.00000674
-0.32791072 0.17653280 0.00000345
-0.23905849 -0.13263875 0.00000220
-0.46448731 0.09729547 0.00000189
-0.00118839 -0.49022469 0.00000136
-0.08431695 0.23639852 -0.00000410
-0.22887503 0.19264431 -0.00000121
-0.42820257 -0.02601138 0.00000238
-0.40612319 0.02071196 0.00000261
-0.74502736 -0.17838033 -0.00000127
-0.03315994 0.62816900 0.00000382
-0.47277507 0.25155190 0.00000172
-0.43731087 0.01581953 0.00000225
-0.19476803 0.13225131 -0.00000357
-0.58764613 -0.43844080 0.00000071
-0.47052461 -0.10306246 0.00000192
-0.44849834 0.27164343 0.00000199
-0.37219802 -0.77752143 -0.00000102
-0.49515280 -0.44574308 0.00000006
-0.34413320 0.05811584 0.00000332
-0.23423406 -0.00044395 0.00000279
-0.05192421 -0.67222345 0.00000040
-0.05604443 0.27893236 -0.00000385
-0.55604303 0.11703823 0.00000081
-0.03594908 -0.77566588 -0.00000000
-0.09900901 -0.67559314 0.00000025
-0.59863538 -0.19558769 0.00000046
-0.50789732 0.03310179 0.00000141
-0.29598558 -0.42125544 0.00000076
-0.04041155 0.10274385 -0.00000846
-0.13736792 -0.15855142 0.00000239
-0.65072131 0.00137031 -0.00000025
-0.29132450 -0.13242713 0.00000204
-0.10394722 -0.05195886 0.00000296
-0.70119542 -0.76729429 -0.00000008
-0.01706231 -0.76484966 0.00000015
-0.43697101 -0.37485221 0.00000054
-0.38488135 0.10367026 0.00000282
-0.79678911 -0.33279791 -0.00000117
-0.21353593 0.43821049 0.00000467
-0.06434739 -0.13651487 0.00000271
-0.77619028 -0.76378524 -0.00000009
-0.46806189 0.20823769 0.00000179
-0.71720845 -0.60410368 -0.00000049
-0.59095925 -0.56776345 0.00000073
-0.01041534 -0.27282014 0.00000231
-0.40611249 -0.69802070 -0.00000078
-0.28981858 0.27621087 0.00000385
-0.09621316 0.23847523 -0.00000372
-0.01902845 -0.09469500 0.00000303
-0.76564837 -0.57082671 -0.00000057
-0.38104373 0.32011247 0.00000276
-0.16791198 -0.73046768 -0.00000020
-0.13705705 -0.00573069 0.00000306
-0.56201345 -0.18620460 0.00000088
-0.77962774 0.01734735 -0.00000177
-0.02972021 0.38646391 -0.00000201
-0.39470363 0.40045413 0.00000260
-0.46560502 -0.24803784 0.00000205
-0.26307458 -0.60537535 0.00000006
-0.33014756 -0.10048710 0.00000206
-0.11952029 -0.47149077 0.00000108
-0.79451591 -0.33011055 -0.00000117
-0.21133384 -0.75309169 -0.00000043
-0.05116688 -0.60787916 0.00000069
-0.04428987 0.58408356 0.00000307
-0.67363787 -0.31509855 -0.00000036
-0.35518837 0.12699264 0.00000316
-0.06387942 -0.56876248 0.00000082
-0.07670318 0.24804723 -0.00000403
-0.19018862 0.03757587 -0.00000594
-0.24808587 -0.12066217 0.00000222
-0.04114092 0.32062602 -0.00000327
-0.37553480 -0.47462499 0.00000029
-0.16341153 -0.58228809 0.00000046
-0.68947387 0.07302187 -0.00000074
-0.09283283 -0.47215819 0.00000115
-0.12542564 -0.38288489 0.00000145
-0.14316951 0.04990816 -0.00000693
-0.00283999 -0.65503585 0.00000063
-0.03555890 -0.04619772 0.00000319
-0.47388762 0.07140614 0.00000179
-0.29419267 -0.63173175 -0.00000015
-0.32569921 -0.71521813 -0.00000061
-0.63526160 -0.22221486 0.00000004
-0.26416975 -0.28580621 0.00000145
-0.75691837 -0.65783650 -0.00000036
-0.70685613 -0.34602877 -0.00000074
-0.61935592 -0.07440988 0.00000016
-0.54727346 -0.55787146 -0.00000059
-0.33800256 -0.07870316 0.00000214
-0.17593446 0.05069437 -0.00000602
-0.42341751 -0.11859375 0.00000248
-0.57151484 -0.12378962 0.00000074
-0.73881918 -0.72945923 -0.00000018
-0.78618592 -0.27009970 -0.00000132
-0.57217920 -0.05578794 0.00000070
-0.24695046 -0.10686781 0.00000229
-0.00538707 -0.00309205 0.00000347
-0.68098116 -0.63581568 -0.00000029
-0.27387840 0.18801600 0.00000408
-0.57381326 -0.40698612 0.00000085
-0.21907209 -0.35080862 0.00000130
-0.24650820 -0.28610542 0.00000150
-0.09499099 0.57486826 0.00000599
-0.26219273 0.37422857 0.00000413
-0.11029572 0.54494405 0.00000583
-0.69683099 -0.02949123 -0.00000077
-0.23660235 0.05635686 -0.00000424
-0.57440752 -0.10724528 0.00000070
-0.26506913 -0.70711064 -0.00000039
-0.56932020 -0.30919284 0.00000086
-0.17153788 0.20387863 -0.00000250
-0.47174233 -0.73066682 -0.00000112
-0.54195768 -0.04492197 0.00000105
-0.42991126 -0.75073653 -0.00000108
-0.66518557 -0.54917175 -0.00000015
-0.68099290 -0.23193862 -0.00000049
-0.67561471 -0.31347075 -0.00000039
-0.38444006 -0.51057839 0.00000011
-0.08292932 -0.50802648 0.00000103
-0.78410560 -0.18137817 -0.00000155
-0.61946213 -0.13211113 0.00000018
-0.31908178 0.16396090 0.00000356
-0.03023863 -0.05388497 0.00000317
-0.08272350 -0.64001703 0.00000045
-0.22483636 -0.40687248 0.00000104
-0.78895128 -0.49247032 -0.00000077
-0.26771536 0.03992352 -0.00000378
-0.20680016 -0.11865694 0.00000236
-0.32785377 0.45634964 0.00000332
-0.13425110 -0.77350086 -0.00000029
-0.20493980 0.10081011 -0.00000404
-0.09919056 -0.37137249 0.00000158
-0.70839047 -0.03376161 -0.00000091
-0.71590143 -0.03552812 -0.00000100
-0.57938528 -0.46481580 0.00000082
-0.43613410 0.11876457 0.00000221
-0.30351672 -0.64492780 -0.00000024
-0.21558492 0.51422244 0.00000461
-0.00361881 0.64495277 0.00000342
-0.07596777 -0.57378751 0.00000076
-0.10497849 0.21409950 -0.00000406
-0.44711593 0.25391433 0.00000202
-0.28747240 0.21298732 0.00000391
-0.43100414 0.26587039 0.00000220
-0.54119277 -0.23621649 0.00000115
-0.21922232 0.57864475 0.00000455
-0.02066266 0.05532851 -0.00001012
-0.06218365 0.44770509 0.00000032
-0.05704168 -0.04314131 0.00000314
-0.02305627 -0.27220431 0.00000231
-0.54297549 -0.65480518 -0.00000100
-0.00826726 -0.44753623 0.00000154
-0.48332089 -0.01528878 0.00000172
-0.78663456 -0.35666418 -0.00000111
-0.12411116 0.41024366 0.00000111
-0.14427058 -0.20285261 0.00000218
-0.67259580 -0.47792834 -0.00000027
-0.71575028 -0.24945170 -0.00000089
-0.39339030 0.31854954 0.00000262
-0.78087950 -0.03122774 -0.00000176
-0.68735486 -0.33531082 -0.00000051
-0.64523590 -0.08695902 -0.00000014
-0.17598093 0.03936081 -0.00000629
-0.23007703 0.43440202 0.00000448
-0.28146753 -0.04053249 0.00000247
-0.69943660 -0.09270885 -0.00000077
-0.29636022 0.39028570 0.00000372
-0.03220950 -0.16461802 0.00000268
-0.65237004 -0.73533142 0.00000009
-0.51929569 -0.11620523 0.00000135
-0.01778916 0.34983206 -0.00000321
-0.14893530 0.26201147 -0.00000173
-0.10216058 0.37322101 -0.00000036
-0.51172358 -0.04125831 0.00000140
-0.00507766 0.07570217 -0.00001006
-0.67072517 -0.24886528 -0.00000036
-0.28893545 -0.30470541 0.00000129
-0.67871147 -0.22224279 -0.00000047
-0.36535117 0.19890754 0.00000300
-0.42195684 -0.70191330 -0.00000084
-0.59455246 -0.41809717 0.00000061
-0.71194965 -0.04970820 -0.00000094
-0.67418540 -0.21994971 -0.00000042
-0.64170277 0.15797313 -0.00000022
-0.46042538 -0.16304579 0.00000206
-0.72915310 -0.70793188 -0.00000023
-0.12419345 0.63984764 0.00000562
-0.61411661 0.02646600 0.00000017
-0.10330261 -0.04817075 0.00000298
-0.45108050 -0.44575730 0.00000019
-0.58072817 -0.71252716 -0.00000137
-0.56800246 -0.52027059 0.00000098
-0.76641268 -0.20005804 -0.00000150
-0.15391590 0.32955930 0.00000001
-0.64217269 -0.63234615 0.00000016
-0.64932024 -0.54056954 0.00000003
-0.36820436 0.38492557 0.00000288
-0.55485326 0.09413396 0.00000083
-0.37626338 0.13718480 0.00000291
-0.06257294 -0.79994452 -0.00000019
-0.52276134 -0.73987293 -0.00000131
-0.47538278 -0.25520375 0.00000193
-0.57578903 -0.30457351 0.00000078
-0.59349096 -0.78199750 -0.00000171
-0.06907279 -0.15148921 0.00000263
-0.42688799 0.28712144 0.00000224
-0.57569951 -0.32112217 0.00000079
-0.16976789 -0.42463437 0.00000113
-0.18471444 -0.55633080 0.00000051
-0.21790488 0.55709010 0.00000456
-0.46300286 0.25318342 0.00000183
-0.08001040 -0.79508328 -0.00000022
-0.62368393 -0.14349876 0.00000014
-0.58020788 0.06157777 0.00000055
-0.66257828 -0.14051209 -0.00000032
-0.72456032 -0.08816691 -0.00000107
-0.34111455 -0.08630787 0.00000209
-0.68418163 -0.21982867 -0.00000053
-0.11684452 0.67305368 0.00000569
-0.14621425 -0.64381826 0.00000024
-0.69100100 -0.24319813 -0.00000060
-0.14536297 -0.63852572 0.00000027
-0.07220234 -0.14116570 0.00000266
-0.00587274 0.32971290 -0.00000401
-0.35007924 -0.67433453 -0.00000051
-0.30517286 0.41016307 0.00000361
-0.53097224 -0.43278041 0.00000137
-0.50454521 -0.42816949 0.00000010
-0.21998709 -0.04376582 0.00000264
-0.10455774 0.45532104 0.00000165
-0.04833614 0.03652760 -0.00000982
-0.44348338 -0.24850295 0.00000231
-0.60075641 0.09577729 0.00000029
-0.20767678 -0.67252648 -0.00000007
-0.41125056 -0.45281014 0.00000028
-0.04954397 -0.32582942 0.00000192
-0.22006239 -0.24553113 0.00000176
-0.59007686 -0.44157168 0.00000068
-0.02718026 -0.30809566 0.00000207
-0.33009252 -0.47561759 0.00000042
-0.38459322 -0.46117985 0.00000032
-0.37929150 -0.23436107 0.00000133
-0.38955453 -0.57740253 -0.00000020
-0.09072207 -0.21034275 0.00000231
-0.47995058 -0.35592169 0.00000193
-0.08915915 -0.45995656 0.00000122
-0.24502660 0.54428631 0.00000433
-0.28279307 -0.39357591 0.00000092
-0.21943602 -0.68180454 -0.00000015
-0.26180664 -0.70785499 -0.00000039
-0.42563963 -0.24067956 0.00000116
-0.05674963 0.72928309 0.00000637
-0.71666938 -0.10817555 -0.00000097
-0.01600494 0.78177452 0.00000684
-0.03224122 -0.68233317 0.00000042
-0.36805642 -0.03665191 0.00000309
-0.28747582 0.00385432 -0.00000410
-0.67423838 -0.18876556 -0.00000043
-0.75815022 -0.44203520 -0.00000089
-0.30025655 -0.29610109 0.00000130
-0.03619165 -0.32465851 0.00000197
-0.02300201 0.21925528 -0.00000617
-0.25547203 -0.61860830 0.00000002
-0.13899945 -0.00049032 0.00000308
-0.49600330 0.13988939 0.00000150
-0.69248855 -0.66994643 -0.00000033
-0.74967414 -0.41123456 -0.00000097
-0.26027492 -0.14192621 0.00000209
-0.34997025 0.40162763 0.00000309
-0.39617530 -0.44145510 0.00000037
-0.46329671 -0.49355996 -0.00000006
-0.16501029 -0.39645168 0.00000127
-0.31753930 0.41745001 0.00000346
-0.29294029 -0.48651624 0.00000049
-0.68743348 -0.07158717 -0.00000064
-0.21862274 -0.73061246 -0.00000036
-0.74338812 -0.44961011 -0.00000088
-0.30340344 -0.39111367 0.00000087
-0.53329051 -0.49200970 -0.00000026
-0.70820147 -0.53497142 -0.00000066
-0.13286509 -0.69501275 0.00000006
-0.02846256 -0.57556659 0.00000098
-0.54991210 -0.41447085 0.00000114
-0.00959295 -0.32572436 0.00000207
-0.23967969 -0.45500264 0.00000079
-0.59738207 -0.06556872 0.00000041
-0.25227964 0.45360917 0.00000421
-0.33725771 -0.38103884 0.00000082
-0.20115556 -0.13551858 0.00000230
-0.30898997 0.42063847 0.00000356
-0.04563621 0.61662436 0.00000388
-0.01165260 -0.57072711 0.00000100
-0.53864121 -0.74664026 -0.00000139
-0.25425637 -0.62625110 -0.00000001
-0.46475214 0.16731872 0.00000185
-0.56535053 -0.42835993 0.00000096
-0.72346425 -0.69010049 -0.00000027
-0.46235478 0.20353673 0.00000186
-0.72163481 -0.33546475 -0.00000092
-0.41194963 -0.26441559 0.00000110
-0.77318197 -0.63749886 -0.00000041
-0.56326646 -0.27165779 0.00000091
-0.63225281 -0.14383766 0.00000004
-0.02869088 0.19823076 -0.00000651
-0.71348882 -0.11682901 -0.00000093
-0.27299052 0.51781923 0.00000393
-0.28193769 0.28419781 0.00000394
-0.20903254 -0.41649446 0.00000105
-0.03785483 0.69983196 0.00000565
-0.29226172 -0.34352160 0.00000112
-0.18200515 0.56024075 0.00000498
-0.68628693 -0.13243626 -0.00000060
-0.58499962 -0.00452190 0.00000053
-0.21168198 -0.46180555 0.00000084
-0.77065593 -0.06276301 -0.00000163
-0.07361816 -0.10122235 0.00000283
-0.47351459 0.08003235 0.00000179
-0.13513912 -0.50394005 0.00000089
-0.38549152 -0.00723563 0.00000287
-0.26295453 -0.42417279 0.00000085
-0.05453703 0.70674586 0.00000641
-0.53130829 -0.00699868 0.00000116
-0.56920058 0.15855487 0.00000063
-0.28428990 0.31556872 0.00000390
-0.13349845 -0.58729690 0.00000053
-0.16277049 0.49513176 0.00000524
-0.36477917 -0.10571495 0.00000194
-0.70402265 -0.02297488 -0.00000086
-0.63378787 -0.00053245 -0.00000005
-0.32333919 -0.67975402 -0.00000045
-0.25328916 -0.77314550 -0.00000065
-0.00266023 -0.28429902 0.00000226
-0.17194590 0.38603163 0.00000518
-0.65583372 -0.73421967 0.00000005
-0.59388185 -0.36148319 0.00000059
-0.38835430 0.29679644 0.00000269
-0.40055496 0.14720038 0.00000262
-0.47124359 -0.38286486 0.00000040
-0.35671398 0.14372136 0.00000313
-0.53552681 0.04352074 0.00000108
-0.53336602 -0.10302022 0.00000118
-0.52827758 -0.39058295 0.00000138
-0.20590775 -0.33975145 0.00000139
-0.20598993 0.36195686 0.00000480
-0.01181047 0.57156897 0.00000190
-0.26154110 0.12744527 -0.00000187
-0.07590797 0.13979179 -0.00000662
-0.35964671 -0.66773701 -0.00000051
-0.08009215 -0.35480380 0.00000171
-0.11106627 -0.69932866 0.00000011
-0.35046569 -0.33716711 0.00000097
-0.30607012 -0.76459849 -0.00000077
-0.75453603 0.00736877 -0.00000147
-0.76788235 -0.07576491 -0.00000159
-0.77719253 -0.34145540 -0.00000115
-0.08414842 -0.28209341 0.00000201
-0.62879843 0.08787554 -0.00000003
-0.25295737 -0.67443717 -0.00000021
-0.02641596 -0.67153394 0.00000056
-0.05291463 0.17336591 -0.00000645
-0.24699450 -0.76663321 -0.00000060
-0.02183092 -0.23659012 0.00000246
-0.13238148 0.31243336 -0.00000098
-0.13585086 -0.31938103 0.00000169
-0.36220831 -0.70883471 -0.00000069
-0.21610191 0.27817735 0.00000048
-0.04759485 0.03584554 -0.00000986
-0.51570618 -0.72077131 -0.00000121
-0.11343378 -0.60088897 0.00000053
-0.68042195 0.11084379 -0.00000065
-0.28635794 -0.75841665 -0.00000068
-0.07398249 -0.32013741 0.00000188
-0.08328333 -0.04906973 0.00000303
-0.04969181 -0.79130203 -0.00000011
-0.67828453 -0.60912424 -0.00000028
-0.40700123 0.00334490 0.00000261
-0.35057175 0.21638875 0.00000317
-0.04201048 0.59336603 0.00000323
-0.26733851 0.05987193 -0.00000332
-0.67528921 -0.37226868 -0.00000036
-0.37843305 -0.67108423 -0.00000058
-0.71170563 0.02205742 -0.00000097
-0.79222757 -0.21913780 -0.00000145
-0.51057351 -0.17161541 0.00000148
-0.47126117 0.27435452 0.00000172
-0.23834021 0.31421188 0.00000444
-0.05110846 0.21609895 -0.00000548
-0.64142883 -0.13518967 -0.00000007
-0.33563352 -0.20655742 0.00000158
-0.76623148 -0.77203572 -0.00000007
-0.25829688 -0.43172771 0.00000083
-0.72140664 -0.76455057 -0.00000009
-0.33023170 -0.10817221 0.00000203
-0.45446634 0.23625548 0.00000194
-0.35282657 -0.05891879 0.00000218
-0.04295012 0.58323902 0.00000302
-0.02948174 0.48338857 0.00000028
-0.20787261 -0.33773988 0.00000140
-0.08187011 -0.39449382 0.00000153
-0.18825522 -0.69355220 -0.00000010
-0.10639690 -0.23994306 0.00000213
-0.05214447 -0.23082647 0.00000233
-0.17733724 -0.70426929 -0.00000012
-0.54238498 0.07878582 0.00000099
-0.02424658 0.30258554 -0.00000416
-0.24604356 0.09344813 -0.00000310
-0.46644628 -0.54607773 -0.00000030
-0.23314959 0.38263544 0.00000447
-0.06059798 -0.30483949 0.00000198
-0.42392009 -0.38512489 0.00000054
-0.44166437 -0.37921989 0.00000051
-0.44234750 0.22087364 0.00000209
-0.41829270 -0.35419810 0.00000069
-0.58024281 0.19091491 0.00000049
-0.05038770 -0.21264797 0.00000242
-0.58529401 -0.71680057 -0.00000140
-0.17552917 -0.47815821 0.00000088
-0.09275244 -0.38974854 0.00000151
-0.19003962 -0.68856788 -0.00000009
-0.33694729 0.32094619 0.00000328
-0.27101633 -0.06618583 0.00000239
-0.38644537 -0.62373638 -0.00000040
-0.33692157 0.37524366 0.00000325
-0.73867184 -0.06927748 -0.00000125
-0.26734737 0.23159213 0.00000414
-0.50842851 -0.54754615 -0.00000043
-0.28143296 -0.64804995 -0.00000018
-0.69053429 -0.34406766 -0.00000055
-0.69633323 -0.62106204 -0.00000045
-0.27374071 -0.63813484 -0.00000012
-0.24091332 0.24894036 0.00000444
-0.14657892 0.16019081 -0.00000421
-0.28736252 0.08296804 -0.00000222
-0.58457428 -0.36934677 0.00000071
-0.39380977 0.20431858 0.00000267
-0.09698690 -0.76783532 -0.00000015
-0.06079012 -0.03274268 0.00000317
-0.22945002 -0.01786627 0.00000273
-0.51100528 0.00416571 0.00000139
-0.13031836 -0.36481252 0.00000151
-0.55267406 -0.31137383 0.00000105
-0.77947432 -0.49341720 -0.00000077
-0.58919203 0.03948346 0.00000045
-0.63710678 -0.50430703 0.00000016
-0.03358944 -0.53386104 0.00000116
-0.78536254 -0.15673128 -0.00000161
-0.02285656 -0.07181681 0.00000312
-0.09424581 -0.51275879 0.00000097
-0.14571299 -0.09061281 0.00000266
-0.05016235 0.46311516 0.00000036
-0.60626310 -0.74628747 -0.00000159
-0.53344673 -0.70205629 -0.00000118
-0.30977982 0.30656561 0.00000360
-0.33491260 -0.00868942 0.00000245
-0.02381465 -0.42013884 0.00000159
-0.05923823 -0.34204045 0.00000182
-0.00478299 0.38390240 -0.00000275
-0.78121209 -0.56475550 -0.00000059
-0.45304623 -0.12183294 0.00000213
-0.21942562 0.17570549 -0.00000187
-0.63749236 0.01664023 -0.00000010
-0.11980887 -0.20478459 0.00000224
-0.70048320 -0.72113931 -0.00000020
-0.47366610 0.25922310 0.00000170
-0.58004665 -0.52050072 0.00000083
-0.24178271 -0.29325292 0.00000149
-0.44322893 -0.04982185 0.00000221
-0.74508148 -0.49567437 -0.00000076
-0.41793731 -0.50905985 0.00000001
-0.37576479 -0.75335568 -0.00000093
-0.66823107 -0.20119710 -0.00000036
-0.23392133 -0.49530542 0.00000063
-0.02910380 -0.13458247 0.00000291
-0.07273474 0.25465050 -0.00000398
-0.20786116 -0.24476227 0.00000180
-0.03487302 -0.53292543 0.00000106
-0.11325429 0.62370330 0.00000576
-0.78269112 -0.23737398 -0.00000141
-0.36487591 0.18427506 0.00000302
-0.39538905 -0.04982917 0.00000277
-0.00660070 0.78460360 0.00000700
-0.10276869 0.18261853 -0.00000487
-0.28469810 0.11273941 0.00000399
-0.08424341 -0.69491661 0.00000021
-0.36791623 -0.19894926 0.00000152
-0.74489492 -0.47618848 -0.00000081
-0.14646316 0.04587685 -0.00000693
-0.10044361 -0.53927773 0.00000084
-0.08182133 0.14332698 -0.00000637
-0.47117576 -0.44643712 0.00000012
-0.02503344 -0.23309810 0.00000240
-0.70291495 -0.68374532 -0.00000029
-0.09094582 0.43609324 0.00000083
-0.59100914 -0.15291306 0.00000053
-0.31237718 0.44771141 0.00000351
-0.02164144 0.45099452 -0.00000070
-0.21305031 0.40570831 0.00000469
-0.20577942 -0.51461798 0.00000063
-0.41592076 0.08860727 0.00000246
-0.66789526 -0.74586684 -0.00000009
-0.22037351 -0.61292243 0.00000015
-0.03924231 0.60761273 0.00000350
-0.29821655 -0.07347436 0.00000228
-0.23443870 -0.37017420 0.00000117
-0.48225144 -0.77928758 -0.00000136
-0.16020384 0.04903672 -0.00000648
-0.42177963 0.11271943 0.00000238
-0.40379435 -0.23307645 0.00000126
-0.35714647 -0.25987738 0.00000129
-0.36957568 -0.79935461 -0.00000111
-0.09896626 -0.28566235 0.00000195
-0.12859145 -0.68536150 0.00000011
-0.20888543 0.16772287 -0.00000234
-0.18726981 -0.43638608 0.00000103
-0.64809144 0.07272690 -0.00000025
-0.25944874 -0.53280228 0.00000039
-0.29510999 -0.03924915 0.00000244
-0.45671469 0.19609673 0.00000193
-0.41867775 -0.38103381 0.00000057
-0.21724784 0.23981997 -0.00000040
-0.37138972 0.25358349 0.00000291
-0.50001240 -0.61727500 -0.00000071
-0.26964039 0.01597464 -0.00000430
-0.39662725 -0.62046409 -0.00000041
-0.62414962 -0.57508010 0.00000034
-0.55455601 -0.54955488 -0.00000058
-0.65345114 0.04077064 -0.00000030
-0.68435788 -0.01713809 -0.00000063
-0.33355808 0.02270652 0.00000346
-0.13088432 0.43902826 0.00000198
-0.35477492 0.11294386 0.00000317
-0.75311965 0.02018970 -0.00000146
-0.45221457 0.26724499 0.00000195
-0.71684980 -0.08170130 -0.00000098
-0.40449271 -0.78831369 -0.00000117
-0.67071629 -0.64436948 -0.00000017
-0.23986036 -0.35877603 0.00000121
-0.07498029 -0.66418928 0.00000037
-0.48919845 -0.34208733 0.00000181
-0.02263494 0.28405222 -0.00000464
-0.69358206 -0.49639606 -0.00000051
-0.50148743 -0.78592807 -0.00000145
-0.08968430 0.55845338 0.00000370
-0.05214445 0.56021720 0.00000272
-0.14203890 0.16842686 -0.00000414
-0.77090877 -0.61227471 -0.00000047
-0.00919708 0.45969635 -0.00000083
-0.03704988 -0.73625326 0.00000017
-0.17120349 0.19482358 -0.00000272
-0.37108931 -0.19150308 0.00000154
-0.59352845 -0.78932589 -0.00000174
-0.50010008 -0.18384932 0.00000161
-0.16807976 -0.35307699 0.00000145
-0.71592492 -0.32415351 -0.00000086
-0.54069281 -0.56151605 -0.00000059
-0.74806833 -0.20814259 -0.00000129
-0.04357324 -0.21270725 0.00000244
-0.70460504 -0.70582658 -0.00000024
-0.09307407 0.35352868 -0.00000108
-0.74544263 -0.10947027 -0.00000131
-0.38923654 0.29826531 0.00000268
-0.65359050 0.02609168 -0.00000029
-0.08357274 0.37213004 -0.00000089
-0.03123520 -0.39622232 0.00000167
-0.22738136 -0.13625215 0.00000222
-0.01787677 -0.09820020 0.00000307
-0.40119371 0.20081119 0.00000258
-0.64505655 -0.10233752 -0.00000013
-0.79173261 -0.15666585 -0.00000161
-0.33026466 -0.51684994 0.00000024
-0.71697658 -0.15502612 -0.00000095
-0.42253408 -0.75421876 -0.00000107
-0.15100701 -0.68193293 0.00000006
-0.33400339 -0.09738681 0.00000207
-0.72317082 -0.74625474 -0.00000013
-0.44065243 -0.04967510 0.00000224
-0.60217535 -0.75908434 -0.00000164
-0.10930607 -0.56888241 0.00000068
-0.44651946 0.34904188 0.00000198
-0.66748375 0.04340424 -0.00000047
-0.09973531 0.37346861 -0.00000042
-0.10721126 0.22592060 -0.00000372
-0.12500522 -0.64810520 0.00000029
-0.41972682 -0.00279378 0.00000246
-0.36051774 0.10986957 0.00000310
-0.36697093 0.39435551 0.00000289
-0.00552456 -0.77323288 0.00000010
-0.44781408 -0.24348378 0.00000225
-0.50807482 -0.55562228 -0.00000046
-0.78055054 -0.13501558 -0.00000166
-0.55272663 -0.21561176 0.00000101
-0.67952228 -0.53336358 -0.00000033
-0.55792451 -0.22559310 0.00000095
-0.38501379 -0.14550292 0.00000170
-0.57277554 -0.28235841 0.00000080
-0.10732530 0.02588095 -0.00000847
-0.62472266 0.02302786 0.00000005
-0.01111962 -0.03044325 0.00000337
-0.26657885 -0.52107179 0.00000042
-0.25063616 -0.18825237 0.00000192
-0.41701514 -0.74018466 -0.00000100
-0.51180136 0.13688068 0.00000132
-0.45737204 0.14244726 0.00000195
-0.00928769 -0.69260645 0.00000044
-0.58318657 -0.27869368 0.00000068
-0.13252240 0.13053292 -0.00000530
-0.67828649 -0.46798101 -0.00000034
-0.39205894 -0.70243502 -0.00000076
-0.76230556 -0.09610258 -0.00000151
-0.17830405 -0.05220002 0.00000273
-0.00171276 0.14765918 -0.00000845
-0.49805811 -0.32268980 0.00000170
-0.70005816 -0.47698817 -0.00000060
-0.10905904 0.62886828 0.00000580
-0.10880005 -0.24167541 0.00000211
-0.46703741 -0.75826007 -0.00000123
-0.52073830 -0.63602698 -0.00000085
-0.01198175 -0.39487869 0.00000174
-0.09626411 0.08340321 -0.00000740
-0.33416784 -0.00026299 0.00000347
-0.64189333 -0.42511132 0.00000006
-0.01098588 -0.76016849 0.00000014
-0.21916679 -0.75120479 -0.00000045
-0.28549898 -0.29064110 0.00000137
-0.42386326 -0.60635930 -0.00000043
-0.67049718 0.01663778 -0.00000049
-0.36615759 -0.75598311 -0.00000091
-0.19232711 0.33059159 0.00000108
-0.55066258 -0.42752126 0.00000113
-0.65550607 -0.72866875 0.00000005
-0.78507090 -0.23744118 -0.00000141
-0.03590735 0.25003654 -0.00000509
-0.08322691 -0.05220950 0.00000302
-0.40745896 0.22565590 0.00000250
-0.01493169 -0.40160331 0.00000170
-0.52449161 0.24422757 0.00000111
-0.29326299 -0.60484719 -0.00000003
-0.44151106 0.30347356 0.00000206
-0.57955784 -0.29919177 0.00000073
-0.65482080 -0.61118728 0.00000000
-0.57890731 -0.68698537 -0.00000125
-0.19644877 0.30337578 0.00000054
-0.78343147 -0.19116542 -0.00000152
-0.43940306 -0.56540918 -0.00000030
-0.49866614 -0.10683353 0.00000159
-0.12691209 0.33379957 -0.00000063
-0.45420259 0.27963206 0.00000192
-0.18781957 0.38513592 0.00000500
-0.22055180 0.06691078 -0.00000442
-0.34804356 -0.04634768 0.00000225
-0.12614597 -0.51421881 0.00000087
-0.09324450 0.47076946 0.00000171
-0.31102997 -0.68828112 -0.00000045
-0.26672757 -0.67976886 -0.00000028
-0.15467337 -0.12072259 0.00000251
-0.45805800 -0.49491647 -0.00000005
-0.70263278 -0.61621815 -0.00000046
-0.36353111 -0.58455354 -0.00000015
-0.00984145 -0.50184578 0.00000127
-0.45121896 0.21292596 0.00000199
-0.51881635 -0.47715434 -0.00000015
-0.16523729 0.24620128 -0.00000166
-0.27646276 -0.21158648 0.00000174
-0.64015085 -0.42545098 0.00000008
-0.17036094 0.47808596 0.00000516
-0.37349907 0.32464105 0.00000285
-0.02151007 -0.44569072 0.00000155
-0.09318000 0.13538143 -0.00000625
-0.31834301 0.08709620 0.00000361
-0.20809424 -0.20574234 0.00000197
-0.68151307 0.00082000 -0.00000061
-0.44239956 0.08371745 0.00000216
-0.30825958 0.23950066 0.00000365
-0.27288574 -0.10667985 0.00000221
-0.20066324 -0.40135214 0.00000114
-0.47211379 -0.76597035 -0.00000128
-0.02541981 0.47240952 -0.00000009
-0.34678945 -0.78446329 -0.00000098
-0.20138434 0.44711533 0.00000481
-0.77507305 -0.67760307 -0.00000031
-0.41105938 -0.23444447 0.00000123
-0.25280684 -0.54037029 0.00000037
-0.76399487 -0.17642586 -0.00000149
-0.73813033 -0.38921276 -0.00000103
-0.11912318 0.10115922 -0.00000636
-0.22792549 0.57026833 0.00000445
-0.25665906 -0.28074318 0.00000150
-0.25066316 0.27385929 0.00000431
-0.30353177 0.03246695 -0.00000299
-0.26045638 0.25701839 0.00000421
-0.61304796 0.12243824 0.00000013
-0.35331339 0.41979089 0.00000304
-0.12378504 0.51965356 0.00000568
-0.43851724 0.17827082 0.00000216
-0.60276401 -0.73710763 -0.00000154
-0.08160697 -0.05127215 0.00000303
-0.65007943 -0.70384896 0.00000010
-0.14910211 0.03128737 -0.00000721
-0.07661797 0.30070764 -0.00000278
-0.66199267 -0.23502737 -0.00000027
-0.72297525 -0.35591689 -0.00000092
-0.42294428 -0.06373962 0.00000246
-0.74615335 -0.25207564 -0.00000125
-0.65429962 0.02018462 -0.00000030
-0.26874247 0.46661121 0.00000401
-0.70577687 -0.24063143 -0.00000078
-0.32943583 -0.52750975 0.00000020
