ply
format ascii 1.0
element vertex 1105
property float x
property float y
property float z
end_header
-0.36971667 0.42430970 -0.00000082
-0.41592088 -0.60157394 0.00000000
-0.11286800 -0.24693611 0.00000000
-0.05733024 -0.49081594 0.00000000
-0.53619695 0.21894278 -0.00000126
-0.09428871 0.09894554 0.00000000
-0.26135579 0.19093306 -0.00000004
-0.00639199 0.49877852 0.00000000
-0.73852116 -0.33930752 -0.00000114
-0.14974563 0.44727814 -0.00000002
-0.66846275 -0.12039296 -0.00000123
-0.05464344 0.06577866 0.00000000
-0.45976701 0.24158591 -0.00000098
-0.13337120 0.12246405 0.00000000
-0.37392563 0.39746770 -0.00000088
-0.05779811 -0.29514831 0.00000000
-0.59641242 -0.49040577 -0.00000026
-0.23932604 0.09613585 0.00000000
-0.02099521 -0.60439050 0.00000000
-0.12151063 -0.31391737 0.00000000
-0.64483160 -0.47562739 -0.00000050
-0.04891415 -0.06197296 0.00000000
-0.69256777 -0.62176049 -0.00000044
-0.07199692 -0.29184037 0.00000000
-0.07487121 -0.06040492 0.00000000
-0.57091349 -0.39996541 -0.00000032
-0.32332471 -0.32840055 0.00000000
-0.54562682 0.00741316 -0.00000093
-0.23874575 -0.19877522 0.00000000
-0.59644568 -0.11452271 -0.00000093
-0.24580751 0.32466501 -0.00000021
-0.03177130 0.20950542 0.00000000
-0.24147932 -0.59612793 0.00000000
-0.16744804 -0.51748079 0.00000000
-0.02075525 0.46578631 0.00000000
-0.40179029 -0.36945039 0.00000000
-0.21517748 -0.51180530 0.00000000
-0.17050301 -0.20145619 0.00000000
-0.02852093 -0.36881313 0.00000000
-0.56197178 -0.40763754 -0.00000026
-0.31927237 -0.02314931 0.00000000
-0.76829320 -0.57659042 -0.00000056
-0.19096310 -0.68052244 0.00000000
-0.13095953 -0.18332545 0.00000000
-0.30319846 0.34090528 -0.00000048
-0.17952032 0.40694296 -0.00000007
-0.11980292 0.23365568 0.00000000
-0.58072329 0.19519077 -0.00000141
-0.18111794 -0.04542183 0.00000000
-0.21564691 0.01610053 0.00000000
-0.04861439 -0.15595201 0.00000000
-0.03901482 -0.15329166 0.00000000
-0.68964845 -0.39206147 -0.00000084
-0.06394779 -0.31009066 0.00000000
-0.73116320 -0.14085849 -0.00000146
-0.42255199 0.36365303 -0.00000103
-0.46000180 -0.01934887 -0.00000051
-0.52776790 -0.63997293 0.00000000
-0.42447734 -0.15368983 -0.00000013
-0.76795429 -0.06557666 -0.00000175
-0.10678547 0.47790089 0.00000000
-0.71104872 -0.50729477 -0.00000072
-0.51513261 -0.00644656 -0.00000077
-0.20961627 -0.49694303 0.00000000
-0.31611767 0.11562769 -0.00000014
-0.16309747 0.51290476 -0.00000019
-0.36600596 -0.28223354 0.00000000
-0.19135544 0.03540461 0.00000000
-0.47040963 0.13994253 -0.00000084
-0.19529913 0.60055125 -0.00000048
-0.32117739 0.02957476 -0.00000001
-0.30989251 -0.36859992 0.00000000
-0.12906381 0.64308226 -0.00000027
-0.43290547 0.32464159 -0.00000101
-0.07152431 0.44117403 0.00000000
-0.12450992 0.47610989 0.00000000
-0.03623069 0.44940698 0.00000000
-0.01877427 0.10625067 0.00000000
-0.04211585 0.43267882 0.00000000
-0.56918001 0.17132251 -0.00000132
-0.12385451 -0.47747174 0.00000000
-0.17527235 0.15029418 0.00000000
-0.66312063 -0.30369219 -0.00000088
-0.42619202 -0.07625022 -0.00000027
-0.78220999 -0.08955167 -0.00000177
-0.54341912 -0.66761595 0.00000000
-0.31038597 0.18693706 -0.00000024
-0.40290341 -0.78704029 0.00000000
-0.47914159 0.23271477 -0.00000104
-0.38101891 -0.25323442 0.00000000
-0.60124362 -0.50261474 -0.00000026
-0.61548638 0.01104022 -0.00000123
-0.50123048 0.12358104 -0.00000094
-0.55214608 0.17636773 -0.00000125
-0.34296182 -0.53087884 0.00000000
-0.31128430 -0.23698922 0.00000000
-0.11417572 0.49422666 0.00000000
-0.50068378 -0.60418224 0.00000000
-0.05336837 -0.12798576 0.00000000
-0.79684788 -0.40147114 -0.00000100
-0.69664872 -0.65453219 -0.00000036
-0.18869890 0.26122150 0.00000000
-0.12097765 0.09666030 0.00000000
-0.56110620 -0.01531481 -0.00000095
-0.06345285 0.32269451 0.00000000
-0.14270620 -0.34607267 0.00000000
-0.23128003 0.51188666 -0.00000048
-0.28270033 -0.27089068 0.00000000
-0.44202355 0.34671971 -0.00000109
-0.58494896 -0.69946486 0.00000000
-0.46018630 -0.66789019 0.00000000
-0.32462808 -0.27320600 0.00000000
-0.56409925 -0.60750782 0.00000000
-0.53650540 0.00155973 -0.00000088
-0.08666348 -0.67374879 0.00000000
-0.61973578 -0.05738643 -0.00000113
-0.39135733 -0.78557599 0.00000000
-0.47733104 -0.05205029 -0.00000053
-0.50182712 -0.37528920 -0.00000006
-0.05274735 -0.06353264 0.00000000
-0.46711925 0.25318232 -0.00000103
-0.08204615 -0.17318784 0.00000000
-0.31977150 0.34518051 -0.00000056
-0.77582657 -0.79528052 -0.00000001
-0.62271875 -0.05975050 -0.00000114
-0.09878793 0.67242199 -0.00000020
-0.10494427 -0.66604561 0.00000000
-0.08914182 -0.36257300 0.00000000
-0.66488206 -0.08784255 -0.00000127
-0.34828052 0.05586976 -0.00000017
-0.76063377 -0.72186440 -0.00000020
-0.43817446 -0.54735214 0.00000000
-0.57866973 -0.12024731 -0.00000084
-0.24721017 -0.38730219 0.00000000
-0.33518314 0.12694675 -0.00000024
-0.49530819 0.23712455 -0.00000112
-0.28214994 0.22159965 -0.00000018
-0.26753688 0.41039523 -0.00000045
-0.71241105 0.02962543 -0.00000168
-0.34411839 -0.74816215 0.00000000
-0.63858694 -0.76381493 0.00000000
-0.42821065 0.34064627 -0.00000102
-0.51471764 -0.29089740 -0.00000027
-0.41054013 0.27751037 -0.00000083
-0.74176013 -0.33775818 -0.00000115
-0.32546744 -0.41395843 0.00000000
-0.47632909 -0.51510876 0.00000000
-0.07073729 0.24733646 0.00000000
-0.41124058 -0.13393234 -0.00000010
-0.74884075 -0.34757560 -0.00000113
-0.50853050 -0.67307186 0.00000000
-0.29950792 -0.41470078 0.00000000
-0.05051706 0.31430167 0.00000000
-0.47512141 -0.77360660 0.00000000
-0.12242528 0.04096899 0.00000000
-0.13704157 -0.40860775 0.00000000
-0.36203319 0.39249504 -0.00000082
-0.06391758 0.60372257 0.00000000
-0.30891421 -0.73863560 0.00000000
-0.10171525 0.00184533 0.00000000
-0.35046664 -0.57399142 0.00000000
-0.45919740 -0.54652363 0.00000000
-0.43061754 -0.49637416 0.00000000
-0.15991881 0.42354542 -0.00000002
-0.72840536 -0.74692237 -0.00000013
-0.42763007 -0.41605523 0.00000000
-0.55247593 -0.55513531 0.00000000
-0.52436233 0.24207038 -0.00000125
-0.78761107 -0.49802405 -0.00000075
-0.64975333 -0.57328975 -0.00000035
-0.54477447 -0.06848918 -0.00000079
-0.59362495 -0.72073883 0.00000000
-0.59657931 -0.38935626 -0.00000044
-0.07104011 0.46941730 0.00000000
-0.26109335 -0.60737699 0.00000000
-0.58769774 -0.63513267 0.00000000
-0.49095550 -0.35611036 -0.00000005
-0.05149076 0.13380004 0.00000000
-0.42038918 -0.46729529 0.00000000
-0.19405650 -0.26122811 0.00000000
-0.56859857 -0.07980186 -0.00000087
-0.41837308 -0.53589576 0.00000000
-0.58389127 0.06532088 -0.00000119
-0.46954995 -0.38193822 0.00000000
-0.45195439 -0.67437518 0.00000000
-0.34638542 0.00202466 -0.00000007
-0.26073524 -0.42136776 0.00000000
-0.56562144 -0.21567087 -0.00000062
-0.65646005 0.11849471 -0.00000160
-0.74999803 -0.24250399 -0.00000136
-0.30265737 0.39152718 -0.00000057
-0.25223249 -0.08603130 0.00000000
-0.47088903 -0.69744462 0.00000000
-0.30674437 0.07041086 -0.00000002
-0.09642125 -0.02432707 0.00000000
-0.50661391 0.21265797 -0.00000112
-0.38799828 -0.67968643 0.00000000
-0.14908665 0.35125890 0.00000000
-0.10133636 0.37048909 0.00000000
-0.72366107 -0.31049496 -0.00000113
-0.21889824 -0.56259543 0.00000000
-0.33538076 -0.26115820 0.00000000
-0.39163905 -0.08060291 -0.00000011
-0.09480503 -0.70809132 0.00000000
-0.35345495 -0.17098005 0.00000000
-0.02736365 0.02523837 0.00000000
-0.19568877 -0.36074141 0.00000000
-0.50028914 0.09444765 -0.00000089
-0.38848147 0.35108146 -0.00000086
-0.22606067 0.45212719 -0.00000035
-0.73070526 -0.26343650 -0.00000124
-0.55089533 -0.41280201 -0.00000021
-0.07155148 -0.56994802 0.00000000
-0.32794455 -0.79006952 0.00000000
-0.55534297 -0.75190341 0.00000000
-0.07408980 -0.08165762 0.00000000
-0.20237343 0.27960968 0.00000000
-0.21316208 0.15450694 0.00000000
-0.07716190 -0.01718502 0.00000000
-0.37008077 -0.08413268 -0.00000002
-0.30762970 -0.40802974 0.00000000
-0.08866744 0.37234646 0.00000000
-0.08271141 -0.41552535 0.00000000
-0.34393016 0.30959967 -0.00000060
-0.17939959 0.42256561 -0.00000010
-0.49648857 -0.50874758 0.00000000
-0.05342358 -0.18093769 0.00000000
-0.60587537 -0.16427393 -0.00000088
-0.55410331 -0.66625142 0.00000000
-0.65496492 -0.22286841 -0.00000099
-0.02294109 0.64173216 0.00000000
-0.51024294 -0.63635683 0.00000000
-0.15340967 -0.40946010 0.00000000
-0.64379692 -0.79169798 0.00000000
-0.41942626 0.14190894 -0.00000063
-0.35519820 -0.72399396 0.00000000
-0.57479256 0.17279230 -0.00000134
-0.51756108 -0.58008111 0.00000000
-0.62070954 -0.51762825 -0.00000032
-0.64291149 -0.68416440 -0.00000012
-0.13048130 -0.18643335 0.00000000
-0.25923416 -0.42623723 0.00000000
-0.65035260 -0.49994126 -0.00000048
-0.60562217 -0.46559852 -0.00000035
-0.38134778 0.15510660 -0.00000049
-0.06536421 0.16867898 0.00000000
-0.26599854 0.06691624 0.00000000
-0.38683954 -0.34460455 0.00000000
-0.61067098 -0.20083785 -0.00000084
-0.17036657 0.52268344 -0.00000024
-0.49725157 -0.72318065 0.00000000
-0.51025200 -0.55719227 0.00000000
-0.11318760 0.61212564 -0.00000015
-0.04331118 0.44506407 0.00000000
-0.34396669 -0.16827257 0.00000000
-0.33881637 -0.48372000 0.00000000
-0.10065235 -0.32380152 0.00000000
-0.44558054 -0.74645847 0.00000000
-0.26246649 0.49243113 -0.00000058
-0.17550395 -0.34652045 0.00000000
-0.13954470 -0.19320983 0.00000000
-0.09834043 -0.10392008 0.00000000
-0.54161441 0.03623553 -0.00000096
-0.44029963 -0.19648968 -0.00000012
-0.53975064 -0.19847758 -0.00000054
-0.35781518 0.09525558 -0.00000028
-0.23103327 0.08718142 0.00000000
-0.61899978 0.08570519 -0.00000138
-0.51242554 -0.29780781 -0.00000025
-0.03517787 0.44603056 0.00000000
-0.76822025 -0.28356090 -0.00000129
-0.00802246 0.50407082 0.00000000
-0.28697699 -0.29287004 0.00000000
-0.00077959 -0.36738241 0.00000000
-0.65217012 -0.53335905 -0.00000043
-0.43571889 0.32419634 -0.00000102
-0.45686066 0.01919053 -0.00000057
-0.47197005 0.27212194 -0.00000108
-0.01949270 0.69086814 0.00000000
-0.72278678 -0.41130102 -0.00000094
-0.28291994 -0.39786768 0.00000000
-0.34819880 -0.65994936 0.00000000
-0.15765896 -0.76965392 0.00000000
-0.75766891 -0.46807280 -0.00000083
-0.07168743 -0.52879447 0.00000000
-0.31815401 -0.36283264 0.00000000
-0.03200780 -0.47115296 0.00000000
-0.24572355 0.46821111 -0.00000046
-0.62161398 0.01783965 -0.00000127
-0.52661520 -0.16978531 -0.00000053
-0.44269463 -0.47489256 0.00000000
-0.59009761 -0.78282309 0.00000000
-0.25183424 0.28339538 -0.00000016
-0.18742660 0.22656219 0.00000000
-0.72351629 -0.59027177 -0.00000052
-0.02567791 0.65059990 0.00000000
-0.55635470 -0.37655348 -0.00000029
-0.02814350 -0.16957697 0.00000000
-0.64953601 -0.61023372 -0.00000028
-0.29484442 0.14493322 -0.00000010
-0.02366994 -0.14638786 0.00000000
-0.56141138 -0.46503985 -0.00000016
-0.43194816 -0.38862002 0.00000000
-0.64153540 -0.45992374 -0.00000051
-0.69668621 -0.46048218 -0.00000075
-0.00117758 -0.72851801 0.00000000
-0.39878380 0.39000022 -0.00000098
-0.58299732 -0.56418133 -0.00000008
-0.06281194 -0.53206801 0.00000000
-0.47744220 0.03582370 -0.00000069
-0.76014251 -0.65238595 -0.00000037
-0.59437478 -0.15939386 -0.00000084
-0.24813788 -0.60965449 0.00000000
-0.41045272 -0.10293793 -0.00000016
-0.75315577 -0.48056906 -0.00000080
-0.20361143 0.58359504 -0.00000049
-0.54260975 0.05001071 -0.00000099
-0.39118305 -0.59433198 0.00000000
-0.46782157 0.23363236 -0.00000100
-0.04555970 -0.42840236 0.00000000
-0.17208858 0.40007871 -0.00000003
-0.21660346 -0.30181423 0.00000000
-0.73882449 -0.22605048 -0.00000134
-0.19468468 0.38747969 -0.00000010
-0.65821928 -0.50878412 -0.00000050
-0.10768173 -0.10531206 0.00000000
-0.62553519 -0.55536991 -0.00000027
-0.27169192 -0.20360181 0.00000000
-0.21210441 -0.35007125 0.00000000
-0.14023337 -0.61112845 0.00000000
-0.50498950 0.16540876 -0.00000103
-0.38650623 0.11789676 -0.00000044
-0.03692321 -0.39774308 0.00000000
-0.79789060 -0.68609446 -0.00000028
-0.31216952 -0.07642228 0.00000000
-0.19541506 0.07600290 0.00000000
-0.26120156 0.42862350 -0.00000046
-0.50428694 0.24251118 -0.00000117
-0.75405043 -0.09015094 -0.00000164
-0.65970504 -0.67759317 -0.00000020
-0.11350255 0.47983399 0.00000000
-0.68484890 -0.68867981 -0.00000028
-0.60872823 -0.38280576 -0.00000051
-0.16666412 -0.17125808 0.00000000
-0.37042332 -0.74597913 0.00000000
-0.11351392 -0.76605147 0.00000000
-0.11399092 0.21483898 0.00000000
-0.01987458 -0.31069699 0.00000000
-0.42364588 0.26150402 -0.00000086
-0.61030722 0.11370393 -0.00000139
-0.74261886 -0.20304205 -0.00000140
-0.52352339 -0.15669900 -0.00000054
-0.56340009 -0.75739753 0.00000000
-0.79392850 -0.40139836 -0.00000100
-0.09963773 -0.74854726 0.00000000
-0.59418809 -0.05248932 -0.00000103
-0.75362432 -0.37226510 -0.00000107
-0.43075353 -0.53690457 0.00000000
-0.37685412 -0.45426625 0.00000000
-0.54473287 0.01238372 -0.00000093
-0.31663266 -0.29892796 0.00000000
-0.71305943 -0.71794891 -0.00000021
-0.09831692 0.58861840 -0.00000005
-0.56944603 -0.58751899 0.00000000
-0.10360755 -0.44801286 0.00000000
-0.62536901 0.08428234 -0.00000140
-0.58433390 -0.13156943 -0.00000085
-0.78567195 -0.24154393 -0.00000140
-0.10273233 0.42782226 0.00000000
-0.73592502 -0.56097871 -0.00000060
-0.30787992 -0.29636312 0.00000000
-0.09639750 -0.23147142 0.00000000
-0.31310788 0.06728828 -0.00000004
-0.20672926 0.52744824 -0.00000040
-0.64496464 0.07046382 -0.00000146
-0.37651908 0.37190923 -0.00000085
-0.07851120 -0.20827015 0.00000000
-0.12994134 -0.62671930 0.00000000
-0.14915454 0.20623773 0.00000000
-0.26047549 0.03861993 0.00000000
-0.48409504 0.22380202 -0.00000105
-0.65158367 -0.00288927 -0.00000136
-0.32854337 -0.39424643 0.00000000
-0.68791658 -0.48905638 -0.00000066
-0.63349205 -0.49935910 -0.00000041
-0.39842591 0.21610557 -0.00000067
-0.68037230 -0.16523559 -0.00000120
-0.62702769 -0.45399138 -0.00000046
-0.25803000 -0.62397182 0.00000000
-0.06863604 0.72901970 -0.00000017
-0.67717999 -0.29137105 -0.00000096
-0.03191293 -0.68239403 0.00000000
-0.71706629 -0.55918759 -0.00000060
-0.53106958 -0.71316171 0.00000000
-0.30212122 -0.08427781 0.00000000
-0.03601369 0.45005953 0.00000000
-0.13721804 0.57156301 -0.00000018
-0.41270015 -0.50518352 0.00000000
-0.06624850 -0.62349051 0.00000000
-0.77675211 -0.46786505 -0.00000083
-0.01544688 -0.52248901 0.00000000
-0.07544165 -0.70590687 0.00000000
-0.12091356 -0.43194234 0.00000000
-0.19916221 -0.18746722 0.00000000
-0.18300352 0.59861708 -0.00000043
-0.39266825 -0.35975885 0.00000000
-0.28598323 -0.56388438 0.00000000
-0.18610086 -0.14516260 0.00000000
-0.20049459 -0.74304187 0.00000000
-0.11134723 -0.65781838 0.00000000
-0.35840365 0.41861090 -0.00000086
-0.54274100 -0.73536187 0.00000000
-0.46832117 -0.27900228 -0.00000009
-0.60263824 -0.23341236 -0.00000075
-0.77616256 -0.53631514 -0.00000066
-0.79900759 -0.12329624 -0.00000169
-0.28415713 -0.67479885 0.00000000
-0.51690096 -0.28299227 -0.00000029
-0.75248218 -0.12864520 -0.00000157
-0.56037402 -0.39962870 -0.00000027
-0.77571613 -0.32490179 -0.00000119
-0.06661229 -0.17009968 0.00000000
-0.52276719 -0.44272375 -0.00000003
-0.02444984 -0.68098438 0.00000000
-0.60101676 -0.04978123 -0.00000106
-0.27665758 0.42523423 -0.00000052
-0.59105039 -0.36504638 -0.00000046
-0.34499070 -0.67540681 0.00000000
-0.51661366 0.18448292 -0.00000112
-0.21241640 -0.58549768 0.00000000
-0.14471807 0.47015211 -0.00000003
-0.13792795 -0.35573661 0.00000000
-0.13856982 -0.68054390 0.00000000
-0.78238392 -0.51930118 -0.00000070
-0.02280128 -0.77671427 0.00000000
-0.43726048 -0.71160948 0.00000000
-0.14257719 0.03941373 0.00000000
-0.11499690 -0.48696271 0.00000000
-0.27826157 -0.59194016 0.00000000
-0.39150172 -0.71653891 0.00000000
-0.19614127 -0.66838819 0.00000000
-0.49236798 -0.07840190 -0.00000055
-0.18926781 0.28364953 0.00000000
-0.01953311 0.34583709 0.00000000
-0.10966235 0.23598111 0.00000000
-0.55587816 -0.13753165 -0.00000072
-0.09558351 0.17796704 0.00000000
-0.33842388 0.35902765 -0.00000066
-0.61945224 -0.34613454 -0.00000062
-0.27093300 -0.33833331 0.00000000
-0.06414067 -0.24567303 0.00000000
-0.34432265 0.27940631 -0.00000055
-0.38990033 0.33719021 -0.00000085
-0.68793637 -0.14005429 -0.00000127
-0.19526540 0.17289227 0.00000000
-0.62718099 -0.18437260 -0.00000094
-0.70339102 -0.14865629 -0.00000132
-0.09591273 -0.55554229 0.00000000
-0.34713355 0.26893157 -0.00000054
-0.25569019 -0.01691530 0.00000000
-0.70273179 0.08796553 -0.00000174
-0.42854264 0.25295669 -0.00000086
-0.16993131 -0.38448521 0.00000000
-0.44953996 0.34473774 -0.00000111
-0.53641015 0.07513707 -0.00000101
-0.47065556 -0.67353231 0.00000000
-0.32190427 0.07996896 -0.00000010
-0.33754727 0.14854610 -0.00000029
-0.32064223 -0.60690123 0.00000000
-0.65561819 0.06051152 -0.00000149
-0.29541737 -0.28954941 0.00000000
-0.54465348 -0.23481557 -0.00000050
-0.06018940 0.27507064 0.00000000
-0.49462098 0.24525490 -0.00000113
-0.21774678 0.50801611 -0.00000041
-0.28637120 0.39135247 -0.00000050
-0.67405677 -0.02036006 -0.00000143
-0.69970739 0.04237911 -0.00000165
-0.13075081 0.57865161 -0.00000017
-0.49442813 0.07818484 -0.00000083
-0.00895456 -0.54005384 0.00000000
-0.60145885 -0.72692573 0.00000000
-0.50006127 0.21941994 -0.00000111
-0.74684870 -0.78602582 -0.00000003
-0.26144210 0.05491762 0.00000000
-0.39228082 -0.02352767 -0.00000022
-0.39469177 -0.19734707 0.00000000
-0.49369380 -0.00031596 -0.00000069
-0.27933961 -0.44098884 0.00000000
-0.11837168 -0.75345206 0.00000000
-0.29610658 -0.30523497 0.00000000
-0.09778887 0.00764093 0.00000000
-0.26335430 0.16320884 0.00000000
-0.61975932 -0.39849412 -0.00000053
-0.79725504 -0.28693014 -0.00000128
-0.21729608 -0.39487943 0.00000000
-0.39646214 -0.59320402 0.00000000
-0.25627807 0.05962322 0.00000000
-0.40362707 0.33810207 -0.00000091
-0.31624237 0.39424643 -0.00000063
-0.04097343 -0.08303330 0.00000000
-0.13009840 0.17849679 0.00000000
-0.62285173 -0.75372869 0.00000000
-0.05138657 0.41305709 0.00000000
-0.44899696 -0.45460606 0.00000000
-0.00344193 0.66786009 0.00000000
-0.29277793 -0.59790426 0.00000000
-0.22102541 0.07626083 0.00000000
-0.55414832 0.06573991 -0.00000107
-0.46219960 0.23024732 -0.00000097
-0.05260088 0.47734398 0.00000000
-0.03842080 0.54992568 0.00000000
-0.31331748 0.14800709 -0.00000018
-0.65025002 -0.56625777 -0.00000036
-0.32302719 -0.03137980 0.00000000
-0.31011945 -0.50817865 0.00000000
-0.12805074 0.64681399 -0.00000028
-0.66499561 0.10760987 -0.00000161
-0.66289335 -0.66982746 -0.00000023
-0.51881868 -0.42099771 -0.00000006
-0.11182113 -0.12879138 0.00000000
-0.42529339 0.00374039 -0.00000041
-0.54314822 -0.14185826 -0.00000065
-0.34635332 0.35190496 -0.00000069
-0.49072620 -0.66418636 0.00000000
-0.26163405 -0.65987372 0.00000000
-0.41432622 -0.72936332 0.00000000
-0.48599240 0.08338756 -0.00000081
-0.54589438 -0.46644530 -0.00000009
-0.54818064 -0.61724031 0.00000000
-0.14069602 0.17679191 0.00000000
-0.44248483 -0.71556759 0.00000000
-0.33246294 -0.67267126 0.00000000
-0.64979482 -0.63186920 -0.00000024
-0.65602976 -0.45493960 -0.00000058
-0.14389531 0.17355190 0.00000000
-0.67045254 -0.73207104 -0.00000015
-0.42065200 0.33535647 -0.00000097
-0.50171828 -0.01216744 -0.00000071
-0.27441585 -0.71465242 0.00000000
-0.62871361 -0.04849125 -0.00000118
-0.58167470 0.07496015 -0.00000120
-0.55646050 -0.72982866 0.00000000
-0.01431728 -0.70423144 0.00000000
-0.16832240 -0.54065013 0.00000000
-0.13054994 -0.05408985 0.00000000
-0.50477564 -0.17490178 -0.00000043
-0.50230223 0.18731336 -0.00000106
-0.02002983 0.31140077 0.00000000
-0.51813054 -0.37755248 -0.00000013
-0.64841330 0.08498823 -0.00000150
-0.06569212 0.37894958 0.00000000
-0.31904200 -0.41700175 0.00000000
-0.13958456 -0.39871711 0.00000000
-0.03626857 0.26484165 0.00000000
-0.19983603 -0.10536823 0.00000000
-0.13373849 0.52662683 -0.00000009
-0.76305026 -0.69354856 -0.00000027
-0.47431794 0.03065084 -0.00000066
-0.05461354 -0.20542702 0.00000000
-0.10368756 0.22843745 0.00000000
-0.32826251 0.19645672 -0.00000033
-0.37913945 0.14432012 -0.00000046
-0.62711984 -0.07701319 -0.00000113
-0.58464432 -0.44087678 -0.00000030
-0.38662726 -0.23823602 0.00000000
-0.19195192 -0.68774223 0.00000000
-0.64306450 0.10953941 -0.00000152
-0.70447719 0.09415606 -0.00000174
-0.53296047 -0.55634010 0.00000000
-0.68933129 -0.30190435 -0.00000099
-0.08870775 0.27546152 0.00000000
-0.63212031 -0.52829969 -0.00000035
-0.60492796 0.19386058 -0.00000151
-0.11189936 -0.57609296 0.00000000
-0.07241157 0.25332934 0.00000000
-0.12133292 0.46656370 0.00000000
-0.53906256 -0.42571545 -0.00000013
-0.07240747 -0.58138728 0.00000000
-0.56596327 -0.49528259 -0.00000013
-0.13308184 -0.62893957 0.00000000
-0.24611604 -0.36765638 0.00000000
-0.39524129 -0.02445469 -0.00000023
-0.68486172 -0.56515199 -0.00000051
-0.08807361 0.55012828 0.00000000
-0.07100028 0.21538378 0.00000000
-0.12940624 0.17797472 0.00000000
-0.04132165 0.70287699 -0.00000000
-0.17762388 0.02884053 0.00000000
-0.46166474 0.13515133 -0.00000079
-0.23411442 -0.77434230 0.00000000
-0.23494536 -0.12351502 0.00000000
-0.10781626 -0.72491300 0.00000000
-0.43456936 -0.65738988 0.00000000
-0.69233280 -0.18261406 -0.00000122
-0.27100366 -0.27183887 0.00000000
-0.01447444 -0.62116402 0.00000000
-0.45901123 -0.22696953 -0.00000014
-0.57117480 -0.54811758 -0.00000005
-0.20788977 0.23285238 0.00000000
-0.58365440 -0.75160980 0.00000000
-0.11586889 0.03870840 0.00000000
-0.30488077 0.35188571 -0.00000051
-0.31244251 -0.45976073 0.00000000
-0.67641133 0.01111185 -0.00000149
-0.69498044 0.00611619 -0.00000156
-0.17158298 -0.20499957 0.00000000
-0.51330125 -0.17695551 -0.00000046
-0.20858595 -0.63555163 0.00000000
-0.71098769 -0.48463529 -0.00000076
-0.61372381 -0.54586303 -0.00000024
-0.66796339 -0.15339521 -0.00000117
-0.12513544 -0.13727206 0.00000000
-0.35811925 -0.02715319 -0.00000007
-0.11833141 0.13542140 0.00000000
-0.58919072 -0.20138492 -0.00000074
-0.23104230 -0.02235539 0.00000000
-0.29822284 0.46516633 -0.00000068
-0.30010152 -0.22871093 0.00000000
-0.60434115 -0.51389825 -0.00000026
-0.56092888 -0.46886849 -0.00000015
-0.57063675 -0.26425567 -0.00000055
-0.10611686 -0.78076124 0.00000000
-0.46872631 -0.51993275 0.00000000
-0.62945044 -0.59105712 -0.00000023
-0.45105726 -0.63567090 0.00000000
-0.61167616 -0.63243967 -0.00000008
-0.35010868 0.34097913 -0.00000068
-0.36339018 0.38564414 -0.00000082
-0.45409292 -0.47985563 0.00000000
-0.64731342 -0.40720963 -0.00000063
-0.55820721 -0.40144330 -0.00000026
-0.47126192 0.16550286 -0.00000089
-0.38817698 -0.47850582 0.00000000
-0.67213494 -0.47459412 -0.00000062
-0.70094293 -0.65549296 -0.00000036
-0.12276510 -0.55026191 0.00000000
-0.14701177 -0.28224063 0.00000000
-0.54337972 0.13709906 -0.00000115
-0.56636065 0.23289883 -0.00000140
-0.04045679 0.50557941 0.00000000
-0.41475201 -0.53682238 0.00000000
-0.07577976 0.66164410 -0.00000008
-0.39916876 -0.34281066 0.00000000
-0.22464339 0.12286665 0.00000000
-0.05508244 0.14800231 0.00000000
-0.12996098 0.06750908 0.00000000
-0.09033190 -0.28509545 0.00000000
-0.16763832 -0.78324550 0.00000000
-0.01563659 0.24945728 0.00000000
-0.07429053 0.05338282 0.00000000
-0.29462656 0.01162148 0.00000000
-0.53680313 -0.08315955 -0.00000073
-0.57679248 -0.28510338 -0.00000054
-0.18120675 -0.27427426 0.00000000
-0.03994540 0.64274317 0.00000000
-0.47725219 -0.07012415 -0.00000050
-0.02934069 -0.00985419 0.00000000
-0.49544451 -0.77513075 0.00000000
-0.38072282 -0.19279368 0.00000000
-0.12940475 0.25974864 0.00000000
-0.41118729 -0.53843343 0.00000000
-0.45947394 0.21188577 -0.00000092
-0.45870763 0.26353899 -0.00000101
-0.34848440 0.11781423 -0.00000028
-0.45000342 -0.20973513 -0.00000014
-0.03493898 -0.72508556 0.00000000
-0.37334901 -0.66375130 0.00000000
-0.20849474 0.43131292 -0.00000024
-0.14620814 0.30855113 0.00000000
-0.74967033 -0.25599214 -0.00000133
-0.30285299 -0.03196453 0.00000000
-0.46956798 -0.36412328 0.00000000
-0.44394192 -0.51645643 0.00000000
-0.21367444 0.58602899 -0.00000053
-0.25625676 0.25902241 -0.00000014
-0.12476247 0.38886672 0.00000000
-0.35734582 -0.67128098 0.00000000
-0.60740298 0.13680673 -0.00000142
-0.29750809 0.47002864 -0.00000069
-0.24670866 -0.46222183 0.00000000
-0.79752570 -0.72805160 -0.00000018
-0.45514822 -0.35998717 0.00000000
-0.07086698 -0.41428661 0.00000000
-0.27607456 0.32523772 -0.00000034
-0.25587910 0.54290408 -0.00000064
-0.24604373 -0.40011430 0.00000000
-0.10870021 0.45470962 0.00000000
-0.25535586 -0.08538690 0.00000000
-0.03922434 0.38478437 0.00000000
-0.14239451 0.09389443 0.00000000
-0.56665927 -0.01012227 -0.00000099
-0.37273175 -0.58537114 0.00000000
-0.43068302 0.12521417 -0.00000065
-0.18150505 0.08298406 0.00000000
-0.71030730 -0.56912857 -0.00000058
-0.77822477 -0.78552610 -0.00000004
-0.53117287 -0.42800304 -0.00000010
-0.61827290 0.02438349 -0.00000127
-0.46403193 0.07149488 -0.00000069
-0.36040670 -0.02956657 -0.00000007
-0.69249964 -0.76683974 -0.00000008
-0.04613066 -0.19940031 0.00000000
-0.64721912 -0.57775736 -0.00000033
-0.47351417 -0.33190668 -0.00000002
-0.02784762 -0.55081403 0.00000000
-0.30967572 0.48362082 -0.00000076
-0.38507932 -0.09694052 -0.00000006
-0.36250722 -0.09116201 0.00000000
-0.35860556 -0.79480338 0.00000000
-0.39528984 -0.42391756 0.00000000
-0.50470746 0.07792207 -0.00000088
-0.14685544 -0.04933632 0.00000000
-0.02412402 -0.11037936 0.00000000
-0.54665512 0.24281034 -0.00000135
-0.45842591 0.06545031 -0.00000066
-0.78857237 -0.36824661 -0.00000108
-0.55796379 -0.20129943 -0.00000061
-0.27291128 -0.75595158 0.00000000
-0.03661397 0.73212111 -0.00000004
-0.11695852 0.29520020 0.00000000
-0.28458402 0.15611884 -0.00000008
-0.43126667 -0.54009902 0.00000000
-0.44077137 -0.03001923 -0.00000041
-0.51431280 -0.19363070 -0.00000044
-0.09681914 0.26918334 0.00000000
-0.77503604 -0.77122790 -0.00000007
-0.62159657 -0.14405295 -0.00000098
-0.14781164 -0.40240103 0.00000000
-0.41838473 -0.26390219 0.00000000
-0.30385864 -0.62929589 0.00000000
-0.13137338 0.34216473 0.00000000
-0.44908535 -0.41857705 0.00000000
-0.02708185 0.76761490 -0.00000006
-0.22133045 -0.50391269 0.00000000
-0.06144625 0.58107370 0.00000000
-0.51704663 -0.26951104 -0.00000032
-0.57573569 0.07093918 -0.00000117
-0.38298443 -0.46117663 0.00000000
-0.28555280 0.45258436 -0.00000060
-0.68602610 -0.69122285 -0.00000027
-0.27383909 0.01482259 0.00000000
-0.07415931 -0.35072926 0.00000000
-0.24608156 0.13470063 0.00000000
-0.46422669 0.28046584 -0.00000106
-0.73996747 -0.24644612 -0.00000131
-0.63652772 0.06284842 -0.00000141
-0.76752979 -0.00719176 -0.00000185
-0.26005718 0.06023251 0.00000000
-0.05224849 -0.66637391 0.00000000
-0.35402939 -0.29857150 0.00000000
-0.49926978 -0.09325375 -0.00000055
-0.25273234 0.46481270 -0.00000049
-0.42445898 -0.70002294 0.00000000
-0.32060748 -0.31835327 0.00000000
-0.72462922 -0.30026519 -0.00000115
-0.41352472 0.33123964 -0.00000094
-0.04457275 -0.21776855 0.00000000
-0.57681090 -0.02392745 -0.00000101
-0.09514818 -0.23738223 0.00000000
-0.17741342 0.21749045 0.00000000
-0.49677521 -0.02257065 -0.00000067
-0.29565048 -0.56334126 0.00000000
-0.37505686 -0.56833339 0.00000000
-0.11173462 -0.54034609 0.00000000
-0.40548292 -0.73531663 0.00000000
-0.40255541 -0.77936119 0.00000000
-0.39671317 0.17930438 -0.00000060
-0.26909310 -0.71683037 0.00000000
-0.57426536 -0.09825267 -0.00000086
-0.51921535 0.05018084 -0.00000089
-0.43347630 -0.46370837 0.00000000
-0.55255133 -0.45036653 -0.00000015
-0.44332159 -0.65728742 0.00000000
-0.07085393 -0.63276207 0.00000000
-0.10486490 -0.31012106 0.00000000
-0.05140921 -0.56082380 0.00000000
-0.42514360 0.01391279 -0.00000042
-0.02140410 0.13689210 0.00000000
-0.08468353 0.64270127 -0.00000008
-0.76433969 -0.09010415 -0.00000169
-0.26973057 -0.25113225 0.00000000
-0.21786287 -0.04599875 0.00000000
-0.44096136 -0.50871539 0.00000000
-0.12120256 -0.08369394 0.00000000
-0.64480436 -0.08670041 -0.00000118
-0.65305299 -0.79681784 0.00000000
-0.57016468 -0.47367772 -0.00000018
-0.65099901 -0.03539482 -0.00000130
-0.72312701 0.00476353 -0.00000168
-0.17068954 -0.30013105 0.00000000
-0.21526361 0.04924159 0.00000000
-0.47124839 0.17247796 -0.00000090
-0.54950964 -0.10553371 -0.00000074
-0.65562189 -0.55989707 -0.00000039
-0.77875656 -0.69066036 -0.00000027
-0.28077939 -0.69470727 0.00000000
-0.64716190 -0.27510676 -0.00000086
-0.28053799 -0.17236999 0.00000000
-0.62530428 -0.60726207 -0.00000018
-0.39700079 -0.68141180 0.00000000
-0.40144229 -0.21916014 0.00000000
-0.09665578 -0.37124667 0.00000000
-0.25547719 0.19310357 -0.00000002
-0.57979673 0.02185815 -0.00000110
-0.24072433 0.53057134 -0.00000055
-0.09955457 -0.44146535 0.00000000
-0.03478666 -0.36668476 0.00000000
-0.53220612 -0.72148389 0.00000000
-0.67846376 -0.63258743 -0.00000036
-0.01567751 -0.61961854 0.00000000
-0.45145583 -0.43028703 0.00000000
-0.51247931 0.19958889 -0.00000113
-0.53375196 -0.07626513 -0.00000073
-0.58321959 0.15908390 -0.00000136
-0.33088398 -0.57659656 0.00000000
-0.30549014 -0.22855835 0.00000000
-0.04927335 0.27176830 0.00000000
-0.11380745 -0.39763227 0.00000000
-0.11721603 0.36721390 0.00000000
-0.52231991 0.21689685 -0.00000120
-0.63324791 -0.79249752 0.00000000
-0.09211467 0.27677172 0.00000000
-0.05565362 -0.28959483 0.00000000
-0.54419112 -0.75840873 0.00000000
-0.12339207 -0.41836619 0.00000000
-0.48584360 0.02618044 -0.00000071
-0.02186968 -0.15773070 0.00000000
-0.61859572 -0.32706532 -0.00000065
-0.09154753 0.54397583 0.00000000
-0.47196436 0.27740553 -0.00000109
-0.12104291 -0.09059650 0.00000000
-0.40406170 -0.61082155 0.00000000
-0.75019699 -0.44546613 -0.00000089
-0.42486376 0.19129376 -0.00000074
-0.25562516 -0.62812752 0.00000000
-0.26678610 0.47754887 -0.00000057
-0.47855136 0.16410492 -0.00000092
-0.24189831 -0.06038507 0.00000000
-0.64659393 -0.78993756 0.00000000
-0.71422064 -0.57455844 -0.00000056
-0.17032810 -0.47920272 0.00000000
-0.31197357 -0.13184941 0.00000000
-0.03409487 -0.51716644 0.00000000
-0.65082484 -0.51776481 -0.00000045
-0.45966810 -0.15851982 -0.00000027
-0.20593119 0.13426025 0.00000000
-0.55312711 0.24222817 -0.00000131
-0.79413587 -0.45797509 -0.00000086
-0.72176754 -0.45659640 -0.00000086
-0.20687868 -0.49768585 0.00000000
-0.63991326 -0.14243942 -0.00000106
-0.57731462 -0.14755277 -0.00000079
-0.08573642 -0.71432781 0.00000000
-0.78773087 0.01005574 -0.00000193
-0.12348008 0.25567147 0.00000000
-0.21600366 0.28910872 -0.00000002
-0.11347132 -0.51686317 0.00000000
-0.69137514 -0.25329074 -0.00000109
-0.45860422 -0.72109884 0.00000000
-0.10067363 0.64892453 -0.00000016
-0.65242368 -0.52363878 -0.00000044
-0.55796880 -0.78501797 0.00000000
-0.32755280 -0.53010017 0.00000000
-0.11020790 -0.71377230 0.00000000
-0.60239100 -0.31702632 -0.00000060
-0.01987731 0.17336810 0.00000000
-0.76352072 -0.31625587 -0.00000121
-0.49042895 -0.05848954 -0.00000058
-0.30309367 0.18675065 -0.00000021
-0.72643411 -0.10760015 -0.00000150
-0.41175222 -0.06015295 -0.00000024
-0.22292034 0.04148858 0.00000000
-0.35109100 -0.08837435 0.00000000
-0.55170393 -0.21115778 -0.00000057
-0.53034294 -0.36785531 -0.00000020
-0.10555067 -0.06219932 0.00000000
-0.40362576 -0.02801132 -0.00000026
-0.13241301 -0.78763902 0.00000000
-0.54303282 -0.49276209 -0.00000003
-0.47817820 -0.10967819 -0.00000043
-0.24383357 0.19751038 0.00000000
-0.07068177 0.23653510 0.00000000
-0.22288139 -0.21944293 0.00000000
-0.43601710 -0.38476062 0.00000000
-0.66480672 -0.20569004 -0.00000106
-0.74251151 -0.45697919 -0.00000086
-0.47922370 -0.68250543 0.00000000
-0.23699187 -0.69254756 0.00000000
-0.04559051 -0.48045984 0.00000000
-0.79232317 -0.52167583 -0.00000070
-0.03432819 -0.43783239 0.00000000
-0.13340212 -0.35372454 0.00000000
-0.56345034 0.10860520 -0.00000118
-0.31546414 0.48062956 -0.00000078
-0.02125498 0.39185891 0.00000000
-0.42443851 -0.69241738 0.00000000
-0.75452447 -0.75117046 -0.00000012
-0.16099045 -0.34583461 0.00000000
-0.03032350 0.72894442 -0.00000000
-0.08769048 -0.17970590 0.00000000
-0.03979881 0.58891898 0.00000000
-0.31144407 -0.06861601 0.00000000
-0.08031032 -0.53740150 0.00000000
-0.22551472 -0.79204994 0.00000000
-0.62954640 -0.69249731 -0.00000005
-0.60970998 -0.52675563 -0.00000026
-0.02203071 0.65329814 0.00000000
-0.34130394 0.29973647 -0.00000057
-0.21367411 0.51449639 -0.00000041
-0.24672756 0.35806808 -0.00000027
-0.17649738 -0.05171862 0.00000000
-0.51204157 -0.28652754 -0.00000026
-0.61700213 -0.31780568 -0.00000066
-0.52793300 -0.14276481 -0.00000059
-0.32187879 -0.09717521 0.00000000
-0.52786362 0.24297462 -0.00000127
-0.72323430 0.06695281 -0.00000179
-0.23656388 0.35274330 -0.00000022
-0.49047717 -0.21552418 -0.00000030
-0.08934085 0.24920364 0.00000000
-0.62711728 -0.43260744 -0.00000050
-0.46085757 -0.37816688 0.00000000
-0.01433728 0.49617821 0.00000000
-0.08397057 0.49199522 0.00000000
-0.34220541 -0.01202566 -0.00000002
-0.10765220 -0.09451800 0.00000000
-0.70853418 -0.22740094 -0.00000121
-0.73655552 -0.26489881 -0.00000126
-0.63011646 -0.48735586 -0.00000041
-0.41843620 -0.12001809 -0.00000016
-0.29353485 -0.33402026 0.00000000
-0.34111053 0.09803857 -0.00000021
-0.48700202 -0.77141279 0.00000000
-0.07882884 -0.76066393 0.00000000
-0.54741681 -0.41276664 -0.00000019
-0.75224549 -0.77009970 -0.00000007
-0.00915072 0.38237971 0.00000000
-0.39158270 0.09447306 -0.00000042
-0.55221987 -0.07795054 -0.00000080
-0.32760882 0.05911802 -0.00000009
-0.58045471 -0.49488419 -0.00000019
-0.06189937 0.08163341 0.00000000
-0.13360018 0.20765395 0.00000000
-0.47609842 -0.79297984 0.00000000
-0.46067354 -0.75332308 0.00000000
-0.10588396 0.20040962 0.00000000
-0.32832369 -0.24181899 0.00000000
-0.44172108 -0.50538111 0.00000000
-0.67601597 -0.72487950 -0.00000019
-0.27067858 -0.26861739 0.00000000
-0.51918375 0.24701105 -0.00000124
-0.15683433 -0.70874280 0.00000000
-0.79089820 -0.45547765 -0.00000086
-0.71670586 -0.38939849 -0.00000096
-0.23426968 -0.04729396 0.00000000
-0.22148912 -0.14560893 0.00000000
-0.53137565 0.21573982 -0.00000123
-0.68954855 -0.12526649 -0.00000131
-0.48443109 -0.11893754 -0.00000044
-0.14593589 -0.11431512 0.00000000
-0.67648345 -0.37460881 -0.00000081
-0.47248316 -0.20503460 -0.00000024
-0.39960021 -0.69659197 0.00000000
-0.43308681 0.03344580 -0.00000049
-0.62540811 -0.23817934 -0.00000083
-0.11723598 -0.55662161 0.00000000
-0.33091286 -0.45068970 0.00000000
-0.53673863 -0.67283106 0.00000000
-0.53975409 -0.04281458 -0.00000081
-0.44341308 -0.24690488 -0.00000004
-0.11595136 -0.08368821 0.00000000
-0.59384847 -0.76399386 0.00000000
-0.10489747 0.21070799 0.00000000
-0.29184848 -0.65255350 0.00000000
-0.25719649 0.02335730 0.00000000
-0.77951086 -0.48330176 -0.00000079
-0.02975092 0.73038328 -0.00000000
-0.71276534 0.01924863 -0.00000166
-0.29514530 -0.75519884 0.00000000
-0.22390416 0.26470274 -0.00000001
-0.12034400 -0.14560300 0.00000000
-0.75137776 0.01654893 -0.00000182
-0.79498172 -0.00232031 -0.00000197
-0.03368017 -0.59106916 0.00000000
-0.56616682 -0.62980241 0.00000000
-0.61191350 -0.61571503 -0.00000011
-0.41766581 -0.09364173 -0.00000020
-0.34282774 -0.21175665 0.00000000
-0.09265171 -0.14277121 0.00000000
-0.25590006 0.39319488 -0.00000037
-0.58134383 -0.03549704 -0.00000100
-0.16451202 -0.76836228 0.00000000
-0.74706048 -0.48647004 -0.00000078
-0.01267004 -0.45614016 0.00000000
-0.12181746 -0.55964923 0.00000000
-0.01092647 -0.13285273 0.00000000
-0.12302951 -0.47179991 0.00000000
-0.59703588 0.14591655 -0.00000139
-0.23621590 0.02933552 0.00000000
-0.32515386 -0.48297378 0.00000000
-0.03060459 -0.44638464 0.00000000
-0.51292527 0.19244573 -0.00000112
-0.66512585 -0.70909792 -0.00000017
-0.43878436 0.36001372 -0.00000108
-0.60403240 -0.07325502 -0.00000103
-0.18575805 0.25123048 0.00000000
-0.69575942 -0.33118209 -0.00000097
-0.70044386 -0.53403211 -0.00000063
-0.43804306 0.35853702 -0.00000104
-0.07334322 -0.59577978 0.00000000
-0.29073557 0.16912594 -0.00000013
-0.69325793 0.02539851 -0.00000159
-0.07474719 -0.25341359 0.00000000
-0.19047204 -0.47934976 0.00000000
-0.69217032 -0.52200699 -0.00000062
-0.34805211 -0.10238493 0.00000000
-0.50578314 0.05753742 -0.00000085
-0.07094302 -0.61963755 0.00000000
-0.24479830 -0.37598917 0.00000000
-0.03878652 -0.59122515 0.00000000
-0.00806735 -0.37956813 0.00000000
-0.26563376 -0.58997118 0.00000000
-0.07435689 -0.61034155 0.00000000
-0.33945674 0.36195564 -0.00000067
-0.22059852 -0.09977961 0.00000000
-0.15209600 -0.06305189 0.00000000
-0.57458305 -0.69949085 0.00000000
-0.23044503 0.07936660 0.00000000
-0.38290033 -0.48574775 0.00000000
-0.72557348 -0.12697200 -0.00000146
-0.18614544 0.13491534 0.00000000
-0.04292553 -0.53317124 0.00000000
-0.32688943 -0.59065539 0.00000000
-0.42090365 -0.44909510 0.00000000
-0.00110956 -0.57241374 0.00000000
-0.71363717 -0.71909052 -0.00000020
-0.63549149 -0.54764754 -0.00000033
-0.32391661 -0.56577712 0.00000000
-0.24393445 -0.77661127 0.00000000
-0.47865215 -0.27512449 -0.00000014
-0.33621246 -0.50561869 0.00000000
-0.42468029 -0.67800587 0.00000000
-0.35553312 -0.56989545 0.00000000
-0.72631359 -0.23307256 -0.00000127
-0.73953187 -0.40256819 -0.00000099
-0.60983235 -0.02134065 -0.00000115
-0.07687760 0.63120300 -0.00000003
-0.16840176 0.55679572 -0.00000029
-0.08157558 0.16780604 0.00000000
-0.05782622 0.37015036 0.00000000
-0.26930478 -0.66994232 0.00000000
-0.18852380 -0.79081327 0.00000000
-0.11364133 0.02252653 0.00000000
-0.43702641 -0.23904011 -0.00000003
-0.77239728 -0.29051173 -0.00000127
-0.25141212 0.34803301 -0.00000027
-0.01130747 -0.65677637 0.00000000
-0.14315586 -0.51229227 0.00000000
-0.02166529 -0.68086374 0.00000000
-0.01562048 0.38553125 0.00000000
-0.32573023 0.40236238 -0.00000069
-0.18700428 -0.14555563 0.00000000
-0.77222794 -0.07489023 -0.00000175
-0.01810298 0.22125126 0.00000000
-0.20203333 0.47769457 -0.00000029
-0.28630227 0.12598923 -0.00000003
-0.74075633 -0.66144341 -0.00000035
-0.31364423 -0.02088074 0.00000000
-0.38242766 -0.01520653 -0.00000019
-0.11458734 -0.75999206 0.00000000
-0.13444752 0.32232493 0.00000000
-0.07055642 -0.76771462 0.00000000
-0.28644985 -0.39059839 0.00000000
-0.02929952 -0.10457859 0.00000000
-0.77337593 -0.17028970 -0.00000157
-0.26582593 -0.48523730 0.00000000
-0.48465142 0.26293308 -0.00000112
-0.14768656 -0.05734730 0.00000000
-0.14148717 0.12345722 0.00000000
-0.50534642 -0.27387616 -0.00000026
-0.44274291 -0.76022792 0.00000000
-0.29183784 0.18805093 -0.00000016
-0.08436892 0.39692557 0.00000000
-0.50766224 0.22620796 -0.00000115
-0.23465955 0.03758277 0.00000000
-0.12320043 0.27710450 0.00000000
-0.52481514 -0.28700846 -0.00000032
-0.19844750 0.55556548 -0.00000041
-0.74101490 -0.26930025 -0.00000127
-0.50250244 -0.19665577 -0.00000038
-0.31467631 -0.44031474 0.00000000
-0.55916882 -0.03995349 -0.00000090
-0.64520723 -0.35511515 -0.00000071
-0.56421763 -0.03873789 -0.00000093
-0.37379470 -0.60792065 0.00000000
-0.17314160 0.15964836 0.00000000
-0.13718444 0.29895946 0.00000000
-0.27470496 -0.21901765 0.00000000
-0.65701520 -0.77385765 -0.00000002
-0.08607337 -0.32837251 0.00000000
-0.72158539 -0.59355968 -0.00000052
-0.14393964 -0.52322412 0.00000000
-0.01174868 0.40814999 0.00000000
-0.55524218 -0.79925734 0.00000000
