ply
format ascii 1.0
element vertex 1139
property float x
property float y
property float z
end_header
-0.01517862 -0.04876940 0.00000188
-0.76894498 -0.15013269 -0.00000158
-0.38467616 -0.44319028 0.00000089
-0.32854828 -0.37920117 0.00000105
-0.76335740 -0.60144097 -0.00000050
-0.06027518 0.35079980 -0.00000335
-0.48059025 0.31562579 0.00000040
-0.01965282 0.33179244 -0.00000483
-0.11896686 -0.60680604 0.00000048
-0.09693377 -0.27238470 0.00000132
-0.76119000 -0.29040122 -0.00000127
-0.02884043 -0.73764241 0.00000016
-0.35728660 0.08617984 0.00000169
-0.20820163 -0.21726447 0.00000146
-0.79078394 -0.52216095 -0.00000069
-0.18639416 0.53758192 0.00000268
-0.04885986 -0.35428277 0.00000111
-0.09244374 -0.73428017 0.00000016
-0.32248503 -0.48045903 0.00000080
-0.35928175 -0.47416171 0.00000081
-0.33771816 -0.46748990 0.00000083
-0.74659401 -0.35686201 -0.00000111
-0.53248858 -0.36292765 0.00000066
-0.22916713 -0.43953323 0.00000090
-0.03873286 -0.79536659 0.00000001
-0.49121207 -0.64338690 0.00000039
-0.76295269 -0.05270552 -0.00000163
-0.30529612 0.49420223 0.00000171
-0.66411060 -0.35080215 -0.00000048
-0.71390635 0.05242194 -0.00000132
-0.66879874 0.09017837 -0.00000097
-0.24727370 -0.66717821 0.00000033
-0.38054657 -0.34287849 0.00000114
-0.12809891 0.06902605 -0.00000714
-0.77742171 -0.06347824 -0.00000174
-0.06739495 0.73131317 0.00000350
-0.18315698 0.33509892 -0.00000032
-0.77935451 -0.71225530 -0.00000022
-0.79393387 -0.14858408 -0.00000163
-0.26107535 -0.36405379 0.00000109
-0.43222123 -0.79003453 0.00000002
-0.54898751 -0.34461898 0.00000050
-0.39260960 -0.39692166 0.00000101
-0.65303016 0.00310619 -0.00000075
-0.68342459 -0.42129412 -0.00000057
-0.17172980 0.61998779 0.00000281
-0.10679781 -0.35022584 0.00000112
-0.00228609 -0.32998711 0.00000120
-0.14789733 0.17889623 -0.00000441
-0.26757577 -0.72352481 0.00000019
-0.16270684 -0.47099549 0.00000082
-0.12468678 -0.24194662 0.00000140
-0.57486272 -0.75006539 0.00000012
-0.43389168 -0.27360797 0.00000132
-0.07874077 0.17600711 -0.00000634
-0.19024661 0.60090148 0.00000258
-0.27425039 0.25259173 0.00000223
-0.08814332 0.02332353 -0.00000914
-0.18547250 0.41393834 0.00000282
-0.24738540 -0.08177517 0.00000180
-0.19551481 -0.20112707 0.00000150
-0.44217730 0.34438884 0.00000070
-0.02338755 -0.44807407 0.00000088
-0.28858587 -0.57284427 0.00000057
-0.32788557 0.32886600 0.00000169
-0.11297142 -0.65168262 0.00000037
-0.27040714 -0.35330617 0.00000112
-0.49649712 -0.50550681 0.00000074
-0.53517926 -0.79152220 0.00000002
-0.35190588 0.03652724 0.00000179
-0.75740355 -0.75497627 -0.00000011
-0.11532816 0.29372424 -0.00000299
-0.21507232 -0.48855063 0.00000078
-0.48210841 -0.06508767 0.00000078
-0.60264260 0.15964681 -0.00000048
-0.33097684 -0.09541839 0.00000176
-0.44963595 -0.67396593 0.00000032
-0.49882591 -0.24211873 0.00000082
-0.31921095 0.31751981 0.00000177
-0.12603776 0.40437517 -0.00000049
-0.78862077 -0.01248222 -0.00000189
-0.26730663 -0.03871054 0.00000190
-0.53210789 0.11971172 0.00000016
-0.46523628 -0.33744794 0.00000116
-0.30687529 -0.62067306 0.00000045
-0.51333135 -0.25191823 0.00000071
-0.74013937 -0.69031054 -0.00000027
-0.57805848 -0.30632764 0.00000021
-0.02539063 -0.16387691 0.00000159
-0.38163066 0.14638349 0.00000142
-0.11839103 -0.69670242 0.00000026
-0.03836247 -0.10393999 0.00000174
-0.58796096 0.16813280 -0.00000036
-0.50118756 -0.10246793 0.00000066
-0.09196786 -0.04798081 0.00000188
-0.32777277 -0.31229946 0.00000122
-0.37605464 0.36067462 0.00000125
-0.59202105 -0.26763552 0.00000005
-0.03770162 0.21768989 -0.00000662
-0.54483569 -0.14511597 0.00000033
-0.18102472 0.07246369 -0.00000563
-0.23563191 -0.49307212 0.00000077
-0.47425267 -0.26255146 0.00000105
-0.06421554 0.33577037 -0.00000354
-0.11186147 -0.62301284 0.00000044
-0.41568404 0.17222165 0.00000110
-0.30851614 -0.02018346 0.00000195
-0.73518026 -0.60588914 -0.00000049
-0.33407059 -0.72483295 0.00000019
-0.02289684 0.20570002 -0.00000726
-0.71561313 -0.59440452 -0.00000051
-0.54711992 -0.16224808 0.00000033
-0.62974161 -0.04133189 -0.00000050
-0.36941352 -0.43212032 0.00000092
-0.00517611 0.47858354 -0.00000229
-0.13832165 -0.26602188 0.00000133
-0.33640933 -0.58176339 0.00000055
-0.14941220 -0.52027440 0.00000070
-0.29576063 -0.01492037 0.00000196
-0.56219864 -0.48589540 0.00000053
-0.44992849 -0.69658053 0.00000026
-0.35548946 -0.50904536 0.00000073
-0.38510603 0.18892908 0.00000135
-0.00810740 -0.20110779 0.00000150
-0.21263494 0.14308669 -0.00000336
-0.41118193 -0.27260461 0.00000132
-0.47346377 -0.63916951 0.00000040
-0.05478048 0.46027905 -0.00000131
-0.03398225 -0.38266566 0.00000104
-0.76098049 -0.37817988 -0.00000105
-0.29627588 -0.35000643 0.00000112
-0.31337968 0.12449844 0.00000202
-0.64426225 -0.01035716 -0.00000066
-0.42195612 0.34934914 0.00000087
-0.11565927 0.59692931 0.00000322
-0.39418241 -0.37786132 0.00000106
-0.48762661 -0.62886989 0.00000043
-0.55144376 -0.30844337 0.00000044
-0.34701112 -0.12583546 0.00000169
-0.51947367 -0.00281591 0.00000040
-0.11363785 -0.26165098 0.00000135
-0.51729900 -0.21628602 0.00000064
-0.57242209 -0.17212199 0.00000012
-0.16840985 -0.33965042 0.00000115
-0.35380864 -0.28459477 0.00000129
-0.40006316 -0.27440119 0.00000131
-0.08455032 0.00158396 -0.00000967
-0.39738473 -0.34007055 0.00000115
-0.73350203 -0.04537648 -0.00000139
-0.36441541 -0.39850569 0.00000100
-0.10502395 0.35317722 -0.00000208
-0.15302362 -0.67705780 0.00000031
-0.40262350 -0.49995735 0.00000075
-0.51074052 -0.57042992 0.00000057
-0.20371506 -0.01400091 0.00000196
-0.10443583 0.08805473 -0.00000740
-0.70357656 0.05728171 -0.00000124
-0.24587330 0.47525868 0.00000224
-0.46425551 -0.27834570 0.00000115
-0.15095873 0.08145816 -0.00000627
-0.31533366 0.09706998 0.00000204
-0.35578552 0.32301426 0.00000146
-0.18475769 0.23568732 -0.00000227
-0.76336068 -0.38908431 -0.00000103
-0.10485219 0.34252030 -0.00000230
-0.01245975 -0.26733163 0.00000133
-0.75643432 -0.42529368 -0.00000094
-0.06704664 -0.63615859 0.00000041
-0.59844625 -0.69815361 0.00000025
-0.75010872 0.03503474 -0.00000161
-0.07609534 0.52807719 0.00000063
-0.41534334 -0.60659468 0.00000048
-0.30116802 0.06008539 -0.00000262
-0.35307616 -0.12267458 0.00000169
-0.13901767 -0.26383483 0.00000134
-0.46710253 -0.01477139 0.00000086
-0.00587291 -0.63427782 0.00000041
-0.64463240 0.08638361 -0.00000076
-0.59651250 -0.41607919 0.00000017
-0.24110658 -0.07688744 0.00000181
-0.01728317 -0.28696975 0.00000128
-0.31366557 -0.62920469 0.00000043
-0.03271158 -0.43781543 0.00000091
-0.09797086 -0.38952288 0.00000103
-0.08937382 -0.10051958 0.00000175
-0.00298614 0.23210913 -0.00000728
-0.33306137 0.28134838 0.00000169
-0.64864159 -0.26719683 -0.00000043
-0.24129666 0.14924753 -0.00000246
-0.39166695 0.15782972 0.00000132
-0.03422086 0.76485938 0.00000375
-0.03359805 -0.26480880 0.00000134
-0.06616984 -0.44849870 0.00000088
-0.48705888 -0.68659067 0.00000028
-0.67770988 0.12050871 -0.00000108
-0.40228051 -0.45269689 0.00000087
-0.46362051 -0.58680183 0.00000053
-0.75580209 -0.52122754 -0.00000070
-0.50005233 0.14669728 0.00000041
-0.12487165 0.24180742 -0.00000377
-0.79075354 -0.50947809 -0.00000073
-0.08825213 -0.61799234 0.00000046
-0.23314655 -0.29578862 0.00000126
-0.30230275 -0.40531915 0.00000099
-0.00392250 0.25029945 -0.00000689
-0.34528628 -0.42366534 0.00000094
-0.60820031 -0.67809838 0.00000030
-0.51989686 0.03658978 0.00000035
-0.10049699 -0.37254462 0.00000107
-0.47046077 -0.74721563 0.00000013
-0.07904883 0.56648612 0.00000148
-0.23244323 0.23345767 -0.00000102
-0.05106241 -0.66266006 0.00000034
-0.13172331 -0.33858395 0.00000115
-0.20217837 -0.29719523 0.00000126
-0.44522160 -0.21061163 0.00000125
-0.17213714 0.08927991 -0.00000554
-0.25617766 0.39491090 0.00000223
-0.48053473 -0.32871190 0.00000107
-0.02504260 0.16721939 -0.00000798
-0.43541256 -0.65853930 0.00000035
-0.22254848 0.26906839 0.00000265
-0.08623302 -0.03231893 0.00000192
-0.40199640 -0.17542924 0.00000156
-0.16640675 -0.20704637 0.00000148
-0.69582760 -0.64474350 -0.00000039
-0.58155131 -0.52072924 0.00000040
-0.08894978 -0.04808750 0.00000188
-0.54881698 -0.06075350 0.00000021
-0.29705301 -0.24479216 0.00000139
-0.12623431 -0.42533118 0.00000094
-0.56379116 0.10233156 -0.00000009
-0.00704369 -0.23190770 0.00000142
-0.05537080 -0.36215115 0.00000109
-0.57385820 -0.13551453 0.00000007
-0.54344773 -0.07538424 0.00000027
-0.15659244 0.16833913 -0.00000438
-0.20201217 0.40563008 0.00000268
-0.07780329 -0.27538899 0.00000131
-0.62983435 -0.14868756 -0.00000039
-0.19642790 -0.48875642 0.00000078
-0.79821187 -0.16975620 -0.00000158
-0.03274489 0.53091604 -0.00000049
-0.33465779 -0.23875198 0.00000140
-0.68990970 -0.20235403 -0.00000085
-0.33296904 -0.00648918 0.00000198
-0.55866128 0.15576038 -0.00000010
-0.57295799 0.02621295 -0.00000009
-0.05718302 -0.00428883 0.00000199
-0.22784090 0.55911475 0.00000230
-0.06535090 -0.13716170 0.00000166
-0.43837148 -0.44752669 0.00000088
-0.31037676 -0.59389496 0.00000052
-0.15798306 -0.07113704 0.00000182
-0.23333474 -0.30989435 0.00000123
-0.64619511 -0.73750317 0.00000008
-0.23447093 0.39994836 0.00000241
-0.58831507 -0.60585541 0.00000043
-0.03378118 -0.56659019 0.00000058
-0.27681088 -0.25433624 0.00000136
-0.14190584 -0.08667541 0.00000178
-0.36078092 -0.75364590 0.00000012
-0.30375704 0.32812905 0.00000190
-0.76672816 -0.07571207 -0.00000164
-0.12301939 0.34938198 -0.00000167
-0.48544940 -0.35867456 0.00000106
-0.04411981 -0.16934830 0.00000158
-0.15195858 0.13784547 -0.00000512
-0.50079453 -0.00812754 0.00000056
-0.53280085 -0.26819515 0.00000056
-0.70049816 -0.30818084 -0.00000083
-0.57938892 -0.74716997 0.00000013
-0.51498741 0.00257163 0.00000043
-0.50724578 -0.50369650 0.00000074
-0.21776658 -0.65411115 0.00000036
-0.53497720 -0.13397980 0.00000040
-0.17423822 -0.51990384 0.00000070
-0.11959158 0.56686342 0.00000322
-0.73444957 -0.76631588 -0.00000008
-0.34334159 -0.65060222 0.00000037
-0.02238714 -0.46250740 0.00000084
-0.46388629 -0.71968931 0.00000020
-0.53459311 -0.13862391 0.00000041
-0.15796310 -0.30808237 0.00000123
-0.23601890 -0.27605137 0.00000131
-0.12301582 0.12346699 -0.00000619
-0.23402262 0.09372783 -0.00000377
-0.25946024 0.52203393 0.00000207
-0.34462866 0.31481680 0.00000156
-0.52581096 -0.14860132 0.00000049
-0.68472952 -0.57474887 -0.00000042
-0.00934093 -0.75449383 0.00000011
-0.44290334 -0.28884244 0.00000128
-0.27211636 0.51765466 0.00000197
-0.43218631 -0.52824700 0.00000068
-0.07028287 0.46123305 -0.00000087
-0.57734716 -0.35889336 0.00000027
-0.29037386 0.14668313 0.00000220
-0.52204436 0.21361157 0.00000015
-0.50637352 -0.66877264 0.00000033
-0.04195214 0.68072659 0.00000275
-0.53798294 -0.67039376 0.00000032
-0.71850061 0.04839381 -0.00000135
-0.05459764 -0.75458783 0.00000011
-0.62646681 -0.32376242 -0.00000018
-0.46261880 -0.71665758 0.00000021
-0.61930060 -0.76545686 0.00000009
-0.38833547 0.37745646 0.00000112
-0.12717403 -0.39877325 0.00000100
-0.27486202 -0.74991018 0.00000013
-0.05353826 0.34104851 -0.00000372
-0.40927851 -0.40332666 0.00000099
-0.03742577 -0.54754823 0.00000063
-0.64144576 -0.02657830 -0.00000062
-0.06934923 0.72834736 0.00000348
-0.37897009 -0.40194660 0.00000100
-0.38630494 0.05724035 0.00000147
-0.77334338 -0.42570803 -0.00000094
-0.00884622 -0.18100035 0.00000155
-0.16551878 0.26183498 -0.00000227
-0.35443920 0.44195241 0.00000135
-0.30085370 0.19189027 0.00000206
-0.10692870 -0.32981703 0.00000118
-0.04928942 0.16706902 -0.00000732
-0.06602982 0.52107042 0.00000021
-0.55528367 -0.74318528 0.00000014
-0.45360059 -0.11700012 0.00000108
-0.27674660 0.22673382 0.00000223
-0.39450219 0.37340659 0.00000107
-0.48544368 0.05279870 0.00000063
-0.20050482 0.19083805 -0.00000274
-0.37386316 -0.03062267 0.00000167
-0.33474576 0.11481907 0.00000185
-0.29541951 0.05231778 -0.00000293
-0.55258805 -0.40308699 0.00000053
-0.20192096 -0.13286497 0.00000167
-0.31126890 0.24915990 0.00000191
-0.15486673 0.64168596 0.00000288
-0.74874789 -0.48106414 -0.00000080
-0.17499232 -0.03779646 0.00000191
-0.75885826 -0.04144775 -0.00000161
-0.36973256 -0.32408524 0.00000119
-0.25621280 0.17172214 -0.00000161
-0.02033304 0.58808136 0.00000031
-0.69452119 -0.55756503 -0.00000052
-0.16725343 0.10214595 -0.00000541
-0.51073670 0.22315557 0.00000024
-0.78316212 -0.05692155 -0.00000180
-0.16464514 0.23500697 -0.00000283
-0.75372624 -0.22148007 -0.00000138
-0.02543167 -0.75516486 0.00000011
-0.22891662 0.10892252 -0.00000360
-0.00922628 0.04181917 -0.00001091
-0.15638261 -0.69652236 0.00000026
-0.51766378 -0.64533460 0.00000039
-0.62850845 0.14264445 -0.00000068
-0.66224259 -0.75964183 -0.00000004
-0.75696570 -0.00970378 -0.00000162
-0.70757276 0.04613683 -0.00000126
-0.09669147 -0.53130442 0.00000067
-0.33565679 -0.41588709 0.00000096
-0.06279129 -0.40923536 0.00000098
-0.68161660 0.07520870 -0.00000107
-0.12469939 -0.37912163 0.00000105
-0.26936200 -0.58941317 0.00000053
-0.50873590 -0.64982963 0.00000038
-0.66359860 -0.45156458 -0.00000037
-0.32954243 0.02978367 0.00000198
-0.21077901 0.37466210 0.00000264
-0.61730355 0.02063605 -0.00000046
-0.14626317 -0.02397625 0.00000194
-0.61526817 -0.65388793 0.00000025
-0.49449605 -0.63738769 0.00000041
-0.20973250 0.37333426 0.00000265
-0.62064111 -0.38484424 -0.00000007
-0.24110788 -0.71601307 0.00000021
-0.06853980 -0.60914010 0.00000048
-0.12610956 -0.69035757 0.00000027
-0.65823638 -0.38160211 -0.00000039
-0.18545663 0.10443178 -0.00000487
-0.37061194 -0.08501996 0.00000175
-0.66952258 -0.32768178 -0.00000055
-0.21570751 -0.24821720 0.00000138
-0.69466686 -0.35609233 -0.00000073
-0.59803098 -0.45932877 0.00000020
-0.09361944 0.63863069 0.00000337
-0.67774427 -0.28304228 -0.00000066
-0.11683172 0.49850026 0.00000114
-0.64292872 -0.10257006 -0.00000055
-0.51141709 -0.06728148 0.00000053
-0.53495330 -0.35422996 0.00000063
-0.55498081 -0.27550766 0.00000038
-0.59689528 -0.38966641 0.00000014
-0.40876424 -0.29437330 0.00000126
-0.36930481 -0.69673300 0.00000026
-0.04099506 0.00710466 -0.00001074
-0.52081591 -0.70469308 0.00000024
-0.24260004 -0.52184892 0.00000070
-0.28626028 -0.34948373 0.00000113
-0.23982412 0.53698826 0.00000223
-0.32516399 -0.23296814 0.00000142
-0.22151572 0.14576522 -0.00000307
-0.08181751 0.25194052 -0.00000474
-0.68466485 -0.17359480 -0.00000084
-0.49090344 -0.56041378 0.00000060
-0.21912222 0.04485613 -0.00000515
-0.12655599 -0.12767248 0.00000168
-0.70264310 -0.46500686 -0.00000069
-0.72245651 -0.47754470 -0.00000081
-0.52657211 -0.61172932 0.00000047
-0.43415660 0.16033493 0.00000096
-0.14613006 0.64827913 0.00000297
-0.55001467 -0.08859345 0.00000023
-0.23033041 -0.10667770 0.00000173
-0.00988277 -0.77321970 0.00000016
-0.70865208 -0.39989841 -0.00000081
-0.30010760 0.23164091 0.00000203
-0.22702417 0.36009759 0.00000252
-0.49709266 -0.18730107 0.00000078
-0.59672439 -0.59549797 0.00000035
-0.07432207 -0.03345761 0.00000192
-0.01077863 -0.29181811 0.00000127
-0.02943243 0.62474453 0.00000129
-0.27957773 0.27027553 0.00000216
-0.31566340 -0.42343387 0.00000094
-0.78370321 -0.28291449 -0.00000129
-0.74124110 -0.44213104 -0.00000089
-0.63133568 -0.50099397 -0.00000004
-0.05879235 -0.31639010 0.00000121
-0.36560300 0.42494813 0.00000127
-0.68715465 -0.10571826 -0.00000093
-0.09116115 0.10998041 -0.00000732
-0.01429994 0.60308564 0.00000045
-0.30954003 -0.10384084 0.00000174
-0.34319514 -0.20835461 0.00000148
-0.04977406 0.21807820 -0.00000629
-0.68078756 0.02117411 -0.00000100
-0.35916278 0.29822463 0.00000145
-0.36677003 0.16843952 0.00000152
-0.00021649 0.79654473 0.00000399
-0.66972291 0.03523999 -0.00000092
-0.18470556 -0.50289702 0.00000074
-0.59411508 0.20400074 -0.00000045
-0.45384559 -0.59656727 0.00000051
-0.22144736 0.13792428 -0.00000323
-0.13764055 -0.18298446 0.00000154
-0.31495419 -0.60042202 0.00000050
-0.61684334 0.17704178 -0.00000062
-0.09561833 0.49264973 0.00000045
-0.06846208 -0.23484494 0.00000141
-0.26448685 -0.42230007 0.00000094
-0.58752108 -0.72005016 0.00000020
-0.17831025 -0.65278983 0.00000037
-0.03058984 -0.75862700 0.00000010
-0.46980464 0.08451283 0.00000073
-0.48777807 -0.53739959 0.00000066
-0.55215788 -0.76982510 0.00000008
-0.04654982 0.51001626 -0.00000054
-0.40468869 -0.10795134 0.00000149
-0.46213189 -0.38657850 0.00000103
-0.45146653 -0.74582833 0.00000014
-0.20751318 -0.05876509 0.00000185
-0.09525433 0.31889346 -0.00000304
-0.46276069 -0.11530087 0.00000100
-0.21846998 0.27609465 0.00000268
-0.00255828 0.04991075 -0.00001093
-0.15600099 -0.09095960 0.00000177
-0.32735884 -0.11092862 0.00000172
-0.40875977 -0.77782458 0.00000006
-0.47922015 -0.30399692 0.00000105
-0.55201179 -0.71700734 0.00000021
-0.22726272 -0.38627639 0.00000103
-0.29372633 0.22412805 0.00000209
-0.71030277 -0.22026613 -0.00000101
-0.18072429 0.48206812 0.00000279
-0.60572523 -0.73477840 0.00000016
-0.24633752 -0.62726945 0.00000043
-0.40858307 0.26786989 0.00000106
-0.15732960 0.58433288 0.00000288
-0.53437912 0.01463434 0.00000025
-0.14194562 -0.64576668 0.00000039
-0.68255693 -0.36192957 -0.00000062
-0.03096597 -0.78165728 0.00000005
-0.18308969 -0.01101354 0.00000197
-0.32763007 -0.14789370 0.00000163
-0.24359800 -0.34116071 0.00000115
-0.67296904 -0.45494941 -0.00000044
-0.64140528 -0.54641336 -0.00000008
-0.51566970 -0.19923121 0.00000063
-0.36588612 -0.67462909 0.00000031
-0.10588554 -0.59724969 0.00000051
-0.65837508 -0.56036693 -0.00000021
-0.12623481 -0.63360804 0.00000042
-0.29617190 -0.24453118 0.00000139
-0.76508659 -0.06766884 -0.00000163
-0.27861395 0.35210198 0.00000209
-0.22697026 0.45972696 0.00000242
-0.07149986 -0.14568578 0.00000164
-0.39723408 -0.67580074 0.00000031
-0.34994712 0.19779497 0.00000164
-0.44901398 0.34292367 0.00000073
-0.05502176 0.72806370 0.00000360
-0.71283472 -0.26009890 -0.00000099
-0.60104227 -0.49941841 0.00000022
-0.56487161 -0.41390961 0.00000044
-0.70859492 0.05517732 -0.00000128
-0.31995845 -0.18426178 0.00000154
-0.00135646 -0.06413554 0.00000184
-0.29752734 0.13633031 0.00000215
-0.26675573 -0.75948697 0.00000010
-0.55016840 -0.38590944 0.00000053
-0.66831386 -0.05396784 -0.00000082
-0.52203959 -0.35194886 0.00000074
-0.04735487 0.04509694 -0.00000981
-0.40969592 -0.64318424 0.00000039
-0.11881418 -0.16061944 0.00000160
-0.75678670 -0.35692677 -0.00000111
-0.14544776 0.29771462 -0.00000210
-0.48660433 -0.06045132 0.00000074
-0.46117988 0.06706001 0.00000082
-0.64068246 -0.41585445 -0.00000021
-0.51133180 0.02428857 0.00000044
-0.51888841 -0.72180265 0.00000020
-0.30172291 -0.32127187 0.00000120
-0.19728749 -0.33501691 0.00000116
-0.53720474 -0.27329391 0.00000053
-0.63912064 -0.61342376 0.00000001
-0.15554447 -0.26374146 0.00000134
-0.35281026 -0.40593982 0.00000099
-0.15248434 0.53112310 0.00000298
-0.18897703 -0.66848469 0.00000033
-0.08017710 0.64914823 0.00000347
-0.55168611 -0.15224709 0.00000028
-0.70982170 -0.68702656 -0.00000028
-0.03366387 -0.73848408 0.00000015
-0.15120944 0.60544282 0.00000291
-0.41571629 0.17244218 0.00000110
-0.43243068 0.28466743 0.00000084
-0.32546571 -0.11066102 0.00000172
-0.59351248 -0.64232850 0.00000039
-0.27824843 -0.09237472 0.00000177
-0.64386368 -0.70866376 0.00000007
-0.52558821 -0.75435203 0.00000011
-0.62541348 -0.18451700 -0.00000032
-0.52598393 -0.27481550 0.00000062
-0.51300699 -0.47066867 0.00000082
-0.54615885 0.10034318 0.00000006
-0.43368834 -0.62142557 0.00000045
-0.08348007 -0.78048342 0.00000005
-0.08402186 0.30855015 -0.00000355
-0.27132347 0.34112620 0.00000216
-0.62563396 -0.10281021 -0.00000041
-0.23142248 -0.38113093 0.00000105
-0.56186324 0.18742952 -0.00000016
-0.00916996 -0.52250856 0.00000069
-0.45871559 0.23170038 0.00000067
-0.04271029 -0.11682378 0.00000171
-0.52096701 -0.65009826 0.00000037
-0.28996620 -0.19508252 0.00000151
-0.66980851 -0.39675805 -0.00000048
-0.17167228 -0.20686308 0.00000148
-0.23169416 -0.72601140 0.00000018
-0.53908682 -0.77874285 0.00000005
-0.06031768 -0.50685221 0.00000073
-0.43367189 -0.28329864 0.00000129
-0.53991556 -0.64826238 0.00000038
-0.22039339 0.23187906 -0.00000138
-0.65180653 0.10243329 -0.00000084
-0.69814068 -0.73553765 -0.00000016
-0.05575198 -0.12498919 0.00000169
-0.32961714 -0.39365849 0.00000102
-0.21042837 -0.61279035 0.00000047
-0.22048807 -0.46256140 0.00000084
-0.08642207 -0.59686935 0.00000051
-0.15248644 -0.28656030 0.00000128
-0.43031341 0.01684692 0.00000114
-0.09948674 -0.21414773 0.00000146
-0.60156167 -0.05176348 -0.00000025
-0.35725212 -0.58910680 0.00000053
-0.41279331 0.38082993 0.00000098
-0.40643790 -0.76878142 0.00000008
-0.29753384 0.44996986 0.00000182
-0.17404447 0.39491734 0.00000293
-0.72528791 -0.73134285 -0.00000017
-0.00925516 -0.18049026 0.00000155
-0.51814955 -0.09985864 0.00000051
-0.26436004 -0.04105095 0.00000190
-0.62723702 -0.64136326 0.00000014
-0.44129682 0.23094867 0.00000082
-0.08027305 0.31258947 -0.00000357
-0.31608644 0.38233861 0.00000173
-0.05099255 0.64538741 0.00000229
-0.44843966 -0.76713538 0.00000008
-0.73599744 -0.14349766 -0.00000131
-0.37514472 -0.73843455 0.00000015
-0.25708410 0.45352063 0.00000216
-0.25970697 -0.70670575 0.00000023
-0.64927006 0.11651245 -0.00000083
-0.02244480 -0.24998467 0.00000138
-0.67039889 -0.60143125 -0.00000027
-0.36234498 -0.11716483 0.00000171
-0.27053359 0.35804111 0.00000215
-0.42273924 0.29781577 0.00000091
-0.49459553 0.00388143 0.00000060
-0.35302746 -0.71567851 0.00000021
-0.25323573 -0.46267942 0.00000084
-0.50068116 -0.12520652 0.00000068
-0.18397333 -0.63984013 0.00000040
-0.31662285 -0.03487650 0.00000191
-0.39966568 -0.33924770 0.00000115
-0.64565480 -0.28645581 -0.00000039
-0.39515549 0.21489403 0.00000123
-0.50811160 0.09727134 0.00000039
-0.29957324 -0.73461336 0.00000016
-0.53934908 0.06830378 0.00000015
-0.61877126 -0.14326747 -0.00000030
-0.51928467 -0.69067162 0.00000027
-0.59471548 -0.40188950 0.00000017
-0.71488005 -0.75823516 -0.00000010
-0.45621675 -0.19221556 0.00000113
-0.12739481 -0.41042301 0.00000097
-0.21658196 -0.78367847 0.00000004
-0.57172495 -0.38907883 0.00000035
-0.30055878 -0.59967083 0.00000050
-0.43805519 0.02506372 0.00000106
-0.51470065 0.04114800 0.00000039
-0.22238468 0.44502699 0.00000247
-0.02970675 0.58652884 0.00000054
-0.26246223 -0.02482753 0.00000194
-0.71526039 -0.00796453 -0.00000127
-0.14995530 0.29338303 -0.00000206
-0.65903455 -0.39552534 -0.00000039
-0.54536200 -0.76325458 0.00000009
-0.37067857 -0.23230276 0.00000142
-0.52770042 -0.33435053 0.00000067
-0.67198938 -0.36285576 -0.00000053
-0.46355972 -0.11975975 0.00000100
-0.02826511 -0.59739459 0.00000051
-0.13105412 -0.64921165 0.00000038
-0.38321194 -0.07364192 0.00000163
-0.40436003 -0.19876850 0.00000150
-0.63804626 -0.16968226 -0.00000044
-0.34270078 -0.57692415 0.00000056
-0.15181418 0.38776925 -0.00000012
-0.03034593 0.65320504 0.00000189
-0.21804199 -0.67246878 0.00000032
-0.04086530 -0.36512497 0.00000109
-0.55645388 -0.41142163 0.00000050
-0.10329069 -0.40281123 0.00000099
-0.03368015 0.42522210 -0.00000258
-0.57055253 -0.74584681 0.00000014
-0.43060184 -0.03366254 0.00000119
-0.77230906 -0.79551715 -0.00000001
-0.35050908 -0.61162186 0.00000047
-0.04045482 -0.24981417 0.00000138
-0.40621629 0.26788992 0.00000108
-0.05324095 -0.69243413 0.00000027
-0.36046770 0.23391764 0.00000151
-0.59022135 -0.23928438 0.00000004
-0.25615761 0.31433517 0.00000232
-0.73301578 -0.11304843 -0.00000131
-0.61700624 -0.31843698 -0.00000011
-0.09845008 -0.22738221 0.00000143
-0.48172751 -0.76758081 0.00000008
-0.43939328 -0.45136076 0.00000087
-0.21746923 0.09204916 -0.00000425
-0.57980090 -0.04183137 -0.00000008
-0.23503263 -0.45195082 0.00000087
-0.73531467 0.02657823 -0.00000148
-0.07516921 0.24153540 -0.00000513
-0.27253693 -0.61359733 0.00000047
-0.16856275 -0.69281000 0.00000027
-0.13022339 -0.72647893 0.00000018
-0.51967829 0.24555136 0.00000014
-0.09372946 -0.58936465 0.00000053
-0.22414947 -0.52614516 0.00000068
-0.70884961 -0.01778038 -0.00000120
-0.48866788 0.08647282 0.00000057
-0.77875268 -0.48000881 -0.00000080
-0.15126774 -0.51871282 0.00000070
-0.29782149 -0.67159122 0.00000032
-0.35432684 0.35634688 0.00000144
-0.53287268 -0.48820469 0.00000078
-0.21377237 -0.50957924 0.00000073
-0.24488059 -0.34517974 0.00000114
-0.37089923 0.02494836 0.00000164
-0.64734328 -0.71433234 0.00000004
-0.42723057 -0.47756150 0.00000081
-0.41185340 -0.26519799 0.00000134
-0.28695762 0.26337150 0.00000211
-0.31680462 0.04502007 0.00000208
-0.56960964 -0.31285641 0.00000029
-0.25032899 0.14844500 -0.00000223
-0.17470960 -0.07418971 0.00000181
-0.48310140 -0.36983362 0.00000108
-0.48655978 -0.31248024 0.00000100
-0.32909009 -0.04008319 0.00000190
-0.11354698 0.53400707 0.00000331
-0.68470442 -0.19362272 -0.00000082
-0.17747191 0.52841336 0.00000277
-0.20730698 0.48418632 0.00000256
-0.66488910 -0.66709083 -0.00000016
-0.23516320 -0.69138920 0.00000027
-0.15160079 0.00144596 -0.00000785
-0.39580598 0.08758715 0.00000136
-0.44493383 -0.12212469 0.00000116
-0.03436757 0.02556402 -0.00001056
-0.71594572 -0.14375798 -0.00000113
-0.39177275 -0.49682048 0.00000076
-0.36538780 0.43121865 0.00000130
-0.19088431 -0.60606688 0.00000048
-0.58319795 -0.12265502 -0.00000002
-0.61144668 -0.24832939 -0.00000013
-0.01255855 0.52101457 -0.00000124
-0.28722611 -0.20334141 0.00000149
-0.07814809 0.70498943 0.00000343
-0.18706582 0.22474316 -0.00000242
-0.36909503 -0.02947193 0.00000171
-0.38903341 -0.11532575 0.00000163
-0.29055250 -0.28148445 0.00000130
-0.04435622 -0.58257395 0.00000054
-0.09457884 0.59088862 0.00000341
-0.17273493 -0.01085281 0.00000197
-0.74698532 -0.49837613 -0.00000075
-0.26712972 -0.56273371 0.00000059
-0.31359926 0.27763429 0.00000186
-0.13439313 -0.36685982 0.00000108
-0.03489317 0.49335903 -0.00000119
-0.38575155 0.03388955 0.00000150
-0.27872729 0.48181510 0.00000195
-0.16537385 -0.45123425 0.00000087
-0.13612024 0.11228521 -0.00000606
-0.16681160 -0.64541852 0.00000039
-0.07588577 0.17877732 -0.00000636
-0.01063322 0.71933997 0.00000268
-0.71622849 -0.68662363 -0.00000028
-0.65863687 0.03749904 -0.00000083
-0.43590081 -0.12716283 0.00000124
-0.64961839 -0.36128744 -0.00000034
-0.00184692 -0.42896688 0.00000094
-0.14294061 -0.48577446 0.00000079
-0.05966828 0.16678870 -0.00000704
-0.31594342 -0.42252347 0.00000094
-0.09581641 -0.19256820 0.00000152
-0.19733177 0.02558886 -0.00000613
-0.20354216 0.43363869 0.00000264
-0.14851744 -0.06588485 0.00000184
-0.35346249 -0.31078649 0.00000122
-0.22543189 -0.48412648 0.00000079
-0.20640863 0.29021454 -0.00000059
-0.23243025 -0.36770174 0.00000108
-0.44444507 0.18346658 0.00000084
-0.21560182 0.31119967 0.00000267
-0.59014440 -0.24578612 0.00000005
-0.47536105 -0.68066818 0.00000030
-0.21514797 -0.02240520 0.00000194
-0.12446120 -0.78208935 0.00000004
-0.36044028 -0.18996295 0.00000153
-0.23131767 0.13274492 -0.00000306
-0.68006879 -0.27874276 -0.00000069
-0.25219509 0.40324432 0.00000226
-0.53580701 0.25888073 -0.00000001
-0.38674390 0.24395719 0.00000127
-0.78979504 -0.59410149 -0.00000051
-0.36014435 -0.11341450 0.00000172
-0.69998264 -0.08922541 -0.00000105
-0.27864638 -0.49917135 0.00000075
-0.03118077 -0.39648542 0.00000101
-0.40089399 0.07518873 0.00000133
-0.02688541 -0.50379306 0.00000074
-0.22698431 0.40498447 0.00000247
-0.74781829 -0.67119259 -0.00000032
-0.07624477 0.71076477 0.00000344
-0.15099315 0.18047081 -0.00000429
-0.22923742 0.53837210 0.00000231
-0.60709703 -0.01117254 -0.00000034
-0.17270207 -0.37424293 0.00000106
-0.25369552 0.20676851 0.00000245
-0.27489907 0.04120380 -0.00000371
-0.73945397 -0.58193219 -0.00000055
-0.47098729 -0.01545661 0.00000082
-0.67294449 0.06043419 -0.00000098
-0.29041108 -0.33283520 0.00000117
-0.46038857 0.33140793 0.00000056
-0.73534501 0.02346087 -0.00000147
-0.67477250 -0.58768475 -0.00000032
-0.06785038 -0.38740149 0.00000103
-0.54065293 -0.21952999 0.00000044
-0.15026838 0.19506441 -0.00000402
-0.64130569 0.14960748 -0.00000080
-0.00436740 0.59659016 0.00000005
-0.25114143 -0.20174158 0.00000150
-0.02498502 -0.39753959 0.00000101
-0.71356159 -0.40621412 -0.00000084
-0.34307012 -0.39900276 0.00000100
-0.36633563 -0.13440485 0.00000166
-0.16926536 -0.73030210 0.00000017
-0.55032498 0.23710066 -0.00000011
-0.31575271 0.03569833 -0.00000271
-0.23302746 0.13548592 -0.00000296
-0.27035591 0.14900684 0.00000237
-0.01014491 -0.12982367 0.00000177
-0.10826997 0.55906355 0.00000333
-0.46638748 -0.16069721 0.00000101
-0.48846933 -0.60073704 0.00000050
-0.25712511 -0.47244173 0.00000082
-0.62948596 -0.72271216 0.00000019
-0.65958595 -0.46590424 -0.00000032
-0.10251680 0.00914010 -0.00000903
-0.19257329 0.47331855 0.00000269
-0.00263390 -0.20263553 0.00000152
-0.41464001 0.15113299 0.00000113
-0.72282064 -0.36132580 -0.00000097
-0.48983833 -0.16329883 0.00000082
-0.01046235 -0.78814930 0.00000012
-0.32061386 -0.78041089 0.00000005
-0.12129250 -0.42862317 0.00000093
-0.33688569 -0.54587251 0.00000064
-0.11424949 0.60121197 0.00000323
-0.77115107 -0.60079372 -0.00000050
-0.29151276 -0.37107366 0.00000107
-0.30732283 0.37951374 0.00000181
-0.15397608 -0.38207209 0.00000104
-0.02218618 0.64251500 0.00000145
-0.38766012 0.30508497 0.00000120
-0.23717283 0.33805028 0.00000245
-0.68273348 -0.03104258 -0.00000097
-0.36938053 -0.11765155 0.00000171
-0.36497855 0.05150267 0.00000166
-0.34680045 -0.11690514 0.00000171
-0.57582355 -0.29377529 0.00000022
-0.10122945 0.60841507 0.00000333
-0.41632530 0.12064655 0.00000115
-0.52321541 0.13211629 0.00000023
-0.22983886 0.28845811 0.00000257
-0.17388454 -0.17892696 0.00000155
-0.09159513 0.29148424 -0.00000368
-0.31678224 -0.18263143 0.00000154
-0.55126619 -0.61940193 0.00000045
-0.60628295 -0.24872924 -0.00000009
-0.60603303 -0.13024276 -0.00000021
-0.13153987 -0.37634301 0.00000106
-0.00022250 -0.13610128 0.00000166
-0.56647480 -0.28075609 0.00000028
-0.02940651 -0.10008427 0.00000175
-0.05929010 -0.45216537 0.00000087
-0.38475063 0.17334446 0.00000136
-0.57819843 -0.13553874 0.00000003
-0.08936908 0.39975759 -0.00000158
-0.59331840 -0.55756873 0.00000034
-0.03104556 0.05348573 -0.00001009
-0.58838767 -0.72177553 0.00000020
-0.55799264 -0.28584903 0.00000036
-0.21418875 0.36966828 0.00000262
-0.19531478 -0.23632529 0.00000141
-0.36987525 0.26778439 0.00000139
-0.30858132 -0.02734581 0.00000193
-0.72986484 -0.02346004 -0.00000138
-0.23113404 -0.44421050 0.00000089
-0.25605968 -0.74866593 0.00000013
-0.57769138 -0.21708867 0.00000012
-0.37339100 -0.38425326 0.00000104
-0.05315246 -0.33844969 0.00000115
-0.07457403 -0.72063488 0.00000020
-0.79932964 -0.73943269 -0.00000015
-0.29344139 -0.46538654 0.00000084
-0.37734103 0.20223032 0.00000140
-0.30571216 -0.06898333 0.00000183
-0.26394048 0.36333820 0.00000220
-0.34149227 -0.68962902 0.00000028
-0.58943224 -0.62291068 0.00000044
-0.47969428 -0.06233276 0.00000080
-0.27147242 -0.55391121 0.00000062
-0.27603647 -0.26662776 0.00000133
-0.23331006 -0.69235945 0.00000027
-0.78750592 -0.37961084 -0.00000105
-0.29421079 0.11108839 0.00000220
-0.26472712 0.32936451 0.00000223
-0.73815185 -0.72515464 -0.00000019
-0.18340699 0.17634106 -0.00000349
-0.20965409 0.48681933 0.00000253
-0.02478988 -0.65750200 0.00000036
-0.57306141 -0.36699873 0.00000032
-0.69301564 -0.49130782 -0.00000058
-0.58127677 -0.50383610 0.00000039
-0.71297294 -0.51731175 -0.00000071
-0.65478164 -0.24905875 -0.00000050
-0.23819079 0.53024131 0.00000225
-0.52479672 -0.42955309 0.00000079
-0.45441750 -0.00803748 0.00000096
-0.22017317 -0.62302297 0.00000044
-0.17691486 -0.56293821 0.00000059
-0.66075361 -0.21921895 -0.00000058
-0.63791037 -0.70424980 0.00000011
-0.43330941 -0.45754901 0.00000086
-0.19490147 0.35677180 0.00000280
-0.20188212 0.15392056 -0.00000344
-0.25404739 0.30154306 0.00000235
-0.76154149 -0.17867702 -0.00000149
-0.50792575 -0.41046131 0.00000092
-0.41521218 -0.56975394 0.00000058
-0.36642531 0.26016137 0.00000143
-0.63795155 -0.36289436 -0.00000024
-0.68269354 0.00915249 -0.00000101
-0.32790211 0.31329852 0.00000171
-0.56074005 -0.33435774 0.00000039
-0.13776895 -0.50341940 0.00000074
-0.31100026 -0.54856324 0.00000063
-0.27246472 0.48975188 0.00000200
-0.39513066 0.15704638 0.00000129
-0.05671452 -0.30344012 0.00000124
-0.51049924 -0.51555675 0.00000071
-0.23834954 -0.17113143 0.00000157
-0.35681880 -0.48353645 0.00000079
-0.78616822 -0.69252259 -0.00000027
-0.26179367 -0.78400958 0.00000004
-0.06682875 -0.14837351 0.00000163
-0.14633892 0.54964584 0.00000301
-0.68268102 0.06934568 -0.00000107
-0.02297727 0.48574600 -0.00000166
-0.00711866 -0.63530850 0.00000048
-0.14587598 -0.40411314 0.00000099
-0.36717513 -0.11159309 0.00000172
-0.17603585 0.58233017 0.00000272
-0.68305081 -0.25347817 -0.00000074
-0.23021404 -0.63833559 0.00000040
-0.59076822 -0.19810709 -0.00000001
-0.04014212 0.02981809 -0.00001031
-0.05713925 0.68985176 0.00000363
-0.55864608 -0.36599508 0.00000044
-0.13601466 0.65518761 0.00000299
-0.64078581 -0.61695582 -0.00000000
-0.18655552 -0.07728682 0.00000181
-0.08730205 -0.38769874 0.00000103
-0.19716376 -0.30221745 0.00000124
-0.63496912 -0.57534027 0.00000000
-0.18314365 -0.27648273 0.00000131
-0.00452325 -0.14117379 0.00000169
-0.16173100 -0.12090317 0.00000170
-0.14988753 -0.20047460 0.00000150
-0.14391156 -0.52041805 0.00000070
-0.77484018 -0.57821631 -0.00000055
-0.21190916 -0.43336400 0.00000092
-0.56843787 -0.08663110 0.00000007
-0.05141769 0.38610834 -0.00000288
-0.53452682 -0.05480201 0.00000032
-0.29208949 -0.22671436 0.00000143
-0.21653505 -0.02175432 0.00000195
-0.07656347 -0.72924674 0.00000018
-0.45311996 -0.54571855 0.00000064
-0.03012849 0.50250053 -0.00000113
-0.01888518 -0.50896358 0.00000073
-0.11664135 -0.42510709 0.00000094
-0.74972987 -0.67416614 -0.00000031
-0.22082318 0.22204486 -0.00000156
-0.48967144 0.00388173 0.00000064
-0.00110467 -0.03845512 0.00000190
-0.40581995 -0.70200878 0.00000024
-0.15062860 0.63397223 0.00000289
-0.32010263 -0.35622820 0.00000111
-0.58646715 -0.26791102 0.00000010
-0.22456858 -0.07926631 0.00000180
-0.28796953 -0.06724353 0.00000183
-0.11902311 0.67822331 0.00000311
-0.11262403 -0.35780337 0.00000111
-0.65858746 -0.56501836 -0.00000021
-0.68704432 0.06057339 -0.00000110
-0.23788321 -0.37872490 0.00000105
-0.47397900 -0.74102223 0.00000015
-0.03025485 0.43933716 -0.00000239
-0.01878391 0.17971587 -0.00000790
-0.77392566 -0.15160324 -0.00000162
-0.59883511 -0.43277282 0.00000017
-0.66221005 -0.75423545 -0.00000004
-0.40630510 -0.05598036 0.00000142
-0.55763537 -0.60240388 0.00000049
-0.13540977 -0.24492665 0.00000139
-0.54931027 0.13609888 -0.00000000
-0.10823878 0.64094651 0.00000324
-0.40232974 0.19603215 0.00000119
-0.68455851 -0.46507922 -0.00000053
-0.36920324 0.28132766 0.00000139
-0.62535757 -0.36983970 -0.00000013
-0.03857104 0.43140286 -0.00000232
-0.79802239 -0.07457690 -0.00000181
-0.46354583 0.08101209 0.00000079
-0.09195477 0.64936298 0.00000337
-0.71179271 -0.48027685 -0.00000075
-0.46651706 -0.79201418 0.00000002
-0.18601201 -0.75544327 0.00000011
-0.75818259 -0.04788371 -0.00000159
-0.60301125 -0.55858570 0.00000026
-0.08554618 0.67146629 0.00000340
-0.63281041 -0.53137803 -0.00000002
-0.67597127 0.03657736 -0.00000098
-0.02291305 0.65858018 0.00000179
-0.63840234 0.15738043 -0.00000074
-0.77587533 -0.31375352 -0.00000122
-0.52724326 -0.12921149 0.00000046
-0.11286473 -0.10551870 0.00000174
-0.12384466 0.27192751 -0.00000320
-0.44782335 -0.25860611 0.00000127
-0.39652625 0.04672113 0.00000140
-0.02643369 0.34951049 -0.00000429
-0.27706432 0.51889312 0.00000197
-0.06121738 0.16242480 -0.00000709
-0.22180420 0.51441985 0.00000240
-0.08328910 0.45532197 -0.00000063
-0.29378697 -0.69749355 0.00000026
-0.07165524 -0.23091920 0.00000142
-0.39361089 0.09496627 0.00000137
-0.23588163 -0.16486828 0.00000159
-0.18359415 0.10736804 -0.00000487
-0.56201237 -0.69184768 0.00000027
-0.31279951 -0.34965506 0.00000113
-0.59384030 -0.36446133 0.00000014
-0.66575921 -0.07068953 -0.00000078
-0.08215800 -0.48632398 0.00000078
-0.04596926 -0.12889002 0.00000168
-0.01004633 0.40032873 -0.00000372
-0.78793454 -0.58999693 -0.00000053
-0.58321279 -0.63043487 0.00000042
-0.10634539 0.45115593 -0.00000009
-0.53586382 -0.75511736 0.00000011
-0.05451323 -0.10105814 0.00000175
-0.15577555 0.63545901 0.00000293
-0.23222862 -0.13739799 0.00000166
-0.56531078 -0.69305986 0.00000027
-0.13607597 -0.45630515 0.00000086
-0.54349977 -0.15221070 0.00000035
-0.25559387 -0.14858007 0.00000163
-0.20497276 0.16840689 -0.00000306
-0.05343351 -0.16161238 0.00000160
-0.54639453 -0.16220126 0.00000033
-0.50397593 -0.08710732 0.00000062
-0.37912986 -0.59958225 0.00000050
-0.42064285 0.05033731 0.00000119
-0.00187916 0.64692169 0.00000099
-0.61527032 -0.04122803 -0.00000038
-0.32409114 -0.54325598 0.00000064
-0.52443498 -0.43581468 0.00000080
-0.49949086 -0.59276050 0.00000052
-0.14207941 0.22041090 -0.00000373
-0.32637301 -0.30438644 0.00000124
-0.72410798 -0.32414719 -0.00000102
-0.60610098 -0.66443312 0.00000034
-0.58967561 -0.26955876 0.00000007
-0.31325111 0.34477869 0.00000180
-0.28994921 0.37791917 0.00000196
-0.35680440 0.30986023 0.00000146
-0.59979784 -0.63908362 0.00000037
-0.33782628 -0.20002677 0.00000150
-0.09733297 -0.75580353 0.00000011
-0.30229455 -0.76557207 0.00000009
-0.49143565 0.30668324 0.00000034
-0.45201123 -0.05985086 0.00000103
-0.30343607 0.31157741 0.00000192
-0.29616147 -0.50714260 0.00000073
-0.35140401 0.36263639 0.00000145
-0.40738595 -0.59503752 0.00000051
-0.18410397 -0.04592818 0.00000189
-0.10391352 0.46962246 0.00000021
-0.61405754 -0.09281347 -0.00000032
-0.40469855 -0.68467653 0.00000029
-0.05334237 -0.59516674 0.00000051
-0.27792826 0.35611665 0.00000209
-0.24628405 0.47225511 0.00000224
-0.20028898 -0.76880878 0.00000008
-0.02971231 -0.41827175 0.00000095
-0.03735671 0.41150662 -0.00000276
-0.24082237 -0.65898442 0.00000035
-0.73127460 -0.57808012 -0.00000055
-0.20373127 -0.50239742 0.00000074
-0.54112023 -0.30866590 0.00000053
-0.68040723 -0.76251847 -0.00000009
-0.24347894 0.15524790 -0.00000228
-0.04666737 0.41862074 -0.00000236
-0.09962334 0.28437918 -0.00000361
-0.59687996 -0.17321163 -0.00000009
-0.37598807 -0.05497103 0.00000168
-0.33095080 0.41742542 0.00000157
-0.62679678 -0.35848966 -0.00000015
-0.54979640 -0.68079740 0.00000030
-0.03758002 0.64183378 0.00000186
-0.12296158 -0.03706600 0.00000191
-0.13688479 0.44385508 0.00000059
-0.56462169 -0.65111488 0.00000037
-0.67182600 -0.11269960 -0.00000079
-0.32215172 -0.48653144 0.00000078
-0.79998773 -0.21624656 -0.00000146
-0.70620847 -0.25247011 -0.00000094
-0.25041351 -0.42723206 0.00000093
-0.67623985 -0.62124747 -0.00000030
-0.65022272 -0.39574596 -0.00000031
-0.02071188 0.45734158 -0.00000229
-0.57930321 -0.73390722 0.00000017
-0.02284398 -0.34928685 0.00000113
-0.32586479 -0.57629091 0.00000056
-0.53697813 -0.14614908 0.00000040
-0.19944017 -0.63588995 0.00000041
-0.55942255 0.06394766 -0.00000001
-0.20006368 -0.65256584 0.00000037
-0.45701596 -0.61051297 0.00000047
-0.06273421 -0.15581335 0.00000161
-0.49860671 0.17631273 0.00000039
-0.62396073 -0.29530251 -0.00000019
-0.28421754 -0.11587916 0.00000171
-0.19049099 0.22963396 -0.00000223
-0.64781231 -0.79400605 0.00000001
-0.39016762 0.13117678 0.00000136
-0.71928573 -0.24571598 -0.00000106
-0.14568117 -0.61405349 0.00000046
-0.06649136 0.46455628 -0.00000090
-0.31398147 -0.73604149 0.00000016
-0.32329738 -0.51348585 0.00000072
-0.74258804 -0.24172291 -0.00000126
-0.10635889 -0.60757887 0.00000048
-0.43882218 -0.25582850 0.00000135
-0.21175943 0.25639483 -0.00000112
-0.79919815 -0.40919924 -0.00000098
-0.04589623 0.52273470 -0.00000030
-0.51169950 0.18236940 0.00000027
-0.79335445 -0.20842515 -0.00000148
-0.55426884 0.04966426 0.00000005
-0.18783720 -0.10368616 0.00000174
-0.57186598 -0.44485143 0.00000041
-0.57747221 -0.64789146 0.00000038
-0.14407548 0.29956552 -0.00000210
-0.08113274 0.36532357 -0.00000249
-0.09266986 0.19678918 -0.00000555
-0.01615673 -0.47603053 0.00000081
-0.13371091 0.24326456 -0.00000350
-0.21427464 -0.66392803 0.00000034
-0.75382060 0.04116760 -0.00000160
-0.09125284 -0.27196252 0.00000132
-0.45891789 0.16848244 0.00000074
-0.09451445 0.43951198 -0.00000064
-0.70188266 0.03775776 -0.00000120
-0.18463863 -0.76474845 0.00000009
