ply
format ascii 1.0
element vertex 1384
property float x
property float y
property float z
end_header
0.17605916 0.54902571 -0.00000031
0.10024424 -0.46330640 0.00000000
0.48469928 -0.04788708 -0.00000057
0.33808261 0.15779136 -0.00000031
0.20262823 -0.38271537 0.00000000
-0.64477134 -0.20334470 -0.00000049
0.74360758 -0.16668870 -0.00000146
-0.18594034 -0.65752500 0.00000000
0.22129114 -0.32932484 0.00000000
0.56487203 0.16525488 -0.00000129
-0.40458670 -0.57362634 0.00000000
-0.08519786 -0.17392339 0.00000000
0.57590967 -0.42667031 -0.00000029
0.22343957 0.53972816 -0.00000049
0.15445498 0.62838006 -0.00000036
0.74777961 -0.06008141 -0.00000167
0.04417415 0.63963330 0.00000000
-0.17943060 0.00424616 0.00000000
-0.62512589 0.10782068 -0.00000072
-0.48859677 0.15329160 -0.00000047
0.16629940 0.53028679 -0.00000023
0.29974189 0.49938664 -0.00000073
0.38612977 -0.43808728 0.00000000
0.07570772 0.61109114 0.00000000
0.14306796 0.39620897 0.00000000
0.66627979 -0.02313389 -0.00000139
0.74373817 -0.22333170 -0.00000137
-0.18727618 0.27322412 0.00000000
-0.09434275 -0.17662022 0.00000000
-0.23771694 -0.50916106 0.00000000
0.03411549 -0.76014143 0.00000000
-0.26122132 0.28158444 -0.00000010
-0.31625277 -0.34523499 0.00000000
0.01186147 0.40970337 0.00000000
-0.32640508 -0.07332134 0.00000000
0.09782083 -0.19661713 0.00000000
0.11883349 -0.30427831 0.00000000
0.76738316 -0.01174213 -0.00000184
-0.44541755 0.11780229 -0.00000035
-0.15607764 -0.63639188 0.00000000
-0.14960518 0.54732424 -0.00000010
0.29766116 -0.27421653 0.00000000
0.55070472 -0.29189238 -0.00000042
-0.25617185 -0.58703083 0.00000000
-0.00315559 -0.28075248 0.00000000
0.70051831 -0.25286433 -0.00000113
-0.18942118 -0.56084949 0.00000000
-0.23594142 0.08530632 0.00000000
-0.18459933 -0.24667168 0.00000000
0.19693622 0.21058144 0.00000000
0.66060239 -0.58995628 -0.00000036
0.45776376 -0.08342411 -0.00000039
0.63746434 -0.18189818 -0.00000098
-0.55085731 -0.77524900 0.00000000
-0.67307097 -0.47950259 -0.00000031
-0.13380927 0.06699090 0.00000000
0.07292863 0.57640690 0.00000000
0.41577339 -0.09958425 -0.00000018
0.31335473 0.36476842 -0.00000057
0.78345853 -0.39047316 -0.00000102
-0.43469977 -0.34221849 0.00000000
-0.45361212 -0.30273673 0.00000000
0.60238081 0.14761038 -0.00000142
0.19814713 0.01503279 0.00000000
-0.30724201 0.09943925 -0.00000004
0.04880063 -0.03514020 0.00000000
0.18943334 0.43997902 -0.00000017
0.13768156 -0.36341780 0.00000000
-0.72242069 0.07121306 -0.00000090
0.30747178 0.37827063 -0.00000057
-0.74999428 -0.09283690 -0.00000081
-0.50051653 -0.17715818 -0.00000020
-0.47562975 0.19239894 -0.00000048
0.05380532 0.69526529 -0.00000004
-0.07199737 0.69301939 -0.00000006
0.20795187 -0.54728013 0.00000000
0.04070435 -0.72814095 0.00000000
0.56635237 -0.03687921 -0.00000094
-0.26799631 -0.75851256 0.00000000
0.39848045 -0.46582666 0.00000000
-0.42450002 -0.48184085 0.00000000
0.57259178 -0.52381057 -0.00000010
0.16519463 -0.42650294 0.00000000
-0.01378961 -0.14916176 0.00000000
-0.00225357 -0.59912878 0.00000000
-0.66771466 -0.62533575 -0.00000016
0.04146979 -0.33555898 0.00000000
-0.21293987 0.29282159 -0.00000001
0.17214756 -0.73346418 0.00000000
0.25680956 -0.72233093 0.00000000
0.24615926 0.21710508 -0.00000002
-0.21033375 -0.73510015 0.00000000
-0.29187053 -0.32230929 0.00000000
-0.77593881 -0.39623761 -0.00000050
0.07434407 0.53147799 0.00000000
0.75915694 -0.70679957 -0.00000023
-0.55627513 -0.74330568 0.00000000
-0.24932565 -0.20968212 0.00000000
-0.43265462 -0.22362949 -0.00000002
0.63308352 -0.46225399 -0.00000047
0.05825570 0.03610830 0.00000000
0.28018379 -0.48000699 0.00000000
0.62381935 -0.41461292 -0.00000052
-0.00574452 0.72392797 0.00000000
-0.52371287 -0.11763444 -0.00000031
0.13449065 -0.19571565 0.00000000
-0.45236188 -0.14302622 -0.00000013
-0.70303726 0.03186677 -0.00000082
-0.51209301 -0.17870423 -0.00000023
-0.29812241 -0.53363311 0.00000000
-0.49326733 -0.23862503 -0.00000013
-0.24060240 0.52534711 -0.00000027
0.34975135 -0.65140778 0.00000000
0.78139037 -0.43167028 -0.00000092
0.62673450 0.15292157 -0.00000153
-0.51187587 0.08543232 -0.00000046
0.15548795 0.11175856 0.00000000
0.61147803 -0.19122876 -0.00000086
0.30730557 0.33817151 -0.00000050
0.44862431 -0.63672638 0.00000000
0.15874965 0.47563076 -0.00000010
-0.45752382 0.33046302 -0.00000056
0.61868531 -0.06543556 -0.00000111
-0.76240921 -0.39014617 -0.00000051
-0.05390049 0.38029858 0.00000000
0.53378743 -0.17948230 -0.00000055
0.58356619 -0.73563117 0.00000000
-0.24314287 -0.35049474 0.00000000
0.67990863 0.04063233 -0.00000156
0.13484465 -0.48247790 0.00000000
-0.35637543 0.35679549 -0.00000037
-0.70458519 -0.30003488 -0.00000053
-0.32364577 0.30153894 -0.00000025
-0.68095517 -0.49013540 -0.00000031
-0.14005964 -0.22514980 0.00000000
-0.45874891 -0.70620453 0.00000000
0.09114893 -0.47221288 0.00000000
-0.43273619 -0.14359467 -0.00000009
0.11338885 0.08531598 0.00000000
-0.20866954 0.34888151 -0.00000005
-0.75485438 -0.11023724 -0.00000081
0.41316676 -0.29391298 0.00000000
0.07523853 -0.02105660 0.00000000
-0.58501196 -0.37749329 -0.00000021
0.06778645 -0.76446235 0.00000000
-0.68810129 -0.14816225 -0.00000063
0.10093990 0.20519923 0.00000000
0.61100757 -0.19189093 -0.00000085
-0.50626314 0.05439591 -0.00000042
0.69252938 -0.14827970 -0.00000128
0.57841945 0.18068869 -0.00000137
-0.65929103 -0.05443098 -0.00000065
-0.28408667 -0.29723835 0.00000000
-0.37134427 -0.76848227 0.00000000
0.06918513 -0.62984097 0.00000000
0.38714647 0.31783125 -0.00000080
-0.20507005 0.25671920 0.00000000
-0.03923788 -0.41249859 0.00000000
-0.46551219 -0.59308994 0.00000000
0.44879085 -0.12773813 -0.00000028
0.31682184 -0.29929194 0.00000000
-0.72052836 -0.71679783 -0.00000010
0.00644410 -0.34025463 0.00000000
-0.16316916 0.33321148 0.00000000
-0.76104581 -0.46627778 -0.00000042
0.49925753 -0.44580355 0.00000000
-0.38863930 -0.47830555 0.00000000
0.17538786 -0.44299120 0.00000000
-0.26275867 0.27646026 -0.00000010
-0.21216369 -0.27934811 0.00000000
-0.52888608 0.13162541 -0.00000054
0.67938799 -0.25349322 -0.00000104
-0.31954890 -0.29802889 0.00000000
0.59182078 -0.76273280 0.00000000
-0.43604755 -0.42904332 0.00000000
0.63485622 -0.20217490 -0.00000094
0.50494647 0.23271884 -0.00000115
-0.58561862 -0.02091593 -0.00000052
-0.55407369 -0.76433367 0.00000000
-0.07247810 0.28747427 0.00000000
0.65520841 -0.37216654 -0.00000072
0.21616608 0.14161305 0.00000000
0.68639857 0.02477364 -0.00000156
0.20214139 -0.08658942 0.00000000
0.06059357 -0.61416262 0.00000000
0.67744595 -0.60439217 -0.00000041
-0.23315971 0.02477315 0.00000000
-0.36701721 0.03947736 -0.00000011
-0.56203979 -0.16644964 -0.00000035
-0.16094585 -0.05781612 0.00000000
0.13225988 0.31156564 0.00000000
0.51345712 0.02160109 -0.00000082
0.26635540 0.48611334 -0.00000058
-0.45805731 0.23808232 -0.00000048
0.66811943 -0.13996002 -0.00000119
0.19139662 0.58250511 -0.00000043
0.17219324 -0.53949577 0.00000000
-0.47126961 -0.31328815 -0.00000002
-0.02799599 -0.01575545 0.00000000
0.14973341 0.09049786 0.00000000
-0.05669286 0.36786795 0.00000000
-0.22869396 0.16896847 0.00000000
0.64734477 0.14203747 -0.00000160
-0.47634372 -0.77272922 0.00000000
-0.76051939 -0.30035475 -0.00000062
-0.10565949 0.39834338 0.00000000
0.64607519 0.01017467 -0.00000136
-0.08563487 -0.01643019 0.00000000
-0.12024060 -0.45408416 0.00000000
-0.34561852 0.15323530 -0.00000017
0.49013227 -0.63844973 0.00000000
-0.71788168 -0.28453186 -0.00000057
0.74072903 -0.50405538 -0.00000074
0.70229125 -0.70113426 -0.00000025
-0.65850705 0.11006018 -0.00000080
-0.36961022 -0.13455375 0.00000000
-0.01654362 0.05420561 0.00000000
-0.66765070 -0.20002291 -0.00000054
0.59707528 0.05085200 -0.00000122
0.57809776 0.03789544 -0.00000112
0.11930899 -0.32841653 0.00000000
0.55854833 -0.17561771 -0.00000066
-0.72540265 -0.05804080 -0.00000079
0.00331622 -0.50430781 0.00000000
0.00561292 0.12385566 0.00000000
0.14718552 -0.25923559 0.00000000
-0.16038182 0.35402277 0.00000000
-0.73762774 -0.44996527 -0.00000044
-0.78328055 -0.30239064 -0.00000062
0.28253523 -0.54497695 0.00000000
-0.32756761 0.17002629 -0.00000014
-0.19527853 0.42926654 -0.00000009
0.05477153 -0.21987741 0.00000000
-0.36357787 -0.47634444 0.00000000
0.26374635 0.08377540 0.00000000
0.03597133 0.12154529 0.00000000
-0.45253205 -0.45534989 0.00000000
0.62937725 -0.73673844 0.00000000
0.46925151 0.31709811 -0.00000115
0.09634185 0.52163696 0.00000000
-0.55966264 -0.72989690 0.00000000
-0.39578098 0.36224535 -0.00000046
0.18432750 0.60261339 -0.00000044
-0.53947276 -0.46789673 -0.00000003
-0.11172493 0.20650314 0.00000000
0.33326122 -0.15134031 0.00000000
0.56807995 -0.47707605 -0.00000017
0.16469280 0.32192856 0.00000000
-0.50052583 0.07791732 -0.00000043
-0.00573133 -0.28547433 0.00000000
-0.01380209 -0.63150460 0.00000000
0.33162749 -0.61047572 0.00000000
-0.38640627 -0.78286773 0.00000000
0.73801398 -0.44390833 -0.00000089
-0.05662364 -0.44511274 0.00000000
0.20683877 -0.24368159 0.00000000
0.67904341 -0.45516318 -0.00000068
0.66900826 0.01010475 -0.00000146
-0.36354178 0.37429529 -0.00000040
0.40127906 -0.28020906 0.00000000
0.09629484 -0.16532093 0.00000000
-0.00336925 0.77676564 0.00000000
-0.48795092 -0.18082458 -0.00000017
-0.37459379 0.29961264 -0.00000036
0.62676972 -0.26395592 -0.00000079
0.74677759 -0.36857352 -0.00000108
0.10094585 0.44480529 0.00000000
0.44477734 -0.33563265 0.00000000
-0.21513803 0.24452195 0.00000000
0.05403434 0.39208722 0.00000000
0.26242778 -0.20646928 0.00000000
0.06623778 -0.77172387 0.00000000
0.04702994 -0.77206284 0.00000000
-0.16758803 -0.68501961 0.00000000
0.05433107 -0.26861286 0.00000000
-0.65762216 -0.38840729 -0.00000035
-0.68876171 -0.14408167 -0.00000064
0.79441178 -0.29372939 -0.00000127
-0.65824658 -0.01658252 -0.00000068
-0.28037685 -0.72863364 0.00000000
0.49052444 -0.79558802 0.00000000
0.41199702 -0.52158803 0.00000000
0.39472330 -0.28745374 0.00000000
-0.52780801 -0.70131528 0.00000000
0.52752185 -0.55776936 0.00000000
-0.01068049 -0.39906794 0.00000000
0.08785837 -0.39327326 0.00000000
0.40728638 0.05002881 -0.00000041
0.59538394 -0.33621362 -0.00000053
-0.06201762 0.18376815 0.00000000
-0.36249980 0.43549436 -0.00000045
0.46690375 -0.21335007 -0.00000020
-0.23550873 -0.16931352 0.00000000
0.07994252 0.19701228 0.00000000
0.30763477 -0.52853042 0.00000000
0.54087901 -0.40003151 -0.00000019
-0.21537378 0.07308772 0.00000000
-0.18297718 -0.18353721 0.00000000
-0.09336399 -0.24163279 0.00000000
0.39219150 -0.18335626 0.00000000
-0.08483975 0.02287042 0.00000000
0.11012863 0.42729807 0.00000000
0.03338914 0.44321200 0.00000000
0.68380535 -0.15137649 -0.00000124
-0.29066384 -0.72217363 0.00000000
-0.09542266 -0.75897217 0.00000000
0.15595244 -0.17181057 0.00000000
0.03357841 -0.28984135 0.00000000
-0.18870263 0.32044175 0.00000000
0.16551194 0.47639945 -0.00000013
0.22707288 0.01407684 0.00000000
-0.05917319 0.13968185 0.00000000
-0.29728565 -0.36352149 0.00000000
0.52399999 -0.18940482 -0.00000049
0.71232688 -0.00802275 -0.00000161
0.62693888 0.17201596 -0.00000157
-0.44241065 -0.05220576 -0.00000019
-0.12890249 0.22531897 0.00000000
0.54480815 -0.08293922 -0.00000076
0.25425902 -0.48262483 0.00000000
-0.11610702 -0.66950738 0.00000000
0.02865126 -0.08876247 0.00000000
0.11196913 0.04881107 0.00000000
0.30003083 0.01397031 0.00000000
-0.08642642 -0.05567155 0.00000000
-0.61630404 0.02499117 -0.00000063
-0.55619806 -0.16384940 -0.00000033
0.70096052 0.01178680 -0.00000160
-0.02458079 0.06109337 0.00000000
0.02973933 0.27872297 0.00000000
0.05931910 -0.03606009 0.00000000
-0.38328049 -0.00612807 -0.00000011
0.31089669 -0.25986415 0.00000000
-0.05585227 -0.60374945 0.00000000
-0.10125514 -0.17992252 0.00000000
0.35405573 -0.63768113 0.00000000
-0.14750929 0.13532676 0.00000000
-0.57380426 0.12524448 -0.00000063
-0.02342138 -0.38234323 0.00000000
-0.20364010 0.53354275 -0.00000020
0.04096326 -0.11445464 0.00000000
-0.60599458 -0.73234290 0.00000000
0.37722328 -0.26005858 0.00000000
-0.15591942 -0.49025497 0.00000000
0.52619642 -0.19469878 -0.00000049
0.60782200 -0.69164979 0.00000000
0.13068520 -0.20353626 0.00000000
0.35732555 -0.57017088 0.00000000
-0.41101548 -0.58985466 0.00000000
-0.20157608 0.07324399 0.00000000
-0.66193789 -0.03417484 -0.00000068
0.03816878 -0.26786655 0.00000000
0.17881995 -0.09443940 0.00000000
-0.40161479 -0.45515716 0.00000000
-0.28173009 -0.48045760 0.00000000
0.06724459 -0.51875347 0.00000000
0.04846882 0.12821625 0.00000000
0.48622128 0.01739508 -0.00000069
-0.01692394 0.19441618 0.00000000
0.06255944 -0.38108265 0.00000000
0.12863977 -0.72880673 0.00000000
0.70103145 -0.62483495 -0.00000044
-0.10579152 0.65375096 -0.00000010
-0.01861247 -0.10256011 0.00000000
-0.30049351 -0.57098019 0.00000000
-0.37989804 0.16464689 -0.00000025
-0.01297636 0.54517680 0.00000000
0.57031941 0.15553141 -0.00000129
-0.54650635 0.24986415 -0.00000068
0.13678485 -0.51734596 0.00000000
-0.78843337 -0.09728827 -0.00000088
0.01136948 0.24123262 0.00000000
0.39045024 -0.00807774 -0.00000024
0.39454848 -0.46580672 0.00000000
0.17018086 -0.75304043 0.00000000
0.70985329 -0.64667898 -0.00000038
0.34380180 -0.05017863 0.00000000
-0.25597587 0.29333547 -0.00000010
0.55025560 -0.05652999 -0.00000083
-0.44397601 0.18320011 -0.00000040
0.28444421 0.27228734 -0.00000028
0.38185856 -0.79196960 0.00000000
0.17093521 0.44351652 -0.00000010
0.65933102 -0.22060035 -0.00000101
0.05063839 0.23954216 0.00000000
0.62898594 -0.09004432 -0.00000111
0.61369896 0.14829786 -0.00000147
-0.31828934 0.26020989 -0.00000020
0.01697750 0.21719547 0.00000000
0.39712739 -0.02937059 -0.00000023
0.11783048 -0.07009921 0.00000000
0.51752776 -0.51634252 0.00000000
-0.00617117 -0.62162644 0.00000000
0.28427860 -0.36271879 0.00000000
-0.37382224 0.41658476 -0.00000046
-0.33415064 -0.75198603 0.00000000
-0.16014290 -0.52054137 0.00000000
0.61783689 -0.46173710 -0.00000041
-0.67082548 -0.41397366 -0.00000036
0.78333777 -0.29805991 -0.00000125
-0.61317426 -0.18515638 -0.00000044
0.53887063 0.22165586 -0.00000128
-0.48760560 0.04583239 -0.00000037
-0.08875160 0.46800843 0.00000000
-0.41421348 -0.67647898 0.00000000
0.09050299 0.50394791 0.00000000
-0.50787932 -0.02374307 -0.00000036
-0.47634080 0.28947714 -0.00000057
-0.47970504 -0.66927803 0.00000000
0.11105928 0.21886621 0.00000000
0.77875394 -0.47666243 -0.00000081
-0.78768700 -0.21718629 -0.00000073
-0.25557050 0.17195284 0.00000000
-0.29096058 -0.41051871 0.00000000
0.38408187 -0.42990109 0.00000000
-0.54183686 -0.27373999 -0.00000021
-0.35551539 -0.17588575 0.00000000
-0.29349741 -0.69955832 0.00000000
0.63415939 0.16026847 -0.00000149
0.10083918 -0.41803244 0.00000000
0.13666677 -0.33001775 0.00000000
-0.09991688 0.00109501 0.00000000
-0.13039345 0.43574724 0.00000000
0.45077810 -0.48881069 0.00000000
0.41176966 0.33912885 -0.00000094
-0.20886135 -0.00056739 0.00000000
0.77308333 -0.74255002 -0.00000014
-0.11909257 0.37641957 0.00000000
0.36195588 0.26775566 -0.00000060
-0.64303041 -0.20342505 -0.00000049
-0.32566673 -0.58557141 0.00000000
0.37192884 -0.00039251 -0.00000017
0.49104485 0.04836253 -0.00000077
0.24269478 -0.55341965 0.00000000
0.31687489 0.03599513 -0.00000000
0.22434145 0.25975722 -0.00000000
-0.38277864 -0.33850950 0.00000000
0.34916896 0.21520025 -0.00000046
0.57212067 -0.78001291 0.00000000
-0.02740815 -0.62416291 0.00000000
0.68159103 0.06459210 -0.00000161
-0.78475410 -0.79262745 -0.00000001
-0.18346971 0.22986278 0.00000000
-0.28594777 -0.46065912 0.00000000
-0.07241323 0.31222278 0.00000000
0.06431912 -0.59781247 0.00000000
-0.75576431 -0.73243815 -0.00000008
-0.41685131 -0.19515397 -0.00000001
0.36717913 -0.54437035 0.00000000
0.31140515 0.03801083 0.00000000
-0.70252138 -0.27353159 -0.00000055
-0.22468878 -0.10832611 0.00000000
-0.44612491 0.11762310 -0.00000035
0.48909992 -0.38865247 0.00000000
0.02981960 0.71074659 0.00000000
0.68141025 -0.30632573 -0.00000095
0.63364804 -0.64739543 -0.00000015
0.26302332 0.25114837 -0.00000015
0.32362849 -0.12274479 0.00000000
-0.34991577 0.30184734 -0.00000031
-0.02450177 -0.26613635 0.00000000
-0.43483773 -0.25925863 0.00000000
-0.31778762 0.24990577 -0.00000019
-0.04504062 0.34031209 0.00000000
0.47887364 -0.37525904 0.00000000
-0.79292393 -0.69592613 -0.00000013
-0.15596244 -0.29153627 0.00000000
-0.39475229 -0.20891508 0.00000000
0.74404699 -0.46206468 -0.00000084
0.36849198 -0.07039431 -0.00000003
-0.49913475 0.01078972 -0.00000037
0.02731902 -0.43560603 0.00000000
0.32880068 -0.07767273 0.00000000
0.70261228 -0.48144132 -0.00000073
0.64925736 -0.78796369 0.00000000
0.64354897 -0.62599331 -0.00000023
0.27196708 -0.51217210 0.00000000
0.22340509 -0.72822505 0.00000000
-0.05114135 -0.48239475 0.00000000
-0.00866890 0.20412244 0.00000000
-0.79499841 -0.76608104 -0.00000004
-0.04169192 -0.15183812 0.00000000
0.13753156 0.04034558 0.00000000
-0.10707858 0.54877621 -0.00000001
0.76952398 -0.06146333 -0.00000176
-0.08778867 0.48871425 0.00000000
0.42271844 0.00160847 -0.00000039
0.65766555 0.04095434 -0.00000146
0.02425739 -0.37322977 0.00000000
-0.43990451 -0.56466746 0.00000000
0.06649182 0.70323604 -0.00000011
0.52676773 -0.33090243 -0.00000025
-0.09275000 0.48039716 0.00000000
-0.70203680 -0.58566141 -0.00000027
0.02749425 0.56537378 0.00000000
-0.26242635 -0.41961691 0.00000000
-0.05908909 0.05489918 0.00000000
0.09254520 0.03717920 0.00000000
0.59053767 0.03960573 -0.00000118
-0.38290331 -0.36167544 0.00000000
0.52389699 -0.43485463 -0.00000005
-0.11214338 0.42864761 0.00000000
-0.51239097 -0.37501472 -0.00000005
0.15156472 -0.63170147 0.00000000
-0.37676701 0.16363841 -0.00000024
-0.45734993 -0.26589969 -0.00000003
-0.47904915 -0.74089783 0.00000000
0.13501649 0.16750294 0.00000000
-0.12308161 -0.57129759 0.00000000
-0.22370327 0.53446800 -0.00000024
0.57374913 -0.28901657 -0.00000052
-0.35409313 -0.62838495 0.00000000
-0.20565587 0.23058863 0.00000000
-0.76931989 -0.04884079 -0.00000089
-0.57890207 -0.72550237 0.00000000
-0.57954049 -0.33439571 -0.00000023
0.68129605 -0.68172783 -0.00000029
0.58892173 -0.16730992 -0.00000080
0.17059769 -0.08587215 0.00000000
-0.74220985 -0.11522939 -0.00000077
-0.49918264 -0.61182034 0.00000000
0.45559269 -0.01671976 -0.00000050
-0.33643776 -0.79998517 0.00000000
-0.01840019 0.37788892 0.00000000
-0.32057843 -0.38450760 0.00000000
-0.74139678 -0.51898313 -0.00000035
0.52504957 -0.19680612 -0.00000048
-0.33287719 -0.23307936 0.00000000
-0.34095415 -0.78368431 0.00000000
-0.22027035 -0.17366639 0.00000000
-0.30349222 -0.14375579 0.00000000
-0.56062442 -0.27752173 -0.00000024
-0.65945518 -0.62498558 -0.00000015
-0.05294295 0.15638459 0.00000000
-0.31413111 0.42464519 -0.00000034
0.30004856 -0.35833454 0.00000000
-0.65678155 -0.36078534 -0.00000038
-0.31733829 -0.30983460 0.00000000
0.65012693 -0.16908304 -0.00000106
-0.26884860 -0.07209355 0.00000000
0.15827563 0.02319160 0.00000000
-0.48998770 -0.15778404 -0.00000020
0.63196594 -0.71378040 -0.00000002
0.11175713 -0.36727154 0.00000000
0.11751323 0.55582535 -0.00000007
0.63635230 -0.57189405 -0.00000029
-0.41877422 0.23803028 -0.00000040
-0.07350206 -0.27560040 0.00000000
-0.41221371 0.05830140 -0.00000022
-0.46791589 0.19026037 -0.00000046
-0.06055178 0.21349768 0.00000000
0.30673406 0.23187414 -0.00000030
0.10752718 0.33862245 0.00000000
0.79074240 -0.43300831 -0.00000092
0.77830678 -0.41302425 -0.00000097
-0.41408169 -0.42282492 0.00000000
-0.69483960 -0.56924927 -0.00000027
0.20171347 -0.13269445 0.00000000
-0.41664732 0.11325014 -0.00000028
0.18655877 -0.41719505 0.00000000
0.08136168 0.17003381 0.00000000
-0.48740458 0.02947587 -0.00000036
-0.02856731 -0.33817849 0.00000000
0.28505889 -0.78366131 0.00000000
0.02745287 -0.64740914 0.00000000
0.45433679 -0.03914557 -0.00000046
0.06813538 -0.31154031 0.00000000
-0.53381550 0.18975973 -0.00000060
0.18466192 0.23834354 0.00000000
-0.31284976 -0.50733912 0.00000000
-0.28683895 -0.45555881 0.00000000
0.04225280 0.72600204 -0.00000005
-0.12615287 -0.22986095 0.00000000
0.33486220 0.41633210 -0.00000075
-0.14656386 0.47179478 -0.00000002
0.07330580 0.35347518 0.00000000
-0.12187368 -0.30754864 0.00000000
0.14720099 -0.18291968 0.00000000
0.68713897 -0.23110826 -0.00000111
-0.18133883 -0.63647455 0.00000000
-0.36472040 -0.38897750 0.00000000
0.06605546 0.48243636 0.00000000
0.22653715 -0.38497785 0.00000000
0.37338230 -0.02928244 -0.00000013
-0.69856632 -0.63315946 -0.00000021
-0.44697800 0.26171529 -0.00000048
-0.33053890 -0.76185030 0.00000000
0.68298054 -0.12397622 -0.00000128
-0.48716345 -0.46641836 0.00000000
0.53367788 -0.20285591 -0.00000050
0.31358632 0.04751293 -0.00000001
0.19139391 -0.26191646 0.00000000
-0.66040128 -0.04189583 -0.00000067
0.73805362 -0.29712671 -0.00000121
-0.54020870 -0.13179865 -0.00000033
-0.42560351 0.01387534 -0.00000021
-0.00572938 -0.57944947 0.00000000
0.41903242 -0.19220965 -0.00000003
0.27946833 0.49438807 -0.00000065
0.16349718 0.02379786 0.00000000
-0.49395165 -0.42244399 0.00000000
-0.23736307 0.51808888 -0.00000026
0.61570096 -0.14552690 -0.00000096
0.58118391 -0.29092321 -0.00000055
0.19846550 -0.70849246 0.00000000
-0.09481651 -0.04636244 0.00000000
-0.13727601 -0.77915972 0.00000000
0.18072987 -0.64156967 0.00000000
0.76868409 -0.29708332 -0.00000126
-0.10637691 0.54962206 -0.00000001
-0.43912637 0.19615161 -0.00000040
-0.16764863 0.32865900 0.00000000
0.46733618 -0.19869067 -0.00000023
0.32560563 -0.53147674 0.00000000
-0.01576014 -0.23565681 0.00000000
-0.26456514 -0.26886183 0.00000000
0.11212472 0.12454331 0.00000000
-0.43779546 -0.21825966 -0.00000003
-0.32829821 0.43863928 -0.00000038
0.08579470 -0.78726602 0.00000000
0.20201121 -0.75096422 0.00000000
0.59006923 -0.15162469 -0.00000084
0.39705497 0.12511703 -0.00000050
-0.50969571 0.28877443 -0.00000064
-0.68831575 -0.28839290 -0.00000051
0.77572298 -0.67560077 -0.00000031
0.26436433 -0.24843329 0.00000000
0.57702398 -0.32259145 -0.00000048
-0.40138602 0.35162497 -0.00000046
0.24239051 -0.40473813 0.00000000
0.46019778 0.21003766 -0.00000092
-0.17213006 0.42714825 -0.00000004
-0.33477062 -0.78762537 0.00000000
0.22881407 0.45449921 -0.00000037
0.63085973 -0.60582763 -0.00000021
-0.42411602 -0.33922288 0.00000000
0.79238445 -0.45703369 -0.00000086
0.25978127 -0.10412596 0.00000000
-0.68863583 0.10102817 -0.00000085
-0.40146643 0.04536699 -0.00000019
0.20113812 0.47636443 -0.00000029
-0.16602911 -0.26213592 0.00000000
0.14011993 -0.63269222 0.00000000
0.14922915 0.28964868 0.00000000
0.00837307 -0.45237970 0.00000000
-0.12820011 -0.76971066 0.00000000
-0.07282952 0.61653942 0.00000000
0.38077721 -0.10076832 -0.00000003
0.32140535 0.24648596 -0.00000039
0.38174656 0.00481800 -0.00000022
-0.55338043 -0.26526996 -0.00000024
0.13644537 -0.00714737 0.00000000
0.57204676 -0.67022336 0.00000000
-0.04979194 -0.28812063 0.00000000
0.44968757 -0.36413193 0.00000000
-0.07483572 -0.25858256 0.00000000
-0.45223916 -0.54538119 0.00000000
-0.45809424 0.20048220 -0.00000045
0.31746030 0.13513774 -0.00000018
0.64864039 -0.70268458 -0.00000011
-0.39840418 -0.11022310 -0.00000005
-0.54930991 -0.57350045 0.00000000
-0.55793387 -0.09685379 -0.00000040
0.14823098 -0.67444170 0.00000000
0.58240420 0.02125188 -0.00000111
0.21488509 -0.67802179 0.00000000
0.56841248 -0.07841259 -0.00000087
-0.37141761 0.08120699 -0.00000016
-0.39555752 0.13643491 -0.00000026
0.10735957 -0.45682976 0.00000000
-0.68004858 -0.76007158 -0.00000005
0.09264627 -0.56040037 0.00000000
0.61610901 -0.00844165 -0.00000120
0.46590868 -0.73696876 0.00000000
-0.46319804 -0.24783054 -0.00000006
0.27255782 0.19141506 -0.00000009
-0.14344122 -0.54429382 0.00000000
-0.55662382 0.04904783 -0.00000052
-0.64289874 -0.69792068 -0.00000005
0.45413268 0.09108594 -0.00000068
-0.15813151 0.59815031 -0.00000016
-0.28108856 -0.50039142 0.00000000
0.28039011 -0.22982062 0.00000000
-0.54451686 -0.52025199 0.00000000
-0.46033302 0.25396276 -0.00000050
-0.55824482 -0.23415992 -0.00000028
0.42190963 0.34011373 -0.00000099
-0.38986045 -0.36934718 0.00000000
-0.00487006 -0.44965577 0.00000000
0.63227707 -0.79960555 0.00000000
-0.78407639 -0.49360448 -0.00000038
-0.31180394 0.18148747 -0.00000012
-0.44140577 -0.09555826 -0.00000015
0.01717330 0.67878628 0.00000000
0.42594925 -0.59012955 0.00000000
-0.15576959 0.58816177 -0.00000015
0.48095450 0.02789683 -0.00000069
0.08415701 0.62531865 -0.00000005
0.63101536 -0.73853737 0.00000000
-0.47199589 -0.10762459 -0.00000020
-0.63661975 -0.09070088 -0.00000057
-0.06758782 -0.17459948 0.00000000
0.56793416 -0.19537289 -0.00000066
0.50668633 0.08105606 -0.00000089
-0.24081558 0.20042430 0.00000000
-0.22447568 -0.24520755 0.00000000
-0.66097146 -0.56769627 -0.00000020
0.58357269 -0.25222933 -0.00000063
-0.22901009 0.34956452 -0.00000009
0.07277519 0.20479628 0.00000000
0.22746143 0.48856819 -0.00000042
-0.12930916 -0.57229972 0.00000000
-0.11226629 0.36887741 0.00000000
0.58027887 0.21892340 -0.00000144
0.36287650 -0.00369644 -0.00000013
-0.68147063 -0.48002890 -0.00000032
-0.63164377 -0.33575651 -0.00000034
-0.19210164 0.17774002 0.00000000
0.13154064 -0.24021702 0.00000000
0.43695927 -0.62409896 0.00000000
0.38689804 -0.40106282 0.00000000
0.09119724 0.23555341 0.00000000
0.44652134 -0.03630195 -0.00000043
-0.00651777 0.70261633 0.00000000
0.62267160 -0.56636125 -0.00000024
0.00277895 -0.58799917 0.00000000
0.30750799 0.10020254 -0.00000008
-0.12827595 -0.68727064 0.00000000
-0.01467334 0.16933708 0.00000000
0.76702803 -0.70493323 -0.00000024
-0.19973364 -0.56889421 0.00000000
-0.12657142 -0.45708218 0.00000000
0.22899154 -0.72545516 0.00000000
-0.25303209 -0.55923319 0.00000000
-0.04513553 -0.25039464 0.00000000
-0.78532910 -0.11756777 -0.00000085
-0.41210979 -0.10811180 -0.00000008
0.62009126 -0.04707225 -0.00000115
0.26221934 0.42527744 -0.00000046
0.15562671 0.55788416 -0.00000024
0.49854374 -0.65507066 0.00000000
0.18272161 0.52258664 -0.00000029
0.00276053 -0.47592431 0.00000000
-0.21997091 -0.14656486 0.00000000
-0.15984453 -0.18270428 0.00000000
0.52076209 0.15351467 -0.00000108
-0.34085557 0.40635839 -0.00000038
-0.39626884 -0.46691835 0.00000000
0.24733537 0.45325536 -0.00000044
-0.73614287 -0.19623402 -0.00000069
-0.27848005 -0.04666965 0.00000000
0.27898112 0.19795562 -0.00000013
-0.33928153 -0.75031710 0.00000000
-0.36439055 -0.16017327 0.00000000
0.16696322 0.08502596 0.00000000
0.02121358 0.03710653 0.00000000
-0.44987920 0.05452507 -0.00000030
-0.39456639 0.04587456 -0.00000018
-0.66264671 -0.65172005 -0.00000013
0.12186127 -0.25833699 0.00000000
0.09233519 -0.15302981 0.00000000
-0.72396427 -0.04968819 -0.00000079
-0.17560261 0.54012114 -0.00000015
-0.09814768 0.58043242 -0.00000002
0.08475436 -0.41857186 0.00000000
0.04096937 -0.35270342 0.00000000
0.20801108 -0.28058738 0.00000000
-0.14777929 -0.59516847 0.00000000
-0.43255392 -0.54782563 0.00000000
-0.38974604 -0.43109453 0.00000000
0.59868526 -0.48989093 -0.00000027
-0.68140131 -0.20806822 -0.00000056
0.56941485 -0.06489169 -0.00000090
0.66672981 0.11297851 -0.00000163
-0.22163858 0.22534057 0.00000000
-0.25386369 -0.69326365 0.00000000
-0.04346277 0.26720721 0.00000000
0.77307099 -0.41564566 -0.00000096
-0.66659015 -0.64078343 -0.00000015
0.34526604 -0.66969997 0.00000000
0.23401538 0.27600157 -0.00000007
-0.00165583 0.78074890 0.00000000
0.22133860 -0.38502175 0.00000000
-0.35581607 -0.66294098 0.00000000
-0.56584740 -0.03895273 -0.00000047
0.06491436 0.53812861 0.00000000
-0.48074237 -0.56920296 0.00000000
0.08218276 0.00064469 0.00000000
0.27829197 -0.61947870 0.00000000
-0.62014002 -0.11993725 -0.00000051
0.25125068 0.44595322 -0.00000045
0.20558587 -0.11054735 0.00000000
-0.67347199 -0.52658278 -0.00000026
-0.18491298 -0.35180017 0.00000000
-0.13931946 0.37442020 0.00000000
0.16304430 0.37645248 0.00000000
-0.38043725 -0.76120901 0.00000000
-0.50710440 0.06243669 -0.00000043
0.32386684 -0.61186391 0.00000000
-0.01102282 0.44018087 0.00000000
0.29945236 0.01311597 0.00000000
-0.36339346 -0.38542199 0.00000000
0.15721203 -0.65451276 0.00000000
0.31370801 -0.10342291 0.00000000
-0.06824247 -0.50699681 0.00000000
0.23456597 -0.45772779 0.00000000
-0.08704009 -0.10757683 0.00000000
-0.45324594 0.22508305 -0.00000046
0.65293938 -0.00126865 -0.00000137
0.30561662 -0.40383187 0.00000000
0.21034271 0.11657528 0.00000000
0.39340219 -0.61650234 0.00000000
0.50340319 -0.00840814 -0.00000072
-0.11483093 -0.14109313 0.00000000
-0.51558387 -0.35519359 -0.00000008
-0.36124554 -0.16479707 0.00000000
0.26899052 -0.11575883 0.00000000
0.41916877 -0.01241653 -0.00000035
0.68449467 0.03442996 -0.00000157
0.61273414 -0.78699017 0.00000000
-0.20093510 0.00102958 0.00000000
0.67806154 0.03236310 -0.00000154
-0.32415640 0.37716350 -0.00000032
0.18470789 0.16985048 0.00000000
0.19040665 -0.46092394 0.00000000
0.24094848 -0.45132264 0.00000000
-0.11296124 0.31254286 0.00000000
0.13438749 0.16825496 0.00000000
0.79180825 -0.19344383 -0.00000152
0.01185833 0.02675375 0.00000000
0.49475446 -0.74109143 0.00000000
-0.66112334 -0.05582414 -0.00000065
0.08920498 -0.22155675 0.00000000
-0.42366818 -0.15216404 -0.00000006
-0.08303356 0.01141038 0.00000000
-0.26640636 0.17348783 -0.00000001
-0.20985550 0.50034332 -0.00000018
-0.54240453 -0.30706820 -0.00000018
-0.12459342 -0.40790927 0.00000000
-0.43618372 -0.62773556 0.00000000
0.21396898 0.52108270 -0.00000042
0.18210828 -0.54247677 0.00000000
0.57870305 -0.52519393 -0.00000013
-0.18047522 -0.73092514 0.00000000
-0.46467471 -0.52290225 0.00000000
0.49209449 -0.47755882 0.00000000
-0.41371590 -0.72795314 0.00000000
0.10299138 -0.53105402 0.00000000
0.72694916 -0.28807071 -0.00000118
0.48543072 -0.39633086 0.00000000
0.07925764 0.31816655 0.00000000
0.25025079 0.40737942 -0.00000037
-0.55866712 -0.44190082 -0.00000009
0.28876355 0.01372747 0.00000000
0.17674723 0.61061692 -0.00000042
-0.05747523 0.03921198 0.00000000
-0.42088056 -0.74483800 0.00000000
0.27761874 -0.18423343 0.00000000
0.20944808 0.00833949 0.00000000
-0.44194916 -0.59380609 0.00000000
-0.50239080 -0.14659037 -0.00000024
-0.41675058 -0.43626747 0.00000000
-0.10270598 -0.54070210 0.00000000
0.17843366 -0.50389928 0.00000000
-0.49479181 -0.54909474 0.00000000
-0.75058556 -0.19287547 -0.00000072
0.04620441 -0.54005921 0.00000000
-0.17698278 -0.35332206 0.00000000
-0.31907967 0.47520864 -0.00000039
-0.35916290 0.15893055 -0.00000020
0.13443644 0.42940965 0.00000000
0.50308847 -0.59770292 0.00000000
-0.66315371 -0.16357896 -0.00000056
0.24375536 -0.64745253 0.00000000
-0.56394237 -0.02606859 -0.00000047
0.17328610 -0.13291207 0.00000000
0.64153922 -0.43234098 -0.00000056
-0.74018365 -0.70169723 -0.00000012
-0.03971086 0.16346744 0.00000000
-0.08286062 -0.36435500 0.00000000
-0.01965992 -0.43098378 0.00000000
-0.15109292 0.13313036 0.00000000
0.33726680 -0.36293462 0.00000000
0.23918860 -0.45033965 0.00000000
0.69480985 -0.61420763 -0.00000046
0.25983435 0.22054617 -0.00000008
0.43488204 -0.57888836 0.00000000
0.16173887 -0.79704285 0.00000000
-0.22327036 -0.14690869 0.00000000
0.08510078 -0.16085583 0.00000000
-0.23831099 -0.54844630 0.00000000
0.25068390 -0.12986910 0.00000000
-0.01241572 0.69570059 0.00000000
0.06373489 0.29446334 0.00000000
0.31488475 0.44593215 -0.00000072
0.00157424 -0.12825240 0.00000000
0.04119815 0.00550491 0.00000000
0.41374400 0.07757882 -0.00000049
-0.39946419 -0.51791912 0.00000000
0.02816917 0.45743227 0.00000000
0.61813498 0.03896059 -0.00000129
0.11264074 0.27846813 0.00000000
0.06109693 0.12047542 0.00000000
0.67067230 -0.74295312 -0.00000013
0.10351196 0.20448123 0.00000000
0.45522937 0.28694183 -0.00000104
-0.28305101 0.11272959 0.00000000
-0.52236700 0.05787659 -0.00000046
0.08565268 -0.37310371 0.00000000
-0.19968227 -0.48364267 0.00000000
0.33725742 -0.52010500 0.00000000
0.21295694 0.37918499 -0.00000016
-0.47831658 -0.46591061 0.00000000
-0.74189788 -0.29702765 -0.00000061
0.41171443 -0.24873212 0.00000000
-0.47803938 -0.14384690 -0.00000019
-0.57673758 -0.47554365 -0.00000010
-0.16065630 0.23625639 0.00000000
-0.18380141 -0.43469250 0.00000000
-0.22250435 0.49873438 -0.00000021
0.26239026 -0.11260637 0.00000000
-0.73452264 -0.72218233 -0.00000010
0.70729727 -0.58001816 -0.00000055
-0.41364935 0.04247485 -0.00000021
0.01751168 0.10420133 0.00000000
-0.03263334 0.61180770 0.00000000
0.21257758 -0.78287143 0.00000000
0.13937369 -0.25324070 0.00000000
0.32159829 0.30861676 -0.00000050
-0.38436583 -0.05364928 -0.00000007
-0.28356445 0.03886991 0.00000000
-0.59109569 -0.68771172 0.00000000
0.14691100 0.43720618 0.00000000
0.28030339 -0.60403121 0.00000000
0.37199610 -0.45433030 0.00000000
-0.23071153 0.07482621 0.00000000
-0.40052751 -0.14491999 -0.00000002
-0.28521043 0.04871614 0.00000000
0.57177305 -0.17532656 -0.00000072
-0.14135048 -0.56905514 0.00000000
-0.00094237 -0.31966183 0.00000000
0.24914812 -0.55810237 0.00000000
0.62964994 -0.79504740 0.00000000
-0.67098296 -0.63345075 -0.00000016
0.09291172 -0.44315228 0.00000000
-0.76525450 -0.27678868 -0.00000065
0.47261769 0.19916274 -0.00000095
0.14086491 0.49072072 -0.00000005
0.72328275 0.06151418 -0.00000178
-0.43790773 -0.72575212 0.00000000
0.51394439 -0.51269692 0.00000000
-0.16753462 -0.56043124 0.00000000
0.55688739 -0.49735042 -0.00000008
0.78448862 -0.35034642 -0.00000112
-0.76185888 -0.39997154 -0.00000050
0.40991661 0.20049889 -0.00000069
-0.42340758 0.25273827 -0.00000042
-0.60524619 -0.71042025 0.00000000
0.14912742 -0.54526633 0.00000000
-0.06821038 0.71226943 -0.00000007
0.27404135 -0.17137286 0.00000000
-0.64762264 0.14435285 -0.00000080
-0.66284794 0.03595114 -0.00000074
-0.08954526 -0.43510398 0.00000000
-0.18815213 -0.52343327 0.00000000
-0.11842853 0.40029892 0.00000000
0.36282709 -0.59416384 0.00000000
-0.70094359 -0.60988688 -0.00000024
-0.36425209 0.25082669 -0.00000029
-0.51052898 -0.48785987 0.00000000
-0.36103114 -0.76023585 0.00000000
-0.79982322 -0.10338387 -0.00000087
-0.27909890 0.15532331 -0.00000003
0.18450817 -0.23059855 0.00000000
-0.32352063 -0.75039566 0.00000000
-0.12028217 -0.77695656 0.00000000
0.38216898 -0.40167257 0.00000000
0.27145460 -0.41343635 0.00000000
0.35256505 -0.76253790 0.00000000
0.72396690 -0.58692545 -0.00000053
0.39598784 -0.38548419 0.00000000
0.26919940 0.47273451 -0.00000057
0.26126587 -0.47267798 0.00000000
-0.50466526 -0.22355774 -0.00000017
0.07002010 -0.26885766 0.00000000
0.09037531 0.04935584 0.00000000
-0.00123395 0.20296888 0.00000000
0.46576840 -0.71842760 0.00000000
0.79959118 -0.21655220 -0.00000146
0.63048196 -0.78669465 0.00000000
0.02565352 -0.61073977 0.00000000
-0.45735279 -0.32408211 0.00000000
0.43171993 -0.76737541 0.00000000
0.45143828 0.33380920 -0.00000110
-0.17718400 0.55881083 -0.00000016
0.60288340 -0.64706457 -0.00000001
-0.14993997 -0.22822434 0.00000000
-0.55315721 -0.03312697 -0.00000044
0.76944238 -0.48259923 -0.00000079
-0.29041070 0.03746369 0.00000000
0.18248259 0.56497818 -0.00000036
0.27691308 -0.18580835 0.00000000
-0.01651804 0.36869606 0.00000000
-0.57327610 -0.04711864 -0.00000047
-0.53302985 0.10653232 -0.00000052
0.30777499 -0.19268329 0.00000000
0.66443396 -0.35919476 -0.00000079
0.26596943 -0.47986513 0.00000000
0.11242013 0.56129307 -0.00000006
-0.57708776 -0.32255396 -0.00000024
-0.35798004 -0.04967631 -0.00000001
0.37751219 -0.09008169 -0.00000004
-0.30209082 -0.66918772 0.00000000
0.15615916 0.63966048 -0.00000038
-0.13476448 0.62584734 -0.00000013
-0.20400293 -0.20484556 0.00000000
0.24352513 -0.38619885 0.00000000
-0.32138193 -0.42268115 0.00000000
0.07652498 0.64419329 -0.00000005
0.24429595 0.45880339 -0.00000044
-0.30778861 -0.15073363 0.00000000
0.61827683 0.04427866 -0.00000130
-0.26596582 0.10891553 0.00000000
0.34304121 0.16097157 -0.00000033
0.43350747 -0.59214193 0.00000000
-0.67209971 -0.35208705 -0.00000042
-0.14502124 -0.07062983 0.00000000
-0.34923249 0.03148010 -0.00000007
-0.23976918 0.40000546 -0.00000016
-0.17573993 -0.48398364 0.00000000
0.14670934 -0.70500356 0.00000000
0.09364537 -0.49801770 0.00000000
-0.48859644 -0.54658979 0.00000000
-0.47924167 0.19110060 -0.00000048
-0.31441781 0.43760988 -0.00000035
0.29324475 0.35860753 -0.00000047
0.27465507 0.37541246 -0.00000042
-0.09445045 -0.50930578 0.00000000
0.20094779 -0.09465070 0.00000000
-0.21935444 -0.45061311 0.00000000
0.46633780 -0.05140857 -0.00000049
-0.21684298 0.44974622 -0.00000015
-0.00653259 -0.29223570 0.00000000
-0.57523870 -0.69034123 0.00000000
-0.08251356 0.03481154 0.00000000
-0.36813697 -0.11214897 0.00000000
-0.16663878 0.53216958 -0.00000012
-0.25918704 -0.16927771 0.00000000
0.17589955 0.08043038 0.00000000
-0.67371106 -0.08575401 -0.00000065
-0.10067117 -0.18948877 0.00000000
-0.16749732 0.06975211 0.00000000
0.34728214 -0.35908738 0.00000000
-0.73846674 -0.78446496 -0.00000002
0.70164585 -0.16814983 -0.00000128
0.49005738 -0.35043523 -0.00000006
-0.23309958 0.29610330 -0.00000005
-0.19960079 -0.75224698 0.00000000
0.20278893 0.46738523 -0.00000028
0.52411586 -0.23472987 -0.00000041
0.50249547 -0.75796151 0.00000000
-0.26652074 0.31258315 -0.00000014
-0.63948601 -0.20458776 -0.00000048
0.00112992 -0.46239105 0.00000000
-0.54837263 -0.12387118 -0.00000035
-0.48768321 0.25499612 -0.00000056
-0.16966160 -0.64282525 0.00000000
0.38531575 -0.67871541 0.00000000
-0.34832528 -0.65528250 0.00000000
0.55197239 -0.22545335 -0.00000054
-0.18658496 -0.32563937 0.00000000
0.37328568 -0.36974496 0.00000000
-0.77077317 -0.62184131 -0.00000022
0.30472815 -0.25136796 0.00000000
0.30002448 -0.71367145 0.00000000
0.65997869 0.01472427 -0.00000143
0.37099040 -0.34972179 0.00000000
-0.64313018 -0.17912681 -0.00000051
0.06290420 -0.08847230 0.00000000
-0.38310751 -0.21318907 0.00000000
0.52735591 -0.47537699 0.00000000
-0.40904418 0.23186567 -0.00000037
0.63947487 -0.43822429 -0.00000054
0.15707538 0.63950580 -0.00000034
-0.05467540 -0.57283449 0.00000000
0.59436017 0.07709152 -0.00000126
0.09007089 -0.20203578 0.00000000
0.50936097 -0.24582241 -0.00000033
0.31073317 -0.34340930 0.00000000
0.31517038 -0.17503715 0.00000000
0.13057272 0.44099510 0.00000000
0.78702468 -0.62878358 -0.00000043
-0.40081105 0.33036673 -0.00000044
0.27237126 -0.34512305 0.00000000
-0.58428735 -0.46944919 -0.00000012
-0.04322754 0.18409508 0.00000000
0.21570718 0.31980333 -0.00000007
0.33727857 -0.78342146 0.00000000
0.20759657 0.59081346 -0.00000049
0.21844916 -0.65026695 0.00000000
0.02062135 -0.77544212 0.00000000
0.63441145 0.16532318 -0.00000158
-0.59446609 -0.18149613 -0.00000040
0.26154912 -0.01288480 0.00000000
0.58453840 -0.38157043 -0.00000041
-0.16022329 -0.33927345 0.00000000
-0.54701757 -0.67840767 0.00000000
0.49995941 -0.28778416 -0.00000021
-0.22830120 0.22401199 0.00000000
0.51983547 0.14139663 -0.00000105
-0.65673053 -0.73115021 -0.00000005
0.34296355 -0.18321307 0.00000000
0.31814399 -0.18289518 0.00000000
0.39201185 -0.58570582 0.00000000
-0.18653265 -0.75119871 0.00000000
-0.23529923 -0.32265776 0.00000000
-0.62804532 -0.50742978 -0.00000018
-0.10796107 0.57415110 -0.00000003
-0.53356123 -0.53302443 0.00000000
0.46213660 0.33384722 -0.00000115
0.55806321 0.05923661 -0.00000107
0.00030047 0.76017952 0.00000000
-0.16914254 0.38399535 0.00000000
-0.47632363 -0.14284201 -0.00000018
0.48966125 -0.75613886 0.00000000
0.29425907 -0.62021947 0.00000000
-0.24906634 -0.32455084 0.00000000
0.64967942 -0.57765394 -0.00000034
-0.06329186 -0.15438291 0.00000000
-0.00608618 0.34325558 0.00000000
-0.45996544 -0.27253070 -0.00000003
0.21390733 -0.72931814 0.00000000
0.15369089 0.64281696 -0.00000038
0.65444219 0.00774486 -0.00000139
0.17446148 0.17420816 0.00000000
0.58475220 -0.28282309 -0.00000058
-0.23072518 0.32085553 -0.00000007
0.15147872 0.09924112 0.00000000
-0.25216791 -0.57181782 0.00000000
0.10664864 -0.25002867 0.00000000
0.48735845 0.19958255 -0.00000102
0.21630943 0.50908977 -0.00000041
0.58542836 0.17282090 -0.00000139
-0.41085747 -0.07143082 -0.00000011
0.05577220 0.62265956 0.00000000
-0.34639272 -0.38899562 0.00000000
-0.11509719 0.64113688 -0.00000011
-0.65525270 -0.04246858 -0.00000065
-0.61170125 -0.70596725 0.00000000
0.69004112 -0.12883762 -0.00000130
-0.19875707 -0.14731731 0.00000000
0.48297995 0.17014927 -0.00000095
0.00175248 -0.44215330 0.00000000
-0.50438154 0.15812914 -0.00000051
0.19200458 0.07002656 0.00000000
-0.30238327 -0.48175189 0.00000000
-0.11175206 0.61444014 -0.00000007
0.68120062 -0.12894775 -0.00000127
0.74644488 -0.73306996 -0.00000017
0.43864211 -0.65391868 0.00000000
-0.22461182 0.38819569 -0.00000012
0.36798194 0.35349867 -0.00000078
-0.37010556 0.41244176 -0.00000045
-0.27795383 0.07076828 0.00000000
0.31994244 0.07876536 -0.00000009
0.31895325 -0.23422942 0.00000000
-0.28263217 0.32255450 -0.00000018
0.32514048 -0.24355084 0.00000000
0.03530536 -0.37397513 0.00000000
0.54234052 -0.00359224 -0.00000089
-0.21921436 0.34297729 -0.00000006
0.06256336 -0.61097479 0.00000000
-0.10653439 -0.34905359 0.00000000
0.33187506 0.38738540 -0.00000069
0.44821203 0.32802209 -0.00000108
0.30148640 0.42068359 -0.00000062
-0.13192208 0.19045538 0.00000000
-0.10856845 0.12930283 0.00000000
0.24914911 0.37290138 -0.00000031
0.52177048 -0.06635729 -0.00000070
-0.60829604 0.18703204 -0.00000076
-0.19666795 -0.42278343 0.00000000
0.08105228 -0.37852752 0.00000000
-0.09584064 -0.10730977 0.00000000
-0.54325545 -0.07861630 -0.00000038
-0.72645062 -0.09217944 -0.00000076
0.08914059 -0.25345787 0.00000000
-0.07018298 0.45227611 0.00000000
0.36114237 0.18145384 -0.00000045
-0.52655143 -0.09598876 -0.00000033
0.57271528 -0.58844012 0.00000000
0.54446185 -0.21476057 -0.00000053
-0.39024734 -0.59380585 0.00000000
-0.65383351 -0.19812521 -0.00000051
0.36219150 -0.73047519 0.00000000
0.27578998 -0.37355062 0.00000000
-0.65065652 -0.71928269 -0.00000005
0.44335094 -0.09732249 -0.00000031
-0.40419677 0.31335035 -0.00000043
-0.57496679 -0.50168240 -0.00000008
-0.33315164 -0.67125005 0.00000000
-0.44080961 -0.78162050 0.00000000
-0.12592307 -0.55352402 0.00000000
-0.40346777 0.02180419 -0.00000017
0.67506337 -0.50340873 -0.00000058
-0.53941494 0.01831276 -0.00000046
0.22450964 0.01894572 0.00000000
0.20886999 -0.13899341 0.00000000
-0.38811275 -0.31944606 0.00000000
-0.33731398 0.46100864 -0.00000042
-0.46279585 -0.18320097 -0.00000012
0.60264820 0.01409029 -0.00000118
-0.23442440 -0.35614204 0.00000000
-0.45580140 -0.42544481 0.00000000
-0.41432515 -0.67836624 0.00000000
-0.26085979 -0.01055858 0.00000000
-0.25648734 -0.14048678 0.00000000
-0.40108043 0.24245247 -0.00000036
-0.66431880 -0.07570068 -0.00000064
-0.46169227 -0.66843653 0.00000000
-0.52255636 -0.42430913 -0.00000003
0.49899653 -0.39223915 -0.00000002
0.24080157 -0.36733228 0.00000000
0.08528763 0.44866130 0.00000000
-0.52218789 -0.40094736 -0.00000005
0.45296213 -0.48651266 0.00000000
0.37501723 -0.01498106 -0.00000016
-0.37567499 0.14766587 -0.00000023
0.11556403 0.14593165 0.00000000
-0.00968694 -0.06540091 0.00000000
0.36903161 -0.16425084 0.00000000
0.61048168 0.11351064 -0.00000139
-0.59472668 -0.67398614 0.00000000
-0.08179471 -0.34534231 0.00000000
0.50590068 0.25355798 -0.00000119
0.79087555 -0.59631193 -0.00000051
0.39803541 0.00833419 -0.00000030
-0.29015774 0.10749105 -0.00000001
0.13906746 -0.01763733 0.00000000
0.77190542 -0.51381332 -0.00000072
0.27314556 0.29423404 -0.00000027
-0.58115387 -0.49990863 -0.00000009
0.77905083 -0.57729012 -0.00000056
-0.30418646 -0.64429915 0.00000000
-0.06556265 -0.38295060 0.00000000
0.44516739 -0.43421298 0.00000000
0.43198904 -0.32422891 0.00000000
0.38703999 -0.25096971 0.00000000
0.47896388 -0.19825438 -0.00000028
0.24101304 0.08161129 0.00000000
0.63474143 -0.69371670 -0.00000007
-0.12715942 0.56490880 -0.00000006
-0.77098292 -0.76015496 -0.00000005
0.00517445 0.50485617 0.00000000
0.30926242 0.15180656 -0.00000017
0.42779353 -0.19919264 -0.00000006
0.62016279 -0.41713536 -0.00000050
0.50804555 -0.23449257 -0.00000034
0.29947513 -0.51530987 0.00000000
-0.09340539 -0.12722507 0.00000000
-0.79471195 -0.07084484 -0.00000091
0.36344266 0.22998197 -0.00000054
0.64963174 -0.18034510 -0.00000104
0.20409539 -0.70178336 0.00000000
0.55554420 0.11183645 -0.00000115
0.12960558 0.39946109 0.00000000
0.04395959 -0.34060153 0.00000000
-0.34149361 -0.54165071 0.00000000
0.19163056 0.37918249 -0.00000007
0.42716715 -0.47021857 0.00000000
-0.16996968 0.29147312 0.00000000
0.70708823 -0.12177164 -0.00000139
0.20278497 -0.69245678 0.00000000
-0.24962603 -0.46310511 0.00000000
0.22097227 0.13523996 0.00000000
0.26173991 -0.72183567 0.00000000
0.03299823 0.48965600 0.00000000
0.43065235 -0.18634196 -0.00000009
-0.02682353 -0.58207542 0.00000000
0.62392592 -0.59593749 -0.00000020
0.26253897 -0.39460564 0.00000000
-0.11724626 -0.38341349 0.00000000
-0.23262922 0.08744539 0.00000000
-0.63429034 -0.68941122 -0.00000004
0.34613380 0.37441516 -0.00000072
0.73911440 -0.54837525 -0.00000063
0.01026043 0.53903437 0.00000000
-0.17669709 0.40189984 -0.00000003
-0.78183240 -0.57222140 -0.00000028
0.26010549 -0.26026887 0.00000000
-0.15419936 -0.43887785 0.00000000
0.31232420 0.43695778 -0.00000069
-0.29738769 -0.25918794 0.00000000
0.34781873 -0.24671173 0.00000000
-0.18423146 -0.50690144 0.00000000
0.53266889 -0.19617505 -0.00000051
0.41320854 0.32132220 -0.00000092
-0.35942060 -0.29272851 0.00000000
0.48368993 -0.60734755 0.00000000
0.54745042 -0.77269101 0.00000000
-0.66001135 -0.30825257 -0.00000043
0.37142017 0.26485378 -0.00000064
-0.01680305 -0.73343849 0.00000000
0.72454721 -0.28669652 -0.00000117
-0.00871683 -0.68209314 0.00000000
0.07098588 -0.17259084 0.00000000
0.09431087 -0.64812672 0.00000000
-0.53042895 -0.37388775 -0.00000009
-0.32480162 0.24503435 -0.00000020
0.26661652 -0.63939643 0.00000000
-0.41945755 -0.65408474 0.00000000
0.32617375 0.05576254 -0.00000008
-0.26085296 0.39921546 -0.00000020
0.57589942 -0.19160026 -0.00000070
0.31660190 -0.15657140 0.00000000
0.16752762 -0.25879911 0.00000000
0.13119487 0.55866313 -0.00000013
-0.02846938 -0.60535151 0.00000000
-0.47788924 -0.71424377 0.00000000
-0.19986558 -0.75572658 0.00000000
-0.30629599 -0.06231713 0.00000000
0.25026065 0.29413390 -0.00000017
-0.07381606 0.47125483 0.00000000
-0.46907982 -0.55533493 0.00000000
0.27712694 -0.61246586 0.00000000
-0.09231154 -0.36748469 0.00000000
0.34611884 -0.67882967 0.00000000
-0.49003336 -0.37531483 -0.00000001
0.04790890 -0.15709688 0.00000000
0.35117939 -0.43070275 0.00000000
0.63632554 -0.51727384 -0.00000039
0.41474271 0.18619174 -0.00000068
0.18963979 -0.57926667 0.00000000
-0.54168713 -0.72845137 0.00000000
-0.24043885 0.12661576 0.00000000
-0.26157451 0.19246450 -0.00000002
-0.52257740 -0.57702279 0.00000000
0.01517158 -0.25629127 0.00000000
-0.15253823 -0.78791332 0.00000000
-0.65025330 0.06278232 -0.00000074
-0.22676919 -0.60999501 0.00000000
-0.32946280 0.25172687 -0.00000022
0.36125565 -0.73100090 0.00000000
-0.16313601 -0.15713911 0.00000000
0.30535305 -0.30442762 0.00000000
0.45727348 -0.75323743 0.00000000
-0.39437985 -0.07249257 -0.00000007
0.06374532 -0.08583332 0.00000000
-0.06192644 0.52986342 0.00000000
0.22560821 0.57134342 -0.00000051
-0.39555997 -0.40176776 0.00000000
-0.48968241 0.18063429 -0.00000050
0.14250557 0.23576884 0.00000000
-0.15304902 0.40449780 0.00000000
-0.28522182 0.07102666 0.00000000
0.42979592 -0.49963748 0.00000000
0.60584164 -0.46198022 -0.00000035
-0.07150847 0.22854356 0.00000000
-0.66081876 -0.58080983 -0.00000019
-0.00347706 0.10964243 0.00000000
-0.22980100 -0.54785991 0.00000000
-0.18112029 -0.58144552 0.00000000
0.31507486 0.40758577 -0.00000065
0.22985728 -0.00065040 0.00000000
-0.52492911 0.08833790 -0.00000049
-0.22175442 -0.74424332 0.00000000
0.22087663 -0.79694128 0.00000000
0.38225725 -0.34851965 0.00000000
-0.00458707 -0.73114586 0.00000000
0.61030352 -0.37227565 -0.00000053
-0.25724012 -0.39594892 0.00000000
-0.26712200 0.47148100 -0.00000028
0.02443316 0.49505931 0.00000000
-0.45661518 0.04330246 -0.00000031
0.43428603 -0.74563473 0.00000000
-0.41591829 0.27449283 -0.00000042
-0.45279047 -0.30545831 0.00000000
-0.35832664 0.36447629 -0.00000038
0.36165103 -0.23239502 0.00000000
-0.10903871 -0.58816022 0.00000000
0.19527806 -0.23782615 0.00000000
0.39454681 -0.79307622 0.00000000
-0.34480077 0.24858154 -0.00000025
-0.40553489 -0.02722184 -0.00000013
