ply
format ascii 1.0
element vertex 1370
property float x
property float y
property float z
end_header
0.36455530 -0.58522499 -0.00000013
0.41336316 0.29353258 -0.00000134
-0.72867388 0.42309874 0.12401705
-0.31414175 -0.46793634 -0.00000021
0.19946076 -0.18332671 -0.00000039
-0.77751273 -0.53228289 0.00000000
-0.26773259 -0.12898652 -0.00000042
-0.07012222 -0.63831800 -0.00000010
0.73100871 -0.15761968 -0.00000147
-0.42014024 0.07055523 -0.00000042
-0.60443044 0.00348090 -0.00000021
0.08011152 -0.48226044 -0.00000020
-0.53111142 0.70227510 0.15278938
-0.42386514 -0.16384673 -0.00000037
0.14462908 -0.10324167 -0.00000044
0.02884132 -0.20000982 -0.00000037
-0.79311538 0.02276293 0.00559786
0.04887677 -0.49360010 -0.00000019
-0.39510238 -0.40722111 -0.00000025
-0.42544281 -0.02128763 -0.00000040
0.72147298 -0.17393552 -0.00000141
-0.67341328 0.46409938 0.11898962
0.49095300 -0.64250153 -0.00000010
0.29523537 0.29656467 -0.00000096
0.57086426 -0.28364164 -0.00000071
0.29806158 -0.36910203 -0.00000027
0.69856912 -0.72237414 -0.00000019
-0.24585882 0.13828544 -0.00000059
0.04995254 -0.35333237 -0.00000028
-0.04630668 0.11469878 -0.00000057
0.14723851 0.02463793 -0.00000052
-0.57775295 0.06329411 -0.00000025
-0.31859797 0.34506130 -0.00000058
-0.07876347 0.35937133 -0.00000072
-0.01667051 0.26085514 -0.00000066
-0.65968710 0.28728330 0.05181406
0.12606758 -0.23284426 -0.00000035
0.05371535 -0.60596275 -0.00000012
-0.39475736 0.11776519 -0.00000045
-0.34914005 -0.62548631 -0.00000011
0.25381657 -0.72191638 -0.00000005
0.71871632 -0.52041006 -0.00000070
0.18281153 -0.49684668 -0.00000019
-0.21080694 -0.58243358 -0.00000014
-0.09103082 0.61307466 -0.00000087
0.08595952 0.62586731 -0.00000094
0.02046999 0.10950659 -0.00000057
0.53888297 -0.73129576 -0.00000004
-0.61651492 -0.61637121 -0.00000008
0.54054993 -0.78789902 -0.00000001
0.63165122 0.05797069 -0.00000157
-0.61771965 0.56661677 0.13549712
0.43497536 -0.45649722 -0.00000021
-0.40119267 0.60002136 0.07093718
0.08666962 -0.26825550 -0.00000033
-0.53436470 -0.14068846 -0.00000026
0.21637636 -0.62946969 -0.00000011
0.22378489 -0.79319590 -0.00000000
-0.07864159 0.16219518 -0.00000060
-0.16963196 -0.65287042 -0.00000009
-0.47076619 0.77334124 0.15656884
0.22516409 -0.55190635 -0.00000016
-0.48490319 0.50163007 0.06576162
0.00649507 -0.77690172 -0.00000001
-0.72525281 0.21190634 0.04835523
0.60765845 0.15311565 -0.00000168
0.49050951 -0.10882071 -0.00000080
0.43427205 -0.71235585 -0.00000005
0.73690808 -0.09695547 -0.00000161
-0.54324484 0.28054631 0.00838710
-0.62542993 -0.72957617 -0.00000004
0.60638279 -0.77098060 -0.00000002
-0.55962604 0.20562263 -0.00000029
0.11602877 -0.21031033 -0.00000037
-0.38648590 -0.17870872 -0.00000039
0.07017430 0.62076277 -0.00000089
0.63330138 -0.57396197 -0.00000035
0.62221450 -0.73478889 -0.00000004
0.65017605 -0.53887028 -0.00000047
-0.18326651 0.21883117 -0.00000064
-0.55768561 0.33409157 0.03235557
-0.20092441 0.46428952 -0.00000072
-0.44490466 0.03290126 -0.00000038
0.16369461 -0.79466832 -0.00000000
-0.25398582 0.32154101 -0.00000064
0.12705782 -0.09754186 -0.00000044
-0.07500874 0.08371527 -0.00000055
0.26749185 -0.43651712 -0.00000023
-0.27157494 0.31402236 -0.00000062
0.65810579 -0.54649109 -0.00000048
-0.45923325 -0.01161179 -0.00000036
-0.08233346 0.77472329 0.02011409
-0.14788686 -0.43824762 -0.00000023
-0.44982085 -0.12498964 -0.00000035
-0.11196918 -0.62298232 -0.00000011
0.10269046 0.14275897 -0.00000059
-0.64991856 -0.71873784 -0.00000003
-0.60358828 -0.04686508 -0.00000020
-0.29237175 0.21478064 -0.00000058
-0.72718751 -0.79694319 0.00000000
0.77918935 -0.78473651 -0.00000004
-0.56171083 0.34906748 0.03905441
-0.67936563 0.46763274 0.12233380
0.04587687 0.75388110 -0.00000105
0.44656217 0.19963074 -0.00000126
-0.52466315 0.65049124 0.13225977
0.40000314 -0.53504968 -0.00000017
-0.71646917 -0.08979176 -0.00000007
-0.44879448 0.35122582 0.00000656
-0.34506601 -0.76647133 -0.00000002
-0.49254456 0.65771931 0.12348460
-0.55621874 0.52046669 0.09754482
0.20255399 0.30859539 -0.00000069
-0.10741094 0.13896351 -0.00000059
0.15014490 -0.62774676 -0.00000011
-0.56454617 0.39114428 0.05488815
-0.51449436 0.17691164 -0.00000034
0.21533224 -0.10043222 -0.00000044
-0.46710807 -0.60026348 -0.00000012
-0.08500128 0.62208968 -0.00000088
-0.08894283 0.23506190 -0.00000065
-0.07085126 -0.62547332 -0.00000011
-0.39913028 -0.10300059 -0.00000041
-0.01634393 -0.61778492 -0.00000011
-0.44717059 -0.13449448 -0.00000035
0.64603156 0.10503000 -0.00000171
0.44699293 -0.49722889 -0.00000019
-0.27246773 -0.49900743 -0.00000019
-0.53954554 -0.75578743 -0.00000003
-0.52799815 0.07295109 -0.00000030
-0.39028916 -0.56821877 -0.00000014
-0.16827913 -0.25892630 -0.00000034
0.55137867 -0.11292733 -0.00000098
0.11693111 -0.08292490 -0.00000045
-0.29642084 -0.03187941 -0.00000048
-0.76188940 0.04373453 0.00198265
-0.70082045 -0.34656650 -0.00000004
-0.30883002 0.59045929 0.03500353
0.42805558 0.07477433 -0.00000096
-0.34126621 0.36000702 -0.00000056
0.22794184 -0.57793361 -0.00000014
-0.37930787 0.13417588 -0.00000047
-0.12037459 -0.48184347 -0.00000020
0.67513031 -0.51108581 -0.00000060
0.07997699 -0.47759172 -0.00000020
0.38803560 -0.15269959 -0.00000040
-0.02968324 0.37376994 -0.00000073
-0.74977970 -0.28914732 -0.00000000
0.66917926 0.12989134 -0.00000183
0.66895491 -0.19180267 -0.00000121
0.27313864 -0.05643814 -0.00000046
0.45225537 0.25903448 -0.00000139
0.79902011 -0.15423124 -0.00000161
-0.20587701 0.76177227 0.05910352
-0.52465355 -0.27850586 -0.00000024
-0.54961872 -0.40437037 -0.00000019
-0.35811079 -0.20242907 -0.00000037
0.45296913 -0.38074058 -0.00000026
0.20091845 -0.40012869 -0.00000025
0.31142083 -0.00654683 -0.00000050
-0.69697273 0.30805850 0.07228343
-0.72278565 -0.00677652 -0.00000008
-0.57168138 0.56510389 0.11873295
-0.59437186 0.74874949 0.19147629
0.50254762 -0.72222060 -0.00000005
0.50091469 0.12492438 -0.00000129
0.38717413 -0.49269745 -0.00000019
0.38456926 -0.38784218 -0.00000026
0.24954280 0.51678622 -0.00000125
0.00996003 -0.01400306 -0.00000049
-0.12671585 0.56668240 -0.00000082
-0.63238460 -0.71890891 -0.00000005
-0.35581243 -0.24117361 -0.00000035
0.22046086 -0.43653306 -0.00000023
0.20862763 0.47613052 -0.00000104
-0.62845290 -0.38946563 -0.00000011
-0.77188390 0.14220858 0.04022317
-0.06945997 -0.71796817 -0.00000005
-0.05378434 0.41500428 -0.00000076
-0.29230639 0.55557203 0.01687865
0.43861678 -0.67508227 -0.00000008
0.61417580 -0.31171444 -0.00000080
-0.50520927 0.46538895 0.06014376
-0.17648450 -0.49760136 -0.00000019
0.01442302 -0.55774188 -0.00000015
0.00699710 -0.04541396 -0.00000047
-0.42149249 0.56320292 0.06511358
-0.18412016 -0.38991278 -0.00000026
0.25567374 -0.48885807 -0.00000019
-0.00115401 0.01236743 -0.00000051
-0.75442207 0.72029692 0.23787113
-0.63481379 0.46336219 0.10512143
-0.55363369 0.52022004 0.09654651
0.01844448 -0.45691004 -0.00000021
0.12714536 0.22169997 -0.00000064
0.47228545 -0.33479589 -0.00000030
0.24145672 -0.55346805 -0.00000015
-0.47356349 0.22060877 -0.00000039
0.21309003 0.09948790 -0.00000056
0.49303806 0.03858982 -0.00000109
-0.56852591 0.58944190 0.12620080
-0.11445539 -0.41332224 -0.00000024
0.53078133 -0.10681113 -0.00000093
0.14296094 0.55048537 -0.00000097
0.33144590 0.08579251 -0.00000067
-0.79844320 -0.55503505 0.00000000
0.34241265 0.07693353 -0.00000069
-0.10330281 -0.74336827 -0.00000004
0.16957037 0.07524870 -0.00000055
0.15272376 -0.60429150 -0.00000012
-0.19558527 0.54197705 -0.00000074
-0.58363616 -0.41272143 -0.00000016
-0.13838865 -0.22500658 -0.00000036
0.55585337 0.19658566 -0.00000160
0.40734422 -0.09690825 -0.00000055
-0.38409278 0.10568853 -0.00000046
0.53820705 -0.79247469 -0.00000000
-0.23769805 -0.45033640 -0.00000022
0.00692057 -0.53893167 -0.00000016
-0.34873563 0.53063524 0.02798136
-0.22446099 0.75677484 0.06389348
0.33007312 0.33452496 -0.00000115
-0.41747835 0.03540027 -0.00000041
0.78773493 -0.57900918 -0.00000055
0.54018039 -0.75955772 -0.00000003
0.06147821 0.35856926 -0.00000072
-0.65369523 -0.09153178 -0.00000014
-0.58473754 -0.65772212 -0.00000009
0.38802412 0.41091275 -0.00000147
0.42271990 -0.35566863 -0.00000028
-0.41250533 0.26237154 -0.00000046
0.52029425 0.11779291 -0.00000133
-0.32788888 0.13132517 -0.00000053
-0.13578799 -0.14566065 -0.00000041
-0.14118326 -0.43712261 -0.00000023
0.33465317 -0.55460453 -0.00000015
-0.02842466 -0.60202265 -0.00000012
-0.32705858 0.68649060 0.07528573
-0.76094729 -0.22120383 -0.00000000
0.64111346 -0.10158666 -0.00000129
0.08184452 0.60797673 -0.00000089
0.18267970 -0.62299955 -0.00000011
0.31724676 0.10683091 -0.00000066
0.22664586 0.38395166 -0.00000091
-0.58350235 -0.28233704 -0.00000018
-0.55036122 0.74273664 0.17384051
-0.01753727 -0.75073159 -0.00000003
0.36473626 -0.45230123 -0.00000022
-0.49472091 0.03720943 -0.00000033
0.41340104 0.11826453 -0.00000099
-0.60470575 0.08437429 -0.00000022
-0.78761345 -0.16108647 0.00000000
-0.13607103 -0.70115715 -0.00000006
0.14254461 -0.42990825 -0.00000023
0.38789329 0.16218020 -0.00000100
0.47518152 -0.49229303 -0.00000019
-0.55542254 0.61509001 0.13062337
0.35329640 0.39232060 -0.00000134
-0.16552316 0.51955712 -0.00000077
-0.09530413 -0.36426133 -0.00000027
-0.21824975 -0.74744946 -0.00000003
0.10136138 -0.55473369 -0.00000015
0.04403719 -0.77034032 -0.00000002
-0.78411722 -0.69447315 0.00000000
-0.06384742 -0.08149393 -0.00000045
0.32789010 -0.37639031 -0.00000026
0.28488404 -0.08734842 -0.00000045
0.31845462 -0.02252385 -0.00000049
-0.56921065 0.43335846 0.07141520
0.54631871 0.02902804 -0.00000124
-0.41912580 0.47012267 0.03146383
-0.20703337 0.64791542 0.01937116
0.00624414 -0.22144444 -0.00000036
0.21937218 -0.54885143 -0.00000016
-0.29885796 0.23658878 -0.00000058
-0.26504299 0.53128594 -0.00000067
0.06144628 0.21524423 -0.00000063
-0.12216738 0.22905630 -0.00000064
0.50382936 -0.19473341 -0.00000067
-0.07685687 -0.09327097 -0.00000044
0.66402590 -0.65808725 -0.00000028
-0.16320735 0.14884998 -0.00000059
-0.65114158 -0.67582595 -0.00000004
-0.37481028 -0.12334083 -0.00000042
0.34494609 -0.60290700 -0.00000012
-0.46022844 0.37171787 0.01126207
-0.05026768 0.65461695 -0.00000091
0.48774600 0.11247882 -0.00000122
0.64207453 -0.42073798 -0.00000067
0.40398923 0.29704329 -0.00000131
0.18713409 -0.35582271 -0.00000028
-0.01555843 -0.10514213 -0.00000043
0.48041803 -0.04110118 -0.00000090
0.68631607 -0.40886956 -0.00000084
-0.62213653 0.59780526 0.14804973
-0.01516099 0.54046232 -0.00000084
-0.64016229 0.46929279 0.10909787
-0.37994269 -0.73408735 -0.00000004
-0.23027861 0.74719638 0.06256762
0.51358593 -0.65703386 -0.00000009
-0.59808213 -0.15108667 -0.00000019
-0.04147322 -0.54341972 -0.00000016
0.35878846 -0.17754497 -0.00000039
-0.49589092 -0.77204663 -0.00000002
-0.15679397 -0.27412891 -0.00000033
-0.19565967 -0.74356401 -0.00000004
-0.70359540 -0.01948813 -0.00000010
-0.49606156 0.19524401 -0.00000036
-0.70636588 0.60803723 0.18135203
-0.37683567 -0.57869589 -0.00000014
-0.49441236 -0.63023102 -0.00000011
-0.13668051 0.01097195 -0.00000051
-0.23053180 0.70994610 0.04952439
0.40828049 -0.78787971 -0.00000001
-0.23571154 -0.68213403 -0.00000007
-0.61554545 -0.55169725 -0.00000010
-0.67990857 -0.73110157 0.00000000
-0.24862872 -0.10465620 -0.00000043
-0.11184937 -0.51155430 -0.00000018
-0.53473747 -0.22254279 -0.00000024
-0.54870027 0.60171407 0.12353780
-0.53619528 0.12454768 -0.00000030
-0.56986159 -0.23503485 -0.00000020
0.08797774 0.34945476 -0.00000072
-0.15180276 0.16155478 -0.00000060
-0.50732917 -0.07075349 -0.00000030
0.29562381 -0.78843784 -0.00000001
0.10255845 -0.22020093 -0.00000036
0.61125898 -0.37043574 -0.00000067
0.47669056 -0.11690690 -0.00000074
-0.45395541 -0.39140508 -0.00000026
0.32065147 -0.06266199 -0.00000046
-0.07208046 -0.78940749 -0.00000001
0.72001588 -0.43061876 -0.00000090
-0.05281605 -0.45630574 -0.00000021
0.56406724 -0.46300873 -0.00000034
0.44255701 -0.23761041 -0.00000039
0.58132577 -0.79488313 -0.00000000
-0.06528410 -0.67721754 -0.00000008
-0.18049137 -0.41451362 -0.00000024
0.25251710 -0.55999273 -0.00000015
-0.10764006 0.13359602 -0.00000058
-0.54434299 -0.68301791 -0.00000007
-0.18679471 -0.00171932 -0.00000050
-0.35457620 0.11404499 -0.00000050
-0.52955139 0.64152020 0.13082039
0.29864642 -0.55813593 -0.00000015
-0.77674305 -0.41856438 0.00000000
-0.30639967 -0.61885691 -0.00000011
-0.16253209 -0.22637112 -0.00000036
0.44895658 -0.19480552 -0.00000050
0.02944509 -0.79181671 -0.00000001
0.34908172 -0.58249408 -0.00000014
0.71067792 -0.62904680 -0.00000043
-0.69586313 0.06899254 -0.00000012
0.03485487 0.16021813 -0.00000060
0.15585306 0.62606049 -0.00000116
-0.06564173 -0.17048678 -0.00000039
0.08050679 0.11934595 -0.00000057
0.46995276 0.26156104 -0.00000145
0.45458391 -0.20256813 -0.00000050
-0.52662575 0.06103789 -0.00000030
-0.47526285 0.44677258 0.04302294
-0.28588682 0.74782211 0.08239289
-0.39222047 0.24260759 -0.00000048
-0.10906569 0.27011383 -0.00000067
0.42264214 -0.38183028 -0.00000026
0.59910184 0.04841635 -0.00000145
-0.09014784 -0.30893746 -0.00000031
0.15888141 0.04870902 -0.00000053
0.49694386 -0.42442250 -0.00000023
0.41501600 -0.48400563 -0.00000020
-0.57723171 -0.70922661 -0.00000006
-0.70679212 -0.26227102 -0.00000005
-0.02634401 0.47634473 -0.00000080
-0.49054354 0.48658213 0.06244499
-0.19845600 -0.03411753 -0.00000048
-0.38918185 0.32437167 -0.00000050
-0.72072119 0.04726941 -0.00000009
-0.24789272 0.07815394 -0.00000055
0.61750770 -0.50399423 -0.00000043
0.29066724 -0.58972687 -0.00000013
-0.73339689 0.36205876 0.10416254
0.23800693 0.55399466 -0.00000128
-0.02915824 -0.33418760 -0.00000029
-0.48205474 -0.53717083 -0.00000016
-0.50857449 -0.20971692 -0.00000027
0.69329107 -0.15888098 -0.00000135
-0.43613303 -0.67108089 -0.00000008
0.64861733 -0.35309681 -0.00000083
-0.38005739 -0.70450044 -0.00000006
-0.01543205 0.69110560 -0.00000093
0.22849663 -0.70731473 -0.00000006
0.72233552 0.05264273 -0.00000185
-0.60697144 -0.55417269 -0.00000010
-0.70119458 0.02345178 -0.00000011
-0.46091980 -0.39378545 -0.00000025
-0.64386147 0.10130080 -0.00000019
-0.36164454 -0.39476758 -0.00000025
0.68177092 -0.20247220 -0.00000123
0.07050637 0.32036307 -0.00000070
0.64395624 -0.04582081 -0.00000141
-0.01947602 0.18251798 -0.00000061
0.18317507 0.03860053 -0.00000052
-0.28409633 0.65531462 0.04914835
-0.09143523 -0.26827002 -0.00000033
-0.07410404 -0.09453639 -0.00000044
0.33512205 -0.36230189 -0.00000027
-0.34996656 0.40093517 -0.00000055
-0.19636397 -0.09693337 -0.00000044
-0.68095082 -0.19599801 -0.00000009
0.14620145 -0.71958423 -0.00000005
-0.29676446 -0.20365301 -0.00000037
-0.72764152 0.73911500 0.23506393
-0.48256126 -0.34997535 -0.00000027
-0.45355511 -0.04482840 -0.00000036
0.28303540 0.45816651 -0.00000124
0.60869533 -0.52086544 -0.00000037
0.12508188 0.38147375 -0.00000074
0.69862252 -0.55944610 -0.00000058
-0.39084491 -0.37360790 -0.00000027
-0.32862386 -0.45195189 -0.00000022
0.54048586 -0.27008596 -0.00000064
-0.42915723 0.01249035 -0.00000040
-0.28429854 0.53380114 0.00638015
-0.70325041 0.37509090 0.09812885
0.34026915 -0.16155542 -0.00000040
-0.61719102 0.36400050 0.06387863
0.28997827 -0.59319979 -0.00000013
0.63197470 -0.25596949 -0.00000096
-0.35947761 -0.05986447 -0.00000046
-0.49011713 0.47249642 0.05732876
-0.42827567 -0.65224391 -0.00000009
0.29480851 -0.59301853 -0.00000013
0.02343492 -0.50678724 -0.00000018
-0.66203696 -0.02656801 -0.00000014
0.50328732 -0.48230433 -0.00000020
-0.34819579 -0.44525978 -0.00000022
-0.29331625 0.53795815 0.01102489
0.01038421 0.08227953 -0.00000055
0.22248171 -0.46593663 -0.00000021
0.19937335 -0.76573884 -0.00000002
-0.20132297 -0.48130614 -0.00000020
-0.56605226 0.36087996 0.04474946
-0.18623215 0.19758973 -0.00000062
-0.59943128 0.40968144 0.07372220
0.08100659 0.47822163 -0.00000080
-0.51126474 -0.24177523 -0.00000026
-0.25527099 -0.76165861 -0.00000002
-0.42561546 -0.34410933 -0.00000028
-0.30249655 -0.49503607 -0.00000019
-0.74465585 0.16204102 0.03761581
-0.00776982 -0.27201179 -0.00000033
-0.31036174 -0.45623100 -0.00000021
0.42759645 0.12826826 -0.00000106
-0.67469144 0.15455408 0.01031026
-0.11185647 0.24844277 -0.00000066
0.27700377 -0.38552266 -0.00000026
0.03362115 -0.52651888 -0.00000017
0.16862564 0.04706498 -0.00000053
-0.21765247 -0.12159530 -0.00000042
-0.61118698 -0.33103752 -0.00000014
0.45540157 0.00683034 -0.00000091
0.71416831 -0.07483641 -0.00000158
-0.60239196 -0.68408149 -0.00000007
0.15366729 0.38123804 -0.00000074
0.56788754 -0.66053957 -0.00000009
-0.31926116 -0.51720017 -0.00000018
-0.55150253 0.25788558 0.00330935
0.01035809 -0.57202506 -0.00000014
0.03368750 0.39368400 -0.00000075
0.42815873 -0.59708548 -0.00000013
0.50822109 -0.11513709 -0.00000084
0.24802582 -0.78724778 -0.00000001
0.21347737 -0.08912034 -0.00000044
-0.18699345 0.07368163 -0.00000055
-0.40211904 -0.37981632 -0.00000026
0.70294482 -0.01049940 -0.00000167
-0.64309919 0.32862073 0.06053945
0.13660856 0.31104174 -0.00000069
-0.21500693 0.78468198 0.07039904
-0.05117544 -0.56237775 -0.00000015
-0.10857266 -0.00423061 -0.00000050
-0.25092593 0.33809328 -0.00000065
0.58077091 -0.49121734 -0.00000034
-0.34511527 0.23717044 -0.00000053
-0.40270200 0.63756537 0.08470536
0.05562695 0.56335044 -0.00000085
-0.22944698 0.20718057 -0.00000063
0.32339713 -0.20572102 -0.00000037
0.17787714 0.00565744 -0.00000050
-0.59490943 -0.65625840 -0.00000009
-0.40402353 -0.73920155 -0.00000004
0.13992637 0.09662585 -0.00000056
-0.72217733 -0.43516257 -0.00000000
0.23313241 -0.19642431 -0.00000038
-0.30871767 0.70762211 0.07626950
-0.72972316 -0.74196416 0.00000000
-0.26346314 -0.43377540 -0.00000023
-0.31579566 -0.07839303 -0.00000045
0.72772002 -0.78988343 -0.00000003
-0.44544977 -0.35936368 -0.00000028
-0.04461815 0.46121362 -0.00000079
-0.71663791 0.28547409 0.07125428
-0.09584501 0.40547189 -0.00000075
-0.52469814 -0.20129773 -0.00000026
-0.19396362 -0.31562623 -0.00000030
-0.32932705 0.34932312 -0.00000057
-0.63831502 -0.12576166 -0.00000015
0.63162267 -0.33556110 -0.00000081
0.60704726 -0.55029261 -0.00000031
0.62750340 -0.69340181 -0.00000010
0.34017158 0.14260347 -0.00000081
-0.68430322 -0.55927384 -0.00000002
-0.21043172 -0.71687937 -0.00000005
-0.20522653 -0.14183125 -0.00000041
0.38584509 -0.16408378 -0.00000040
-0.25853187 -0.50687373 -0.00000018
-0.43470907 0.03884564 -0.00000040
-0.26069042 -0.21384130 -0.00000037
-0.02728089 0.50505745 -0.00000082
0.43234983 -0.17995077 -0.00000047
0.20134051 0.17900155 -0.00000061
0.27920240 0.04730851 -0.00000053
-0.50914979 -0.00455703 -0.00000031
0.63508743 -0.41073608 -0.00000067
0.11980578 0.67247730 -0.00000113
-0.65701276 -0.14794555 -0.00000013
-0.77361882 -0.57844305 0.00000000
-0.56902552 -0.12591285 -0.00000022
0.41307414 -0.71240473 -0.00000005
-0.40409005 -0.55226487 -0.00000015
0.28989491 0.26396665 -0.00000088
-0.57132518 0.56096905 0.11714967
0.04030523 0.42619053 -0.00000077
-0.40803176 -0.55883938 -0.00000015
0.15576883 -0.39287710 -0.00000025
-0.08616532 -0.00157911 -0.00000050
-0.11959125 0.48898870 -0.00000081
0.08910273 -0.08503677 -0.00000045
-0.62350392 -0.72314978 -0.00000005
-0.38162091 -0.17459069 -0.00000039
-0.54313791 0.31308568 0.01982114
-0.68588853 0.36209640 0.08742669
0.17026637 0.27934405 -0.00000067
-0.41316754 -0.52673942 -0.00000017
0.01296799 0.63495350 -0.00000090
0.79518694 -0.26571259 -0.00000134
-0.00578393 -0.50953698 -0.00000018
-0.63994759 -0.34928221 -0.00000011
0.03821618 -0.29199725 -0.00000032
-0.13129964 0.75942147 0.03198248
-0.64889324 0.66486192 0.18112347
-0.69250548 -0.66163701 0.00000000
0.36082295 -0.43784156 -0.00000023
0.43201452 0.30773851 -0.00000142
-0.44949645 -0.38242778 -0.00000026
-0.19678754 0.28145817 -0.00000068
0.46370858 -0.45063671 -0.00000022
0.08605896 -0.05274512 -0.00000047
-0.11689226 -0.77352524 -0.00000002
0.13534036 -0.29431942 -0.00000032
-0.46197686 0.42151815 0.02943553
0.72104788 -0.64146411 -0.00000040
-0.76343811 0.43633050 0.14093807
0.76366264 -0.59597844 -0.00000051
0.78202355 -0.32146454 -0.00000120
0.18117116 -0.46110094 -0.00000021
0.18542333 0.06371953 -0.00000054
0.59362423 -0.43925205 -0.00000048
0.36139411 0.42513251 -0.00000143
0.35249496 0.20387767 -0.00000097
-0.71278739 -0.65286970 0.00000000
-0.38861787 -0.33895540 -0.00000029
-0.25838062 0.58854723 0.01654345
-0.23020861 -0.72559404 -0.00000005
-0.76808316 -0.34761402 0.00000000
-0.03967466 0.69386047 -0.00000093
-0.21335758 0.64412826 0.02026560
-0.37706575 -0.11466954 -0.00000043
-0.11441136 0.05520747 -0.00000053
-0.62528628 0.14865711 -0.00000021
0.24163692 0.05637089 -0.00000054
-0.56930476 -0.76810014 -0.00000002
-0.35629228 -0.02029629 -0.00000047
0.10676300 -0.69420296 -0.00000007
-0.25641644 0.49501091 -0.00000067
-0.30040425 -0.64192522 -0.00000010
0.65461797 -0.42201164 -0.00000071
-0.75293207 -0.44482136 0.00000000
-0.58299971 -0.23413526 -0.00000019
-0.73491728 -0.66180557 0.00000000
-0.54790276 0.12820463 -0.00000029
-0.73411602 0.61073798 0.19208749
-0.34884775 -0.71271664 -0.00000005
0.58492672 0.06912391 -0.00000145
-0.57876068 -0.33033946 -0.00000018
0.69050491 -0.55280370 -0.00000057
-0.55040312 -0.52683955 -0.00000017
0.40896705 -0.14164625 -0.00000047
0.00881843 0.53094405 -0.00000083
-0.71096098 -0.40792027 -0.00000002
-0.27564627 0.28529701 -0.00000061
-0.58381277 0.47148409 0.09000434
-0.39296523 -0.31055737 -0.00000031
0.72928715 0.01885172 -0.00000181
-0.30674577 0.58623868 0.03278077
-0.00729485 -0.08354032 -0.00000045
0.41962492 -0.34509507 -0.00000028
0.07086034 -0.79819673 -0.00000000
0.24137145 0.41414049 -0.00000102
-0.02578049 -0.52241141 -0.00000017
0.45319557 0.25435758 -0.00000139
-0.72920996 0.37463114 0.10711883
-0.57684994 0.74043483 0.18236761
0.17639941 -0.73244715 -0.00000004
-0.76221246 0.14452454 0.03762998
-0.54542112 -0.73324388 -0.00000004
-0.78818154 -0.72867024 0.00000000
-0.68439376 -0.15601473 -0.00000009
0.05296265 0.20461221 -0.00000063
0.53607106 0.21074860 -0.00000157
-0.75717068 -0.50513357 0.00000000
0.13714656 -0.37630084 -0.00000026
-0.26734146 0.02595841 -0.00000052
-0.11972589 -0.14603844 -0.00000041
-0.58993500 -0.66572940 -0.00000008
0.35809502 0.03808395 -0.00000066
0.52283221 -0.28194070 -0.00000056
0.18314035 0.49229884 -0.00000099
-0.73753583 0.72636366 0.23405670
0.55829638 0.16620313 -0.00000155
-0.46973348 0.64493197 0.11093440
-0.19271065 0.49862576 -0.00000074
0.58478552 -0.56248099 -0.00000021
0.19001757 0.41887122 -0.00000086
0.77914423 -0.03424436 -0.00000187
-0.00481083 0.08773112 -0.00000055
-0.26166677 -0.10024539 -0.00000044
0.41143313 -0.39026320 -0.00000026
0.07352985 -0.32177284 -0.00000030
0.16240332 0.42847636 -0.00000080
0.30838257 -0.29173189 -0.00000032
0.64439934 -0.75026441 -0.00000004
-0.53789496 -0.57271099 -0.00000014
0.43493015 -0.73161346 -0.00000004
0.04274513 0.44676974 -0.00000078
-0.44600752 -0.62577903 -0.00000011
-0.66964132 0.00917528 -0.00000014
-0.36098218 0.49761596 0.02065798
-0.71696931 0.14500456 0.02184870
0.12067303 0.42886174 -0.00000077
-0.45064548 -0.28747585 -0.00000032
-0.49235633 0.32696012 0.00680948
0.10235494 0.27192649 -0.00000067
-0.20806745 -0.46246997 -0.00000021
-0.37998027 0.45528081 0.01243055
-0.26205021 0.11406216 -0.00000057
-0.65169621 0.21866302 0.02480483
-0.14141788 0.63757342 -0.00000082
0.14194259 -0.03865561 -0.00000048
0.08015457 0.11907220 -0.00000057
-0.52164650 0.09248646 -0.00000031
-0.52734631 0.22926398 -0.00000033
0.05199079 -0.10261704 -0.00000044
-0.35682985 0.30221674 -0.00000053
-0.43867293 0.36516768 0.00135338
0.00761640 0.64434683 -0.00000090
-0.64301181 -0.29934281 -0.00000011
-0.20523496 -0.52846652 -0.00000017
0.05913326 0.27422917 -0.00000067
-0.11227493 0.18376379 -0.00000061
0.00808397 0.78150064 -0.00000099
-0.27189684 0.40975803 -0.00000064
-0.59518564 -0.22035564 -0.00000018
-0.45527285 -0.64897358 -0.00000009
0.77841598 -0.72557563 -0.00000019
-0.00807026 0.18782203 -0.00000062
-0.08394909 0.20180739 -0.00000063
-0.13615444 -0.52245641 -0.00000017
-0.20282225 0.58630264 -0.00000074
-0.21460254 0.51697141 -0.00000072
-0.49203882 0.08289752 -0.00000034
0.01356477 -0.75303942 -0.00000003
-0.24619499 -0.31867540 -0.00000030
-0.17336318 -0.41968375 -0.00000024
-0.53054261 -0.15816593 -0.00000026
-0.74258465 0.30132025 0.08598838
0.39034620 -0.43340382 -0.00000023
0.51252609 -0.23382360 -0.00000062
0.07697095 -0.01978515 -0.00000049
0.52695388 -0.30433756 -0.00000053
0.48642513 0.25460631 -0.00000149
-0.42457721 -0.68820733 -0.00000007
-0.27815682 -0.13107558 -0.00000042
0.08805786 -0.37158367 -0.00000027
0.59597158 -0.37158629 -0.00000062
0.20596933 0.54390275 -0.00000116
0.50911945 0.27920642 -0.00000161
-0.66931963 0.14554064 0.00523876
-0.58946455 0.29844281 0.03099132
-0.38172695 0.21923883 -0.00000049
0.68601054 -0.09798009 -0.00000144
0.13839158 0.22296916 -0.00000064
0.43867233 -0.60777652 -0.00000012
0.27284470 -0.49762738 -0.00000019
0.23505273 0.21237025 -0.00000063
0.19915541 -0.62534481 -0.00000011
0.49069509 0.10151778 -0.00000121
-0.78364372 -0.73642057 0.00000000
0.63407046 0.12204472 -0.00000171
0.08167610 -0.13143773 -0.00000042
0.31786400 -0.53424162 -0.00000017
-0.61683154 0.22784209 0.01574933
-0.02310895 0.19985051 -0.00000062
0.57672769 -0.44951913 -0.00000041
-0.68652534 -0.37926158 -0.00000005
-0.26167652 -0.07762722 -0.00000045
-0.29832837 -0.09554532 -0.00000044
0.57396281 -0.52679610 -0.00000025
0.74231881 -0.60324311 -0.00000049
0.10966783 -0.36957094 -0.00000027
0.67273176 -0.49498785 -0.00000063
0.38718754 -0.50883913 -0.00000018
-0.03990666 0.78412515 0.00847110
0.20860511 -0.76855731 -0.00000002
-0.62907600 0.51820731 0.12243415
0.64269251 -0.73839974 -0.00000006
0.12760584 0.36280963 -0.00000073
-0.17295980 0.03099345 -0.00000052
-0.68291974 0.60997295 0.17376855
-0.00020442 -0.38662669 -0.00000026
-0.62658924 -0.59508795 -0.00000008
-0.55984741 -0.52698171 -0.00000016
0.68299061 -0.05753248 -0.00000151
-0.21160880 -0.41080523 -0.00000024
0.68797433 -0.18386552 -0.00000128
0.25598165 -0.74754256 -0.00000003
0.24114145 -0.70546430 -0.00000006
-0.11789271 0.64976460 -0.00000085
0.05639752 0.36892623 -0.00000073
0.19255173 -0.63931900 -0.00000010
-0.72293949 0.16034937 0.02936329
-0.15566671 0.04316988 -0.00000053
-0.70385593 -0.08949005 -0.00000009
0.27199671 -0.06260067 -0.00000046
-0.22989713 -0.49319255 -0.00000019
-0.48550227 -0.52690250 -0.00000017
-0.39836955 0.18718763 -0.00000046
0.13191122 -0.04088847 -0.00000047
0.54247916 -0.14189702 -0.00000090
-0.01565991 -0.16347754 -0.00000040
0.06638696 0.70278263 -0.00000102
0.62609315 0.01414299 -0.00000147
0.29220560 -0.06170426 -0.00000046
-0.77700156 -0.47082150 0.00000000
0.30786496 -0.52315789 -0.00000017
-0.70241451 0.41803405 0.11297374
0.35075843 0.40306604 -0.00000135
0.08395438 -0.11210816 -0.00000043
-0.54424095 0.51211792 0.09037869
-0.49472335 -0.67283481 -0.00000008
0.50548702 -0.72548336 -0.00000005
-0.37457097 0.69512212 0.09507926
0.67745966 -0.53479677 -0.00000056
0.05530946 -0.58244348 -0.00000014
0.17019318 0.17240877 -0.00000061
-0.73247558 0.18375364 0.04097641
-0.50728470 -0.60288858 -0.00000012
-0.51074982 0.18464647 -0.00000034
0.38092080 -0.52749377 -0.00000017
-0.58741736 -0.25124288 -0.00000018
0.41088709 0.23939146 -0.00000122
-0.52414066 -0.32214364 -0.00000024
0.53480822 -0.18046030 -0.00000080
-0.21565892 0.26264974 -0.00000066
-0.25321794 0.12022860 -0.00000058
0.61167514 -0.56665188 -0.00000029
-0.26072416 -0.58894640 -0.00000013
-0.19236746 -0.53133380 -0.00000017
0.72606349 -0.16559441 -0.00000144
0.04199277 0.22244684 -0.00000064
-0.20843036 -0.65891618 -0.00000009
-0.31106830 0.31903252 -0.00000058
-0.66916585 -0.25880831 -0.00000009
-0.72748077 0.68321466 0.21529970
0.41797739 -0.62017381 -0.00000011
-0.59673822 0.68250966 0.16895786
-0.63385111 0.07060316 -0.00000019
-0.62264168 -0.65930867 -0.00000007
-0.71920377 0.22868223 0.05213697
-0.11416783 -0.46139869 -0.00000021
-0.71134359 0.11925524 0.01078745
-0.70140356 0.54697901 0.15807664
0.51632613 -0.42015445 -0.00000027
-0.38840112 0.03415639 -0.00000045
0.73243159 -0.06221396 -0.00000166
-0.64042240 0.46419099 0.10739095
0.12727822 -0.71603644 -0.00000005
-0.00661205 -0.62721151 -0.00000011
-0.23380861 0.70371097 0.04848145
-0.37287125 -0.30561706 -0.00000031
0.31426483 -0.16240320 -0.00000040
-0.68609881 -0.26120824 -0.00000007
-0.20226312 0.52463526 -0.00000073
-0.46098885 -0.40612754 -0.00000025
-0.11256649 0.21253017 -0.00000063
0.15599966 -0.76935530 -0.00000002
0.08434923 -0.35012054 -0.00000028
0.24298480 -0.57837689 -0.00000014
0.74966961 0.02030752 -0.00000188
0.29083201 -0.14606193 -0.00000041
-0.68023592 -0.16762008 -0.00000010
0.79068500 -0.00910433 -0.00000195
-0.65148777 -0.32612291 -0.00000010
-0.09490243 0.78694832 0.02885518
0.43559510 -0.38723296 -0.00000026
-0.28423104 0.29912165 -0.00000061
0.45902559 -0.30487326 -0.00000031
0.32473183 0.39379343 -0.00000125
-0.65702021 0.72333264 0.20460233
0.68399841 -0.63293076 -0.00000039
-0.24671797 -0.19832116 -0.00000038
-0.11231583 -0.50228101 -0.00000019
-0.12563948 -0.32641479 -0.00000030
0.40497592 0.11969849 -0.00000097
-0.35897806 0.48941004 0.01705844
-0.63064039 -0.70492417 -0.00000005
-0.45890027 -0.79550606 -0.00000000
0.44463575 -0.49749070 -0.00000019
-0.11951479 -0.63067180 -0.00000011
-0.64510345 -0.27683437 -0.00000011
-0.65398031 -0.70809197 -0.00000003
-0.39913276 -0.02387250 -0.00000042
0.50073916 0.25543863 -0.00000154
-0.64725733 0.25246683 0.03515741
-0.38544604 0.01485600 -0.00000045
0.51891184 -0.76679993 -0.00000002
-0.13228908 -0.64404631 -0.00000010
-0.42869636 0.00912863 -0.00000040
-0.15511313 -0.60931754 -0.00000012
-0.03479891 -0.55962390 -0.00000015
0.07543642 -0.16529654 -0.00000040
0.76724058 -0.63563573 -0.00000041
0.16045402 0.01701807 -0.00000051
0.04745806 0.39368993 -0.00000075
-0.21608736 0.68162644 0.03444792
0.20458281 -0.11359442 -0.00000043
-0.61516494 -0.16584904 -0.00000017
-0.71094382 0.51251447 0.14928970
-0.12363676 -0.47778612 -0.00000020
-0.72621310 -0.24103186 -0.00000003
0.37191173 -0.10188389 -0.00000044
-0.61155874 -0.51829344 -0.00000011
-0.51933372 0.64464909 0.12832125
0.50807208 -0.26639977 -0.00000055
0.19163617 -0.04186094 -0.00000047
0.48943502 -0.67670858 -0.00000008
0.60716623 -0.64998752 -0.00000011
0.26917022 0.02705522 -0.00000052
-0.48679259 -0.51180738 -0.00000018
-0.33512327 -0.67560077 -0.00000008
-0.53393763 0.76349670 0.17536926
-0.78117013 -0.77199328 0.00000000
0.10339977 0.42442590 -0.00000077
0.25450793 -0.77381521 -0.00000002
0.23010705 0.52206969 -0.00000119
0.78021348 -0.49808022 -0.00000075
0.42731827 0.24492402 -0.00000128
-0.20683713 -0.79186130 -0.00000001
-0.13088998 0.17058448 -0.00000061
0.15760864 0.12748989 -0.00000058
-0.66754103 0.49039143 0.12618859
0.16807555 0.17469563 -0.00000061
0.49947849 0.10003582 -0.00000123
0.41207078 -0.53194600 -0.00000017
0.58000422 0.21652247 -0.00000172
-0.43530262 0.65320426 0.10171218
0.22928722 0.23024832 -0.00000064
0.37250382 0.42667401 -0.00000145
0.52271783 -0.35033208 -0.00000043
0.50645840 -0.74447119 -0.00000003
0.06463265 -0.42169660 -0.00000024
-0.30451763 0.67663211 0.06386334
-0.66594863 0.73097426 0.21044406
0.35266536 0.32354340 -0.00000120
0.25353226 0.35704407 -0.00000095
-0.39707661 -0.73910785 -0.00000004
0.12915619 -0.74530077 -0.00000003
0.32645693 -0.59676021 -0.00000013
0.36347374 0.13277707 -0.00000086
0.11365878 -0.65114242 -0.00000009
-0.18301152 0.23453747 -0.00000065
0.32366407 0.22847801 -0.00000092
-0.37015015 0.24643713 -0.00000050
-0.43844545 0.30537301 -0.00000044
0.44264814 -0.04110895 -0.00000078
0.15805654 -0.69441420 -0.00000007
0.47745800 0.03289145 -0.00000103
-0.10566997 0.13325216 -0.00000058
-0.21262090 -0.48219481 -0.00000020
-0.54029566 0.67913395 0.14786892
-0.60435295 0.20758326 0.00420776
-0.19967070 0.56985909 -0.00000074
-0.35814625 0.00105720 -0.00000047
-0.55734199 0.69085473 0.15801074
-0.78698087 -0.24533816 0.00000000
-0.46455413 0.16231193 -0.00000039
-0.44883791 0.75612903 0.14276990
0.54790133 -0.11116214 -0.00000098
-0.18532144 -0.23417461 -0.00000035
-0.07467792 0.55147362 -0.00000084
0.20435162 0.33954805 -0.00000076
-0.53004038 -0.58129537 -0.00000014
0.03159282 0.59277481 -0.00000087
-0.31867588 0.54000741 0.02068793
0.06480298 -0.67403674 -0.00000008
-0.21545461 -0.63663596 -0.00000010
0.44197562 0.04007733 -0.00000093
0.29140961 -0.43935788 -0.00000023
-0.28300697 0.59498459 0.02749499
-0.46818295 -0.39354876 -0.00000025
-0.56073636 0.45520437 0.07612934
0.39463902 -0.22876970 -0.00000036
-0.04934323 -0.73847735 -0.00000004
-0.16781273 -0.19376639 -0.00000038
-0.70364672 0.34038928 0.08603455
-0.21201622 0.77585000 0.06623098
0.05725379 -0.75627238 -0.00000003
-0.57171422 -0.41789094 -0.00000017
-0.64630157 -0.57476306 -0.00000006
0.37568644 0.10184175 -0.00000084
0.12178488 -0.74673647 -0.00000003
0.53676915 0.07289557 -0.00000130
-0.46931013 0.16166355 -0.00000038
-0.69330651 0.61192948 0.17812015
-0.59301406 -0.06810621 -0.00000021
-0.75712913 -0.47814736 0.00000000
-0.76473826 0.20865956 0.06113121
0.31701034 0.09304226 -0.00000064
-0.33895013 -0.15583345 -0.00000040
-0.21991578 -0.21027154 -0.00000037
-0.26118660 -0.72551990 -0.00000005
-0.17624433 -0.12364595 -0.00000042
0.39362699 0.38467127 -0.00000145
-0.11497260 -0.20124973 -0.00000037
0.06934510 -0.64747238 -0.00000010
-0.58034188 -0.09949048 -0.00000022
-0.09377906 0.17565218 -0.00000061
-0.42561781 0.32798567 -0.00000046
0.72963935 -0.35930854 -0.00000107
0.01172776 0.55912119 -0.00000085
-0.59164333 0.26748982 0.02084699
-0.43732241 -0.04986357 -0.00000038
0.34193718 -0.49931356 -0.00000019
-0.02168050 -0.68121338 -0.00000007
-0.18559593 -0.04988950 -0.00000047
-0.49968195 0.16222334 -0.00000035
-0.29574627 0.69552213 0.06743062
-0.51998132 0.14121528 -0.00000032
0.64997631 -0.74292964 -0.00000007
-0.57794970 0.50001121 0.09799452
0.60518324 -0.77745950 -0.00000001
-0.58979535 -0.48715201 -0.00000014
0.31428087 0.41445354 -0.00000125
-0.59119010 -0.33550522 -0.00000016
-0.67577881 -0.66106087 -0.00000001
0.46095687 -0.65272814 -0.00000009
-0.68862748 0.00771567 -0.00000012
-0.72931713 -0.21038458 -0.00000004
-0.00556200 0.15918212 -0.00000060
0.44703823 -0.15089095 -0.00000058
0.19520923 0.47703391 -0.00000099
-0.07429460 0.05068120 -0.00000053
0.67151612 0.07967561 -0.00000174
-0.48435107 0.14871565 -0.00000036
-0.43664670 0.74042821 0.13293660
0.41357157 -0.07473408 -0.00000062
0.72110337 -0.57006121 -0.00000057
0.15982473 -0.34231165 -0.00000029
-0.56532246 0.55680138 0.11356408
-0.66611487 -0.36145329 -0.00000008
0.50852853 -0.79063952 -0.00000001
-0.22023746 -0.34758782 -0.00000028
-0.21424739 -0.25309315 -0.00000034
-0.48371550 -0.71032757 -0.00000006
-0.22780593 0.48435622 -0.00000070
-0.29281041 -0.39010209 -0.00000026
-0.42217761 0.77028167 0.13836031
0.66190505 0.06916201 -0.00000169
-0.05093466 0.19213574 -0.00000062
-0.02106031 0.27426040 -0.00000067
-0.45491704 -0.47649783 -0.00000020
-0.16593890 0.02959549 -0.00000052
-0.69643235 -0.24309672 -0.00000007
0.00993801 -0.05043386 -0.00000047
0.18456157 0.22749566 -0.00000064
0.40338436 -0.31202143 -0.00000030
-0.63826114 0.44757506 0.10077106
-0.47540036 -0.46888229 -0.00000021
-0.29557836 -0.10725554 -0.00000043
-0.76395136 -0.50067526 0.00000000
-0.69500524 -0.01584904 -0.00000011
0.06109998 -0.16907838 -0.00000039
0.67137271 -0.78780353 -0.00000003
-0.16029087 0.50287479 -0.00000077
-0.10661881 -0.57758170 -0.00000014
0.37130240 -0.35138613 -0.00000028
-0.13908371 0.27176321 -0.00000067
-0.43576267 0.33376825 -0.00000045
-0.19633652 0.19132423 -0.00000062
0.53438514 0.06060008 -0.00000127
0.27417201 0.32007578 -0.00000094
-0.62585950 -0.54314268 -0.00000009
0.38336954 -0.79604995 -0.00000000
0.34290239 0.21481100 -0.00000096
0.30375078 0.16571341 -0.00000073
0.28984219 0.05748217 -0.00000054
-0.12578283 0.25122452 -0.00000066
0.32341021 -0.18409202 -0.00000038
0.21091604 -0.31581599 -0.00000030
-0.08964680 0.14494331 -0.00000059
-0.27701491 0.50074577 -0.00000065
-0.20611247 0.76143748 0.05906850
0.36384562 -0.35906470 -0.00000028
-0.29637185 -0.06796777 -0.00000046
0.76534778 -0.60043913 -0.00000050
-0.34009537 -0.43968722 -0.00000023
-0.34950101 0.65894175 0.07348555
0.00496124 0.23977502 -0.00000065
-0.71820712 0.03722556 -0.00000009
0.66734254 -0.59858787 -0.00000041
-0.61769229 0.18518026 0.00101240
0.28464809 -0.49610072 -0.00000019
-0.52268887 -0.70223576 -0.00000006
-0.39783928 -0.16462994 -0.00000040
0.02132637 0.51665968 -0.00000082
-0.62870675 -0.76801717 -0.00000002
0.31816697 0.04454465 -0.00000054
-0.14128380 0.11881297 -0.00000057
0.59344196 -0.14705952 -0.00000105
-0.01470495 -0.78471595 -0.00000001
0.13039923 0.51245594 -0.00000086
-0.18810470 -0.68847871 -0.00000007
-0.23763302 -0.77246118 -0.00000002
0.39346617 -0.45713300 -0.00000021
-0.53053802 -0.22005419 -0.00000025
0.00845185 0.49366623 -0.00000081
-0.36789691 0.13257915 -0.00000049
-0.46681571 0.50096470 0.05915029
0.28216967 -0.36456549 -0.00000027
-0.27831414 -0.08717326 -0.00000045
-0.64981490 -0.64071196 -0.00000004
-0.52309215 0.07062794 -0.00000031
-0.69792086 0.31148431 0.07382545
-0.76462710 0.39339420 0.12622008
-0.27909139 0.36640453 -0.00000062
-0.17866470 -0.30561361 -0.00000031
-0.39404780 -0.08029887 -0.00000042
-0.59156567 0.62016147 0.14515358
0.56478322 -0.23927785 -0.00000078
0.33172837 -0.15242140 -0.00000040
-0.45347875 -0.61377221 -0.00000012
-0.58842176 0.24045309 0.01017946
-0.59407371 -0.42128417 -0.00000014
0.22370698 0.50220799 -0.00000114
-0.77134371 -0.71172076 0.00000000
-0.47683510 0.07810250 -0.00000036
0.36567834 -0.78574902 -0.00000001
0.13096032 -0.48153242 -0.00000020
0.11629601 -0.00536320 -0.00000050
-0.48768762 0.70506328 0.13846327
0.44046861 0.35309011 -0.00000154
0.40484855 0.34896919 -0.00000142
-0.31949165 -0.47486717 -0.00000020
-0.65711212 -0.44242743 -0.00000007
0.45983455 -0.60384309 -0.00000012
0.39601102 -0.28269392 -0.00000032
0.07505537 -0.34818953 -0.00000028
0.00832414 -0.05392219 -0.00000047
-0.42364094 0.53331107 0.05533268
0.41460279 -0.01177055 -0.00000074
-0.39470330 0.36513278 -0.00000050
0.64914244 -0.34769371 -0.00000084
-0.17669903 0.25667509 -0.00000066
-0.48323369 0.15267219 -0.00000037
-0.38546839 -0.46918207 -0.00000021
0.08035731 0.37793002 -0.00000074
-0.32670352 0.76823628 0.10397979
-0.31799760 0.59850788 0.04107311
-0.10714357 0.78429973 0.03223704
0.75665849 -0.10219356 -0.00000166
-0.39453623 0.01197903 -0.00000043
-0.25482589 0.44264278 -0.00000066
-0.01336936 0.49615398 -0.00000081
-0.15027900 0.61135089 -0.00000081
-0.03179508 -0.47389346 -0.00000020
0.45471263 0.29683158 -0.00000147
0.06035092 0.34927991 -0.00000072
0.21045998 -0.23399308 -0.00000035
0.02865846 -0.18262747 -0.00000039
0.32043898 0.26727775 -0.00000099
-0.48296791 -0.32282010 -0.00000028
-0.08431152 -0.24196632 -0.00000035
-0.20692798 0.51455891 -0.00000073
-0.42262006 0.59947824 0.07829994
-0.54487371 -0.76012135 -0.00000002
-0.01387863 0.69330686 -0.00000093
-0.19615412 0.24469243 -0.00000065
0.28219599 -0.55137622 -0.00000016
0.43938285 -0.47748432 -0.00000020
0.01476112 -0.59158909 -0.00000013
-0.43617821 0.55597079 0.06774137
0.02347489 0.07505328 -0.00000055
0.37778074 0.07050283 -0.00000079
0.14743622 -0.75759929 -0.00000003
0.25666729 0.53398520 -0.00000130
-0.71909761 0.52346450 0.15602471
-0.71123290 -0.65260053 0.00000000
0.00419595 0.52014619 -0.00000083
0.19149946 0.08052845 -0.00000055
-0.24932557 0.58383822 0.01169094
-0.27915132 -0.63365114 -0.00000010
0.74817282 -0.67306572 -0.00000032
-0.17761829 0.58589369 -0.00000077
0.23845942 0.18634529 -0.00000062
0.19019251 0.20641518 -0.00000063
-0.20501269 -0.09813840 -0.00000044
-0.14212248 -0.11938860 -0.00000043
0.07866226 0.35711026 -0.00000072
-0.75729668 -0.27018988 0.00000000
-0.42633274 -0.42996630 -0.00000023
0.42602831 0.31091124 -0.00000141
0.39343584 -0.59230745 -0.00000013
-0.33197302 -0.52472103 -0.00000017
0.52959299 -0.56739384 -0.00000015
-0.76374620 0.21670146 0.06361663
0.16716023 -0.74305493 -0.00000004
-0.06798484 0.61522675 -0.00000088
-0.09532827 -0.23239386 -0.00000035
0.79814214 -0.58166748 -0.00000055
0.56294549 -0.42525026 -0.00000041
-0.54968083 -0.46913248 -0.00000018
-0.04605843 0.51111579 -0.00000082
-0.23929679 -0.64368963 -0.00000010
-0.11990312 -0.58629912 -0.00000013
0.44532329 -0.57483107 -0.00000014
-0.51490188 0.17632645 -0.00000034
0.57426268 -0.33868608 -0.00000062
0.28019589 0.33639318 -0.00000099
-0.23659673 -0.66662824 -0.00000008
0.14602813 -0.21559100 -0.00000037
0.03082406 0.04691951 -0.00000053
0.19581996 -0.13439243 -0.00000042
0.00670151 -0.55564964 -0.00000015
-0.43611887 0.75743282 0.13874546
-0.06900957 -0.79740161 -0.00000000
-0.68364197 -0.06142412 -0.00000011
-0.22076917 0.34830117 -0.00000068
-0.42652369 -0.53446478 -0.00000017
0.18408908 -0.63705295 -0.00000010
-0.52984017 -0.73891771 -0.00000004
0.27952954 -0.21240161 -0.00000037
0.04600041 0.53652978 -0.00000084
-0.67853844 0.26930454 0.05212173
-0.68639797 0.72996652 0.21729821
0.41075909 0.18127406 -0.00000111
-0.11951314 -0.11563234 -0.00000043
0.43583363 -0.63615555 -0.00000010
0.32008201 0.05909644 -0.00000058
0.57781410 0.00191664 -0.00000129
-0.78420013 -0.62120563 0.00000000
-0.77871430 -0.49216405 0.00000000
0.09995704 0.65843880 -0.00000104
-0.24482489 0.11665262 -0.00000057
0.29931438 -0.47297770 -0.00000020
-0.14331324 -0.73544371 -0.00000004
0.75183135 -0.46649319 -0.00000083
-0.31546149 0.61323977 0.04537271
-0.38212001 -0.65985268 -0.00000009
0.66203785 0.01945981 -0.00000160
-0.10060101 -0.58829403 -0.00000013
-0.23257780 0.71030927 0.05037373
-0.15450190 -0.24989416 -0.00000034
0.24771509 0.07606991 -0.00000055
0.69351119 -0.23121382 -0.00000121
-0.63085443 0.27291343 0.03658299
-0.38454235 -0.76633996 -0.00000002
-0.55622840 -0.02320277 -0.00000026
0.17748033 -0.78425682 -0.00000001
0.08153478 0.12536424 -0.00000058
0.21465185 0.02374251 -0.00000051
-0.46102840 0.59459215 0.09011826
0.06679491 -0.22435351 -0.00000036
0.61298734 -0.04632322 -0.00000131
0.37156779 0.33768392 -0.00000129
0.52897555 -0.31280112 -0.00000052
0.24271899 -0.25933430 -0.00000034
0.18849050 -0.35173151 -0.00000028
0.20392092 -0.41632378 -0.00000024
-0.15055645 0.68600076 0.01288711
0.16885149 -0.67069805 -0.00000008
-0.63964939 0.29322654 0.04684502
0.27438554 0.25291023 -0.00000081
-0.32345617 0.26147050 -0.00000056
-0.41714248 -0.54982859 -0.00000016
0.53400350 0.01424345 -0.00000118
-0.08657156 0.21510856 -0.00000063
0.71451938 -0.30029860 -0.00000114
0.16269556 0.46028149 -0.00000086
0.69072342 -0.67437774 -0.00000031
-0.69449222 -0.35454315 -0.00000005
-0.61288977 -0.40657535 -0.00000013
-0.33165100 0.54026484 0.02535308
-0.64285809 -0.10175537 -0.00000015
0.61706513 0.17119539 -0.00000175
-0.24021073 0.66707504 0.03782257
0.57516080 -0.76481467 -0.00000002
-0.02557573 -0.35256979 -0.00000028
0.61725116 -0.48854801 -0.00000046
0.18071441 0.36083940 -0.00000073
-0.27814797 0.02629614 -0.00000052
0.30398169 0.41263047 -0.00000122
-0.48244905 0.73967910 0.14882013
-0.75683194 -0.28727829 0.00000000
0.04456857 -0.37157154 -0.00000027
-0.20450374 0.53207123 -0.00000073
-0.58572876 0.48977602 0.09712864
0.73999125 -0.29181293 -0.00000124
-0.28387564 -0.56697255 -0.00000015
-0.26127800 0.61634731 0.02736584
0.03844199 0.19120027 -0.00000062
0.24901111 -0.73718655 -0.00000004
-0.16502275 0.73059732 0.03370970
0.42348930 -0.29165405 -0.00000032
0.65542138 -0.31619802 -0.00000092
-0.27403218 0.07726515 -0.00000055
0.37998068 0.19192530 -0.00000103
0.32583368 -0.05111045 -0.00000047
-0.19274236 -0.34911561 -0.00000028
-0.14301351 -0.65782237 -0.00000009
0.66689408 -0.00957090 -0.00000156
0.11341173 -0.05622262 -0.00000046
0.32504669 0.21952364 -0.00000091
0.03406192 -0.03615359 -0.00000048
0.42190817 -0.78658307 -0.00000001
0.39782968 0.29641765 -0.00000129
0.03783974 -0.42251354 -0.00000024
-0.73994285 0.32512578 0.09344963
-0.32741246 0.57469249 0.03599621
-0.49025142 -0.22836334 -0.00000029
0.32066780 0.33212200 -0.00000111
0.75898266 -0.65445191 -0.00000036
0.28135648 -0.63127589 -0.00000011
-0.60519356 0.09187511 -0.00000022
-0.51335746 0.20905909 -0.00000034
0.63188440 -0.22982889 -0.00000101
-0.04443297 -0.67948312 -0.00000008
-0.15569142 0.23480818 -0.00000065
-0.46112803 0.36997661 0.01096534
0.01983773 0.09112059 -0.00000056
0.79104781 -0.59349716 -0.00000052
0.04591695 -0.72297019 -0.00000005
-0.06690386 -0.61233157 -0.00000012
0.32231265 -0.01082792 -0.00000049
0.72686559 -0.23251808 -0.00000131
0.66533172 0.02477146 -0.00000162
-0.47473076 -0.68457025 -0.00000007
-0.01543659 0.02537461 -0.00000052
-0.27678752 0.72310364 0.07047052
-0.71083564 0.35888723 0.09509044
-0.73460990 -0.65301245 0.00000000
-0.53177917 -0.19300608 -0.00000025
-0.39424780 0.47137722 0.02313536
-0.41043910 -0.04356867 -0.00000041
0.26185763 -0.31765842 -0.00000030
-0.34832621 -0.02790239 -0.00000048
0.26233748 0.20474453 -0.00000068
-0.73325366 0.32748640 0.09192360
0.69948226 -0.20865615 -0.00000127
-0.57678807 -0.04009924 -0.00000023
-0.60084844 0.48139894 0.09950577
-0.05883499 0.27230492 -0.00000067
0.17226727 -0.41008055 -0.00000024
-0.75664747 0.11409035 0.02493849
-0.32707679 0.35017952 -0.00000057
-0.36481321 0.10161371 -0.00000048
-0.49519324 0.65673268 0.12407055
-0.45270392 0.25062120 -0.00000042
0.18580087 -0.47713417 -0.00000020
-0.54948133 0.25459069 0.00143515
0.11255680 0.29162359 -0.00000068
0.31150395 -0.09961641 -0.00000044
-0.73240525 0.00140413 -0.00000007
0.58457673 -0.13679697 -0.00000104
0.59102142 -0.20200385 -0.00000094
-0.26853299 0.26610717 -0.00000062
-0.24413349 -0.40848824 -0.00000024
-0.44999975 0.39665544 0.01644766
-0.45798272 -0.48507881 -0.00000020
0.14172006 0.29902032 -0.00000069
-0.34430793 -0.76635092 -0.00000002
0.25801307 -0.32573459 -0.00000030
0.53155553 -0.49984813 -0.00000019
-0.63792914 0.48812658 0.11495043
0.57995921 0.02497380 -0.00000134
0.42079034 -0.26932281 -0.00000033
-0.20645371 -0.03077678 -0.00000048
-0.28756183 0.09652665 -0.00000056
-0.50185335 -0.72180593 -0.00000005
0.38240656 -0.02474272 -0.00000062
-0.12200299 0.00167430 -0.00000050
-0.14689299 -0.72014415 -0.00000005
-0.63215166 -0.16569752 -0.00000015
0.12873644 -0.08200635 -0.00000045
-0.32451215 0.64646810 0.06027815
-0.63385773 0.30843937 0.05016645
-0.13160001 0.29988760 -0.00000069
0.06108641 0.64557332 -0.00000090
0.67594272 -0.67492533 -0.00000029
-0.53556830 -0.69004214 -0.00000007
-0.48967245 -0.74772716 -0.00000003
-0.48681685 0.70407981 0.13780957
-0.68428266 -0.19437645 -0.00000009
-0.03381136 0.30433282 -0.00000069
-0.24066645 -0.16603181 -0.00000040
0.39339086 -0.31809208 -0.00000030
0.31367666 0.09076146 -0.00000062
0.66297668 -0.06051763 -0.00000144
-0.03032137 0.15736476 -0.00000060
-0.67483109 -0.30591115 -0.00000008
-0.75146019 -0.02032263 -0.00000005
-0.56710094 0.38689810 0.05429185
-0.51704407 -0.72613817 -0.00000005
0.03449012 -0.45427588 -0.00000022
-0.53332341 0.56004196 0.10342527
0.06291731 -0.59113121 -0.00000013
0.16760142 -0.04667880 -0.00000047
-0.13437845 -0.27089423 -0.00000033
-0.72594339 -0.63244295 0.00000000
0.33361837 -0.30968031 -0.00000031
0.62578356 -0.79985678 -0.00000000
-0.12451541 -0.26640067 -0.00000033
0.34183809 -0.76179600 -0.00000002
-0.01975596 0.00971310 -0.00000051
-0.39008397 0.58427405 0.06146910
0.37071791 -0.60360527 -0.00000012
0.26523861 -0.13674492 -0.00000041
-0.18819381 -0.28327608 -0.00000032
-0.04616190 -0.02247325 -0.00000049
0.68343908 -0.61574405 -0.00000043
-0.76936865 -0.23372397 0.00000000
0.29142606 -0.41846266 -0.00000024
0.43271026 -0.10782651 -0.00000061
-0.02669413 0.22424619 -0.00000064
0.22656646 0.05202977 -0.00000053
0.03565679 0.71197659 -0.00000094
-0.69370490 0.03246753 -0.00000012
-0.34553590 0.56541818 0.03911600
-0.67529798 0.60205883 0.16829136
0.01387128 0.16371647 -0.00000060
-0.35378364 -0.53498727 -0.00000017
0.53780866 0.16288850 -0.00000148
0.27431223 -0.49723276 -0.00000019
-0.52127975 -0.25497785 -0.00000025
0.68817604 -0.41277450 -0.00000084
0.58949000 0.17433268 -0.00000167
0.61269593 -0.34203717 -0.00000073
-0.42250592 0.50258017 0.04409837
-0.10449044 -0.03411022 -0.00000048
