ply
format ascii 1.0
element vertex 1370
property float x
property float y
property float z
end_header
-0.30115879 0.12865379 -0.00000056
0.05132976 -0.42211390 -0.00000024
-0.29961839 -0.17393565 -0.00000039
-0.14828578 0.70920128 0.04209200
-0.27015218 -0.60416442 -0.00000012
-0.63776749 0.67703456 0.37694913
-0.55507219 -0.63659084 -0.00000010
-0.22309323 0.23674770 -0.00000065
0.02194130 0.21278799 -0.00000063
0.78657657 -0.76897258 -0.00000008
-0.41696650 0.36182302 -0.00000047
-0.62758601 0.10984291 -0.00000020
-0.38675541 -0.76502895 -0.00000002
0.68555826 -0.58257562 -0.00000050
0.74408120 -0.37234759 -0.00000107
0.61078346 -0.71407801 -0.00000005
0.16589543 -0.71180713 -0.00000006
-0.33388531 0.14448451 -0.00000052
-0.12503216 0.18238044 -0.00000061
0.28696567 0.30787283 -0.00000096
0.44579887 -0.53967643 -0.00000016
0.05654499 0.60189277 -0.00000088
-0.35269055 0.48385262 0.02675704
-0.11669821 0.38840333 -0.00000074
-0.23018669 -0.79898190 -0.00000000
0.33925772 -0.69200563 -0.00000007
-0.08679992 -0.34040862 -0.00000029
-0.51508003 -0.09968085 -0.00000029
-0.19481543 -0.10686293 -0.00000043
-0.56130582 -0.74020416 -0.00000004
0.32799873 0.18821664 -0.00000086
-0.00582366 0.07812267 -0.00000055
0.77526683 -0.50500226 -0.00000074
0.61092067 0.10599754 -0.00000160
0.15684921 -0.43913934 -0.00000023
0.34406886 -0.13637529 -0.00000041
-0.06625568 -0.38386810 -0.00000026
-0.47560623 -0.38076451 -0.00000026
-0.61775184 -0.04803822 -0.00000019
-0.74070442 0.09315333 0.02479194
-0.39243960 -0.63018948 -0.00000011
0.38931310 0.24145840 -0.00000116
-0.70067447 -0.50846142 -0.00000001
-0.53969520 -0.12815750 -0.00000025
-0.57564461 -0.47271726 -0.00000015
-0.35212377 0.22834808 -0.00000052
0.32014683 0.34266865 -0.00000113
0.62451792 -0.61816508 -0.00000023
-0.17424661 0.14488831 -0.00000059
0.02013566 0.35215428 -0.00000072
0.25898260 -0.41940108 -0.00000024
-0.72936529 -0.76363301 0.00000000
0.63301861 -0.24224240 -0.00000099
-0.54327226 0.37738058 0.08834459
0.71122003 -0.22021233 -0.00000129
-0.03914101 0.78080130 0.01460055
0.18752509 -0.58558214 -0.00000013
-0.55385900 -0.74826390 -0.00000003
-0.26512209 -0.18572430 -0.00000038
-0.31490451 -0.10727016 -0.00000043
0.13634501 -0.03937294 -0.00000048
0.21630362 0.14657471 -0.00000059
0.57974625 -0.36258924 -0.00000059
0.05944834 0.65945607 -0.00000092
-0.75446135 -0.64621180 0.00000000
0.02362643 0.24438635 -0.00000065
0.45498288 0.12053710 -0.00000113
-0.73746598 0.20287755 0.10276311
0.35177928 -0.47428757 -0.00000020
-0.78139043 -0.43538788 0.00000000
0.00736292 -0.14073694 -0.00000041
0.37767804 0.15898512 -0.00000096
0.11704760 -0.04910169 -0.00000047
-0.72101277 0.07957295 0.00042935
-0.43041730 0.30198202 -0.00000045
0.14784536 -0.02449215 -0.00000048
0.77307981 -0.11363749 -0.00000169
0.71039081 -0.56027955 -0.00000060
0.52331537 0.20292848 -0.00000151
-0.57241648 0.55732960 0.24144720
-0.63937229 0.59213775 0.31596103
0.07642640 -0.46609819 -0.00000021
0.46596926 -0.08971713 -0.00000076
-0.10843814 0.02754142 -0.00000052
0.42531210 0.16545320 -0.00000112
0.61928326 -0.52827340 -0.00000039
0.50216711 -0.30053881 -0.00000046
0.58376664 -0.71077657 -0.00000006
-0.07663537 0.53914171 -0.00000084
-0.19486788 0.70856959 0.07573799
-0.78049666 -0.53492653 0.00000000
0.16624472 -0.20270205 -0.00000037
-0.37087032 0.53457022 0.07720528
0.43418875 0.09549063 -0.00000102
-0.26619720 0.40099552 -0.00000064
0.21151710 -0.13545921 -0.00000042
0.02582873 -0.63197893 -0.00000011
-0.68951309 -0.43894371 -0.00000004
-0.61527884 0.37494844 0.13928872
0.65547568 0.02524118 -0.00000159
-0.12197684 -0.70809203 -0.00000006
-0.67097062 0.45309901 0.23729113
0.31804487 -0.51913434 -0.00000018
-0.09212424 0.13290755 -0.00000058
-0.33558404 -0.63662755 -0.00000010
-0.56535333 0.14256555 -0.00000028
0.09377729 0.51228124 -0.00000082
0.72105742 -0.04314142 -0.00000166
0.11427146 -0.65419579 -0.00000009
0.17692411 0.31332055 -0.00000070
0.19299495 0.55611145 -0.00000114
0.24487951 0.51892275 -0.00000124
0.72543865 -0.31993312 -0.00000114
-0.39632124 -0.19722646 -0.00000038
-0.58646721 0.11590523 -0.00000025
-0.15474392 -0.31141475 -0.00000031
-0.32718831 0.65852427 0.13598202
0.21353559 0.05969542 -0.00000054
-0.21068184 -0.68880147 -0.00000007
-0.36877513 0.28935760 -0.00000051
-0.50513411 0.51527607 0.16138895
0.76694453 -0.14105789 -0.00000162
0.06677641 0.28286031 -0.00000068
-0.45290345 0.48953333 0.10429498
-0.59568375 0.13054214 -0.00000024
-0.58501834 -0.08816879 -0.00000021
0.18085355 -0.34400746 -0.00000028
-0.67435265 0.34523699 0.16078867
-0.31709719 -0.57708716 -0.00000014
-0.79620838 -0.13386033 0.00000000
0.54505521 -0.02311132 -0.00000114
-0.37387696 0.32420620 -0.00000051
-0.41616052 -0.63628888 -0.00000010
-0.08703653 0.01495301 -0.00000051
-0.03811825 0.40174878 -0.00000075
-0.71552169 -0.29128018 -0.00000004
0.32262486 -0.31802779 -0.00000030
-0.54431230 0.28524724 0.02164410
-0.39661226 0.18393975 -0.00000046
0.17710944 0.58956945 -0.00000116
-0.49355546 0.12865056 -0.00000035
-0.26061082 -0.30806118 -0.00000031
-0.27356088 0.74947023 0.16330719
-0.42364350 -0.66691381 -0.00000008
-0.16732574 0.57809830 -0.00000078
0.48917928 0.01379735 -0.00000103
-0.46433100 -0.60515022 -0.00000012
-0.03431423 0.37942839 -0.00000074
0.48728564 -0.61595339 -0.00000012
-0.14241435 -0.43744686 -0.00000023
0.70173299 -0.40881053 -0.00000089
0.00785195 -0.35951373 -0.00000028
-0.71075177 0.21439011 0.09163205
0.09064002 0.33763272 -0.00000071
-0.79582703 -0.22074434 0.00000000
-0.72178811 -0.40081760 -0.00000001
0.26281902 0.30694419 -0.00000088
-0.65282083 -0.42068493 -0.00000008
-0.59339118 -0.33054602 -0.00000016
-0.23409228 0.55798900 -0.00000071
-0.39550221 0.10337409 -0.00000045
0.47916111 0.01897293 -0.00000101
-0.00267883 -0.13904554 -0.00000041
-0.52103102 0.00251983 -0.00000030
-0.55837834 -0.20979206 -0.00000022
0.60643190 -0.43979862 -0.00000052
-0.15875681 0.40632212 -0.00000075
0.04048000 0.07833361 -0.00000055
-0.53787136 0.15286762 -0.00000031
0.24528934 0.53839129 -0.00000127
0.35151809 -0.30821446 -0.00000031
0.40171582 -0.06136871 -0.00000061
0.34435764 -0.27433121 -0.00000033
-0.11203713 -0.57753992 -0.00000014
0.15591443 -0.50161362 -0.00000019
-0.60718524 0.44003099 0.18101726
0.14144322 -0.01818386 -0.00000049
0.15525651 -0.75024450 -0.00000003
-0.64743567 0.57393265 0.30853510
0.01819879 0.26890972 -0.00000067
-0.34159854 -0.17369273 -0.00000039
0.76696366 -0.35397840 -0.00000112
-0.01702309 -0.35749251 -0.00000028
-0.51884413 -0.38061598 -0.00000023
0.03966897 -0.77447063 -0.00000002
0.68645567 0.03002525 -0.00000170
0.69830889 -0.30794141 -0.00000107
-0.47332689 0.06204729 -0.00000036
-0.72948080 -0.34261701 -0.00000001
-0.27415025 0.18841556 -0.00000060
0.14316167 0.57179767 -0.00000101
-0.26270691 0.70309204 0.12140060
0.58878154 -0.27801007 -0.00000078
-0.23123780 -0.72552437 -0.00000005
0.19622670 -0.65780121 -0.00000009
-0.08474794 0.42748955 -0.00000077
0.28849408 0.40927505 -0.00000116
0.27616858 -0.75238645 -0.00000003
0.02441979 -0.23710817 -0.00000035
0.40919065 -0.30983323 -0.00000031
-0.64940286 0.45043120 0.21954530
0.61299855 -0.31848487 -0.00000078
0.47485515 -0.36213338 -0.00000027
-0.28122368 0.33483845 -0.00000061
0.79982233 -0.05444032 -0.00000186
-0.02228496 0.47985554 -0.00000080
0.07329768 -0.51952171 -0.00000018
0.02216807 0.62350124 -0.00000089
-0.05903388 0.40907317 -0.00000076
-0.25168112 0.69507879 0.10745977
-0.01837944 0.05332051 -0.00000053
-0.24528354 0.58572805 0.02270635
-0.08570647 0.70543814 -0.00000089
-0.27712041 -0.35697123 -0.00000028
-0.68051690 -0.24948882 -0.00000008
0.60135794 -0.77529168 -0.00000002
-0.05060196 -0.45139906 -0.00000022
0.02334923 0.74101293 -0.00000096
-0.02004968 0.65749931 -0.00000091
-0.71544951 -0.64228284 0.00000000
0.48104426 -0.69085592 -0.00000007
-0.08214604 0.29531533 -0.00000068
0.53273588 -0.30395904 -0.00000055
0.38611379 -0.53664804 -0.00000016
0.10036895 -0.30518475 -0.00000031
0.79596919 -0.50379276 -0.00000074
-0.04692020 0.73152989 -0.00000094
-0.18838950 -0.77060390 -0.00000002
0.12973101 -0.58302480 -0.00000014
-0.17570475 0.21949273 -0.00000064
-0.19554412 -0.25761753 -0.00000034
0.40485296 -0.16118525 -0.00000042
-0.19655973 -0.06067503 -0.00000046
0.66243535 -0.77779019 -0.00000004
0.35290095 -0.58340961 -0.00000014
0.40098560 -0.70449251 -0.00000006
0.07218593 0.18688411 -0.00000062
0.38338670 0.12516692 -0.00000091
-0.29400295 0.30865550 -0.00000060
-0.73944467 -0.72706544 0.00000000
-0.27419627 -0.29088506 -0.00000032
0.36699471 0.15713771 -0.00000092
-0.12160679 -0.62962806 -0.00000011
0.11084819 0.18688920 -0.00000062
0.12538393 -0.76401603 -0.00000002
-0.21882561 -0.23206010 -0.00000035
-0.78837377 -0.12635195 0.00000000
-0.75238305 -0.48209336 0.00000000
0.01155098 -0.70702612 -0.00000006
0.13385341 -0.20531254 -0.00000037
-0.74839801 -0.44808808 0.00000000
-0.59821606 0.59878498 0.29069272
-0.21100000 0.19761407 -0.00000062
-0.02547946 -0.39354527 -0.00000025
-0.16944979 0.19271979 -0.00000062
0.43212560 0.11497677 -0.00000105
-0.66979581 0.03113074 -0.00000014
0.24779510 0.33289868 -0.00000088
-0.73356324 -0.21678430 -0.00000003
0.03359277 0.18433809 -0.00000062
-0.65587223 -0.29936513 -0.00000010
0.30302885 0.02408191 -0.00000052
-0.10648373 -0.33385238 -0.00000029
0.24123913 -0.22649115 -0.00000036
-0.21592025 0.15932165 -0.00000060
0.03206358 -0.41553023 -0.00000024
-0.53150624 -0.53306282 -0.00000017
-0.69237787 0.34600875 0.17455228
-0.67054152 0.48131993 0.25764084
-0.47580948 -0.21226160 -0.00000031
0.21380877 0.09379119 -0.00000056
-0.52238613 -0.09355515 -0.00000028
0.31337228 -0.23889320 -0.00000035
-0.19231458 0.23240635 -0.00000065
0.33216706 -0.19425070 -0.00000038
0.38169879 0.00781968 -0.00000068
-0.13768187 -0.77316254 -0.00000002
-0.31192222 -0.03180816 -0.00000048
-0.29611886 0.54294157 0.02860005
0.12766682 -0.67406029 -0.00000008
0.17721900 0.25963107 -0.00000066
0.71088725 -0.77009863 -0.00000007
-0.35465381 0.07592035 -0.00000049
-0.40746695 0.62473673 0.17002404
0.25330624 0.52960604 -0.00000128
-0.03595880 -0.53488815 -0.00000017
0.32216975 -0.32698366 -0.00000030
-0.47684458 0.05494743 -0.00000035
-0.23252933 -0.60791838 -0.00000012
0.33372751 0.10168409 -0.00000071
-0.69469970 -0.16631971 -0.00000008
-0.63493890 0.28607726 0.08861087
0.22725879 -0.79100609 -0.00000001
-0.44446662 0.17899796 -0.00000041
-0.74897349 -0.32901248 0.00000000
-0.15892781 0.76558244 0.09116781
-0.52477086 0.16110696 -0.00000032
0.28071234 -0.75690138 -0.00000003
-0.57627505 0.16834347 -0.00000027
-0.41556817 0.02167368 -0.00000041
-0.00994315 -0.72785759 -0.00000005
0.10722947 -0.72868365 -0.00000004
-0.23799907 0.53381884 -0.00000070
0.19419487 -0.46619809 -0.00000021
0.25049126 -0.45078838 -0.00000022
-0.17827629 -0.52191001 -0.00000017
0.30548531 -0.56254190 -0.00000015
0.36682194 -0.57251835 -0.00000014
-0.35256433 -0.73933643 -0.00000004
0.44302660 -0.52523023 -0.00000017
0.27022916 -0.01529793 -0.00000049
-0.29093349 0.26001325 -0.00000059
-0.47323155 0.41067126 0.06143518
0.77526844 -0.32177678 -0.00000120
-0.64852786 0.50334650 0.25765023
-0.09947284 -0.58141339 -0.00000014
0.71367365 -0.03497760 -0.00000166
-0.48628372 -0.28331700 -0.00000028
-0.49563333 0.63608885 0.24289382
-0.57798702 0.14401460 -0.00000026
-0.28555223 0.05101092 -0.00000053
0.29691869 -0.17807390 -0.00000039
0.06183774 0.33031169 -0.00000071
-0.13069102 0.69538134 0.01908940
-0.61740589 0.54714692 0.26693356
0.25199112 -0.53563470 -0.00000017
0.35764518 -0.60273975 -0.00000012
0.32390627 -0.22597072 -0.00000036
0.33869690 -0.55853438 -0.00000015
-0.56537652 -0.79479218 -0.00000000
0.22876644 -0.63060194 -0.00000011
-0.68570018 0.19094211 0.05611954
-0.38996175 0.19129539 -0.00000047
-0.48268431 0.54718226 0.16831304
0.26624617 -0.19982798 -0.00000038
0.31692243 0.16139169 -0.00000077
0.30807886 0.38795915 -0.00000118
-0.29462913 0.06250766 -0.00000054
-0.45742482 0.01800918 -0.00000037
0.69419456 -0.26463035 -0.00000115
-0.52873635 0.44057333 0.12397213
0.75286716 -0.27178431 -0.00000132
0.00901298 0.15504181 -0.00000060
-0.53896886 0.37713876 0.08501646
0.34298617 -0.26299274 -0.00000034
-0.48675889 0.21733721 -0.00000037
-0.31848329 0.14458197 -0.00000054
0.25467446 -0.30570140 -0.00000031
-0.69669455 -0.58088917 -0.00000000
-0.62073743 -0.75485802 -0.00000003
-0.20516253 -0.23294990 -0.00000035
0.43349358 0.00392308 -0.00000083
-0.20366129 0.55442816 -0.00000074
-0.53346521 -0.05197751 -0.00000027
0.23053834 0.18430749 -0.00000062
-0.47482777 0.41340593 0.06460635
0.54118836 -0.78930074 -0.00000001
0.68128121 -0.78192300 -0.00000005
0.63343716 0.04113629 -0.00000155
-0.40268835 -0.10030142 -0.00000041
0.42102620 0.17426594 -0.00000113
-0.37245482 0.17003100 -0.00000049
0.74057150 -0.44423944 -0.00000089
-0.28094980 0.33763894 -0.00000062
-0.73628157 -0.79815918 0.00000000
-0.21155521 0.41015878 -0.00000070
0.10377380 0.34990865 -0.00000072
0.11619821 0.65039939 -0.00000108
-0.19342031 0.63551730 0.02118760
0.01759124 -0.08227975 -0.00000045
-0.48623964 -0.53198230 -0.00000017
-0.69125527 -0.09023405 -0.00000010
-0.03990602 -0.15088266 -0.00000041
-0.48401195 0.00680201 -0.00000034
-0.00390865 -0.53883004 -0.00000016
0.22481237 0.40660596 -0.00000095
-0.75805408 0.04120995 -0.00000005
0.03004393 0.51239324 -0.00000082
-0.33361119 -0.19709837 -0.00000038
0.76025474 -0.70117271 -0.00000025
-0.08854649 -0.78561097 -0.00000001
0.31334767 0.15903392 -0.00000075
0.03883024 -0.45401293 -0.00000022
0.48454022 0.15121031 -0.00000129
0.22041865 -0.41479370 -0.00000024
0.17928421 -0.11392620 -0.00000043
0.10357778 0.66103905 -0.00000106
-0.51501703 0.43475106 0.10966331
-0.58650160 -0.41976959 -0.00000015
0.10893064 0.11660707 -0.00000057
-0.24521483 -0.51144528 -0.00000018
-0.59998506 0.26224142 0.04556368
0.11315750 -0.44405213 -0.00000022
0.20850496 0.04913811 -0.00000053
-0.70235240 0.52929711 0.31606343
0.44868317 -0.79388434 -0.00000000
-0.07914984 -0.41821027 -0.00000024
-0.64146686 0.26616991 0.07881422
0.19715828 -0.79817724 -0.00000000
0.57333785 -0.65100372 -0.00000009
-0.49509203 -0.29796654 -0.00000027
-0.36098579 0.32270002 -0.00000053
-0.15891206 0.65057093 0.00694238
0.53541124 -0.64550692 -0.00000010
-0.06575017 0.27542478 -0.00000067
-0.45088428 -0.27594554 -0.00000032
-0.73267126 0.09888822 0.02310905
0.78793156 -0.72038358 -0.00000020
-0.38409370 0.66123575 0.17963488
0.73297989 -0.05885329 -0.00000167
0.76016682 -0.50009882 -0.00000075
-0.55647320 -0.20134775 -0.00000022
-0.33560777 -0.54134399 -0.00000016
0.48753202 -0.23266436 -0.00000055
-0.78071415 -0.65672600 0.00000000
0.32603419 0.39878929 -0.00000126
-0.32318190 0.71137303 0.17174533
-0.01124028 0.72413033 -0.00000095
-0.08908102 0.78300917 0.05278451
-0.76256394 -0.16217487 -0.00000001
-0.59629679 -0.74435866 -0.00000003
0.05471963 0.54000056 -0.00000084
-0.44461289 -0.57867450 -0.00000014
-0.62431467 0.26086399 0.06236987
0.03771520 -0.33583596 -0.00000029
-0.46092102 0.07630410 -0.00000038
-0.33492318 0.20378102 -0.00000053
-0.21352901 0.65399271 0.04943979
-0.79927427 -0.32352039 0.00000000
0.10989443 -0.23200262 -0.00000035
0.67774749 -0.16552009 -0.00000129
-0.47097966 0.69616252 0.26882899
-0.38235518 -0.59319472 -0.00000013
-0.62314993 0.22660416 0.03643123
0.49362195 0.28211424 -0.00000157
-0.44654679 -0.37758493 -0.00000026
-0.02779538 0.79486561 0.01659118
0.42930880 -0.11975443 -0.00000058
0.07878274 -0.38318607 -0.00000026
0.14396176 -0.30125973 -0.00000031
-0.33551735 -0.02991291 -0.00000048
-0.13574593 -0.38082227 -0.00000026
-0.26612943 0.34632221 -0.00000063
0.15393484 -0.79275429 -0.00000000
0.00708040 0.79040539 -0.00000100
-0.55517238 -0.73360896 -0.00000004
0.25736234 0.21559449 -0.00000068
-0.66111875 0.05992343 -0.00000016
0.21580514 -0.44519636 -0.00000022
-0.08954697 0.52780318 -0.00000083
0.75985903 -0.15136136 -0.00000158
0.27475509 0.17271307 -0.00000066
-0.14508259 -0.45924944 -0.00000021
-0.14775071 -0.21933545 -0.00000036
-0.18637107 0.58624524 -0.00000076
-0.56376678 -0.53217399 -0.00000015
0.28603843 -0.54393798 -0.00000016
-0.25724655 0.28748903 -0.00000063
-0.75563025 0.16168822 0.08590372
0.36198586 0.41921094 -0.00000142
0.23088145 0.31602249 -0.00000079
0.43819860 -0.32738677 -0.00000030
-0.21716426 -0.11411864 -0.00000043
0.04996302 -0.01430467 -0.00000049
0.14938597 -0.45692441 -0.00000021
0.00865960 0.05218309 -0.00000053
-0.33373252 -0.78164011 -0.00000001
0.00581768 -0.62562698 -0.00000011
0.48264819 -0.58540481 -0.00000013
-0.70973492 0.09193221 0.00122117
-0.54175842 -0.63686663 -0.00000010
0.32273051 0.46296230 -0.00000138
0.42605743 0.35476512 -0.00000150
-0.23507673 0.42153504 -0.00000068
0.16337422 0.12374355 -0.00000058
0.65757149 -0.12193484 -0.00000131
0.04339191 0.72589403 -0.00000099
0.55860382 -0.44067422 -0.00000037
0.50614679 -0.69275683 -0.00000007
-0.30656525 -0.63022143 -0.00000011
-0.55933344 0.39164689 0.11055106
0.75475580 -0.13491623 -0.00000159
-0.60726488 -0.30218801 -0.00000015
0.01684874 0.33734319 -0.00000071
-0.31309119 0.54371327 0.04159268
-0.55456656 0.36039931 0.08418050
-0.14833696 -0.24555948 -0.00000035
-0.03680144 0.53985310 -0.00000084
-0.68359923 0.50314695 0.28318423
-0.26495942 0.55644518 0.01567198
-0.41893029 -0.34218806 -0.00000029
-0.34814802 0.71761394 0.19459584
0.57782912 -0.17293482 -0.00000095
0.47847745 -0.21145542 -0.00000056
-0.74578249 0.23724011 0.13401373
-0.25551894 0.09903866 -0.00000056
-0.56536233 -0.79483646 -0.00000000
0.44523570 -0.53687906 -0.00000016
0.56635332 -0.74378562 -0.00000004
-0.32450956 0.10340625 -0.00000053
0.59626263 -0.02819094 -0.00000129
0.05677603 -0.43002927 -0.00000023
0.40674549 -0.34580827 -0.00000028
-0.32284021 -0.32910508 -0.00000029
-0.34978166 -0.21764287 -0.00000036
0.35241640 -0.75657380 -0.00000003
-0.47822419 0.38248906 0.04445530
-0.02539036 0.24792506 -0.00000065
-0.20820081 0.55788094 -0.00000073
0.77801853 -0.14652844 -0.00000163
-0.43590096 0.33514264 -0.00000045
0.60474896 -0.70723069 -0.00000006
0.05313459 -0.01408990 -0.00000049
0.20268296 -0.75471258 -0.00000003
-0.50212568 0.31513306 0.01263703
0.63572985 -0.46473661 -0.00000057
-0.21390745 -0.18365125 -0.00000039
0.15728790 0.57858622 -0.00000107
0.02509769 0.50719804 -0.00000082
0.08441533 0.56560200 -0.00000085
-0.50300235 -0.15921386 -0.00000029
-0.12629882 0.04029333 -0.00000053
-0.45640406 -0.43547955 -0.00000023
0.21364155 -0.34505817 -0.00000028
-0.07944285 -0.69325209 -0.00000007
-0.62576199 -0.38000166 -0.00000012
-0.28124687 0.30498707 -0.00000061
0.07439834 -0.23536232 -0.00000035
-0.79481018 -0.62183857 0.00000000
0.17074189 -0.38690081 -0.00000026
0.25113612 0.35459408 -0.00000093
-0.02813465 -0.54928702 -0.00000016
0.37260216 -0.58581060 -0.00000013
-0.72204930 0.41002193 0.24315025
-0.28375041 -0.06184952 -0.00000046
-0.70476246 0.42088449 0.23844621
0.76653242 -0.20579055 -0.00000149
-0.02376800 -0.07787945 -0.00000045
0.59491003 0.06975295 -0.00000148
0.66614622 -0.45351902 -0.00000069
0.77237689 0.01820336 -0.00000195
0.28321579 -0.69684118 -0.00000006
-0.11461989 0.62967974 -0.00000085
-0.53842324 0.11994556 -0.00000030
0.08032632 -0.75539786 -0.00000003
0.13803852 -0.26409367 -0.00000033
-0.56630296 0.47795546 0.17885134
0.17976271 -0.22755767 -0.00000036
-0.04487264 0.49786207 -0.00000081
0.28751972 -0.01264922 -0.00000049
0.63963747 -0.13745025 -0.00000122
-0.34862953 0.67563194 0.16420835
0.57401365 -0.37104565 -0.00000055
-0.11434891 0.20780055 -0.00000063
0.50982398 -0.20916393 -0.00000066
-0.31163874 -0.23851559 -0.00000035
0.09282036 0.10952166 -0.00000057
-0.03503206 0.23656891 -0.00000065
-0.36274523 0.19276640 -0.00000050
0.25955358 0.25115609 -0.00000076
0.34953228 0.38368726 -0.00000131
-0.55617905 0.43017358 0.13645139
-0.26804826 -0.44563895 -0.00000022
-0.23098601 -0.43922061 -0.00000023
0.04185428 0.36062127 -0.00000073
-0.58891177 0.38718450 0.12894161
0.71327078 -0.51907980 -0.00000070
-0.30829382 0.15496978 -0.00000055
-0.60467374 0.46300140 0.19599771
-0.45467973 0.29997927 -0.00000042
-0.37747738 0.73070645 0.22565810
-0.55355287 0.27879637 0.02368677
0.66964978 -0.45545748 -0.00000069
-0.60947603 -0.79036319 -0.00000001
0.30579123 -0.17994474 -0.00000039
-0.71911198 -0.40002763 -0.00000001
0.45532957 -0.62426543 -0.00000011
0.74506718 -0.35353208 -0.00000112
0.00237420 -0.47700143 -0.00000020
-0.73234153 -0.19407386 -0.00000004
-0.15759216 -0.23731744 -0.00000035
-0.64502501 -0.22234198 -0.00000012
-0.44740683 -0.28963721 -0.00000032
-0.48271567 0.04519941 -0.00000035
-0.02158105 -0.74321252 -0.00000004
-0.76360488 -0.51678097 0.00000000
0.28495049 -0.79607856 -0.00000000
-0.24414816 0.67848289 0.08979212
0.22943342 -0.50041175 -0.00000019
-0.33385575 0.52262831 0.04135815
0.52141541 -0.11027847 -0.00000089
-0.05804621 -0.78469902 -0.00000001
-0.41838336 0.54270661 0.11795314
0.43523818 -0.04673695 -0.00000074
0.15545005 0.02046965 -0.00000051
-0.29372460 -0.32415181 -0.00000030
-0.22869106 0.04430017 -0.00000053
0.04577594 0.37384847 -0.00000073
-0.11736339 0.08579669 -0.00000055
-0.41568652 0.48706117 0.07523364
-0.47275075 0.69471282 0.26906431
-0.07121719 -0.10933947 -0.00000043
-0.51270306 0.14397807 -0.00000033
-0.58931327 -0.18184052 -0.00000019
-0.28249091 0.44064593 -0.00000063
-0.70848030 -0.57564080 0.00000000
-0.05944367 0.66141409 -0.00000091
-0.27606621 0.52704382 0.00227634
0.45886955 -0.30387935 -0.00000032
0.40333611 -0.17983337 -0.00000039
-0.17554352 -0.24328893 -0.00000035
-0.58795494 -0.19800976 -0.00000019
-0.72841865 0.28918919 0.15933771
-0.04933625 0.44842258 -0.00000078
0.14427099 0.30073681 -0.00000069
-0.68349326 0.02846827 -0.00000013
-0.70489174 -0.66161168 0.00000000
-0.01039566 0.10526650 -0.00000057
0.16331355 0.15073752 -0.00000059
0.00476531 -0.04830070 -0.00000047
0.44052517 -0.14259250 -0.00000057
-0.06427947 0.35933450 -0.00000072
0.30342636 0.49340311 -0.00000137
-0.08627754 0.58835137 -0.00000087
0.40951243 -0.56222230 -0.00000015
0.31244552 -0.15798308 -0.00000040
-0.70578784 0.13838747 0.03234655
0.35284975 0.26627904 -0.00000109
-0.27140257 0.24937990 -0.00000061
0.78095609 -0.47557759 -0.00000081
0.70946437 -0.51542133 -0.00000070
-0.50839055 0.31772196 0.01911996
0.55012941 -0.70761323 -0.00000006
-0.65055692 -0.28686774 -0.00000011
-0.06454469 0.40459034 -0.00000075
0.54647714 0.03918424 -0.00000126
0.28617343 0.39757782 -0.00000113
0.76666510 -0.11839322 -0.00000166
-0.55683267 0.04498329 -0.00000027
-0.68941838 0.26421875 0.11249686
0.00597584 0.50061268 -0.00000081
0.26163876 -0.55370665 -0.00000015
-0.62273848 -0.49759045 -0.00000010
-0.07414761 -0.65528446 -0.00000009
-0.14056057 -0.01448120 -0.00000049
-0.31469718 -0.14994419 -0.00000041
-0.47890893 0.47140700 0.11006432
-0.02734553 -0.56651247 -0.00000015
0.18744683 0.22321501 -0.00000064
-0.21428853 -0.70013678 -0.00000006
-0.72263575 0.28115848 0.14922306
-0.63668245 0.54567444 0.27997014
0.36565015 -0.75905293 -0.00000003
-0.22291134 -0.47757694 -0.00000020
-0.17284831 0.29485223 -0.00000068
-0.69365907 -0.21680884 -0.00000007
0.15432297 -0.76023769 -0.00000002
0.79982954 -0.76201767 -0.00000009
-0.42496830 -0.06522043 -0.00000039
-0.44241145 -0.76863468 -0.00000002
-0.29632184 -0.15548800 -0.00000040
-0.76964730 -0.71375585 0.00000000
-0.07488191 -0.77253729 -0.00000002
-0.38628009 -0.67075217 -0.00000008
0.17206465 0.38550183 -0.00000074
0.41021562 -0.04667412 -0.00000066
0.02273490 -0.64776677 -0.00000010
0.02913799 0.36164254 -0.00000073
-0.68369937 -0.72025275 0.00000000
-0.64790314 0.64157313 0.35840514
0.73566192 -0.71411192 -0.00000021
0.69029087 -0.44643560 -0.00000078
-0.46306843 0.38153398 0.03265854
0.10291357 0.25468406 -0.00000066
-0.24254636 0.51749241 -0.00000069
0.61103106 -0.67266226 -0.00000008
-0.46898639 -0.79060221 -0.00000001
-0.14038660 0.56390375 -0.00000081
0.15424673 0.31345856 -0.00000070
-0.36027080 0.70373738 0.19331174
-0.71125185 -0.26588157 -0.00000005
-0.53446037 0.43255195 0.12228999
0.42891112 -0.20658769 -0.00000041
0.27556124 -0.47722909 -0.00000020
-0.54590845 -0.68088257 -0.00000007
-0.66805995 -0.70166081 -0.00000001
0.42672303 -0.57350820 -0.00000014
-0.68135226 0.39561507 0.20280187
-0.19010219 0.19309033 -0.00000062
-0.21443966 0.40406507 -0.00000070
0.03639499 0.74497074 -0.00000101
-0.42783883 -0.64854807 -0.00000009
-0.48052028 -0.16421279 -0.00000031
0.63855779 0.03505786 -0.00000155
0.24910702 -0.63505399 -0.00000010
-0.06587086 0.06384725 -0.00000054
-0.15934922 0.68994337 0.03609185
0.46225801 -0.74303168 -0.00000004
-0.48634589 0.12918349 -0.00000036
0.16222315 -0.67312878 -0.00000008
-0.03749285 -0.00872236 -0.00000049
-0.44374463 0.64285332 0.20985274
-0.65435463 -0.01450680 -0.00000015
-0.36575267 0.69769883 0.19290416
-0.24338606 0.61319858 0.04143149
-0.20768067 0.02835496 -0.00000052
-0.62418193 0.34849682 0.12643933
-0.65999609 -0.63287997 -0.00000003
0.16768005 0.40601185 -0.00000077
-0.72142553 -0.62684643 0.00000000
0.09360848 0.41950339 -0.00000076
-0.56377500 -0.56087554 -0.00000015
0.06227216 0.56483895 -0.00000085
-0.43260616 0.68366319 0.23157869
0.68713009 -0.78235072 -0.00000004
0.21149085 -0.08531448 -0.00000045
0.48015630 -0.34072569 -0.00000031
0.38593692 -0.45194295 -0.00000022
0.09489052 -0.01452865 -0.00000049
-0.25679642 -0.00661249 -0.00000050
0.10250090 0.52245814 -0.00000083
0.46743286 0.28216809 -0.00000149
0.57103562 -0.26187840 -0.00000076
-0.42024082 0.62539554 0.17985979
-0.40133187 0.63209152 0.17091708
-0.14051075 -0.00417095 -0.00000050
-0.35540906 -0.75822568 -0.00000003
-0.08402774 0.65490413 -0.00000088
0.64989674 -0.75761753 -0.00000004
0.50701505 -0.13974807 -0.00000079
-0.37733135 0.69991183 0.20300277
-0.45443732 0.70111650 0.26034370
-0.02029598 -0.62833989 -0.00000011
-0.08145403 -0.61144537 -0.00000012
-0.49747121 0.62443572 0.23570690
0.42080617 0.02862786 -0.00000084
-0.76776606 -0.21326239 0.00000000
-0.44150335 -0.68685585 -0.00000007
-0.08195439 -0.44558039 -0.00000022
0.03621291 0.65699422 -0.00000091
0.40431583 0.35825086 -0.00000143
0.54009569 -0.21094234 -0.00000076
0.03488503 -0.44020653 -0.00000022
-0.31627312 -0.01960300 -0.00000049
0.36640152 -0.39108896 -0.00000026
0.56428301 -0.70852184 -0.00000006
0.29474536 -0.21104757 -0.00000037
-0.48144174 0.46990705 0.11082062
-0.41090655 -0.47233692 -0.00000020
-0.42921209 0.70909590 0.24771582
-0.21729615 -0.40515885 -0.00000025
-0.49611047 -0.77531028 -0.00000002
0.65414846 0.10180775 -0.00000173
0.67145008 -0.59015018 -0.00000044
0.59830952 -0.01876453 -0.00000132
0.76164240 -0.57290459 -0.00000057
-0.51114583 -0.75403941 -0.00000003
-0.15438335 -0.30145207 -0.00000031
-0.38429567 -0.31291997 -0.00000030
0.31298110 -0.18264057 -0.00000039
-0.71267170 -0.77987540 0.00000000
-0.08332577 0.30100977 -0.00000069
-0.43328109 -0.60281855 -0.00000012
0.65901244 -0.44883713 -0.00000067
-0.58311009 -0.37643862 -0.00000016
0.10130117 -0.22109444 -0.00000036
0.52291411 -0.47180635 -0.00000021
0.53342390 -0.07993658 -0.00000099
0.48783940 0.23356783 -0.00000146
-0.78980285 0.03748205 0.01997929
0.14506006 -0.02642406 -0.00000048
-0.14512742 -0.17393318 -0.00000039
-0.09880871 0.59309316 -0.00000086
-0.74747568 -0.34939840 0.00000000
-0.50753015 -0.69553488 -0.00000007
-0.65481728 -0.69536960 -0.00000003
0.00379038 0.46076831 -0.00000079
-0.44929513 0.66816992 0.23245430
-0.22433051 0.46854171 -0.00000070
0.19028760 0.08554026 -0.00000055
0.19022115 -0.57618600 -0.00000014
-0.01709936 -0.33622745 -0.00000029
-0.56243253 0.01052938 -0.00000026
-0.69587743 -0.21879520 -0.00000007
-0.01097445 -0.45511842 -0.00000022
0.63989627 -0.71045220 -0.00000010
-0.21044067 -0.65307134 -0.00000009
-0.56714749 0.52255166 0.21212398
-0.36829773 -0.32134259 -0.00000030
-0.28960025 -0.35800695 -0.00000028
-0.47759321 0.04249012 -0.00000035
-0.68050522 0.17755513 0.04251340
-0.21532397 -0.61401415 -0.00000012
0.27399895 -0.56617177 -0.00000015
-0.13531502 -0.36992115 -0.00000027
-0.11785675 0.27796558 -0.00000067
-0.76867551 -0.59216571 0.00000000
0.68984115 -0.17495587 -0.00000131
-0.62162900 -0.24611461 -0.00000015
0.53314370 -0.38536298 -0.00000039
0.70148772 -0.39158899 -0.00000092
0.01216071 -0.03983777 -0.00000048
0.38708982 -0.59798449 -0.00000013
-0.53063375 -0.43520838 -0.00000021
0.15824102 -0.66755527 -0.00000008
0.60945088 -0.22722879 -0.00000095
-0.29237565 -0.39225301 -0.00000025
-0.49611831 -0.76654440 -0.00000002
-0.26105878 -0.01280560 -0.00000049
-0.63868523 -0.37177858 -0.00000010
0.41307110 -0.41663504 -0.00000024
0.46209764 0.19669688 -0.00000130
0.03860998 0.52296323 -0.00000083
-0.38464907 0.39193103 -0.00000051
-0.14263657 0.68589252 0.02088833
-0.08900548 -0.25381801 -0.00000034
-0.66302019 0.66901749 0.38956955
0.44467923 0.22328450 -0.00000130
0.36878875 0.06619239 -0.00000075
0.47795188 -0.46157268 -0.00000021
0.12976685 -0.38209113 -0.00000026
0.53316599 0.26134527 -0.00000157
-0.21893640 0.13497727 -0.00000058
-0.51413739 -0.22360043 -0.00000026
0.45035905 -0.71018028 -0.00000006
-0.14916024 -0.36566874 -0.00000027
0.29640672 0.02381967 -0.00000051
-0.43771496 -0.36631665 -0.00000027
-0.14028826 -0.73216844 -0.00000004
-0.31495309 0.04122011 -0.00000053
-0.28626519 0.54662973 0.02408551
-0.06598523 0.14294422 -0.00000059
0.27801317 -0.72075433 -0.00000005
-0.16773032 -0.55212629 -0.00000015
0.57056963 0.09954393 -0.00000146
-0.60517210 -0.30195561 -0.00000015
-0.76226181 -0.25478637 0.00000000
-0.00720955 -0.61768228 -0.00000011
-0.11663356 -0.26481560 -0.00000033
-0.36059436 0.54031092 0.07388441
-0.61819160 0.22009617 0.02803531
-0.17264862 0.45031834 -0.00000075
-0.11933273 0.02579321 -0.00000052
0.07556936 -0.04006196 -0.00000047
0.40454477 -0.56727833 -0.00000015
-0.41215193 0.60237408 0.15708010
-0.20282295 -0.59362829 -0.00000013
-0.19323105 0.39295477 -0.00000072
0.64924639 0.02526046 -0.00000157
-0.66366702 0.40932351 0.19988991
-0.26002237 0.08494513 -0.00000055
-0.00673869 0.31467971 -0.00000070
0.36679238 -0.36857855 -0.00000027
-0.46665290 -0.66414118 -0.00000008
-0.46908280 0.55981797 0.16760582
0.00515374 -0.27778333 -0.00000033
-0.49044812 -0.18163072 -0.00000030
-0.45153040 -0.08548256 -0.00000036
-0.43895257 -0.61153239 -0.00000012
-0.19797739 -0.62995636 -0.00000011
-0.32579893 0.53817695 0.04684382
-0.20482865 0.52039540 -0.00000073
-0.72503060 -0.67721039 0.00000000
-0.24415663 -0.01944912 -0.00000049
0.58502483 -0.02516262 -0.00000126
0.08869466 0.19377913 -0.00000062
0.33996114 -0.08998883 -0.00000044
-0.24707110 0.12511596 -0.00000058
-0.37289435 0.26419711 -0.00000050
0.00690783 -0.24791865 -0.00000035
-0.64285249 -0.78771317 -0.00000001
-0.71920609 -0.62437856 0.00000000
0.46086356 -0.22351462 -0.00000048
-0.31238553 0.48440611 -0.00000061
0.31816381 -0.49737003 -0.00000019
-0.45129636 -0.53393471 -0.00000017
0.65548438 -0.52078342 -0.00000052
0.00708331 0.38483092 -0.00000074
-0.66366589 0.56961113 0.31725496
-0.63366884 0.66434324 0.36465514
-0.41151792 0.18792148 -0.00000045
-0.19834405 0.59427708 -0.00000075
-0.36799970 -0.58963001 -0.00000013
-0.26197344 -0.69350892 -0.00000007
-0.25071692 0.41940764 -0.00000066
-0.41407979 -0.20107472 -0.00000037
-0.00466392 -0.07051789 -0.00000046
0.79570639 -0.75350308 -0.00000012
-0.75710177 -0.25785670 0.00000000
0.03220250 0.42281973 -0.00000076
-0.49685106 0.25895998 -0.00000037
0.02141167 0.77767897 -0.00000101
0.64387292 -0.28568992 -0.00000094
-0.06205438 0.70299035 -0.00000092
0.35124752 0.23922645 -0.00000103
0.35001361 -0.41588056 -0.00000024
0.40184414 0.09723401 -0.00000092
0.13359886 0.57912630 -0.00000100
0.55962378 -0.23952320 -0.00000076
-0.44995040 0.67440712 0.23750108
0.61273789 0.10449157 -0.00000160
0.30021548 0.44200319 -0.00000126
0.00322275 0.48849025 -0.00000081
-0.56109685 -0.12541772 -0.00000023
-0.49252442 0.45131308 0.10532072
-0.22109215 -0.39033356 -0.00000026
-0.31324977 0.56510872 0.05737504
0.63352633 -0.38172415 -0.00000072
0.51182055 0.07582516 -0.00000123
-0.60834873 -0.39397770 -0.00000013
0.44849002 -0.51860732 -0.00000018
-0.30209130 0.19169588 -0.00000057
-0.16270189 0.04854335 -0.00000053
-0.04029150 0.59416091 -0.00000087
0.42819017 0.00812215 -0.00000083
0.38758215 -0.41905224 -0.00000024
-0.09511612 0.53835982 -0.00000084
0.14575455 0.31935176 -0.00000070
-0.23730487 -0.73777372 -0.00000004
0.71497285 -0.14979602 -0.00000144
0.19976567 -0.60702133 -0.00000012
0.78077364 -0.20529892 -0.00000149
-0.57814223 -0.02066654 -0.00000023
-0.47561607 -0.25881642 -0.00000030
0.47955635 -0.35823232 -0.00000028
0.41769448 0.34316921 -0.00000145
-0.61053210 0.03669115 -0.00000021
-0.13275424 -0.77872920 -0.00000001
-0.42066309 -0.31564367 -0.00000030
-0.56156504 0.50015765 0.19163902
0.74370074 -0.19152546 -0.00000145
-0.59194517 0.18942247 -0.00000026
0.56492031 0.04081723 -0.00000133
0.37337273 -0.66333938 -0.00000009
0.74320692 -0.44904169 -0.00000088
0.28264740 -0.44955510 -0.00000022
0.16047093 0.22220767 -0.00000064
0.30976000 -0.54830790 -0.00000016
-0.70386970 0.03988639 -0.00000011
-0.75866705 -0.50058556 0.00000000
-0.53189439 0.56047976 0.21408252
-0.29300496 -0.47247806 -0.00000020
0.24190021 -0.50282705 -0.00000019
-0.44419572 0.17049699 -0.00000041
0.33940408 0.38098702 -0.00000127
0.23681296 -0.03930983 -0.00000048
-0.33818480 0.57241815 0.08098518
0.10281729 0.50498313 -0.00000082
-0.40734154 0.42733842 0.02539294
0.16518538 0.12408754 -0.00000058
0.17171922 0.12468561 -0.00000058
-0.24517798 -0.52187037 -0.00000017
-0.35497165 -0.58130151 -0.00000014
-0.37641567 0.57800567 0.11307009
0.66443741 -0.56617415 -0.00000046
0.47246760 0.14500549 -0.00000123
0.77231884 -0.76180857 -0.00000010
0.11970211 0.51568717 -0.00000083
0.55722553 -0.79147899 -0.00000001
-0.17615663 -0.36230916 -0.00000027
-0.79600263 -0.29739326 0.00000000
-0.19342607 0.74523956 0.10153278
0.34516072 -0.10902584 -0.00000043
0.71356505 -0.70935845 -0.00000023
-0.36716029 -0.63095218 -0.00000011
-0.72936106 -0.72055393 0.00000000
-0.62635994 0.30713743 0.09774987
0.65232718 -0.63641679 -0.00000029
-0.77164543 -0.03166535 -0.00000002
-0.43716350 0.44103372 0.05725730
0.11140935 0.44316655 -0.00000078
0.18906938 0.19483370 -0.00000062
0.38282180 0.08234859 -0.00000083
-0.66160059 0.60969996 0.34509656
-0.44042173 0.20025311 -0.00000042
-0.10382379 -0.03638209 -0.00000048
0.65197420 -0.57180363 -0.00000041
0.14926013 -0.69882929 -0.00000006
-0.02345635 0.56763482 -0.00000085
-0.35924828 0.45583805 0.01104590
-0.70190656 -0.35896561 -0.00000004
-0.18783154 -0.17735556 -0.00000039
-0.33453217 0.70021474 0.17188597
-0.35974151 -0.72211999 -0.00000005
0.14899831 0.57921594 -0.00000105
0.69234574 -0.76903957 -0.00000008
0.51943678 -0.47485515 -0.00000020
-0.78911251 -0.41435897 0.00000000
0.41068274 0.04079457 -0.00000083
-0.64993763 -0.77266318 -0.00000002
0.13197806 -0.71950698 -0.00000005
-0.19848800 0.67277926 0.05218229
-0.28409514 0.23856828 -0.00000059
0.00116489 0.65348351 -0.00000091
-0.30483460 -0.56336588 -0.00000015
0.44561037 -0.64411074 -0.00000010
0.11954785 0.24671954 -0.00000065
-0.66511095 0.21051711 0.05537682
-0.10781612 -0.11418282 -0.00000043
-0.28494936 -0.09957376 -0.00000044
0.70301771 -0.50851053 -0.00000070
0.28497523 -0.50643343 -0.00000018
-0.23627166 -0.38766265 -0.00000026
0.25802052 -0.11278276 -0.00000043
-0.10674843 0.64392775 -0.00000086
0.78149289 -0.43334845 -0.00000092
-0.41892466 -0.45242336 -0.00000022
-0.66930556 -0.21432194 -0.00000010
-0.70857370 -0.17815828 -0.00000006
0.31537101 0.08670991 -0.00000062
-0.67257524 -0.65937144 -0.00000002
-0.62298125 -0.30155054 -0.00000013
0.14446990 -0.31931257 -0.00000030
-0.70086926 -0.49074954 -0.00000002
-0.13100709 0.03980632 -0.00000052
0.32272789 -0.35743454 -0.00000028
0.17619406 0.48938531 -0.00000096
0.40498698 -0.77173883 -0.00000002
-0.50340998 0.16252267 -0.00000035
-0.46415240 -0.75202847 -0.00000003
0.26290724 -0.16888812 -0.00000039
-0.57478589 0.24892177 0.01735930
-0.15689845 -0.75934392 -0.00000003
-0.13590492 0.20254026 -0.00000063
-0.07336599 -0.57420099 -0.00000014
-0.13055910 0.55831391 -0.00000082
-0.50136727 -0.47824565 -0.00000020
-0.67903852 0.66072452 0.39522624
-0.59144437 -0.08898580 -0.00000021
-0.61567360 0.44837332 0.19334111
0.61354768 0.11890591 -0.00000164
0.33085936 0.14716111 -0.00000079
-0.17725749 -0.41629535 -0.00000024
0.57199806 -0.09558865 -0.00000108
0.07847715 -0.56519490 -0.00000015
0.17822050 -0.03201770 -0.00000048
-0.32332757 0.08902922 -0.00000052
-0.39657456 -0.49389064 -0.00000019
0.50065690 -0.49273631 -0.00000019
-0.01240135 0.63232845 -0.00000090
-0.19867885 -0.39537877 -0.00000025
-0.53545642 0.04840365 -0.00000029
-0.61816561 0.32613006 0.10565659
-0.69747078 0.48266470 0.27834380
0.20203154 0.27188876 -0.00000067
-0.21794976 -0.09292422 -0.00000044
-0.60864931 0.66433370 0.34632826
-0.18339945 -0.46569112 -0.00000021
-0.55371100 -0.70487791 -0.00000006
0.35109159 0.07783834 -0.00000071
-0.13767593 0.76587909 0.07582385
0.58522743 -0.39868158 -0.00000053
0.40982038 -0.26672482 -0.00000033
-0.61852306 -0.55272979 -0.00000009
-0.37171227 0.15161826 -0.00000048
0.35685816 0.08702994 -0.00000075
-0.34391037 0.45420298 -0.00000057
-0.36909461 -0.26134077 -0.00000034
-0.32969087 -0.20290104 -0.00000037
0.31857255 0.35955116 -0.00000116
0.77916551 -0.74964237 -0.00000013
-0.46789989 -0.30999714 -0.00000030
0.32300538 -0.42327976 -0.00000024
-0.10899885 0.49829823 -0.00000081
0.32449844 -0.72154820 -0.00000005
-0.06509345 0.73812431 0.00235456
-0.37686831 0.50161546 0.05746696
-0.26902258 0.56246501 0.02305499
-0.71206772 -0.50266403 -0.00000000
0.17362285 -0.71360695 -0.00000005
-0.29088727 -0.11191846 -0.00000043
-0.56155574 0.44364458 0.15025216
0.13095231 -0.49963787 -0.00000019
0.16973673 0.40106472 -0.00000077
0.78411937 -0.22495253 -0.00000144
0.55107433 -0.31384331 -0.00000059
-0.51508886 -0.25866252 -0.00000026
-0.30986986 0.15679711 -0.00000055
0.08915852 -0.01368771 -0.00000049
0.65073752 -0.12503880 -0.00000128
0.68669170 -0.17064436 -0.00000130
-0.48369455 -0.15265279 -0.00000031
-0.65712339 -0.34626269 -0.00000009
-0.68308836 0.35444829 0.17392990
0.79486328 -0.51128894 -0.00000072
-0.47150451 0.17748973 -0.00000038
0.61446959 -0.13298003 -0.00000115
-0.43716761 0.20882747 -0.00000043
-0.18219566 0.48473710 -0.00000075
-0.55648851 -0.57442379 -0.00000014
0.21877187 0.37608713 -0.00000087
0.07366431 0.30193520 -0.00000069
0.74705136 -0.62713403 -0.00000043
0.17710106 0.25805369 -0.00000066
-0.70817703 0.07799129 -0.00000011
-0.02454025 -0.29642630 -0.00000031
0.42862466 -0.25322193 -0.00000034
-0.77625960 0.07279132 0.03591679
-0.75708997 0.06295071 0.01467482
-0.67203265 0.22698922 0.07250630
-0.10219701 0.08885856 -0.00000056
-0.46016926 -0.31159657 -0.00000031
0.77346539 -0.09156594 -0.00000174
-0.45268977 -0.58054602 -0.00000014
-0.03967245 0.77867335 0.01343157
-0.03498325 -0.46917948 -0.00000021
-0.42141414 0.45378065 0.05505882
0.06083620 -0.16588929 -0.00000040
0.60288489 -0.05011467 -0.00000127
-0.49400175 0.65662253 0.25673431
0.14029890 0.58016390 -0.00000102
0.43136150 0.11179843 -0.00000104
-0.47835156 -0.39570329 -0.00000025
0.56230783 -0.40359187 -0.00000045
-0.35051024 -0.27634957 -0.00000033
-0.20452107 0.57686687 -0.00000074
-0.26856092 -0.71719080 -0.00000005
0.02687079 0.72112697 -0.00000095
-0.03759558 -0.00205648 -0.00000050
-0.62973678 -0.76634228 -0.00000002
0.27984199 -0.37245035 -0.00000027
0.30107340 0.38314950 -0.00000115
-0.76386863 -0.04152260 -0.00000003
-0.27398714 0.05864816 -0.00000054
-0.38213053 0.40966594 -0.00000052
-0.21020319 -0.15720728 -0.00000040
-0.28307241 0.54870689 0.02326863
0.12071556 0.17004600 -0.00000061
-0.23916733 -0.68172342 -0.00000007
-0.12156854 0.45523450 -0.00000078
-0.64481992 0.47832480 0.23661380
0.13385516 -0.24816774 -0.00000034
-0.20545831 0.35213956 -0.00000070
0.15857624 -0.25067964 -0.00000034
-0.21369873 0.60175109 0.01131162
0.29470301 -0.05655281 -0.00000046
-0.72142059 0.41353300 0.24526078
0.23763359 -0.35951826 -0.00000028
0.23836134 -0.46582565 -0.00000021
0.11148169 0.31540826 -0.00000070
-0.04683277 0.53480589 -0.00000083
0.01566955 0.34968457 -0.00000072
0.09377401 0.55833828 -0.00000085
0.51382428 0.15031645 -0.00000138
0.31439281 -0.59823829 -0.00000013
-0.36436465 0.22172575 -0.00000051
-0.49281368 -0.33795658 -0.00000027
0.04640571 -0.51560110 -0.00000018
-0.17735478 0.65853769 0.02628006
-0.34402618 -0.19091167 -0.00000038
0.23277310 -0.56865406 -0.00000014
0.33812618 -0.20398690 -0.00000037
-0.78224969 -0.44777104 0.00000000
-0.64224195 0.37817147 0.16139174
-0.38560265 -0.06928323 -0.00000043
0.33153740 0.40263012 -0.00000129
-0.12474807 0.59451008 -0.00000083
-0.29653338 -0.67550367 -0.00000008
0.28094849 -0.07501507 -0.00000045
0.17906500 0.33942735 -0.00000071
-0.35063481 0.25299686 -0.00000053
-0.39414588 -0.19245817 -0.00000038
-0.56765574 -0.75176966 -0.00000003
0.48269078 -0.39198515 -0.00000026
-0.17241213 -0.17396909 -0.00000039
-0.65012163 -0.77957737 -0.00000001
-0.63966709 -0.49642488 -0.00000008
-0.41575682 0.45737121 0.05354549
0.36330858 -0.77194315 -0.00000002
-0.68151647 -0.12806372 -0.00000010
0.18629447 -0.15817553 -0.00000040
-0.11053452 -0.37584332 -0.00000027
-0.68142259 0.10963019 -0.00000015
0.36140391 -0.68302900 -0.00000007
-0.38240957 0.42200679 0.00323317
0.30101326 0.20065576 -0.00000079
-0.50330615 0.06638778 -0.00000033
0.24161860 0.33013666 -0.00000086
-0.48971847 0.48648408 0.12901911
-0.15191413 -0.35468656 -0.00000028
0.60714132 -0.65966672 -0.00000010
-0.24463366 0.14449173 -0.00000059
-0.11743411 0.03024880 -0.00000052
-0.06085584 0.53427094 -0.00000083
0.32989064 -0.61127520 -0.00000012
-0.20293251 -0.54041255 -0.00000016
0.18825340 0.02911389 -0.00000052
-0.39771321 -0.76526690 -0.00000002
0.77707911 -0.52657646 -0.00000068
-0.42367074 0.59627903 0.16105150
-0.18976562 0.43237630 -0.00000073
-0.33981085 0.20383534 -0.00000053
-0.49956647 -0.60450226 -0.00000012
0.53005028 -0.71420985 -0.00000005
0.34156364 -0.54771674 -0.00000016
-0.71861649 0.04464939 -0.00000010
0.08420325 -0.17859784 -0.00000039
-0.51015913 0.26980084 -0.00000036
-0.46549556 -0.18532947 -0.00000032
-0.68356210 0.10751130 -0.00000014
-0.61678648 -0.43015891 -0.00000012
0.19233622 -0.72425967 -0.00000005
0.07770910 0.57593513 -0.00000086
-0.51031423 -0.03236223 -0.00000030
0.32917270 0.43555918 -0.00000134
-0.70115495 0.17807065 0.05801111
0.05845301 0.60854620 -0.00000088
0.21389800 -0.49374765 -0.00000019
-0.27309829 0.63367885 0.07818367
0.17923543 0.48662850 -0.00000096
-0.68119389 0.07621900 -0.00000014
-0.57364696 -0.75011122 -0.00000003
0.31055474 -0.76039106 -0.00000002
-0.10109414 -0.47200722 -0.00000020
0.76809138 -0.57001954 -0.00000057
0.18396889 0.43726537 -0.00000088
0.15753949 -0.15639260 -0.00000040
-0.13481916 -0.32499319 -0.00000030
-0.42642909 0.27731013 -0.00000045
0.40755159 -0.09021268 -0.00000057
-0.08852613 -0.30737332 -0.00000031
0.61672610 0.09258007 -0.00000159
0.76339966 -0.36601096 -0.00000108
0.76386094 -0.57202572 -0.00000057
-0.31040692 0.69589275 0.15105624
-0.72506094 -0.06204824 -0.00000007
0.11198966 -0.68832606 -0.00000007
0.02852880 -0.34126046 -0.00000029
0.06739969 -0.38010943 -0.00000026
-0.42268288 -0.72657806 -0.00000005
-0.01010915 0.13157275 -0.00000058
0.40739933 0.32093081 -0.00000137
-0.50334811 -0.20037614 -0.00000028
0.76262611 -0.62529236 -0.00000044
-0.34178263 -0.63354194 -0.00000010
-0.48204556 -0.62932336 -0.00000011
-0.30588830 -0.75004327 -0.00000003
0.01547849 0.09981869 -0.00000056
0.65063310 -0.14604250 -0.00000124
0.77424312 -0.38209209 -0.00000104
0.40783727 -0.45696020 -0.00000021
-0.43570054 -0.16363755 -0.00000036
0.69585270 -0.68131983 -0.00000030
-0.27559277 0.50063735 -0.00000065
-0.50383419 -0.45203742 -0.00000022
0.41891435 -0.04102746 -0.00000070
-0.04803758 -0.32904798 -0.00000029
0.48260206 -0.13615754 -0.00000072
-0.60931873 0.12713249 -0.00000023
0.28327262 -0.54337299 -0.00000016
0.00408464 -0.11452005 -0.00000043
0.01641035 0.29850316 -0.00000069
-0.34486189 0.18289492 -0.00000052
0.13229297 -0.10501184 -0.00000043
0.32459131 -0.78977770 -0.00000001
0.25475487 -0.39737219 -0.00000025
0.16911961 -0.57314199 -0.00000014
-0.00765162 -0.17995472 -0.00000039
-0.03837943 -0.78932470 -0.00000001
-0.46231419 0.13885050 -0.00000039
-0.00949743 -0.19245690 -0.00000038
-0.43225911 -0.53394568 -0.00000017
0.48155349 -0.52974355 -0.00000017
-0.26136991 -0.50961471 -0.00000018
0.70994639 -0.72368801 -0.00000019
-0.41986626 -0.66785634 -0.00000008
-0.43111184 -0.43919706 -0.00000023
-0.16889207 -0.14787160 -0.00000041
-0.40951574 -0.54135501 -0.00000016
0.03887726 -0.76218575 -0.00000002
-0.50893849 -0.78883857 -0.00000001
-0.33831805 -0.51331127 -0.00000018
0.73310202 -0.19378982 -0.00000141
0.74452060 -0.23846093 -0.00000136
0.43024465 -0.43415359 -0.00000023
-0.30923817 0.74190694 0.18389295
-0.14241005 0.72244304 0.04748554
-0.09852756 -0.04546867 -0.00000047
-0.05934241 0.75426036 0.00995870
-0.25320327 -0.44366768 -0.00000022
-0.74306768 -0.64167798 0.00000000
-0.59909457 0.45257759 0.18427993
-0.74691445 0.22583164 0.12648900
-0.61721545 0.34199819 0.11657988
0.26766568 0.13627639 -0.00000059
0.58769095 0.21209054 -0.00000173
-0.51290220 -0.57466096 -0.00000014
-0.59135222 -0.65387887 -0.00000009
-0.48402408 0.05727039 -0.00000035
-0.57629025 0.32045695 0.07084044
-0.11419588 -0.20385157 -0.00000037
0.13897908 -0.46866760 -0.00000021
0.68515676 -0.57730776 -0.00000051
-0.21697015 0.09142683 -0.00000056
-0.30060291 -0.25082910 -0.00000034
0.70569837 -0.55668682 -0.00000061
0.30256394 -0.55438840 -0.00000015
-0.20923489 -0.65755582 -0.00000009
0.26391882 -0.02623279 -0.00000048
-0.51808351 -0.74069232 -0.00000004
0.79377401 -0.19493543 -0.00000151
-0.18320934 0.40602323 -0.00000073
-0.65210158 0.29347354 0.10659355
-0.65346003 0.23831871 0.06720264
-0.70486188 -0.19670773 -0.00000007
0.08062246 0.38261455 -0.00000074
-0.66897112 -0.12517858 -0.00000012
-0.55850148 0.41660088 0.12821373
-0.14810826 0.18507770 -0.00000062
-0.51699436 -0.37098607 -0.00000023
-0.24525756 0.11486364 -0.00000057
-0.32616323 -0.76695609 -0.00000002
-0.55521464 0.07591384 -0.00000028
0.19920292 -0.11377037 -0.00000043
-0.32573563 -0.62348866 -0.00000011
-0.18930380 0.20362826 -0.00000063
-0.19476224 0.54693520 -0.00000075
0.24495406 0.12637837 -0.00000058
-0.06237301 0.76622021 0.02093503
0.08729736 -0.03647343 -0.00000048
-0.20207056 0.47065276 -0.00000072
0.05597282 0.20592874 -0.00000063
-0.79440320 -0.65005201 0.00000000
-0.70418656 0.33476251 0.17496416
-0.30528876 0.52174646 0.01979498
-0.59234679 -0.51006961 -0.00000013
0.22334030 0.27156606 -0.00000068
0.18600415 0.56502503 -0.00000114
-0.22924632 0.12248103 -0.00000058
0.05138061 -0.30969310 -0.00000031
-0.04462886 -0.25853059 -0.00000034
0.36482352 -0.08207177 -0.00000045
0.74817687 -0.72441077 -0.00000019
0.01843575 -0.26854709 -0.00000033
0.06121334 -0.72380936 -0.00000005
-0.66701919 -0.54208171 -0.00000004
0.31520537 -0.67280710 -0.00000008
-0.31727698 -0.53024048 -0.00000017
-0.50470608 0.33899835 0.03200118
0.06039218 -0.18728261 -0.00000038
0.46175051 -0.11128578 -0.00000070
-0.20908606 0.30661330 -0.00000069
0.37694725 0.09995679 -0.00000084
0.59851521 -0.78141433 -0.00000001
-0.68587619 0.35134974 0.17370237
0.32754079 -0.21124366 -0.00000037
-0.52547890 -0.16586478 -0.00000026
-0.58678758 0.01410972 -0.00000023
0.59066451 0.01492373 -0.00000136
0.30956310 -0.16016898 -0.00000040
-0.22060400 -0.25942698 -0.00000034
0.41079837 0.21672425 -0.00000118
-0.64230084 0.19382513 0.02645245
-0.14272793 -0.57148647 -0.00000014
0.33772680 -0.63368738 -0.00000010
-0.50209564 0.40991497 0.08201643
-0.64682192 0.58141083 0.31356138
-0.10417310 0.27416626 -0.00000067
0.78331244 -0.69209558 -0.00000027
0.33715931 0.02443778 -0.00000057
-0.02322329 0.18971686 -0.00000062
0.10431171 -0.03941488 -0.00000048
-0.07246249 0.66170007 -0.00000090
0.55205411 -0.58267397 -0.00000014
-0.57100332 0.50336093 0.20089546
0.34644386 0.27018180 -0.00000108
-0.66738886 0.56318748 0.31527752
0.34992492 -0.20507956 -0.00000037
0.38108590 -0.29242912 -0.00000032
0.41287491 -0.39526826 -0.00000025
