ply
format ascii 1.0
element vertex 1367
property float x
property float y
property float z
end_header
0.34291139 -0.66405237 -0.00000008
-0.70651752 0.10160711 0.01768214
0.47803414 -0.16711737 -0.00000064
-0.28526089 0.57967734 0.14131591
0.69207275 -0.01771504 -0.00000162
0.31279761 -0.20993647 -0.00000037
-0.53182971 0.08060079 -0.00000030
0.61331785 -0.33527285 -0.00000075
0.65234506 -0.51729935 -0.00000052
-0.32752782 -0.04129842 -0.00000047
0.45451814 -0.12009435 -0.00000066
-0.03396352 0.52436632 -0.00000083
0.79392403 -0.27860254 -0.00000130
-0.30841771 -0.42029709 -0.00000024
0.34888855 -0.17483483 -0.00000039
-0.49665058 0.44933069 0.31768242
-0.63291878 -0.54551774 -0.00000008
0.77081788 -0.09593191 -0.00000172
-0.72326243 -0.25315323 -0.00000004
0.26521522 -0.13682802 -0.00000041
0.33359611 -0.75188732 -0.00000003
-0.23239405 0.61926246 0.11241210
0.36616957 -0.76817393 -0.00000002
-0.22158583 -0.75457585 -0.00000003
-0.07931397 -0.13203350 -0.00000042
-0.05085868 -0.60870934 -0.00000012
-0.27923557 0.31899402 -0.00000061
-0.49545267 -0.14412726 -0.00000030
-0.62653655 0.18251470 0.01969811
-0.74826062 -0.53538978 0.00000000
-0.52093774 0.31674114 0.08199628
-0.00610074 0.26555505 -0.00000067
-0.18976900 -0.21923660 -0.00000036
-0.30917126 -0.49205339 -0.00000019
-0.51642597 0.43042088 0.31956610
0.05528874 -0.48754406 -0.00000020
-0.29507846 0.23098066 -0.00000058
-0.11833876 -0.50376964 -0.00000019
0.08224499 0.11446352 -0.00000057
0.40750077 0.24297684 -0.00000122
-0.22977993 -0.59442550 -0.00000013
-0.03313579 -0.23648088 -0.00000035
-0.28112429 0.62202668 0.22447477
0.02898009 0.17416807 -0.00000061
0.36406600 -0.18871303 -0.00000038
0.36351907 0.17700869 -0.00000095
0.74264020 -0.73425913 -0.00000016
0.54742140 -0.39595947 -0.00000042
-0.64644057 0.20882785 0.12027506
0.64400059 0.12918182 -0.00000175
0.58689350 -0.36014888 -0.00000062
0.28100458 0.51360703 -0.00000125
0.11584242 -0.33768505 -0.00000029
0.18832429 0.48957691 -0.00000100
0.38956857 -0.69495624 -0.00000007
-0.08722951 -0.73477453 -0.00000004
0.59704649 0.04552147 -0.00000144
0.12917064 0.54880786 -0.00000092
-0.44824484 0.03912563 -0.00000038
0.49814633 0.29000035 -0.00000160
0.17530905 0.43938303 -0.00000086
-0.03518336 -0.52052915 -0.00000017
-0.66215014 0.23180312 0.20446026
0.75004262 -0.02426699 -0.00000179
0.61537743 -0.33692801 -0.00000075
-0.27494240 -0.47290903 -0.00000020
-0.72753733 -0.73873681 0.00000000
0.11278372 0.20167211 -0.00000063
-0.05553114 0.23376594 -0.00000065
0.52025801 0.17500240 -0.00000145
-0.52496409 -0.04117074 -0.00000029
-0.74362600 -0.68152815 0.00000000
-0.47276396 0.47446483 0.32039726
-0.04285458 -0.22565261 -0.00000036
-0.64945179 0.05460994 -0.00000017
0.39043894 -0.47752652 -0.00000020
0.12109753 -0.44131249 -0.00000022
-0.36139730 0.18173139 -0.00000050
0.29937938 -0.69329059 -0.00000007
-0.24274255 -0.04152649 -0.00000047
0.21972129 0.32737899 -0.00000078
-0.39615756 0.47072947 0.14555757
-0.32592416 -0.68991899 -0.00000007
0.62790036 -0.77158773 -0.00000002
0.51485151 -0.07526638 -0.00000094
-0.25713941 0.32972828 -0.00000064
-0.21455126 -0.38739628 -0.00000026
0.32308310 -0.23532948 -0.00000035
0.16961540 -0.14552896 -0.00000041
0.54033220 0.02623328 -0.00000122
-0.65075397 0.13320781 -0.00000018
-0.04957750 -0.10939972 -0.00000043
0.59921581 0.05749056 -0.00000147
-0.37165558 -0.59065270 -0.00000013
0.04934394 0.49238768 -0.00000081
0.71235216 -0.23075473 -0.00000127
0.13425115 -0.05933675 -0.00000046
0.46494794 -0.36145297 -0.00000027
-0.10315381 -0.69952947 -0.00000006
-0.06824017 0.26649997 -0.00000067
0.18714277 -0.09618853 -0.00000044
-0.51746356 0.08669298 -0.00000032
0.29386318 0.24991050 -0.00000087
0.27776974 -0.15150359 -0.00000041
0.50686187 -0.74880117 -0.00000003
0.46834198 -0.40456656 -0.00000025
0.35114563 -0.20533980 -0.00000037
0.24716833 -0.26056376 -0.00000034
0.59293509 0.03682818 -0.00000141
0.79057539 -0.42746747 -0.00000093
0.17867689 -0.74619776 -0.00000003
-0.41491425 -0.53060126 -0.00000017
0.45299315 0.06626177 -0.00000102
0.02307802 0.56426394 -0.00000085
-0.48327649 0.32542408 0.01893403
-0.55848777 -0.42687592 -0.00000018
-0.47296590 -0.75996846 -0.00000003
-0.30706045 -0.62646705 -0.00000011
-0.30802712 -0.46744782 -0.00000021
-0.56187487 -0.45590454 -0.00000017
0.42579991 -0.28454769 -0.00000032
-0.27909568 -0.04893820 -0.00000047
-0.06662575 -0.04475359 -0.00000047
0.40393427 -0.60639888 -0.00000012
0.33603710 -0.33373761 -0.00000029
-0.44877404 -0.05842042 -0.00000036
-0.48305014 -0.68049777 -0.00000007
-0.24902184 -0.63499129 -0.00000010
0.18039893 -0.62251592 -0.00000011
-0.56018245 0.36595920 0.27450731
0.71613330 -0.70997918 -0.00000023
0.14535820 0.25221983 -0.00000066
-0.64827043 -0.05403949 -0.00000015
-0.72351843 -0.07465447 -0.00000007
0.09639441 -0.56508881 -0.00000015
-0.35615975 -0.43161276 -0.00000023
-0.70383090 0.15283993 0.12332732
0.42227885 0.19129267 -0.00000116
-0.10464015 0.62191808 -0.00000086
0.45487580 -0.24579865 -0.00000042
-0.37518039 -0.74980611 -0.00000003
0.53044045 -0.11929686 -0.00000090
0.70907903 -0.51567483 -0.00000070
-0.27097806 -0.55812949 -0.00000015
0.48917085 -0.39256510 -0.00000025
0.14621082 -0.70481974 -0.00000006
-0.50410819 0.35907361 0.13749506
0.72311878 -0.11580962 -0.00000153
-0.59888661 0.22099552 0.04326787
0.19218878 0.11136551 -0.00000057
0.50511920 -0.57671589 -0.00000014
-0.17076702 -0.34780726 -0.00000028
-0.48716816 -0.76042944 -0.00000002
0.27824423 0.06574511 -0.00000054
-0.06686469 -0.48215538 -0.00000020
-0.06289335 -0.45358455 -0.00000022
0.13932070 -0.58665544 -0.00000013
0.20417228 0.25351104 -0.00000066
0.18297125 0.04391387 -0.00000053
-0.79004627 -0.07699864 0.00000000
0.00115682 -0.10839201 -0.00000043
-0.21560018 -0.24715583 -0.00000035
0.30725089 -0.61746043 -0.00000011
0.30736580 0.48676163 -0.00000137
0.79981238 -0.17279825 -0.00000157
0.66441172 -0.69232690 -0.00000022
-0.18137272 -0.65564144 -0.00000009
-0.46843767 0.25587350 -0.00000040
0.04418499 -0.75178236 -0.00000003
0.29639444 0.35658157 -0.00000108
0.16433384 -0.61568373 -0.00000012
-0.16503781 0.59467298 -0.00000079
-0.26524693 0.33343220 -0.00000063
0.67197055 -0.68089199 -0.00000026
0.47098967 -0.76577103 -0.00000002
0.74887484 -0.14701489 -0.00000155
-0.45560539 0.35680240 0.02700139
-0.34358084 0.54276657 0.18790671
-0.03870508 -0.02784057 -0.00000048
0.67383814 -0.05757444 -0.00000148
0.45154992 -0.11085473 -0.00000067
0.62581956 -0.44112214 -0.00000058
0.05283043 -0.65205979 -0.00000009
-0.13472967 -0.11414731 -0.00000043
-0.21294250 -0.17422090 -0.00000039
0.05898575 0.37811062 -0.00000074
-0.32754856 -0.60266274 -0.00000012
0.60983795 -0.47260725 -0.00000047
-0.11520182 -0.44025239 -0.00000022
0.70036054 0.09247147 -0.00000186
0.48361784 -0.35045150 -0.00000030
0.48203593 -0.14052920 -0.00000071
-0.59946543 -0.30675045 -0.00000016
0.21194342 0.44871280 -0.00000099
0.13497500 0.40864235 -0.00000076
0.23797826 0.22971757 -0.00000065
-0.26728079 -0.64378703 -0.00000010
0.41929907 0.20986627 -0.00000119
-0.73093337 0.08476921 0.03417333
0.28991574 -0.13476598 -0.00000042
-0.00176761 0.09135734 -0.00000056
-0.63112992 0.20209625 0.07230714
-0.35744649 -0.46727526 -0.00000021
-0.23366886 0.59273976 0.05746825
0.70831931 0.03597776 -0.00000178
-0.44673207 0.12647095 -0.00000040
0.22172841 -0.70243454 -0.00000006
0.38663056 -0.07799631 -0.00000052
0.32484952 0.12355768 -0.00000072
0.03140751 -0.78528285 -0.00000001
0.45803928 -0.69549680 -0.00000007
-0.32336113 0.55637759 0.17352481
-0.39902329 0.32156885 -0.00000049
-0.26317945 -0.31103823 -0.00000031
0.14072329 -0.51091790 -0.00000018
-0.21639182 0.51161724 -0.00000072
0.25494596 -0.47038192 -0.00000021
0.35164815 -0.44754922 -0.00000022
0.05078919 0.42791596 -0.00000077
0.33822346 0.24767987 -0.00000101
-0.13373245 0.34989029 -0.00000072
-0.26894638 0.55526090 0.05267791
-0.57313484 -0.10136597 -0.00000022
0.26778007 0.12164760 -0.00000058
-0.10821030 0.41173235 -0.00000076
-0.43174580 -0.41396192 -0.00000024
0.37074247 -0.07115450 -0.00000049
-0.00177101 0.77444744 -0.00000098
-0.31188834 0.62398088 0.29567653
0.29523548 -0.17027712 -0.00000039
0.75534600 -0.03122443 -0.00000180
-0.67011678 -0.68330991 -0.00000001
0.00705906 -0.27155828 -0.00000033
0.43921942 -0.66687542 -0.00000008
0.74510610 -0.72863060 -0.00000018
-0.00968317 0.46114394 -0.00000079
0.25384799 -0.75309658 -0.00000003
-0.71535540 -0.64125758 0.00000000
0.48089895 0.14538531 -0.00000126
-0.30350974 -0.28312534 -0.00000032
0.13094920 0.08800425 -0.00000056
0.14105725 0.19399545 -0.00000062
0.06943591 -0.45390388 -0.00000022
-0.40736473 0.52115732 0.27968749
-0.21698540 -0.62959766 -0.00000011
-0.38511258 0.42345965 0.01865407
0.74876237 -0.47788063 -0.00000081
0.48797026 -0.24955994 -0.00000051
-0.33043268 0.08329736 -0.00000052
-0.14082274 0.43286970 -0.00000077
-0.07217953 0.75253588 0.05378267
-0.06445603 -0.76594931 -0.00000002
-0.52927893 0.03304972 -0.00000029
-0.23642702 0.01691644 -0.00000051
0.31167617 0.07999642 -0.00000059
-0.34564513 -0.62211323 -0.00000011
-0.07627693 -0.10894812 -0.00000043
-0.05775451 -0.49498320 -0.00000019
0.30508849 0.19461855 -0.00000080
-0.32228178 0.14940852 -0.00000054
-0.10967627 -0.66457969 -0.00000008
0.42880559 -0.45807895 -0.00000021
0.37367252 0.02791354 -0.00000069
-0.39407432 0.10457066 -0.00000045
-0.36397713 0.44785351 0.02574480
0.29386437 0.44137380 -0.00000124
0.45945224 0.25175384 -0.00000140
0.75718349 -0.46567178 -0.00000084
-0.19681276 -0.74524909 -0.00000003
0.69392091 -0.61050397 -0.00000047
-0.55502087 -0.76410407 -0.00000002
-0.00264923 -0.02459376 -0.00000048
-0.37821534 -0.01774976 -0.00000045
0.66220355 -0.66465831 -0.00000026
-0.57954586 -0.35844371 -0.00000017
0.28737259 0.49174732 -0.00000132
-0.19199285 0.09047134 -0.00000056
0.57972580 -0.57397360 -0.00000018
-0.67879492 -0.68890721 -0.00000000
0.17521431 0.45232213 -0.00000088
-0.35137266 -0.49656153 -0.00000019
0.74164397 -0.78812766 -0.00000003
0.65844232 -0.56250054 -0.00000045
-0.29592162 0.33875886 -0.00000060
0.45688725 -0.16884941 -0.00000057
0.23846292 -0.27134809 -0.00000033
-0.06625800 -0.31895623 -0.00000030
0.56864399 -0.55100191 -0.00000018
0.05965563 -0.02579456 -0.00000048
0.39389390 0.03477131 -0.00000077
-0.07509960 -0.15474863 -0.00000040
0.07184833 -0.48934218 -0.00000019
-0.29909587 0.17505048 -0.00000057
0.27196243 0.07286458 -0.00000055
0.05360027 0.64615351 -0.00000090
0.67975813 -0.16773228 -0.00000129
-0.62814367 -0.68935829 -0.00000006
-0.37708989 0.07373580 -0.00000046
-0.52119207 0.46544471 0.40615731
-0.61945117 0.13411929 -0.00000022
-0.48735213 -0.01853049 -0.00000033
0.50165743 -0.69373697 -0.00000007
-0.16769309 0.31511247 -0.00000070
-0.53351915 0.35487899 0.19237047
0.02577224 -0.00479745 -0.00000050
-0.47947058 -0.26133361 -0.00000029
0.76836187 0.00955591 -0.00000192
0.41335735 0.10160806 -0.00000096
0.49189007 -0.30026004 -0.00000043
0.07660220 0.33471143 -0.00000071
-0.50780481 -0.67274630 -0.00000008
0.26654142 0.02418263 -0.00000052
0.51276797 -0.32610989 -0.00000044
-0.09422391 -0.66274571 -0.00000009
0.33772147 -0.67548436 -0.00000008
-0.53974044 -0.69428754 -0.00000007
0.65159303 0.10773852 -0.00000174
0.72089118 -0.31801933 -0.00000113
0.03320134 -0.25342211 -0.00000034
-0.35935369 -0.11135047 -0.00000043
-0.16278797 0.53997642 -0.00000078
-0.24083132 -0.47437772 -0.00000020
-0.67276013 -0.63887107 -0.00000002
0.65212524 -0.28012118 -0.00000098
-0.16833651 0.36800727 -0.00000073
-0.05286937 -0.54738003 -0.00000016
-0.71147519 -0.11078428 -0.00000007
-0.54313868 -0.77537364 -0.00000002
0.57690442 -0.25031760 -0.00000080
-0.56791097 -0.61057711 -0.00000012
-0.03537832 0.65931648 -0.00000091
-0.20598708 -0.54232818 -0.00000016
-0.38949010 -0.46914336 -0.00000021
-0.56920743 0.31122342 0.17503247
-0.33187610 0.37786716 -0.00000057
0.14732006 0.13605821 -0.00000059
0.21255466 -0.12344603 -0.00000042
-0.36552480 -0.01972567 -0.00000046
0.61645895 -0.21278234 -0.00000100
-0.02129250 -0.35981679 -0.00000028
0.63885683 -0.00352334 -0.00000148
-0.19882210 -0.29502997 -0.00000032
-0.21638174 0.53699726 -0.00000072
-0.21706536 0.59820414 0.03322738
0.35174420 -0.13087893 -0.00000042
-0.51456732 0.48676765 0.43814358
0.64527541 -0.75084084 -0.00000004
-0.10501484 -0.56698054 -0.00000015
-0.14681076 0.14637661 -0.00000059
-0.68751574 -0.50961578 -0.00000003
0.41549692 -0.41035837 -0.00000024
-0.07251413 -0.37787795 -0.00000026
0.12966605 -0.59770721 -0.00000013
-0.51551121 0.20872073 -0.00000034
-0.49729592 -0.44231558 -0.00000022
0.19052072 -0.19416423 -0.00000038
0.16517647 0.34474835 -0.00000072
-0.50332236 0.51757407 0.48071340
-0.04428386 0.12580876 -0.00000058
-0.30781198 -0.34968236 -0.00000028
0.10253252 0.03566085 -0.00000052
-0.61621785 0.03452741 -0.00000020
-0.02059860 -0.62869269 -0.00000011
0.06599749 -0.10195391 -0.00000044
-0.77402705 -0.62843949 0.00000000
0.79486197 -0.35042492 -0.00000112
0.57550061 -0.48578322 -0.00000033
0.37685382 0.06416534 -0.00000077
0.60152882 0.06112694 -0.00000148
-0.41821715 -0.41509515 -0.00000024
-0.28283560 -0.68954968 -0.00000007
-0.46446836 0.25250092 -0.00000040
0.11545879 -0.12241404 -0.00000042
-0.40754893 0.30338290 -0.00000047
0.06590222 -0.13071187 -0.00000042
0.69958228 -0.24666820 -0.00000120
0.70932633 -0.50338733 -0.00000073
0.36670819 -0.05228771 -0.00000051
-0.48927450 0.42867285 0.25667477
0.03909850 -0.54038286 -0.00000016
0.42543238 -0.37710482 -0.00000026
-0.09004124 0.60809183 -0.00000087
0.29559007 -0.56734836 -0.00000015
-0.45228025 -0.41679522 -0.00000024
-0.21637936 0.06036024 -0.00000054
0.55107051 0.22678021 -0.00000165
-0.39239788 0.04079337 -0.00000044
-0.72221738 -0.55671084 0.00000000
-0.07029985 -0.72933114 -0.00000004
0.19049443 -0.78563952 -0.00000001
0.35782462 0.20376530 -0.00000098
-0.32805341 -0.64623970 -0.00000010
-0.59118181 -0.13613547 -0.00000020
-0.32086256 -0.52067643 -0.00000017
0.42901626 -0.62007022 -0.00000011
0.14048880 -0.77769673 -0.00000001
-0.58888978 -0.26506704 -0.00000018
0.18768504 0.05592228 -0.00000053
-0.77399206 -0.34298667 0.00000000
0.40670210 -0.35721877 -0.00000028
-0.14822493 0.22879130 -0.00000064
-0.15179347 -0.63621652 -0.00000010
0.18309318 -0.28997844 -0.00000032
0.45817503 -0.19094916 -0.00000053
-0.43660334 -0.68026847 -0.00000007
-0.23065801 -0.75451761 -0.00000003
-0.09026259 -0.20302568 -0.00000037
0.46334398 -0.51994359 -0.00000018
-0.13051748 -0.71246409 -0.00000005
0.61269087 -0.41725475 -0.00000059
-0.46976268 -0.64862967 -0.00000009
-0.63165653 0.15468414 -0.00000021
-0.01670613 0.77558482 -0.00000098
0.58934891 -0.20981608 -0.00000092
0.03366645 0.03849292 -0.00000052
-0.25910878 -0.28057060 -0.00000032
0.32460171 0.26861444 -0.00000100
-0.28054678 -0.75151223 -0.00000003
0.43406659 -0.11247879 -0.00000061
0.54529911 -0.24249861 -0.00000071
-0.33087975 0.54255807 0.15981284
-0.05760094 -0.75987673 -0.00000003
-0.39529139 0.54906845 0.31415382
0.59248590 -0.47227222 -0.00000041
0.46259296 -0.17839600 -0.00000057
-0.09170780 0.66322130 -0.00000088
-0.06111298 0.42502180 -0.00000077
0.01299313 -0.65745091 -0.00000009
0.42262012 -0.05978122 -0.00000068
-0.49883056 0.36959478 0.14890587
-0.54883516 0.31575084 0.14055111
-0.04900342 -0.17429136 -0.00000039
-0.25387847 0.41615316 -0.00000066
-0.39014310 -0.37576759 -0.00000027
-0.21429743 -0.51793748 -0.00000018
-0.46356118 0.04384000 -0.00000037
-0.09322457 0.56780422 -0.00000085
0.19013353 -0.15400955 -0.00000040
-0.68595785 -0.04558856 -0.00000011
0.33838949 -0.43090239 -0.00000023
-0.17474040 0.69975621 0.16211696
-0.47777760 0.36905104 0.10190750
0.17792399 0.56849074 -0.00000112
-0.68261248 -0.48742554 -0.00000004
-0.39609843 0.20743442 -0.00000047
0.07570089 0.43663812 -0.00000077
0.03671022 -0.38966718 -0.00000026
-0.64634413 0.23566090 0.17845871
0.55518758 0.11417052 -0.00000144
0.54002649 -0.61325443 -0.00000012
-0.17812657 0.40526870 -0.00000074
-0.71469784 -0.69862151 0.00000000
-0.31273317 -0.56899446 -0.00000014
0.16437344 0.26523414 -0.00000067
-0.28158593 0.40570050 -0.00000063
0.05707180 0.01633619 -0.00000051
0.26415980 -0.45835561 -0.00000021
0.34822085 -0.06309374 -0.00000046
-0.06061122 0.41160247 -0.00000076
0.15067898 -0.35968959 -0.00000028
-0.55208856 -0.65971899 -0.00000009
-0.08644897 0.09486310 -0.00000056
-0.77836978 -0.44650233 0.00000000
0.35649189 0.04328887 -0.00000066
-0.61066085 -0.25436652 -0.00000016
0.36170396 -0.09839124 -0.00000044
0.75517279 -0.15972573 -0.00000154
0.27305418 -0.24617349 -0.00000035
-0.46932849 -0.59308392 -0.00000013
0.24999242 -0.72546428 -0.00000005
-0.37862787 0.00390554 -0.00000045
0.39781675 -0.77637100 -0.00000001
-0.56275964 -0.58955735 -0.00000013
0.71810287 -0.41084194 -0.00000094
0.31989816 -0.76990104 -0.00000002
-0.44708002 0.13015760 -0.00000040
0.11433683 0.59618849 -0.00000097
-0.42489612 -0.11096956 -0.00000038
-0.79657555 -0.21859282 0.00000000
0.05766714 -0.59891075 -0.00000013
-0.30651665 0.27240005 -0.00000058
-0.37561336 0.59341758 0.36784336
0.26614675 -0.52812731 -0.00000017
0.05688275 -0.19121537 -0.00000038
-0.24510907 -0.66105676 -0.00000009
0.42927557 -0.17482638 -0.00000047
0.02749256 -0.25097939 -0.00000034
-0.44856709 0.32808706 -0.00000044
-0.17062534 0.07088837 -0.00000054
-0.57354808 -0.02820158 -0.00000024
-0.79764849 -0.15760809 0.00000000
0.01706834 0.37156045 -0.00000073
-0.25440040 0.60256612 0.12396782
0.08184286 0.19922771 -0.00000062
-0.78567320 -0.69695282 0.00000000
-0.57275146 -0.45752099 -0.00000016
-0.29033381 0.54198498 0.07033021
-0.68789208 0.16634454 0.11802997
0.65478802 0.08651458 -0.00000170
-0.55671173 -0.03642726 -0.00000025
-0.49970064 -0.59979755 -0.00000013
0.05710337 -0.31240609 -0.00000030
0.35153016 0.38230166 -0.00000131
0.16523258 0.00417166 -0.00000050
0.12094386 0.16932856 -0.00000061
-0.37566975 0.32787481 -0.00000051
-0.03489100 -0.60473102 -0.00000012
-0.24086969 -0.28190115 -0.00000032
-0.23388311 -0.24108310 -0.00000035
0.06563144 -0.46509874 -0.00000021
0.75119174 -0.48078939 -0.00000080
-0.07439282 0.37593582 -0.00000073
0.39992863 -0.19485226 -0.00000038
0.44819850 0.08855405 -0.00000105
0.16181849 -0.37612590 -0.00000026
-0.17823119 -0.29018599 -0.00000032
0.77786332 -0.48028064 -0.00000080
-0.65979809 -0.71941262 -0.00000002
-0.43367213 0.56702268 0.43675047
0.07210713 -0.48798853 -0.00000020
-0.53374684 0.33921120 0.15877010
0.12627378 -0.76755452 -0.00000002
-0.46707425 -0.25763988 -0.00000031
0.76027715 -0.66523492 -0.00000034
-0.55345619 -0.00416099 -0.00000026
-0.12427061 0.33478177 -0.00000071
-0.67424363 -0.76324689 0.00000000
0.41156697 -0.49922249 -0.00000019
-0.00256120 0.75697345 -0.00000097
0.79503727 -0.05807385 -0.00000185
-0.52923524 -0.59263259 -0.00000013
0.72286463 -0.17285471 -0.00000142
-0.70020682 -0.66779721 0.00000000
0.26685750 -0.36687884 -0.00000027
0.41766691 -0.45787418 -0.00000021
-0.48417443 -0.31239498 -0.00000028
0.70598400 -0.09368207 -0.00000152
-0.62064588 -0.08566723 -0.00000018
0.53515565 0.14276893 -0.00000143
-0.04376427 0.12096266 -0.00000058
-0.38068247 0.25251418 -0.00000049
0.24000351 -0.43742561 -0.00000023
0.15036516 0.03735289 -0.00000052
0.28282204 -0.70361888 -0.00000006
-0.30566028 0.52564847 0.06813226
-0.15380143 -0.56398195 -0.00000015
0.24106087 -0.45125490 -0.00000022
-0.26706636 0.56705725 0.07425764
0.07535125 0.17022875 -0.00000061
-0.75583291 0.05682794 0.02755414
-0.76044160 -0.27031466 0.00000000
0.73651648 -0.25346702 -0.00000130
-0.37769371 -0.38922316 -0.00000026
0.77455020 -0.20560540 -0.00000149
0.54770398 -0.66929275 -0.00000008
0.55907077 -0.24196839 -0.00000076
-0.54357612 -0.50569737 -0.00000018
-0.01310960 0.34527418 -0.00000072
-0.23145677 0.51978385 -0.00000070
-0.39510161 -0.67989123 -0.00000008
0.03881585 -0.25205874 -0.00000034
-0.49106881 0.43247521 0.26885426
-0.15017220 0.69407350 0.09628461
0.25598794 0.17860866 -0.00000061
0.11368018 0.18990253 -0.00000062
0.16846633 0.59197235 -0.00000113
0.69363821 -0.66603208 -0.00000033
0.38393790 -0.32361269 -0.00000030
-0.44738540 -0.59143686 -0.00000013
-0.04337222 -0.61485720 -0.00000012
-0.30853578 -0.69244212 -0.00000007
0.04066111 -0.45376450 -0.00000022
-0.59164387 -0.45021847 -0.00000014
-0.41203439 -0.64629102 -0.00000010
-0.53416204 0.26786011 0.00440096
0.53838426 -0.64893925 -0.00000009
-0.46409428 -0.73504710 -0.00000004
-0.18361095 -0.70927018 -0.00000006
0.37749422 -0.45973518 -0.00000021
-0.11664515 -0.66129148 -0.00000009
0.44126984 -0.59126991 -0.00000013
0.26464173 0.29863444 -0.00000087
0.28820094 -0.77873522 -0.00000001
-0.33711028 -0.46636260 -0.00000021
-0.64590514 -0.18815969 -0.00000013
-0.38230622 0.44370013 0.05659380
-0.16428909 0.48149398 -0.00000077
-0.16780616 0.33623648 -0.00000071
-0.63354206 -0.51258427 -0.00000008
0.69000489 -0.46493483 -0.00000074
0.55511796 -0.25185212 -0.00000072
-0.07076937 -0.50743866 -0.00000018
-0.63198107 -0.73759055 -0.00000004
-0.46505123 0.47153357 0.29723376
-0.66085631 0.07606436 -0.00000016
0.26577145 0.49084666 -0.00000125
0.28570932 0.15810299 -0.00000066
-0.58501559 0.20681137 -0.00000027
0.49433762 0.00841735 -0.00000104
-0.21331184 0.68181789 0.20701887
0.48675153 -0.03835133 -0.00000092
0.50767815 -0.45183131 -0.00000022
-0.73933929 -0.55368531 0.00000000
0.06792749 -0.15036029 -0.00000041
0.60929835 -0.53679055 -0.00000034
-0.67071420 -0.40605253 -0.00000006
0.28865883 -0.02859370 -0.00000048
0.73958188 -0.40464768 -0.00000099
-0.11415846 0.10816899 -0.00000057
0.19185230 -0.42918488 -0.00000023
0.60552549 -0.61760134 -0.00000017
-0.71199644 -0.28877372 -0.00000004
-0.03487948 -0.03094407 -0.00000048
-0.10780271 -0.20668252 -0.00000037
-0.07214297 0.20694631 -0.00000063
-0.73770255 0.00148833 -0.00000007
-0.35506135 -0.72314334 -0.00000005
-0.07345404 -0.27104062 -0.00000033
-0.79226530 -0.14712146 0.00000000
-0.57743102 -0.46317008 -0.00000015
-0.17573592 -0.16720548 -0.00000040
-0.35030067 0.10810374 -0.00000050
-0.28289443 0.53269136 0.03391617
-0.64312905 -0.77353054 -0.00000002
0.63033080 -0.10955662 -0.00000124
0.11033736 -0.53393382 -0.00000017
-0.79475629 -0.55282795 0.00000000
-0.40870461 -0.35213825 -0.00000028
0.54475653 -0.62343264 -0.00000011
-0.44216141 0.41250756 0.11896917
-0.27014837 0.53588152 0.01312070
0.42608747 -0.64780456 -0.00000010
-0.22267687 0.28642768 -0.00000067
-0.42825380 -0.06184203 -0.00000039
0.73541051 -0.58644849 -0.00000053
0.56423926 -0.22827820 -0.00000080
-0.43326530 -0.56047833 -0.00000015
-0.52452886 0.29351297 0.03926254
-0.18169826 -0.63027036 -0.00000011
-0.02901468 0.48760808 -0.00000080
-0.41399553 -0.28452092 -0.00000032
0.54713196 -0.52703524 -0.00000017
0.09702651 -0.12145146 -0.00000042
-0.50307524 0.47925043 0.39677539
-0.36203817 -0.79460800 -0.00000000
-0.51177800 -0.01893885 -0.00000030
0.11085306 0.57056642 -0.00000091
0.30053630 0.20811012 -0.00000081
-0.19116156 0.49415472 -0.00000074
0.78415167 -0.04637779 -0.00000186
0.53509116 -0.42701399 -0.00000032
-0.19124983 -0.70889175 -0.00000006
-0.65010661 0.18912844 0.08538365
0.34974131 0.20059739 -0.00000095
0.09922200 0.15336978 -0.00000060
0.75851327 -0.46929628 -0.00000083
0.07770448 -0.28453273 -0.00000032
-0.56718016 0.08781399 -0.00000026
-0.30159116 -0.39893830 -0.00000025
-0.32654053 -0.79827857 -0.00000000
0.76727098 -0.60936958 -0.00000048
-0.34305039 -0.07384346 -0.00000045
-0.49086139 -0.24007861 -0.00000029
-0.46314031 0.53576565 0.43285760
-0.01270339 -0.14357148 -0.00000041
0.69857585 -0.64989173 -0.00000038
0.11953264 0.43932089 -0.00000077
0.20285708 -0.18464723 -0.00000038
0.03601441 -0.37881300 -0.00000026
-0.62888497 -0.62072641 -0.00000007
-0.01400595 -0.61595160 -0.00000012
-0.42242053 0.39704308 0.04235592
-0.24777049 0.61063915 0.12710837
0.15967184 -0.77328742 -0.00000002
0.25145131 -0.66517144 -0.00000008
0.01535054 0.73717880 -0.00000096
0.48560292 0.03931128 -0.00000107
-0.28431675 0.16035312 -0.00000058
-0.64620203 0.23495790 0.17661965
0.72609389 -0.19423972 -0.00000138
0.00913536 0.33780831 -0.00000071
0.75957370 -0.67039967 -0.00000032
0.25038734 -0.00123487 -0.00000050
-0.69598198 -0.24834307 -0.00000007
0.14109834 0.62002039 -0.00000110
-0.03601949 0.55553049 -0.00000085
0.21999440 -0.17624711 -0.00000039
-0.12708768 0.12633304 -0.00000058
0.45373389 0.12277249 -0.00000113
0.02665002 -0.75924057 -0.00000003
-0.30815551 -0.76489192 -0.00000002
0.29098991 -0.01934332 -0.00000049
-0.79096383 -0.04699976 -0.00000000
-0.13313027 0.28942785 -0.00000068
0.66598177 -0.25219434 -0.00000108
-0.25123844 0.31580639 -0.00000064
-0.08116199 0.08065012 -0.00000055
0.07451183 0.47302839 -0.00000080
-0.25759146 -0.27648389 -0.00000033
-0.14100169 0.13455573 -0.00000058
0.38686565 -0.54700756 -0.00000016
-0.10970855 -0.29060623 -0.00000032
0.01055053 -0.16445591 -0.00000040
0.39983639 -0.22263168 -0.00000036
-0.45779839 0.53497672 0.41951561
-0.34251291 0.47733817 0.04319854
0.40639216 -0.11674765 -0.00000051
0.73239857 -0.42896354 -0.00000093
0.49782643 0.26851618 -0.00000156
-0.72086734 -0.02541957 -0.00000008
-0.09446999 0.22762480 -0.00000064
-0.28694731 0.30417374 -0.00000060
-0.35367417 -0.06511942 -0.00000046
-0.64148951 -0.61951792 -0.00000006
-0.11979706 0.47071889 -0.00000079
0.23655955 -0.56574243 -0.00000015
-0.66982645 -0.73448092 -0.00000000
0.09850972 0.53757000 -0.00000084
-0.56727850 -0.64944828 -0.00000009
-0.62424469 0.06625873 -0.00000020
-0.06038243 -0.45196307 -0.00000022
-0.42515436 -0.67609143 -0.00000008
0.75825340 0.00541407 -0.00000188
0.28886363 0.06797785 -0.00000054
0.39805108 -0.58219069 -0.00000014
0.72746706 -0.14916165 -0.00000148
-0.57301265 -0.53372335 -0.00000014
-0.46306121 -0.05683664 -0.00000035
0.53924358 0.13049723 -0.00000142
0.56042367 -0.21934798 -0.00000081
-0.28699818 0.51425070 0.00271653
0.38053453 0.21393076 -0.00000107
-0.56453991 0.42936343 0.42197084
0.42326137 0.13142294 -0.00000105
-0.71702057 0.11255403 0.06436118
0.22955032 -0.25817570 -0.00000034
-0.79058498 -0.65737057 0.00000000
-0.18016860 -0.67340320 -0.00000008
0.48735610 -0.77312142 -0.00000002
0.59588069 -0.32084218 -0.00000072
-0.78154290 -0.68375540 0.00000000
0.22053157 -0.76835251 -0.00000002
-0.66902870 0.11446860 -0.00000016
-0.30981708 0.62418491 0.29161298
-0.61919016 0.22919296 0.10529126
-0.75480580 -0.16915847 -0.00000002
0.70886624 -0.17979711 -0.00000136
-0.36504725 0.49029189 0.12042710
0.27466589 -0.39448863 -0.00000025
-0.31932181 0.06774257 -0.00000053
0.63247949 -0.68850231 -0.00000012
0.62267494 -0.76020265 -0.00000002
0.49829483 0.04174791 -0.00000112
-0.22394332 0.59202540 0.03474906
-0.08252141 -0.01295461 -0.00000049
0.02688179 -0.77064574 -0.00000002
-0.60301405 0.24627723 0.10726742
0.30762643 -0.42594039 -0.00000023
-0.70197761 -0.37412030 -0.00000004
-0.55491000 0.30863640 0.13828886
0.05079921 0.48310357 -0.00000080
-0.40367734 -0.38698670 -0.00000026
-0.22597861 -0.51440650 -0.00000018
0.09232135 0.04082896 -0.00000053
0.43578091 -0.75376940 -0.00000003
-0.04948043 0.47497281 -0.00000080
-0.19436237 -0.60474294 -0.00000012
-0.25406620 -0.32766286 -0.00000030
-0.51331133 0.42196640 0.29438931
0.10429997 -0.45532447 -0.00000022
0.41804445 -0.35446000 -0.00000028
-0.37883642 -0.47163275 -0.00000021
0.14163792 0.61646801 -0.00000110
-0.57836884 -0.39862168 -0.00000016
-0.16496307 0.66989893 0.07586382
0.75179863 -0.48513609 -0.00000079
0.50646079 -0.59783041 -0.00000013
0.05921818 -0.69867593 -0.00000006
-0.10038093 0.19886085 -0.00000062
0.42812398 0.31757396 -0.00000143
-0.52965516 -0.25615939 -0.00000024
-0.15366431 -0.66748297 -0.00000008
0.19637325 0.56411719 -0.00000117
0.07124057 0.32680616 -0.00000070
-0.70117241 -0.28576806 -0.00000005
0.09126472 0.44766846 -0.00000078
-0.03480284 0.22031748 -0.00000064
0.24708453 -0.73550540 -0.00000004
0.29043069 -0.27111945 -0.00000033
-0.44696155 -0.53403014 -0.00000017
0.35937986 0.06358713 -0.00000071
-0.27204242 -0.27683994 -0.00000033
-0.24515215 0.14643402 -0.00000059
-0.65784973 -0.35835841 -0.00000009
0.62103313 -0.50426614 -0.00000044
-0.54397851 -0.44689873 -0.00000019
-0.53711820 -0.67955601 -0.00000008
-0.23733011 -0.54479420 -0.00000016
-0.09905565 0.65638018 -0.00000087
0.49655157 -0.58463663 -0.00000013
-0.59871793 -0.79714644 -0.00000000
-0.10162630 -0.26781267 -0.00000033
0.54933411 -0.21250081 -0.00000078
-0.34549838 -0.54517955 -0.00000016
-0.18410078 -0.26145935 -0.00000034
-0.15553071 -0.72510606 -0.00000005
0.65563738 -0.22155482 -0.00000111
-0.18409073 0.68045121 0.14045352
0.54456812 -0.32708782 -0.00000054
-0.14966930 0.07260554 -0.00000055
-0.21880987 -0.42489368 -0.00000023
0.32443160 -0.53672963 -0.00000016
-0.48424754 0.43657100 0.26292306
-0.06316952 -0.79376096 -0.00000000
-0.30538601 0.54048187 0.09981554
-0.46201873 -0.66781384 -0.00000008
0.78603035 -0.24534200 -0.00000139
-0.10359577 0.45525002 -0.00000078
0.02859127 0.47285429 -0.00000080
0.24453536 -0.36820161 -0.00000027
-0.00792089 -0.52255464 -0.00000017
0.67892933 -0.58071309 -0.00000048
0.17909037 -0.39472958 -0.00000025
-0.04888465 -0.45478934 -0.00000022
0.18329149 0.39175740 -0.00000079
0.51870745 0.25625795 -0.00000160
0.07373025 -0.06893489 -0.00000046
-0.08555358 -0.41270450 -0.00000024
0.43085805 0.05817686 -0.00000093
-0.17094083 0.01227603 -0.00000051
-0.51991618 -0.77713996 -0.00000001
-0.50568646 0.41806513 0.26930600
0.22143131 -0.16957687 -0.00000039
-0.05233447 0.11260683 -0.00000057
0.60559064 -0.17768210 -0.00000103
0.05964817 -0.53092366 -0.00000017
-0.42974913 -0.42198512 -0.00000024
-0.77684200 -0.05576517 -0.00000001
0.07321557 0.36903024 -0.00000073
-0.63058013 0.31158155 0.30937019
0.33197245 0.31248632 -0.00000111
-0.13290133 0.72691965 0.13017967
0.17699470 -0.26090002 -0.00000034
-0.42815438 0.39727408 0.05533652
-0.42487523 -0.34916264 -0.00000028
0.50827378 -0.45447135 -0.00000022
0.70516360 0.04369031 -0.00000178
0.38738209 -0.67259347 -0.00000008
-0.58469844 -0.51355082 -0.00000014
-0.17932102 0.30314270 -0.00000069
0.10120463 -0.32466725 -0.00000030
-0.31689602 0.11617261 -0.00000054
-0.55124527 0.31753391 0.14967623
-0.43558663 -0.56095290 -0.00000015
0.06404738 0.73386890 -0.00000108
-0.65242803 -0.20482875 -0.00000012
0.41861460 -0.79902631 -0.00000000
0.51377589 -0.79318672 -0.00000000
0.05109096 0.48381585 -0.00000080
0.53924203 0.16088320 -0.00000148
-0.08626776 0.35352170 -0.00000072
0.24525295 -0.15722150 -0.00000040
-0.69242501 0.19699486 0.19459499
0.33314803 -0.31160933 -0.00000031
0.11488995 -0.03949262 -0.00000048
0.79990989 -0.61693919 -0.00000046
0.58267969 -0.56653690 -0.00000020
0.47864911 -0.41685498 -0.00000024
0.36173061 -0.58201545 -0.00000014
0.05844423 0.59232926 -0.00000087
-0.53606308 -0.41010067 -0.00000021
-0.57500094 -0.27194747 -0.00000019
0.24579348 -0.54311848 -0.00000016
0.02290337 0.22254214 -0.00000064
-0.03170734 0.77336639 0.01103832
-0.76242691 0.05843922 0.04541037
-0.03291904 -0.79638684 -0.00000000
0.41036618 -0.37351057 -0.00000027
-0.72224283 -0.42084822 -0.00000001
0.75523287 -0.62266302 -0.00000044
-0.62536359 0.32641044 0.33028865
0.67628008 -0.02651050 -0.00000155
0.52963483 -0.17652415 -0.00000079
0.30784652 -0.39870951 -0.00000025
-0.03817028 0.14350621 -0.00000059
-0.25875968 0.14380170 -0.00000059
0.14751983 -0.42395365 -0.00000024
-0.48647827 -0.65224069 -0.00000009
0.64357346 -0.76428723 -0.00000002
0.09039480 -0.04870247 -0.00000047
0.64159679 -0.26342908 -0.00000098
0.06426166 0.13459088 -0.00000058
-0.25283784 0.05756090 -0.00000054
-0.42503670 0.23916441 -0.00000044
-0.36528739 -0.01101474 -0.00000046
0.15382788 0.10833224 -0.00000057
-0.73496389 -0.06038492 -0.00000006
-0.44062164 0.37542495 0.03491999
-0.62566394 -0.22106248 -0.00000015
0.43903801 -0.78592539 -0.00000001
0.29141057 0.12242020 -0.00000061
0.12354008 -0.41897681 -0.00000024
0.60480231 0.15698776 -0.00000168
-0.39704704 -0.11734230 -0.00000041
-0.04655104 -0.31849897 -0.00000030
0.36038017 0.05214990 -0.00000069
-0.25910097 -0.72199661 -0.00000005
0.00197980 -0.30683947 -0.00000031
0.51503664 -0.47391403 -0.00000020
-0.52191907 -0.64816695 -0.00000009
0.29088631 -0.52443492 -0.00000017
0.74770671 -0.23166937 -0.00000138
-0.63969094 -0.27222630 -0.00000012
-0.22324523 -0.12372438 -0.00000042
0.65110534 -0.28736347 -0.00000096
0.67544121 -0.19937465 -0.00000121
-0.46224612 -0.34015903 -0.00000029
-0.44210365 -0.65240091 -0.00000009
0.12344551 -0.57498133 -0.00000014
0.52833164 -0.59533870 -0.00000013
-0.72984046 -0.63925308 0.00000000
0.28083962 -0.74308670 -0.00000004
-0.41027156 -0.25639299 -0.00000034
-0.26501283 -0.64433682 -0.00000010
-0.70961380 -0.76241475 0.00000000
-0.50607526 0.46380147 0.36968392
0.13809752 -0.07168036 -0.00000046
0.45504856 0.13359801 -0.00000116
0.26079866 0.10271478 -0.00000056
-0.43772620 0.40989697 0.10363621
-0.28345940 0.61325479 0.21046700
-0.46027905 -0.60383767 -0.00000012
0.47839561 0.16538846 -0.00000129
-0.35748807 0.51981735 0.16822957
-0.08233095 -0.40845481 -0.00000024
-0.56622493 -0.51471204 -0.00000016
-0.32490632 -0.28971714 -0.00000032
0.49987018 0.04559063 -0.00000113
0.04915959 0.53029466 -0.00000083
-0.61466557 -0.67312020 -0.00000007
-0.54036838 -0.51881856 -0.00000018
0.38253504 0.09323186 -0.00000085
0.41521740 0.16188176 -0.00000108
0.39307258 0.16499121 -0.00000102
-0.52236497 -0.21490198 -0.00000026
0.23922576 -0.61389405 -0.00000012
-0.57700002 0.32675967 0.22580028
0.62898415 -0.26400766 -0.00000094
-0.02650755 0.65795505 -0.00000091
0.30481738 -0.58322304 -0.00000014
-0.47232914 0.37511137 0.10323900
-0.27471203 0.18112043 -0.00000059
-0.16596228 0.70296544 0.14999785
-0.50553739 -0.12422676 -0.00000029
-0.12223048 0.42242134 -0.00000076
-0.64549375 0.16559735 0.02413732
0.52690071 0.00755259 -0.00000114
-0.32400206 -0.77606779 -0.00000001
-0.36043423 -0.46847171 -0.00000021
-0.03035626 0.45991853 -0.00000079
-0.45656508 0.35120621 0.01691155
-0.41075048 -0.01041347 -0.00000041
-0.38843676 0.47216502 0.13187966
0.16124155 -0.38025862 -0.00000026
-0.40414441 -0.43327719 -0.00000023
-0.16161194 0.46503228 -0.00000077
-0.04333979 0.09070319 -0.00000056
-0.69365215 -0.37094364 -0.00000005
-0.08371359 -0.45620671 -0.00000021
-0.65803850 -0.19656089 -0.00000012
0.24358973 0.03820809 -0.00000052
-0.01318293 0.69920522 -0.00000094
-0.49739552 -0.23561317 -0.00000028
0.30500320 0.17140329 -0.00000075
-0.34159303 0.55523551 0.21071586
-0.37365109 0.45105934 0.05377362
-0.47335565 0.53908694 0.46231613
0.15760246 0.52022696 -0.00000096
-0.72806823 0.13052446 0.12750982
-0.52383697 -0.68846452 -0.00000007
0.59663975 -0.76652354 -0.00000002
0.62856388 -0.05285023 -0.00000135
-0.63931215 -0.67765236 -0.00000005
-0.16449209 0.29736471 -0.00000069
-0.74474275 -0.28246754 -0.00000001
-0.39735138 0.03885395 -0.00000044
-0.55299014 0.25117382 0.00906206
-0.13409787 -0.04837403 -0.00000047
0.09738308 0.69301349 -0.00000110
-0.48069969 -0.56671405 -0.00000015
-0.78559381 -0.55645174 0.00000000
-0.49593282 0.27901852 -0.00000038
-0.78300256 -0.69342911 0.00000000
0.00573668 -0.15950964 -0.00000040
0.69836974 -0.55657095 -0.00000059
-0.10890887 0.44737092 -0.00000078
0.71175700 -0.48728254 -0.00000077
0.40891618 0.03312504 -0.00000081
-0.22187771 0.15125696 -0.00000059
0.12170492 0.45036495 -0.00000078
-0.43652409 -0.21119140 -0.00000035
-0.61405730 0.25169042 0.14307968
-0.69336891 -0.68558288 0.00000000
-0.37417030 0.46041900 0.07527180
0.35093823 -0.69677675 -0.00000006
-0.25741380 0.33234751 -0.00000064
-0.00703094 0.25075614 -0.00000066
-0.02372044 -0.43662760 -0.00000023
0.43684214 -0.43567538 -0.00000023
0.26837164 -0.01166482 -0.00000049
0.47979534 -0.36182019 -0.00000027
-0.21712284 0.62361181 0.08864410
-0.07115704 -0.73918289 -0.00000004
0.02432618 0.68299031 -0.00000093
0.18710594 0.37820554 -0.00000078
-0.02118113 -0.52998853 -0.00000017
-0.78623503 -0.07980578 -0.00000000
-0.52131665 0.30202517 0.05079624
0.50187576 -0.18932545 -0.00000068
0.03376109 0.08407390 -0.00000055
0.08847727 -0.10116239 -0.00000044
0.14428604 0.44051480 -0.00000078
-0.09732997 -0.70450437 -0.00000006
-0.21381754 -0.37214711 -0.00000027
-0.22399703 -0.54396129 -0.00000016
-0.35312065 -0.00644931 -0.00000048
0.00537821 0.46803316 -0.00000079
0.36272100 -0.01224777 -0.00000058
-0.29165545 0.21675660 -0.00000058
-0.09691040 -0.65320927 -0.00000009
-0.62780446 -0.07240979 -0.00000017
-0.60112655 -0.27937070 -0.00000016
-0.33280620 0.48778296 0.04480471
0.38292074 0.04089780 -0.00000074
-0.22452343 -0.30043092 -0.00000031
-0.31788740 -0.00084579 -0.00000050
-0.12504302 0.46422747 -0.00000079
-0.79634309 -0.19624479 0.00000000
-0.35232174 0.32975087 -0.00000054
0.64402556 0.04560162 -0.00000159
-0.63541692 0.29733703 0.28889731
0.34563500 -0.71161956 -0.00000006
0.01261656 0.09030332 -0.00000056
-0.26046604 -0.38327077 -0.00000026
0.44824132 -0.33914998 -0.00000029
0.53741115 -0.51158488 -0.00000018
-0.11930456 0.14258318 -0.00000059
0.14926332 0.22814389 -0.00000064
-0.78973782 -0.20537281 0.00000000
0.44477147 0.11593165 -0.00000109
-0.45402291 0.42461458 0.17112905
0.78145128 -0.60306787 -0.00000049
-0.29867145 0.08325355 -0.00000055
-0.79099137 -0.10454660 0.00000000
0.31396690 0.19685426 -0.00000083
-0.00381808 0.76308161 -0.00000098
-0.37006825 0.37601772 -0.00000053
0.06965672 0.61056477 -0.00000088
0.27585727 0.09550350 -0.00000056
-0.26978728 -0.05462440 -0.00000047
-0.33892846 -0.02479379 -0.00000048
0.16968884 -0.72796571 -0.00000005
0.41995916 0.26374683 -0.00000130
0.04966392 0.14478435 -0.00000059
-0.43345094 -0.13534845 -0.00000037
0.50089926 0.09152423 -0.00000122
-0.40669981 -0.45411897 -0.00000022
-0.45643356 -0.65403283 -0.00000009
0.17723313 -0.30898032 -0.00000031
0.44031027 -0.56394047 -0.00000015
0.08823987 0.43855238 -0.00000077
0.11516689 0.53902096 -0.00000086
-0.38047978 0.49882373 0.17257793
-0.53660542 -0.08590826 -0.00000027
0.13664094 0.44821060 -0.00000078
0.21065104 -0.13844669 -0.00000041
0.16071931 -0.59104264 -0.00000013
0.60362637 -0.51992542 -0.00000036
-0.13425474 -0.26431119 -0.00000033
0.13930300 -0.00414148 -0.00000050
0.14963616 -0.31304532 -0.00000030
-0.13222785 0.26217550 -0.00000066
-0.55118334 0.18298668 -0.00000030
-0.16358836 0.41272467 -0.00000075
0.11920112 -0.47324184 -0.00000020
0.33372268 -0.21896479 -0.00000036
-0.47339413 -0.27902928 -0.00000030
0.54162413 0.09865705 -0.00000137
-0.69172144 -0.11391933 -0.00000009
-0.09869541 -0.55909580 -0.00000015
0.58746451 0.20487902 -0.00000172
0.30295724 0.04776604 -0.00000053
-0.47904149 -0.19648816 -0.00000031
0.45045847 0.32633865 -0.00000152
-0.04080435 -0.32255664 -0.00000030
-0.10368615 0.34506691 -0.00000072
-0.02110060 -0.00656892 -0.00000050
-0.19448161 -0.17159034 -0.00000039
0.16606259 -0.44197196 -0.00000022
0.77165812 -0.02276537 -0.00000186
0.65653443 -0.42441985 -0.00000071
-0.21496125 0.39440250 -0.00000070
0.10445564 0.28558856 -0.00000068
-0.06069473 -0.06662470 -0.00000046
-0.00424453 -0.54068756 -0.00000016
-0.49693403 0.00115017 -0.00000032
-0.62049061 -0.10672603 -0.00000017
0.13777567 -0.46772271 -0.00000021
-0.05268952 -0.79549313 -0.00000000
-0.17320505 0.38195777 -0.00000074
0.07725241 0.49783188 -0.00000081
0.24156302 -0.71999753 -0.00000005
0.71895111 -0.27767047 -0.00000120
-0.45645946 0.19865490 -0.00000040
-0.07279648 0.24595511 -0.00000065
0.22644366 0.20695756 -0.00000063
-0.58118910 0.07447357 -0.00000025
-0.47874114 -0.08068418 -0.00000033
0.72653073 -0.25904509 -0.00000126
-0.02452221 -0.17764699 -0.00000039
-0.34765330 0.24290584 -0.00000053
-0.29432517 -0.49406838 -0.00000019
-0.48192328 -0.49859348 -0.00000019
-0.46559155 -0.09375153 -0.00000034
-0.02838571 0.07596171 -0.00000055
0.51240802 -0.08672230 -0.00000091
0.15480416 0.60194135 -0.00000111
0.49155942 -0.77918333 -0.00000001
0.31335947 -0.71511394 -0.00000005
-0.64168686 -0.36401731 -0.00000010
0.54832917 -0.49781239 -0.00000022
0.35138288 -0.61557961 -0.00000012
0.63110256 -0.48123240 -0.00000052
-0.33732417 0.53270984 0.15240553
-0.29969013 0.02593828 -0.00000052
0.72523195 -0.46454248 -0.00000084
-0.35509306 0.09097478 -0.00000049
0.77550238 -0.22923814 -0.00000143
0.48385453 0.04570694 -0.00000108
0.36968443 0.29498467 -0.00000120
0.34223065 -0.29353100 -0.00000032
-0.44313747 0.43508413 0.17022394
0.77775496 -0.40385801 -0.00000099
-0.30125004 0.12022171 -0.00000055
-0.22730242 0.32577366 -0.00000067
0.44166172 -0.79063100 -0.00000001
-0.32164872 0.56178242 0.18156029
0.10633370 -0.47038433 -0.00000021
-0.54536366 -0.41353849 -0.00000020
0.35721999 -0.73727745 -0.00000004
-0.08264894 -0.08465662 -0.00000045
0.35295129 0.03867167 -0.00000064
-0.56440377 -0.17324556 -0.00000022
-0.42042747 0.46344966 0.18253119
-0.22526167 0.57629210 0.00337959
-0.35038021 -0.51127625 -0.00000018
-0.04148144 -0.44826901 -0.00000022
-0.28777009 -0.67372870 -0.00000008
0.19446120 -0.25723469 -0.00000034
0.27599424 -0.24031483 -0.00000035
-0.06058799 0.13282055 -0.00000058
-0.17104466 -0.57015675 -0.00000014
0.03149981 -0.50481761 -0.00000018
-0.70560783 0.12411678 0.06468757
-0.12032712 -0.31186390 -0.00000031
-0.17199461 -0.11911757 -0.00000043
-0.72273368 -0.43996623 -0.00000000
-0.66999531 -0.50367308 -0.00000005
0.53779519 -0.75516403 -0.00000003
0.20167783 0.30102593 -0.00000069
-0.47578004 -0.66879874 -0.00000008
-0.38858572 -0.56178039 -0.00000015
0.73464763 -0.16490665 -0.00000147
0.30913243 0.32517642 -0.00000106
0.06963016 -0.72777492 -0.00000005
-0.53781301 0.41411030 0.33061352
-0.12077480 0.47304434 -0.00000080
-0.28554988 -0.69349498 -0.00000007
0.38526249 -0.55778491 -0.00000015
-0.16808753 -0.00187876 -0.00000050
-0.60640216 -0.56067425 -0.00000010
0.34820420 -0.27152005 -0.00000033
0.01076117 0.57578462 -0.00000086
0.17238472 -0.36317801 -0.00000027
0.39606899 0.04912295 -0.00000080
0.39988241 -0.40749681 -0.00000025
0.53522712 -0.61870992 -0.00000011
-0.77968228 -0.07316189 -0.00000001
-0.37509879 -0.58035439 -0.00000014
0.49918604 -0.48502448 -0.00000020
-0.07173946 0.01661288 -0.00000051
-0.50931424 -0.28855035 -0.00000026
-0.11139164 -0.03066334 -0.00000048
-0.70153332 -0.43549031 -0.00000003
0.51900136 0.15345116 -0.00000140
0.26578906 -0.18728364 -0.00000038
-0.33815759 -0.51446617 -0.00000018
-0.38504377 0.46940014 0.11847900
0.21464267 -0.04172938 -0.00000047
-0.32725763 -0.43868336 -0.00000023
0.10244092 0.16750441 -0.00000060
-0.14790969 0.52907115 -0.00000079
-0.52680540 -0.44046578 -0.00000021
0.57517010 0.13781695 -0.00000155
-0.16008352 0.58252722 -0.00000079
-0.10407299 0.25753203 -0.00000066
-0.79479444 -0.39838970 0.00000000
-0.31527066 0.28313068 -0.00000057
-0.13086200 -0.61809057 -0.00000011
-0.66120994 -0.04886448 -0.00000014
-0.28570807 -0.11421239 -0.00000043
-0.09564725 -0.24037965 -0.00000035
-0.63913953 0.25671628 0.20860043
-0.57636338 -0.42797676 -0.00000016
-0.15848772 -0.10627522 -0.00000043
-0.49444354 -0.48991871 -0.00000019
-0.08718971 -0.40372455 -0.00000025
-0.20293307 0.60623175 0.01994241
-0.23234262 -0.39397234 -0.00000025
-0.65839434 -0.29591346 -0.00000010
-0.22821748 0.38494220 -0.00000068
-0.14921547 0.26324207 -0.00000066
0.44673297 -0.33816180 -0.00000029
0.70112127 -0.64660573 -0.00000038
-0.66322124 -0.26884112 -0.00000010
0.21468109 -0.13857339 -0.00000041
0.69542843 0.06777198 -0.00000180
0.55017877 -0.30364180 -0.00000061
-0.21351390 0.24894032 -0.00000066
-0.25069144 0.56259948 0.02892192
-0.76886904 -0.76807201 0.00000000
0.56531030 0.07945659 -0.00000140
-0.12300845 0.22356699 -0.00000064
-0.61671621 -0.48992395 -0.00000011
-0.21271284 -0.59795505 -0.00000013
0.40198144 -0.72364974 -0.00000005
-0.40358061 -0.42271575 -0.00000024
-0.11914451 -0.59932733 -0.00000013
0.66456825 -0.19624335 -0.00000118
-0.33287588 0.57355160 0.23160511
-0.63310993 0.03470780 -0.00000018
0.18643741 -0.33146444 -0.00000029
0.31513137 -0.50210083 -0.00000019
0.15370923 0.31012714 -0.00000069
0.00497664 0.03057589 -0.00000052
0.34379497 -0.21205197 -0.00000037
-0.42509100 -0.42331165 -0.00000024
-0.29175171 -0.28816554 -0.00000032
-0.22053307 0.64748174 0.14801121
0.05751012 0.15478802 -0.00000060
0.03593421 0.73167503 -0.00000098
0.61775017 -0.72898996 -0.00000004
-0.50755715 0.11726939 -0.00000033
-0.21955904 -0.76430798 -0.00000002
-0.13505526 0.51058984 -0.00000080
-0.60992819 -0.48876020 -0.00000011
-0.66171652 0.19278248 0.11860079
-0.60583752 -0.20698553 -0.00000017
-0.36902064 0.37684536 -0.00000053
-0.66563874 0.21129172 0.16741565
0.64760911 -0.13363551 -0.00000125
-0.67260033 0.21878056 0.19886246
-0.60454631 -0.02484512 -0.00000020
0.41607863 -0.36578810 -0.00000027
-0.32443368 0.02358653 -0.00000051
0.58710390 -0.54275286 -0.00000026
-0.47318125 -0.57015932 -0.00000014
-0.33764353 0.13170688 -0.00000052
-0.01297128 -0.10598962 -0.00000043
0.05662941 0.34151340 -0.00000071
-0.18348818 0.27390632 -0.00000067
0.78402328 -0.75415879 -0.00000011
0.00782247 -0.79467332 -0.00000000
0.51951230 0.02939368 -0.00000116
-0.23789737 0.37569356 -0.00000067
0.35352236 0.44619393 -0.00000144
-0.37446308 -0.14437670 -0.00000041
-0.09116206 0.30459058 -0.00000069
0.12653451 -0.13076507 -0.00000042
0.05050479 -0.34820825 -0.00000028
-0.10501786 -0.14304258 -0.00000041
0.42274818 -0.64148492 -0.00000010
-0.12124233 -0.36897704 -0.00000027
0.05351629 -0.65247768 -0.00000009
0.64345956 -0.72963637 -0.00000008
0.63188338 0.09073845 -0.00000164
-0.75785989 -0.39114860 0.00000000
-0.02491263 -0.46915507 -0.00000021
0.43803141 0.09307851 -0.00000102
0.32450664 -0.28902113 -0.00000032
-0.04334668 -0.07076689 -0.00000046
0.48856771 -0.03330466 -0.00000094
-0.70515877 -0.50625628 -0.00000001
0.72072029 -0.29560816 -0.00000117
0.50481349 -0.69048727 -0.00000007
0.36083329 -0.10693411 -0.00000043
-0.48043409 -0.02391532 -0.00000034
-0.44934225 0.53280592 0.39638913
0.51710904 -0.36977631 -0.00000037
0.05540536 0.72383142 -0.00000103
-0.29832941 0.35276100 -0.00000060
0.22550824 -0.47196531 -0.00000021
-0.65853101 0.22974405 0.19210346
0.17647453 0.24231267 -0.00000065
0.62381440 -0.35637477 -0.00000074
0.39982748 -0.05331946 -0.00000062
0.27464220 0.34756696 -0.00000100
-0.61287528 0.28038511 0.20295212
0.19914787 0.51659107 -0.00000108
0.71973568 -0.26386622 -0.00000123
0.22331750 -0.60516316 -0.00000012
0.14010222 -0.33825889 -0.00000029
0.26243016 -0.26997873 -0.00000033
-0.26767290 -0.31901279 -0.00000030
-0.44184715 -0.14465684 -0.00000036
0.44285545 -0.07717989 -0.00000071
-0.70091420 0.11476089 0.03411329
-0.05154078 0.62069422 -0.00000089
0.73069465 -0.14662324 -0.00000149
0.59626853 -0.77408427 -0.00000002
0.58448046 0.03185791 -0.00000137
0.38152656 0.13168167 -0.00000092
-0.41728202 -0.08642493 -0.00000039
-0.19728321 -0.12693211 -0.00000042
-0.34622306 -0.25700900 -0.00000034
-0.40885320 -0.64650106 -0.00000010
0.09039206 -0.64526761 -0.00000010
0.48206243 0.31076637 -0.00000159
-0.77516872 -0.16463926 0.00000000
-0.31957796 0.59823257 0.25637704
-0.26882723 -0.52352989 -0.00000017
0.37969249 -0.75306553 -0.00000003
-0.47333863 0.51169753 0.40267402
-0.49150419 -0.00938954 -0.00000033
0.70677370 -0.55831820 -0.00000060
-0.48208809 -0.33758420 -0.00000028
0.76742810 -0.00971840 -0.00000188
0.06345234 0.13595676 -0.00000058
-0.47450453 -0.73881948 -0.00000004
0.26426643 0.38847634 -0.00000104
-0.54072809 -0.57748979 -0.00000014
0.41374305 -0.66770214 -0.00000008
0.01408314 0.06144053 -0.00000054
-0.49172610 0.33064440 0.04868232
-0.48963729 0.30493367 -0.00000039
0.41277832 0.25669020 -0.00000126
-0.15443619 0.56326008 -0.00000079
-0.29994705 -0.18058135 -0.00000039
-0.63414186 0.02467000 -0.00000018
-0.41117838 -0.55229890 -0.00000015
-0.67875361 -0.75555956 0.00000000
0.37917066 -0.32399750 -0.00000030
0.41199598 -0.37894025 -0.00000026
0.40497723 -0.67525512 -0.00000008
0.42697427 -0.07266509 -0.00000066
-0.16440715 -0.07903993 -0.00000045
-0.18866307 0.68262780 0.15514052
-0.42634204 0.51856101 0.31533599
0.12925355 -0.21559276 -0.00000037
-0.57007259 -0.52801174 -0.00000015
-0.59672350 -0.05749410 -0.00000021
0.30627310 0.12236686 -0.00000066
-0.68789023 -0.10940003 -0.00000010
0.26530424 0.02050008 -0.00000051
-0.18305697 0.38060105 -0.00000073
-0.49981955 -0.32459328 -0.00000026
-0.75382352 -0.04698515 -0.00000004
