ply
format ascii 1.0
element vertex 1114
property float x
property float y
property float z
end_header
-0.03814935 0.05108590 -0.00000976
-0.11509164 -0.60748565 -0.00000009
-0.56160444 0.07977225 -0.17998236
-0.22826020 -0.47343302 -0.00000036
-0.00027599 -0.57870579 0.00000069
-0.68942696 -0.60166782 -0.07440060
-0.19140527 -0.78943408 -0.00000112
-0.30629116 -0.21531688 -0.00000002
-0.39789769 -0.56520689 -0.00000167
-0.36940438 -0.68934816 -0.00000188
-0.39084619 0.26313239 -0.11516786
-0.21687870 -0.69387645 -0.00000098
-0.56166184 -0.41355869 -0.04032301
-0.07490082 0.17067607 -0.00000611
-0.17960820 -0.58958316 -0.00000043
-0.01899434 -0.46331024 0.00000094
-0.76635605 -0.67501777 -0.10622007
-0.66116953 -0.65898985 -0.03885076
-0.13294525 0.16446394 -0.00000449
-0.33592939 0.16845652 -0.05081471
-0.51296592 -0.09718598 -0.09662105
-0.59410435 0.04367363 -0.19197844
-0.31957710 0.39438802 -0.10361359
-0.54393011 -0.02046909 -0.13951370
-0.33368218 -0.18001780 -0.00000008
-0.13781390 0.34331903 -0.00000055
-0.22714843 0.02897724 -0.00000453
-0.43010724 -0.72162670 -0.00000235
-0.22107230 -0.76285368 -0.00000122
-0.18018365 0.32420290 0.00000033
-0.44095612 -0.21820328 -0.01312321
-0.45635507 -0.36776358 -0.00000140
-0.35693219 0.20440032 -0.07535145
-0.01258611 -0.39150733 0.00000120
-0.30951810 0.04698658 -0.00000166
-0.18095602 0.53960168 -0.04996727
-0.25691852 0.21545470 -0.01010829
-0.22756904 -0.48124447 -0.00000038
-0.18818201 -0.36354205 0.00000023
-0.54878640 -0.22782670 -0.08411534
-0.44263136 -0.53552812 -0.00000185
-0.42945838 -0.32150573 -0.00000110
-0.18606625 -0.13964839 0.00000094
-0.26132315 -0.43860811 -0.00000045
-0.42595115 0.08008620 -0.08733308
-0.15738544 0.57424247 -0.04366283
-0.59939438 0.07413318 -0.20422031
-0.56484848 -0.32114965 -0.06866939
-0.71979332 -0.24185535 -0.19704987
-0.30578205 -0.61738968 -0.00000127
-0.57200021 -0.11537646 -0.13182826
-0.07014306 0.09652956 -0.00000783
-0.16061386 0.59687907 -0.05228001
-0.42694667 -0.10728803 -0.03495412
-0.51239967 -0.19287805 -0.06913644
-0.59497702 -0.17708430 -0.13006209
-0.64864099 -0.42375904 -0.09689707
-0.68071640 -0.06242209 -0.22114643
-0.29902208 0.41501293 -0.09540177
-0.27452528 -0.45595267 -0.00000058
-0.47292358 0.08880439 -0.12191415
-0.09205314 0.27219725 -0.00000344
-0.57779431 -0.52254665 -0.02048923
-0.43041185 0.17046086 -0.11597439
-0.17172264 0.07232396 -0.00000528
-0.23040771 -0.12178999 0.00000073
-0.30206242 0.17696638 -0.03007161
-0.51372975 -0.44365785 -0.00000199
-0.44267175 -0.38687876 -0.00000138
-0.12240793 0.30568227 -0.00000181
-0.02748183 -0.67927653 0.00000021
-0.55328155 -0.13197382 -0.11433147
-0.35317346 0.22918226 -0.07979944
-0.48360512 -0.19768509 -0.04809005
-0.14340411 -0.45046467 0.00000023
-0.13056523 0.30461800 -0.00000159
-0.02272628 0.02245577 -0.00001084
-0.35437539 0.33597150 -0.11086107
-0.59474868 -0.46148089 -0.04937218
-0.38482904 -0.28204435 -0.00000070
-0.23788068 -0.21411406 0.00000040
-0.01856574 0.44060043 -0.00000208
-0.66407526 -0.09955430 -0.19925497
-0.12201927 0.41380244 0.00000048
-0.00178830 -0.15596914 0.00000202
-0.35132155 -0.50050825 -0.00000118
-0.17598186 0.03841065 -0.00000587
-0.54395396 -0.55278331 -0.00000251
-0.45795590 0.07930589 -0.10899189
-0.29459554 -0.73347157 -0.00000157
-0.06903966 0.60211325 0.00000288
-0.18140338 -0.04508519 0.00000126
-0.50000882 0.11945155 -0.14910921
-0.61022735 -0.00301150 -0.18978079
-0.29622874 -0.12407235 0.00000032
-0.56241280 -0.25651523 -0.08530706
-0.02756023 0.41361400 -0.00000238
-0.17613910 -0.74746871 -0.00000090
-0.46509254 -0.60273945 -0.00000219
-0.54015803 -0.04800221 -0.12913829
-0.31261423 -0.19500373 0.00000000
-0.14512706 0.61601704 -0.04711197
-0.01471016 0.59273368 0.00000104
-0.66855288 -0.55920529 -0.07215474
-0.11400705 -0.52956074 0.00000016
-0.26045871 -0.32886326 -0.00000010
-0.18161988 -0.70731616 -0.00000081
-0.34953651 -0.71784395 -0.00000185
-0.72775245 -0.46633703 -0.13892314
-0.32892129 0.08414005 -0.02214742
-0.08094187 0.60476696 -0.00004659
-0.52806377 -0.70872772 -0.00000290
-0.72517705 -0.55535740 -0.11195414
-0.68137205 -0.09387311 -0.21268855
-0.62161028 -0.41368926 -0.08126926
-0.07187156 -0.16744979 0.00000154
-0.03321914 -0.24453726 0.00000154
-0.31050348 0.26212642 -0.05995741
-0.51379997 -0.08144384 -0.10164902
-0.31268069 -0.18801688 0.00000003
-0.55341113 -0.47204983 -0.01811930
-0.70738351 -0.33648774 -0.16176867
-0.11588405 -0.37839189 0.00000062
-0.65749371 -0.69962001 -0.02483241
-0.26461267 -0.79676062 -0.00000159
-0.14078675 -0.64976996 -0.00000038
-0.45303988 -0.32086462 -0.00000124
-0.12839577 0.31911042 -0.00000134
-0.60392517 -0.71059269 -0.00000337
-0.03477455 0.06024448 -0.00000967
-0.66509676 -0.11761447 -0.19483916
-0.23925355 -0.60420847 -0.00000083
-0.54487431 -0.22853412 -0.08124054
-0.58515328 -0.15611635 -0.12928377
-0.16043708 0.15864442 -0.00000379
-0.35737512 0.36260274 -0.12045309
-0.31110075 -0.10720527 0.00000029
-0.17863546 0.56259257 -0.05489126
-0.70713967 -0.73164737 -0.04970236
-0.14824945 0.58511508 -0.04049592
-0.04693834 -0.06359851 0.00000202
-0.41528329 -0.63802993 -0.00000200
-0.56986976 -0.50043434 -0.02133330
-0.12711595 -0.36325714 0.00000060
-0.07247989 -0.29803690 0.00000113
-0.39812127 0.30257121 -0.13130946
-0.63443738 -0.30196056 -0.12167707
-0.04291058 -0.36999044 0.00000108
-0.20442601 0.54517871 -0.06759159
-0.02855370 -0.51701963 0.00000071
-0.04877410 0.19009769 -0.00000649
-0.60329151 -0.58096427 -0.02137783
-0.06675453 0.38487169 -0.00000181
-0.09667301 -0.33527085 0.00000087
-0.37047055 -0.33534905 -0.00000078
-0.13501781 -0.50797659 0.00000010
-0.06186618 0.02798853 -0.00000954
-0.02646342 0.14489725 -0.00000812
-0.00528951 -0.19355889 0.00000186
-0.09077125 0.42957407 -0.00000013
-0.15571292 -0.12512274 0.00000117
-0.42076585 -0.15914595 -0.01604381
-0.40135407 0.06121312 -0.06517314
-0.07249302 0.32137758 -0.00000298
-0.29345766 0.01525316 -0.00000282
-0.27496824 -0.10703215 0.00000051
-0.06252348 -0.25812298 0.00000132
-0.38221017 0.17561311 -0.08448072
-0.67272031 -0.39781812 -0.12070450
-0.43776292 -0.79399627 -0.00000262
-0.39772993 -0.14534187 -0.00420448
-0.21491764 -0.01152514 0.00000117
-0.02208959 0.65380573 0.00000256
-0.39467075 0.17627738 -0.09318739
-0.23185299 -0.03774645 0.00000098
-0.66256046 -0.48411015 -0.08932312
-0.55810624 -0.47003940 -0.02189836
-0.28185704 -0.07043449 0.00000058
-0.53646851 -0.06197592 -0.12265897
-0.54055506 -0.12841836 -0.10663792
-0.52002764 -0.20845985 -0.06993883
-0.66775179 -0.39900935 -0.11697046
-0.48970678 0.12467970 -0.14354680
-0.00572022 0.56318468 0.00000014
-0.11106620 0.07927207 -0.00000696
-0.29681361 -0.59979188 -0.00000117
-0.12008675 0.30293411 -0.00000194
-0.24953601 -0.31511274 0.00000001
-0.32029906 -0.08795150 0.00000029
-0.44257769 -0.78681415 -0.00000263
-0.04308453 0.71917206 -0.00656233
-0.35332313 -0.34561941 -0.00000071
-0.01420627 0.53727448 -0.00000015
-0.48362783 -0.08957240 -0.07872030
-0.22117712 0.16960031 -0.00000172
-0.18886754 0.57231349 -0.06463905
-0.70247990 -0.21361226 -0.19321172
-0.30733299 0.27862516 -0.06246194
-0.37853941 -0.08309933 -0.00871053
-0.25756457 -0.73067153 -0.00000134
-0.23140872 -0.32779357 0.00000008
-0.36977100 -0.25540847 -0.00000053
-0.36761984 -0.12519795 -0.00000011
-0.05714510 0.40384576 -0.00000169
-0.21990009 0.52287877 -0.07185553
-0.17516960 -0.22981910 0.00000072
-0.24606831 -0.64261794 -0.00000099
-0.00270125 -0.61398202 0.00000057
-0.59251273 -0.32569918 -0.08629347
-0.28294867 0.38839698 -0.07687636
-0.08755409 -0.55497772 0.00000024
-0.74156201 -0.76302660 -0.06434840
-0.07226640 0.17886622 -0.00000602
-0.69552958 -0.45719683 -0.11948318
-0.38823068 -0.08907617 -0.01364339
-0.08695321 0.37803420 -0.00000134
-0.33634275 -0.54208761 -0.00000122
-0.14319657 -0.12801698 0.00000124
-0.15796301 0.48900500 -0.01992062
-0.25701365 -0.56281972 -0.00000081
-0.14536591 0.02716776 -0.00000704
-0.27591643 -0.38729823 -0.00000038
-0.11540380 -0.09482275 0.00000151
-0.12369996 -0.31206146 0.00000078
-0.05118918 0.19232126 -0.00000637
-0.11308981 0.29639444 -0.00000229
-0.10483923 0.49335203 0.00000165
-0.17400840 0.39742687 -0.00495734
-0.61782908 -0.41410729 -0.07856591
-0.66014791 -0.09131023 -0.19890460
-0.44148260 -0.49184066 -0.00000170
-0.42608526 -0.68686557 -0.00000222
-0.44817713 0.11727161 -0.11305763
-0.14093374 0.01044196 -0.00000753
-0.69746929 -0.02837197 -0.24224152
-0.08623044 0.32995239 -0.00000239
-0.65053403 -0.54569042 -0.06366339
-0.48000264 -0.77605575 -0.00000282
-0.52912825 -0.03186480 -0.12616757
-0.64052361 -0.19022074 -0.15747970
-0.03703321 -0.71609229 0.00000004
-0.61948997 -0.13897404 -0.15761198
-0.53956312 -0.56776321 -0.00000253
-0.25949737 -0.76364797 -0.00000145
-0.62516713 -0.79074943 -0.00000374
-0.35011521 -0.78636557 -0.00000207
-0.02613789 0.26458305 -0.00000559
-0.07338314 -0.68737072 -0.00000009
-0.06168752 0.60661525 0.00000275
-0.63386595 -0.01243313 -0.20327312
-0.24921367 -0.57599455 -0.00000080
-0.14814761 -0.28370845 0.00000072
-0.53218657 0.15021622 -0.17981903
-0.31880212 0.05889118 -0.00807971
-0.09660522 0.64527589 -0.02222580
-0.10140162 0.32403469 -0.00000205
-0.00427274 -0.13986623 0.00000209
-0.72870773 -0.67319983 -0.08099769
-0.42877913 -0.45324993 -0.00000150
-0.59990060 -0.13009970 -0.14673288
-0.22833252 -0.64156079 -0.00000088
-0.28864509 -0.12994651 0.00000035
-0.20509779 0.23165593 -0.00000089
-0.57860184 0.05072856 -0.18337809
-0.31552091 -0.34973079 -0.00000050
-0.14523071 -0.34988859 0.00000053
-0.17517217 -0.20624416 0.00000080
-0.27769384 -0.40107518 -0.00000043
-0.47758296 -0.13008007 -0.06311705
-0.01995760 0.30724761 -0.00000487
-0.13019975 -0.51547039 0.00000010
-0.51857811 -0.69093883 -0.00000279
-0.01562606 0.25011918 -0.00000621
-0.35498860 0.19063155 -0.07012376
-0.44633466 -0.44704556 -0.00000159
-0.31356591 -0.59095734 -0.00000124
-0.01041049 -0.30344400 0.00000149
-0.70212233 -0.21106169 -0.19368951
-0.24879134 -0.14596003 0.00000054
-0.02712818 -0.74817979 -0.00000000
-0.35382015 -0.06447077 0.00000016
-0.60015881 -0.07643611 -0.16210558
-0.50154561 -0.53145045 -0.00000219
-0.63331974 0.06273393 -0.22418511
-0.35179535 -0.61584705 -0.00000155
-0.06942766 0.17385790 -0.00000621
-0.31077424 -0.45916629 -0.00000081
-0.30937451 -0.01971732 0.00000057
-0.31631452 -0.05809697 0.00000041
-0.18908706 -0.27959731 0.00000049
-0.52964765 -0.00618338 -0.13379496
-0.21806592 -0.64738750 -0.00000084
-0.70743477 -0.40417102 -0.14263745
-0.63111591 -0.66237193 -0.01734717
-0.24539946 -0.61019337 -0.00000089
-0.05467157 0.16222928 -0.00000690
-0.39359674 -0.40400448 -0.00000114
-0.62977010 -0.64220989 -0.02213649
-0.25707394 0.15941681 -0.00000085
-0.63514769 -0.25689608 -0.13492379
-0.22757818 0.20091350 -0.00000086
-0.72150254 -0.32788011 -0.17385821
-0.32731682 -0.02989143 0.00000043
-0.42874324 0.26618972 -0.14194161
-0.55232447 0.02861273 -0.15915115
-0.39216411 -0.64148635 -0.00000187
-0.63738137 -0.56533700 -0.04910828
-0.00860717 0.10787933 -0.00000945
-0.44241187 -0.50142729 -0.00000174
-0.25063604 -0.77110791 -0.00000142
-0.16605306 0.10500722 -0.00000476
-0.08220640 0.39149410 -0.00000120
-0.32709941 -0.22366630 -0.00000017
-0.01412007 -0.77494061 -0.00000001
-0.00956801 -0.36957344 0.00000129
-0.03274267 0.75283247 -0.00902397
-0.13657854 0.60588640 -0.03839911
-0.38507625 -0.50303322 -0.00000140
-0.68262666 -0.59008700 -0.07303120
-0.57996488 -0.69529223 -0.00000317
-0.35324857 0.02889266 -0.02313392
-0.26095933 -0.39706790 -0.00000032
-0.18013819 0.34194687 0.00000070
-0.37732694 -0.68118531 -0.00000191
-0.08177712 0.68420881 -0.02311349
-0.58550489 -0.19133678 -0.11955059
-0.02095895 0.42458764 -0.00000234
-0.32316878 -0.48191810 -0.00000096
-0.56038916 -0.27401662 -0.07896766
-0.28972182 0.08794701 -0.00000139
-0.29873154 -0.69732451 -0.00000148
-0.15225168 -0.47059152 0.00000011
-0.54655224 -0.45389459 -0.01857136
-0.55407310 -0.43541616 -0.02894556
-0.57981014 -0.08022935 -0.14712021
-0.73735940 -0.69482672 -0.08078794
-0.08085247 0.02097607 -0.00000911
-0.69304681 -0.42474091 -0.12697665
-0.74726069 -0.44914284 -0.15712839
-0.62797189 -0.41039625 -0.08655080
-0.63201022 -0.01160785 -0.20223819
-0.67281038 -0.54397416 -0.07937841
-0.74105656 -0.64591587 -0.09716578
-0.11261015 -0.06317454 0.00000162
-0.38668424 -0.17818396 -0.00000039
-0.43062139 0.01838642 -0.07305408
-0.64384311 -0.41867256 -0.09505741
-0.49832708 0.08395983 -0.13790919
-0.14051914 -0.31920189 0.00000065
-0.19030058 -0.05880144 0.00000117
-0.05942268 -0.17737159 0.00000159
-0.45543388 0.18980840 -0.13855921
-0.42201617 -0.00175156 -0.06146864
-0.54744166 -0.44333416 -0.02216984
-0.52288097 0.13522767 -0.16921298
-0.63779896 -0.00069932 -0.20928463
-0.68064368 -0.58696842 -0.07255868
-0.55798256 -0.26931259 -0.07865446
-0.27071917 0.38848114 -0.06853962
-0.45021901 -0.58554327 -0.00000205
-0.74726862 -0.45218396 -0.15627262
-0.34260562 -0.60088807 -0.00000145
-0.19648400 0.05491919 -0.00000490
-0.54469877 -0.58307666 -0.00000261
-0.45163307 -0.22890329 -0.01739243
-0.50185001 -0.32083550 -0.02569000
-0.55679268 -0.65525538 -0.00000291
-0.72628528 -0.64795214 -0.08649117
-0.19198285 -0.71044576 -0.00000088
-0.03635708 0.39446458 -0.00000252
-0.40868941 -0.73230165 -0.00000226
-0.21749413 0.10316041 -0.00000324
-0.14472938 -0.59672636 -0.00000024
-0.46000868 -0.63617682 -0.00000226
-0.69362801 -0.05770210 -0.23130997
-0.07409692 -0.50450110 0.00000048
-0.37824231 -0.32908666 -0.00000081
-0.07601535 0.65386593 -0.01058219
-0.39664289 -0.68930203 -0.00000205
-0.57908279 -0.18095189 -0.11810093
-0.24237794 -0.32871044 0.00000001
-0.22227187 0.16162318 -0.00000186
-0.02495775 0.27318308 -0.00000544
-0.11657317 -0.62869591 -0.00000017
-0.06158514 -0.26048532 0.00000131
-0.68999404 -0.68488961 -0.05122191
-0.54429847 -0.68783480 -0.00000293
-0.27528608 -0.30077356 -0.00000010
-0.60566545 -0.27571657 -0.10943902
-0.07254601 0.04333348 -0.00000889
-0.18131720 -0.24247965 0.00000065
-0.00768973 0.31499690 -0.00000507
-0.44284666 -0.62881052 -0.00000214
-0.59110528 -0.56179410 -0.01847531
-0.24502756 0.48264036 -0.07763924
-0.19458179 -0.62721521 -0.00000063
-0.48324811 -0.06723840 -0.08478512
-0.24289373 0.33804351 -0.03523435
-0.21315819 0.41556314 -0.03685748
-0.50319582 0.03448865 -0.12722871
-0.04264413 -0.79951215 -0.00000026
-0.50754774 -0.79007155 -0.00000303
-0.06004509 -0.33701038 0.00000108
-0.50368536 -0.35252741 -0.01797035
-0.45036533 0.15415259 -0.12499732
-0.68425870 -0.40314296 -0.12708473
-0.24713558 0.43665653 -0.06605893
-0.01038461 -0.46394467 0.00000099
-0.43043205 -0.22213487 -0.00481518
-0.16849490 -0.40846536 0.00000021
-0.73343247 -0.55349636 -0.11812472
-0.30644608 0.38556120 -0.09213714
-0.20288761 0.40716773 -0.02745873
-0.31067905 -0.34283969 -0.00000045
-0.01027272 -0.33790773 0.00000138
-0.41738471 -0.11057993 -0.02748498
-0.60068715 -0.26938763 -0.10782783
-0.69325197 -0.30647567 -0.16060659
-0.52780491 -0.62390924 -0.00000264
-0.62002432 -0.49630579 -0.05679014
-0.30123118 -0.03396879 0.00000058
-0.24455905 -0.58160669 -0.00000079
-0.66393739 -0.07715795 -0.20550279
-0.62912691 -0.49283564 -0.06399570
-0.56801772 0.10815193 -0.19240315
-0.67119163 -0.60917920 -0.05980740
-0.31130835 0.33877033 -0.08221122
-0.63472706 -0.67556107 -0.01608108
-0.64106226 -0.35675558 -0.11068955
-0.69810748 -0.74261826 -0.04042105
-0.09452866 -0.12442570 0.00000154
-0.19380029 0.39473689 -0.01772615
-0.32540426 -0.28303033 -0.00000035
-0.10447360 -0.68617749 -0.00000027
-0.55045640 -0.19888213 -0.09345339
-0.61933184 -0.63600546 -0.01675741
-0.21321613 -0.19721109 0.00000060
-0.74004388 -0.58438659 -0.11389709
-0.06126245 -0.18224263 0.00000156
-0.40358752 -0.09366872 -0.02284148
-0.12084808 0.28424817 -0.00000231
-0.70544666 -0.34504601 -0.15802111
-0.25446862 -0.61071926 -0.00000094
-0.33164144 -0.33044487 -0.00000053
-0.03703314 0.46645388 -0.00000097
-0.45863870 -0.75621301 -0.00000263
-0.39581084 -0.53471214 -0.00000156
-0.53943437 -0.12332502 -0.10731407
-0.48435524 -0.44370988 -0.00000181
-0.56748861 -0.01034687 -0.15848561
-0.27242804 -0.07692571 0.00000062
-0.69218779 -0.03919381 -0.23556642
-0.00853959 0.29782048 -0.00000541
-0.40820813 -0.52143222 -0.00000159
-0.51563013 0.07792436 -0.14802918
-0.72149622 -0.12706974 -0.23071854
-0.06500644 -0.09158804 0.00000182
-0.62752062 -0.15306738 -0.15911122
-0.12223013 0.18256719 -0.00000443
-0.44215912 -0.66431534 -0.00000224
-0.44447702 -0.31939000 -0.00000118
-0.64546645 -0.38697737 -0.10514243
-0.47276476 -0.13619706 -0.05809097
-0.26901165 0.28958264 -0.03936677
-0.54122943 -0.24948986 -0.07281462
-0.22443034 0.16178733 -0.00000179
-0.47621548 -0.53653061 -0.00000205
-0.34310681 -0.62239879 -0.00000152
-0.01711763 0.20479129 -0.00000713
-0.47202191 -0.17762443 -0.04585196
-0.04928686 -0.06081566 0.00000201
-0.70893407 -0.41741258 -0.13991272
-0.28179288 -0.55524027 -0.00000094
-0.01518742 -0.20389269 0.00000177
-0.67010576 -0.66844755 -0.04228175
-0.48088253 0.12618308 -0.13793990
-0.58151287 -0.69175017 -0.00000317
-0.70947790 -0.51984012 -0.11127949
-0.38064843 -0.32558358 -0.00000081
-0.21797690 0.07501054 -0.00000383
-0.18346199 -0.44956431 -0.00000001
-0.58429557 -0.38876221 -0.06281807
-0.13525765 0.42621168 0.00000114
-0.20779386 -0.21684033 0.00000057
-0.21273287 0.30564532 -0.00544081
-0.07507472 -0.22750866 0.00000134
-0.53384942 0.05722013 -0.15462171
-0.00822047 0.78283590 -0.00075569
-0.56346810 -0.43242279 -0.03621599
-0.45856929 -0.24515998 -0.01753086
-0.68398660 -0.52400303 -0.09267424
-0.14679061 -0.52775532 -0.00000004
-0.51925105 -0.70056295 -0.00000282
-0.51899499 -0.13653082 -0.08960135
-0.17919788 0.32628110 0.00000034
-0.75246829 -0.61466837 -0.11381560
-0.61173868 -0.53686178 -0.03964132
-0.45103872 0.19844805 -0.13800101
-0.36986282 0.11382782 -0.05854355
-0.54947335 -0.03143612 -0.14019769
-0.60414845 -0.77935964 -0.00000358
-0.72651500 -0.79360646 -0.04540243
-0.56992799 -0.50795025 -0.01924483
-0.11502983 0.34032652 -0.00000130
-0.37324527 0.16729550 -0.07599660
-0.26229370 -0.22604425 0.00000021
-0.07487440 -0.41039681 0.00000077
-0.30560178 -0.44203129 -0.00000073
-0.12346628 -0.00507390 0.00000174
-0.09715713 -0.33757198 0.00000086
-0.59183431 -0.28439352 -0.09752637
-0.61820519 -0.16214272 -0.15017290
-0.40501791 0.19372594 -0.10520212
-0.70603722 -0.16455179 -0.20953631
-0.36309880 -0.68850541 -0.00000184
-0.34770980 -0.59786099 -0.00000147
-0.68782246 -0.12942973 -0.20702960
-0.15272440 0.29434702 -0.00000114
-0.48399764 -0.07203393 -0.08393956
-0.09127851 -0.07282056 0.00000172
-0.05139783 0.47864920 -0.00000028
-0.26904467 -0.51559722 -0.00000074
-0.52168357 0.19088066 -0.18415378
-0.72757691 -0.24877357 -0.20041184
-0.36050233 0.31486085 -0.10907172
-0.20997182 -0.54302251 -0.00000046
-0.52937108 -0.51038527 -0.00000229
-0.51455820 -0.64986724 -0.00000264
-0.27371854 0.36369041 -0.06357001
-0.58085889 -0.02786452 -0.16266556
-0.17704690 -0.40138170 0.00000018
-0.49861804 0.08250891 -0.13769722
-0.64748001 -0.01901606 -0.21071616
-0.10566290 -0.55854255 0.00000012
-0.18777139 -0.41715837 0.00000006
-0.53057683 -0.35773540 -0.03487973
-0.55701035 -0.54753900 -0.00000257
-0.22029579 0.26404727 0.00000026
-0.46111038 -0.10349032 -0.05938525
-0.12769686 0.50760490 -0.00449644
-0.52977043 -0.15052690 -0.09300453
-0.02153200 0.60829651 0.00000158
-0.50193280 0.04734283 -0.13000520
-0.15410307 0.10968174 -0.00000502
-0.55165315 -0.22227137 -0.08764829
-0.25617689 0.27730611 -0.02711600
-0.07594914 -0.33888963 0.00000098
-0.11823426 -0.14899252 0.00000132
-0.31587791 -0.11804963 0.00000022
-0.04283157 -0.31187949 0.00000127
-0.16538163 -0.39217073 0.00000028
-0.03735973 0.54271597 0.00000066
-0.27474463 0.12810618 -0.00000099
-0.16837558 -0.63843143 -0.00000051
-0.50639290 -0.41280600 -0.00275199
-0.28957546 -0.40282056 -0.00000051
-0.29842779 -0.43546298 -0.00000066
-0.31135458 0.32564077 -0.07852488
-0.15873106 0.25047314 -0.00000189
-0.39311662 -0.25513279 -0.00000067
-0.24628486 -0.44971061 -0.00000039
-0.29577893 0.05526108 -0.00000190
-0.04911774 0.64509642 0.00000319
-0.25394475 -0.76950532 -0.00000144
-0.51617569 0.01298694 -0.13001353
-0.48491922 0.09951095 -0.13314669
-0.22919017 -0.51839185 -0.00000050
-0.59313780 -0.15848725 -0.13407090
-0.72451007 -0.18031447 -0.21770126
-0.66015500 -0.70902538 -0.02398840
-0.28388035 -0.56182981 -0.00000097
-0.70822084 -0.11098274 -0.22619846
-0.32641742 -0.09457916 0.00000023
-0.63351506 -0.00716726 -0.20452441
-0.00866708 0.27605698 -0.00000587
-0.68187016 -0.79809356 -0.01361164
-0.31733811 -0.37840641 -0.00000060
-0.04483537 -0.12018131 0.00000185
-0.28368014 0.25203240 -0.03876149
-0.60057908 -0.66383582 -0.00000320
-0.24289738 0.43235022 -0.06194208
-0.23274258 0.51487601 -0.07836903
-0.02295439 -0.55087107 0.00000064
-0.08617631 -0.54046911 0.00000029
-0.37133089 -0.13997240 -0.00000018
-0.02299322 -0.27958739 0.00000149
-0.31093612 -0.18995965 0.00000003
-0.15604898 -0.26320481 0.00000074
-0.67465258 -0.47838920 -0.09920981
-0.38729513 0.26815733 -0.11416315
-0.44114757 0.19898617 -0.13139139
-0.56017292 -0.26917675 -0.08019036
-0.20981684 0.08164411 -0.00000393
-0.71422940 -0.61028135 -0.08891699
-0.72913522 -0.71268916 -0.07010748
-0.14047872 -0.17811371 0.00000110
-0.60341316 -0.13742916 -0.14705870
-0.56517899 -0.44611287 -0.03350897
-0.09164880 0.15979199 -0.00000584
-0.68007272 -0.39510646 -0.12649874
-0.13466470 0.10361766 -0.00000573
-0.43988684 0.14045563 -0.11395517
-0.47320285 -0.38910896 -0.00000157
-0.15716778 -0.27970481 0.00000068
-0.01394135 -0.49305296 0.00000088
-0.72628456 -0.58735389 -0.10365062
-0.57510513 -0.44904226 -0.03946536
-0.29059255 -0.75529474 -0.00000161
-0.29773039 0.04491898 -0.00000206
-0.01074158 -0.24124554 0.00000168
-0.14210317 0.26792139 -0.00000202
-0.67328906 -0.73518372 -0.02555993
-0.26575565 0.25636956 -0.02773574
-0.26925150 -0.52535409 -0.00000077
-0.68235075 -0.42979285 -0.11823381
-0.30082086 -0.03713043 0.00000057
-0.42998829 -0.55184907 -0.00000182
-0.33090633 0.30955642 -0.08733659
-0.54923469 0.12763461 -0.18507931
-0.06420262 0.60281760 0.00000275
-0.17140315 -0.47243786 -0.00000001
-0.43462670 -0.35639304 -0.00000124
-0.61893648 -0.03834243 -0.18572988
-0.66172498 -0.05930553 -0.20904568
-0.25645554 -0.44841036 -0.00000045
-0.74463445 -0.78657836 -0.05977950
-0.65704638 -0.29344922 -0.13954370
-0.19219171 -0.52858001 -0.00000031
-0.22300389 -0.51492196 -0.00000046
-0.22776379 -0.57649118 -0.00000068
-0.09394425 0.54852343 0.00000249
-0.63613212 -0.58777726 -0.04189974
-0.07711496 -0.44531265 0.00000064
-0.66270071 -0.19868201 -0.17024487
-0.22820175 -0.63203150 -0.00000085
-0.27220020 -0.56061321 -0.00000089
-0.03891999 -0.50755399 0.00000068
-0.02462484 0.30839556 -0.00000470
-0.36733472 0.27508208 -0.10247829
-0.33213228 0.05813930 -0.01697985
-0.22580613 -0.72941393 -0.00000114
-0.53583694 -0.19438827 -0.08473144
-0.00114238 -0.24778177 0.00000173
-0.46144587 -0.08990510 -0.06346159
-0.66130012 -0.48634338 -0.08782908
-0.33925179 -0.68437546 -0.00000169
-0.48339182 0.17715859 -0.15409032
-0.00338171 -0.21871564 0.00000184
-0.29553163 0.21733797 -0.03703910
-0.32622632 0.18417592 -0.04863262
-0.03952322 0.70607924 -0.00042013
-0.13415004 -0.43884680 0.00000032
-0.37035343 -0.15125336 -0.00000021
-0.45083714 0.04541640 -0.09452859
-0.21371678 -0.12267556 0.00000083
-0.63073289 -0.05812443 -0.18819264
-0.23576815 -0.02301245 0.00000101
-0.06091365 -0.38348761 0.00000093
-0.50651717 -0.03711606 -0.10922270
-0.58825749 -0.12692916 -0.13967097
-0.20229355 -0.06906965 0.00000106
-0.45510033 -0.31300986 -0.00000122
-0.73806560 -0.59320474 -0.11004761
-0.50722420 -0.23591606 -0.05341102
-0.34186956 -0.38897404 -0.00000078
-0.23836069 -0.55106246 -0.00000066
-0.36737531 0.07703554 -0.04642437
-0.50724387 0.02462965 -0.12720427
-0.12790225 -0.40093499 0.00000048
-0.41624948 -0.29093701 -0.00000092
-0.28779286 0.29538649 -0.05384988
-0.42930156 0.23509961 -0.13351938
-0.69131213 -0.56136787 -0.08710134
-0.64039135 -0.06639807 -0.19245267
-0.13151549 -0.72971374 -0.00000057
-0.69944030 -0.31960151 -0.16112028
-0.62995434 -0.14979878 -0.16170059
-0.53785121 -0.00720156 -0.13911496
-0.00173835 -0.24528614 0.00000172
-0.02543709 -0.05500455 0.00000217
-0.55899191 -0.65540701 -0.00000292
-0.00625399 0.16197039 -0.00000837
-0.54025871 -0.49960279 -0.00132545
-0.60603297 0.02261810 -0.19417095
-0.18821120 -0.76903361 -0.00000104
-0.21482290 -0.08138546 0.00000095
-0.47457469 -0.37465978 -0.00000154
-0.10812828 0.21271549 -0.00000422
-0.27862462 0.12909827 -0.00049355
-0.29971004 0.01171290 -0.00000271
-0.13490158 0.54979187 -0.02136814
-0.48268950 -0.27438185 -0.02574556
-0.54342043 -0.35529193 -0.04435209
-0.57415110 -0.04143246 -0.15423775
-0.13767391 0.51413590 -0.01316658
-0.46767893 -0.65649569 -0.00000237
-0.15134893 -0.56840098 -0.00000019
-0.68290031 -0.45551220 -0.11132645
-0.39787188 -0.17668030 -0.00000045
-0.61557001 0.03399814 -0.20391341
-0.08539372 0.30023837 -0.00000304
-0.72023636 -0.67117524 -0.07577979
-0.33715835 -0.44284135 -0.00000092
-0.62870091 -0.52896714 -0.05347297
-0.36358723 -0.77907908 -0.00000213
-0.69171154 -0.78156734 -0.02501922
-0.54305804 -0.13661911 -0.10602683
-0.00367166 -0.23639403 0.00000174
-0.07120788 0.42867914 -0.00000074
-0.26523048 -0.04475941 0.00000076
-0.14679956 -0.52111077 -0.00000001
-0.18546186 0.47044268 -0.03346360
-0.39389899 0.34350654 -0.14001475
-0.29968706 -0.69073355 -0.00000147
-0.61510122 -0.03387571 -0.18437281
-0.53760052 -0.68613154 -0.00000289
-0.11665900 -0.01297122 0.00000176
-0.18766510 -0.61561680 -0.00000056
-0.68357033 -0.38581264 -0.13152163
-0.29469338 -0.61698741 -0.00000121
-0.08612927 0.66828132 -0.02157855
-0.65392625 -0.32515299 -0.12843297
-0.50775546 0.17217594 -0.16933535
-0.00125823 -0.06036904 0.00000232
-0.14042909 0.19278362 -0.00000367
-0.38083479 -0.54527444 -0.00000150
-0.66228181 -0.21638314 -0.16494599
-0.61753583 -0.15614992 -0.15141231
-0.50780845 -0.43589494 -0.00000193
-0.39913926 -0.50100505 -0.00000147
-0.05634647 -0.03860950 0.00000204
-0.29697219 -0.16873369 0.00000018
-0.37592188 -0.27409536 -0.00000063
-0.33866602 -0.15804870 -0.00000004
-0.30267879 -0.44520381 -0.00000072
-0.32952285 0.39736572 -0.11125611
-0.02146865 -0.12285117 0.00000199
-0.02812120 -0.08681426 0.00000206
-0.17443407 0.25813001 -0.00000125
-0.49876001 -0.58098185 -0.00000233
-0.36558071 0.01123565 -0.02656466
-0.66103768 -0.11310060 -0.19334243
-0.26532692 -0.04398402 0.00000076
-0.45156395 -0.67365378 -0.00000233
-0.41592610 0.27501899 -0.13567950
-0.32694587 0.32425660 -0.08879176
-0.33848152 -0.29115298 -0.00000045
-0.17643362 -0.36215916 0.00000030
-0.64215809 0.02785468 -0.22035044
-0.07724778 -0.78917909 -0.00000043
-0.29462665 -0.38096654 -0.00000047
-0.73279333 -0.42928198 -0.15286231
-0.22222540 0.02674319 -0.00000473
-0.42778662 -0.39337888 -0.00000131
-0.22423854 -0.74953234 -0.00000120
-0.30099732 -0.62937820 -0.00000128
-0.49744010 -0.00955917 -0.11082062
-0.31674120 -0.24260873 -0.00000017
-0.50422966 -0.05765171 -0.10184367
-0.21210952 -0.79470158 -0.00000126
-0.68551010 -0.09505525 -0.21518274
-0.74636710 -0.49249351 -0.14424166
-0.06675558 0.68111050 -0.01196679
-0.70065337 -0.01194870 -0.24906893
-0.37603411 0.30122671 -0.11582904
-0.53388202 -0.78889334 -0.00000319
-0.06652132 0.22174636 -0.00000528
-0.09226830 0.18868223 -0.00000521
-0.41605586 0.05640665 -0.07386282
-0.26528910 -0.11580599 0.00000054
-0.59378934 -0.14535321 -0.13823557
-0.69595611 -0.40685648 -0.13402995
-0.14798027 0.09313507 -0.00000556
-0.60208780 -0.19045796 -0.13113622
-0.42970002 -0.22056693 -0.00475875
-0.41849136 0.21030273 -0.11910724
-0.52680993 -0.34373143 -0.03627008
-0.65479505 -0.22004561 -0.15879062
-0.64197695 -0.36402246 -0.10925712
-0.62043059 -0.57783204 -0.03398177
-0.23820694 -0.74424499 -0.00000126
-0.24536127 0.22607848 -0.00521565
-0.49056515 -0.05402871 -0.09352799
-0.67461962 -0.13001819 -0.19783698
-0.33781013 -0.29111856 -0.00000045
-0.32613656 0.06730952 -0.01547769
-0.33239934 -0.75072008 -0.00000185
-0.10031156 0.21391334 -0.00000443
-0.13388050 -0.20131145 0.00000106
-0.10705379 0.32483715 -0.00000187
-0.49457824 0.19778335 -0.16757821
-0.71718943 -0.46758258 -0.13134934
-0.30134049 -0.15818122 0.00000019
-0.07279869 0.51878679 0.00000122
-0.23036920 -0.28941953 0.00000021
-0.21478949 -0.57155812 -0.00000058
-0.29452446 0.27421275 -0.05245602
-0.17743561 -0.65963340 -0.00000063
-0.33157274 -0.36052525 -0.00000063
-0.32042834 0.09714097 -0.02002281
-0.60239059 -0.44907787 -0.05810875
-0.15497272 -0.10543997 0.00000124
-0.23824154 -0.13918190 0.00000063
-0.25005642 0.43704253 -0.06816503
-0.06624150 0.35466516 -0.00000246
-0.40232009 -0.36448604 -0.00000107
-0.05055319 0.06140139 -0.00000917
-0.01665144 0.23155458 -0.00000658
-0.06953851 0.21522550 -0.00000533
-0.26100090 0.11127337 -0.00000176
-0.33855873 -0.43674272 -0.00000091
-0.13763592 -0.06646720 0.00000146
-0.56679392 -0.43246859 -0.03847671
-0.04697918 -0.15031494 0.00000175
-0.14011957 0.23540141 -0.00000277
-0.28373182 0.11757448 -0.00072180
-0.17454465 0.50941581 -0.03703632
-0.26557055 0.39545101 -0.06699349
-0.03651436 -0.04232731 0.00000215
-0.16434816 -0.12708651 0.00000111
-0.16316195 -0.50789797 -0.00000007
-0.24560598 0.00777126 -0.00000442
-0.34211102 -0.02691216 0.00000035
-0.04723677 -0.06567694 0.00000201
-0.32927194 -0.14601968 0.00000006
-0.40186599 -0.02849359 -0.04012049
-0.06742907 0.08834939 -0.00000809
-0.34329748 0.36653864 -0.11194359
-0.41365936 0.04374526 -0.06863909
-0.01944946 0.35697424 -0.00000383
-0.75013834 -0.50227773 -0.14404909
-0.74006230 -0.46802419 -0.14686067
-0.39884287 -0.62256610 -0.00000185
-0.34437463 0.18241860 -0.06054192
-0.06558955 -0.64530814 0.00000009
-0.63671988 -0.38005254 -0.10112387
-0.00418954 -0.32025832 0.00000152
-0.30845290 0.21833144 -0.04615392
-0.22124951 0.34488788 -0.02237562
-0.19411674 -0.28244811 0.00000045
-0.50813311 -0.38643146 -0.01141028
-0.53181601 -0.11093491 -0.10561443
-0.14804630 0.26802337 -0.00000184
-0.66897070 -0.42677668 -0.10994079
-0.30504569 0.13865060 -0.02126106
-0.54900223 -0.41550443 -0.03111740
-0.01264411 -0.32724524 0.00000140
-0.01281144 0.04955318 -0.00001056
-0.72085804 -0.59002817 -0.09918367
-0.46867430 0.24534382 -0.16333710
-0.71930295 -0.52851492 -0.11553964
-0.29767480 -0.27702546 -0.00000016
-0.30928883 0.27543637 -0.06289606
-0.11323623 0.36889029 -0.00000074
-0.19773942 0.28971541 0.00000012
-0.35102949 0.20334074 -0.07101606
-0.60491687 -0.78742498 -0.00000361
-0.40147501 -0.58953494 -0.00000177
-0.27068877 0.14402698 -0.00000077
-0.30542654 -0.12638782 0.00000026
-0.01860198 0.31946030 -0.00000465
-0.01327032 -0.46031931 0.00000098
-0.12576002 0.50135183 -0.00140163
-0.01749299 -0.12550816 0.00000200
-0.29013646 -0.68087977 -0.00000138
-0.68324298 -0.07448591 -0.21945757
-0.13850537 0.58931947 -0.03502505
-0.02509724 -0.68115181 0.00000022
-0.02764528 -0.06119300 0.00000214
-0.70137936 -0.07089290 -0.23287380
-0.71597075 -0.09861538 -0.23499878
-0.65676206 0.02985090 -0.23089963
-0.29237688 -0.58056551 -0.00000108
-0.28022549 -0.48353535 -0.00000070
-0.44184023 -0.46934485 -0.00000163
-0.00216149 -0.69867241 0.00000033
-0.59892827 -0.41508836 -0.06536673
-0.09194354 0.43973142 0.00000012
-0.03281884 0.16025066 -0.00000760
-0.29343048 0.12154674 -0.00847706
-0.47638243 0.17737003 -0.14935827
-0.28422168 -0.01508068 0.00000074
-0.38322678 -0.16744947 -0.00000034
-0.62427187 -0.11570577 -0.16747008
-0.05164011 0.47711056 -0.00000030
-0.15830825 0.39562446 0.00000118
-0.25044003 0.33281022 -0.03891139
-0.07813990 -0.26373872 0.00000120
-0.01309706 0.21529654 -0.00000703
-0.25409698 0.43497285 -0.07034125
-0.55629754 0.14282627 -0.19420964
-0.19929864 0.45733055 -0.03920997
-0.59188163 -0.00592866 -0.17641282
-0.46945277 -0.22771867 -0.02991019
-0.43936601 -0.70315540 -0.00000235
-0.39969426 0.33838552 -0.14252651
-0.42647603 0.03584984 -0.07516532
-0.71262473 -0.58463818 -0.09508151
-0.52655238 0.01547983 -0.13781340
-0.53865218 -0.29340789 -0.05861625
-0.08529333 0.65489233 -0.01721565
-0.39000914 0.05886679 -0.05675285
-0.06482653 -0.76383150 -0.00000028
-0.09105238 0.69229519 -0.03174430
-0.04098573 -0.40625188 0.00000098
-0.71776217 -0.45093116 -0.13645616
-0.06264609 0.27820420 -0.00000420
-0.10781188 -0.24452046 0.00000109
-0.00629770 -0.72813272 0.00000019
-0.32688969 0.09810632 -0.02471343
-0.35723281 0.21134068 -0.07752228
-0.65791351 -0.44731098 -0.09656682
-0.15887962 0.36170977 0.00000048
-0.06247831 0.19036737 -0.00000607
-0.68800479 -0.01596030 -0.23928590
-0.59166920 0.01984198 -0.18356518
-0.21027707 0.06629420 -0.00000425
-0.34952509 -0.24826597 -0.00000039
-0.00737373 0.49627775 -0.00000123
-0.51880652 -0.30759498 -0.04103154
-0.28365690 0.05396356 -0.00000229
-0.74213314 -0.62867743 -0.10278324
-0.51813632 0.13861513 -0.16692857
-0.37368470 0.29991189 -0.11385056
-0.43465322 0.07292298 -0.09125375
-0.46315148 -0.51870710 -0.00000192
-0.01746331 0.54152596 0.00000003
-0.33161148 -0.65268004 -0.00000154
-0.33214024 -0.41399100 -0.00000080
-0.62922674 -0.19537024 -0.14829849
-0.29807979 0.13314477 -0.01493977
-0.12020015 0.14418793 -0.00000531
-0.17191857 -0.78271145 -0.00000098
-0.06510635 0.55543345 0.00000177
-0.00181194 -0.23420615 0.00000178
-0.52868265 -0.04443090 -0.12230453
-0.57170981 -0.10458648 -0.13468517
-0.33264178 -0.18062738 -0.00000007
-0.27323747 0.23701461 -0.02736981
-0.06583310 -0.74111181 -0.00000021
-0.61129194 -0.10941365 -0.16037825
-0.21599700 0.10610336 -0.00000323
-0.51007795 -0.27459794 -0.04440823
-0.11607366 0.12241213 -0.00000590
-0.63217932 -0.67290413 -0.01509171
-0.52856445 -0.31428063 -0.04580926
-0.34123877 -0.71172494 -0.00000178
-0.35601008 0.17145038 -0.06539046
-0.41751638 -0.51654589 -0.00000163
-0.27417371 -0.61886251 -0.00000109
-0.50381666 -0.09684050 -0.09046408
-0.06145887 0.09522399 -0.00000812
-0.27396759 0.28187117 -0.04057117
-0.48008776 0.10538150 -0.13150609
-0.22425127 0.45924324 -0.05681025
-0.51556253 0.16155282 -0.17166439
-0.04097807 0.75075686 -0.01406627
-0.21182533 0.40217969 -0.03215642
-0.12135032 -0.65161502 -0.00000027
-0.60749537 -0.58768994 -0.02234718
-0.26359698 -0.43788853 -0.00000046
-0.17809473 0.13330504 -0.00000379
-0.05923684 0.30730394 -0.00000368
-0.04776276 0.55824882 0.00000130
-0.25267971 0.50201964 -0.08835819
-0.08306550 -0.72642630 -0.00000027
-0.62244558 -0.55669045 -0.04134606
-0.35738865 -0.07426411 0.00000011
-0.54113740 -0.09586570 -0.11625412
-0.17227431 0.43876451 -0.01547760
-0.58155465 -0.36064240 -0.06890709
-0.58541507 -0.23079957 -0.10831435
-0.45912704 -0.26106030 -0.01340960
-0.53899890 -0.51416749 -0.00000236
-0.27272892 -0.56511050 -0.00000091
-0.36319104 0.26700932 -0.09735950
-0.12839618 0.10121375 -0.00000597
-0.31898251 -0.05070852 0.00000042
-0.19602016 0.36335766 -0.01035796
-0.12946343 0.14588180 -0.00000499
-0.10319343 -0.16919577 0.00000135
-0.28433359 -0.05014687 0.00000063
-0.42337006 0.18359607 -0.11487987
-0.02994505 -0.79511601 -0.00000017
-0.60293502 -0.77302939 -0.00000355
-0.67992401 -0.12594886 -0.20261559
-0.16107653 -0.41639170 0.00000023
-0.48913220 -0.33081806 -0.01416876
-0.63288623 -0.37253717 -0.10063116
-0.44297582 -0.41815686 -0.00000148
-0.22248808 0.21979058 -0.00000062
-0.23786785 -0.29208660 0.00000015
-0.13590176 0.33230028 -0.00000084
-0.34842873 -0.26534230 -0.00000043
-0.06319066 0.68124461 -0.00956764
-0.17401448 -0.59968531 -0.00000042
-0.50925112 -0.71972388 -0.00000282
-0.22364300 0.15744393 -0.00000191
-0.65371728 -0.69507641 -0.02353731
-0.72498786 -0.22580485 -0.20514610
-0.03648375 0.65313017 0.00000298
-0.49943098 -0.33357432 -0.02042894
-0.50141728 -0.48962414 -0.00000206
-0.09056335 -0.46718019 0.00000049
-0.31725207 0.36883503 -0.09478814
-0.12067573 0.43590614 0.00000090
-0.26928002 -0.13883604 0.00000044
-0.68467504 -0.66115427 -0.05430699
-0.21521264 0.08383635 -0.00000372
-0.62805843 -0.79777038 -0.00000378
-0.49662158 -0.62215966 -0.00000244
-0.05363475 0.68399221 -0.00381286
-0.20420019 -0.61264724 -0.00000065
-0.10415145 0.46318099 0.00000099
-0.22645190 0.53351033 -0.07934516
-0.68140274 -0.28878841 -0.15751456
-0.42888609 -0.65411204 -0.00000213
-0.21224560 0.11714918 -0.00000311
-0.26390558 -0.75158477 -0.00000144
-0.03053605 0.19131611 -0.00000701
-0.26977742 -0.10939549 0.00000053
-0.28167698 0.34040159 -0.06241593
-0.16335732 0.12097315 -0.00000450
-0.11337360 0.61923951 -0.02631652
-0.14066251 -0.23970357 0.00000090
-0.29101795 -0.36766014 -0.00000041
-0.42830586 0.19062413 -0.12024437
-0.46941096 -0.02244227 -0.08801059
-0.01991435 0.32760566 -0.00000444
-0.32780477 -0.00659386 0.00000050
-0.68378258 -0.79546249 -0.01566405
-0.05988907 0.46572745 -0.00000030
-0.38415846 0.26346442 -0.11068988
-0.45560962 -0.15453719 -0.04116954
-0.53796864 -0.37557691 -0.03488079
-0.01912515 -0.40001631 0.00000113
-0.23358476 0.16488373 -0.00000145
-0.07902497 0.20133437 -0.00000534
-0.55637604 -0.21160275 -0.09389814
-0.46541506 0.05423150 -0.10699087
-0.28187683 -0.28590167 -0.00000009
-0.26015797 -0.67285472 -0.00000117
-0.42503801 -0.16998243 -0.01589584
-0.58547747 -0.46012339 -0.04341842
-0.10518953 0.34195605 -0.00000156
-0.11228242 -0.04789292 0.00000167
-0.73145729 -0.49130791 -0.13438474
-0.04710763 0.67240882 0.00000371
-0.37390420 -0.05461310 -0.01360827
-0.31259909 -0.30651668 -0.00000034
-0.34450358 -0.43492833 -0.00000094
-0.22746252 -0.51747274 -0.00000049
-0.05477885 -0.56522626 0.00000040
-0.31703508 0.00936985 -0.00000223
-0.42270735 0.11217628 -0.09420257
-0.18830335 0.25230855 -0.00000096
-0.63179368 -0.51942331 -0.05828989
-0.67581487 -0.36925885 -0.13090731
-0.68956202 -0.48162681 -0.10848566
-0.22226468 0.24459058 -0.00000010
-0.18656155 -0.39237079 0.00000015
-0.08046574 0.37728932 -0.00000155
-0.63234794 -0.21138771 -0.14589655
-0.69025356 -0.23965728 -0.17747802
-0.25852638 0.22135060 -0.01287706
-0.59991080 -0.66864747 -0.00000321
-0.35297891 0.21946611 -0.07691507
-0.30628738 0.06992982 -0.00264998
-0.33759770 -0.40330160 -0.00000080
-0.74371052 -0.79980958 -0.05540112
-0.23736104 0.49392104 -0.07559248
-0.39584783 -0.61377901 -0.00000181
-0.48597628 -0.58977211 -0.00000228
-0.05510553 0.25024834 -0.00000502
-0.07816660 -0.00248071 0.00000202
-0.65009040 -0.33570695 -0.12282201
-0.33240002 -0.28978845 -0.00000041
-0.36507946 -0.67561972 -0.00000181
-0.26636463 0.10066153 -0.00000182
-0.09003367 0.13541719 -0.00000641
-0.01594046 -0.27553886 0.00000154
-0.00278688 -0.72834909 0.00000021
-0.75423360 -0.58056337 -0.12468011
-0.04193854 0.29990077 -0.00000436
-0.49376762 -0.58628786 -0.00000231
-0.02387796 0.74878997 -0.00181896
-0.09905830 -0.56621611 0.00000013
-0.15554874 0.38629225 0.00000090
-0.06468637 -0.40208948 0.00000085
-0.35672364 -0.70710993 -0.00000186
-0.28494534 -0.73887867 -0.00000153
-0.59343368 -0.36186332 -0.07668232
-0.32720333 -0.08796982 0.00000025
-0.54185587 -0.46796089 -0.01137752
-0.56839728 -0.63979650 -0.00000293
-0.12212376 -0.10744664 0.00000143
-0.63520819 -0.60561329 -0.03621739
-0.39525369 -0.48327574 -0.00000140
-0.54312259 -0.10551567 -0.11487865
-0.68541187 -0.52376086 -0.09371720
-0.06164778 0.15844944 -0.00000677
-0.23030810 -0.35636634 -0.00000000
-0.15955605 -0.27102652 0.00000069
-0.66946965 -0.38719064 -0.12149162
-0.00572767 -0.40358186 0.00000120
-0.55065757 0.13992353 -0.18953195
-0.27004033 -0.41863537 -0.00000044
-0.11840341 -0.55592167 0.00000005
-0.42488405 -0.76240712 -0.00000245
-0.04074350 0.72382343 -0.00627906
-0.22598819 -0.78857660 -0.00000133
-0.02735356 -0.79011524 -0.00000013
-0.15234305 0.03927220 -0.00000657
-0.00237163 -0.66600829 0.00000040
