ply
format ascii 1.0
element vertex 1152
property float x
property float y
property float z
end_header
-0.14145437 0.63730949 -0.00000032
-0.42443517 0.30442798 -0.00000094
-0.16145350 -0.54342037 0.00000000
-0.32083094 -0.08439392 0.00000000
-0.17038248 0.56670320 -0.00000031
-0.06680380 -0.41902331 0.00000000
-0.42169386 -0.20921074 -0.00000002
-0.29609329 0.45984185 -0.00000066
-0.44319519 -0.11924260 -0.00000027
-0.34868786 -0.50671178 0.00000000
-0.70452309 -0.19466367 -0.00000125
-0.25603864 0.30516726 -0.00000022
-0.01357639 -0.25317079 0.00000000
-0.24596106 -0.55692476 0.00000000
-0.72694677 -0.12083444 -0.00000147
-0.41338557 -0.61499864 0.00000000
-0.14419749 0.19853403 0.00000000
-0.35627457 -0.60687095 0.00000000
-0.72882032 -0.76385242 -0.00000009
-0.59308380 -0.13711378 -0.00000087
-0.60249025 -0.17435415 -0.00000085
-0.56433332 -0.78279948 0.00000000
-0.42867452 -0.06620912 -0.00000030
-0.63042223 -0.69218075 -0.00000005
-0.30089232 0.31269318 -0.00000042
-0.71644080 -0.69965625 -0.00000025
-0.35293353 0.10959180 -0.00000029
-0.57577825 -0.44111574 -0.00000026
-0.12831101 -0.51432890 0.00000000
-0.53873616 -0.53975141 0.00000000
-0.34448040 -0.69393533 0.00000000
-0.56008357 -0.02973496 -0.00000092
-0.57232040 -0.22741988 -0.00000063
-0.09816649 -0.38309142 0.00000000
-0.76758099 -0.14229360 -0.00000161
-0.16191518 0.16093738 0.00000000
-0.14977004 -0.59163713 0.00000000
-0.55539656 -0.51350349 -0.00000005
-0.09037927 0.17139848 0.00000000
-0.50366813 0.14634857 -0.00000099
-0.09183421 0.69807202 -0.00000021
-0.59722906 -0.58482385 -0.00000010
-0.55778128 -0.02768112 -0.00000092
-0.24373122 -0.79582304 0.00000000
-0.07180570 -0.62789500 0.00000000
-0.72290248 -0.00657065 -0.00000166
-0.62063247 -0.48772275 -0.00000037
-0.30071193 -0.72414881 0.00000000
-0.33767927 -0.47861686 0.00000000
-0.08357645 -0.42483109 0.00000000
-0.35797620 -0.27061900 0.00000000
-0.59015995 -0.13389672 -0.00000087
-0.23780011 0.39443022 -0.00000030
-0.01542966 -0.52373326 0.00000000
-0.28366959 -0.77187198 0.00000000
-0.02591684 0.15427057 0.00000000
-0.61475229 -0.13870321 -0.00000096
-0.17989005 -0.72846830 0.00000000
-0.72651911 -0.31275302 -0.00000113
-0.05139824 0.19964194 0.00000000
-0.40206650 0.03779799 -0.00000037
-0.27710849 -0.02591728 0.00000000
-0.04460338 0.26755905 0.00000000
-0.13194259 0.31629369 0.00000000
-0.65849006 0.00649617 -0.00000141
-0.27220243 -0.19554642 0.00000000
-0.57278752 -0.54090071 -0.00000007
-0.62611789 -0.77622998 0.00000000
-0.54786694 -0.35928285 -0.00000029
-0.27469724 -0.41092128 0.00000000
-0.21335161 0.03541745 0.00000000
-0.22559679 -0.04022012 0.00000000
-0.64215386 -0.03322403 -0.00000127
-0.30682552 0.39483213 -0.00000059
-0.75027388 -0.62895650 -0.00000043
-0.68033105 -0.23404291 -0.00000108
-0.50604284 -0.72417134 0.00000000
-0.04840036 -0.56623858 0.00000000
-0.62071615 -0.31314218 -0.00000068
-0.54118335 -0.36406627 -0.00000025
-0.76204073 -0.78174651 -0.00000005
-0.05433528 0.74553889 -0.00000014
-0.05379111 -0.43035245 0.00000000
-0.47109002 -0.14831714 -0.00000033
-0.44289428 -0.63123465 0.00000000
-0.05155787 -0.47490501 0.00000000
-0.06334475 0.09975827 0.00000000
-0.04148699 0.31581554 0.00000000
-0.52363884 -0.08803395 -0.00000066
-0.39475429 0.02661955 -0.00000032
-0.37364933 -0.16030645 0.00000000
-0.23219018 0.06473380 0.00000000
-0.06512790 -0.71041155 0.00000000
-0.26997855 -0.62736851 0.00000000
-0.52743328 -0.26717418 -0.00000036
-0.21066156 -0.63266802 0.00000000
-0.67220998 -0.72579658 -0.00000017
-0.65876806 -0.03545183 -0.00000133
-0.37761775 -0.20547120 0.00000000
-0.29934758 -0.21034704 0.00000000
-0.42784938 -0.48515400 0.00000000
-0.24647307 -0.67153794 0.00000000
-0.57521325 -0.70315081 0.00000000
-0.05428281 0.11751604 0.00000000
-0.63278061 -0.32562724 -0.00000071
-0.13006051 0.33686426 0.00000000
-0.21382417 0.19387101 0.00000000
-0.09733585 0.62096679 -0.00000010
-0.77499974 -0.50716269 -0.00000073
-0.11954551 0.01578771 0.00000000
-0.51113850 -0.29249930 -0.00000025
-0.77061141 -0.56730652 -0.00000058
-0.29080793 -0.78001243 0.00000000
-0.58793187 -0.32063723 -0.00000053
-0.59718215 -0.50969762 -0.00000023
-0.15404880 0.09052982 0.00000000
-0.15652096 -0.26013333 0.00000000
-0.06844084 -0.34964079 0.00000000
-0.33635199 -0.43540260 0.00000000
-0.64620340 -0.48725006 -0.00000048
-0.33202630 -0.38393626 0.00000000
-0.74035496 -0.42809272 -0.00000093
-0.20261063 -0.17406577 0.00000000
-0.14446308 -0.01127947 0.00000000
-0.38330653 0.00198011 -0.00000023
-0.38319692 0.19021846 -0.00000056
-0.74971962 -0.60138446 -0.00000050
-0.39331856 -0.26506552 0.00000000
-0.33539069 0.32229155 -0.00000059
-0.15844876 -0.16058458 0.00000000
-0.79499596 -0.45629674 -0.00000086
-0.76181197 -0.01363472 -0.00000181
-0.20125490 0.53546655 -0.00000039
-0.49928302 -0.38965052 -0.00000003
-0.08453248 0.33549806 0.00000000
-0.61524218 -0.53566700 -0.00000026
-0.61586171 -0.45167157 -0.00000042
-0.69736731 -0.35575181 -0.00000093
-0.37092498 0.37129885 -0.00000083
-0.48743513 0.12755720 -0.00000089
-0.61750835 0.15063845 -0.00000149
-0.39978996 0.00523607 -0.00000030
-0.61872983 0.00706525 -0.00000124
-0.26219800 -0.27858526 0.00000000
-0.59352732 -0.63805336 0.00000000
-0.76291829 -0.70236832 -0.00000024
-0.41910011 -0.33222809 0.00000000
-0.69131511 -0.30817875 -0.00000099
-0.63744241 -0.19976038 -0.00000095
-0.12091210 -0.20299850 0.00000000
-0.02309123 -0.56229597 0.00000000
-0.76729041 -0.02480037 -0.00000182
-0.40174857 0.13603801 -0.00000054
-0.39698830 -0.52206188 0.00000000
-0.35378721 0.17593504 -0.00000041
-0.62915677 -0.16740873 -0.00000097
-0.33971930 0.14489128 -0.00000029
-0.33567190 -0.51703233 0.00000000
-0.79424083 -0.47654000 -0.00000081
-0.31898585 0.44313440 -0.00000073
-0.11770479 0.28457096 0.00000000
-0.72365242 -0.40434924 -0.00000096
-0.26756111 0.32817987 -0.00000031
-0.23765567 -0.03452772 0.00000000
-0.23546836 -0.40010503 0.00000000
-0.00323948 0.25558633 0.00000000
-0.68202263 -0.59019113 -0.00000045
-0.36991090 0.42917076 -0.00000091
-0.69760388 0.08876038 -0.00000172
-0.39984381 -0.18182878 0.00000000
-0.72881162 -0.03955683 -0.00000163
-0.11458398 -0.02030935 0.00000000
-0.49685687 -0.65720832 0.00000000
-0.01466294 -0.65068728 0.00000000
-0.64418197 -0.20914176 -0.00000097
-0.06283108 0.30860844 0.00000000
-0.50756490 -0.76983857 0.00000000
-0.33060321 -0.68818372 0.00000000
-0.26773691 -0.24912171 0.00000000
-0.69915110 -0.78512192 -0.00000004
-0.18870398 -0.35744935 0.00000000
-0.42243591 0.22506972 -0.00000079
-0.21054788 -0.19189553 0.00000000
-0.44114128 -0.27581492 0.00000000
-0.68985105 0.08234217 -0.00000168
-0.18665661 -0.49128929 0.00000000
-0.53874797 0.16735984 -0.00000118
-0.10549020 0.40467465 0.00000000
-0.35685977 0.16294546 -0.00000040
-0.49237397 -0.16528837 -0.00000039
-0.31737891 -0.38343522 0.00000000
-0.28920290 0.37445480 -0.00000048
-0.31305873 0.16154028 -0.00000021
-0.37180862 -0.72596180 0.00000000
-0.32081014 -0.66012979 0.00000000
-0.00883012 -0.03173603 0.00000000
-0.00956109 0.65126187 0.00000000
-0.08908528 -0.54814410 0.00000000
-0.66394758 -0.44408560 -0.00000063
-0.51542491 -0.68828225 0.00000000
-0.58741319 -0.48577988 -0.00000023
-0.53042620 -0.02702364 -0.00000080
-0.35565931 0.41792193 -0.00000084
-0.21961662 0.40503657 -0.00000024
-0.08818640 -0.05271925 0.00000000
-0.35751346 0.33377349 -0.00000070
-0.25442517 -0.12510677 0.00000000
-0.28180823 -0.79362559 0.00000000
-0.28255394 -0.47167188 0.00000000
-0.39509788 -0.01124088 -0.00000025
-0.02704148 0.63861090 0.00000000
-0.30903861 -0.63773489 0.00000000
-0.66120625 -0.39792249 -0.00000070
-0.29332802 0.31775853 -0.00000040
-0.14509727 0.57916510 -0.00000023
-0.37204775 -0.32727504 0.00000000
-0.19764090 0.16493084 0.00000000
-0.46238506 -0.72085565 0.00000000
-0.38504308 -0.00828583 -0.00000021
-0.01039514 -0.36368474 0.00000000
-0.44384786 0.22373752 -0.00000088
-0.25419277 -0.73130333 0.00000000
-0.63906580 0.01843668 -0.00000135
-0.16276205 0.54737371 -0.00000025
-0.21996845 -0.74814701 0.00000000
-0.78335500 -0.25344852 -0.00000137
-0.43638894 -0.54692203 0.00000000
-0.00873135 -0.21406373 0.00000000
-0.24859668 0.02138421 0.00000000
-0.23838633 0.36675930 -0.00000025
-0.08861605 -0.17141527 0.00000000
-0.06373837 -0.41625434 0.00000000
-0.25828990 -0.23647898 0.00000000
-0.50373775 -0.58646011 0.00000000
-0.09607991 0.23377061 0.00000000
-0.15878031 -0.22171167 0.00000000
-0.15822911 -0.39955938 0.00000000
-0.09714500 -0.55977398 0.00000000
-0.18827643 0.54687482 -0.00000036
-0.08930876 -0.70182818 0.00000000
-0.34529433 0.11919213 -0.00000027
-0.55519462 -0.56382537 0.00000000
-0.16237697 -0.40936881 0.00000000
-0.64939046 0.03447333 -0.00000142
-0.66010624 -0.60775787 -0.00000033
-0.25007325 0.36636582 -0.00000030
-0.04538209 0.47269812 0.00000000
-0.58752453 -0.02139366 -0.00000106
-0.19294178 0.47444874 -0.00000025
-0.14488396 -0.72184861 0.00000000
-0.58452374 -0.74199927 0.00000000
-0.44604647 -0.57340151 0.00000000
-0.02967091 0.27254477 0.00000000
-0.63905907 0.08759789 -0.00000147
-0.54234141 -0.07691020 -0.00000076
-0.19887517 -0.60821360 0.00000000
-0.19827592 0.54015386 -0.00000039
-0.08478640 0.11100281 0.00000000
-0.33410430 0.23198389 -0.00000042
-0.72823334 -0.79763585 -0.00000001
-0.18828277 -0.27087292 0.00000000
-0.36748070 -0.73582995 0.00000000
-0.24311918 0.14091897 0.00000000
-0.45812199 -0.41289175 0.00000000
-0.38523939 -0.60679233 0.00000000
-0.28603110 -0.12338639 0.00000000
-0.69858044 -0.10217578 -0.00000139
-0.74545223 -0.73575854 -0.00000016
-0.70925069 -0.35555050 -0.00000098
-0.09076392 0.54268396 0.00000000
-0.44135660 -0.00874732 -0.00000045
-0.48417151 -0.66252863 0.00000000
-0.21250434 0.48130029 -0.00000034
-0.25826073 -0.76186752 0.00000000
-0.31829903 -0.13700557 0.00000000
-0.42443445 -0.00903020 -0.00000038
-0.65391737 -0.54841948 -0.00000041
-0.01231495 -0.18584134 0.00000000
-0.34384435 -0.09295049 0.00000000
-0.29062226 0.09815310 0.00000000
-0.33554542 0.07361420 -0.00000015
-0.29322463 0.21342573 -0.00000021
-0.29391265 -0.23885617 0.00000000
-0.09742035 0.09158097 0.00000000
-0.75867236 -0.71473551 -0.00000021
-0.05736368 -0.13271084 0.00000000
-0.47415018 0.26939058 -0.00000109
-0.09830496 -0.62816513 0.00000000
-0.35746643 0.36779401 -0.00000076
-0.66286570 -0.58551711 -0.00000038
-0.28378448 0.00040446 0.00000000
-0.29593810 -0.00465821 0.00000000
-0.31197831 -0.41884279 0.00000000
-0.19634397 -0.76580977 0.00000000
-0.28653628 -0.42754793 0.00000000
-0.06454558 0.33440045 0.00000000
-0.34442765 0.45189810 -0.00000080
-0.40367940 -0.72467095 0.00000000
-0.50803453 -0.71530092 0.00000000
-0.61271656 -0.72877359 0.00000000
-0.40375969 -0.09949227 -0.00000013
-0.12774655 -0.59550059 0.00000000
-0.57745260 -0.19523190 -0.00000071
-0.04008521 0.29377013 0.00000000
-0.42860827 0.20164020 -0.00000077
-0.75462228 0.03936371 -0.00000179
-0.02559740 0.69850898 0.00000000
-0.32046124 -0.38445443 0.00000000
-0.61883432 -0.77073002 0.00000000
-0.26017594 0.09399178 0.00000000
-0.68515015 -0.57792151 -0.00000049
-0.17850362 -0.21274707 0.00000000
-0.71347052 -0.44248363 -0.00000085
-0.22610466 0.02817324 0.00000000
-0.53096402 -0.63487458 0.00000000
-0.71031940 -0.68213272 -0.00000029
-0.11884385 -0.40694687 0.00000000
-0.52901477 -0.77570784 0.00000000
-0.27547044 0.08426421 0.00000000
-0.33537194 -0.45649818 0.00000000
-0.19985271 -0.03865849 0.00000000
-0.51036787 -0.78122765 0.00000000
-0.02364819 0.46360117 0.00000000
-0.11807100 0.10788880 0.00000000
-0.12886102 -0.68316543 0.00000000
-0.46626300 -0.05954843 -0.00000047
-0.30406263 0.39276388 -0.00000058
-0.52443951 -0.45431876 -0.00000002
-0.37693489 -0.38752031 0.00000000
-0.59067118 -0.16205022 -0.00000082
-0.66486150 -0.13754928 -0.00000118
-0.00119181 -0.54985791 0.00000000
-0.72523737 -0.15737572 -0.00000140
-0.16325992 -0.24935406 0.00000000
-0.66607308 0.05870700 -0.00000153
-0.23086727 0.38451460 -0.00000025
-0.07519968 0.18928441 0.00000000
-0.49315810 -0.74529129 0.00000000
-0.57226259 -0.34653035 -0.00000042
-0.00652630 0.16631751 0.00000000
-0.53503871 0.04298122 -0.00000095
-0.37613121 -0.22341169 0.00000000
-0.12609465 -0.69117308 0.00000000
-0.33521885 -0.37959418 0.00000000
-0.28110197 0.30888382 -0.00000033
-0.75198138 -0.41340175 -0.00000097
-0.23334388 0.17384790 0.00000000
-0.11313057 -0.20663030 0.00000000
-0.58151031 -0.18088251 -0.00000075
-0.30761316 -0.42491493 0.00000000
-0.61727637 -0.18504862 -0.00000089
-0.33371270 -0.12169762 0.00000000
-0.42120042 -0.64088053 0.00000000
-0.63620245 -0.14194109 -0.00000105
-0.34511784 -0.08164256 0.00000000
-0.36853075 -0.39485821 0.00000000
-0.34687534 -0.55330718 0.00000000
-0.59279066 -0.34833899 -0.00000050
-0.05511509 -0.43840989 0.00000000
-0.71546686 -0.49189171 -0.00000077
-0.55143714 -0.25944358 -0.00000048
-0.01820793 0.12999018 0.00000000
-0.32394665 0.25967535 -0.00000043
-0.75338882 -0.50315541 -0.00000074
-0.68314070 -0.26493305 -0.00000103
-0.03721886 0.75654936 0.00000001
-0.07124663 -0.71260351 0.00000000
-0.04579438 -0.62402922 0.00000000
-0.34003723 -0.59619218 0.00000000
-0.05776119 -0.66325462 0.00000000
-0.31207082 -0.39355063 0.00000000
-0.19079074 0.36045122 -0.00000004
-0.56073779 -0.79317015 0.00000000
-0.72882593 -0.60533196 -0.00000049
-0.73626179 -0.43403167 -0.00000091
-0.41177356 -0.61501139 0.00000000
-0.17972474 0.51160544 -0.00000026
-0.51843733 -0.16882476 -0.00000050
-0.10071978 0.23487565 0.00000000
-0.39104629 0.24167262 -0.00000068
-0.60887659 -0.66513830 -0.00000001
-0.63762450 -0.71563369 -0.00000004
-0.65319163 -0.58109093 -0.00000035
-0.37949941 -0.39565670 0.00000000
-0.18238585 0.23304860 0.00000000
-0.38875967 0.12623324 -0.00000047
-0.21808550 -0.08772892 0.00000000
-0.00279170 -0.72273731 0.00000000
-0.30236867 -0.35295954 0.00000000
-0.22904667 -0.75277442 0.00000000
-0.63366246 -0.06368024 -0.00000118
-0.69621712 0.06677804 -0.00000168
-0.00770218 0.04494418 0.00000000
-0.35704046 -0.12268918 0.00000000
-0.16489030 -0.40677962 0.00000000
-0.71039706 -0.60577077 -0.00000049
-0.15323208 0.10641505 0.00000000
-0.59695238 -0.41198933 -0.00000041
-0.01279093 -0.55699807 0.00000000
-0.47369635 -0.77052081 0.00000000
-0.40338573 0.15651707 -0.00000058
-0.48384997 -0.25116095 -0.00000021
-0.04576958 0.15076935 0.00000000
-0.70687807 -0.64807260 -0.00000038
-0.38391164 -0.53857344 0.00000000
-0.01266362 -0.64181161 0.00000000
-0.26945454 -0.18820377 0.00000000
-0.01044231 0.64712155 0.00000000
-0.67039758 0.06455505 -0.00000156
-0.61012387 -0.00629665 -0.00000118
-0.29906118 -0.68366736 0.00000000
-0.60649693 -0.28131029 -0.00000068
-0.17802483 -0.71002018 0.00000000
-0.67454422 -0.25733179 -0.00000101
-0.32590303 -0.26735136 0.00000000
-0.03198717 0.35430196 0.00000000
-0.04139745 -0.69747049 0.00000000
-0.25674489 -0.76316130 0.00000000
-0.63163817 -0.22443031 -0.00000088
-0.25283739 0.16109984 0.00000000
-0.03170502 0.49324298 0.00000000
-0.14079253 -0.01011404 0.00000000
-0.78980398 -0.22105891 -0.00000145
-0.54378748 0.22792831 -0.00000131
-0.25349295 0.17999634 0.00000000
-0.61321789 -0.13754679 -0.00000096
-0.23704919 0.20033526 0.00000000
-0.34205452 0.10411624 -0.00000023
-0.31594872 -0.46711493 0.00000000
-0.55657446 -0.11901291 -0.00000075
-0.74170691 -0.44390216 -0.00000089
-0.44634196 -0.49110785 0.00000000
-0.06973144 0.00896388 0.00000000
-0.02441144 0.19405285 0.00000000
-0.51298410 -0.27817553 -0.00000028
-0.14326622 0.61132497 -0.00000028
-0.23392282 0.22446845 0.00000000
-0.60692501 -0.76124769 0.00000000
-0.12278915 0.48586097 0.00000000
-0.51365656 -0.59996092 0.00000000
-0.53698832 -0.35823056 -0.00000024
-0.15960899 -0.45989805 0.00000000
-0.44557011 -0.60416722 0.00000000
-0.05129858 -0.18882918 0.00000000
-0.52149826 -0.11154049 -0.00000061
-0.06315155 -0.36559960 0.00000000
-0.55706501 -0.18198024 -0.00000064
-0.48243460 -0.40102550 0.00000000
-0.26382843 -0.36003757 0.00000000
-0.51708847 -0.46030569 0.00000000
-0.26618341 -0.27072546 0.00000000
-0.28576481 -0.20344681 0.00000000
-0.55582905 0.05800513 -0.00000106
-0.08972843 0.58526796 -0.00000000
-0.62901115 -0.76292044 0.00000000
-0.28204632 -0.19161893 0.00000000
-0.46264330 -0.66004866 0.00000000
-0.38747987 0.30859306 -0.00000078
-0.09105213 0.26516917 0.00000000
-0.16020347 -0.25180799 0.00000000
-0.22951876 -0.44712210 0.00000000
-0.72030354 -0.70305407 -0.00000024
-0.53641963 -0.40466794 -0.00000016
-0.42580599 -0.18851002 -0.00000007
-0.11214358 0.19469009 0.00000000
-0.52736360 0.01917132 -0.00000087
-0.73844588 -0.05448979 -0.00000164
-0.45853382 0.17676397 -0.00000086
-0.53814018 -0.79693091 0.00000000
-0.17867008 -0.17612773 0.00000000
-0.39102721 -0.53537345 0.00000000
-0.35384271 -0.49064615 0.00000000
-0.69219393 -0.63380492 -0.00000042
-0.42499661 -0.04718937 -0.00000032
-0.56248212 -0.76064366 0.00000000
-0.75655484 -0.03176289 -0.00000176
-0.08491590 0.40668264 0.00000000
-0.36575094 -0.76215732 0.00000000
-0.22939071 0.05079163 0.00000000
-0.62656277 0.08235755 -0.00000141
-0.55779833 0.09856316 -0.00000114
-0.49615636 -0.56326813 0.00000000
-0.17500123 -0.75216472 0.00000000
-0.27762461 0.17035286 -0.00000007
-0.01795815 0.48932815 0.00000000
-0.65056127 -0.04105503 -0.00000129
-0.52980900 -0.78643084 0.00000000
-0.77376890 -0.60619408 -0.00000048
-0.41699624 -0.35752872 0.00000000
-0.43094230 -0.54727805 0.00000000
-0.72503269 -0.53612578 -0.00000066
-0.78729558 0.00823896 -0.00000189
-0.47194532 0.13219120 -0.00000083
-0.13836624 -0.13839360 0.00000000
-0.19813988 0.07389492 0.00000000
-0.70190954 -0.49466050 -0.00000071
-0.48487267 -0.48311052 0.00000000
-0.04320329 -0.48485455 0.00000000
-0.44639018 -0.15063439 -0.00000022
-0.12900209 -0.55269778 0.00000000
-0.35525832 -0.60434610 0.00000000
-0.74573761 -0.36111563 -0.00000110
-0.04369817 0.44769675 0.00000000
-0.39570963 -0.48729438 0.00000000
-0.27604315 0.51353580 -0.00000067
-0.76684433 -0.23429447 -0.00000141
-0.19070312 -0.51150095 0.00000000
-0.03661223 0.50798535 0.00000000
-0.18637647 -0.01090029 0.00000000
-0.13343780 0.63883579 -0.00000028
-0.59905541 -0.55268711 -0.00000017
-0.54382253 -0.53406465 0.00000000
-0.64944708 0.02036984 -0.00000139
-0.74492788 -0.41714463 -0.00000096
-0.30927765 -0.68536401 0.00000000
-0.48966733 -0.58348799 0.00000000
-0.78575778 -0.18182063 -0.00000155
-0.52297437 -0.52078539 0.00000000
-0.41791841 -0.61580199 0.00000000
-0.42528677 0.19404162 -0.00000074
-0.21032889 0.01577482 0.00000000
-0.41590872 -0.74028462 0.00000000
-0.02840740 0.24899834 0.00000000
-0.25970870 -0.22049136 0.00000000
-0.32819960 -0.74445546 0.00000000
-0.10187863 0.62947536 -0.00000013
-0.05427846 -0.35067531 0.00000000
-0.13444147 0.57564223 -0.00000018
-0.06917214 -0.57161528 0.00000000
-0.32236677 0.11565178 -0.00000017
-0.24192965 -0.32470980 0.00000000
-0.36119318 -0.39496613 0.00000000
-0.30561802 -0.77926576 0.00000000
-0.52191955 -0.24261074 -0.00000038
-0.12949906 0.58542687 -0.00000017
-0.08768558 0.25221911 0.00000000
-0.19600818 -0.25045216 0.00000000
-0.09020406 0.21861704 0.00000000
-0.72356153 0.02711181 -0.00000172
-0.60231191 0.00319729 -0.00000116
-0.29891810 0.41555023 -0.00000060
-0.55593854 -0.09092906 -0.00000080
-0.16071188 -0.41930139 0.00000000
-0.35344890 0.11264016 -0.00000029
-0.12457802 -0.54311013 0.00000000
-0.05876414 -0.35774094 0.00000000
-0.53090560 0.19530550 -0.00000120
-0.79972434 -0.47279799 -0.00000082
-0.24282557 -0.00809000 0.00000000
-0.51578003 -0.02602030 -0.00000074
-0.05221839 0.73838884 -0.00000011
-0.51797891 -0.77981001 0.00000000
-0.70372009 -0.17210691 -0.00000128
-0.17952247 -0.01004076 0.00000000
-0.07155208 0.13397604 0.00000000
-0.25753856 -0.69206190 0.00000000
-0.17058548 -0.31072491 0.00000000
-0.13318369 -0.18643528 0.00000000
-0.22959445 -0.67551398 0.00000000
-0.67202163 -0.07109155 -0.00000133
-0.00797815 -0.14221530 0.00000000
-0.04320952 -0.03036410 0.00000000
-0.44115561 -0.73534840 0.00000000
-0.28889930 0.37151900 -0.00000048
-0.66159052 0.12459518 -0.00000163
-0.73301464 -0.53263378 -0.00000067
-0.18923023 -0.77393097 0.00000000
-0.02398913 -0.20297840 0.00000000
-0.35519031 -0.56403363 0.00000000
-0.68667340 -0.23600703 -0.00000110
-0.15403835 -0.46415874 0.00000000
-0.12104067 0.52615446 -0.00000003
-0.41125411 0.37354207 -0.00000100
-0.42112237 -0.21654707 -0.00000000
-0.62359500 -0.51763862 -0.00000033
-0.20961741 0.00368871 0.00000000
-0.07515437 0.20432480 0.00000000
-0.20217408 -0.23828317 0.00000000
-0.50184548 -0.70325750 0.00000000
-0.27034795 -0.61338466 0.00000000
-0.46882561 -0.37271583 0.00000000
-0.38469133 0.19956428 -0.00000058
-0.46451131 -0.21011177 -0.00000020
-0.20914781 -0.48287052 0.00000000
-0.10000360 0.07986435 0.00000000
-0.10775932 -0.39217231 0.00000000
-0.34981164 -0.67043555 0.00000000
-0.70661581 -0.76197797 -0.00000010
-0.01899466 -0.48926443 0.00000000
-0.47777417 -0.29143730 -0.00000011
-0.01733450 0.04479121 0.00000000
-0.69360608 -0.74783546 -0.00000013
-0.20807432 -0.68553770 0.00000000
-0.09906766 0.68766797 -0.00000022
-0.30996722 0.47564676 -0.00000075
-0.06714327 0.42980400 0.00000000
-0.23556326 0.26412293 -0.00000006
-0.46474800 -0.78485680 0.00000000
-0.79946113 -0.47648299 -0.00000081
-0.41939402 0.31816095 -0.00000094
-0.02251353 -0.56651443 0.00000000
-0.56820863 -0.35132062 -0.00000039
-0.27427170 -0.52255052 0.00000000
-0.69603759 -0.24438015 -0.00000112
-0.68854457 0.11126860 -0.00000172
-0.22775550 0.04574443 0.00000000
-0.37450406 -0.36736444 0.00000000
-0.30141163 -0.07032951 0.00000000
-0.46564826 -0.61782074 0.00000000
-0.75507313 -0.26052067 -0.00000135
-0.30134606 -0.74234110 0.00000000
-0.01284366 -0.73264617 0.00000000
-0.61246634 -0.08095935 -0.00000106
-0.78834873 -0.63532293 -0.00000041
-0.76969594 -0.15845872 -0.00000159
-0.17002434 0.53642517 -0.00000026
-0.39241606 -0.02188861 -0.00000022
-0.29433465 -0.71348226 0.00000000
-0.38059393 -0.49988744 0.00000000
-0.50517279 -0.27997911 -0.00000025
-0.01102715 -0.75685084 0.00000000
-0.19294393 -0.29872662 0.00000000
-0.17679606 0.37098157 0.00000000
-0.29446819 -0.21201386 0.00000000
-0.38210568 -0.70144159 0.00000000
-0.63948774 -0.49519169 -0.00000044
-0.51500469 -0.70370966 0.00000000
-0.07592717 -0.10582086 0.00000000
-0.72133547 -0.52253222 -0.00000069
-0.27202922 0.19310136 -0.00000009
-0.12658814 -0.74754614 0.00000000
-0.30479228 0.41779476 -0.00000063
-0.11429976 -0.30366156 0.00000000
-0.32099876 -0.66187632 0.00000000
-0.02117548 0.05224425 0.00000000
-0.44957125 -0.79833364 0.00000000
-0.15637453 -0.59613705 0.00000000
-0.23215659 0.00104671 0.00000000
-0.43910155 0.18638119 -0.00000079
-0.34309635 -0.62518889 0.00000000
-0.17987181 0.08498681 0.00000000
-0.05537307 -0.27965343 0.00000000
-0.53594387 -0.58547634 0.00000000
-0.53169245 -0.13795637 -0.00000061
-0.79489976 -0.76878923 -0.00000008
-0.70349312 -0.30327323 -0.00000105
-0.18333735 -0.57501519 0.00000000
-0.20994020 0.16109817 0.00000000
-0.65063882 -0.24232446 -0.00000093
-0.62009090 -0.01296461 -0.00000121
-0.31319481 -0.30164653 0.00000000
-0.07986280 0.47012845 0.00000000
-0.15343636 -0.02982516 0.00000000
-0.68243152 0.07815234 -0.00000164
-0.08920198 0.62082726 -0.00000006
-0.40241462 -0.43525845 0.00000000
-0.75975651 -0.16781804 -0.00000153
-0.55241191 -0.09331378 -0.00000078
-0.03299028 0.27121875 0.00000000
-0.75421625 0.00416926 -0.00000181
-0.39035186 0.33305189 -0.00000084
-0.63656521 -0.12325974 -0.00000108
-0.22178522 -0.10453566 0.00000000
-0.12392587 -0.69909996 0.00000000
-0.35863420 -0.48439378 0.00000000
-0.36572698 0.40307036 -0.00000086
-0.53568780 -0.38964641 -0.00000018
-0.68797839 0.07467615 -0.00000165
-0.36681592 -0.45447332 0.00000000
-0.19079445 0.17929284 0.00000000
-0.59326166 0.06374833 -0.00000123
-0.49652034 -0.17684910 -0.00000039
-0.61015058 -0.45385417 -0.00000039
-0.70535195 -0.19886544 -0.00000124
-0.44716150 -0.70157099 0.00000000
-0.61522251 -0.10935006 -0.00000102
-0.07917358 0.61086494 -0.00000000
-0.38018569 -0.53301424 0.00000000
-0.59561980 0.18462554 -0.00000145
-0.27812532 0.15510914 -0.00000005
-0.23515759 0.29135412 -0.00000010
-0.38672614 -0.49099332 0.00000000
-0.76851308 -0.46029717 -0.00000085
-0.71223730 -0.06418688 -0.00000151
-0.05463527 -0.39340290 0.00000000
-0.00732234 0.16071740 0.00000000
-0.01504597 -0.62767851 0.00000000
-0.51653081 -0.15590827 -0.00000051
-0.70469612 0.06476026 -0.00000171
-0.54333234 -0.29702976 -0.00000038
-0.13485339 0.17650416 0.00000000
-0.06593998 0.08900494 0.00000000
-0.31412694 0.06116341 -0.00000003
-0.51830548 -0.65823519 0.00000000
-0.16350023 0.60161811 -0.00000035
-0.06694167 -0.07942256 0.00000000
-0.51508671 0.26320028 -0.00000125
-0.09879006 0.42730170 0.00000000
-0.28514031 0.39057577 -0.00000049
-0.63488144 -0.04613917 -0.00000121
-0.45964068 -0.69858909 0.00000000
-0.24646038 -0.60717136 0.00000000
-0.60225326 -0.35237476 -0.00000053
-0.20060998 0.04888990 0.00000000
-0.11244801 0.02140543 0.00000000
-0.10336685 0.36491090 0.00000000
-0.55213571 0.19350249 -0.00000128
-0.48108357 -0.65710413 0.00000000
-0.04756943 -0.73660016 0.00000000
-0.74478489 -0.50827312 -0.00000073
-0.17759253 -0.79028392 0.00000000
-0.13698786 -0.57195836 0.00000000
-0.61231554 -0.40921351 -0.00000048
-0.79060888 -0.55247754 -0.00000062
-0.16292690 -0.02871399 0.00000000
-0.34211999 -0.31717938 0.00000000
-0.21165480 0.00181147 0.00000000
-0.16770037 -0.24438158 0.00000000
-0.17841952 -0.37140027 0.00000000
-0.17821148 0.42129377 -0.00000009
-0.05423042 -0.55914170 0.00000000
-0.07172376 -0.66125447 0.00000000
-0.02026031 0.02064563 0.00000000
-0.48887604 -0.33411464 -0.00000008
-0.09139655 -0.02681361 0.00000000
-0.59564763 -0.04853377 -0.00000104
-0.40516895 -0.32081792 0.00000000
-0.54306883 -0.68281364 0.00000000
-0.73612523 0.00874108 -0.00000174
-0.30327454 -0.30543783 0.00000000
-0.14740008 -0.28821391 0.00000000
-0.46500388 -0.63131803 0.00000000
-0.58907622 0.17758611 -0.00000141
-0.23140834 -0.71925962 0.00000000
-0.41692314 -0.53938699 0.00000000
-0.19047090 0.51270872 -0.00000031
-0.32903284 -0.59143162 0.00000000
-0.14614129 0.24687132 0.00000000
-0.45251456 -0.71048778 0.00000000
-0.17973474 -0.00541067 0.00000000
-0.12590604 0.60797518 -0.00000020
-0.55061126 0.24497630 -0.00000137
-0.58868551 0.04949858 -0.00000119
-0.75591880 -0.08812734 -0.00000166
-0.35603741 -0.24401152 0.00000000
-0.53572714 -0.48519680 -0.00000001
-0.42956921 0.08989362 -0.00000058
-0.40685439 0.29103708 -0.00000084
-0.48776314 -0.58172578 0.00000000
-0.56056476 0.20788141 -0.00000135
-0.13029480 0.15016627 0.00000000
-0.62033594 -0.45157737 -0.00000043
-0.01202414 0.04310422 0.00000000
-0.23727769 0.11945321 0.00000000
-0.07158219 0.30364269 0.00000000
-0.70777756 -0.72024542 -0.00000020
-0.73707086 -0.34253600 -0.00000113
-0.14273311 -0.41551697 0.00000000
-0.08072112 -0.67427713 0.00000000
-0.58731717 -0.37254250 -0.00000043
-0.03796333 0.02154449 0.00000000
-0.36623514 0.40782669 -0.00000087
-0.38935259 0.36761621 -0.00000090
-0.01540272 -0.15873802 0.00000000
-0.14160518 -0.45973596 0.00000000
-0.22725400 0.53594118 -0.00000050
-0.37599930 -0.01219598 -0.00000017
-0.60068297 -0.03829756 -0.00000108
-0.47190097 -0.71091056 0.00000000
-0.13547032 -0.09313606 0.00000000
-0.34466973 -0.55487561 0.00000000
-0.67669469 0.03879455 -0.00000154
-0.39481875 -0.16705029 0.00000000
-0.21906707 -0.56569147 0.00000000
-0.57259661 -0.21523714 -0.00000065
-0.77653903 -0.11375108 -0.00000170
-0.40321144 0.16923480 -0.00000061
-0.65321678 0.02523810 -0.00000142
-0.71930456 -0.67891318 -0.00000030
-0.33673212 -0.47475502 0.00000000
-0.77335495 -0.43949792 -0.00000090
-0.44360915 -0.36310855 0.00000000
-0.14193036 -0.38448870 0.00000000
-0.24732976 -0.73785901 0.00000000
-0.31063059 -0.18393993 0.00000000
-0.22783864 -0.54311001 0.00000000
-0.01290251 -0.66655815 0.00000000
-0.06449665 -0.33446679 0.00000000
-0.49633127 -0.32386902 -0.00000013
-0.56930327 -0.11054018 -0.00000082
-0.49802992 -0.42957181 0.00000000
-0.20760107 0.10910219 0.00000000
-0.14859223 -0.72296047 0.00000000
-0.48959154 -0.70129234 0.00000000
-0.18372744 0.21251167 0.00000000
-0.05081534 -0.18887267 0.00000000
-0.36685184 -0.70813948 0.00000000
-0.75219262 -0.55687392 -0.00000061
-0.40024272 0.24540672 -0.00000073
-0.19354346 -0.53221494 0.00000000
-0.00893642 0.56866384 0.00000000
-0.32289794 0.39868981 -0.00000067
-0.28072163 -0.02439086 0.00000000
-0.36855823 -0.34869677 0.00000000
-0.66145509 0.01365591 -0.00000143
-0.15507995 -0.48566768 0.00000000
-0.30154076 0.00412199 0.00000000
-0.31726578 0.22993772 -0.00000035
-0.24155919 0.51875299 -0.00000053
-0.10897746 0.62100351 -0.00000015
-0.23914295 0.52029943 -0.00000053
-0.16776522 -0.49073467 0.00000000
-0.54615772 -0.69651741 0.00000000
-0.00778373 -0.59247762 0.00000000
-0.04322036 -0.32419860 0.00000000
-0.35146144 -0.47725481 0.00000000
-0.34814653 0.07522063 -0.00000020
-0.47023728 -0.44458306 0.00000000
-0.11469508 0.39301288 0.00000000
-0.21105269 -0.39116558 0.00000000
-0.10484758 -0.32301408 0.00000000
-0.12470067 -0.23979998 0.00000000
-0.25234514 -0.49315381 0.00000000
-0.23524348 -0.75688106 0.00000000
-0.15264151 0.04472370 0.00000000
-0.58156395 -0.23366065 -0.00000065
-0.16746248 0.25009152 0.00000000
-0.01974180 -0.61554331 0.00000000
-0.03528056 0.37983900 0.00000000
-0.67949212 -0.09428104 -0.00000132
-0.64102316 -0.40652588 -0.00000060
-0.35488513 -0.57221413 0.00000000
-0.32414535 -0.47224575 0.00000000
-0.19189484 0.44326639 -0.00000019
-0.42031303 -0.24712515 0.00000000
-0.08752163 -0.19283566 0.00000000
-0.09883407 0.26777127 0.00000000
-0.52733833 -0.13761063 -0.00000059
-0.52718073 -0.35846496 -0.00000020
-0.63711500 -0.69208694 -0.00000008
-0.24441889 -0.08073422 0.00000000
-0.74651194 -0.17829511 -0.00000146
-0.32366696 -0.49689466 0.00000000
-0.79806614 -0.23925716 -0.00000140
-0.10471909 -0.45124769 0.00000000
-0.48784298 -0.21399969 -0.00000029
-0.31456268 0.00240018 0.00000000
-0.22769007 -0.04207498 0.00000000
-0.19585457 -0.05030328 0.00000000
-0.21477383 -0.57904577 0.00000000
-0.21942942 -0.17891347 0.00000000
-0.62143493 -0.25843072 -0.00000078
-0.56717837 -0.37428913 -0.00000034
-0.34439415 0.00853153 -0.00000007
-0.77132553 -0.04611155 -0.00000180
-0.70002878 -0.55938578 -0.00000058
-0.17134953 0.06212758 0.00000000
-0.65897244 -0.31826195 -0.00000084
-0.06034250 -0.42920837 0.00000000
-0.36866468 -0.61598688 0.00000000
-0.24448965 -0.72297126 0.00000000
-0.53767222 -0.18526591 -0.00000055
-0.26493955 -0.56963140 0.00000000
-0.68302047 -0.26201817 -0.00000104
-0.58924431 -0.58345175 -0.00000007
-0.39735016 0.22635998 -0.00000068
-0.14943990 0.01506674 0.00000000
-0.78763586 -0.60887134 -0.00000048
-0.34747154 0.06220102 -0.00000018
-0.14153124 0.33498007 0.00000000
-0.66260892 -0.14684477 -0.00000115
-0.48890609 -0.20242064 -0.00000031
-0.54408455 0.06710869 -0.00000103
-0.69984329 -0.63903964 -0.00000040
-0.26276764 0.07573047 0.00000000
-0.70264292 -0.61215186 -0.00000047
-0.24518129 -0.12464080 0.00000000
-0.14157923 0.20926610 0.00000000
-0.36422512 -0.38241780 0.00000000
-0.17126390 0.20046827 0.00000000
-0.71273953 -0.44512832 -0.00000084
-0.17422807 0.51601547 -0.00000024
-0.40160280 0.22790222 -0.00000070
-0.28878582 0.38433850 -0.00000050
-0.33241507 -0.50968158 0.00000000
-0.60671473 -0.79353952 0.00000000
-0.18277524 0.60095596 -0.00000043
-0.57377362 -0.00957116 -0.00000102
-0.34317157 -0.25314811 0.00000000
-0.05588291 -0.34555078 0.00000000
-0.42258912 -0.21362574 -0.00000001
-0.48162425 0.26819062 -0.00000112
-0.18116520 0.15680853 0.00000000
-0.75463820 -0.61775595 -0.00000046
-0.41819113 -0.40736842 0.00000000
-0.58452517 0.09399468 -0.00000125
-0.53894097 -0.66198874 0.00000000
-0.17390287 0.00037697 0.00000000
-0.15767299 -0.50984222 0.00000000
-0.35295311 -0.12575759 0.00000000
-0.76669759 -0.09805205 -0.00000168
-0.44748408 -0.21283524 -0.00000012
-0.03101088 0.48874658 0.00000000
-0.10750901 0.05635281 0.00000000
-0.61952513 -0.27453598 -0.00000074
-0.17785162 -0.10324861 0.00000000
-0.61490357 -0.08412516 -0.00000106
-0.12835144 0.21447337 0.00000000
-0.17353359 0.28770718 0.00000000
-0.14095762 0.55258298 -0.00000016
-0.65861642 0.12592657 -0.00000162
-0.08101983 -0.75276303 0.00000000
-0.22399685 -0.74388158 0.00000000
-0.59198517 -0.15142693 -0.00000084
-0.23964177 -0.30553189 0.00000000
-0.49728954 -0.03208675 -0.00000065
-0.17153946 -0.33248863 0.00000000
-0.54505396 -0.67032236 0.00000000
-0.32428321 0.41728902 -0.00000071
-0.78581548 -0.50398266 -0.00000074
-0.48772216 -0.68762845 0.00000000
-0.06537523 0.20499735 0.00000000
-0.37878683 -0.48524243 0.00000000
-0.32168004 -0.11903688 0.00000000
-0.42361864 0.12804201 -0.00000062
-0.78467971 -0.07186085 -0.00000181
-0.62779355 -0.25502068 -0.00000081
-0.76874590 -0.71667969 -0.00000021
-0.12563603 0.22972858 0.00000000
-0.10376617 -0.46983802 0.00000000
-0.32720166 -0.18213385 0.00000000
-0.17347805 0.40840244 -0.00000005
-0.68524671 -0.71229458 -0.00000022
-0.26553133 -0.71972018 0.00000000
-0.73009205 -0.19086774 -0.00000136
-0.59439439 -0.61065346 -0.00000004
-0.28848422 -0.75615990 0.00000000
-0.00368194 0.27460840 0.00000000
-0.17401499 -0.51714212 0.00000000
-0.09361865 0.49295291 0.00000000
-0.68438417 0.04787662 -0.00000159
-0.46654594 -0.04403042 -0.00000050
-0.27742386 -0.69193393 0.00000000
-0.69463295 0.03211409 -0.00000161
-0.79012299 -0.04552326 -0.00000188
-0.35066310 -0.37698156 0.00000000
-0.61720353 -0.57245058 -0.00000021
-0.53284127 -0.67198521 0.00000000
-0.15169373 0.02872295 0.00000000
-0.18971233 0.08225416 0.00000000
-0.17338653 0.57335764 -0.00000034
-0.06899278 0.25317571 0.00000000
-0.15853330 -0.30347732 0.00000000
-0.45511210 -0.03287252 -0.00000047
-0.63721716 -0.54421306 -0.00000034
-0.22889055 0.37915170 -0.00000023
-0.20256819 -0.12181761 0.00000000
-0.28860357 -0.75370419 0.00000000
-0.33223638 -0.59738177 0.00000000
-0.60055876 -0.52612156 -0.00000022
-0.15753664 -0.15910229 0.00000000
-0.47605464 -0.05479841 -0.00000052
-0.29313061 0.23091243 -0.00000024
-0.68832010 -0.67801601 -0.00000030
-0.18568484 -0.44867748 0.00000000
-0.74308217 -0.01471683 -0.00000173
-0.17244430 -0.65265220 0.00000000
-0.20809926 0.45216736 -0.00000027
-0.47227997 0.19785711 -0.00000095
-0.70367032 -0.72627133 -0.00000018
-0.09492520 -0.44451338 0.00000000
-0.41138595 -0.20703419 0.00000000
-0.23632945 -0.53327507 0.00000000
-0.35225669 0.17923212 -0.00000041
-0.57386178 -0.25523129 -0.00000058
-0.02508199 -0.24002157 0.00000000
-0.04467954 0.74400222 -0.00000009
-0.13855579 -0.26508257 0.00000000
-0.26808470 -0.12201934 0.00000000
-0.37729257 -0.36730576 0.00000000
-0.79456544 -0.32670876 -0.00000118
-0.76167506 -0.44283605 -0.00000089
-0.77941525 -0.25856480 -0.00000135
-0.15877429 0.18694235 0.00000000
-0.61899710 -0.17900866 -0.00000091
-0.34796730 -0.39592409 0.00000000
-0.41816279 0.04515356 -0.00000045
-0.36555657 -0.01379770 -0.00000012
-0.05199000 -0.18012898 0.00000000
-0.08826546 0.41596079 0.00000000
-0.06569525 -0.16115393 0.00000000
-0.39818373 0.27231902 -0.00000077
-0.37631032 -0.66181725 0.00000000
-0.60288334 -0.72267139 0.00000000
-0.03213173 -0.32634014 0.00000000
-0.50740439 -0.11432274 -0.00000055
-0.38763297 -0.76984626 0.00000000
-0.03162703 -0.64478850 0.00000000
-0.40965390 0.20366247 -0.00000069
-0.17778952 -0.28494576 0.00000000
-0.25943750 0.15949897 0.00000000
-0.24641760 -0.58888108 0.00000000
-0.54692578 0.09697308 -0.00000109
-0.32017526 -0.20870905 0.00000000
-0.55155450 -0.70930606 0.00000000
-0.26208213 0.50059795 -0.00000059
-0.11305104 -0.24505875 0.00000000
-0.09938477 -0.14747675 0.00000000
-0.32874885 0.26726094 -0.00000046
-0.66701609 -0.12239501 -0.00000122
-0.05223110 -0.09364387 0.00000000
-0.76498890 0.03470300 -0.00000191
-0.61021489 -0.21360275 -0.00000081
-0.61859560 -0.64509887 -0.00000009
-0.66725200 -0.36623925 -0.00000079
-0.35102460 -0.03509742 -0.00000002
-0.70717555 -0.33871970 -0.00000101
-0.37718028 -0.35933721 0.00000000
-0.06159960 -0.58191645 0.00000000
-0.56010300 -0.51888841 -0.00000006
-0.14125846 -0.37907341 0.00000000
-0.55523521 -0.20429604 -0.00000059
-0.38978428 0.20641182 -0.00000061
-0.54434597 -0.59159005 0.00000000
-0.30308396 0.49109054 -0.00000075
-0.53843057 -0.76108044 0.00000000
-0.43558350 0.21204591 -0.00000082
-0.37772286 -0.03140724 -0.00000014
-0.50719303 0.06097739 -0.00000086
-0.54999173 -0.09601598 -0.00000076
-0.75227547 -0.09707514 -0.00000162
-0.55723184 -0.22149087 -0.00000057
-0.67620373 0.00220085 -0.00000148
-0.13549253 -0.58495921 0.00000000
-0.67150223 -0.23186295 -0.00000104
-0.29264855 -0.03035022 0.00000000
-0.28836200 -0.39642674 0.00000000
-0.27528656 -0.13057750 0.00000000
-0.36257240 0.08139479 -0.00000028
-0.60447812 -0.19371729 -0.00000082
-0.36655068 0.16428594 -0.00000044
-0.74119180 -0.25980172 -0.00000129
-0.44308636 -0.45891780 0.00000000
-0.18608090 -0.52958351 0.00000000
-0.57158297 -0.55495304 -0.00000004
-0.37914538 0.16146952 -0.00000049
-0.27581921 -0.37157929 0.00000000
-0.13069578 0.57588685 -0.00000016
-0.72270924 -0.24311242 -0.00000124
-0.20656250 -0.21190120 0.00000000
-0.27246150 0.46069646 -0.00000056
-0.35714400 0.05853968 -0.00000021
-0.71285969 -0.32630974 -0.00000105
-0.02242610 0.57222319 0.00000000
-0.22981562 0.22463401 0.00000000
-0.51243699 -0.07190510 -0.00000065
-0.60236287 0.05522681 -0.00000125
-0.02932653 0.15509322 0.00000000
-0.45801046 -0.61229366 0.00000000
-0.70477837 -0.75433153 -0.00000011
-0.44878313 -0.24122474 -0.00000007
-0.68373376 0.09804506 -0.00000168
-0.65798289 -0.38659799 -0.00000071
-0.03351359 0.42807040 0.00000000
-0.04066589 -0.67355591 0.00000000
-0.59658641 -0.24502471 -0.00000070
-0.22953644 -0.00568803 0.00000000
-0.34931281 0.14107805 -0.00000033
-0.07695691 0.33101818 0.00000000
-0.10074570 0.65433341 -0.00000017
-0.79794574 -0.54069257 -0.00000065
-0.31365737 -0.56610066 0.00000000
-0.14422090 -0.67821348 0.00000000
-0.09410519 -0.03505318 0.00000000
-0.46731493 -0.49754125 0.00000000
-0.27985549 -0.17299534 0.00000000
-0.71240056 -0.13744399 -0.00000138
-0.61325330 0.08175146 -0.00000135
-0.60249501 -0.79244113 0.00000000
-0.42693216 -0.22911441 -0.00000000
-0.52419192 -0.57410836 0.00000000
-0.22298232 0.28728548 -0.00000005
-0.12344151 0.34056836 0.00000000
-0.10979963 0.48861024 0.00000000
-0.69925994 0.09403650 -0.00000174
-0.08032771 -0.43082911 0.00000000
-0.13490905 0.41181701 0.00000000
-0.08674825 -0.58639044 0.00000000
-0.40165758 0.24753773 -0.00000074
-0.54528570 -0.75026238 0.00000000
-0.11848037 -0.26640439 0.00000000
-0.36381489 -0.17846324 0.00000000
-0.28229409 -0.69946599 0.00000000
-0.57532197 -0.54834270 -0.00000007
-0.31149900 -0.27750021 0.00000000
-0.77626699 -0.04116248 -0.00000183
-0.78707749 -0.37528536 -0.00000106
-0.77981353 -0.01636579 -0.00000188
-0.02117555 0.11134863 0.00000000
-0.35100719 -0.34550136 0.00000000
-0.59795183 -0.47866052 -0.00000029
-0.13461064 -0.43266755 0.00000000
-0.19139522 -0.75141424 0.00000000
-0.16086690 0.41442919 -0.00000000
-0.60599315 -0.70839363 0.00000000
-0.57622343 0.01075009 -0.00000106
-0.30000916 0.08029152 -0.00000001
-0.34100243 0.37296066 -0.00000070
-0.05714857 -0.50053763 0.00000000
-0.04089720 0.58165902 0.00000000
-0.04863334 -0.58975023 0.00000000
-0.31042409 -0.66270173 0.00000000
-0.26320678 -0.56209219 0.00000000
-0.75491834 -0.30372131 -0.00000124
-0.79864419 -0.33820435 -0.00000115
-0.09692848 0.34900942 0.00000000
-0.72386259 -0.53844005 -0.00000065
-0.29346019 -0.74550039 0.00000000
-0.02475222 -0.55800056 0.00000000
-0.05261226 -0.09990288 0.00000000
-0.20663820 -0.51581872 0.00000000
-0.31284273 -0.09765904 0.00000000
-0.57337701 -0.62254733 0.00000000
-0.16009565 0.56181318 -0.00000026
-0.07898081 -0.13852476 0.00000000
-0.52574599 -0.62149423 0.00000000
-0.40711728 -0.15103577 -0.00000006
-0.17730872 -0.11528937 0.00000000
-0.48167458 -0.51728410 0.00000000
-0.24827424 -0.48304263 0.00000000
-0.56072229 -0.30234519 -0.00000044
-0.15959725 -0.59027362 0.00000000
-0.04289869 0.10140246 0.00000000
-0.17885327 0.22477347 0.00000000
-0.62466562 -0.03010800 -0.00000120
-0.33134732 0.05128746 -0.00000009
-0.11661572 -0.21197975 0.00000000
-0.30671626 0.32405365 -0.00000047
-0.31728822 -0.03281320 0.00000000
-0.09578741 -0.47777933 0.00000000
-0.66528291 -0.46585479 -0.00000060
-0.22361052 0.02246281 0.00000000
-0.14579333 -0.03371916 0.00000000
-0.61530381 0.04645300 -0.00000129
-0.16329874 0.05767298 0.00000000
-0.67801076 -0.30818251 -0.00000093
-0.77734959 -0.78708124 -0.00000003
-0.10648423 -0.57571471 0.00000000
-0.31089348 0.44617653 -0.00000070
-0.27676460 -0.30234125 0.00000000
-0.68970013 -0.36094186 -0.00000089
-0.07705634 0.42071798 0.00000000
