ply
format ascii 1.0
element vertex 1230
property float x
property float y
property float z
end_header
-0.01659317 0.12801149 -0.00000867
-0.39218819 -0.42317134 0.00000141
-0.43829373 0.06351409 0.00000182
-0.06604766 -0.34614852 0.00000170
-0.20296901 -0.79959333 0.00000000
-0.22784650 -0.22141533 0.00000217
-0.42677125 -0.52141964 0.00000104
-0.73717743 -0.17318235 -0.00000121
-0.19299166 -0.64127642 0.00000060
-0.07616659 -0.08310644 0.00000269
-0.49064723 -0.25737974 0.00000147
-0.71354216 -0.63015997 -0.00000042
-0.38287076 -0.53273624 0.00000100
-0.11812267 0.10812083 -0.00000636
-0.50758249 -0.46274158 0.00000126
-0.78590757 -0.25683907 -0.00000136
-0.02698369 -0.52464259 0.00000103
-0.00712492 -0.06789848 0.00000276
-0.50606161 0.16192862 0.00000103
-0.75722986 -0.72418702 -0.00000019
-0.56718761 -0.51044261 0.00000083
-0.78314948 -0.36892858 -0.00000108
-0.53420407 -0.77626139 0.00000009
-0.27725270 0.39723873 0.00000331
-0.13154586 0.58493108 0.00000474
-0.12362352 -0.56707215 0.00000087
-0.01724077 0.13188533 -0.00000856
-0.29579794 0.04116246 -0.00000304
-0.10458654 0.50449771 0.00000219
-0.77009988 -0.48428109 -0.00000079
-0.11266067 0.16003339 -0.00000534
-0.01830960 -0.72701877 0.00000030
-0.35424861 0.10242419 0.00000269
-0.22793549 -0.69371599 0.00000040
-0.23684779 -0.56250882 0.00000089
-0.59827703 0.09932136 0.00000009
-0.08370397 0.24981868 -0.00000411
-0.10828053 0.44973782 0.00000106
-0.22301663 -0.62701476 0.00000065
-0.60751641 0.16679716 -0.00000006
-0.04994360 0.45645317 -0.00000037
-0.25702664 0.37254205 0.00000354
-0.62846661 -0.52015710 0.00000018
-0.04582297 0.41766921 -0.00000136
-0.54012972 -0.14925818 0.00000087
-0.29138687 -0.56273174 0.00000089
-0.35599026 -0.51578325 0.00000107
-0.60409647 0.07292143 0.00000004
-0.32388097 -0.29193676 0.00000191
-0.13198876 -0.77822596 0.00000008
-0.72848362 -0.49172944 -0.00000077
-0.55952191 -0.45807540 0.00000087
-0.59186381 -0.60937142 0.00000063
-0.00888704 0.44278237 -0.00000180
-0.66649169 -0.27794200 -0.00000039
-0.17111018 0.52561313 0.00000436
-0.04664330 -0.01843101 0.00000293
-0.17531627 -0.56234461 0.00000089
-0.05974466 -0.09414095 0.00000274
-0.14936683 0.02503279 -0.00000738
-0.46446103 0.05276934 0.00000154
-0.38375434 -0.65473902 0.00000054
-0.05681164 -0.28965208 0.00000200
-0.06679020 -0.31389487 0.00000192
-0.45473728 0.10121416 0.00000162
-0.48501629 0.03634486 0.00000134
-0.08408854 -0.71261221 0.00000033
-0.05572090 -0.32586849 0.00000186
-0.30733529 -0.46993384 0.00000124
-0.33893651 -0.02626799 0.00000290
-0.05326928 -0.41267142 0.00000145
-0.38114876 -0.00266508 0.00000247
-0.54393286 -0.62040788 0.00000067
-0.11422926 -0.10165831 0.00000262
-0.57244366 -0.64729297 0.00000057
-0.77877998 -0.20178230 -0.00000150
-0.44558614 -0.59390128 0.00000077
-0.01402195 -0.14892206 0.00000244
-0.22938678 -0.53343546 0.00000100
-0.47386959 0.05921392 0.00000144
-0.15622699 -0.60723102 0.00000072
-0.38947839 -0.75545174 0.00000017
-0.39359516 -0.69829476 0.00000038
-0.27562031 0.22172691 0.00000345
-0.10817206 -0.26904273 0.00000199
-0.29623517 -0.58381474 0.00000081
-0.22121929 0.36941782 0.00000393
-0.66597438 -0.03901333 -0.00000054
-0.32837325 -0.13473007 0.00000249
-0.56081504 -0.69867623 0.00000038
-0.31585690 0.45394990 0.00000286
-0.05672114 0.73224223 0.00000544
-0.02550043 -0.38752285 0.00000159
-0.18017869 0.52254266 0.00000426
-0.05469301 -0.56871766 0.00000087
-0.08652532 -0.76825124 0.00000012
-0.56853759 0.07017963 0.00000042
-0.78410298 -0.57570273 -0.00000056
-0.77849609 -0.20007284 -0.00000150
-0.59296030 -0.71441013 0.00000032
-0.12758119 -0.42764565 0.00000140
-0.43837354 -0.37665248 0.00000159
-0.36141983 -0.36507675 0.00000163
-0.66996163 0.09129304 -0.00000067
-0.45995623 -0.31071052 0.00000183
-0.12923186 0.30620575 -0.00000160
-0.24326183 -0.00237284 0.00000299
-0.24653164 -0.61516559 0.00000069
-0.40771532 -0.32489109 0.00000178
-0.04835202 0.14982402 -0.00000732
-0.14742336 0.02847075 -0.00000736
-0.33660054 0.31931803 0.00000273
-0.24609569 -0.14610401 0.00000245
-0.09640157 0.41735640 0.00000001
-0.01548377 0.37279394 -0.00000319
-0.60015696 0.03934730 0.00000011
-0.52051955 -0.50097871 0.00000112
-0.69084400 -0.22463089 -0.00000068
-0.60399675 -0.29304752 0.00000029
-0.33623260 0.07990122 0.00000289
-0.47458640 0.14529692 0.00000137
-0.38861915 0.06805899 0.00000234
-0.22601628 0.20963700 -0.00000114
-0.17346895 -0.56808704 0.00000087
-0.45875612 -0.21847180 0.00000179
-0.58220392 -0.65007520 0.00000056
-0.24371432 0.02450225 -0.00000483
-0.38810930 0.33934855 0.00000217
-0.65993583 -0.67783070 -0.00000005
-0.56821132 0.08072695 0.00000042
-0.16545536 -0.40237764 0.00000149
-0.05551320 0.02481790 -0.00000993
-0.28289855 0.40554735 0.00000325
-0.78081822 -0.55373871 -0.00000062
-0.20131929 -0.15111698 0.00000243
-0.76076281 -0.43850258 -0.00000090
-0.64171499 -0.00107911 -0.00000031
-0.19661267 -0.11359727 0.00000257
-0.12182459 0.05073298 -0.00000755
-0.38456243 0.35427475 0.00000220
-0.36457700 0.20874095 0.00000251
-0.01277819 -0.21180589 0.00000221
-0.33757979 0.41182947 0.00000266
-0.16345377 -0.08656030 0.00000268
-0.16676253 -0.70137471 0.00000037
-0.57806867 -0.51804429 0.00000071
-0.11673924 0.67577904 0.00000484
-0.09178884 -0.47903094 0.00000120
-0.71389270 -0.15165967 -0.00000098
-0.68825173 -0.49532959 -0.00000048
-0.30859849 0.09560025 0.00000318
-0.40027168 -0.44980982 0.00000131
-0.15599173 -0.75241131 0.00000018
-0.59488177 -0.32070714 0.00000040
-0.14312954 -0.46425757 0.00000126
-0.76705241 -0.13257147 -0.00000156
-0.21519013 0.21050166 -0.00000142
-0.04712561 -0.15585966 0.00000249
-0.27105924 -0.01927461 0.00000293
-0.15311417 -0.16651550 0.00000238
-0.29784074 0.37182331 0.00000311
-0.21688719 -0.68151850 0.00000044
-0.68711263 -0.36339426 -0.00000055
-0.04143465 -0.69429755 0.00000040
-0.52136654 -0.03813349 0.00000100
-0.15322407 0.46500936 0.00000459
-0.13837762 -0.13981473 0.00000248
-0.45061222 0.23621729 0.00000157
-0.41348246 -0.63717633 0.00000061
-0.13959312 0.37065643 0.00000013
-0.47218323 0.30743596 0.00000129
-0.11559447 -0.41927257 0.00000143
-0.21480928 -0.11315591 0.00000258
-0.00539871 -0.72890425 0.00000027
-0.33476233 -0.06152652 0.00000277
-0.55656409 -0.33347929 0.00000082
-0.35459104 0.06942830 0.00000271
-0.36260888 -0.76113290 0.00000015
-0.01979403 -0.23548302 0.00000212
-0.03277653 0.66469622 0.00000385
-0.30974853 -0.21835569 0.00000218
-0.12119765 0.31146538 -0.00000170
-0.38947546 0.02538318 0.00000236
-0.07023692 0.70997113 0.00000531
-0.15820543 -0.47450000 0.00000122
-0.43654591 0.25987843 0.00000170
-0.56050706 -0.00784905 0.00000056
-0.13614947 0.42425403 0.00000124
-0.36654526 -0.04698078 0.00000266
-0.28208181 -0.32419774 0.00000178
-0.02379968 -0.57566088 0.00000088
-0.09605745 0.70107180 0.00000507
-0.01694559 0.18124674 -0.00000746
-0.31039777 -0.38925993 0.00000154
-0.06051203 -0.21679208 0.00000228
-0.46549967 -0.03328539 0.00000159
-0.43915397 -0.20233209 0.00000199
-0.45566994 -0.01041286 0.00000168
-0.24217668 -0.58949959 0.00000079
-0.73105854 -0.35804224 -0.00000102
-0.14867659 -0.63031602 0.00000064
-0.19887830 -0.76185888 0.00000014
-0.23573864 -0.68045861 0.00000045
-0.65402073 -0.37551031 -0.00000019
-0.11974139 -0.05119286 0.00000281
-0.19011261 -0.41991809 0.00000143
-0.60826755 0.03953493 0.00000002
-0.00963142 -0.55530971 0.00000093
-0.08235713 -0.39437833 0.00000152
-0.09476152 0.37759355 -0.00000093
-0.66188520 -0.08516019 -0.00000047
-0.01654167 0.57057029 0.00000129
-0.18831205 0.33434492 0.00000064
-0.46491843 0.03734939 0.00000155
-0.56246489 -0.16541292 0.00000065
-0.45303464 0.16646340 0.00000159
-0.04498399 -0.49973968 0.00000113
-0.17827696 -0.03118934 0.00000288
-0.31558040 -0.66903287 0.00000049
-0.13684294 -0.00006547 0.00000300
-0.28187686 -0.76736540 0.00000012
-0.01083417 -0.28915545 0.00000192
-0.49209762 0.18468158 0.00000116
-0.19661774 -0.65108049 0.00000056
-0.45775759 -0.22087462 0.00000180
-0.40929797 0.24754554 0.00000200
-0.10619266 0.52645034 0.00000273
-0.63631588 -0.59335959 0.00000014
-0.06216325 -0.11619595 0.00000256
-0.41254231 -0.59556037 0.00000077
-0.69832379 -0.28382787 -0.00000073
-0.47311211 -0.14009412 0.00000158
-0.05940192 -0.35336807 0.00000167
-0.74331772 -0.40307558 -0.00000099
-0.38522199 -0.11161182 0.00000250
-0.23113199 0.04833225 -0.00000463
-0.22346142 0.43815008 0.00000386
-0.08010831 -0.29436392 0.00000190
-0.21421994 -0.69454855 0.00000040
-0.78584939 -0.48577040 -0.00000079
-0.48876441 -0.25002664 0.00000149
-0.23778285 -0.29617479 0.00000189
-0.18213002 0.53949642 0.00000423
-0.51563805 -0.13951766 0.00000113
-0.07739523 0.34965068 -0.00000203
-0.21699171 0.42427006 0.00000394
-0.16481459 -0.35962510 0.00000165
-0.23525828 -0.44610944 0.00000133
-0.35852844 0.16539074 0.00000260
-0.76404136 -0.62382573 -0.00000044
-0.21191406 -0.41774574 0.00000143
-0.26852068 -0.69428843 0.00000040
-0.25222114 0.17632206 -0.00000118
-0.04392173 -0.59032297 0.00000085
-0.45741931 -0.70448267 0.00000036
-0.03203886 -0.48415348 0.00000118
-0.18068095 0.16815419 -0.00000331
-0.29339108 -0.35013202 0.00000169
-0.08106421 0.18172364 -0.00000571
-0.03406846 -0.07018133 0.00000279
-0.02129870 -0.63496405 0.00000065
-0.58262461 0.05414180 0.00000028
-0.46561006 0.31383741 0.00000136
-0.58288562 -0.16213852 0.00000043
-0.30268058 -0.65739930 0.00000053
-0.71517777 -0.32500425 -0.00000088
-0.01439972 -0.45111659 0.00000131
-0.10884273 -0.65891492 0.00000053
-0.14639705 -0.44208202 0.00000134
-0.64414990 -0.65830672 0.00000010
-0.00654603 -0.08854309 0.00000267
-0.10524401 -0.15594582 0.00000242
-0.47649968 -0.17279688 0.00000157
-0.22831979 0.31905478 0.00000389
-0.03265622 -0.44213563 0.00000139
-0.26150894 0.44114238 0.00000345
-0.36163497 0.31565106 0.00000247
-0.58656037 0.00634248 0.00000027
-0.42886275 -0.09654346 0.00000202
-0.64360523 -0.64857125 0.00000010
-0.40967956 -0.52280861 0.00000104
-0.04229302 -0.51067179 0.00000115
-0.01783466 0.25823438 -0.00000571
-0.35331455 -0.00949387 0.00000277
-0.50736749 -0.31554058 0.00000133
-0.43338221 0.27165222 0.00000173
-0.03333617 -0.23529124 0.00000212
-0.03150549 -0.60828197 0.00000072
-0.38294736 -0.27717820 0.00000196
-0.04462029 0.47579667 -0.00000008
-0.29750666 0.40462241 0.00000309
-0.43667880 0.15053391 0.00000178
-0.06322659 -0.24935770 0.00000216
-0.69200575 -0.01163519 -0.00000084
-0.46832424 -0.22708277 0.00000169
-0.40815207 0.08008069 0.00000213
-0.12769867 0.62997830 0.00000475
-0.09958736 -0.21583891 0.00000219
-0.19263302 0.53728878 0.00000412
-0.46042606 0.27667329 0.00000144
-0.37014389 0.27058473 0.00000241
-0.29498720 -0.60657352 0.00000073
-0.68426001 -0.03779458 -0.00000074
-0.41755605 -0.63304555 0.00000063
-0.34169987 0.17618874 0.00000277
-0.01560142 -0.20075743 0.00000225
-0.53693974 0.11468312 0.00000073
-0.04072691 0.75073302 0.00000567
-0.24006748 0.08444570 -0.00000358
-0.74328119 -0.54583597 -0.00000064
-0.77579403 -0.77728951 -0.00000006
-0.38812131 -0.30258751 0.00000187
-0.79593241 -0.33506724 -0.00000116
-0.04645844 0.11235296 -0.00000821
-0.15153234 -0.01382275 0.00000295
-0.35139421 0.00444161 0.00000278
-0.77363920 -0.68372285 -0.00000029
-0.51980394 0.03418168 0.00000097
-0.43057865 -0.05487734 0.00000198
-0.28919762 -0.74770856 0.00000020
-0.04738240 0.35898092 -0.00000264
-0.70624101 -0.10707868 -0.00000093
-0.20721784 -0.37121621 0.00000161
-0.19244061 -0.18717699 0.00000230
-0.62618738 -0.17603277 -0.00000003
-0.60704088 -0.22731899 0.00000021
-0.65106475 -0.13790421 -0.00000032
-0.52931476 -0.07166176 0.00000094
-0.69317669 -0.55043137 -0.00000049
-0.04699768 0.39027452 -0.00000194
-0.73534781 -0.50070268 -0.00000075
-0.55463815 -0.03825968 0.00000064
-0.18106978 -0.78135890 0.00000007
-0.25853336 -0.73990089 0.00000023
-0.06496422 0.56710070 0.00000252
-0.32100400 -0.12537789 0.00000253
-0.06658975 -0.42607486 0.00000140
-0.19774087 -0.14523748 0.00000246
-0.20632268 0.31624949 0.00000412
-0.12524828 -0.28223959 0.00000194
-0.28592452 -0.01894384 0.00000293
-0.24196702 -0.79792380 0.00000001
-0.21126603 0.57173681 0.00000390
-0.71681124 -0.32888675 -0.00000089
-0.69085002 -0.61894786 -0.00000042
-0.13487707 -0.14738135 0.00000245
-0.30780014 0.18151209 0.00000313
-0.66543651 -0.39538735 -0.00000030
-0.63916540 -0.37243211 -0.00000003
-0.10793851 0.11170070 -0.00000656
-0.62751645 -0.27023393 0.00000002
-0.26927736 -0.18936427 0.00000229
-0.01131002 -0.46665245 0.00000125
-0.75316954 -0.18372130 -0.00000138
-0.14286543 0.24685241 -0.00000257
-0.02952754 -0.59976238 0.00000080
-0.39129946 -0.37458396 0.00000160
-0.03919008 -0.32804272 0.00000177
-0.29968464 -0.25308833 0.00000205
-0.73266798 0.04966095 -0.00000131
-0.16125247 -0.32496744 0.00000178
-0.18215267 0.56394392 0.00000421
-0.04101164 0.11872617 -0.00000821
-0.56872576 0.11567328 0.00000039
-0.25273177 0.00058439 -0.00000512
-0.13552092 -0.72730637 0.00000027
-0.25807098 0.13797922 -0.00000189
-0.45239791 0.10592818 0.00000164
-0.15646534 0.64033848 0.00000446
-0.28436297 -0.19654997 0.00000226
-0.02760721 -0.56578773 0.00000092
-0.31414902 -0.66790158 0.00000050
-0.69982630 -0.25425032 -0.00000076
-0.05300039 0.06548406 -0.00000909
-0.17999636 -0.38150701 0.00000157
-0.32935816 -0.44902906 0.00000132
-0.63657272 -0.69296575 0.00000021
-0.44917101 -0.73328692 0.00000025
-0.49951276 -0.40848351 0.00000147
-0.34658659 0.39246893 0.00000257
-0.01027400 0.66899019 0.00000333
-0.00047094 -0.01357784 0.00000295
-0.75045472 -0.75609553 -0.00000011
-0.31694970 -0.19873843 0.00000225
-0.55731881 0.06637961 0.00000054
-0.62457943 -0.04711041 -0.00000010
-0.01418037 -0.75675410 0.00000016
-0.73710936 -0.50219434 -0.00000074
-0.17796111 -0.16288760 0.00000239
-0.11067629 0.07836190 -0.00000723
-0.42603707 -0.76297146 0.00000014
-0.31941894 -0.79271942 0.00000003
-0.42938539 -0.38242957 0.00000157
-0.00213262 -0.54008931 0.00000097
-0.14904317 -0.19620073 0.00000226
-0.57520390 -0.12476227 0.00000048
-0.72953725 0.02780394 -0.00000127
-0.33311698 0.28980371 0.00000279
-0.25602227 0.19384606 0.00000367
-0.33303934 0.18600804 0.00000286
-0.77422202 -0.61573869 -0.00000046
-0.14125182 -0.60144496 0.00000074
-0.79491842 -0.47632441 -0.00000081
-0.02146246 -0.00274451 0.00000299
-0.40400991 -0.31168243 0.00000183
-0.13844588 0.61812222 0.00000464
-0.64314383 -0.51198924 0.00000002
-0.66988063 -0.44716263 -0.00000031
-0.40962052 -0.54940957 0.00000094
-0.31041217 -0.36349559 0.00000164
-0.10659604 0.37711823 -0.00000062
-0.01823919 -0.56978315 0.00000089
-0.04750389 -0.31049800 0.00000184
-0.66238797 -0.61200625 -0.00000012
-0.43622893 -0.69298005 0.00000040
-0.34106505 0.43824035 0.00000260
-0.08310574 0.16652197 -0.00000600
-0.15739138 -0.69862533 0.00000038
-0.04524337 0.33121350 -0.00000332
-0.06890365 0.35298419 -0.00000219
-0.66282511 -0.58258122 -0.00000015
-0.60752946 -0.39738780 0.00000032
-0.14801714 -0.72725487 0.00000027
-0.25480145 0.45884559 0.00000351
-0.01396631 0.36186364 -0.00000348
-0.17817828 0.35510024 0.00000083
-0.02051548 0.24098888 -0.00000602
-0.13432983 -0.77638012 0.00000009
-0.67091006 -0.45834109 -0.00000032
-0.10704692 0.57892907 0.00000501
-0.37556759 -0.71311355 0.00000033
-0.72501141 -0.25299743 -0.00000103
-0.26521942 -0.34924695 0.00000169
-0.42701364 -0.51845145 0.00000106
-0.10637902 -0.79253256 0.00000003
-0.29876944 -0.05690156 0.00000279
-0.56858939 -0.27852285 0.00000066
-0.22533558 -0.53134143 0.00000101
-0.06985504 -0.20243549 0.00000224
-0.07525222 0.53944296 0.00000218
-0.11857997 -0.68461663 0.00000043
-0.77004856 -0.36723804 -0.00000108
-0.61169577 0.10248130 -0.00000006
-0.14024813 -0.35461125 0.00000167
-0.69874877 -0.61244035 -0.00000047
-0.41046616 -0.73344302 0.00000025
-0.61969054 -0.67795479 0.00000038
-0.23006023 0.25740626 0.00000391
-0.19590984 0.47039038 0.00000413
-0.27776551 0.42369884 0.00000329
-0.12436467 0.46249330 0.00000178
-0.59316260 -0.28140882 0.00000040
-0.11722293 -0.34389535 0.00000171
-0.26084587 0.30817637 0.00000355
-0.11442665 -0.55898690 0.00000090
-0.21722968 0.27505538 0.00000009
-0.48478249 -0.41919127 0.00000143
-0.30461228 0.39112207 0.00000302
-0.13447441 -0.46239895 0.00000127
-0.22070614 -0.11854038 0.00000256
-0.02904476 -0.32648331 0.00000178
-0.00354754 -0.18941537 0.00000229
-0.62875760 -0.57829922 0.00000021
-0.35686073 -0.67841887 0.00000046
-0.39892909 -0.41883153 0.00000143
-0.14283001 0.62301695 0.00000459
-0.28918591 -0.62841100 0.00000064
-0.58289200 0.15064268 0.00000022
-0.66042870 -0.03001142 -0.00000049
-0.34127092 -0.18595125 0.00000230
-0.30707660 -0.32420555 0.00000178
-0.46734509 0.18453597 0.00000143
-0.16640753 0.23168059 -0.00000227
-0.31701982 0.34598598 0.00000292
-0.78755593 -0.13334587 -0.00000167
-0.62091261 -0.47260103 0.00000023
-0.42988202 -0.72153163 0.00000029
-0.13633373 -0.25694743 0.00000204
-0.05295229 -0.76264566 0.00000014
-0.10140683 0.10631626 -0.00000685
-0.03745655 -0.77357793 0.00000010
-0.02012614 -0.28988019 0.00000191
-0.09372087 0.28275186 -0.00000309
-0.04803381 -0.08236013 0.00000269
-0.13749529 0.14345242 -0.00000504
-0.07815281 -0.41721222 0.00000144
-0.42720538 -0.19339180 0.00000211
-0.27412283 0.36294815 0.00000337
-0.38949770 -0.68690902 0.00000042
-0.17096084 0.17565271 -0.00000340
-0.09834700 -0.75663817 0.00000016
-0.40464047 -0.20256349 0.00000224
-0.11081618 0.63646573 0.00000493
-0.27270043 0.15334462 0.00000352
-0.17977282 -0.07631475 0.00000271
-0.07766896 0.11376411 -0.00000733
-0.00277350 0.00140974 -0.00001189
-0.09164130 -0.43231380 0.00000138
-0.02433704 0.03491372 -0.00001055
-0.47593135 -0.59646332 0.00000076
-0.67161822 -0.56396049 -0.00000025
-0.53532022 -0.67862809 0.00000046
-0.69939673 -0.78071082 -0.00000005
-0.76147795 -0.18898080 -0.00000146
-0.37419969 -0.60898691 0.00000072
-0.01409332 0.30658808 -0.00000472
-0.27213001 -0.46801329 0.00000124
-0.28927630 -0.29671955 0.00000189
-0.55131221 -0.25483584 0.00000082
-0.46649840 -0.16581297 0.00000167
-0.33234614 -0.39774427 0.00000151
-0.03220265 -0.61581373 0.00000074
-0.28024662 -0.41324380 0.00000145
-0.31805179 0.33463225 0.00000292
-0.05900391 0.73944014 0.00000542
-0.00660468 -0.70129740 0.00000038
-0.04020182 -0.61804467 0.00000068
-0.43307599 0.33671656 0.00000169
-0.02298826 0.08042121 -0.00000957
-0.43760559 -0.17041272 0.00000198
-0.63626397 0.04158745 -0.00000028
-0.03505500 -0.51907372 0.00000111
-0.54548532 -0.14676900 0.00000081
-0.22945201 0.56935096 0.00000372
-0.16060841 -0.13200246 0.00000250
-0.41795453 -0.58030260 0.00000082
-0.02801983 -0.32452002 0.00000183
-0.12870547 0.00164797 -0.00000847
-0.32865697 0.16946743 0.00000292
-0.55388886 -0.18101066 0.00000075
-0.62793320 -0.35399494 0.00000007
-0.78897649 -0.26560608 -0.00000134
-0.42332271 -0.01207629 0.00000203
-0.24739368 -0.59600258 0.00000076
-0.26819623 0.36290091 0.00000343
-0.02112035 -0.21123827 0.00000224
-0.20244250 -0.20903762 0.00000222
-0.39910114 0.36172983 0.00000204
-0.55653471 -0.78135169 0.00000007
-0.05837104 0.19141077 -0.00000611
-0.48289436 -0.65737349 0.00000053
-0.20284708 -0.73573405 0.00000024
-0.72280139 -0.28680706 -0.00000098
-0.16738543 0.51868558 0.00000440
-0.76431918 -0.68662232 -0.00000028
-0.63556451 -0.07922570 -0.00000019
-0.23755604 -0.10799411 0.00000260
-0.35836369 0.42696625 0.00000243
-0.68289787 -0.20494835 -0.00000061
-0.40732062 -0.10582388 0.00000226
-0.58968782 -0.58719063 0.00000064
-0.00730149 0.54919553 0.00000056
-0.20230484 -0.23550624 0.00000212
-0.10332444 -0.34733796 0.00000170
-0.68830276 -0.35152483 -0.00000057
-0.63606071 -0.62123698 0.00000017
-0.41213515 0.28053120 0.00000195
-0.08942047 -0.68078065 0.00000045
-0.18094051 -0.79710156 0.00000001
-0.11054334 0.50348854 0.00000233
-0.20127867 -0.11196499 0.00000258
-0.48887342 0.04720806 0.00000129
-0.06306119 -0.28523415 0.00000193
-0.05804565 0.42375585 -0.00000089
-0.77095783 -0.04435092 -0.00000166
-0.01881858 -0.70024049 0.00000037
-0.14789852 0.42308721 0.00000154
-0.70240605 -0.78663439 -0.00000003
-0.68335032 -0.40422830 -0.00000048
-0.00669588 0.56779969 0.00000096
-0.38378277 -0.62260371 0.00000067
-0.06384715 -0.05415272 0.00000280
-0.50380480 -0.33102632 0.00000138
-0.28233406 0.47373715 0.00000321
-0.67201054 -0.00060707 -0.00000063
-0.50796270 -0.13720217 0.00000121
-0.01257564 -0.63056183 0.00000065
-0.65495110 -0.11166718 -0.00000038
-0.55077225 0.11871862 0.00000058
-0.75123078 -0.76473272 -0.00000009
-0.50959027 -0.52027249 0.00000105
-0.23413424 -0.02065160 0.00000292
-0.56454921 -0.29020384 0.00000071
-0.15309520 -0.44579810 0.00000133
-0.45048285 -0.23999783 0.00000189
-0.06278679 -0.13273016 0.00000250
-0.08687304 -0.25824755 0.00000203
-0.06025864 0.12087246 -0.00000764
-0.46342018 -0.62113798 0.00000067
-0.79594183 -0.21508650 -0.00000146
-0.31409460 -0.09950874 0.00000263
-0.76973271 -0.44571313 -0.00000089
-0.16611464 -0.52027380 0.00000105
-0.60491049 -0.38943174 0.00000034
-0.30387765 -0.00051811 0.00000300
-0.27618521 0.46832213 0.00000328
-0.32074216 0.09535153 0.00000305
-0.28095931 -0.08055967 0.00000270
-0.20817162 0.58930904 0.00000392
-0.06349941 -0.47042558 0.00000124
-0.42405403 -0.23747641 0.00000211
-0.31428674 0.19348972 0.00000305
-0.07349504 0.20942099 -0.00000529
-0.15075503 0.41191274 0.00000136
-0.54208559 -0.22767244 0.00000090
-0.16707365 -0.31302691 0.00000183
-0.06740224 -0.51228893 0.00000108
-0.06111503 -0.63088268 0.00000063
-0.01864664 -0.01023093 0.00000299
-0.70631272 -0.53536862 -0.00000064
-0.19777206 -0.31023344 0.00000184
-0.76855475 -0.10853371 -0.00000159
-0.13779294 0.56650466 0.00000469
-0.37189782 -0.50673789 0.00000110
-0.25903711 -0.51135290 0.00000108
-0.04756869 0.13129948 -0.00000775
-0.77443367 0.01472377 -0.00000174
-0.12705849 -0.68625075 0.00000043
-0.25257164 -0.64097077 0.00000060
-0.28995189 -0.04750891 0.00000282
-0.33602121 0.01866939 0.00000294
-0.24830818 0.04474246 -0.00000425
-0.32221457 0.10640733 0.00000303
-0.18038166 0.40544641 0.00000434
-0.36042672 0.12520996 0.00000261
-0.42921889 -0.72254753 0.00000029
-0.48214966 -0.35084823 0.00000163
-0.03968693 -0.21586674 0.00000225
-0.22793011 -0.74316210 0.00000021
-0.21762973 -0.08014353 0.00000270
-0.30074736 0.46824303 0.00000301
-0.39954376 -0.79749823 0.00000001
-0.48142976 0.11138236 0.00000132
-0.04293231 -0.57078272 0.00000092
-0.17752618 0.04732362 -0.00000611
-0.28702283 0.25845286 0.00000330
-0.07093120 -0.35359177 0.00000167
-0.57571864 0.08045755 0.00000034
-0.31409341 -0.72069985 0.00000030
-0.16843945 0.62979829 0.00000433
-0.15595713 0.47278106 0.00000456
-0.18836229 0.33461210 0.00000064
-0.13327786 0.27608204 -0.00000217
-0.22735846 -0.51648295 0.00000106
-0.61558652 -0.55851728 0.00000034
-0.60690933 -0.78524095 0.00000006
-0.39422619 -0.14142504 0.00000242
-0.54085970 0.15462729 0.00000066
-0.29354969 0.32573670 0.00000319
-0.14331798 -0.54281664 0.00000096
-0.36153492 0.33643886 0.00000245
-0.12390420 0.17373998 -0.00000473
-0.31524149 0.43163264 0.00000288
-0.02129718 -0.17268297 0.00000238
-0.49791306 0.28678975 0.00000103
-0.77426249 -0.74031669 -0.00000015
-0.52762884 -0.65136546 0.00000056
-0.00036192 -0.65572184 0.00000054
-0.25355354 0.20193683 0.00000370
-0.74994600 -0.79008931 -0.00000002
-0.45480427 -0.33850524 0.00000173
-0.60149926 -0.58209920 0.00000051
-0.69472855 -0.39561111 -0.00000061
-0.50137615 0.19246295 0.00000106
-0.66795480 -0.21909350 -0.00000044
-0.38274238 0.31183478 0.00000224
-0.19055592 0.54492861 0.00000414
-0.21560583 0.38506722 0.00000398
-0.04042635 0.74287778 0.00000561
-0.73660421 0.01471275 -0.00000133
-0.01366343 -0.03707544 0.00000288
-0.13518818 -0.53899604 0.00000098
-0.48505524 -0.32938579 0.00000158
-0.00562600 -0.62717909 0.00000066
-0.42090246 0.35353622 0.00000181
-0.02443340 -0.67991698 0.00000049
-0.09568639 0.47607255 0.00000131
-0.72250891 -0.21573742 -0.00000103
-0.44501767 0.30062151 0.00000159
-0.05074189 0.65838164 0.00000419
-0.38688093 0.29412714 0.00000221
-0.63936955 -0.45676288 0.00000002
-0.54184407 0.04786938 0.00000072
-0.26038080 0.16939297 -0.00000112
-0.63490587 0.06087914 -0.00000028
-0.19707741 0.02881336 -0.00000600
-0.78581864 -0.34622306 -0.00000113
-0.37590837 -0.58514196 0.00000081
-0.03448138 -0.32327890 0.00000184
-0.03615886 -0.61392003 0.00000070
-0.41510156 0.37230992 0.00000186
-0.26062900 -0.26525950 0.00000201
-0.01268970 -0.12122229 0.00000256
-0.01364717 -0.24228802 0.00000209
-0.69318306 -0.13582867 -0.00000077
-0.03758231 0.10589001 -0.00000860
-0.09140545 0.42318824 0.00000000
-0.08278920 0.15337332 -0.00000630
-0.14782681 -0.00557388 0.00000298
-0.49690497 -0.20429915 0.00000137
-0.06861921 0.72522390 0.00000532
-0.26489019 -0.08968508 0.00000266
-0.01238340 -0.34551808 0.00000170
-0.22608510 -0.50059360 0.00000112
-0.17483909 -0.48355177 0.00000119
-0.12324258 0.20831136 -0.00000397
-0.04933078 -0.22944231 0.00000214
-0.10465615 -0.65427834 0.00000055
-0.19215079 0.21743771 -0.00000189
-0.00401283 -0.07076517 0.00000273
-0.43491617 -0.45800942 0.00000128
-0.54725796 0.01444779 0.00000069
-0.31971481 0.08791670 0.00000307
-0.04236025 -0.58928806 0.00000085
-0.48449910 -0.55376273 0.00000092
-0.21290097 -0.64425790 0.00000058
-0.27393067 -0.00113704 0.00000300
-0.14826477 -0.22119269 0.00000217
-0.65672350 -0.17690305 -0.00000035
-0.15067598 0.41712892 0.00000148
-0.28132823 -0.63173819 0.00000063
-0.14159651 0.10742249 -0.00000574
-0.48501122 0.20615900 0.00000122
-0.70812166 -0.42339027 -0.00000074
-0.19047932 -0.79428494 0.00000002
-0.09889876 -0.40421596 0.00000148
-0.44852772 -0.18277390 0.00000187
-0.50260246 0.11007179 0.00000110
-0.03583857 -0.22675841 0.00000220
-0.07387642 -0.19754267 0.00000226
-0.73151654 -0.42244768 -0.00000094
-0.69734955 -0.16677058 -0.00000079
-0.13470376 0.58336979 0.00000471
-0.20468526 -0.36789644 0.00000162
-0.71485019 -0.19782905 -0.00000096
-0.58298659 -0.48133215 0.00000064
-0.67319560 -0.66962564 -0.00000020
-0.44748923 -0.38698202 0.00000155
-0.34884986 0.34490469 0.00000258
-0.05711212 0.20443723 -0.00000585
-0.53052920 0.02783412 0.00000086
-0.20630559 0.16119179 -0.00000277
-0.04962717 -0.08648809 0.00000275
-0.06227811 -0.44346887 0.00000134
-0.20498203 -0.69334549 0.00000040
-0.26077989 -0.34575790 0.00000170
-0.33331957 -0.26392728 0.00000201
-0.47384688 -0.13419738 0.00000157
-0.51793587 0.13328761 0.00000092
-0.56336057 0.23466130 0.00000038
-0.50065160 -0.28286797 0.00000138
-0.64001364 -0.65195686 0.00000014
-0.18395430 -0.30594021 0.00000185
-0.16228727 -0.31158265 0.00000183
-0.67274958 0.08781682 -0.00000070
-0.01138624 0.77163059 0.00000567
-0.00290916 0.31224978 -0.00000490
-0.08580666 -0.42328513 0.00000141
-0.16789767 0.15856664 -0.00000387
-0.59338552 -0.07537438 0.00000025
-0.02274625 -0.05762803 0.00000278
-0.30444530 0.31672725 0.00000308
-0.30569690 0.27113235 0.00000309
-0.03188983 0.68718112 0.00000433
-0.35754386 -0.66578412 0.00000050
-0.71866369 -0.58683050 -0.00000053
-0.21970393 -0.38688925 0.00000155
-0.63138008 -0.64181924 0.00000023
-0.60964340 -0.52624512 0.00000038
-0.03074409 -0.14903921 0.00000244
-0.03834395 -0.75552332 0.00000017
-0.57366586 -0.08087091 0.00000047
-0.40885192 -0.75966388 0.00000015
-0.43565843 -0.74703062 0.00000020
-0.15407275 -0.72889990 0.00000027
-0.55200994 -0.29542482 0.00000084
-0.76414609 -0.55754113 -0.00000061
-0.71981192 -0.13559680 -0.00000105
-0.49864244 -0.09254844 0.00000128
-0.71125400 -0.73078406 -0.00000017
-0.14615695 -0.12451478 0.00000253
-0.04791101 0.16319776 -0.00000703
-0.38520032 0.18827951 0.00000230
-0.58693159 -0.30095881 0.00000047
-0.33872825 -0.38809824 0.00000154
-0.46494305 0.06202034 0.00000153
-0.20685780 -0.43148151 0.00000138
-0.58433646 -0.53834379 0.00000066
-0.30524951 -0.52198297 0.00000104
-0.04470223 -0.40230393 0.00000156
-0.23717068 -0.41315815 0.00000145
-0.39915273 -0.78366810 0.00000006
-0.34898862 0.30894408 0.00000261
-0.36968008 -0.03582202 0.00000262
-0.54664749 -0.08305576 0.00000076
-0.58947527 -0.27278864 0.00000043
-0.60758293 -0.22849026 0.00000021
-0.05520381 -0.18211633 0.00000240
-0.36702067 0.04161226 0.00000259
-0.67977816 -0.72269380 -0.00000019
-0.53109562 -0.27474621 0.00000105
-0.33300963 -0.27803814 0.00000196
-0.05861025 -0.61928731 0.00000077
-0.08129924 0.12013981 -0.00000709
-0.49037188 0.01533911 0.00000129
-0.49942443 0.00998165 0.00000120
-0.58536410 -0.44350335 0.00000059
-0.01097030 -0.72759771 0.00000027
-0.18215211 -0.50694162 0.00000110
-0.23408844 0.12806661 -0.00000276
-0.09864706 -0.00297809 0.00000299
-0.33472636 -0.77372700 0.00000010
-0.34524775 0.10514294 0.00000278
-0.45387360 -0.53360307 0.00000100
-0.62713397 -0.24053380 0.00000001
-0.06995407 -0.71261877 0.00000033
-0.35387179 0.35690024 0.00000252
-0.35959294 0.05202100 0.00000266
-0.37288815 -0.79404879 0.00000002
-0.05077465 -0.35403487 0.00000175
-0.54104185 -0.41284716 0.00000104
-0.42422566 -0.55811530 0.00000091
-0.01833299 -0.57877856 0.00000086
-0.26887387 -0.58229274 0.00000082
-0.19331330 0.03538154 -0.00000595
-0.07798178 -0.04104084 0.00000285
-0.41188326 0.37471077 0.00000189
-0.63161033 -0.47908053 0.00000012
-0.53923100 0.20887338 0.00000064
-0.08223621 -0.14667961 0.00000245
-0.45958483 -0.21550627 0.00000178
-0.17655867 -0.08592681 0.00000268
-0.52487016 -0.22908853 0.00000109
-0.59597415 -0.29219601 0.00000037
-0.00436199 -0.49453795 0.00000115
-0.46363705 -0.14299844 0.00000168
-0.62660718 -0.43514848 0.00000014
-0.34049734 -0.04301808 0.00000284
-0.13638683 -0.50716978 0.00000110
-0.31890404 -0.41750127 0.00000143
-0.28544971 -0.03983724 0.00000285
-0.31470850 -0.02687428 0.00000290
-0.13196933 -0.20297921 0.00000224
-0.10900899 0.25403181 -0.00000332
-0.13958143 0.16112746 -0.00000458
-0.51553750 -0.77576196 0.00000009
-0.04092514 -0.09553744 0.00000270
-0.06251837 0.40380535 -0.00000122
-0.65183264 -0.64494395 0.00000001
-0.70015115 -0.43548736 -0.00000064
-0.40940848 0.11768171 0.00000209
-0.17625584 -0.34538680 0.00000170
-0.15862399 0.41236413 0.00000159
-0.15991870 -0.59964287 0.00000075
-0.63860965 -0.20824184 -0.00000014
-0.57548201 0.06675776 0.00000035
-0.40175015 -0.54639208 0.00000095
-0.16242982 0.34136328 0.00000009
-0.53168184 0.04255385 0.00000083
-0.14318569 -0.35584870 0.00000167
-0.38374674 0.11988334 0.00000236
-0.38345110 -0.09659922 0.00000251
-0.33786529 -0.26631469 0.00000200
-0.50798583 -0.71330833 0.00000033
-0.37016308 -0.34695312 0.00000170
-0.09657138 0.29451469 -0.00000275
-0.78562510 -0.61520106 -0.00000046
-0.60588282 -0.35918993 0.00000031
-0.04100464 -0.46559548 0.00000125
-0.20822027 -0.27807426 0.00000196
-0.64135921 -0.23278822 -0.00000015
-0.03525013 -0.31765467 0.00000186
-0.73693621 -0.22533359 -0.00000118
-0.20005275 -0.36631578 0.00000163
-0.29278696 -0.72952729 0.00000026
-0.29032210 0.35509378 0.00000320
-0.31875804 0.11054149 0.00000306
-0.02493219 -0.73001391 0.00000026
-0.14290436 0.59687847 0.00000461
-0.24424180 -0.75261182 0.00000018
-0.17736574 0.07364448 -0.00000553
-0.13786434 0.44295317 0.00000171
-0.61815000 -0.34166086 0.00000017
-0.32849416 0.46475714 0.00000278
-0.03958505 -0.10622821 0.00000266
-0.01219559 -0.62984622 0.00000064
-0.64361501 -0.16469581 -0.00000022
-0.39580220 -0.64984274 0.00000056
-0.06928763 -0.74079162 0.00000022
-0.70427161 -0.58920026 -0.00000053
-0.77412623 -0.30607861 -0.00000123
-0.27304086 0.17704315 0.00000350
-0.01634900 -0.21762986 0.00000221
-0.38494924 0.28216529 0.00000224
-0.47604865 -0.14201157 0.00000155
-0.02051268 -0.63374645 0.00000065
-0.13375171 0.39214385 0.00000046
-0.37963516 -0.61257792 0.00000070
-0.68767315 -0.76556182 -0.00000009
-0.38682124 -0.08450791 0.00000246
-0.32087830 -0.11521973 0.00000257
-0.29030314 0.23301345 0.00000328
-0.34684491 -0.31463143 0.00000182
-0.52290893 -0.73185039 0.00000026
-0.22084858 0.18494081 -0.00000184
-0.59766048 -0.75441962 0.00000017
-0.68967593 0.08413355 -0.00000088
-0.12383617 -0.00783695 0.00000297
-0.05752800 -0.03966794 0.00000294
-0.05246705 0.36596242 -0.00000234
-0.15026653 -0.75623327 0.00000016
-0.06276612 0.22383334 -0.00000526
-0.01292749 -0.06042393 0.00000279
-0.08492021 0.62452352 0.00000521
-0.22906283 -0.27193108 0.00000198
-0.00010227 0.10582657 -0.00000962
-0.73895550 -0.79019332 -0.00000002
-0.36224720 0.09741688 0.00000261
-0.02294295 -0.46765161 0.00000125
-0.58105981 -0.31106478 0.00000054
-0.78362912 -0.58691245 -0.00000053
-0.57772171 -0.63713473 0.00000061
-0.34664294 -0.65133834 0.00000056
-0.40682232 -0.03965719 0.00000222
-0.04451162 -0.35633647 0.00000166
-0.19647346 0.21083216 -0.00000192
-0.63848835 -0.48722085 0.00000005
-0.18567090 -0.41580459 0.00000144
-0.03265204 0.21467599 -0.00000628
-0.17135724 0.54361999 0.00000434
-0.45595029 -0.33738819 0.00000173
-0.44713238 0.24836417 0.00000160
-0.37926403 0.40643799 0.00000222
-0.06012105 -0.04224134 0.00000293
-0.63679975 -0.20046246 -0.00000012
-0.05091874 -0.62564224 0.00000073
-0.37396249 -0.42304644 0.00000141
-0.05568173 0.07518880 -0.00000880
-0.12401300 0.37381661 -0.00000022
-0.28923485 -0.08522863 0.00000268
-0.14139311 -0.10268030 0.00000261
-0.08835168 -0.61499316 0.00000069
-0.43168065 0.27307025 0.00000175
-0.05503688 -0.33632457 0.00000182
-0.54305512 -0.59208679 0.00000078
-0.18349195 0.13954961 -0.00000388
-0.03689728 0.54799515 0.00000133
-0.13064106 -0.28921011 0.00000192
-0.79476058 -0.13590649 -0.00000166
-0.32525939 0.32014063 0.00000285
-0.19450027 -0.65106684 0.00000056
-0.37501383 -0.76101583 0.00000015
-0.36734158 0.18065181 0.00000250
-0.56700814 -0.05024425 0.00000052
-0.55520672 0.16984396 0.00000050
-0.21167330 -0.63263899 0.00000063
-0.06682531 -0.55068928 0.00000093
-0.43882063 0.35087585 0.00000162
-0.20935370 -0.26467797 0.00000201
-0.24978209 0.48945665 0.00000354
-0.24040534 0.22932385 0.00000382
-0.22933041 -0.65721375 0.00000054
-0.18907347 -0.42920735 0.00000139
-0.29418069 0.37030748 0.00000315
-0.48960382 0.29703903 0.00000111
-0.17585666 0.11870925 -0.00000455
-0.42407224 -0.77091259 0.00000011
-0.00196308 0.02997132 -0.00001127
-0.14044081 -0.49363962 0.00000115
-0.53602004 -0.65787798 0.00000053
-0.45370531 0.05859358 0.00000166
-0.46359479 -0.23182148 0.00000174
-0.08537826 0.59060365 0.00000361
-0.28965160 0.27184075 0.00000326
-0.24847358 -0.01809286 0.00000293
-0.08591292 -0.30209872 0.00000187
-0.27167681 -0.44567350 0.00000133
-0.48206604 -0.36443806 0.00000163
-0.12048966 -0.03413915 0.00000287
-0.57086766 -0.43055645 0.00000073
-0.11106086 -0.53255260 0.00000100
-0.60820717 -0.12105039 0.00000013
-0.38729292 -0.16240989 0.00000239
-0.79301775 -0.30539525 -0.00000124
-0.20462085 0.05309313 -0.00000525
-0.20570017 -0.20249937 0.00000224
-0.13046435 -0.50030732 0.00000112
-0.75229049 -0.24652243 -0.00000133
-0.06424761 -0.14232205 0.00000247
-0.62595463 0.12686612 -0.00000023
-0.48018852 -0.42618880 0.00000140
-0.51209080 0.04220320 0.00000104
-0.66766065 -0.24322464 -0.00000043
-0.70129800 -0.11897888 -0.00000087
-0.01943633 -0.01782075 0.00000293
-0.36622730 -0.61229789 0.00000070
-0.10663867 0.19468342 -0.00000472
-0.40048784 -0.67637801 0.00000046
-0.10244870 0.14402062 -0.00000598
-0.09635031 -0.41115975 0.00000146
-0.10499632 -0.41763026 0.00000143
-0.17722449 -0.46712679 0.00000125
-0.37279341 -0.66469818 0.00000051
-0.11704404 0.34053877 -0.00000116
-0.00959239 -0.51465893 0.00000107
-0.24156678 -0.67462510 0.00000047
-0.13237061 -0.17054331 0.00000236
-0.17898473 -0.31543291 0.00000182
-0.18075556 0.00454756 -0.00000699
-0.25504693 0.25586280 0.00000364
-0.17997725 0.34949440 0.00000075
-0.45960575 0.32905263 0.00000141
-0.09773849 -0.62110931 0.00000067
-0.02160339 0.13782763 -0.00000831
-0.42842475 -0.69994968 0.00000038
-0.11609594 0.65134609 0.00000486
-0.25881040 0.12853657 -0.00000208
-0.10021563 -0.30853301 0.00000184
-0.69926924 -0.07699596 -0.00000087
-0.35223410 -0.09990498 0.00000263
-0.16421635 -0.64701110 0.00000057
-0.28701898 -0.57054031 0.00000086
-0.30130032 0.36073610 0.00000308
-0.46913534 0.26070157 0.00000136
-0.76873934 0.02851170 -0.00000169
-0.01408630 -0.46425635 0.00000126
-0.13732237 -0.03377536 0.00000287
-0.07008409 0.67462909 0.00000534
-0.20660055 -0.37193114 0.00000161
-0.32827154 0.22238415 0.00000288
-0.58344817 -0.15437536 0.00000041
-0.62923235 -0.09158798 -0.00000012
-0.25910756 0.24987419 0.00000360
-0.29784775 -0.10977352 0.00000259
-0.20541143 -0.25145453 0.00000206
-0.04240224 0.63413489 0.00000342
-0.01921044 -0.25985897 0.00000205
-0.10192988 -0.30869970 0.00000184
-0.61531484 -0.11210745 0.00000005
-0.47939241 0.15889415 0.00000131
-0.66692644 -0.77250260 -0.00000006
-0.51761287 -0.29246151 0.00000121
-0.73705661 -0.25112399 -0.00000116
-0.29079717 -0.25347114 0.00000205
-0.13394383 -0.66182888 0.00000052
-0.78785449 -0.25765687 -0.00000136
-0.00460311 -0.05330243 0.00000280
-0.52122527 0.23770438 0.00000082
-0.41710144 0.16140796 0.00000198
-0.72510165 -0.21414824 -0.00000106
-0.31119129 -0.28221866 0.00000194
-0.42829570 -0.79458857 0.00000002
-0.52156192 -0.47955662 0.00000120
-0.79413772 -0.24955070 -0.00000138
-0.14195754 -0.38419902 0.00000156
-0.69916898 -0.05568077 -0.00000089
-0.62539846 -0.09026119 -0.00000008
-0.40121683 -0.16601758 0.00000237
-0.43135184 -0.64631879 0.00000058
-0.74669385 -0.03404978 -0.00000141
-0.03727714 -0.74273282 0.00000027
-0.40717435 -0.17023914 0.00000231
-0.59715527 -0.32283521 0.00000038
-0.29475525 -0.09777457 0.00000263
-0.07668210 0.37672061 -0.00000144
-0.55102891 -0.38234165 0.00000091
-0.22891724 -0.69091845 0.00000041
-0.13148104 -0.27527457 0.00000197
-0.11210643 0.21181536 -0.00000419
-0.00480558 0.39626843 -0.00000295
-0.27372208 -0.54446417 0.00000096
-0.14905015 0.64759701 0.00000451
-0.61742634 -0.23138630 0.00000010
-0.34616870 0.07334946 0.00000279
-0.75304615 -0.61975867 -0.00000045
-0.08589205 0.62154561 0.00000520
-0.10321321 0.47023225 0.00000138
-0.45212558 0.26159203 0.00000154
-0.27759618 0.09873187 -0.00000224
-0.27207369 0.03510444 -0.00000382
-0.25634295 0.09937776 -0.00000280
-0.05848920 -0.21175040 0.00000229
-0.21270218 -0.03305504 0.00000288
-0.39078182 -0.21127509 0.00000221
-0.71226823 -0.07511589 -0.00000101
-0.64911538 -0.00914154 -0.00000038
-0.19021510 0.45076072 0.00000420
-0.26403427 0.40625128 0.00000345
-0.01187954 -0.40234512 0.00000151
-0.06263635 -0.22407208 0.00000216
-0.46734747 0.32177344 0.00000143
-0.30592483 0.35867113 0.00000303
-0.20137028 -0.07335002 0.00000272
-0.21637581 0.58146310 0.00000384
-0.61372703 -0.29246247 0.00000018
-0.25261074 -0.12071754 0.00000255
-0.41195020 -0.22094896 0.00000217
-0.59690380 -0.57087207 0.00000055
-0.57137442 -0.75055885 0.00000019
-0.69484192 -0.71859074 -0.00000020
-0.20650104 -0.09678086 0.00000264
-0.30545619 -0.52152282 0.00000104
-0.09774705 0.66150784 0.00000505
-0.06931954 -0.07822464 0.00000271
-0.12195485 0.01936806 -0.00000825
-0.23696774 -0.66514713 0.00000051
-0.29024005 0.39381427 0.00000318
-0.01337781 0.10182288 -0.00000935
-0.09511599 -0.25642180 0.00000204
-0.08954888 0.13990971 -0.00000642
-0.54689014 -0.03681400 0.00000073
-0.76469129 -0.28472430 -0.00000129
-0.24201035 -0.13113306 0.00000251
-0.29726142 -0.47492552 0.00000122
-0.04337139 -0.37198004 0.00000161
-0.76249886 -0.27027047 -0.00000132
-0.11993829 0.29589474 -0.00000208
-0.12274677 -0.30085340 0.00000187
-0.72277313 -0.10785781 -0.00000110
-0.29724818 -0.69937634 0.00000038
-0.54240489 -0.45823738 0.00000106
-0.57929015 -0.58362913 0.00000075
-0.02754700 -0.69163489 0.00000041
-0.54514366 0.14762160 0.00000062
-0.45993009 0.01665582 0.00000162
-0.52424830 -0.18275484 0.00000106
-0.10194801 0.35345680 -0.00000128
-0.04853114 -0.36975104 0.00000169
-0.02910928 -0.22543533 0.00000220
-0.04915666 -0.09246964 0.00000265
-0.31828099 -0.68629748 0.00000043
-0.12472847 -0.71155530 0.00000033
-0.04834971 -0.00525656 0.00000298
-0.38857046 -0.77522254 0.00000009
-0.62881428 -0.64157104 0.00000026
-0.15799040 -0.42918438 0.00000139
-0.06578969 -0.60604870 0.00000073
-0.76824868 -0.38199621 -0.00000105
-0.67266268 -0.65330809 -0.00000020
-0.33875769 -0.76329362 0.00000014
-0.25580546 -0.08547093 0.00000268
-0.00571635 0.28583017 -0.00000541
-0.47397053 -0.52039468 0.00000105
-0.13261338 0.57008153 0.00000474
-0.49482656 -0.24214372 0.00000142
-0.15709835 0.55166489 0.00000449
-0.28793362 0.17264806 0.00000335
-0.21204208 0.57379109 0.00000389
-0.64996833 -0.22670580 -0.00000025
-0.72625339 -0.69388139 -0.00000027
-0.41685790 -0.23832335 0.00000211
-0.01766672 -0.59449768 0.00000077
-0.35211471 -0.15188827 0.00000243
-0.45717785 -0.18551254 0.00000178
-0.16144545 0.03406288 -0.00000685
-0.66055852 -0.47088441 -0.00000020
-0.78461581 -0.18222551 -0.00000154
-0.20702158 -0.11261990 0.00000258
-0.56715071 -0.14834219 0.00000058
-0.02242384 -0.04560904 0.00000286
-0.42470855 0.11892547 0.00000192
-0.07933526 -0.62681180 0.00000065
-0.45019776 -0.44110960 0.00000135
-0.20685782 0.28510764 0.00000003
-0.33282837 -0.21402532 0.00000220
-0.51856524 0.18278611 0.00000088
-0.02248123 0.41034353 -0.00000216
-0.04669340 -0.40081173 0.00000150
-0.11005897 -0.27165887 0.00000198
-0.40986213 -0.46404263 0.00000126
-0.03399075 -0.36433989 0.00000163
-0.31154579 -0.62415159 0.00000066
-0.34584773 0.45388985 0.00000254
-0.43856138 -0.40032506 0.00000150
-0.32115126 -0.63787156 0.00000061
-0.65522408 -0.78047115 0.00000007
-0.47942415 -0.26192534 0.00000160
-0.03822917 -0.72866935 0.00000027
-0.24443132 -0.09562345 0.00000264
-0.07453026 -0.33304736 0.00000175
-0.10987954 -0.07476364 0.00000272
-0.52102119 -0.52107686 0.00000105
-0.78502887 -0.61009699 -0.00000047
-0.66403359 -0.62901878 -0.00000013
-0.09645262 -0.71631962 0.00000031
-0.17160468 0.61987358 0.00000436
-0.10196025 -0.40304908 0.00000149
-0.15089688 -0.60647148 0.00000073
-0.57438868 0.10689920 0.00000034
-0.34872359 -0.79678839 0.00000001
-0.74672264 -0.10289639 -0.00000136
-0.15238056 -0.51085418 0.00000108
-0.28142545 0.10959347 -0.00000189
-0.29828319 -0.67922837 0.00000045
-0.70110273 -0.34088773 -0.00000072
-0.60981393 -0.66852945 0.00000048
-0.15777794 0.44624764 0.00000455
-0.63806224 -0.53817260 0.00000009
-0.78950071 -0.14407565 -0.00000164
-0.14957210 -0.74723703 0.00000020
-0.53480506 0.26257434 0.00000065
-0.43279266 -0.79740661 0.00000001
-0.58161002 -0.21649338 0.00000048
-0.73030663 -0.30358997 -0.00000105
-0.58306396 -0.00270714 0.00000032
-0.40732005 0.07438866 0.00000214
-0.77500832 -0.75615466 -0.00000011
-0.19639330 -0.22182107 0.00000217
-0.02248054 0.02010707 -0.00001094
-0.60918117 -0.61241722 0.00000045
-0.78161728 -0.21409883 -0.00000146
-0.05773958 0.32448000 -0.00000313
-0.12353253 -0.46711358 0.00000125
-0.76385182 -0.77452707 -0.00000006
-0.09309515 -0.47025803 0.00000124
-0.53723341 -0.00203721 0.00000080
-0.28014082 0.22142676 0.00000340
-0.02113846 -0.09667100 0.00000264
-0.19877812 -0.55913067 0.00000090
-0.53697252 -0.29919890 0.00000101
-0.12382068 0.37210068 -0.00000026
-0.76110214 -0.43771690 -0.00000091
-0.59974796 -0.02823709 0.00000016
-0.16414462 -0.15852664 0.00000241
-0.04473995 -0.09104501 0.00000273
-0.15590219 0.59413946 0.00000447
-0.66136801 -0.17312482 -0.00000040
-0.03905984 -0.11687653 0.00000256
-0.42320350 0.09143062 0.00000196
-0.06926367 0.60390216 0.00000347
