ply
format ascii 1.0
element vertex 1319
property float x
property float y
property float z
end_header
-0.34232336 -0.02645521 0.27294987
-0.36652261 0.15617827 -0.12931217
-0.33712918 -0.36942917 -0.00000096
-0.38777268 0.13027877 -0.14294079
-0.36977756 -0.09272894 0.02614358
-0.36975104 -0.09266855 0.11098498
-0.62263077 -0.70317465 0.07624577
-0.53424782 -0.41647634 -0.03932266
-0.50151187 -0.69329363 -0.00000276
-0.25317499 0.18876626 0.26042265
-0.13645433 -0.41942409 0.00000013
-0.46347255 -0.18106306 -0.07395371
-0.36289507 -0.07612848 0.39139634
-0.36511210 -0.08146664 0.05392067
-0.29793483 -0.57792920 -0.00000124
-0.73640043 -0.74229527 -0.12635282
-0.28684345 0.10749720 0.10115053
-0.16972373 -0.23644301 0.00000038
-0.25011727 0.19615452 0.18069053
-0.43511155 -0.25046533 0.15753146
-0.26086196 -0.41234821 -0.00000061
-0.36759591 -0.08746671 0.13799798
-0.33600712 -0.58379912 -0.00000149
-0.07573254 0.05008550 -0.00000871
-0.12794115 -0.01632393 0.00000119
-0.30825537 0.05579614 0.21045317
-0.13588186 0.47194967 0.05500352
-0.17838161 -0.67850310 -0.00000077
-0.44467008 -0.27354947 0.33986229
-0.33702439 0.05751575 -0.03816915
-0.03278429 0.20213483 -0.00000697
-0.47055110 0.01615732 -0.18893126
-0.10053658 0.07886679 -0.00000739
-0.09396908 0.05018985 -0.00000816
-0.47664395 -0.07518102 -0.14782088
-0.19969860 -0.62729341 -0.00000077
-0.05908559 -0.75902843 -0.00000025
-0.29724213 0.08238759 0.16711240
-0.25459334 -0.09283941 0.00000023
-0.15449764 0.00887955 -0.00000716
-0.30537388 0.06276585 0.04483853
-0.29524446 -0.51323438 -0.00000107
-0.16935709 0.39113015 0.10718169
-0.25508708 0.18415482 0.20171940
-0.06338815 -0.14188983 0.00000126
-0.25060070 0.19499393 0.09915436
-0.53708464 -0.73247123 -0.00000307
-0.32047996 -0.37128720 -0.00000086
-0.41643038 -0.20536214 0.09410173
-0.31337941 -0.13498369 -0.00000023
-0.45237440 -0.29214758 0.29709736
-0.37659046 -0.10918953 0.36466849
-0.39602882 -0.15610839 0.09781961
-0.20497599 0.48845226 -0.09834103
-0.04615306 0.39437240 -0.00000272
-0.59658760 -0.61722267 -0.01236487
-0.41874826 -0.21095809 0.09674411
-0.02026780 -0.00708048 0.00000186
-0.03634234 -0.14675109 0.00000141
-0.59648079 -0.25091022 -0.20875762
-0.37740827 -0.11115686 0.15931739
-0.20598467 0.04465545 -0.00000489
-0.28403321 0.11428762 0.02646280
-0.21235351 0.10856844 -0.00000342
-0.00791377 -0.56589997 0.00000054
-0.05845183 0.38221711 -0.00000259
-0.38560286 -0.13094746 0.32512093
-0.37848586 0.09954127 -0.11442044
-0.00190891 0.61163914 0.00000029
-0.38880432 -0.13867410 0.27001801
-0.15010507 -0.42443165 0.00000003
-0.06040626 0.32724556 -0.00000363
-0.49365225 -0.39179984 0.25693572
-0.67864573 -0.49118346 -0.18627137
-0.52618343 -0.47032708 0.01481048
-0.43251118 0.13150400 -0.20154624
-0.06854725 0.46758258 -0.00000058
-0.55313808 -0.21947148 -0.16948561
-0.37311465 0.15946381 -0.13961336
-0.58489019 -0.61206144 0.09081413
-0.52398008 -0.46500814 0.02667938
-0.21128583 -0.65363383 -0.00000091
-0.11607634 -0.00115818 0.00000130
-0.40752950 -0.18386982 0.00888176
-0.17219616 -0.36626187 0.00000005
-0.28419247 -0.22479294 -0.00000028
-0.57487446 -0.67013091 -0.00000315
-0.27941784 0.12543188 0.00241630
-0.38062868 -0.11893785 0.30637586
-0.32499129 -0.21849494 -0.00000051
-0.10603786 -0.39622641 0.00000037
-0.09203838 0.57779777 0.03012519
-0.03787190 -0.22347255 0.00000121
-0.17858329 -0.01417871 0.00000089
-0.66647607 -0.57022607 -0.12810147
-0.52719557 -0.41015336 -0.03358066
-0.43796384 -0.25735736 0.29825121
-0.21958904 0.26986551 0.05206326
-0.20568317 -0.17984845 0.00000031
-0.28270313 -0.64993286 -0.00000133
-0.38947773 -0.73583955 -0.00000219
-0.27283329 -0.04834071 0.00000023
-0.47063804 -0.24682190 -0.04795433
-0.35854790 -0.38860226 -0.00000114
-0.42154843 -0.21772763 0.31638843
-0.40380725 -0.17488888 0.13738722
-0.48310086 -0.31069610 -0.02982742
-0.38051555 -0.11865533 0.08403476
-0.59663254 -0.42880362 -0.11351220
-0.22618134 -0.67162067 -0.00000104
-0.43391773 0.03885375 -0.15365870
-0.25444579 0.22745954 -0.02238770
-0.11840036 -0.13613953 0.00000095
-0.01234784 0.09107153 -0.00000981
-0.55029917 -0.31746614 -0.11323321
-0.56351024 -0.56044865 0.20319661
-0.20500918 0.47723278 -0.09236447
-0.59248489 -0.55053174 -0.04283136
-0.21590535 0.32491034 -0.02475274
-0.43733698 -0.25583348 0.05071470
-0.08853508 -0.45719895 0.00000032
-0.43472293 -0.24953225 0.27796957
-0.46301168 -0.31782168 0.13959853
-0.32420057 0.01730566 0.15870611
-0.12109862 0.50763679 0.08362151
-0.19165383 -0.43682393 -0.00000025
-0.28981948 0.28521150 -0.09919137
-0.43040347 -0.37611929 -0.00000154
-0.28148720 0.18403634 -0.03411567
-0.28281862 0.11720158 0.25412202
-0.10416108 0.30532274 -0.00000275
-0.30867955 -0.14132176 -0.00000022
-0.43916386 -0.16284044 -0.05224476
-0.55972689 -0.55131507 0.22371788
-0.29438317 -0.75789630 -0.00000167
-0.04249492 0.53635728 0.00000001
-0.10753279 -0.15267868 0.00000097
-0.62563109 -0.71041793 0.11098426
-0.09838660 -0.51134706 0.00000013
-0.28036737 -0.44796431 -0.00000081
-0.11139167 0.04812038 -0.00000768
-0.15765055 0.41940033 0.00162208
-0.14536916 -0.44832635 0.00000000
-0.49184686 -0.73319596 -0.00000280
-0.45181149 -0.29077765 0.03753214
-0.63627213 -0.73610556 0.00945760
-0.44017816 -0.13816050 -0.06679962
-0.06711274 0.18302195 -0.00000631
-0.16846371 -0.16358899 0.00000057
-0.58157885 -0.60406828 0.11675286
-0.04753308 0.54014015 0.00000024
-0.19771664 -0.36207718 -0.00000010
-0.10594898 0.22852692 -0.00000423
-0.13603331 0.23794580 -0.00000314
-0.01019607 0.30810434 -0.00000553
-0.43549794 -0.64775431 -0.00000225
-0.35376874 -0.05408202 0.07255046
-0.36685729 -0.08568693 0.21848555
-0.31736639 -0.15607475 -0.00000031
-0.17291509 -0.59050840 -0.00000052
-0.15117155 0.43565917 -0.00032528
-0.19860920 0.05159264 -0.00000497
-0.07064523 -0.58841836 0.00000010
-0.01394957 -0.02780856 0.00000185
-0.01349552 0.15870278 -0.00000842
-0.72337037 -0.70043957 -0.13193192
-0.00579563 -0.74031079 0.00000011
-0.47298491 -0.34190664 0.34123260
-0.16885626 0.39233962 0.10256533
-0.53670931 -0.46250889 -0.01781387
-0.27860847 0.12737729 0.10917967
-0.39581457 -0.15560444 0.41963255
-0.43333268 -0.24616538 0.03148804
-0.47930023 -0.35714433 0.10340929
-0.07502962 -0.55677104 0.00000016
-0.46243164 -0.25493082 -0.03297453
-0.35364434 0.19210383 -0.13190648
-0.29463169 0.08869222 0.13522492
-0.58442312 -0.61093134 0.03001298
-0.53675866 -0.21784122 -0.14914498
-0.27167967 0.14409155 0.27295893
-0.33895442 -0.39575377 -0.00000104
-0.51528084 -0.44401002 0.11425078
-0.24425443 0.21032149 0.01848719
-0.60259295 -0.65479672 0.01702476
-0.33355686 -0.34186372 -0.00000087
-0.11930139 -0.58925092 -0.00000019
-0.36718172 -0.08646380 0.06852487
-0.08208603 -0.63132608 -0.00000007
-0.14479686 0.11052584 -0.00000542
-0.30580053 0.06172331 0.20102918
-0.45141789 -0.19115040 -0.05292806
-0.06360587 -0.47912443 0.00000042
-0.49688366 -0.72968835 -0.00000282
-0.44555736 -0.27568465 0.17740165
-0.47912535 -0.71757561 -0.00000269
-0.08080055 -0.17569956 0.00000107
-0.34057015 -0.67715240 -0.00000175
-0.00587098 0.38615710 -0.00000410
-0.12099558 -0.12747751 0.00000095
-0.43754625 -0.25634280 0.14705591
-0.09022955 0.58216131 0.07153217
-0.19479395 0.32972285 0.08337196
-0.32681695 0.01098094 0.26271212
-0.08909281 0.58490986 0.01820864
-0.25775450 0.17772545 0.07352967
-0.03914872 0.38542467 -0.00000311
-0.05649739 -0.71844572 -0.00000014
-0.07994842 0.16409716 -0.00000631
-0.32415727 0.01741207 0.13523619
-0.27757236 0.13044573 -0.00029212
-0.46783760 -0.32947287 0.14804003
-0.32192853 0.02279875 0.05903266
-0.16854523 -0.60312432 -0.00000053
-0.15322395 0.53019863 -0.05370666
-0.06418904 0.64503241 0.01464670
-0.15161289 0.43397537 0.01368270
-0.41510218 -0.20216231 0.25313437
-0.34234557 -0.02650380 0.06815143
-0.36748272 -0.08720174 0.36413637
-0.48091128 -0.03067723 -0.17722240
-0.20155106 -0.61841035 -0.00000076
-0.37534863 -0.50471640 -0.00000153
-0.10238801 -0.28547502 0.00000067
-0.40923846 -0.50474524 -0.00000173
-0.61045313 -0.11048276 -0.30219623
-0.09013211 0.04005448 -0.00000848
-0.20850570 0.29660884 0.22496004
-0.50053978 -0.48433852 -0.00000223
-0.47237718 -0.34042785 0.03914009
-0.52239591 -0.46118927 0.16047595
-0.04031692 -0.06355265 0.00000160
-0.09788728 0.23201437 -0.00000441
-0.27310559 -0.59101135 -0.00000113
-0.23125122 0.24170020 0.18549314
-0.50001889 -0.40716136 0.04686463
-0.07279783 -0.73369569 -0.00000027
-0.31351620 0.04311026 0.02723651
-0.36120033 -0.21668027 -0.00000072
-0.49681768 -0.39943746 0.15252551
-0.14285149 0.20545830 -0.00000358
-0.62027830 -0.69749540 0.14173160
-0.17530204 -0.04752817 0.00000082
-0.15766756 0.41935852 0.01070580
-0.18317433 -0.05729830 0.00000075
-0.28712735 -0.74804264 -0.00000160
-0.60043085 -0.39033154 -0.13907266
-0.47183719 -0.21418968 -0.06701513
-0.20904610 0.29530513 0.21424045
-0.21082094 0.29103416 0.04061181
-0.32817259 0.00770288 0.32880646
-0.34458870 -0.03191319 0.13607256
-0.01474950 0.20695272 -0.00000742
-0.39262840 -0.14790465 0.23043890
-0.10544337 0.24761251 -0.00000387
-0.12501328 0.54737413 -0.02638157
-0.11301414 0.52715653 0.05421581
-0.30003586 -0.47905108 -0.00000101
-0.23887937 -0.51720780 -0.00000073
-0.07508652 0.49474543 0.00000016
-0.38746709 -0.13544381 0.22417133
-0.39211738 -0.31251481 -0.00000115
-0.26864362 0.15141973 0.29001391
-0.45302731 -0.15510121 -0.07435347
-0.28249943 0.11797314 0.24231130
-0.51127809 -0.43434590 0.09946595
-0.39899877 -0.16329066 0.38502002
-0.24619541 0.20563664 0.00529673
-0.50598085 -0.75602186 -0.00000294
-0.35494629 -0.41906980 -0.00000119
-0.02141291 0.60445273 0.00000074
-0.43866056 -0.25902906 0.05421474
-0.01048442 -0.60385716 0.00000043
-0.46246281 -0.31650218 0.27163243
-0.29162189 -0.72352409 -0.00000157
-0.13861826 -0.73908830 -0.00000068
-0.24950592 0.00336092 -0.00000440
-0.47197416 -0.77508193 -0.00000279
-0.03382493 0.35311374 -0.00000392
-0.07760600 -0.34226570 0.00000068
-0.11263987 -0.39615652 0.00000033
-0.56822252 -0.01713867 -0.29757711
-0.61892855 -0.69423699 0.10620718
-0.48837170 -0.37905273 0.33350515
-0.18387797 0.35607997 0.03433209
-0.28524968 0.37376848 -0.14078552
-0.44374254 0.16429009 -0.23368441
-0.44079140 -0.26417470 0.08571341
-0.12569399 0.49654907 0.00422003
-0.33888111 -0.67977077 -0.00000174
-0.69494176 -0.68802631 -0.10177003
-0.11341359 -0.52421451 0.00000000
-0.39034891 -0.14240570 0.37449288
-0.22719166 0.30534986 -0.02887673
-0.02432705 0.52487946 -0.00000077
-0.29708713 0.08276769 0.09371841
-0.49194738 -0.38767672 0.08838367
-0.01033728 -0.38423476 0.00000098
-0.52600467 -0.46989518 0.00832595
-0.51785707 -0.45022970 0.11739878
-0.42620617 -0.11684732 -0.06013730
-0.59487879 -0.72594929 -0.00000341
-0.00975562 -0.38114783 0.00000099
-0.21935675 -0.50524598 -0.00000059
-0.00641864 0.70294583 0.00000225
-0.49921277 -0.04047056 -0.19567554
-0.01607934 -0.50252157 0.00000065
-0.26567525 -0.68336022 -0.00000131
-0.07333402 -0.52994406 0.00000023
-0.17801602 0.04394739 -0.00000575
-0.66091573 -0.29874590 -0.26655188
-0.42353761 0.17133109 -0.21129143
-0.36879626 -0.09036776 0.21213356
-0.37165117 -0.31542307 -0.00000103
-0.46860939 -0.06854798 -0.14097288
-0.29067951 -0.25946397 -0.00000040
-0.14578086 -0.79086012 -0.00000086
-0.25723481 0.17896692 0.23737156
-0.33224803 -0.59317720 -0.00000149
-0.12348475 0.50188118 0.02209390
-0.08771103 -0.20032613 0.00000097
-0.61477560 -0.68420893 0.02861302
-0.17367637 -0.08856330 0.00000073
-0.50907522 -0.42903176 0.19775625
-0.31002703 0.05152909 0.08500920
-0.47953939 -0.70322531 -0.00000265
-0.59473562 -0.63582909 0.05724524
-0.37410483 -0.69854313 -0.00000200
-0.00197259 -0.45250818 0.00000086
-0.15461423 0.42672151 0.11493703
-0.64447254 -0.19916143 -0.29868233
-0.35536754 -0.05794333 0.10684493
-0.52894044 -0.47698525 0.06661732
-0.42019829 -0.12978591 -0.04541393
-0.11278897 0.32903028 -0.00000202
-0.09096110 0.65675020 -0.04095832
-0.60765737 -0.66702378 0.02509392
-0.58363521 -0.60903031 0.05699539
-0.18882342 0.12297685 -0.00000384
-0.18045393 -0.16270573 0.00000050
-0.44382128 -0.70125473 -0.00000243
-0.21564738 0.42295223 -0.07702074
-0.60357422 -0.32754293 -0.17683095
-0.68346500 -0.70581466 -0.07736124
-0.09779569 -0.20295347 0.00000090
-0.18895692 0.34382114 0.00068850
-0.25040066 0.45134500 -0.13726881
-0.59342057 -0.33447856 -0.15995847
-0.54122955 -0.36191350 -0.07763932
-0.66401637 -0.80308592 0.13625412
-0.24359047 0.30165467 -0.04813492
-0.24123539 0.04116506 -0.00000390
-0.59659946 -0.64033115 0.19854617
-0.58288425 -0.60721689 0.04923210
-0.42269638 -0.22049963 0.32963654
-0.14608404 -0.07814287 0.00000092
-0.42283878 -0.41536263 -0.00000159
-0.34947804 -0.04373042 0.30515808
-0.52344894 -0.46373317 0.19836754
-0.42603889 0.05762062 -0.15352248
-0.52201235 0.06849409 -0.28366715
-0.11575409 0.52054399 0.02711001
-0.48387322 0.00663458 -0.20107768
-0.36155984 -0.07290279 0.36372346
-0.29176062 0.34532413 -0.13395771
-0.21758425 -0.61919492 -0.00000086
-0.58862621 -0.62107795 0.01513386
-0.35054946 -0.04631060 0.08655336
-0.38126332 -0.12046824 0.33415321
-0.37798986 -0.11255579 0.03917336
-0.03771512 0.26808569 -0.00000550
-0.60719997 -0.62755322 -0.02056796
-0.62502551 -0.58550286 -0.06621689
-0.28449628 0.11315828 0.16901581
-0.37247080 -0.09923654 0.27201402
-0.60310972 -0.65604717 0.08282008
-0.32340240 -0.67550761 -0.00000164
-0.44357246 -0.42908636 -0.00000175
-0.33609292 -0.57938385 -0.00000148
-0.03888818 -0.55178726 0.00000039
-0.33053827 0.00200423 0.17269845
-0.44017285 -0.26268420 0.15226233
-0.28940734 -0.35314319 -0.00000063
-0.25592050 0.18214656 0.15428530
-0.21539699 -0.17312253 0.00000027
-0.32023165 -0.43241137 -0.00000101
-0.00262123 -0.26847470 0.00000131
-0.32758433 -0.12226196 -0.00000028
-0.22316837 0.26122686 0.02042600
-0.25604838 0.30580530 -0.06649810
-0.56530845 -0.36541042 -0.10695117
-0.16558543 -0.69970298 -0.00000075
-0.51515275 -0.55287904 -0.00000249
-0.37732017 -0.11093921 0.04336685
-0.46937177 -0.10887049 -0.12032682
-0.17110270 -0.44968182 -0.00000016
-0.58855325 -0.62090361 0.05932525
-0.08891217 0.29076189 -0.00000350
-0.45233813 -0.29205298 0.12993036
-0.27366284 0.13930915 0.20619829
-0.56245834 -0.55790913 0.19368865
-0.59190553 -0.20397581 -0.22801244
-0.56489223 -0.24882732 -0.16896033
-0.54130423 -0.11126226 -0.21221352
-0.15522747 -0.01764874 0.00000102
-0.53811824 -0.70967120 -0.00000302
-0.09290117 -0.15921278 0.00000104
-0.14451806 0.45110410 0.00726824
-0.57942832 -0.59887725 0.14806049
-0.22789440 0.38595504 -0.07303383
-0.71607941 -0.62272686 -0.16418222
-0.06358780 -0.02625441 0.00000155
-0.06668125 0.35074037 -0.00000297
-0.07288427 -0.49566764 0.00000032
-0.24306954 -0.60568655 -0.00000098
-0.20586295 0.30300108 0.07287842
-0.34771678 -0.03946999 0.19968820
-0.19932851 -0.51314825 -0.00000049
-0.27895752 0.12652276 0.25703439
-0.23245862 -0.41981199 -0.00000045
-0.60422140 -0.65872848 0.02415933
-0.07676789 0.18167324 -0.00000605
-0.01166596 0.31898791 -0.00000527
-0.38221139 -0.12274995 0.09592255
-0.05534368 0.66638732 0.00690704
-0.37436032 -0.10379321 0.03678804
-0.01259013 -0.68730104 0.00000021
-0.24601503 0.24278031 -0.01968767
-0.37797984 -0.04305015 -0.03726566
-0.55366451 -0.53667760 0.13449515
-0.45633930 0.04328514 -0.18507807
-0.21280369 -0.60075396 -0.00000079
-0.04455204 -0.76807201 -0.00000019
-0.64146674 -0.21338902 -0.28715584
-0.53280723 -0.48631930 0.03396659
-0.25128683 0.30907032 -0.06208243
-0.43601209 -0.25264022 0.17582396
-0.56902075 -0.18292715 -0.20966399
-0.57028592 -0.57680076 0.02555434
-0.52803952 -0.60301071 -0.00000269
-0.28230643 0.38924775 -0.14527828
-0.05483009 0.07263619 -0.00000889
-0.54974431 -0.65344942 -0.00000295
-0.25153270 0.19274046 0.14238755
-0.35517690 -0.05748136 0.06572969
-0.62787610 -0.71583766 0.13102636
-0.34490779 -0.03269138 0.23477279
-0.06653835 0.63935715 0.05968743
-0.64740783 -0.76299030 0.14569499
-0.19144882 0.16560759 -0.00000291
-0.21640199 -0.42141482 -0.00000036
-0.06317851 0.54641992 0.00000083
-0.07038767 0.15207262 -0.00000683
-0.44868743 -0.28323704 0.07594907
-0.10967789 0.08298355 -0.00000703
-0.45909423 -0.30836514 0.16397628
-0.27786171 -0.68771541 -0.00000140
-0.53910226 -0.61334771 -0.00000279
-0.09962980 0.15656829 -0.00000586
-0.60796523 -0.66776973 0.13681182
-0.31874645 0.03046477 0.26072812
-0.30728403 0.05813226 0.32173926
-0.36589438 -0.75537509 -0.00000210
-0.13924135 -0.04018159 0.00000106
-0.60186589 -0.26210031 -0.20972902
-0.49044850 -0.38405594 0.03766482
-0.28573209 -0.48791468 -0.00000094
-0.02781930 -0.75730711 -0.00000006
-0.14348719 0.00998764 -0.00000747
-0.49496159 -0.39496070 0.25305000
-0.24489738 0.39259115 -0.09861759
-0.29689401 -0.35600236 -0.00000068
-0.40112898 -0.33998016 -0.00000127
-0.56229681 -0.55751920 0.23154844
-0.16794764 -0.67463273 -0.00000070
-0.45522779 -0.29902527 0.03689309
-0.25578168 0.18248463 0.11773779
-0.56086373 -0.55405289 0.01150619
-0.22531362 0.03350462 -0.00000453
-0.47173688 -0.33888116 0.01932027
-0.22883269 0.45858568 -0.11321747
-0.39740193 -0.15943512 0.37499264
-0.63616574 -0.40494642 -0.17751689
-0.48159900 -0.36269948 0.23051275
-0.59372216 -0.63338488 0.12312796
-0.01541667 0.52223486 -0.00000109
-0.40202504 -0.17059553 0.35603055
-0.23992196 -0.53121096 -0.00000078
-0.27254158 -0.12315049 0.00000005
-0.35479316 -0.72786206 -0.00000196
-0.42444986 -0.22472623 0.17217255
-0.28658918 0.30890098 -0.10771733
-0.12551288 -0.15774912 0.00000085
-0.59311646 -0.51456565 -0.06294566
-0.53677964 -0.09365913 -0.21579736
-0.30385447 0.06642942 0.10183814
-0.22564310 -0.65957540 -0.00000101
-0.35717392 -0.00803174 -0.02910478
-0.34371573 0.07168552 -0.05443865
-0.02807785 -0.59460926 0.00000034
-0.13710456 0.46899614 0.07640654
-0.51596802 -0.60777622 -0.00000263
-0.07814089 0.48068663 -0.00000003
-0.16510743 -0.15990420 0.00000060
-0.22008947 -0.16003485 0.00000027
-0.15489809 0.42603675 0.10819597
-0.45048183 -0.61673784 -0.00000226
-0.01209630 -0.78558272 -0.00000004
-0.17655835 0.46706241 -0.05005651
-0.59494317 -0.63633084 0.07106239
-0.62864655 -0.71769774 0.05714802
-0.56820273 -0.79734915 -0.00000342
-0.31340051 -0.14297365 -0.00000025
-0.08647045 0.30160907 -0.00000336
-0.26450151 -0.13213748 0.00000007
-0.27245706 0.14222635 0.12866446
-0.02175294 0.03861109 -0.00001057
-0.40363291 -0.17447750 0.36152387
-0.01663626 -0.15662546 0.00000151
-0.48879862 -0.38008267 0.27007768
-0.44125277 -0.26529080 0.13897958
-0.03590706 -0.08977515 0.00000156
-0.35341004 -0.05321746 0.23522092
-0.33223450 0.15252189 -0.08293835
-0.50860190 -0.42788708 0.14814095
-0.38372561 -0.60222465 -0.00000182
-0.25275919 -0.16210274 0.00000007
-0.08160654 -0.59081542 0.00000003
-0.14203568 -0.13428894 0.00000081
-0.29710165 0.08272629 0.17294602
-0.30728111 0.05815387 0.13980135
-0.52225238 -0.46083826 0.05201796
-0.51195586 -0.51379251 -0.00000237
-0.21604292 0.00143047 -0.00000545
-0.00576973 -0.32915866 0.00000114
-0.19898584 -0.34589237 -0.00000007
-0.37332335 0.10027093 -0.10812512
-0.04487935 -0.73405778 -0.00000011
-0.20666030 0.30107367 0.10414818
-0.29627660 0.08473097 0.01233640
-0.31663468 0.03557399 0.12298710
-0.03056715 -0.08015022 0.00000162
-0.60516340 -0.77934617 -0.00000360
-0.10779583 0.34289807 -0.00000189
-0.05448699 -0.07778560 0.00000148
-0.18514030 0.35302839 0.08499392
-0.30221954 -0.36327872 -0.00000073
-0.40183514 -0.17013545 0.31773224
-0.40051264 0.01637617 -0.09833054
-0.27791965 -0.69259238 -0.00000141
-0.52491432 -0.60979015 -0.00000269
-0.53190523 -0.48414734 0.16932052
-0.04311632 -0.41746113 0.00000070
-0.12425364 -0.76098120 -0.00000065
-0.43241656 -0.24395403 0.04016891
-0.45580232 -0.30041498 0.09934659
-0.71744257 -0.72773236 -0.10961110
-0.26004970 -0.42769822 -0.00000064
-0.34281912 -0.73996598 -0.00000192
-0.27713305 -0.53973001 -0.00000102
-0.04215652 -0.58037221 0.00000029
-0.19666111 0.49761575 -0.09248755
-0.52714550 -0.47265446 0.12478898
-0.53774285 -0.49823695 0.08074953
-0.11478600 0.05987681 -0.00000734
-0.07381742 -0.51459825 0.00000027
-0.56048769 -0.34667870 -0.11075692
-0.38877413 -0.13859285 0.07229235
-0.33365574 -0.60691822 -0.00000153
-0.04858527 0.21264067 -0.00000628
-0.52475119 -0.46687251 0.09150118
-0.20486940 0.30539742 0.10165145
-0.55175322 -0.53205806 0.01138804
-0.42831087 -0.52380121 -0.00000189
-0.50183445 -0.41154614 0.08513460
-0.22707167 -0.54774463 -0.00000074
-0.30222067 0.07036799 0.17341617
-0.10497391 -0.27938801 0.00000067
-0.58992845 -0.62422109 0.00013172
-0.66635811 -0.64309788 -0.08885208
-0.55386961 -0.34644377 -0.10231095
-0.37806836 -0.54312187 -0.00000164
-0.33729315 -0.01430382 0.17908660
-0.23693578 0.00886503 -0.00000467
-0.42325881 -0.60006654 -0.00000205
-0.03661081 -0.11057950 0.00000150
-0.47259310 -0.34096074 0.34833649
-0.45289654 -0.60274160 -0.00000224
-0.00011453 -0.33610651 0.00000116
-0.24339221 0.28619322 -0.03958264
-0.53718865 -0.49690285 0.17277268
-0.07385967 0.62168479 0.02658740
-0.29971531 0.07641239 0.22317944
-0.05558024 0.13093016 -0.00000770
-0.07413936 0.04113500 -0.00000894
-0.40374631 -0.17473739 0.03297745
-0.46047482 -0.00114278 -0.16659787
-0.23382635 0.25469393 -0.01029211
-0.19190276 0.33670184 0.09444799
-0.21617630 0.39306331 -0.06166960
-0.45897993 -0.73490298 -0.00000261
-0.32545003 0.15938658 -0.07783378
-0.00385398 -0.79045516 0.00000005
-0.55568635 -0.25272548 -0.15494508
-0.28869942 0.10300468 0.24930651
-0.19912627 0.31926671 0.04708652
-0.49767253 -0.40149972 0.11640719
-0.15527080 0.52081984 -0.05132588
-0.41613048 0.13895199 -0.18432498
-0.23265938 -0.71128482 -0.00000118
-0.43760195 -0.25648460 0.32017940
-0.38046616 -0.11854260 0.23792763
-0.06376671 0.42728043 -0.00000153
-0.24273063 -0.30150601 -0.00000022
-0.51527876 -0.79523426 -0.00000310
-0.22158048 0.26504740 0.18234140
-0.36028162 -0.06980942 0.16289277
-0.06111063 -0.09230394 0.00000140
-0.19856863 0.32060349 0.16601451
-0.18983196 0.11645965 -0.00000394
-0.40226543 -0.17116626 0.12942515
-0.25311580 0.18890943 0.25639528
-0.24633202 -0.39760256 -0.00000048
-0.24492022 -0.08377122 0.00000031
-0.32349005 0.22912252 -0.11271033
-0.20980705 0.29347101 0.17641608
-0.43731463 -0.25578573 0.19653992
-0.35094461 -0.50529188 -0.00000138
-0.00906494 -0.58018094 0.00000049
-0.31442249 0.04092123 0.04031139
-0.35351020 -0.05345415 0.17211062
-0.13765144 0.27616200 -0.00000232
-0.18096115 -0.17647015 0.00000047
-0.48872048 0.05046924 -0.23087463
-0.23766989 0.22621705 0.02699398
-0.23615034 0.22987944 0.10281795
-0.31755099 0.03336043 0.14086604
-0.02312323 -0.43843293 0.00000076
-0.34561732 -0.03441036 0.31024498
-0.43926015 -0.55873585 -0.00000205
-0.49151042 -0.38662943 0.26824400
-0.59087145 -0.62650186 0.09815495
-0.31995612 0.02755591 0.11673780
-0.02220065 -0.07830444 0.00000167
-0.05879182 -0.15886363 0.00000125
-0.24217393 0.21532764 0.22539462
-0.15174980 -0.66502678 -0.00000058
-0.04637161 -0.35777098 0.00000083
-0.19559687 0.46592575 -0.07410654
-0.63757437 -0.29853565 -0.23643212
-0.03256624 0.08968849 -0.00000922
-0.20878194 -0.70267117 -0.00000102
-0.13278973 0.47940862 0.12997665
-0.07739012 -0.75485992 -0.00000035
-0.37444440 -0.10400553 0.32677409
-0.12122361 -0.01220288 0.00000124
-0.27369317 0.13923161 0.26050571
-0.54400736 0.02104718 -0.28669989
-0.43917930 -0.26028988 0.25537232
-0.27927339 -0.29525235 -0.00000042
-0.41339761 0.15200205 -0.18778692
-0.46253812 -0.31668651 0.33343378
-0.17228369 -0.56352013 -0.00000045
-0.36774680 -0.08783169 0.15535390
-0.13009675 0.48591673 0.04538320
-0.38196394 -0.12215902 0.32621369
-0.21472245 -0.06232907 0.00000055
-0.28704536 -0.60365349 -0.00000124
-0.38049075 -0.11859438 0.05998794
-0.43232003 -0.24371935 0.00138063
-0.26183134 0.16786937 0.24590655
-0.21130776 0.28985229 0.12335431
-0.19003439 -0.19978982 0.00000035
-0.21398257 0.04111709 -0.00000472
-0.37622130 -0.10829184 0.28415427
-0.25576967 -0.05960954 0.00000031
-0.16594444 0.03307089 -0.00000633
-0.12587266 -0.65601051 -0.00000040
-0.29175785 -0.46158579 -0.00000091
-0.34522626 -0.03345365 0.15248978
-0.38225028 -0.12284291 0.07413580
-0.06417473 0.11456561 -0.00000777
-0.52568549 -0.29669952 -0.09249411
-0.33468977 -0.00801488 0.12989947
-0.56565213 -0.56561661 0.09135633
-0.12637247 0.31039244 -0.00000198
-0.34314877 0.21058790 -0.12822919
-0.43665686 -0.25419918 0.23132575
-0.23232287 -0.64429271 -0.00000101
-0.53807372 -0.49903268 0.00960948
-0.31772605 -0.69763613 -0.00000166
-0.44546816 -0.27547610 0.33674204
-0.14797479 -0.61039829 -0.00000042
-0.66670662 -0.60571754 -0.10935848
-0.56068844 0.01958279 -0.30752057
-0.61251402 -0.79956949 -0.00000370
-0.44585913 -0.72718769 -0.00000251
-0.59156734 -0.62818259 0.11268699
-0.41858864 -0.31030503 -0.00000130
-0.28411642 -0.18470009 -0.00000018
-0.40562364 -0.05118343 -0.06870744
-0.09978132 -0.68279767 -0.00000031
-0.10316092 -0.22260068 0.00000082
-0.37080452 -0.09521724 0.31455669
-0.31736499 -0.35493791 -0.00000080
-0.21684839 -0.43705076 -0.00000040
-0.10991791 -0.64316601 -0.00000027
-0.32829779 -0.42117107 -0.00000103
-0.06173057 0.11402922 -0.00000786
-0.37456939 -0.10429792 0.03725662
-0.02889042 -0.46512553 0.00000066
-0.19592212 -0.00396561 0.00000081
-0.11279663 -0.57105982 -0.00000011
-0.49481779 -0.05205459 -0.18376800
-0.11200400 -0.29610106 0.00000058
-0.66518784 -0.58041912 -0.12096422
-0.32423306 0.05059430 -0.01788747
-0.43353695 -0.55497968 -0.00000200
-0.54383743 -0.36194265 -0.08100153
-0.32808769 0.00791155 0.28227144
-0.64618456 -0.39335230 -0.19671407
-0.64971614 -0.23185936 -0.28793120
-0.16270009 -0.73970336 -0.00000083
-0.52401012 -0.46508938 0.29487360
-0.01560017 0.50413954 -0.00000145
-0.09276341 -0.55006772 0.00000006
-0.56978798 -0.43679884 -0.07445248
-0.45127568 -0.28948623 0.08956526
-0.45627597 -0.57969368 -0.00000220
-0.19967784 0.33731496 -0.01038929
-0.32271773 0.02088729 0.13649228
-0.24415669 -0.40712455 -0.00000049
-0.45557842 -0.29988468 0.34331128
-0.52334028 -0.73280710 -0.00000299
-0.05948648 0.65638536 0.01280452
-0.47154897 -0.65365225 -0.00000248
-0.24549487 -0.01403078 0.00000048
-0.32501981 0.03986866 -0.01315193
-0.03872376 -0.12216913 0.00000146
-0.08128540 0.12360973 -0.00000707
-0.44978854 -0.28589699 0.11360788
-0.38000923 -0.11744523 0.39184475
-0.09112993 0.57998550 0.09807998
-0.46287316 -0.31749088 0.22536902
-0.34684280 -0.47079018 -0.00000127
-0.33121586 0.21986400 -0.11774982
-0.02672165 0.04706298 -0.00001025
-0.31804180 -0.56259245 -0.00000133
-0.41808233 -0.20934883 0.05887059
-0.35462275 0.18380721 -0.12872241
-0.50172997 -0.41129929 0.21247105
-0.35349342 -0.50513226 -0.00000140
-0.19264373 0.33490965 0.13626345
-0.52152896 -0.75668746 -0.00000304
-0.30411470 0.06578479 0.30632672
-0.02039140 0.05694611 -0.00001025
-0.46428788 -0.30157605 -0.01035307
-0.51875943 -0.45241201 0.20740438
-0.32486668 0.01568328 0.33687943
-0.64489853 -0.75693256 0.12522098
-0.56377560 -0.45301974 -0.05796228
-0.12203391 -0.79936582 -0.00000073
-0.59398001 -0.63400728 0.14936537
-0.29823193 -0.60678214 -0.00000132
-0.47529894 -0.34748361 0.08711259
-0.18526813 -0.16046052 0.00000048
-0.35434377 -0.66930878 -0.00000181
-0.15952110 -0.62097234 -0.00000052
-0.22085536 0.26680237 0.12734909
-0.50636476 -0.42248061 0.02023635
-0.45316106 -0.53643280 -0.00000208
-0.36134723 -0.75424075 -0.00000207
-0.23836896 0.22452503 0.08103685
-0.48552632 -0.28583920 -0.04630499
-0.24217993 0.21532878 0.02944757
-0.17515668 0.04054195 -0.00000590
-0.23821929 0.22488149 0.14202914
-0.31958169 0.02846898 0.00278250
-0.72035658 -0.66135836 -0.14899589
-0.07917888 0.60884452 0.01076079
-0.28654605 0.10821026 0.16249335
-0.30775058 0.05701201 0.24512497
-0.54619092 -0.70828182 -0.00000307
-0.45935887 -0.24923931 -0.03204813
-0.55987573 -0.55166799 0.01863694
-0.20572981 -0.55229580 -0.00000062
-0.40074590 -0.16749717 0.11537950
-0.06995419 0.37633002 -0.00000236
-0.29758039 0.08157663 0.09617500
-0.55713844 -0.54506207 0.07669304
-0.14542864 0.44889894 0.09259980
-0.27249247 0.14215083 0.00361970
-0.02473115 -0.47674504 0.00000066
-0.46562296 -0.32412508 0.11908877
-0.14235525 0.45632288 0.04014673
-0.29920346 0.07766318 0.03478276
-0.08010205 0.60661072 0.07458290
-0.18462785 -0.46689019 -0.00000028
-0.14317673 -0.57288945 -0.00000030
-0.05058828 0.67786747 0.00967563
-0.49632734 -0.09246160 -0.16404437
-0.19041938 0.34028023 0.12908734
-0.34179035 -0.02516284 0.05674855
-0.28486767 -0.52571940 -0.00000103
-0.31911361 0.02959730 0.02401303
-0.39960000 -0.16474417 0.43224269
-0.54448384 -0.59755713 -0.00000278
-0.19439939 0.33066952 0.15714069
-0.42557317 -0.22744203 0.26357162
-0.30946729 -0.74120235 -0.00000172
-0.31492242 0.03971026 0.09098241
-0.26340789 -0.23717639 -0.00000018
-0.02996757 0.04716842 -0.00001015
-0.26685998 0.15574311 0.07379380
-0.07388552 -0.13368523 0.00000122
-0.04580569 -0.65812582 0.00000008
-0.05345530 0.35745829 -0.00000324
-0.57040811 -0.57710117 0.17746204
-0.41698614 -0.20671195 0.28581208
-0.28151417 0.12035443 0.20868690
-0.51257348 -0.43747264 0.08604968
-0.38363770 -0.36826378 -0.00000124
-0.31102738 0.04910589 0.18741100
-0.34729671 -0.03846890 0.36267430
-0.46323797 -0.31836644 0.10286431
-0.21537030 0.31201005 -0.01713835
-0.28260797 -0.34471771 -0.00000057
-0.44815567 -0.28195897 0.21120812
-0.60978746 -0.15016873 -0.28004202
-0.35545251 -0.05814624 0.05337863
-0.33063364 -0.26395416 -0.00000066
-0.08651903 0.59112138 0.04413804
-0.28480300 -0.75278449 -0.00000160
-0.64471036 -0.25674811 -0.26809442
-0.20938426 0.32387513 -0.01575081
-0.32563952 0.01382241 0.27632976
-0.08574733 -0.34579414 0.00000062
-0.60610795 -0.45123926 -0.11374815
-0.24077237 -0.61002350 -0.00000098
-0.58114618 -0.60302299 0.10046531
-0.42139816 -0.08953783 -0.06856165
-0.21422438 -0.32304913 -0.00000010
-0.63090897 -0.72315943 0.05257701
-0.06613242 -0.66639906 -0.00000007
-0.23899877 0.22301018 0.01072568
-0.11187846 0.16588995 -0.00000531
-0.61551619 -0.68599886 0.07446507
-0.61061859 -0.35189509 -0.17288986
-0.59388018 -0.63376540 0.09149974
-0.04800579 0.49460289 -0.00000066
-0.44652298 -0.27801850 0.23927218
-0.12589233 0.34036738 -0.00000139
-0.05730726 0.66164672 0.00919153
-0.64346141 -0.29806241 -0.24431111
-0.22892341 0.24733119 0.04528095
-0.03739250 -0.47093001 0.00000060
-0.02763479 -0.09905404 0.00000159
-0.33917010 -0.57966894 -0.00000150
-0.32588840 -0.61934501 -0.00000152
-0.06420540 0.15429784 -0.00000698
-0.21175338 0.28877282 0.16938934
-0.46236721 -0.06722290 -0.13359869
-0.40618500 -0.71986461 -0.00000225
-0.04585195 0.29946679 -0.00000463
-0.34934625 0.03905935 -0.04422682
-0.41086757 -0.19193466 0.15033734
-0.12935229 -0.74886328 -0.00000065
-0.10868583 -0.50020957 0.00000009
-0.24312498 -0.61264098 -0.00000100
-0.18139733 -0.76186067 -0.00000100
-0.29219162 -0.19244494 -0.00000024
-0.54144597 -0.20766602 -0.16067529
-0.30566010 -0.26642704 -0.00000051
-0.10976694 0.12618062 -0.00000616
-0.32348806 0.01902316 0.19222274
-0.43630862 -0.25335723 0.20315225
-0.28205511 -0.54999870 -0.00000108
-0.19923797 -0.02128283 0.00000074
-0.40537655 -0.17868072 0.21262380
-0.05244532 -0.58488113 0.00000022
-0.11861118 0.05565680 -0.00000731
-0.20578425 0.30319327 0.04630044
-0.17908023 -0.09227705 0.00000069
-0.46997321 -0.33462811 0.13291723
-0.07656559 -0.11654780 0.00000125
-0.48441896 -0.36950725 0.22545838
-0.08123418 -0.16659774 0.00000109
-0.64099550 -0.74750966 0.03094778
-0.16374777 0.40467110 0.11936951
-0.22637597 0.25346529 0.24237238
-0.34357989 -0.79824859 -0.00000207
-0.18305846 -0.46091259 -0.00000026
-0.39031133 -0.63067597 -0.00000193
-0.36770833 0.15863089 -0.13216388
-0.62988704 -0.72069246 0.12729114
-0.43877810 -0.16128045 -0.05258207
-0.45669532 -0.30258092 0.33511445
-0.09884381 0.41007420 -0.00000082
-0.56008613 -0.55217808 0.07025553
-0.03784867 0.08997131 -0.00000906
-0.03226270 -0.29680395 0.00000106
-0.30168158 0.32152870 -0.13404106
-0.45414224 -0.29641482 0.27987510
-0.22668648 0.44438487 -0.10281845
-0.17384727 -0.03934350 0.00000085
-0.00340622 -0.12906197 0.00000166
-0.15430734 0.42746136 0.12791064
-0.64127225 -0.41712692 -0.17759608
-0.19780435 -0.74397826 -0.00000105
-0.21912467 0.11902032 -0.00000301
-0.28243560 -0.50283241 -0.00000096
-0.31768265 -0.42723048 -0.00000099
-0.23654330 0.28671926 -0.03099373
-0.01849939 -0.13255484 0.00000156
-0.66487652 -0.30322516 -0.26927888
-0.44411582 -0.27220404 0.16692655
-0.29281855 -0.59205276 -0.00000125
-0.43192282 -0.24276705 0.15772860
-0.04145186 0.41923898 -0.00000236
-0.57164961 -0.58009738 0.12869869
-0.53278923 -0.48628345 0.26880068
-0.38398606 -0.12704588 0.38969618
-0.27053463 -0.66486657 -0.00000129
-0.51533186 -0.44413862 0.25286466
-0.09886187 0.56132460 0.03074320
-0.46007112 -0.31071743 0.01916683
-0.66010463 -0.74098223 -0.02823622
-0.44747767 0.15543541 -0.23377161
-0.17455356 -0.16631357 0.00000053
-0.33896095 -0.01831462 0.00000231
-0.00414361 -0.59710854 0.00000048
-0.04169161 -0.05418077 0.00000161
-0.51759112 -0.44958618 0.08126799
-0.30192026 0.07280540 -0.00090343
-0.39659524 -0.15748338 0.27552378
-0.56168628 -0.73772639 -0.00000323
-0.01572864 0.58135808 0.00000010
-0.44654831 -0.27807418 0.10997075
-0.54749721 -0.17054194 -0.18843064
-0.62015897 -0.09897898 -0.32093954
-0.03414648 -0.77946711 -0.00000015
-0.58192164 -0.60489559 0.11140648
-0.33725893 -0.38394994 -0.00000100
-0.68873984 -0.51630104 -0.18586974
-0.00249726 0.70145011 0.00000210
-0.21225682 0.05052776 -0.00000458
-0.27429920 0.13777751 0.14828013
-0.29122561 -0.52104205 -0.00000106
-0.06123951 -0.06216214 0.00000147
-0.39874992 -0.16267490 0.03193686
-0.17212714 -0.19120459 0.00000048
-0.15352203 0.42936474 0.03385254
-0.01067801 -0.06843384 0.00000176
-0.32109267 -0.78682256 -0.00000191
-0.33016911 0.25684139 -0.13623337
-0.52470368 -0.46675804 0.09550870
-0.24757700 -0.00282899 0.00000050
-0.57147133 -0.57966268 0.02587233
-0.33445424 -0.61080742 -0.00000155
-0.27122921 -0.16602886 -0.00000005
-0.28300419 0.21432474 -0.05233113
-0.09800388 0.19313087 -0.00000518
-0.21462288 -0.61526811 -0.00000083
-0.74395311 -0.80947018 -0.10009520
-0.53431040 -0.48994714 0.00768494
-0.30022708 0.07519269 0.02560900
-0.12718984 0.12166910 -0.00000573
-0.24617672 0.28489202 -0.04249117
-0.20615907 0.31064388 -0.00447442
-0.00894158 0.57548463 -0.00000022
-0.18950260 -0.02573654 0.00000079
-0.60645664 -0.66412395 0.00351036
-0.59914440 -0.64647377 0.07584295
-0.45416507 -0.17540433 -0.06493427
-0.11865579 0.30104631 -0.00000240
-0.16147678 -0.59585166 -0.00000046
-0.06001959 0.37002221 -0.00000279
-0.24811991 0.20098172 0.11528080
-0.41413257 -0.19981895 0.19384922
-0.00852260 0.24766663 -0.00000679
-0.35416436 -0.05504021 0.25638613
-0.06988725 -0.39502418 0.00000059
-0.19881101 0.32003134 0.00362900
-0.31109542 0.06037465 -0.00611822
-0.04375884 0.53948945 0.00000011
-0.44613981 -0.15882564 -0.06343430
-0.42247814 0.00896221 -0.12280382
-0.39819503 -0.16133817 0.09973466
-0.04749531 -0.59800994 0.00000022
-0.12934072 -0.14822218 0.00000085
-0.13805430 0.13129744 -0.00000521
-0.19108613 0.33866447 0.20383032
-0.27798516 0.12888534 0.06774749
-0.06338833 -0.16293758 0.00000121
-0.47015426 -0.33506459 0.11865856
-0.31973404 -0.38225219 -0.00000089
-0.37896654 0.01926278 -0.07197145
-0.52344537 -0.46372125 0.11929193
-0.36491212 -0.29440141 -0.00000094
-0.19786157 -0.15980750 0.00000041
-0.51574492 -0.73035669 -0.00000294
-0.46806666 -0.33002198 0.05564430
-0.41765773 -0.20833720 0.37699738
-0.30595830 -0.74931335 -0.00000172
-0.52054518 -0.45671880 0.10081228
-0.54879522 -0.52492434 0.24893810
-0.53088391 -0.48167613 0.03947896
-0.63970232 -0.47614896 -0.14389659
-0.03693745 -0.52188408 0.00000047
-0.30988178 0.05187937 0.08946201
-0.25779235 -0.55523670 -0.00000094
-0.40186048 0.14433677 -0.16873068
-0.39345056 -0.54165196 -0.00000173
-0.35911471 -0.06699083 0.25175703
-0.49430445 -0.39336646 0.07012931
-0.03634485 0.71225214 0.02974922
-0.19249715 0.10025688 -0.00000419
-0.42985496 -0.23777944 0.26768035
-0.28313735 -0.12987193 -0.00000003
-0.47278139 -0.71813512 -0.00000265
-0.40360653 -0.17440677 0.19443554
-0.46291909 -0.31760395 0.27703488
-0.25715980 0.17914917 0.22337586
-0.26889706 -0.19485693 -0.00000011
-0.07491041 0.61914665 0.04454552
-0.22949259 -0.34489611 -0.00000025
-0.26206818 -0.61595100 -0.00000112
-0.05815468 0.22023149 -0.00000584
-0.49471074 -0.74847227 -0.00000286
-0.56724608 -0.76418167 -0.00000333
-0.01335583 0.18568584 -0.00000788
-0.71373016 -0.80538827 -0.06313932
-0.46576262 -0.16207774 -0.08710576
-0.41129160 -0.19296607 0.33220536
-0.30771777 -0.30109358 -0.00000061
-0.50072074 -0.40886450 0.24993160
-0.10596936 -0.34053794 0.00000051
-0.21816353 0.45632476 -0.09818507
-0.22572561 -0.36579460 -0.00000028
-0.42956406 -0.23706801 0.05234487
-0.01407902 -0.13609371 0.00000157
-0.07028295 0.52203494 0.00000056
-0.49255958 -0.38915852 0.17801128
-0.46581495 -0.02469509 -0.16087829
-0.46139312 -0.31390834 0.00319430
-0.31099403 -0.49817631 -0.00000112
-0.21917176 0.27086934 0.09649444
-0.54136235 -0.67916840 -0.00000297
-0.16886640 -0.33142176 0.00000015
-0.21384934 -0.25657189 0.00000007
-0.39819360 -0.28752249 -0.00000112
-0.64161223 -0.43986115 -0.16583925
-0.50695473 -0.42390496 0.02065482
-0.36864454 -0.43990478 -0.00000132
-0.01475430 -0.60136944 0.00000041
-0.36270863 -0.07566965 0.18441042
-0.06243562 -0.73075765 -0.00000020
-0.18837503 -0.74935460 -0.00000101
-0.38902530 -0.70081913 -0.00000210
-0.18186361 -0.41830519 -0.00000014
-0.49173570 -0.38717389 0.30513519
-0.36187831 0.15212736 -0.12112316
-0.13473924 -0.27779254 0.00000049
-0.43482280 -0.24977450 0.30653048
-0.63412356 -0.73091829 0.00605400
-0.11640621 -0.07060961 0.00000112
-0.21608350 0.47330657 -0.10460208
-0.40837538 -0.18591936 0.18350378
-0.29759079 -0.23354833 -0.00000038
-0.06514601 -0.26781306 0.00000094
-0.39442664 -0.70983690 -0.00000216
-0.00145254 -0.52367419 0.00000070
-0.07851322 -0.49019083 0.00000030
-0.44298962 -0.53221995 -0.00000200
-0.38948241 -0.30382383 -0.00000111
-0.32122272 0.02449794 0.11931736
-0.62802553 -0.59189427 -0.06667358
-0.32398790 0.01782638 0.06748288
-0.51371777 -0.44023192 0.00946467
-0.36869133 -0.09011304 0.28238931
-0.46847680 -0.33101457 0.11252144
-0.23827074 -0.18763074 0.00000009
-0.38406968 -0.12723485 0.06250557
-0.03554875 -0.72581053 -0.00000003
-0.57499593 -0.71412486 -0.00000326
-0.18821830 -0.68262386 -0.00000084
-0.13263284 -0.71143103 -0.00000058
-0.41126624 -0.19289675 0.14214934
-0.35177752 -0.04927991 0.28091928
-0.48419407 -0.36895931 0.10731339
-0.45143065 0.11365722 -0.21647662
-0.42229405 -0.20287852 -0.00891338
-0.17718375 -0.51973975 -0.00000037
-0.22274880 0.38349932 -0.06505137
-0.37268984 -0.09976895 0.24094202
-0.52781975 -0.47428527 0.19882366
-0.04889986 -0.34016097 0.00000085
-0.32252741 0.04475468 -0.01254511
-0.10163142 0.59849751 -0.02352503
-0.28298020 -0.42310104 -0.00000077
-0.26889774 0.15081425 0.19062550
-0.44455230 -0.27325526 0.10710904
-0.07122856 0.36287075 -0.00000259
-0.18795289 0.34624016 0.06167179
-0.06235801 0.18584697 -0.00000640
-0.15911844 0.41584367 0.16267926
-0.63962543 -0.74420196 0.03025033
-0.36493084 -0.08102842 0.03913061
-0.49148417 -0.38655525 0.01233029
-0.17165919 0.52017719 -0.07220833
-0.05405925 0.66948831 0.00551349
-0.31438738 0.04100116 0.10051360
-0.05927121 0.40119565 -0.00000219
-0.38870227 -0.30927211 -0.00000112
-0.51663876 -0.44728914 0.13490964
-0.48016921 -0.35923818 0.00693569
-0.11010384 0.18071656 -0.00000506
-0.20201181 -0.21410818 0.00000025
-0.65183181 -0.66349983 -0.05909117
-0.69050282 -0.78435445 -0.04433934
-0.35085863 0.25928849 -0.16434465
-0.20544337 -0.18162476 0.00000031
-0.31007454 0.05141721 0.04985835
-0.37736666 -0.31629395 -0.00000107
-0.10598272 0.62940466 -0.04574362
-0.33507907 -0.00896478 0.25634512
-0.40445703 -0.17646448 0.29977041
-0.08415892 -0.20175938 0.00000099
-0.25947335 -0.23779865 -0.00000016
-0.64246386 -0.75105357 0.00608488
-0.17030734 -0.65683103 -0.00000067
-0.11828060 -0.76915479 -0.00000064
-0.06285204 -0.34564695 0.00000076
-0.29173258 0.09569503 0.08766999
-0.53609097 -0.49425432 0.24525999
-0.07075914 -0.42868957 0.00000050
-0.64376670 -0.33188990 -0.22655770
-0.07249782 -0.68310803 -0.00000015
-0.02105083 0.69162017 0.00000247
-0.03680011 -0.71252584 -0.00000000
-0.26057246 0.17091522 0.16302674
-0.11954726 0.10348637 -0.00000632
-0.60347629 -0.55735654 -0.05340628
-0.48439243 -0.32162699 -0.02563576
-0.51585245 -0.43919763 -0.00330598
-0.11398984 -0.21994285 0.00000076
-0.27398521 -0.60415363 -0.00000116
-0.02447040 -0.40782657 0.00000083
-0.09875649 0.03203191 -0.00000838
-0.45306021 -0.29379618 0.12947176
-0.26710472 0.15514547 0.15829390
-0.27953392 0.12514590 0.07379359
-0.11794684 -0.62936771 -0.00000029
-0.13727172 -0.13221166 0.00000084
-0.39732295 -0.62556875 -0.00000196
-0.17322706 -0.34670177 0.00000009
-0.27397707 0.00335755 -0.00000366
-0.00722063 -0.03861939 0.00000186
-0.50596952 -0.42153484 0.21683770
-0.53505290 -0.49174634 0.16553412
-0.53948563 -0.50244504 0.09501817
-0.01524434 0.47114810 -0.00000212
-0.12086205 -0.63512236 -0.00000032
-0.14023405 0.46143937 0.09598745
-0.19412751 0.42180085 -0.04852913
-0.56448293 -0.20316379 -0.19292922
-0.22009864 -0.40108117 -0.00000033
-0.20390131 0.00576403 -0.00000573
-0.57415193 -0.75897199 -0.00000336
-0.30804032 -0.45972127 -0.00000101
-0.48392841 -0.36831993 0.15453272
-0.41259229 -0.19609550 0.07896262
-0.27042976 -0.00995486 0.00000034
-0.28445041 0.11326734 0.18923976
-0.33253887 -0.00282740 0.19468249
-0.14175430 0.45777506 0.02302196
-0.43503121 -0.12048286 -0.06961734
-0.43135104 0.15741490 -0.21394545
-0.16598903 0.52685201 -0.06844522
-0.72547323 -0.75043625 -0.10783179
-0.50455487 -0.63691759 -0.00000264
-0.06257858 0.29342878 -0.00000424
-0.18463570 -0.40992367 -0.00000014
-0.45478109 -0.48159608 -0.00000195
-0.31766307 0.20781104 -0.09372867
-0.01351289 -0.62880325 0.00000035
-0.22275311 0.26222804 0.03726051
-0.47239318 -0.19957320 -0.07557717
-0.00675731 -0.25951988 0.00000131
-0.66246027 -0.57457846 -0.12056494
-0.25460505 -0.68276185 -0.00000124
-0.46726102 0.02425714 -0.18901551
-0.19899814 0.31957856 0.01625339
-0.40523002 -0.17832606 0.19087164
-0.39042389 -0.14257725 0.10813959
-0.01083268 -0.41656461 0.00000089
-0.23283330 0.23789515 0.00589626
-0.33615005 -0.59912872 -0.00000153
-0.19302917 0.33398765 0.02965709
-0.02106705 -0.32967156 0.00000105
-0.48624125 -0.37390506 0.18650191
-0.36862352 -0.08994809 0.15023014
-0.49368733 -0.39187387 0.00628671
-0.27949777 0.34104791 -0.11577981
-0.12958662 0.00677219 -0.00000795
-0.41213095 -0.19498053 0.05074575
-0.23522463 -0.43976077 -0.00000052
-0.19193773 -0.05942398 0.00000069
-0.57888246 -0.59755570 0.04914240
-0.38366717 -0.12627436 0.32772228
-0.52239150 -0.79420811 -0.00000314
-0.26134339 -0.28238633 -0.00000028
-0.27264291 -0.53439605 -0.00000098
-0.35624957 -0.71961582 -0.00000195
-0.06829922 -0.66899079 -0.00000008
-0.38210505 -0.65049940 -0.00000193
-0.20217291 -0.28045833 0.00000008
-0.00458881 -0.22149961 0.00000142
-0.07599291 -0.36565459 0.00000063
-0.06479690 0.64356595 0.00190103
-0.17146839 0.38603181 0.12309542
-0.17391974 -0.37019667 0.00000002
-0.17053983 0.47386137 -0.04590878
-0.09374632 -0.23527654 0.00000085
-0.42986113 0.14403982 -0.20483953
-0.25352803 0.18793371 0.01330828
-0.39558753 -0.15504768 0.20806530
-0.30549002 0.06248469 0.05482872
-0.00816648 0.61962515 0.00000064
-0.48184946 -0.07256599 -0.15596627
-0.66957146 -0.81649661 0.08930429
-0.25043038 -0.51645333 -0.00000080
-0.34429657 -0.42405444 -0.00000114
-0.38179269 -0.12174754 0.29420272
-0.19751316 0.48200426 -0.08521518
-0.02324222 -0.04822366 0.00000174
-0.27310589 0.15635473 -0.00840774
-0.09866898 -0.07474300 0.00000122
-0.23808157 0.43566597 -0.11290015
-0.18776768 0.34667933 0.16088517
-0.45108816 -0.28904447 0.34821007
-0.28975677 0.10045027 0.27149457
-0.25107199 -0.38017991 -0.00000047
-0.57989347 -0.11487839 -0.26025578
-0.52220678 -0.46073297 0.16550852
-0.06298559 -0.73850501 -0.00000023
-0.49143592 -0.59345174 -0.00000245
-0.31469107 0.04026624 0.12270698
-0.48165900 -0.71347213 -0.00000269
-0.04071412 0.54436958 0.00000012
-0.59756160 -0.05066320 -0.31759208
-0.57748300 -0.07286530 -0.27967417
-0.04891523 -0.69104195 -0.00000002
-0.24000828 0.22055319 0.25765064
-0.52105814 -0.10655488 -0.18851551
-0.26168442 0.16823810 0.07107431
-0.41548464 0.21633536 -0.22500673
-0.06224217 0.07656711 -0.00000859
-0.17359622 0.53306067 -0.08162963
-0.31807372 -0.41626319 -0.00000096
-0.51845306 -0.45166403 0.01060415
-0.50456476 -0.00626936 -0.22095533
-0.40995875 -0.04055563 -0.08002441
-0.52182007 -0.60160828 -0.00000265
-0.35497773 -0.05701186 0.35672876
-0.26191536 -0.73984814 -0.00000143
-0.71672016 -0.70845598 -0.11901742
-0.26632217 -0.45098999 -0.00000073
-0.25747490 0.17839091 0.19267458
-0.57249564 -0.58213931 0.11738456
-0.04494651 -0.08048417 0.00000153
-0.28233749 0.11838124 0.02838128
-0.32128000 -0.44907647 -0.00000106
-0.22692043 -0.72112244 -0.00000117
-0.34313115 0.06440109 -0.04977317
-0.37473011 -0.44934314 -0.00000139
-0.09657803 0.28655678 -0.00000335
-0.38336033 -0.12552470 0.11835760
-0.45622480 0.04961634 -0.18832663
-0.63466787 -0.32437342 -0.21880519
-0.07877427 -0.26327580 0.00000087
-0.21920756 0.27078512 0.06867472
-0.07597493 -0.27777463 0.00000085
-0.59693098 -0.64113140 0.17317244
-0.24259648 -0.27127287 -0.00000014
-0.40955964 -0.64129937 -0.00000208
-0.45161632 -0.29031166 0.16127069
-0.21315160 0.46627632 -0.09703260
-0.34486800 -0.66356415 -0.00000174
-0.42964986 0.12530218 -0.19451262
-0.15542479 -0.13817303 0.00000072
-0.44853312 -0.28282467 -0.00000720
-0.52398330 -0.65671372 -0.00000280
-0.05295835 0.19386841 -0.00000652
-0.02184791 -0.78650969 -0.00000010
-0.05110463 -0.39285460 0.00000071
-0.60617703 -0.66345286 0.17129339
-0.03814531 -0.45844576 0.00000062
-0.55096024 -0.53014338 0.00476716
-0.00872526 -0.33209726 0.00000112
-0.47070399 -0.27548265 -0.03266291
-0.40087494 -0.06602812 -0.05459238
-0.07630242 -0.13299076 0.00000121
-0.40112969 -0.62643600 -0.00000199
-0.61622214 -0.46077052 -0.12173481
-0.05790885 -0.09748579 0.00000141
-0.51687878 -0.44786546 0.05802768
-0.61343408 -0.68097240 0.19981395
-0.22567268 -0.19927861 0.00000014
-0.54543823 -0.00859479 -0.27264953
-0.40779406 -0.69396913 -0.00000220
-0.31274772 -0.67433983 -0.00000157
-0.49966061 -0.63956755 -0.00000261
-0.17060274 -0.48343658 -0.00000024
-0.11787402 -0.40694740 0.00000027
-0.33973771 0.00497392 -0.01349350
-0.03938931 -0.23868737 0.00000117
-0.28032374 -0.63681418 -0.00000128
-0.29977036 0.07627433 0.28792861
