ply
format ascii 1.0
element vertex 1206
property float x
property float y
property float z
end_header
-0.42258781 0.25575304 0.00000141
-0.69998682 -0.43744528 -0.00000067
-0.67300069 -0.70589942 -0.00000018
-0.63447654 -0.03573251 -0.00000038
-0.39067522 -0.77883422 0.00000007
-0.73633504 -0.75979912 -0.00000010
-0.46155986 -0.16570331 0.00000139
-0.58122402 -0.27635154 0.00000034
-0.71992624 -0.36732727 0.21092847
-0.61872452 -0.66982293 0.00000031
-0.20831986 -0.06501246 0.00000230
-0.71788734 -0.68844432 -0.00000028
-0.34954792 -0.33960623 0.00000144
-0.17607492 -0.19843641 0.00000188
-0.38902757 0.05229723 0.00000190
-0.42676213 -0.45460016 0.00000108
-0.23107989 0.45054996 0.00000308
-0.27167124 -0.49584186 0.00000095
-0.40600190 -0.02486127 0.00000180
-0.39854479 -0.06516833 0.00000191
-0.33331209 -0.29913026 0.00000157
-0.01371375 -0.49017146 0.00000097
-0.24754465 -0.59012473 0.00000066
-0.69425815 -0.41973647 0.16865851
-0.76242191 -0.42295891 -0.00000094
-0.28691348 -0.78578752 0.00000004
-0.01033066 0.52849668 -0.00000049
-0.71254653 -0.35530621 -0.00000086
-0.33933043 0.12103191 0.00000232
-0.71292537 -0.73288637 -0.00000017
-0.11184795 0.11391540 -0.00000654
-0.31209391 0.44681385 0.00000230
-0.12788120 0.15319921 -0.00000527
-0.50747073 -0.77078283 0.00000009
-0.12604649 0.51317227 0.00000403
-0.78289258 -0.35119039 -0.00000112
-0.16937611 0.48341554 0.00000364
-0.15098076 -0.62276393 0.00000055
-0.31411880 0.02118151 -0.00000302
-0.09334840 -0.59024274 0.00000066
-0.49132276 0.05237412 0.00000092
-0.23894253 0.55985677 0.00000292
-0.70052975 -0.23040041 -0.00000085
-0.44665560 0.09512452 0.00000131
-0.64807278 -0.65318477 0.00000002
-0.08739093 0.21351250 -0.00000509
-0.35217249 -0.39979479 0.00000125
-0.30094403 -0.70428890 0.00000030
-0.67668521 -0.32358965 -0.00000054
-0.21298549 0.21111399 -0.00000173
-0.20491146 -0.38115558 0.00000131
-0.16547786 -0.43413287 0.00000114
-0.07707032 -0.37202480 0.00000134
-0.13185532 -0.59215486 0.00000065
-0.40868577 -0.49789387 0.00000094
-0.04181866 -0.72185576 0.00000024
-0.55887002 -0.07786154 0.00000038
-0.22736770 0.33162066 0.00000322
-0.74985695 -0.35128760 -0.00000112
-0.38084656 -0.63691598 0.00000051
-0.30859199 -0.36506915 0.00000136
-0.08057813 -0.49292341 0.00000096
-0.42006129 -0.78621310 0.00000004
-0.48051023 -0.22785179 0.00000126
-0.55668741 -0.07007922 0.00000040
-0.45268014 0.19887745 0.00000117
-0.42165229 -0.50820887 0.00000091
-0.35263765 0.31305090 0.00000203
-0.18028063 0.11758452 -0.00000460
-0.62228340 -0.29377487 -0.00000004
-0.78954732 -0.03449347 -0.00000187
-0.35860360 -0.24364316 0.00000174
-0.63558298 -0.40983382 -0.00000007
-0.07117375 0.43234894 -0.00000088
-0.01953837 0.39600530 -0.00000305
-0.24493895 -0.21624438 0.00000182
-0.59025031 -0.54798436 0.00000048
-0.03569547 0.55072534 0.00000067
-0.28685588 0.36489627 0.00000262
-0.61615819 -0.11003848 0.21343037
-0.73991227 -0.48747960 -0.00000078
-0.18375996 -0.52703881 0.00000085
-0.74971801 -0.70615846 0.11228917
-0.25630116 -0.67206627 0.00000040
-0.75418353 -0.05460915 -0.00000151
-0.33079937 0.20786315 0.00000233
-0.16031425 0.15376221 -0.00000438
-0.02040221 -0.66149890 0.00000043
-0.53275669 -0.45469931 0.00000095
-0.08829974 0.55223459 0.00000213
-0.20647828 -0.61689126 0.00000057
-0.39165729 0.30606481 0.00000166
-0.13584973 -0.37891766 0.00000132
-0.64942271 -0.57959092 -0.00000006
-0.73185706 -0.58164960 -0.00000055
-0.42605504 -0.70244759 0.00000030
-0.18676853 -0.23136887 0.00000178
-0.32482767 0.42843825 0.00000220
-0.28646687 0.07010731 -0.00000273
-0.50339860 -0.29557389 0.00000110
-0.38386485 -0.47174534 0.00000103
-0.31591436 -0.72479182 0.00000024
-0.67527580 -0.39573914 -0.00000046
-0.07383032 -0.16444907 0.00000199
-0.62669414 -0.49418998 0.00000009
-0.57764572 -0.51886982 0.00000058
-0.18109646 -0.30096886 0.00000156
-0.58160400 -0.75811785 0.00000013
-0.46652693 -0.23942566 0.00000141
-0.47816741 0.12544172 0.00000098
-0.57518423 -0.52094191 0.00000060
-0.16451314 -0.46909097 0.00000103
-0.76346898 -0.50943393 -0.00000073
-0.41464034 0.07932000 0.00000163
-0.16407508 -0.53602374 0.00000082
-0.41793901 -0.46579623 0.00000104
-0.25186074 -0.42636612 0.00000117
-0.15414263 -0.04457300 0.00000236
-0.73288435 -0.80404371 0.06109501
-0.18129393 -0.06379997 0.00000230
-0.72456503 -0.21193051 -0.00000109
-0.59551001 -0.01147137 0.23143283
-0.16187833 -0.69028521 0.00000034
-0.18542406 0.26040035 -0.00000143
-0.48543447 -0.31001255 0.00000128
-0.54088324 -0.14959124 0.00000062
-0.01860068 -0.46741351 0.00000104
-0.33469898 0.09275642 0.00000239
-0.04446351 0.08869543 -0.00000891
-0.15556939 -0.38626522 0.00000129
-0.59811264 0.09810727 -0.00000015
-0.39408591 -0.42272079 0.00000118
-0.59451157 -0.72613811 0.00000023
-0.64120120 -0.70866889 0.00000013
-0.03487273 -0.57831275 0.00000069
-0.71122968 -0.25095642 -0.00000093
-0.66808075 0.00707694 -0.00000074
-0.48848927 -0.03162825 0.00000102
-0.20651174 -0.53102607 0.00000084
-0.43504044 -0.39976683 0.00000125
-0.58903217 0.12051335 -0.00000008
-0.63721693 -0.22039646 0.19143471
-0.00607513 0.58101112 0.00000051
-0.00991927 0.21851774 -0.00000709
-0.46457201 -0.17015254 0.00000137
-0.49721658 0.01705898 0.00000089
-0.12833102 0.43911937 0.00000082
-0.16712151 -0.58482569 0.00000067
-0.00683260 -0.10283684 0.00000222
-0.20019066 -0.75322372 0.00000015
-0.15167066 0.32586765 -0.00000096
-0.18445250 -0.75332534 0.00000015
-0.05864079 0.13364013 -0.00000757
-0.15709276 0.64221120 0.00000363
-0.24451722 0.28016502 0.00000310
-0.76016575 -0.21593636 -0.00000143
-0.14098693 -0.63781905 0.00000051
-0.09417072 -0.17844175 0.00000194
-0.56561220 -0.28990725 0.00000050
-0.02493503 0.50269961 -0.00000064
-0.23604389 -0.05061510 0.00000234
-0.20361640 -0.28608042 0.00000161
-0.72447532 -0.43744698 -0.00000090
-0.01084705 0.29243240 -0.00000549
-0.12943634 0.22757716 -0.00000365
-0.48449880 0.21319909 0.00000085
-0.64555603 -0.21947296 -0.00000033
-0.30685243 -0.01001895 0.00000247
-0.45701486 -0.75212681 0.00000015
-0.19039904 -0.30315587 0.00000155
-0.22487570 -0.05255843 0.00000234
-0.37228426 -0.12095641 0.00000212
-0.10839287 0.17565261 -0.00000532
-0.09609378 0.30730349 -0.00000286
-0.13837145 -0.35270309 0.00000140
-0.06067163 -0.02060098 0.00000244
-0.51108038 -0.69712061 0.00000032
-0.44736779 0.05361107 0.00000134
-0.45004773 -0.40912944 0.00000122
-0.77057654 -0.69852459 -0.00000025
-0.00796999 -0.41159114 0.00000126
-0.37199423 0.29258683 0.00000186
-0.74055499 -0.01833838 -0.00000141
-0.26613134 -0.73292863 0.00000021
-0.38669339 -0.55820417 0.00000076
-0.39884546 -0.49538082 0.00000095
-0.26957697 -0.22392549 0.00000180
-0.55794746 0.21322361 0.00000014
-0.73264295 -0.61018854 -0.00000047
-0.47560146 -0.05446691 0.00000116
-0.29317313 0.03523302 -0.00000329
-0.21014085 -0.07473152 0.00000227
-0.20670411 -0.60139352 0.00000062
-0.03385964 0.70951337 0.00000400
-0.39889237 -0.40069860 0.00000125
-0.41527936 -0.40613040 0.00000123
-0.52047104 -0.29947883 0.00000094
-0.04870552 -0.71385771 0.00000027
-0.24029253 0.08355635 -0.00000370
-0.65423238 -0.03656863 -0.00000057
-0.26965234 -0.72432381 0.00000024
-0.25933990 0.23667619 0.00000299
-0.62462580 -0.12296237 0.21620899
-0.07039370 -0.34126392 0.00000143
-0.42472649 0.05281717 0.00000156
-0.15776847 0.49094239 0.00000375
-0.38891858 -0.08748157 0.00000202
-0.41666445 -0.58487028 0.00000067
-0.70276469 -0.57656115 0.11829131
-0.72296929 -0.55775309 0.14326893
-0.41761401 0.10475204 0.00000158
-0.42564520 -0.28407350 0.00000161
-0.20281957 0.47092068 0.00000333
-0.49883324 -0.69932437 0.00000031
-0.11095793 -0.02625744 0.00000242
-0.58938235 -0.19507249 0.00000019
-0.51423401 0.21863768 0.00000056
-0.44583613 0.31110138 0.00000114
-0.65628576 -0.14391667 -0.00000050
-0.60283178 -0.72101068 0.00000025
-0.56441694 -0.33228922 0.00000055
-0.19485590 -0.46527371 0.00000105
-0.40953615 -0.14929302 0.00000188
-0.51933020 -0.63063216 0.00000053
-0.29929927 -0.31997269 0.00000150
-0.19613633 -0.60070473 0.00000062
-0.68313837 -0.25015602 0.22140817
-0.33833537 0.43928212 0.00000206
-0.13131630 0.25674340 -0.00000298
-0.24645396 -0.24770048 0.00000173
-0.17913453 0.61014068 0.00000344
-0.12950374 0.62332374 0.00000391
-0.53391516 0.13414815 0.00000044
-0.16477437 -0.24475162 0.00000174
-0.41703558 -0.41470605 0.00000120
-0.41467202 -0.44935793 0.00000110
-0.00304061 -0.00224534 0.00000249
-0.57202077 -0.49524933 0.00000061
-0.14721867 0.49795040 0.00000384
-0.75678796 -0.80050778 0.08372891
-0.17110859 -0.41083977 0.00000122
-0.33969665 -0.53130496 0.00000084
-0.06847513 -0.34768978 0.00000141
-0.03705875 0.46721402 -0.00000107
-0.67172939 -0.23666213 -0.00000057
-0.11976016 -0.51130193 0.00000090
-0.33234897 -0.56904060 0.00000072
-0.23928265 0.42983127 0.00000302
-0.75695831 -0.04648834 -0.00000155
-0.04919992 0.16482253 -0.00000716
-0.60271770 -0.06717756 0.21727851
-0.28709057 -0.47682452 0.00000101
-0.36248013 0.05714728 0.00000215
-0.71363336 -0.47246748 -0.00000077
-0.71172053 -0.13412222 -0.00000104
-0.39659375 0.16403292 0.00000173
-0.53015822 -0.03299564 0.00000062
-0.65561855 -0.21906492 -0.00000043
-0.19746438 -0.77142125 0.00000009
-0.26582834 0.46066448 0.00000274
-0.13848086 -0.39166182 0.00000128
-0.38011357 -0.39469972 0.00000127
-0.13945980 -0.35958216 0.00000138
-0.66278368 -0.23610234 0.20844129
-0.45175943 -0.60256755 0.00000062
-0.24312140 0.51410979 0.00000291
-0.40667978 -0.05474346 0.00000182
-0.11413207 0.22528236 -0.00000411
-0.62047625 -0.21928453 -0.00000009
-0.20786586 -0.56332612 0.00000074
-0.08965915 -0.09195899 0.00000221
-0.38734242 0.30810872 0.00000170
-0.57888573 -0.18163723 0.00000028
-0.12512052 -0.73594803 0.00000020
-0.49591804 -0.20073301 0.00000109
-0.16163981 -0.53050166 0.00000084
-0.75647837 -0.11158290 -0.00000149
-0.00173012 0.29978907 -0.00000558
-0.75697422 -0.04506001 -0.00000155
-0.55258495 -0.00765592 0.00000038
-0.25954857 -0.53353566 0.00000083
-0.08755602 -0.02380414 0.00000243
-0.68725330 -0.28147608 0.21350479
-0.31674072 -0.60009098 0.00000062
-0.68158209 -0.39351815 -0.00000053
-0.18368341 -0.47788092 0.00000101
-0.05294097 0.72552520 0.00000456
-0.02663919 0.52439785 -0.00000013
-0.25778747 0.04833893 -0.00000397
-0.14576374 0.52967924 0.00000383
-0.35788345 -0.41674545 0.00000120
-0.13315459 -0.30019894 0.00000156
-0.14561878 -0.06938792 0.00000228
-0.58191437 -0.20927669 0.00000027
-0.44371256 -0.63418114 0.00000052
-0.03880265 -0.33448958 0.00000145
-0.51930070 -0.20482785 0.00000087
-0.69293487 -0.46517348 0.15068594
-0.08624927 -0.76082814 0.00000012
-0.03660157 -0.25829500 0.00000169
-0.00213443 -0.34664461 0.00000142
-0.64551073 0.11639043 -0.00000062
-0.00635573 -0.54377121 0.00000080
-0.68730283 -0.76588744 -0.00000009
-0.60490197 -0.64195275 0.00000042
-0.44577521 -0.30231243 0.00000156
-0.36041445 0.39653936 0.00000188
-0.11442180 -0.12267468 0.00000212
-0.09792051 -0.18246768 0.00000193
-0.60176587 0.01921843 -0.00000011
-0.78564250 -0.71669388 -0.00000021
-0.14392579 0.51778442 0.00000386
-0.39716491 0.10352005 0.00000178
-0.51526928 -0.54879224 0.00000079
-0.24377903 -0.64244097 0.00000049
-0.63126421 -0.28813821 -0.00000013
-0.08097395 -0.45179293 0.00000109
-0.23203802 -0.46051842 0.00000106
-0.77572441 -0.45892599 -0.00000085
-0.61471653 -0.74606717 0.00000017
-0.27407283 -0.78614104 0.00000004
-0.33343557 0.41614547 0.00000213
-0.60467356 -0.29463375 0.00000013
-0.62468570 0.09934184 -0.00000040
-0.33909357 0.32179013 0.00000215
-0.16917956 0.34309015 -0.00000011
-0.02854294 -0.71573222 0.00000026
-0.46458796 0.24736515 0.00000101
-0.52852267 -0.32999098 0.00000089
-0.06518781 -0.05108917 0.00000234
-0.72787166 -0.62118536 0.12420059
-0.65118206 -0.26310191 0.18811211
-0.67616355 -0.36923525 0.17117772
-0.37572932 0.29873797 0.00000182
-0.20331271 0.48192501 0.00000332
-0.05064039 0.40380886 -0.00000204
-0.04316782 -0.28253603 0.00000162
-0.06804584 -0.37285480 0.00000133
-0.22544236 -0.09749335 0.00000220
-0.01558420 -0.76501149 0.00000011
-0.25479683 -0.05045247 0.00000234
-0.10138425 -0.15204176 0.00000202
-0.67685235 -0.30812883 0.19437502
-0.72386730 -0.59170270 0.13152356
-0.00021259 0.29800203 -0.00000566
-0.16517556 0.55134773 0.00000363
-0.50886065 -0.12266131 0.00000090
-0.34528029 -0.56637287 0.00000073
-0.51986313 0.27240908 0.00000046
-0.34648812 0.25599831 0.00000214
-0.43577039 -0.33782455 0.00000144
-0.10992829 0.49116662 0.00000142
-0.72343349 -0.49964476 0.16515788
-0.73931479 0.05880911 -0.00000145
-0.07461626 -0.72437251 0.00000024
-0.33435518 -0.73015189 0.00000022
-0.15298226 -0.44422522 0.00000111
-0.72072709 -0.39622682 0.20096278
-0.02069207 -0.73026437 0.00000022
-0.52544385 0.08630367 0.00000056
-0.33979148 -0.44595125 0.00000111
-0.35266170 -0.24380797 0.00000174
-0.49509725 -0.20923063 0.00000111
-0.27743012 -0.74506187 0.00000017
-0.25526223 -0.70275414 0.00000030
-0.06639613 -0.18634793 0.00000192
-0.64407730 -0.36069679 -0.00000020
-0.19110096 -0.26575482 0.00000167
-0.54454720 -0.39261499 0.00000079
-0.19675609 0.16968897 -0.00000305
-0.63321757 -0.24261630 -0.00000019
-0.18318465 -0.75033778 0.00000016
-0.58899492 -0.46452111 0.00000042
-0.44855544 0.00769868 0.00000137
-0.22962815 0.32027525 0.00000320
-0.16218393 0.14269990 -0.00000456
-0.62654704 0.14629002 -0.00000046
-0.72299576 -0.39766419 0.20245568
-0.25422776 0.31339979 0.00000297
-0.29630861 -0.29523093 0.00000158
-0.46467569 0.03124570 0.00000119
-0.41895744 0.08990809 0.00000158
-0.25832444 0.30155182 0.00000294
-0.14180689 0.11779936 -0.00000565
-0.68740529 0.05619341 -0.00000097
-0.67072654 -0.42563170 -0.00000040
-0.64375412 -0.16881603 -0.00000036
-0.78284335 -0.09518227 -0.00000175
-0.29413289 -0.01208278 0.00000246
-0.24660125 0.19000472 -0.00000126
-0.00656155 -0.19144514 0.00000194
-0.20276149 -0.53012234 0.00000084
-0.25704542 -0.49638525 0.00000095
-0.64461112 -0.74644643 0.00000013
-0.10733739 0.36659071 -0.00000129
-0.45109496 0.12972964 0.00000124
-0.11128851 -0.56971776 0.00000072
-0.10672662 -0.44771147 0.00000110
-0.19189531 -0.09771808 0.00000219
-0.18446834 -0.20300904 0.00000187
-0.30449465 0.13925029 0.00000264
-0.18158495 0.03206176 -0.00000639
-0.56446767 -0.18661819 0.00000042
-0.71299684 -0.14885606 -0.00000104
-0.62774640 -0.46757066 0.00000005
-0.44334379 -0.55615962 0.00000076
-0.42467403 0.22902763 0.00000141
-0.29783154 -0.48688585 0.00000098
-0.18058239 -0.21983577 0.00000181
-0.28687716 0.04571126 -0.00000324
-0.62036014 -0.41230685 0.00000008
-0.59535730 -0.08020787 0.00000003
-0.07892379 -0.19799176 0.00000188
-0.10501153 0.17682470 -0.00000539
-0.66404074 -0.05515370 -0.00000065
-0.38515031 -0.62667412 0.00000054
-0.02621380 -0.44159666 0.00000112
-0.27355736 0.12120346 -0.00000199
-0.45674732 0.31218985 0.00000103
-0.37266031 0.19329345 0.00000194
-0.52067107 -0.59328282 0.00000065
-0.14405699 -0.70960385 0.00000028
-0.16978709 0.46545774 0.00000365
-0.17032696 -0.26191491 0.00000168
-0.42629799 -0.57775807 0.00000069
-0.29816943 -0.66577929 0.00000042
-0.34542981 0.21891589 0.00000218
-0.05614529 -0.65740252 0.00000045
-0.25744459 0.07734657 -0.00000336
-0.71796763 -0.11110202 -0.00000112
-0.39138946 0.36252844 0.00000161
-0.55753404 0.23880556 0.00000012
-0.33099183 0.07735607 0.00000244
-0.05848386 -0.12166478 0.00000212
-0.64535606 0.03377363 -0.00000054
-0.45975229 -0.42212117 0.00000118
-0.14668065 0.14002489 -0.00000504
-0.24967028 0.54767150 0.00000284
-0.05199082 -0.41671857 0.00000120
-0.45249635 -0.11977897 0.00000144
-0.65574145 -0.68203664 -0.00000003
-0.04537530 -0.70934945 0.00000028
-0.74028486 -0.42281502 -0.00000094
-0.47962022 -0.71714908 0.00000026
-0.13264208 -0.61989194 0.00000056
-0.22740369 0.22435471 -0.00000106
-0.61866921 0.02602948 0.26595631
-0.76004118 -0.22564952 -0.00000142
-0.33925790 0.41651547 0.00000207
-0.16553116 0.10286116 -0.00000532
-0.09484040 -0.15039504 0.00000203
-0.74326277 -0.64354247 0.12967034
-0.50482678 -0.27230826 0.00000107
-0.29510269 -0.38867474 0.00000129
-0.24145430 -0.79466337 0.00000002
-0.27066779 -0.23121077 0.00000178
-0.02973768 0.22978780 -0.00000631
-0.00965609 0.35836098 -0.00000412
-0.17294727 -0.25814739 0.00000169
-0.08807218 0.49993733 0.00000102
-0.10492145 -0.62064403 0.00000056
-0.04679291 -0.06528691 0.00000230
-0.16091552 0.47738743 0.00000373
-0.55111283 -0.58526123 0.00000067
-0.76972860 -0.62291187 -0.00000044
-0.73028839 -0.64155525 -0.00000040
-0.75524306 -0.17000769 -0.00000143
-0.76183897 -0.01222652 -0.00000162
-0.73991746 -0.77187091 0.07925999
-0.10377374 -0.32665908 0.00000148
-0.69822210 -0.28443745 0.22219689
-0.63986319 0.09018802 -0.00000054
-0.58187658 -0.10646236 0.00000019
-0.16363788 -0.51588190 0.00000089
-0.03191499 0.25720736 -0.00000567
-0.31868121 -0.50531757 0.00000092
-0.28795767 -0.00021631 0.00000250
-0.50467306 0.12212659 0.00000073
-0.09428761 -0.40906355 0.00000122
-0.58928710 -0.26838866 0.00000025
-0.42784059 -0.78666431 0.00000004
-0.48049888 -0.02551063 0.00000109
-0.70851511 -0.47364727 -0.00000072
-0.35961574 -0.79289764 0.00000002
-0.13287298 0.34236303 -0.00000112
-0.38713691 -0.06730500 0.00000202
-0.73518646 -0.74916846 -0.00000013
-0.22100158 -0.16785482 0.00000198
-0.52260327 -0.00995012 0.00000067
-0.43010983 0.19317956 0.00000139
-0.75626916 -0.46089312 -0.00000085
-0.00279231 -0.31792384 0.00000152
-0.61269301 -0.34579822 0.00000009
-0.72166806 -0.58495462 0.13205522
-0.03484546 0.01227893 -0.00001079
-0.63965660 -0.40781444 -0.00000011
-0.32319576 -0.12533586 0.00000211
-0.13884149 -0.47325051 0.00000102
-0.63585800 -0.62931567 0.00000011
-0.05244868 -0.64630622 0.00000048
-0.66296184 -0.07030042 0.26987472
-0.50635415 -0.43848729 0.00000113
-0.26968282 0.51949781 0.00000265
-0.20138070 -0.00682141 0.00000248
-0.51807541 -0.51570308 0.00000089
-0.00529912 0.69525009 0.00000292
-0.30849293 -0.55938643 0.00000075
-0.30588865 0.40729880 0.00000240
-0.09804407 0.47108719 0.00000067
-0.32090366 0.03731360 0.00000257
-0.48641273 -0.50129455 0.00000093
-0.62812358 -0.51179254 0.00000009
-0.16383792 -0.28303468 0.00000162
-0.34208897 0.27357018 0.00000216
-0.24866077 -0.15193035 0.00000203
-0.77033699 -0.63166869 -0.00000042
-0.07700964 0.19985861 -0.00000566
-0.26705179 0.47439855 0.00000271
-0.06823388 0.08595196 -0.00000832
-0.69609326 -0.29765967 0.21541105
-0.68524921 0.05150335 -0.00000094
-0.30330643 -0.05371791 0.00000233
-0.20278633 -0.58447349 0.00000067
-0.16973178 -0.73928660 0.00000019
-0.67088699 -0.38195464 -0.00000043
-0.59497041 -0.62643081 0.00000050
-0.01323682 -0.74315423 0.00000018
-0.49062696 -0.56303412 0.00000074
-0.36363307 -0.61456984 0.00000058
-0.70960653 -0.23240234 -0.00000093
-0.20737416 -0.25558743 0.00000170
-0.72806937 -0.08526927 -0.00000124
-0.70418453 -0.79649365 -0.00000001
-0.73781133 -0.73352903 -0.00000017
-0.42550293 -0.18460596 0.00000175
-0.64641559 -0.61940402 0.00000000
-0.73612267 -0.06948121 -0.00000133
-0.22191051 0.49602294 0.00000313
-0.63133287 -0.26191932 -0.00000016
-0.32611942 0.15793514 0.00000242
-0.58208698 -0.09743729 0.00000018
-0.73183066 0.05341330 -0.00000139
-0.19972999 -0.07306079 0.00000227
-0.14532918 0.45659247 0.00000390
-0.09763918 -0.78141868 0.00000006
-0.59903800 -0.34229493 0.00000022
-0.22843266 -0.14339428 0.00000205
-0.12895422 0.03046317 -0.00000785
-0.43605229 -0.15890568 0.00000163
-0.06552248 0.57671237 0.00000203
-0.56529087 -0.39837873 0.00000059
-0.67800260 -0.15241601 0.25294724
-0.54991657 -0.36729628 0.00000071
-0.69093812 -0.16300651 -0.00000081
-0.15288635 -0.19696780 0.00000188
-0.66391134 -0.11299810 0.25494233
-0.14712507 -0.14708850 0.00000204
-0.63022906 -0.07455880 -0.00000031
-0.34590057 0.39473349 0.00000202
-0.68612295 -0.43735626 0.15488850
-0.21068528 -0.00269770 0.00000249
-0.01568191 0.00674726 -0.00001143
-0.51683646 -0.22958268 0.00000091
-0.29076090 -0.21450993 0.00000183
-0.32508844 0.27841279 0.00000232
-0.72828674 -0.78010798 0.06583874
-0.25881246 -0.25029272 0.00000172
-0.62833005 -0.55644155 0.00000012
-0.31190857 -0.62135154 0.00000056
-0.31383267 -0.31418857 0.00000152
-0.55652940 -0.70742327 0.00000029
-0.61536664 -0.68134844 0.00000035
-0.61526895 -0.06571415 0.22901767
-0.70633131 -0.38771060 0.19126596
-0.10063495 0.45052695 0.00000031
-0.39195213 0.32700610 0.00000164
-0.50838441 -0.15800279 0.00000093
-0.73241007 -0.62448257 -0.00000044
-0.59932250 -0.47926855 0.00000034
-0.64144605 -0.06290815 0.25341010
-0.19092520 -0.02816645 0.00000241
-0.25906652 0.43198717 0.00000283
-0.48108590 0.07822124 0.00000100
-0.49293399 -0.49359936 0.00000096
-0.34086803 -0.45107234 0.00000109
-0.57614917 -0.03209604 0.00000018
-0.08826541 0.04769916 -0.00000859
-0.35802239 -0.39546973 0.00000126
-0.26165193 -0.68335527 0.00000036
-0.70439589 0.01162130 -0.00000109
-0.57454628 -0.50951403 0.00000060
-0.24049446 -0.52520192 0.00000086
-0.65846258 -0.18467483 -0.00000048
-0.62951338 0.16880043 -0.00000051
-0.22187535 0.51609689 0.00000311
-0.64803541 -0.37341568 -0.00000022
-0.35735139 -0.11809532 0.00000213
-0.36491740 -0.39035997 0.00000128
-0.09671437 -0.41257003 0.00000121
-0.06835605 -0.46426600 0.00000105
-0.51547104 -0.76917356 0.00000010
-0.22983617 0.03215071 -0.00000507
-0.66581607 -0.50510204 -0.00000028
-0.42215469 -0.69496119 0.00000033
-0.42440167 -0.38969788 0.00000128
-0.62395412 -0.43907645 0.00000006
-0.62953013 -0.39810318 -0.00000002
-0.04134678 -0.77752596 0.00000007
-0.15564048 -0.38614398 0.00000129
-0.56973654 0.08535667 0.00000014
-0.36717713 -0.66140038 0.00000043
-0.30152628 0.16005222 0.00000265
-0.37180781 0.06503940 0.00000206
-0.05948398 -0.23698054 0.00000176
-0.71595836 -0.71871811 -0.00000020
-0.46493918 -0.73706537 0.00000020
-0.72156876 -0.57308376 0.13635370
-0.31022489 -0.01497523 0.00000245
-0.53965199 -0.09481828 0.00000058
-0.67385197 0.10486248 -0.00000088
-0.06359843 -0.76055378 0.00000012
-0.07818090 -0.01502127 0.00000245
-0.62982804 -0.77888668 0.00000007
-0.03482082 0.10115197 -0.00000890
-0.63190883 -0.35413983 -0.00000008
-0.64518368 -0.10102916 0.24265665
-0.53290647 -0.35384735 0.00000087
-0.39713031 0.11233553 0.00000177
-0.47068396 -0.20537256 0.00000134
-0.18598945 -0.01891922 0.00000244
-0.02218985 0.17228198 -0.00000774
-0.62714702 -0.49291903 0.00000008
-0.17351286 0.17250957 -0.00000362
-0.53952378 -0.46102974 0.00000089
-0.04562742 0.25037619 -0.00000544
-0.07981633 0.02872296 -0.00000922
-0.05396928 0.03162866 -0.00000986
-0.26492977 -0.43433443 0.00000114
-0.34852180 -0.12510626 0.00000211
-0.33053169 -0.52334726 0.00000086
-0.64214021 -0.13837057 0.22614118
-0.63044351 -0.62284040 0.00000016
-0.00066096 -0.21741870 0.00000182
-0.42783076 -0.34296292 0.00000143
-0.03511698 0.36187583 -0.00000336
-0.05506158 -0.53039026 0.00000084
-0.13321736 0.09729401 -0.00000631
-0.58079529 -0.15530556 0.00000024
-0.18147381 -0.43913290 0.00000113
-0.70559603 -0.71785253 -0.00000021
-0.39755505 -0.78179437 0.00000006
-0.00061695 -0.56267685 0.00000075
-0.59147900 0.06053544 -0.00000005
-0.09829182 -0.69558871 0.00000033
-0.29539603 0.12321383 0.00000274
-0.00299118 -0.76146412 0.00000014
-0.40761930 -0.72540247 0.00000023
-0.41903070 -0.25458807 0.00000170
-0.03224679 0.39635497 -0.00000270
-0.51505905 -0.11897282 0.00000084
-0.40092152 0.13065259 0.00000172
-0.21090759 -0.35641426 0.00000139
-0.03510163 0.04340977 -0.00001012
-0.41715395 0.16029944 0.00000154
-0.33096805 -0.27031994 0.00000166
-0.69997883 -0.22058943 -0.00000085
-0.32384673 0.38239416 0.00000225
-0.01437508 0.51202005 -0.00000073
-0.23638327 0.09678652 -0.00000352
-0.58702177 -0.04045765 0.00000008
-0.73680204 -0.58174020 0.14674591
-0.36179787 -0.40201008 0.00000124
-0.02099726 -0.04611400 0.00000236
-0.10257520 -0.22325382 0.00000180
-0.79301494 -0.54311574 -0.00000064
-0.63733166 -0.52978516 0.00000001
-0.32472178 -0.52936047 0.00000085
-0.35517085 0.01884048 0.00000226
-0.30541205 -0.62257993 0.00000055
-0.60611129 -0.19731121 0.00000003
-0.13567701 -0.51075888 0.00000090
-0.79513180 -0.74541491 -0.00000014
-0.04800086 0.27905387 -0.00000477
-0.07929607 0.64724165 0.00000437
-0.62626296 -0.02293961 -0.00000031
-0.09989071 -0.24909753 0.00000172
-0.16254349 -0.57511669 0.00000070
-0.65742350 -0.48873439 -0.00000021
-0.12556820 -0.52935368 0.00000085
-0.73313665 -0.64464676 -0.00000039
-0.62649781 0.12586603 -0.00000044
-0.71187085 -0.42751035 0.18149981
-0.69261539 -0.52587676 -0.00000052
-0.78651816 -0.17905989 -0.00000155
-0.20815627 -0.18765843 0.00000191
-0.04433754 0.43466821 -0.00000156
-0.14557248 -0.50136733 0.00000093
-0.16474941 0.40103707 0.00000100
-0.15645938 0.31815010 -0.00000099
-0.29009199 -0.18235219 0.00000193
-0.73678190 -0.66285896 -0.00000034
-0.42972395 -0.55144012 0.00000078
-0.33378023 -0.70673472 0.00000029
-0.65429133 -0.34753186 0.15968391
-0.05925713 0.65306836 0.00000349
-0.79932725 -0.76780540 -0.00000008
-0.13001125 0.44400877 0.00000097
-0.00241472 0.29597121 -0.00000565
-0.36724809 0.18402120 0.00000200
-0.23268887 -0.25940827 0.00000169
-0.13012531 0.32416373 -0.00000158
-0.22980019 0.31986621 0.00000320
-0.23660284 0.03776687 -0.00000477
-0.53847027 -0.10073146 0.00000060
-0.71828508 -0.37069473 -0.00000090
-0.32791483 -0.44543871 0.00000111
-0.69236630 -0.23278467 0.23606130
-0.03319249 -0.78425372 0.00000005
-0.64480430 -0.31423697 -0.00000024
-0.69883776 -0.65771186 -0.00000036
-0.58157790 -0.33411679 0.00000038
-0.47117230 0.21372212 0.00000098
-0.45485729 -0.56253505 0.00000074
-0.59627533 0.07551552 -0.00000011
-0.47272167 0.31607190 0.00000087
-0.50824505 -0.41925725 0.00000116
-0.58032316 -0.03978474 0.00000014
-0.58717036 0.17347158 -0.00000010
-0.40518081 -0.73668283 0.00000020
-0.72572696 -0.21648800 -0.00000110
-0.12280652 -0.77004540 0.00000009
-0.50039601 0.11352979 0.00000078
-0.33806878 -0.23473489 0.00000177
-0.34177324 -0.43716499 0.00000113
-0.38997015 -0.28972861 0.00000159
-0.29947996 -0.25316316 0.00000171
-0.70761186 -0.21482445 -0.00000093
-0.13542482 -0.73264283 0.00000021
-0.27879721 -0.68309408 0.00000037
-0.74272418 -0.69783372 0.10912569
-0.63572884 -0.00073906 -0.00000042
-0.00262990 -0.68218988 0.00000038
-0.63740003 -0.24591756 -0.00000023
-0.22151163 0.31308424 0.00000329
-0.73234963 -0.68433666 0.10485741
-0.50551289 -0.01734639 0.00000084
-0.57566786 -0.07922480 0.00000022
-0.47732136 -0.78974426 0.00000003
-0.24517570 0.51515949 0.00000289
-0.49574393 -0.28218266 0.00000116
-0.64315969 -0.30883729 0.16405231
-0.57604706 0.09873908 0.00000007
-0.47194454 -0.68214941 0.00000037
-0.11238350 0.26829806 -0.00000325
-0.46981758 -0.18836689 0.00000133
-0.00266481 -0.17098311 0.00000197
-0.39083996 -0.62500948 0.00000055
-0.70264792 -0.39450705 0.18546785
-0.39745677 -0.75691634 0.00000013
-0.79503810 -0.31193879 -0.00000122
-0.00253635 0.48865566 -0.00000155
-0.14307255 -0.40181389 0.00000124
-0.65602583 -0.03458981 -0.00000059
-0.23673233 -0.76157367 0.00000012
-0.28031310 0.35709491 0.00000269
-0.41605368 -0.57829249 0.00000069
-0.64019835 -0.39744669 -0.00000013
-0.64487958 0.14164387 -0.00000063
-0.45728207 0.14408216 0.00000117
-0.35858986 0.12320356 0.00000213
-0.39311671 0.39239097 0.00000157
-0.01609107 0.54165244 -0.00000005
-0.18368880 0.18250553 -0.00000313
-0.08692018 -0.33215153 0.00000146
-0.41013107 -0.74462807 0.00000017
-0.65180409 -0.40392047 -0.00000023
-0.59027034 0.11721263 -0.00000009
-0.57842034 -0.33304083 0.00000041
-0.19778597 0.43352258 0.00000341
-0.73234767 -0.61614358 -0.00000046
-0.46371284 -0.46641698 0.00000104
-0.18037358 -0.05518561 0.00000233
-0.38474190 0.39287832 0.00000165
-0.38074905 0.26370466 0.00000180
-0.31052917 0.11162744 0.00000260
-0.38297746 -0.55750638 0.00000076
-0.66970062 -0.11565814 0.25912455
-0.72644389 -0.34445637 -0.00000100
-0.71163529 -0.00504617 -0.00000115
-0.19828033 -0.18833745 0.00000191
-0.22097982 -0.66126001 0.00000043
-0.07725306 0.43879482 -0.00000058
-0.02098467 0.62143767 0.00000178
-0.23657542 0.53415883 0.00000295
-0.79783404 -0.02455711 -0.00000194
-0.56869882 -0.73966539 0.00000019
-0.26343238 0.00258005 -0.00000479
-0.08500574 0.49001604 0.00000072
-0.01077219 0.00318520 -0.00001164
-0.65110528 -0.71294624 0.00000004
-0.69417280 -0.12247189 0.27844074
-0.47042608 -0.27306354 0.00000140
-0.49244422 -0.45997146 0.00000106
-0.11454824 0.03179380 -0.00000821
-0.10073093 -0.26913214 0.00000166
-0.26728678 -0.30641121 0.00000154
-0.08265105 -0.54079747 0.00000081
-0.43867424 -0.52674580 0.00000085
-0.76718932 -0.06485151 -0.00000163
-0.68653995 -0.77334297 -0.00000007
-0.02162471 0.51870775 -0.00000039
-0.42632926 0.06183074 0.00000154
-0.54038888 0.07555013 0.00000043
-0.35386559 -0.56075674 0.00000075
-0.76174998 -0.42341673 -0.00000094
-0.43321395 -0.44460738 0.00000111
-0.42480364 -0.26656356 0.00000167
-0.01610062 -0.04416244 0.00000236
-0.38548070 -0.10577621 0.00000207
-0.48975992 -0.55628127 0.00000076
-0.66847473 -0.58874184 -0.00000024
-0.11873878 -0.19409081 0.00000189
-0.04057257 0.68982834 0.00000376
-0.67652643 -0.39595994 0.16162492
-0.06633386 -0.57844383 0.00000069
-0.35058701 -0.03906129 0.00000235
-0.33588779 -0.24940743 0.00000172
-0.39729312 -0.08604605 0.00000194
-0.14634117 0.00683465 -0.00000788
-0.18339343 0.08171521 -0.00000528
-0.45016125 0.16404136 0.00000122
-0.59712654 0.05550282 0.25762811
-0.17454544 -0.55329502 0.00000077
-0.09822735 0.12733439 -0.00000663
-0.03922249 -0.08329275 0.00000224
-0.26871273 0.46669137 0.00000270
-0.65025771 -0.26069567 -0.00000034
-0.27120370 -0.16035481 0.00000200
-0.65454149 -0.31027138 0.17367727
-0.73154712 -0.00787516 -0.00000134
-0.39836657 -0.09510964 0.00000194
-0.20212188 -0.01080919 0.00000247
-0.70465600 -0.61198771 -0.00000047
-0.14421187 -0.10381261 0.00000218
-0.17500465 0.18941595 -0.00000322
-0.31272587 0.27355516 0.00000245
-0.46556675 -0.07569528 0.00000128
-0.10030632 0.65122879 0.00000416
-0.74062216 -0.66190284 -0.00000035
-0.67342770 -0.30903918 -0.00000052
-0.60039347 -0.41611159 0.00000027
-0.26245445 -0.70769584 0.00000029
-0.29051197 -0.50334018 0.00000093
-0.29170451 0.39770871 0.00000254
-0.24440134 -0.07665118 0.00000226
-0.75948071 -0.67790955 -0.00000031
-0.66901100 -0.56855780 -0.00000026
-0.31339645 0.01411170 -0.00000319
-0.37567621 -0.04349423 0.00000211
-0.29325616 -0.53371722 0.00000083
-0.66638136 -0.26865515 0.19962078
-0.04983771 -0.07400608 0.00000227
-0.38948131 0.10805695 0.00000185
-0.69987673 -0.53077447 0.13263576
-0.47783709 -0.77112335 0.00000009
-0.40230489 -0.55736870 0.00000076
-0.66360062 -0.41216016 0.14410540
-0.44667703 0.34006178 0.00000110
-0.41676059 -0.39876959 0.00000125
-0.39533612 0.06514334 0.00000183
-0.58348393 0.07686881 0.25335228
-0.14193782 0.12788798 -0.00000543
-0.29723454 0.24175990 0.00000262
-0.39023322 -0.40329078 0.00000124
-0.67415023 -0.76105046 -0.00000010
-0.41107497 -0.68753427 0.00000035
-0.58994573 -0.31498450 0.00000029
-0.70468044 -0.62135535 -0.00000045
-0.53768075 -0.00986795 0.00000053
-0.55941904 -0.12118833 0.00000041
-0.46767592 0.32928866 0.00000094
-0.40643489 -0.35011631 0.00000141
-0.07941032 0.25956547 -0.00000433
-0.03932054 -0.26883483 0.00000166
-0.53853297 -0.01747902 0.00000053
-0.19861281 -0.22477832 0.00000180
-0.65907007 -0.35412499 0.16151094
-0.35432836 -0.01551391 0.00000229
-0.22919758 0.03580994 -0.00000501
-0.73438162 0.03014873 -0.00000140
-0.29847100 0.43879783 0.00000244
-0.23527193 -0.43559653 0.00000114
-0.20972010 0.46723890 0.00000327
-0.33563828 0.30785024 0.00000220
-0.51459599 0.26463285 0.00000051
-0.77709138 -0.50060570 -0.00000075
-0.22092891 -0.66323233 0.00000043
-0.70174187 -0.16632336 -0.00000091
-0.34792218 -0.22624087 0.00000179
-0.64805448 0.14950168 -0.00000064
-0.21790595 -0.27612945 0.00000164
-0.41639981 -0.19288158 0.00000185
-0.17356481 0.05926175 -0.00000603
-0.62061238 -0.57021725 0.00000021
-0.70888233 -0.64527339 0.09835596
-0.17223313 -0.60637921 0.00000061
-0.08893989 -0.53889829 0.00000082
-0.75290620 -0.08227124 -0.00000148
-0.65311694 -0.30711955 0.17357107
-0.63081658 -0.37956324 -0.00000005
-0.72444111 -0.70624858 0.08970343
-0.64455140 -0.00297563 -0.00000050
-0.40616944 0.39040613 0.00000145
-0.00820961 -0.34778523 0.00000141
-0.56421155 -0.59290218 0.00000065
-0.68155533 -0.34535095 -0.00000057
-0.02886210 -0.03793141 0.00000238
-0.61854947 -0.04132871 -0.00000022
-0.47422031 -0.03061935 0.00000115
-0.63178146 -0.04918672 0.24985822
-0.21580821 0.51507974 0.00000317
-0.00741404 -0.57947963 0.00000073
-0.08048707 -0.04158259 0.00000237
-0.05493929 -0.06286890 0.00000230
-0.12127524 -0.68224770 0.00000037
-0.69931680 -0.59612811 0.10798380
-0.11260845 0.20982897 -0.00000448
-0.43072465 0.28278929 0.00000130
-0.61064905 -0.11536088 -0.00000008
-0.34808815 0.16069934 0.00000220
-0.45374516 0.34463337 0.00000105
-0.54522610 -0.40957886 0.00000080
-0.62775004 -0.07598697 0.23635694
-0.13447502 -0.24605986 0.00000173
-0.71799219 -0.76253760 -0.00000009
-0.41395053 0.16599171 0.00000157
-0.71376365 -0.41922304 0.18625128
-0.69771516 -0.21567927 0.24715514
-0.09690327 -0.74355483 0.00000018
-0.56951988 -0.60398602 0.00000061
-0.19306734 -0.62226689 0.00000056
-0.45691019 0.09089147 0.00000122
-0.73712879 0.01216905 -0.00000141
-0.65753675 -0.18378258 -0.00000048
-0.51584470 0.26100591 0.00000051
-0.53903079 -0.18151589 0.00000066
-0.68554437 -0.65732622 -0.00000034
-0.64019299 -0.06642230 0.25099340
-0.65905666 -0.01395256 0.28721461
-0.07274661 -0.52681077 0.00000085
-0.24785718 0.51283187 0.00000286
-0.25099877 -0.70406502 0.00000030
-0.36566722 -0.12909864 0.00000210
-0.72811204 -0.06490720 -0.00000125
-0.45435378 -0.28057334 0.00000156
-0.71649271 -0.46440467 -0.00000080
-0.50266713 -0.36193234 0.00000116
-0.29279745 -0.08654213 0.00000223
-0.61113030 -0.56795466 0.00000030
-0.09500254 0.23331641 -0.00000446
-0.68863535 -0.20845383 -0.00000075
-0.26155588 -0.11189799 0.00000215
-0.26543191 -0.70928490 0.00000028
-0.05257774 0.25195113 -0.00000522
-0.26719624 -0.46019229 0.00000106
-0.39772639 0.07279665 0.00000180
-0.42971674 -0.55181390 0.00000078
-0.36454338 -0.44671288 0.00000110
-0.30056331 0.45699486 0.00000241
-0.17245576 0.43225843 0.00000366
-0.08740179 0.40553063 -0.00000101
-0.35442728 -0.15366448 0.00000202
-0.10513201 -0.57034671 0.00000072
-0.79387259 -0.76132995 -0.00000010
-0.64702344 -0.03991316 0.26688331
-0.50693828 -0.39536706 0.00000115
-0.39654610 -0.65729606 0.00000045
-0.06864663 0.21510378 -0.00000556
-0.38083380 -0.64691520 0.00000048
-0.58937275 -0.45538491 0.00000041
-0.34080052 -0.32612509 0.00000148
-0.47842252 0.27690226 0.00000085
-0.09817054 -0.36921206 0.00000135
-0.29850736 -0.54686767 0.00000079
-0.76494861 -0.39124656 -0.00000102
-0.31818008 0.47837800 0.00000222
-0.40968099 -0.27095389 0.00000165
-0.36046925 -0.04206204 0.00000226
-0.74098730 -0.14942582 -0.00000131
-0.63699055 -0.10767631 0.23289011
-0.20105065 0.43180546 0.00000338
-0.00134477 -0.73552525 0.00000020
-0.68075019 -0.07676722 0.28335580
-0.63894671 -0.26273796 0.17733014
-0.59487152 -0.63410407 0.00000051
-0.09962040 -0.24814200 0.00000172
-0.78750539 -0.61776274 -0.00000046
-0.23403808 0.55505353 0.00000296
-0.01249959 -0.57408899 0.00000071
-0.51036328 0.22083253 0.00000059
-0.13341458 -0.40637586 0.00000123
-0.20476770 0.30246317 -0.00000001
-0.15814851 -0.40254176 0.00000124
-0.48749387 0.10547462 0.00000091
-0.73616260 -0.77863222 -0.00000005
-0.51132911 -0.28748265 0.00000102
-0.59118021 0.03548542 0.24492432
-0.40483359 -0.14766981 0.00000192
-0.43554330 -0.26387346 0.00000168
-0.47473443 -0.66237444 0.00000043
-0.44845852 0.06018137 0.00000132
-0.20546065 0.47024989 0.00000331
-0.73873645 -0.42815864 -0.00000093
-0.57069933 -0.52254921 0.00000065
-0.57883418 -0.68146515 0.00000037
-0.20297500 -0.40162194 0.00000124
-0.01892826 0.77460748 0.00000484
-0.11476495 0.44415271 0.00000056
-0.37610474 -0.34653541 0.00000142
-0.73586756 -0.53654307 0.16261539
-0.55090630 -0.76758653 0.00000010
-0.57720375 0.05687902 0.00000009
-0.60788780 -0.67693824 0.00000038
-0.29594454 0.49395791 0.00000242
-0.49801168 -0.65288895 0.00000046
-0.42434695 -0.61405295 0.00000058
-0.22550829 -0.40218201 0.00000124
-0.69607878 -0.76566017 -0.00000009
-0.04807604 0.00548279 -0.00001058
-0.46691373 -0.27579117 0.00000143
-0.26581091 -0.11242294 0.00000215
-0.52619690 -0.67950594 0.00000038
-0.55662686 -0.75246912 0.00000015
-0.45796111 -0.44200432 0.00000112
-0.68764508 -0.45811844 -0.00000053
-0.61884689 -0.43267411 0.00000011
-0.56437540 -0.37703171 0.00000058
-0.62993735 -0.19093780 -0.00000020
-0.00302203 0.28608611 -0.00000584
-0.03265372 -0.73367012 0.00000021
-0.11005990 -0.55140990 0.00000078
-0.65651065 -0.22237439 0.20791778
-0.39373797 -0.68470383 0.00000036
-0.33464685 -0.56485146 0.00000073
-0.52621132 -0.24428450 0.00000084
-0.34658274 0.04743296 0.00000231
-0.57303250 -0.21386752 0.00000036
-0.22957389 0.03326099 -0.00000506
-0.12850246 0.21604958 -0.00000392
-0.12488930 -0.58371031 0.00000068
-0.52538043 -0.25617078 0.00000086
-0.41908190 0.27301621 0.00000143
-0.68351763 -0.10958320 0.27369729
-0.46290821 -0.25785726 0.00000146
-0.34937164 0.24373050 0.00000212
-0.67047489 0.07546213 -0.00000082
-0.00964310 0.37411085 -0.00000379
-0.16920751 -0.12348155 0.00000211
-0.07157030 -0.34522748 0.00000142
-0.16902362 -0.28095555 0.00000162
-0.56302184 -0.36682898 0.00000059
-0.03855137 -0.50943238 0.00000091
-0.32432505 0.06286628 0.00000251
-0.38451248 0.01384290 0.00000198
-0.08815387 -0.30657113 0.00000154
-0.56458718 -0.10323289 0.00000035
-0.08118974 -0.56120139 0.00000075
-0.60537350 -0.69621903 0.00000032
-0.23655546 -0.28415799 0.00000161
-0.69093329 -0.46747196 -0.00000055
-0.45654318 -0.45501906 0.00000108
-0.23083559 -0.56048721 0.00000075
-0.67664313 -0.32858464 0.18662862
-0.05786930 -0.49320993 0.00000096
-0.59069037 -0.38914198 0.00000034
-0.73467135 -0.62196785 0.12997817
-0.70594609 -0.69227386 -0.00000027
-0.10815213 -0.39799470 0.00000126
-0.76611322 -0.55849236 -0.00000060
-0.48204815 -0.35075349 0.00000135
-0.10796872 0.07004367 -0.00000758
-0.02466532 0.24182308 -0.00000619
-0.17793827 0.51014185 0.00000354
-0.08272720 0.47856066 0.00000042
-0.33434036 -0.53882670 0.00000082
-0.24640220 0.04723027 -0.00000430
-0.25488123 -0.79721713 0.00000001
-0.31551775 -0.29448983 0.00000158
-0.47453326 -0.25888687 0.00000135
-0.71086675 -0.26938486 -0.00000091
-0.55791736 0.17417838 0.00000018
-0.47360611 -0.05426284 0.00000118
-0.44517598 -0.28849474 0.00000160
-0.58209842 0.05055384 0.24239035
-0.30619150 -0.23701648 0.00000176
-0.58421779 -0.49322566 0.00000049
-0.71694195 -0.72310293 -0.00000019
-0.12731837 0.24243976 -0.00000339
-0.79709214 -0.68901783 -0.00000028
-0.20985503 -0.62388688 0.00000055
-0.37917906 -0.74904650 0.00000016
-0.37273207 -0.14525218 0.00000205
-0.04043040 -0.71360362 0.00000027
-0.56905508 -0.32555643 0.00000050
-0.71111864 -0.53293329 -0.00000067
-0.24812803 -0.55445129 0.00000077
-0.15634619 -0.65122557 0.00000046
-0.00392635 0.00232064 -0.00001184
-0.29523215 -0.65759021 0.00000045
-0.16224757 0.26409540 -0.00000198
-0.30254826 0.35120192 0.00000248
-0.56394523 -0.11941483 0.00000037
-0.09624390 -0.42075235 0.00000119
-0.68161190 -0.34095314 -0.00000057
-0.19821604 0.52968210 0.00000333
-0.61032557 -0.03319207 -0.00000015
-0.04254949 0.09802323 -0.00000876
-0.54069918 -0.06106476 0.00000054
-0.09736882 -0.19114619 0.00000190
-0.69455498 -0.42717069 0.16617590
-0.15447396 0.36372572 -0.00000008
-0.21583290 -0.54389906 0.00000080
-0.29877385 -0.44770539 0.00000110
-0.07411560 -0.16543962 0.00000198
-0.20274995 -0.52257210 0.00000087
-0.24044190 -0.49287289 0.00000096
-0.64621896 -0.00399056 -0.00000052
-0.43111280 0.21114875 0.00000136
-0.41450587 -0.12051250 0.00000180
-0.27212724 0.03991558 -0.00000376
-0.36178109 -0.54776525 0.00000079
-0.37259832 0.05515572 0.00000206
-0.25016162 0.10843386 -0.00000290
-0.23040816 -0.13066286 0.00000209
-0.70849836 -0.42421493 0.17970869
-0.22095734 -0.67006600 0.00000041
-0.63958532 0.13106912 -0.00000057
-0.58777094 -0.19623943 0.00000021
-0.37197992 -0.32160330 0.00000149
-0.73856950 -0.38083914 -0.00000105
-0.37217855 -0.71082371 0.00000028
-0.36795002 -0.40813464 0.00000122
-0.56223965 0.23317023 0.00000013
-0.17022991 -0.53878176 0.00000082
-0.21398105 -0.32105950 0.00000150
-0.03432804 0.34192163 -0.00000380
-0.32306471 -0.66333461 0.00000043
-0.66509390 -0.39259067 0.15266988
-0.36587968 -0.51972628 0.00000088
-0.65711904 -0.22237425 -0.00000044
-0.06739613 0.66131794 0.00000447
-0.50621176 -0.48204523 0.00000099
-0.11572117 -0.70311666 0.00000030
-0.33222508 0.11295498 0.00000240
-0.09169400 -0.69759262 0.00000032
-0.79062158 -0.10452265 -0.00000174
-0.44021612 0.03099688 0.00000143
-0.18378665 0.22518687 -0.00000222
-0.23800912 -0.62125635 0.00000056
-0.04737116 -0.78649056 0.00000004
-0.63591385 -0.14666216 -0.00000030
-0.17450701 0.10248289 -0.00000508
-0.01782321 -0.75826734 0.00000013
-0.15926638 0.54767710 0.00000369
-0.07113572 -0.40996286 0.00000122
-0.04847210 -0.29066432 0.00000159
-0.03320854 0.49675053 -0.00000054
-0.38233832 -0.03568767 0.00000204
-0.02082069 0.47308999 -0.00000138
-0.68211830 -0.34312969 -0.00000058
-0.15517287 -0.38688767 0.00000129
-0.59703833 -0.01570422 -0.00000004
-0.18192562 -0.60144901 0.00000062
-0.15909828 0.55658221 0.00000368
-0.75308949 -0.73403162 -0.00000016
-0.19740717 -0.57912117 0.00000069
-0.14388517 -0.48130000 0.00000100
-0.25499946 -0.39087820 0.00000128
-0.08299936 -0.56715947 0.00000073
-0.18480709 -0.42615238 0.00000117
-0.33144933 -0.14073417 0.00000206
-0.13574496 -0.06023462 0.00000231
-0.06688961 -0.74348497 0.00000018
-0.42662507 -0.12095148 0.00000169
-0.29876670 -0.24495396 0.00000173
-0.51271158 0.12087235 0.00000066
-0.77597320 -0.07297390 -0.00000171
-0.34353867 -0.44784701 0.00000110
-0.25020888 0.23434621 0.00000308
-0.63255203 -0.09582415 0.23331021
-0.45704857 -0.78799158 0.00000004
-0.51076055 -0.69458252 0.00000033
-0.21707495 0.00363764 -0.00000603
-0.54054612 -0.48668551 0.00000091
-0.41350803 -0.67576915 0.00000039
-0.02724542 -0.74080282 0.00000018
-0.30190152 -0.65453357 0.00000045
-0.14720799 0.58423632 0.00000377
-0.66532969 -0.16085254 0.23852250
-0.03360798 0.08650349 -0.00000925
-0.61310524 -0.02194038 -0.00000019
-0.66695249 -0.56230986 -0.00000024
-0.17179574 0.10885277 -0.00000502
-0.03535266 -0.55504006 0.00000077
-0.35877872 0.07607130 0.00000217
-0.65432429 -0.25575018 0.19363257
