ply
format ascii 1.0
element vertex 1215
property float x
property float y
property float z
end_header
-0.18071581 -0.64095187 0.00000050
-0.77593106 -0.56220090 -0.00000059
-0.75730932 -0.29749194 -0.00000126
-0.21444319 -0.54252428 0.00000080
-0.21469912 0.41037241 0.00000327
-0.03738608 -0.22341159 0.00000180
-0.79261643 -0.54157579 -0.00000065
-0.10412753 -0.51668584 0.00000089
-0.04103639 -0.06530022 0.00000230
-0.05463294 -0.21075194 0.00000184
-0.53066838 -0.27982795 0.00000082
-0.76868373 -0.53216356 -0.00000067
-0.15517655 -0.55078483 0.00000078
-0.60171193 0.19532983 -0.00000023
-0.58875525 -0.05876870 0.00000008
-0.05681619 0.15505333 -0.00000716
-0.11313194 0.55150729 0.00000413
-0.48687726 -0.68669200 0.00000035
-0.08628106 -0.16742742 0.00000198
-0.47542694 -0.36662582 0.00000135
-0.19671223 -0.74066871 0.00000019
-0.62597990 0.01246349 -0.00000034
-0.02971396 -0.20247404 0.00000187
-0.59405005 -0.22378422 0.00000017
-0.18919371 -0.14681157 0.00000204
-0.66364330 -0.17240210 -0.00000054
-0.33515441 -0.05180897 0.00000234
-0.72036272 -0.50899667 0.17963935
-0.57769859 -0.40015185 0.00000048
-0.13933063 -0.78575015 0.00000004
-0.73297793 -0.78382444 -0.00000004
-0.41446209 -0.48812661 0.00000097
-0.25408879 -0.66223645 0.00000043
-0.45378563 0.07357195 0.00000126
-0.27514857 -0.07768042 0.00000226
-0.66874748 -0.68110162 -0.00000016
-0.79970479 -0.50259900 -0.00000074
-0.08302955 0.53923571 0.00000171
-0.55698013 -0.41664290 0.00000069
-0.48925361 -0.26502612 0.00000121
-0.48888275 0.11457525 0.00000089
-0.43942252 -0.03908657 0.00000150
-0.20639110 0.33293316 0.00000342
-0.75039995 -0.35068047 -0.00000112
-0.05502351 0.34464505 -0.00000318
-0.34433335 0.31943950 0.00000210
-0.06753545 0.70877284 0.00000443
-0.51076388 -0.05739920 0.00000083
-0.03233797 -0.29296550 0.00000158
-0.62825298 -0.21471041 -0.00000017
-0.60157025 -0.57098109 0.00000039
-0.09886075 0.56960529 0.00000425
-0.57053471 0.07225547 0.27132601
-0.79011911 -0.56427395 -0.00000059
-0.70239675 -0.46664420 -0.00000066
-0.54837257 -0.71008199 0.00000028
-0.43295851 -0.25323197 0.00000171
-0.33722699 0.03800666 0.00000241
-0.32607344 -0.06671766 0.00000229
-0.58336473 -0.79205447 0.00000002
-0.24685021 -0.68070215 0.00000037
-0.66713494 0.07277421 -0.00000079
-0.10894706 -0.03697628 0.00000238
-0.62807506 -0.17111279 -0.00000020
-0.63326102 -0.10802211 -0.00000031
-0.69425219 -0.42767641 -0.00000062
-0.66155523 -0.42196515 -0.00000031
-0.75043267 -0.08678342 -0.00000145
-0.77968633 -0.18911444 -0.00000153
-0.65469992 0.01504876 -0.00000062
-0.04752347 0.36350259 -0.00000298
-0.47287071 -0.45426753 0.00000108
-0.18148671 -0.73447043 0.00000020
-0.61271948 0.00016261 0.28375041
-0.64110315 -0.44174477 -0.00000010
-0.79522085 -0.72454613 -0.00000019
-0.49391705 0.21207234 0.00000076
-0.72737575 -0.11160446 -0.00000121
-0.56971037 0.02972015 0.25272927
-0.70586890 0.07434533 -0.00000116
-0.05271369 -0.47718140 0.00000101
-0.09739081 -0.60970885 0.00000059
-0.03419656 -0.62953693 0.00000053
-0.68163306 -0.10868198 -0.00000077
-0.58636856 -0.74410421 0.00000017
-0.31449044 -0.02013697 0.00000244
-0.20494379 -0.42522585 0.00000117
-0.47004616 -0.02931310 0.00000119
-0.54105806 0.13747974 0.00000037
-0.33794928 -0.68821132 0.00000035
-0.52859604 0.14230089 0.00000048
-0.22577854 -0.13075404 0.00000209
-0.17240672 -0.20094918 0.00000187
-0.60318607 -0.36460865 0.00000020
-0.34104595 -0.13597529 0.00000208
-0.45507431 -0.36543506 0.00000136
-0.73537278 -0.62152815 -0.00000045
-0.06988614 0.63964128 0.00000447
-0.40000206 -0.17000036 0.00000197
-0.45893401 0.32739094 0.00000100
-0.74951422 -0.19365020 -0.00000135
-0.16786110 0.23786549 -0.00000239
-0.33346090 -0.67416495 0.00000039
-0.32627225 -0.05574160 0.00000233
-0.43856722 -0.50807452 0.00000091
-0.46124312 0.02071400 0.00000124
-0.61919111 0.01230663 -0.00000027
-0.22038171 0.46723124 0.00000317
-0.36305922 0.16619216 0.00000205
-0.48361081 -0.54691684 0.00000079
-0.33594590 0.09696035 0.00000237
-0.63706738 -0.14480966 0.24775395
-0.44651040 -0.33481258 0.00000145
-0.08055368 -0.67265642 0.00000040
-0.65037674 -0.16577847 0.25241598
-0.57860786 -0.14541574 0.00000025
-0.42313316 -0.01749306 0.00000163
-0.11543213 0.55588704 0.00000410
-0.79812074 -0.10505135 -0.00000174
-0.28470105 0.21091050 0.00000277
-0.57440156 -0.21324092 0.00000035
-0.14789994 0.17692678 -0.00000422
-0.28947118 -0.22187689 0.00000181
-0.09225820 0.25292233 -0.00000412
-0.64778119 -0.14918780 0.25672790
-0.59318137 -0.77853960 0.00000007
-0.69126779 -0.29387954 -0.00000071
-0.41529417 -0.07378695 0.00000176
-0.17263637 -0.45009521 0.00000109
-0.63603932 -0.16720004 -0.00000028
-0.67629057 -0.78206319 -0.00000004
-0.17406501 -0.38324150 0.00000130
-0.00463463 -0.75564986 0.00000014
-0.77972907 -0.56409198 -0.00000059
-0.60331517 -0.70128381 0.00000031
-0.15269037 -0.17090882 0.00000197
-0.08176038 0.67805338 0.00000432
-0.66524780 -0.48890314 -0.00000029
-0.22073470 0.36192623 0.00000325
-0.22211881 0.42146263 0.00000319
-0.30191141 0.48928332 0.00000237
-0.27220830 -0.38668340 0.00000129
-0.70211178 -0.31519103 -0.00000079
-0.24388006 -0.27898610 0.00000163
-0.68570745 -0.12090502 -0.00000080
-0.04584009 -0.34689355 0.00000142
-0.18181649 -0.72821456 0.00000022
-0.64544070 -0.25191879 -0.00000030
-0.34153506 0.15363555 0.00000227
-0.52489090 -0.27483207 0.00000088
-0.68188816 -0.00043944 -0.00000087
-0.59826797 -0.46439010 0.00000033
-0.55978584 -0.03204267 0.00000033
-0.24179563 -0.04618679 0.00000236
-0.11210525 0.63385814 0.00000407
-0.03109989 0.14523605 -0.00000807
-0.52407473 -0.29296011 0.00000090
-0.71369565 -0.48936051 0.18111795
-0.68933553 -0.65081948 -0.00000037
-0.26394540 0.13985328 -0.00000186
-0.69973636 -0.23789553 -0.00000083
-0.75027597 -0.53497767 -0.00000066
-0.26108187 -0.50822031 0.00000091
-0.10958149 -0.10267712 0.00000218
-0.63155377 -0.58315796 0.00000011
-0.77728838 -0.00675608 -0.00000178
-0.03616899 -0.02394216 0.00000243
-0.72051603 -0.70817471 0.09660909
-0.70795554 -0.15897779 -0.00000098
-0.10286982 0.69536048 0.00000410
-0.11624150 0.21334237 -0.00000431
-0.70981383 0.08672945 -0.00000117
-0.43545347 -0.64419216 0.00000049
-0.00761684 0.66141576 0.00000226
-0.18592867 -0.16956244 0.00000197
-0.57344204 -0.28537872 0.00000042
-0.12480075 -0.05836819 0.00000232
-0.10875501 -0.75071335 0.00000015
-0.26536888 0.35060975 0.00000283
-0.15431009 -0.71671027 0.00000026
-0.49055845 0.21472868 0.00000079
-0.64929467 -0.15382819 -0.00000042
-0.75250649 -0.38113809 -0.00000105
-0.72463143 -0.44636062 -0.00000088
-0.44328040 -0.35690552 0.00000138
-0.22020169 -0.79032230 0.00000003
-0.49708819 -0.37402067 0.00000123
-0.61131316 -0.15575381 0.21721596
-0.61916846 -0.45622051 0.00000013
-0.43568951 0.29706565 0.00000125
-0.15315296 -0.02098988 0.00000243
-0.13322894 -0.74159765 0.00000018
-0.61307985 -0.33082512 0.00000008
-0.14748096 -0.75003821 0.00000016
-0.65866101 -0.38335705 0.16989915
-0.03699620 0.03354111 -0.00001028
-0.01283564 -0.01215224 0.00000246
-0.22903694 0.38095936 0.00000316
-0.20163268 -0.24976668 0.00000172
-0.40337381 0.36147672 0.00000150
-0.13958664 -0.19886577 0.00000188
-0.49316981 -0.64797384 0.00000048
-0.20641476 -0.43671635 0.00000114
-0.61515754 -0.12201813 0.23518150
-0.75320828 -0.59499687 -0.00000051
-0.47916868 0.28105405 0.00000084
-0.16272560 -0.19934791 0.00000188
-0.16675670 0.05249666 -0.00000636
-0.04280629 0.15101698 -0.00000763
-0.22437146 0.31199035 0.00000326
-0.70204312 -0.24147300 -0.00000085
-0.72520190 -0.80035263 0.06283651
-0.05546048 0.52870959 0.00000074
-0.68800354 -0.65342933 -0.00000037
-0.41221341 -0.14898728 0.00000185
-0.24983823 -0.43946061 0.00000113
-0.58810085 0.19989951 -0.00000014
-0.14095333 -0.72366661 0.00000024
-0.08376692 0.18613595 -0.00000577
-0.15080157 -0.73048472 0.00000022
-0.31176347 -0.32137913 0.00000150
-0.34803507 0.16504426 0.00000220
-0.34525043 -0.07965512 0.00000225
-0.02939622 -0.15800035 0.00000201
-0.68230778 -0.27717829 0.23808619
-0.61095738 -0.27834144 0.00000005
-0.29881439 0.20534460 0.00000264
-0.06489630 0.44071406 -0.00000087
-0.60304904 0.13829932 -0.00000023
-0.46319351 -0.67177248 0.00000040
-0.43271044 0.31934062 0.00000125
-0.67685407 0.07322980 -0.00000088
-0.40213242 -0.38400725 0.00000130
-0.00543024 -0.71903962 0.00000025
-0.57889670 -0.52288222 0.00000057
-0.02788487 -0.15533656 0.00000201
-0.20784616 -0.41156164 0.00000121
-0.02631677 0.06637197 -0.00000987
-0.65791404 -0.08247791 0.29480532
-0.21727724 -0.04527387 0.00000236
-0.29782894 -0.56032389 0.00000075
-0.26997101 0.49675354 0.00000267
-0.07630863 -0.11787709 0.00000213
-0.53688949 0.26214764 0.00000030
-0.38362712 -0.12251189 0.00000210
-0.08193903 0.64181077 0.00000435
-0.14921615 0.45929492 0.00000386
-0.65960908 -0.23501129 -0.00000045
-0.31208563 -0.59302080 0.00000065
-0.33589739 0.21284330 0.00000228
-0.39403760 0.22230706 0.00000171
-0.12492714 -0.16999398 0.00000197
-0.29070345 -0.52830547 0.00000085
-0.34913251 -0.24472719 0.00000174
-0.01797111 0.06010462 -0.00001023
-0.29757780 0.42036039 0.00000247
-0.19823210 -0.62321603 0.00000055
-0.50252128 -0.41240475 0.00000121
-0.47686756 -0.15101860 0.00000123
-0.18508573 0.07580453 -0.00000536
-0.18414976 -0.51235676 0.00000090
-0.02642693 0.41566950 -0.00000245
-0.15406992 0.17038836 -0.00000419
-0.50247937 0.22551294 0.00000066
-0.38033679 -0.43045703 0.00000115
-0.02660547 0.18727268 -0.00000730
-0.21495754 -0.34006569 0.00000144
-0.79843104 -0.32053739 -0.00000120
-0.51056713 -0.19148336 0.00000094
-0.34015125 0.05662933 0.00000237
-0.15798625 -0.71766037 0.00000026
-0.08470666 -0.52990735 0.00000084
-0.12603107 0.01106786 -0.00000834
-0.75711912 -0.28264636 -0.00000129
-0.13850690 -0.32572329 0.00000148
-0.14902245 -0.49880427 0.00000094
-0.14711569 0.52269453 0.00000382
-0.33747086 -0.17642996 0.00000195
-0.41147414 0.15554762 0.00000160
-0.44034350 0.35027742 0.00000115
-0.12760134 0.08101074 -0.00000681
-0.58317417 -0.06401460 0.22715814
-0.45651767 -0.27716649 0.00000153
-0.08786504 0.52283150 0.00000150
-0.10279073 0.66781050 0.00000413
-0.56274974 0.13630070 0.00000016
-0.23530512 -0.37950435 0.00000131
-0.29882577 -0.65122908 0.00000046
-0.27439073 0.37451541 0.00000273
-0.07732187 -0.42126411 0.00000118
-0.10820058 0.38170066 -0.00000095
-0.30824035 0.37337509 0.00000240
-0.17712794 -0.76513815 0.00000011
-0.50485021 0.14102535 0.00000071
-0.23637153 -0.59239525 0.00000065
-0.22372934 -0.51639420 0.00000089
-0.60302824 -0.16864116 0.00000004
-0.45038152 -0.72987825 0.00000022
-0.61714554 -0.64664859 0.00000031
-0.50521994 -0.11035646 0.00000092
-0.75158566 -0.24462558 -0.00000133
-0.24450465 -0.27043688 0.00000165
-0.61249548 -0.38922989 0.00000013
-0.59574223 -0.11270290 0.00000006
-0.04366503 -0.33980078 0.00000144
-0.66808057 -0.24724612 0.23624212
-0.67827362 -0.12472436 -0.00000072
-0.59484446 -0.35108295 0.00000027
-0.67423558 -0.28137189 -0.00000055
-0.22290948 -0.51776594 0.00000088
-0.20605692 -0.60678047 0.00000060
-0.34440956 0.27766174 0.00000214
-0.03719095 -0.58766764 0.00000066
-0.00423637 0.00678042 -0.00001174
-0.20304130 -0.66133153 0.00000043
-0.13140067 0.08782260 -0.00000656
-0.43290126 -0.56836224 0.00000072
-0.03730623 -0.71352130 0.00000027
-0.19340689 -0.55937850 0.00000075
-0.46941835 -0.71006095 0.00000028
-0.26434734 0.47494975 0.00000274
-0.02684180 -0.36790493 0.00000135
-0.35639462 -0.60477865 0.00000061
-0.36658287 -0.58485985 0.00000067
-0.13131884 -0.68658787 0.00000035
-0.07809624 -0.19128536 0.00000190
-0.00421071 0.46841374 -0.00000193
-0.15673992 0.04476383 -0.00000679
-0.28427568 -0.46332678 0.00000105
-0.49843001 -0.30227822 0.00000115
-0.42249441 -0.70753419 0.00000029
-0.49774125 -0.24231468 0.00000111
-0.69150692 -0.17640099 -0.00000081
-0.45317972 0.09385753 0.00000125
-0.26260614 -0.75987458 0.00000013
-0.23653530 -0.50806475 0.00000091
-0.75429344 -0.08612690 -0.00000149
-0.70804948 -0.36025155 -0.00000081
-0.56295347 -0.13767584 0.00000039
-0.54677147 0.11667514 0.00000033
-0.70722950 -0.02040347 -0.00000109
-0.29328597 0.40003604 0.00000252
-0.35361880 -0.58401573 0.00000067
-0.61002976 -0.62586606 0.00000036
-0.69585550 -0.00587736 -0.00000099
-0.16269387 -0.24945152 0.00000172
-0.49069723 0.21303222 0.00000079
-0.54787773 0.22925638 0.00000023
-0.72704768 -0.71043658 0.10225018
-0.27950415 -0.09724640 0.00000220
-0.51167381 -0.02988307 0.00000079
-0.72646606 -0.63675022 -0.00000041
-0.17207113 0.34224048 -0.00000005
-0.42120990 -0.09187852 0.00000172
-0.14761364 -0.28536069 0.00000161
-0.12014226 0.33202899 -0.00000168
-0.54857796 -0.48271516 0.00000083
-0.48961279 -0.09826677 0.00000106
-0.12285505 -0.63652140 0.00000051
-0.48336309 0.17930073 0.00000089
-0.41028699 0.04528701 0.00000170
-0.54994285 -0.28597188 0.00000064
-0.67095882 0.09481512 -0.00000084
-0.64699405 -0.08036581 0.28467709
-0.44093323 0.24330777 0.00000124
-0.14558160 -0.15934266 0.00000200
-0.12673582 -0.54078960 0.00000081
-0.49361876 -0.70904469 0.00000028
-0.15516223 -0.40403312 0.00000124
-0.23966597 -0.60268623 0.00000062
-0.64865810 -0.53559625 -0.00000009
-0.59988850 -0.42787829 0.00000029
-0.12844874 -0.55352336 0.00000077
-0.32309306 0.19206978 0.00000242
-0.02476896 0.38998890 -0.00000304
-0.69956905 -0.54531127 0.14350712
-0.57820010 -0.36877409 0.00000044
-0.18745232 0.40334183 0.00000354
-0.62185359 -0.79206878 0.00000002
-0.72435904 -0.14468966 -0.00000115
-0.72255135 -0.76187211 -0.00000010
-0.44044185 -0.38907570 0.00000128
-0.37826484 -0.31602803 0.00000151
-0.77109116 -0.52586848 -0.00000069
-0.66134071 -0.06374489 -0.00000061
-0.38754711 0.20805781 0.00000178
-0.00959285 -0.38016823 0.00000136
-0.26885054 -0.76640832 0.00000010
-0.04638300 -0.41441202 0.00000120
-0.63416034 -0.18110859 0.22966297
-0.36599979 -0.06113041 0.00000222
-0.06894489 0.27479681 -0.00000429
-0.11581471 -0.56910342 0.00000072
-0.16845950 0.19898203 -0.00000320
-0.34136313 -0.61399257 0.00000058
-0.67563003 -0.43977043 -0.00000043
-0.03839721 -0.48543420 0.00000098
-0.71882337 -0.62221843 0.13080122
-0.27566156 0.07260325 -0.00000297
-0.22094734 0.29132786 0.00000331
-0.11936016 0.62222171 0.00000401
-0.32094276 -0.73860210 0.00000019
-0.28192073 0.34404054 0.00000268
-0.66079360 -0.43413758 0.15084139
-0.06783714 -0.73298407 0.00000021
-0.58758885 0.16997893 -0.00000011
-0.58275223 0.19848025 -0.00000008
-0.05763727 -0.78275359 0.00000005
-0.61159760 -0.29487550 0.00000006
-0.36250404 -0.42641333 0.00000117
-0.37101510 -0.63135201 0.00000053
-0.07220950 -0.34405026 0.00000142
-0.20950231 0.48307163 0.00000326
-0.30395129 0.14630604 0.00000264
-0.10445234 -0.04066674 0.00000237
-0.08706532 -0.09811671 0.00000219
-0.19603437 -0.35109842 0.00000140
-0.75088215 -0.43780810 -0.00000091
-0.74047714 -0.46283308 -0.00000084
-0.52900964 -0.20363754 0.00000078
-0.10845125 -0.30756721 0.00000154
-0.65231705 -0.13952307 0.26533768
-0.01379537 0.37035850 -0.00000376
-0.05242838 0.11160325 -0.00000820
-0.59826183 -0.76104003 0.00000012
-0.64326471 -0.29165781 0.19267277
-0.74945390 -0.18546744 -0.00000136
-0.55412412 -0.43188530 0.00000073
-0.21550325 -0.56678760 0.00000073
-0.36336100 -0.40094462 0.00000125
-0.00379786 -0.58456093 0.00000069
-0.07122761 0.42241991 -0.00000109
-0.13918783 -0.78063023 0.00000006
-0.67756295 -0.22730970 -0.00000063
-0.04962760 0.09411088 -0.00000865
-0.26793680 -0.45323285 0.00000108
-0.63980496 -0.13450623 -0.00000035
-0.19112258 -0.09457290 0.00000220
-0.34224957 -0.54719061 0.00000079
-0.14707188 -0.16386832 0.00000199
-0.56208313 -0.30549240 0.00000055
-0.42226744 0.37541473 0.00000133
-0.19035833 -0.32504833 0.00000148
-0.57722586 -0.07381342 0.00000020
-0.40991604 0.34214321 0.00000145
-0.02123818 0.73344886 0.00000416
-0.25001571 0.48791111 0.00000287
-0.46598610 -0.37427148 0.00000133
-0.00104154 -0.73682857 0.00000020
-0.71465880 -0.32044423 -0.00000091
-0.40482277 0.35589808 0.00000149
-0.25856447 0.42876393 0.00000283
-0.39242426 -0.61450261 0.00000058
-0.74626362 -0.20967899 -0.00000131
-0.17805709 -0.18256898 0.00000193
-0.29339448 0.41014859 0.00000252
-0.17971621 -0.23620172 0.00000176
-0.71976697 -0.63534540 0.12627028
-0.24616580 0.03378732 -0.00000460
-0.16304649 0.49387452 0.00000370
-0.63188988 -0.77274799 0.00000009
-0.29517677 -0.46653393 0.00000104
-0.04618903 -0.00954944 0.00000247
-0.12370974 -0.17108105 0.00000197
-0.54646665 -0.49996218 0.00000086
-0.55151767 -0.05190032 0.00000043
-0.77545470 -0.45674521 -0.00000086
-0.60169339 -0.14090899 0.21371643
-0.42764121 0.24126481 0.00000137
-0.05814322 0.41738966 -0.00000155
-0.05587384 -0.26290783 0.00000168
-0.17355660 -0.37738091 0.00000132
-0.15566766 -0.72540122 0.00000023
-0.39324683 -0.49374175 0.00000096
-0.37436068 0.10999712 0.00000199
-0.11999799 0.43825611 0.00000057
-0.47196415 -0.05642415 0.00000120
-0.47185305 -0.66541213 0.00000042
-0.26475564 0.41990110 0.00000278
-0.26487002 -0.49401999 0.00000096
-0.71660227 -0.79270929 0.05735787
-0.79533350 0.00103149 -0.00000196
-0.59374404 -0.53713506 0.00000044
-0.02267227 -0.57908750 0.00000069
-0.08277037 0.43069848 -0.00000060
-0.47281465 -0.00501749 0.00000115
-0.79576486 -0.07386884 -0.00000182
-0.27590880 -0.45669264 0.00000107
-0.27126956 -0.41411212 0.00000121
-0.40398264 0.12242415 0.00000170
-0.34796965 -0.05330205 0.00000233
-0.69971919 -0.50775802 0.15934226
-0.68262756 -0.60976398 -0.00000035
-0.23060188 -0.52463466 0.00000086
-0.61023748 -0.44204062 0.00000020
-0.75816619 0.02502133 -0.00000162
-0.11235337 0.09834426 -0.00000686
-0.04105509 0.16711713 -0.00000733
-0.25453675 0.07711154 -0.00000345
-0.78504401 -0.77310115 -0.00000007
-0.75681293 -0.53739810 -0.00000066
-0.27172866 -0.11923917 0.00000213
-0.60211951 -0.02577971 0.26222721
-0.13005981 0.61149728 0.00000391
-0.17354801 -0.11480400 0.00000214
-0.74526471 -0.70548642 -0.00000024
-0.73019987 -0.73801363 0.09391112
-0.70950830 -0.70115560 -0.00000025
-0.69372201 -0.57873750 0.12365155
-0.05599918 0.72952825 0.00000452
-0.12584692 0.30691731 -0.00000206
-0.13694154 0.57263118 0.00000388
-0.42654967 -0.07556848 0.00000165
-0.72371322 -0.69749469 -0.00000026
-0.27547291 0.23739414 0.00000283
-0.29519394 -0.47168750 0.00000103
-0.32163846 -0.53339601 0.00000083
-0.04083051 0.49151111 -0.00000045
-0.18424673 -0.23016976 0.00000178
-0.28928205 0.25281942 0.00000269
-0.06148238 -0.16361168 0.00000199
-0.19284894 -0.76735759 0.00000010
-0.44954246 -0.43466699 0.00000114
-0.19433728 0.05214049 -0.00000561
-0.49371767 0.10886567 0.00000085
-0.04335610 0.30379245 -0.00000437
-0.01304799 -0.30097124 0.00000156
-0.11240962 -0.46263528 0.00000105
-0.08504167 0.29243863 -0.00000348
-0.23000848 0.29269034 0.00000322
-0.62264043 -0.39284998 0.00000004
-0.62231022 0.09386675 -0.00000037
-0.03472347 0.02811767 -0.00001046
-0.10004735 0.30942336 -0.00000271
-0.72200531 -0.67086476 -0.00000032
-0.20346178 -0.30883762 0.00000153
-0.30027038 -0.13924474 0.00000206
-0.15138377 0.28968704 -0.00000173
-0.48410299 -0.52985030 0.00000084
-0.57355052 0.16504662 0.00000003
-0.67609614 -0.35274893 0.20026174
-0.14400724 0.64391136 0.00000375
-0.03054046 -0.08751955 0.00000223
-0.56580001 -0.15073755 0.00000038
-0.13467342 0.11576981 -0.00000588
-0.55099100 0.06436506 0.00000034
-0.32471648 0.07052651 0.00000250
-0.35759738 -0.53718668 0.00000082
-0.75688630 -0.65169197 -0.00000037
-0.70008630 -0.61816019 0.11360396
-0.62443709 -0.29504740 -0.00000006
-0.65637076 -0.38474393 0.16701072
-0.76816463 -0.24050072 -0.00000140
-0.41680250 -0.75595200 0.00000014
-0.09710905 -0.38155198 0.00000131
-0.46115950 -0.36776662 0.00000135
-0.53416914 -0.05394567 0.00000060
-0.05882472 0.34141287 -0.00000315
-0.29496750 -0.74433887 0.00000017
-0.75831383 0.02121034 -0.00000162
-0.60513842 0.15849328 -0.00000026
-0.74248350 0.04007117 -0.00000148
-0.66919774 -0.42831784 -0.00000038
-0.48957354 0.10235438 0.00000089
-0.77376151 -0.30573502 -0.00000124
-0.34888399 0.05064782 0.00000229
-0.41327658 -0.26027086 0.00000169
-0.50800687 -0.47424325 0.00000102
-0.32299656 -0.29853848 0.00000157
-0.76867998 -0.24696717 -0.00000138
-0.75600839 -0.25749871 -0.00000136
-0.76011270 -0.52000469 -0.00000070
-0.50025070 -0.00438568 0.00000088
-0.40958190 0.14213312 0.00000163
-0.11918235 -0.39405286 0.00000127
-0.53419644 0.19580500 0.00000039
-0.43946055 0.31165493 0.00000120
-0.14422338 -0.48031178 0.00000100
-0.00534593 -0.75314200 0.00000017
-0.53370273 -0.67201239 0.00000040
-0.47047287 -0.59823716 0.00000063
-0.67037934 -0.49604017 0.13465342
-0.38024396 0.33948073 0.00000174
-0.63932258 -0.23959196 0.21044287
-0.11065901 -0.10848208 0.00000216
-0.30665123 0.46721971 0.00000234
-0.14841047 0.17747030 -0.00000420
-0.78385139 -0.61540633 -0.00000046
-0.08483116 0.37695900 -0.00000169
-0.01794387 0.11652275 -0.00000904
-0.03026576 0.27520370 -0.00000533
-0.29360366 -0.06161987 0.00000231
-0.36658025 -0.04456348 0.00000220
-0.63006508 -0.12584826 -0.00000026
-0.40341797 -0.67302728 0.00000040
-0.46975312 -0.67715389 0.00000038
-0.32926607 -0.59903270 0.00000063
-0.08141904 0.16544601 -0.00000627
-0.34081492 -0.14694074 0.00000204
-0.38516796 0.31856015 0.00000171
-0.79893738 -0.43419886 -0.00000091
-0.55890840 -0.50444686 0.00000075
-0.07682957 -0.14500831 0.00000205
-0.15166216 -0.28632557 0.00000161
-0.07501255 0.56697261 0.00000209
-0.62993681 -0.17260997 -0.00000022
-0.61131048 -0.40996370 0.00000016
-0.13893077 0.34406668 -0.00000092
-0.17545639 0.20342344 -0.00000291
-0.27964541 0.47213554 0.00000259
-0.78146428 0.00976873 -0.00000183
-0.25292334 -0.33060017 0.00000147
-0.18687308 -0.34523788 0.00000142
-0.12477443 0.61424577 0.00000396
-0.45039666 -0.01682034 0.00000137
-0.73239535 -0.76392478 -0.00000009
-0.44001943 0.11947471 0.00000135
-0.50664681 -0.21546377 0.00000100
-0.53927702 -0.53295428 0.00000083
-0.00864819 -0.74694121 0.00000017
-0.21104483 0.28329059 -0.00000025
-0.01656841 0.25570533 -0.00000612
-0.76190788 -0.64846170 -0.00000038
-0.54772347 -0.73295891 0.00000021
-0.18024091 -0.54998511 0.00000078
-0.10127695 -0.66075265 0.00000044
-0.54780400 0.12388243 0.00000032
-0.37988544 -0.12699711 0.00000210
-0.11569491 -0.40925577 0.00000122
-0.65365744 -0.69415671 -0.00000000
-0.33554262 0.38695133 0.00000213
-0.74771559 -0.10347415 -0.00000141
-0.36326924 -0.46805048 0.00000104
-0.47346926 0.12154551 0.00000103
-0.36888975 -0.47497237 0.00000102
-0.29191673 -0.44846264 0.00000110
-0.14918020 -0.36516851 0.00000136
-0.33508119 -0.75287056 0.00000015
-0.61413318 -0.48666459 0.00000020
-0.03315270 -0.10228976 0.00000218
-0.25214583 -0.10423075 0.00000217
-0.47083554 -0.67741060 0.00000038
-0.03996438 -0.53610706 0.00000082
-0.29048538 -0.34573483 0.00000142
-0.69245827 -0.07699851 -0.00000090
-0.03723995 -0.50325936 0.00000093
-0.29269850 -0.50114393 0.00000093
-0.49259695 -0.64747244 0.00000048
-0.08317173 -0.23610178 0.00000176
-0.00619291 0.09939411 -0.00000972
-0.60771304 -0.18066685 0.00000000
-0.66998166 -0.43178868 -0.00000038
-0.56408495 0.21264021 0.00000008
-0.07503048 -0.57299495 0.00000071
-0.19806147 0.46613610 0.00000338
-0.05474022 -0.72481149 0.00000023
-0.17060904 -0.44994539 0.00000109
-0.71197546 -0.34057981 -0.00000086
-0.59608841 0.11446166 -0.00000014
-0.00884464 0.29230738 -0.00000555
-0.35167798 -0.33520323 0.00000145
-0.49934378 -0.37383863 0.00000121
-0.71802777 -0.67742336 0.10694323
-0.59091991 -0.03649139 0.24646066
-0.24613842 0.31325957 0.00000305
-0.76597643 -0.12215591 -0.00000157
-0.31455871 -0.49272814 0.00000096
-0.31031024 -0.64977443 0.00000047
-0.11063627 -0.02421406 0.00000242
-0.26001576 -0.55768371 0.00000076
-0.65988785 -0.31948516 -0.00000038
-0.69182503 -0.68299907 -0.00000029
-0.25671566 -0.55920464 0.00000075
-0.15477259 0.39083689 0.00000051
-0.07422836 -0.23533253 0.00000176
-0.13574141 0.32062632 -0.00000150
-0.21776982 -0.75193256 0.00000015
-0.51846915 -0.27731985 0.00000094
-0.49781591 -0.71722084 0.00000026
-0.02338989 -0.46450800 0.00000105
-0.18219893 -0.35685211 0.00000138
-0.27336133 -0.42059979 0.00000119
-0.41572326 -0.52841455 0.00000085
-0.72890526 -0.24662147 -0.00000111
-0.08278531 -0.51346314 0.00000090
-0.78287745 -0.42633694 -0.00000093
-0.54264057 -0.75533134 0.00000014
-0.31588316 0.01407516 -0.00000312
-0.16681492 -0.07428294 0.00000227
-0.08640852 0.54382914 0.00000190
-0.59358478 -0.44923708 0.00000037
-0.35727158 0.21833652 0.00000207
-0.49986294 0.27059478 0.00000065
-0.11213034 0.32978100 -0.00000195
-0.14811960 0.37398541 -0.00000003
-0.73501086 -0.35940459 -0.00000107
-0.54136950 -0.55369902 0.00000077
-0.12139413 -0.16028926 0.00000200
-0.73008955 -0.17586365 -0.00000118
-0.50042289 -0.23863900 0.00000108
-0.23987027 0.03922411 -0.00000465
-0.24867073 0.16235556 -0.00000180
-0.54714972 -0.62623686 0.00000054
-0.12054348 -0.17239051 0.00000196
-0.25931466 -0.07403387 0.00000227
-0.68093544 -0.66373795 -0.00000029
-0.75059634 -0.80626976 0.08596992
-0.44735786 0.01271455 0.00000138
-0.03163939 -0.46224451 0.00000106
-0.74293965 -0.47872156 -0.00000080
-0.31863415 -0.25136852 0.00000171
-0.41454631 -0.43448764 0.00000114
-0.42864159 0.26856077 0.00000134
-0.67601234 -0.35955015 0.19733679
-0.31330740 0.34103456 0.00000238
-0.32468414 0.44090113 0.00000219
-0.40339434 0.29194099 0.00000156
-0.04980873 -0.74454939 0.00000017
-0.17610005 -0.13897099 0.00000207
-0.67835826 -0.30557588 0.22224399
-0.37235075 0.30528450 0.00000185
-0.14817427 -0.69375587 0.00000033
-0.29311767 -0.55848515 0.00000075
-0.24095033 -0.11979049 0.00000213
-0.22626241 0.44696030 0.00000313
-0.56482577 0.10515797 0.00000017
-0.73353875 -0.46328032 -0.00000084
-0.38159430 -0.17206722 0.00000196
-0.07005194 0.33100381 -0.00000306
-0.67342895 -0.21883935 0.25349858
-0.10968738 0.62366575 0.00000410
-0.63596570 -0.14394444 0.24700452
-0.37420222 0.38569105 0.00000176
-0.18266734 -0.30304077 0.00000155
-0.44937241 -0.36421052 0.00000136
-0.07228877 0.33838516 -0.00000285
-0.05348980 0.05287301 -0.00000942
-0.53413570 -0.63169932 0.00000053
-0.02104570 0.50246453 -0.00000075
-0.18639289 -0.26340368 0.00000168
-0.79825479 -0.22291076 -0.00000144
-0.24636792 0.37074086 0.00000300
-0.04883786 -0.37925994 0.00000131
-0.43587562 -0.19984113 0.00000167
-0.25909272 -0.09862006 0.00000219
-0.27073583 -0.37545955 0.00000133
-0.73646390 -0.30625451 -0.00000113
-0.48626837 -0.72723269 0.00000023
-0.76484996 -0.64830571 -0.00000038
-0.20124419 -0.49946621 0.00000094
-0.78939539 -0.29569411 -0.00000126
-0.67656416 -0.42064741 0.17237645
-0.41888049 -0.73563242 0.00000020
-0.48233083 -0.41909567 0.00000119
-0.46142015 -0.52070779 0.00000087
-0.30600494 -0.05140476 0.00000234
-0.24000356 -0.48869151 0.00000097
-0.77600497 0.00068987 -0.00000177
-0.46688461 -0.58601660 0.00000067
-0.27075213 0.42777982 0.00000272
-0.17011006 -0.18472473 0.00000192
-0.45939434 -0.67737329 0.00000038
-0.01454128 0.66784406 0.00000259
-0.29398781 -0.62642264 0.00000054
-0.04239365 0.63035142 0.00000255
-0.49005300 -0.13140519 0.00000109
-0.42570069 -0.13505504 0.00000171
-0.69886130 -0.55596578 0.13834374
-0.43829846 -0.32205337 0.00000149
-0.34084880 -0.73009884 0.00000022
-0.29817715 -0.54180831 0.00000081
-0.04037169 0.18988137 -0.00000687
-0.11909380 0.48013040 0.00000144
-0.03630110 0.44390529 -0.00000158
-0.40460083 -0.77021641 0.00000009
-0.15276228 -0.22979665 0.00000178
-0.34313941 -0.65841866 0.00000044
-0.30986094 0.19398002 0.00000254
-0.63708216 -0.33869264 -0.00000015
-0.05187199 -0.79730648 0.00000001
-0.04203657 -0.33252424 0.00000146
-0.61209661 -0.17694941 0.20915376
-0.40715772 -0.64025331 0.00000050
-0.74461979 -0.37573960 -0.00000106
-0.35546279 -0.49253523 0.00000096
-0.31759852 -0.67839748 0.00000038
-0.19598524 -0.10811776 0.00000216
-0.12905262 0.16412511 -0.00000501
-0.45270225 -0.20339680 0.00000151
-0.72998762 -0.70353043 0.10809874
-0.32121560 -0.62531400 0.00000055
-0.19821325 0.32547888 0.00000350
-0.43482238 -0.34788582 0.00000141
-0.10955026 -0.58432305 0.00000067
-0.46512812 -0.65335864 0.00000046
-0.15902641 0.44064525 0.00000378
-0.69339490 -0.61060041 -0.00000046
-0.64674222 -0.29198363 0.19604298
-0.22481473 0.05400671 -0.00000475
-0.01918356 -0.77608001 0.00000007
-0.52549517 -0.63057029 0.00000053
-0.27613872 -0.56351143 0.00000074
-0.55531788 0.10503351 0.00000026
-0.53786796 -0.33682057 0.00000080
-0.23436034 -0.08279756 0.00000224
-0.47674045 -0.33924043 0.00000139
-0.35632816 -0.35149053 0.00000140
-0.60693252 -0.39330259 0.00000019
-0.72154570 -0.68246007 0.10838677
-0.29622173 0.14939006 0.00000271
-0.45706168 -0.53912044 0.00000082
-0.63009626 -0.75784564 0.00000013
-0.12376048 -0.40762916 0.00000123
-0.64416158 -0.78830487 0.00000004
-0.65136379 -0.14400822 0.26250333
-0.06695761 -0.77513146 0.00000008
-0.06285088 -0.15602653 0.00000201
-0.11902933 0.22751400 -0.00000393
-0.42770708 0.03156887 0.00000155
-0.09876227 0.06390446 -0.00000796
-0.44430512 -0.28018343 0.00000162
-0.06344437 0.16164669 -0.00000684
-0.17147808 0.08195391 -0.00000560
-0.79433328 -0.12700748 -0.00000168
-0.09237194 0.52296579 0.00000162
-0.74158651 -0.69918072 0.12161024
-0.78115135 -0.63560933 -0.00000041
-0.05030504 -0.61670470 0.00000057
-0.78798813 -0.44066018 -0.00000090
-0.45337000 0.21413195 0.00000115
-0.41724375 0.05096172 0.00000163
-0.59521866 -0.07106936 0.00000003
-0.67770123 -0.15679955 -0.00000069
-0.54859865 0.18973880 0.00000025
-0.34551060 -0.47856018 0.00000100
-0.36816278 0.33423382 0.00000186
-0.00976099 0.64660537 0.00000201
-0.61433202 -0.25184563 -0.00000000
-0.57823455 -0.68842757 0.00000035
-0.65040594 -0.70934349 0.00000004
-0.61731243 -0.51917237 0.00000020
-0.06704729 0.19178273 -0.00000610
-0.41991591 -0.20924611 0.00000183
-0.76802504 -0.47044116 -0.00000082
-0.39742875 -0.20140909 0.00000187
-0.30812603 -0.59474570 0.00000064
-0.23434375 -0.13190679 0.00000209
-0.49125376 0.24689601 0.00000075
-0.61624885 -0.30467376 0.00000002
-0.46762651 -0.36589578 0.00000136
-0.59293067 -0.72242641 0.00000024
-0.17654184 0.14274895 -0.00000417
-0.50619441 0.19507347 0.00000065
-0.03874796 -0.75549817 0.00000014
-0.69793606 -0.37298214 0.21383221
-0.41031098 -0.51755005 0.00000088
-0.13978095 0.36833814 -0.00000038
-0.08398908 0.52575892 0.00000145
-0.60222757 -0.03334859 -0.00000007
-0.02622035 -0.36723939 0.00000135
-0.11829687 -0.34308791 0.00000143
-0.03175718 0.62148166 0.00000207
-0.79555392 -0.48376796 -0.00000079
-0.65423471 -0.46952048 -0.00000020
-0.49357939 -0.57810092 0.00000069
-0.06347793 -0.45086572 0.00000109
-0.27185902 -0.00122702 0.00000250
-0.75138086 -0.26292303 -0.00000131
-0.45881018 -0.54912448 0.00000078
-0.14762498 0.41505858 0.00000083
-0.17238271 0.05300621 -0.00000619
-0.04611945 0.35792080 -0.00000314
-0.21411537 -0.00531458 0.00000248
-0.01035526 -0.22265299 0.00000185
-0.68275195 -0.18698873 0.27620083
-0.74642950 -0.52003604 -0.00000070
-0.03317368 0.09349496 -0.00000911
-0.22058725 -0.02263958 0.00000243
-0.02032142 -0.11728697 0.00000213
-0.71987897 -0.79413861 -0.00000001
-0.13979785 -0.62965465 0.00000053
-0.23641616 -0.15616015 0.00000201
-0.13067962 -0.35643688 0.00000139
-0.20903035 0.02452301 -0.00000580
-0.34018070 -0.46575487 0.00000104
-0.52637899 -0.17364804 0.00000078
-0.73715538 -0.68961960 -0.00000028
-0.26031461 -0.10897783 0.00000216
-0.44910958 0.22909816 0.00000117
-0.07180618 -0.35696906 0.00000138
-0.74352241 -0.21346980 -0.00000128
-0.00706216 -0.38381127 0.00000133
-0.21360002 -0.68068480 0.00000037
-0.29106691 -0.36865121 0.00000135
-0.61242580 0.01267940 0.28868213
-0.45927969 -0.06415560 0.00000133
-0.44580311 -0.22624290 0.00000159
-0.74868232 -0.70985472 0.12430687
-0.06073965 -0.02282329 0.00000243
-0.44317266 -0.44305077 0.00000112
-0.28285685 0.33274326 0.00000268
-0.02271954 -0.52410197 0.00000086
-0.41207948 0.26542976 0.00000150
-0.28544894 -0.11803998 0.00000213
-0.25160322 -0.38639313 0.00000129
-0.15290213 -0.74910545 0.00000016
-0.63602680 -0.59351522 0.00000008
-0.27126500 -0.71279478 0.00000027
-0.59920037 -0.01970959 0.26181906
-0.35838589 -0.79192358 0.00000003
-0.30416417 0.42789003 0.00000240
-0.12537648 -0.03668947 0.00000239
-0.08316249 0.54263902 0.00000179
-0.04744003 0.49938086 -0.00000010
-0.63114297 -0.22759306 0.20720680
-0.71899706 -0.77386510 -0.00000007
-0.54955131 0.14959969 0.00000028
-0.28339395 -0.15157621 0.00000203
-0.26795414 0.20749073 0.00000293
-0.68299943 -0.55206025 0.12398171
-0.68927372 -0.23238175 0.26381859
-0.10842228 -0.03795937 0.00000238
-0.31165072 0.46729237 0.00000229
-0.66137969 -0.35424909 0.18479699
-0.43142274 -0.06836988 0.00000160
-0.38257745 0.08822663 0.00000193
-0.49684855 0.20780253 0.00000073
-0.11129283 -0.40461555 0.00000124
-0.08642435 -0.59311390 0.00000065
-0.01118907 0.73581374 0.00000394
-0.01679952 -0.72617650 0.00000023
-0.57842922 -0.00968811 0.24506108
-0.67626083 -0.11840894 0.29829770
-0.51530403 -0.34762055 0.00000103
-0.34206784 0.10456807 0.00000231
-0.69413936 -0.04985806 -0.00000094
-0.16413724 -0.59750408 0.00000063
-0.49861068 -0.03610418 0.00000092
-0.04711661 0.48273426 -0.00000046
-0.23853990 0.03588008 -0.00000476
-0.69691479 -0.45742473 0.17753588
-0.73528224 -0.00134898 -0.00000138
-0.20164078 0.39659151 0.00000341
-0.56606805 0.15444911 0.00000011
-0.14494853 -0.14279447 0.00000205
-0.10271031 0.31304052 -0.00000256
-0.06119983 -0.19569471 0.00000189
-0.03383098 0.56403118 0.00000090
-0.62970275 -0.25141111 0.19580732
-0.16985375 -0.43055576 0.00000115
-0.77311772 -0.33504978 -0.00000116
-0.16558474 -0.57211655 0.00000071
-0.35462397 0.01363529 0.00000227
-0.14946714 -0.01396233 0.00000246
-0.46663037 0.11099759 0.00000111
-0.47585621 -0.62323195 0.00000055
-0.02330829 -0.32627970 0.00000148
-0.71118587 -0.59089661 -0.00000052
-0.03289273 0.59571618 0.00000155
-0.00751380 -0.15870288 0.00000200
-0.16754751 0.00310689 -0.00000738
-0.39684191 -0.62110543 0.00000056
-0.34798688 -0.74552584 0.00000017
-0.13402675 0.45649177 0.00000134
-0.41007161 -0.00599687 0.00000175
-0.43108135 -0.39027748 0.00000128
-0.73054457 -0.54644942 -0.00000063
-0.71916342 -0.26086485 -0.00000100
-0.42887986 0.11437059 0.00000147
-0.74325734 -0.53172630 -0.00000067
-0.00934423 0.26453465 -0.00000612
-0.02084015 0.74352205 0.00000437
-0.66857123 -0.16978095 0.26908940
-0.39811596 -0.30834746 0.00000154
-0.04655416 0.57290989 0.00000144
-0.42285910 -0.49671081 0.00000095
-0.75006407 -0.24731563 -0.00000131
-0.13636193 0.54161710 0.00000391
-0.10434100 -0.65310782 0.00000046
-0.64129090 -0.60168886 0.00000004
-0.40214020 0.36180818 0.00000151
-0.42441562 0.17803963 0.00000145
-0.76097363 -0.12772544 -0.00000152
-0.68802696 -0.39593291 -0.00000059
-0.62579775 -0.22781368 0.20172524
-0.33777624 -0.15199786 0.00000203
-0.63001972 -0.26102251 0.19211277
-0.26164189 0.14836538 -0.00000174
-0.78326660 -0.35249317 -0.00000112
-0.53863221 0.03736825 0.00000048
-0.68490028 -0.57928824 -0.00000040
-0.28056318 0.33123791 0.00000271
-0.12261708 0.67309183 0.00000397
-0.26733556 0.45490006 0.00000273
-0.67099172 -0.14598027 0.28147009
-0.49993101 -0.47705734 0.00000101
-0.71882576 -0.16279401 -0.00000108
-0.45501810 0.20803636 0.00000114
-0.52310091 -0.14222556 0.00000078
-0.03001737 0.33990318 -0.00000396
-0.06093651 -0.25957853 0.00000169
-0.75009018 -0.44249991 -0.00000089
-0.21614285 0.12077594 -0.00000356
-0.00402652 -0.25146595 0.00000173
-0.46565932 -0.62150091 0.00000056
-0.16515119 -0.52908480 0.00000085
-0.32400036 -0.70014805 0.00000031
-0.47906083 0.19842227 0.00000091
-0.65440291 -0.34553671 -0.00000031
-0.62398857 -0.46378633 0.00000009
-0.52557951 -0.70494056 0.00000030
-0.12160838 0.01211448 -0.00000844
-0.10156666 -0.27910766 0.00000163
-0.09097282 0.37247092 -0.00000161
-0.00725411 -0.34564632 0.00000145
-0.17068525 0.21817686 -0.00000273
-0.79343063 -0.52127922 -0.00000070
-0.36904764 0.13798609 0.00000202
-0.62861878 -0.24522600 0.19729751
-0.73684543 -0.05903077 -0.00000134
-0.10823582 0.19728796 -0.00000487
-0.73342365 -0.59510070 0.15684785
-0.03282504 -0.57619572 0.00000070
-0.00187765 0.38391596 -0.00000379
-0.03723798 0.46562344 -0.00000109
-0.61895257 -0.71550167 0.00000026
-0.70844090 -0.39281839 -0.00000079
-0.09723275 0.07741626 -0.00000771
-0.62396061 -0.73364049 0.00000021
-0.67160624 -0.31347427 0.21213736
-0.40325755 -0.71446753 0.00000027
-0.44480318 -0.15591136 0.00000154
-0.13051166 0.52719539 0.00000398
-0.06533083 -0.29682907 0.00000157
-0.06186574 0.19832315 -0.00000611
-0.75608104 -0.30874136 -0.00000123
-0.67107165 -0.05775914 -0.00000071
-0.69367409 -0.65981263 -0.00000035
-0.29917362 -0.11796759 0.00000213
-0.33716050 0.44052684 0.00000207
-0.13273783 -0.08552517 0.00000223
-0.07747880 0.51465142 0.00000104
-0.70795357 -0.42865175 0.20068276
-0.55073822 -0.53922194 0.00000081
-0.39214811 -0.55701911 0.00000076
-0.48524034 0.27143148 0.00000079
-0.04178897 0.04129036 -0.00000999
-0.02049063 -0.58312035 0.00000068
-0.32593247 0.05413413 0.00000251
-0.23820554 -0.20899042 0.00000185
-0.29574224 -0.26898444 0.00000166
-0.54740626 0.18547516 0.00000027
-0.68682003 -0.55274910 0.12754621
-0.20679146 -0.40713471 0.00000123
-0.58553660 -0.07075632 0.22672454
-0.23028319 0.06814331 -0.00000430
-0.75059617 0.04682707 -0.00000157
-0.27774340 -0.53847104 0.00000082
-0.18613996 0.00514689 -0.00000684
-0.47175816 0.26331621 0.00000093
-0.13243572 0.09333907 -0.00000642
-0.30862191 -0.69439822 0.00000033
-0.59226233 -0.32387951 0.00000027
-0.03713050 -0.11897179 0.00000213
-0.55052328 0.13628303 0.00000028
-0.59348655 -0.03085151 0.25140420
-0.22471415 -0.72559637 0.00000023
-0.78332436 -0.36070943 -0.00000110
-0.33059186 0.29282597 0.00000226
-0.29471552 -0.22949298 0.00000178
-0.06380181 0.39276749 -0.00000192
-0.71471715 -0.66619819 -0.00000033
-0.48646358 -0.62577045 0.00000054
-0.13088018 0.24931508 -0.00000315
-0.14297418 -0.72593927 0.00000023
-0.69716114 -0.62563443 -0.00000044
-0.45633900 0.19905193 0.00000113
-0.06735554 -0.23514663 0.00000177
-0.74383622 -0.52123201 -0.00000070
-0.56614786 -0.29672235 0.00000050
-0.22771125 0.29231563 0.00000325
-0.62780088 -0.70896614 0.00000026
-0.67985284 -0.36811534 -0.00000053
-0.45765024 -0.71631747 0.00000026
-0.20157169 0.43452597 0.00000338
-0.64028382 0.14569075 -0.00000059
-0.73752630 0.01063850 -0.00000141
-0.58648878 -0.48388839 0.00000046
-0.47702152 -0.73252827 0.00000021
-0.01080342 -0.20005152 0.00000192
-0.24067450 -0.09562067 0.00000220
-0.62837905 -0.01479922 -0.00000034
-0.19954728 0.02662299 -0.00000601
-0.46621892 -0.59105045 0.00000065
-0.27574813 -0.76067042 0.00000012
-0.40362260 -0.16416119 0.00000195
-0.24770118 0.08282174 -0.00000351
-0.06839461 -0.35607511 0.00000139
-0.79468429 -0.24868096 -0.00000138
-0.43868473 -0.47000107 0.00000103
-0.09550838 -0.65018153 0.00000047
-0.55379695 -0.67008448 0.00000041
-0.21131009 -0.11628236 0.00000214
-0.10943055 0.45370361 0.00000061
-0.74320465 -0.71783614 0.11545049
-0.67952263 -0.08555196 -0.00000077
-0.02692161 -0.62755746 0.00000054
-0.47620091 -0.00920485 0.00000112
-0.33184871 0.40845287 0.00000215
-0.30556449 -0.31843209 0.00000150
-0.11405335 -0.20314430 0.00000187
-0.00245652 -0.58053416 0.00000069
-0.78622091 -0.79471630 -0.00000001
-0.25478709 0.07032311 -0.00000359
-0.31414738 0.18683283 0.00000251
-0.21408652 -0.09276381 0.00000221
-0.00816384 -0.47690120 0.00000105
-0.77056527 0.02724909 -0.00000172
-0.77505124 -0.19082963 -0.00000152
-0.40012658 0.03939673 0.00000181
-0.72237664 -0.21767811 -0.00000107
-0.57918864 -0.26949134 0.00000035
-0.22105199 -0.03265683 0.00000240
-0.46861914 0.32026023 0.00000091
-0.64312536 -0.17194743 0.24252817
-0.68653107 -0.09630602 -0.00000083
-0.62952894 -0.19609645 -0.00000020
-0.54828626 -0.43018675 0.00000078
-0.13113329 0.05897805 -0.00000719
-0.28653127 0.20970134 0.00000275
-0.05841234 0.12131234 -0.00000784
-0.73855978 -0.34965146 -0.00000111
-0.23576716 0.30050290 0.00000316
-0.14279898 -0.58631587 0.00000067
-0.02881251 -0.74270326 0.00000018
-0.18476461 0.32096866 -0.00000016
-0.33672863 -0.39648920 0.00000126
-0.69088537 -0.69387436 -0.00000027
-0.22965170 -0.14623727 0.00000204
-0.54363978 0.17371050 0.00000031
-0.10923463 0.51483178 0.00000191
-0.17431615 -0.69385844 0.00000033
-0.22445944 0.45452985 0.00000314
-0.59870893 -0.48182702 0.00000034
-0.07863063 -0.75315934 0.00000015
-0.42581838 -0.68464768 0.00000036
-0.79572731 -0.73919439 -0.00000015
-0.76437467 -0.61037302 -0.00000047
-0.28359777 -0.79568368 0.00000001
-0.06030188 -0.20123987 0.00000187
-0.02246248 -0.07410717 0.00000227
-0.42624691 -0.03846000 0.00000162
-0.36992136 -0.07762787 0.00000220
-0.16270351 0.63392943 0.00000361
-0.49652335 -0.21103635 0.00000109
-0.68518865 -0.37708667 -0.00000058
-0.54953104 0.20126803 0.00000023
-0.66166812 -0.20626879 0.24689037
-0.00253945 -0.65631789 0.00000046
-0.69176745 -0.40622854 -0.00000061
-0.67286873 -0.29738170 -0.00000053
-0.65308017 -0.07034930 0.29499689
-0.20347360 0.19875564 -0.00000225
-0.67922586 -0.25260869 0.24523997
-0.41671270 -0.21300699 0.00000183
-0.77634990 -0.55880821 -0.00000060
-0.39097449 0.00114264 0.00000193
-0.60602021 -0.59149474 0.00000037
-0.37304896 -0.57481360 0.00000070
-0.31625494 -0.18595913 0.00000192
-0.66450107 -0.18986885 0.25659603
-0.64398783 -0.59033334 0.00000000
-0.11915246 0.39036649 -0.00000047
-0.22249269 0.47915876 0.00000314
-0.73946381 -0.76993936 0.08991829
-0.15430126 0.62923169 0.00000366
-0.65205705 -0.75187975 0.00000006
-0.00351071 0.01233915 -0.00001164
-0.10196625 0.69622374 0.00000411
-0.10057639 -0.29954508 0.00000156
-0.10253872 -0.24918248 0.00000172
-0.03497495 0.19863319 -0.00000683
-0.03047401 0.09893624 -0.00000907
-0.36703938 0.38964722 0.00000183
-0.17917214 -0.45881057 0.00000107
-0.63541353 -0.59674615 0.00000009
-0.17201018 -0.18372364 0.00000193
-0.57801968 -0.77121913 0.00000009
-0.13808668 -0.13566065 0.00000208
-0.72902828 -0.77218807 0.07845722
-0.13477123 0.22015651 -0.00000366
-0.51990467 -0.06048347 0.00000074
-0.03503847 -0.10294481 0.00000218
-0.31787318 0.09203130 0.00000255
-0.70195323 -0.01518116 -0.00000105
-0.19010498 0.57474387 0.00000337
-0.62712157 -0.71918792 0.00000025
-0.78726739 -0.44417560 -0.00000089
-0.54467463 -0.47352284 0.00000086
-0.35027349 -0.74462926 0.00000017
-0.29794937 -0.57144034 0.00000071
-0.02502627 0.36292157 -0.00000361
-0.45278567 -0.20629056 0.00000151
-0.10297876 0.46201462 0.00000061
-0.51070338 0.09080486 0.00000070
-0.14759026 -0.16037646 0.00000200
-0.67861825 -0.15068792 0.28719363
-0.49615541 -0.42614654 0.00000117
-0.52340305 -0.34522665 0.00000095
-0.23681754 0.06087228 -0.00000427
-0.40777242 -0.32022235 0.00000150
-0.53918481 -0.74064457 0.00000019
-0.66638964 -0.15855931 -0.00000058
-0.37375894 -0.22513165 0.00000180
-0.40691146 0.04071444 0.00000174
