ply
format ascii 1.0
element vertex 1278
property float x
property float y
property float z
end_header
-0.59736472 -0.45136598 -0.00000034
0.25377795 -0.64722824 0.66109997
-0.55715173 0.13763911 -0.00000121
0.25386488 -0.64700574 0.66132641
-0.69019639 -0.36386842 -0.00000089
-0.65621585 -0.62604195 -0.00000028
-0.17620727 0.31280875 0.00000000
-0.37289178 0.42072359 -0.00000092
-0.12719423 0.03728727 0.00000000
0.18349740 -0.67951888 0.47801772
-0.25311369 -0.02484879 0.00000000
-0.51669055 -0.43327934 -0.00000002
-0.49917597 0.20855220 -0.00000108
-0.03052627 -0.63828373 0.00000000
0.24986310 -0.69465536 0.65090203
0.22075166 -0.65826160 0.57506633
0.03557249 -0.78941101 0.09266768
0.27791521 -0.64582169 0.72397804
-0.04282130 -0.13779823 0.00000000
-0.33009094 -0.18486989 0.00000000
-0.34647280 -0.63982230 0.00000000
-0.13415562 -0.47193599 0.00000000
0.20899627 -0.71689445 0.54444325
-0.37744600 0.12825513 -0.00000042
-0.36944219 -0.51203853 0.00000000
-0.70270592 -0.15014598 -0.00000132
-0.53415161 -0.65723366 0.00000000
0.19905010 -0.74848562 0.51853311
-0.68231446 -0.42151734 -0.00000075
-0.66079795 -0.14951932 -0.00000114
-0.69967556 -0.60248524 -0.00000049
-0.11047292 0.47314477 0.00000000
-0.61389071 -0.38826796 -0.00000052
-0.62474710 -0.75604737 0.00000000
-0.51512313 -0.22301520 -0.00000039
-0.14293325 0.28499427 0.00000000
-0.21753044 0.06982223 0.00000000
-0.25788409 -0.27910301 0.00000000
-0.20161508 -0.02579804 0.00000000
-0.13358690 -0.65199643 0.00000000
-0.24663234 -0.39121932 0.00000000
-0.50123304 -0.38131908 -0.00000005
-0.12077659 0.56068152 -0.00000009
-0.27201545 -0.20547110 0.00000000
-0.35625622 -0.41777182 0.00000000
-0.04699652 0.51305395 0.00000000
-0.48614064 -0.08202027 -0.00000052
-0.14824399 0.20088664 0.00000000
0.23651630 -0.76195681 0.61613381
-0.49520949 -0.51742816 0.00000000
-0.52116567 -0.34057617 -0.00000021
-0.21973874 -0.73384082 0.00000000
-0.21082620 -0.29420575 0.00000000
-0.46787757 -0.10769844 -0.00000039
-0.08099702 -0.70509231 0.00000000
-0.64488930 -0.44199401 -0.00000056
-0.55811411 -0.19184916 -0.00000063
-0.14806792 -0.52056271 0.00000000
-0.70196247 -0.20615397 -0.00000122
-0.00759297 0.32817280 0.00000000
-0.39922562 -0.03720406 -0.00000022
-0.23298275 0.30593067 -0.00000012
-0.63463724 0.06903094 -0.00000142
-0.60060710 -0.16634256 -0.00000085
-0.10136631 0.01386011 0.00000000
-0.74587554 -0.27589500 -0.00000128
-0.65269482 -0.18668003 -0.00000104
-0.59092045 -0.52434105 -0.00000018
-0.09876616 0.14783418 0.00000000
-0.07140333 -0.75343305 0.00000000
-0.31135264 0.10326528 -0.00000010
-0.10978548 0.63635683 -0.00000018
-0.36754492 0.41562283 -0.00000089
-0.10490327 -0.02790803 0.00000000
-0.38443905 -0.37160301 0.00000000
-0.44269961 -0.60755092 0.00000000
-0.51871192 -0.60929453 0.00000000
-0.14062902 -0.64494574 0.00000000
-0.28350526 -0.54035640 0.00000000
-0.45982605 -0.56880879 0.00000000
-0.48057666 -0.41440961 0.00000000
-0.30520171 0.04313875 0.00000000
-0.41923621 -0.30539805 0.00000000
-0.36339927 0.24616449 -0.00000057
0.21190181 -0.68347055 0.55201232
-0.09995947 -0.51184219 0.00000000
-0.54436845 -0.50704587 -0.00000001
-0.10894429 0.29490945 0.00000000
-0.42957717 -0.03845191 -0.00000035
-0.12944399 -0.72352636 0.00000000
-0.59822673 -0.52387226 -0.00000021
-0.43918151 -0.12723301 -0.00000024
-0.38736376 -0.23541567 0.00000000
-0.15035769 -0.12225324 0.00000000
-0.00240624 0.77978271 0.00000000
-0.31045961 -0.46592596 0.00000000
-0.66862774 -0.65671885 -0.00000028
-0.06842607 0.20401767 0.00000000
-0.41502634 -0.34025362 0.00000000
-0.61210418 -0.10614377 -0.00000101
-0.77433383 -0.05499410 -0.00000179
-0.26633710 -0.55549479 0.00000000
0.27169850 -0.66595781 0.70778352
0.08416198 -0.75841540 0.21924517
-0.47747031 -0.00927637 -0.00000061
-0.29290473 -0.72372872 0.00000000
-0.58694237 -0.34954968 -0.00000047
-0.10544077 -0.42643696 0.00000000
-0.79308116 -0.27834305 -0.00000130
-0.62871581 -0.22948208 -0.00000086
-0.40935469 -0.62162423 0.00000000
-0.72394699 0.02953727 -0.00000173
-0.22866736 -0.60039705 0.00000000
-0.68235242 0.11442736 -0.00000165
-0.12224573 0.05946020 0.00000000
-0.35357600 0.17474271 -0.00000040
-0.46074101 0.01560151 -0.00000058
-0.52569294 -0.44444025 -0.00000004
-0.16604036 -0.41984373 0.00000000
-0.31026635 -0.41436568 0.00000000
-0.46403116 -0.72710490 0.00000000
-0.02118064 0.28376299 0.00000000
-0.79672033 -0.11847127 -0.00000170
-0.17974693 -0.77174687 0.00000000
-0.33127293 -0.59281909 0.00000000
-0.72984827 -0.41714671 -0.00000096
-0.55091423 -0.36277372 -0.00000030
-0.68997693 -0.47042775 -0.00000070
-0.77542323 -0.32175002 -0.00000120
-0.57877755 -0.56972611 -0.00000005
-0.29940087 -0.76523542 0.00000000
0.25068736 -0.75864929 0.65304959
-0.19957495 -0.41988903 0.00000000
0.14257319 -0.68094718 0.37140861
-0.52104318 -0.21906202 -0.00000042
-0.25242421 0.08598146 0.00000000
-0.46956336 -0.66894108 0.00000000
-0.30154347 -0.17252313 0.00000000
-0.02094536 -0.24539746 0.00000000
-0.22076650 0.11872958 0.00000000
-0.39357305 -0.37881562 0.00000000
-0.07036765 0.46646148 0.00000000
0.05495802 -0.79151368 0.14316773
-0.26308599 0.21303350 -0.00000009
-0.12179320 -0.23973633 0.00000000
-0.06593010 -0.29908997 0.00000000
-0.35800833 0.17202671 -0.00000042
-0.02429156 0.10809147 0.00000000
-0.04351881 -0.16904679 0.00000000
0.24496277 -0.71145624 0.63813668
-0.00272378 0.21732011 0.00000000
-0.53220707 -0.19525285 -0.00000051
-0.25127396 0.39570868 -0.00000036
-0.09655237 -0.01620996 0.00000000
-0.45947185 0.27872732 -0.00000104
-0.58110589 0.19962367 -0.00000142
-0.07106396 0.27811569 0.00000000
-0.56795090 -0.33249038 -0.00000042
-0.57006454 -0.21686219 -0.00000064
-0.11873654 0.32419389 0.00000000
-0.58940703 -0.50804448 -0.00000020
-0.27033493 0.17316392 -0.00000005
0.20001499 -0.70575505 0.52104670
-0.07394272 0.18520369 0.00000000
-0.51240563 -0.20517802 -0.00000041
-0.63773471 0.04493661 -0.00000139
-0.17850167 -0.32066983 0.00000000
-0.07856975 -0.55411661 0.00000000
0.25661367 -0.72182381 0.66848755
-0.39707446 0.22882400 -0.00000068
-0.25512156 -0.63286996 0.00000000
0.27685165 -0.73947847 0.72120804
-0.27468219 -0.68394470 0.00000000
-0.38365680 -0.37040716 0.00000000
0.17940217 -0.75373262 0.46734950
-0.13373284 0.29573560 0.00000000
-0.03524970 0.10780725 0.00000000
-0.06271203 0.18192679 0.00000000
-0.13241205 -0.47561914 0.00000000
-0.02451909 -0.17458965 0.00000000
-0.45397165 -0.55193609 0.00000000
-0.19452985 -0.11974961 0.00000000
0.13773245 -0.76266980 0.35879827
-0.31024697 -0.73334765 0.00000000
0.25234088 -0.66926211 0.65735656
-0.38983589 -0.65529209 0.00000000
0.27921075 -0.72778320 0.72735345
-0.67954332 -0.28141779 -0.00000099
-0.63739860 -0.27945825 -0.00000081
-0.24611615 0.19473752 0.00000000
-0.74447054 -0.14351763 -0.00000151
-0.20402096 -0.76785368 0.00000000
-0.45753327 -0.27992231 -0.00000004
-0.04585331 0.30613831 0.00000000
-0.17647448 -0.64099675 0.00000000
-0.47137827 0.32528654 -0.00000117
-0.60953438 -0.09000348 -0.00000103
-0.12090395 0.67201895 -0.00000029
-0.44731966 0.12634362 -0.00000072
-0.26995525 -0.11478037 0.00000000
-0.18807831 0.49148110 -0.00000026
-0.30211824 -0.07158503 0.00000000
-0.53100216 -0.59570324 0.00000000
0.20991050 -0.76166767 0.54682487
-0.29300448 -0.07304342 0.00000000
-0.40080377 -0.03476600 -0.00000023
-0.49150482 -0.55287349 0.00000000
-0.11394321 -0.76410395 0.00000000
-0.25957048 -0.38065842 0.00000000
-0.10010261 0.62938261 -0.00000013
-0.24358642 0.40753233 -0.00000035
0.22190511 -0.70483094 0.57807130
-0.13568664 -0.13444933 0.00000000
-0.24937780 -0.20241608 0.00000000
-0.65962309 -0.72761387 -0.00000011
-0.67535877 -0.67817444 -0.00000027
-0.02120024 0.33657140 0.00000000
-0.60528022 -0.63425773 -0.00000005
0.23410140 -0.71135223 0.60984272
-0.11383850 -0.25506729 0.00000000
-0.27266759 -0.41636443 0.00000000
-0.29053351 0.21469694 -0.00000021
-0.34376410 0.05791964 -0.00000016
-0.17443395 -0.17240326 0.00000000
-0.68678433 -0.14910297 -0.00000125
-0.03646552 -0.76860750 0.00000000
-0.07232228 -0.33158565 0.00000000
-0.14012095 -0.45483214 0.00000000
-0.37332988 -0.52949470 0.00000000
-0.66539836 0.10689423 -0.00000161
-0.71115470 -0.21002430 -0.00000125
-0.05244397 -0.52781183 0.00000000
-0.64210433 -0.49635100 -0.00000045
-0.00983943 -0.60815209 0.00000000
-0.23439337 0.53805286 -0.00000054
-0.34291917 0.14563286 -0.00000031
-0.49505737 -0.22095867 -0.00000031
-0.30626029 -0.42224622 0.00000000
-0.38332367 -0.20488468 0.00000000
-0.33673677 -0.05826751 0.00000000
-0.07427264 0.02470053 0.00000000
-0.51568156 0.17543590 -0.00000110
-0.11595456 -0.39616379 0.00000000
-0.49758360 -0.40700540 0.00000000
-0.78781992 -0.01293881 -0.00000193
-0.22580655 -0.78277856 0.00000000
-0.06841910 -0.25524199 0.00000000
-0.12870406 0.61449087 -0.00000022
-0.78686774 -0.13887347 -0.00000165
-0.32355493 -0.62906033 0.00000000
-0.25092363 0.06254290 0.00000000
0.07775139 -0.78471208 0.20254534
-0.59529328 -0.75202239 0.00000000
-0.11339727 -0.29975614 0.00000000
-0.21394749 0.37228471 -0.00000016
-0.10072725 -0.46393147 0.00000000
-0.08728428 0.45844799 0.00000000
-0.44796589 0.20311655 -0.00000086
-0.14356811 -0.51222843 0.00000000
-0.51995265 -0.67845023 0.00000000
-0.12502813 -0.60784334 0.00000000
-0.18432440 0.08744104 0.00000000
-0.44246945 -0.18970162 -0.00000014
-0.02180607 -0.21472335 0.00000000
-0.08800994 -0.53483492 0.00000000
-0.70673752 -0.71092534 -0.00000022
-0.01682778 -0.45950413 0.00000000
-0.62673420 -0.27072388 -0.00000078
-0.41057649 -0.19348201 0.00000000
-0.63749963 -0.63621485 -0.00000018
0.05066665 -0.77862638 0.13198856
-0.63577890 -0.62362826 -0.00000020
0.21355286 -0.76353347 0.55631334
-0.46454167 -0.63827485 0.00000000
-0.67338073 -0.63520133 -0.00000034
-0.38454333 0.19122943 -0.00000056
-0.61549276 -0.49658558 -0.00000033
-0.16999380 -0.45467845 0.00000000
-0.61533421 -0.09416927 -0.00000105
-0.18612704 -0.46959159 0.00000000
-0.45887133 -0.15995796 -0.00000026
-0.63928258 -0.16193026 -0.00000103
-0.60347015 -0.69137871 0.00000000
-0.27421325 -0.35522425 0.00000000
-0.20498285 -0.16924965 0.00000000
-0.28687778 -0.44085562 0.00000000
-0.49190104 -0.37079212 -0.00000003
-0.42697051 0.11466252 -0.00000061
-0.48538592 -0.06274064 -0.00000055
-0.21302904 -0.37965265 0.00000000
-0.78959650 -0.21515466 -0.00000146
-0.48393723 0.10637428 -0.00000084
-0.62957239 -0.71358985 -0.00000001
-0.39482656 -0.03979164 -0.00000020
-0.19157726 0.40048793 -0.00000011
-0.40549916 -0.08480272 -0.00000017
-0.42411542 -0.09191936 -0.00000023
-0.03798396 -0.69539142 0.00000000
-0.51722914 -0.25003898 -0.00000035
-0.20514052 -0.36581510 0.00000000
-0.74036252 -0.20504780 -0.00000138
-0.00823251 -0.19726411 0.00000000
-0.72759175 -0.46312943 -0.00000084
-0.13653268 -0.28637680 0.00000000
-0.41359797 -0.24543290 0.00000000
-0.12614453 0.25982738 0.00000000
-0.64943123 -0.68630487 -0.00000014
-0.50093669 -0.04528186 -0.00000064
-0.49851274 -0.62746143 0.00000000
-0.04822783 -0.63001364 0.00000000
-0.41297081 -0.09085862 -0.00000019
0.16612957 -0.79026806 0.43277389
-0.42516324 0.17438576 -0.00000071
-0.05472298 -0.20244583 0.00000000
-0.23646536 0.01690748 0.00000000
-0.47801408 -0.47583038 0.00000000
-0.08237493 0.09824696 0.00000000
-0.16474667 -0.17778528 0.00000000
-0.57954186 -0.12366546 -0.00000084
-0.35322461 -0.19354518 0.00000000
-0.39571550 -0.52517813 0.00000000
-0.76008666 -0.79767323 -0.00000001
-0.18493944 -0.55453610 0.00000000
-0.74480438 -0.61918032 -0.00000045
-0.60754716 -0.56200433 -0.00000019
-0.60961854 0.11849594 -0.00000140
-0.42965382 -0.51045454 0.00000000
-0.27907082 0.30299586 -0.00000031
-0.12290067 -0.33468315 0.00000000
-0.47705206 -0.58110464 0.00000000
-0.11105176 -0.69917083 0.00000000
-0.42703071 -0.66345340 0.00000000
-0.08260022 -0.12297215 0.00000000
0.28045198 -0.62296808 0.73058617
-0.03523498 0.12059909 0.00000000
-0.13920964 0.59058344 -0.00000022
-0.61034071 -0.25580433 -0.00000074
0.27667600 -0.58415407 0.72074944
0.15303370 -0.67310095 0.39865866
-0.58732510 0.02169600 -0.00000113
-0.28215879 -0.44883969 0.00000000
-0.28077972 0.06371898 0.00000000
-0.25175515 -0.69144171 0.00000000
-0.26396048 0.39806831 -0.00000042
-0.34684831 -0.25187618 0.00000000
-0.24908024 0.08625591 0.00000000
-0.19550297 0.60371560 -0.00000048
-0.31702948 -0.10314403 0.00000000
-0.21965452 -0.48187816 0.00000000
-0.29096064 0.35418811 -0.00000045
-0.73647410 -0.76450384 -0.00000009
-0.36776415 -0.30769223 0.00000000
-0.26426050 0.00308460 0.00000000
-0.11430694 -0.44881478 0.00000000
-0.32977504 -0.15521595 0.00000000
0.16403323 -0.75625026 0.42731282
-0.17506340 0.62074101 -0.00000043
-0.69776779 -0.12727980 -0.00000134
-0.75249076 -0.58396083 -0.00000054
-0.73949444 -0.48332632 -0.00000079
-0.10004764 -0.59646839 0.00000000
-0.67058086 -0.76115239 -0.00000010
-0.32004422 -0.03779640 0.00000000
-0.52044600 0.05910510 -0.00000091
-0.20098199 -0.09587717 0.00000000
-0.53183222 -0.25658482 -0.00000040
-0.49577409 -0.19346195 -0.00000036
-0.66983062 -0.59589934 -0.00000039
-0.23902816 -0.23654619 0.00000000
-0.48979387 -0.32925853 -0.00000009
0.19521526 -0.66032863 0.50854319
0.27942184 -0.69071883 0.72790313
-0.54587096 -0.54559582 0.00000000
-0.17091301 -0.51119459 0.00000000
-0.58165604 -0.75472546 0.00000000
0.23869434 -0.63480151 0.62180692
-0.46572474 -0.13825393 -0.00000033
-0.13432206 0.56779832 -0.00000016
-0.61728752 -0.30947927 -0.00000067
-0.74975890 -0.39449516 -0.00000101
-0.18270421 0.61534017 -0.00000042
-0.07739947 -0.07286849 0.00000000
0.18558857 -0.75332892 0.48346531
-0.51786864 -0.00634350 -0.00000078
-0.08893456 -0.55233127 0.00000000
-0.02695656 -0.12998344 0.00000000
-0.20896630 0.12347773 0.00000000
-0.78049624 -0.05243100 -0.00000182
-0.21639106 0.17086311 0.00000000
-0.01717089 -0.14844219 0.00000000
-0.51062328 -0.50389946 0.00000000
-0.78088927 -0.24114078 -0.00000140
-0.66189611 -0.46932480 -0.00000058
-0.09857415 -0.23545191 0.00000000
-0.20947579 -0.64624524 0.00000000
-0.67891896 0.05035831 -0.00000157
-0.55676192 -0.12247226 -0.00000075
-0.70892769 -0.65239841 -0.00000037
-0.43652982 -0.54558903 0.00000000
-0.10916640 -0.72833133 0.00000000
0.26700100 -0.58035952 0.69554585
-0.73777962 -0.75158995 -0.00000012
-0.28147081 -0.64131296 0.00000000
-0.00312336 0.44836187 0.00000000
-0.11061832 0.39250189 0.00000000
-0.19361417 0.03110773 0.00000000
0.24191535 -0.61655861 0.63019758
-0.75450587 -0.36894116 -0.00000108
-0.33999458 -0.54765451 0.00000000
0.18431532 -0.67192864 0.48014846
0.06574704 -0.74369121 0.17127354
-0.60269713 -0.55939895 -0.00000017
-0.07415891 0.01728594 0.00000000
-0.57985550 -0.31777760 -0.00000050
-0.08755575 -0.70768148 0.00000000
-0.64766616 -0.23452637 -0.00000094
-0.71357393 -0.77290559 -0.00000007
0.13707882 -0.76247180 0.35709557
-0.07505797 0.33760604 0.00000000
-0.18357866 -0.75155741 0.00000000
-0.06492890 -0.21435583 0.00000000
0.28065479 -0.73181552 0.73111528
0.27546757 -0.58061731 0.71760142
-0.32024908 0.33351561 -0.00000054
-0.60092765 -0.52193165 -0.00000023
0.27973616 -0.72449535 0.72872216
-0.39404207 -0.36006102 0.00000000
-0.12387936 -0.12605824 0.00000000
-0.63814449 0.06518305 -0.00000142
-0.42849609 -0.33264762 0.00000000
-0.01901724 -0.02596008 0.00000000
-0.65253055 -0.18220755 -0.00000105
-0.61446220 0.09262226 -0.00000137
-0.40199250 -0.33645907 0.00000000
-0.62828922 -0.04294547 -0.00000119
-0.60181195 -0.61691761 -0.00000006
-0.26839554 -0.58874243 0.00000000
-0.36899945 -0.61653566 0.00000000
-0.45127589 -0.79544443 0.00000000
-0.73438132 0.06030972 -0.00000183
-0.06386173 -0.68916965 0.00000000
-0.46439552 -0.49522671 0.00000000
-0.25599685 -0.48933759 0.00000000
-0.44898468 0.04610685 -0.00000058
-0.57545483 -0.46147683 -0.00000023
-0.73236275 -0.39381003 -0.00000102
-0.50367582 -0.63785005 0.00000000
-0.03223086 -0.50035834 0.00000000
-0.14863996 0.06655095 0.00000000
-0.39354926 0.30210543 -0.00000080
-0.59834456 -0.24010602 -0.00000071
0.25216183 -0.66101247 0.65689003
-0.79960787 -0.75313652 -0.00000012
-0.40781170 0.20415418 -0.00000069
-0.11246353 0.61569178 -0.00000015
-0.05299068 0.45513543 0.00000000
-0.72890103 -0.40630266 -0.00000098
-0.28560349 -0.39385673 0.00000000
-0.32941809 -0.61424810 0.00000000
-0.37381792 -0.76804864 0.00000000
-0.07548865 -0.00202771 0.00000000
-0.70455986 -0.75309181 -0.00000012
-0.33105221 -0.21695258 0.00000000
-0.32015309 -0.74694639 0.00000000
-0.34664372 -0.79162306 0.00000000
0.26763970 -0.61337262 0.69720984
-0.49456236 -0.45698890 0.00000000
-0.03621194 0.17649502 0.00000000
-0.60788900 -0.08260834 -0.00000103
-0.13892820 0.01414762 0.00000000
-0.44645727 0.32326141 -0.00000106
-0.30356482 -0.47818568 0.00000000
-0.13034426 -0.78352296 0.00000000
0.16399857 -0.67735773 0.42722255
0.10824089 -0.74928123 0.28197163
-0.48067200 -0.22717851 -0.00000024
0.26102623 -0.75825369 0.67998260
-0.22348242 -0.23918150 0.00000000
-0.08701296 0.36936793 0.00000000
-0.44692004 0.18764797 -0.00000082
-0.06864680 0.13257626 0.00000000
-0.59133798 -0.45942095 -0.00000030
-0.73598671 -0.14906864 -0.00000146
-0.10898349 0.55292833 -0.00000003
-0.01286848 -0.68427223 0.00000000
-0.71670121 0.03372775 -0.00000170
-0.73826343 -0.58939385 -0.00000053
-0.32279354 -0.06986698 0.00000000
-0.58618259 -0.16525076 -0.00000080
-0.31634441 -0.29821903 0.00000000
-0.43920103 -0.27261302 0.00000000
-0.13610367 -0.23655373 0.00000000
-0.18191449 0.47277009 -0.00000020
-0.05213099 -0.66901094 0.00000000
-0.56488758 0.11982512 -0.00000121
0.24793196 -0.63617718 0.64587092
-0.23085754 -0.24144372 0.00000000
-0.70721602 -0.18532415 -0.00000128
-0.57005936 -0.44873923 -0.00000023
-0.61166066 -0.17513894 -0.00000089
-0.61078650 -0.38624877 -0.00000051
-0.74177223 -0.03530524 -0.00000169
-0.31887981 0.38090026 -0.00000062
-0.30346748 -0.54816020 0.00000000
-0.61744905 -0.13710739 -0.00000098
-0.57497722 -0.63238353 0.00000000
-0.68990320 -0.10705980 -0.00000134
-0.16025521 0.58802807 -0.00000031
-0.00749727 -0.36250064 0.00000000
0.18072574 -0.78540277 0.47079745
-0.02705035 -0.47573093 0.00000000
-0.33526424 0.23904061 -0.00000044
-0.63852066 -0.72526741 -0.00000003
-0.56357902 -0.29793137 -0.00000046
-0.64766002 -0.14651410 -0.00000109
-0.52611428 0.15392110 -0.00000110
-0.16508546 -0.70578682 0.00000000
-0.49581850 0.15007614 -0.00000097
-0.24235871 -0.59479249 0.00000000
-0.06998395 -0.08924919 0.00000000
-0.02066228 -0.33551729 0.00000000
-0.01158112 0.04618380 0.00000000
-0.13642596 0.39786977 0.00000000
-0.07658677 0.20228237 0.00000000
-0.17420636 -0.61545593 0.00000000
-0.20874804 -0.05335584 0.00000000
-0.12193547 0.63227195 -0.00000022
0.20270249 -0.63842338 0.52804768
-0.31869337 -0.26299560 0.00000000
-0.16547944 -0.27442044 0.00000000
-0.48687840 -0.16618925 -0.00000037
-0.72123277 -0.62676036 -0.00000043
-0.42739043 0.11865974 -0.00000062
-0.42860025 -0.16311376 -0.00000013
0.18274821 -0.67469496 0.47606608
-0.13484602 -0.26974022 0.00000000
-0.53147167 0.09265849 -0.00000102
-0.12996551 0.04787267 0.00000000
-0.27749205 -0.56528014 0.00000000
-0.68380755 -0.16434264 -0.00000121
-0.45929536 0.15715276 -0.00000082
-0.21942914 0.32700941 -0.00000010
-0.19595554 0.07875531 0.00000000
-0.16152719 0.62214601 -0.00000037
-0.01725110 0.28853285 0.00000000
-0.57861537 -0.09184637 -0.00000089
-0.28314713 -0.40447590 0.00000000
-0.45458293 0.24787483 -0.00000096
-0.31677786 0.48039725 -0.00000074
-0.07349739 0.11910869 0.00000000
-0.70492214 -0.28731975 -0.00000109
-0.10947265 -0.50741398 0.00000000
0.22504099 -0.73263115 0.58624035
-0.79670608 -0.21213016 -0.00000147
-0.09648337 -0.18851686 0.00000000
-0.00721370 -0.19352956 0.00000000
-0.29161298 -0.71073151 0.00000000
-0.27262226 0.22909085 -0.00000015
-0.23139875 0.23384584 0.00000000
-0.73098910 -0.19975612 -0.00000135
-0.53010887 -0.41459250 -0.00000012
-0.77148223 -0.04481847 -0.00000180
-0.07024074 0.00140773 0.00000000
-0.08508819 -0.05565917 0.00000000
-0.25095594 0.26606598 -0.00000013
-0.09702955 0.24400014 0.00000000
0.27744758 -0.57943380 0.72275937
-0.32036683 0.14785875 -0.00000021
-0.77608961 -0.11460984 -0.00000170
-0.08418564 -0.66769552 0.00000000
0.28429416 -0.62209398 0.74059516
-0.32559183 0.25758612 -0.00000043
-0.44519284 -0.67068446 0.00000000
-0.25632823 0.49313289 -0.00000055
0.18263295 -0.68894237 0.47576579
-0.54577601 -0.51169795 -0.00000001
-0.30485404 -0.55782592 0.00000000
0.25102606 -0.79033840 0.65393215
-0.13785508 0.62515116 -0.00000028
-0.14108340 -0.27199143 0.00000000
-0.03004056 -0.02636866 0.00000000
-0.24321625 -0.32198730 0.00000000
-0.43409777 -0.73851311 0.00000000
-0.29719937 -0.76107198 0.00000000
-0.48188582 -0.02086152 -0.00000061
-0.51639926 0.24322455 -0.00000122
-0.69567972 -0.18953800 -0.00000122
-0.09467131 0.03936093 0.00000000
-0.31070292 0.08834491 -0.00000007
-0.48334768 0.29676834 -0.00000117
0.21283518 -0.72990787 0.55444378
-0.25867131 -0.68301100 0.00000000
-0.49114057 -0.72834998 0.00000000
-0.48436508 -0.04641133 -0.00000057
-0.26108801 -0.66526777 0.00000000
-0.22278468 -0.77389902 0.00000000
-0.39503849 -0.70763999 0.00000000
-0.32179242 -0.40778208 0.00000000
-0.26238075 -0.14142217 0.00000000
-0.48612946 -0.47341269 0.00000000
-0.56085366 -0.00022884 -0.00000098
-0.53631657 -0.52525812 0.00000000
-0.22736402 -0.60977751 0.00000000
-0.14727798 -0.46579039 0.00000000
-0.32807940 0.27350974 -0.00000047
-0.79458106 -0.57303035 -0.00000057
-0.06938983 -0.05241457 0.00000000
0.20115571 -0.75150067 0.52401829
-0.79954672 -0.19105992 -0.00000152
-0.70363200 -0.12701625 -0.00000136
-0.19954135 0.20772764 0.00000000
-0.14024130 0.57663232 -0.00000020
-0.19353285 0.06859224 0.00000000
-0.33480740 -0.32587510 0.00000000
-0.73118240 -0.69944155 -0.00000025
-0.56657153 -0.44998151 -0.00000021
-0.74126309 -0.52295512 -0.00000069
-0.16085941 0.46275797 -0.00000009
-0.70423031 -0.08466031 -0.00000144
-0.06241234 0.14947248 0.00000000
-0.56157297 0.20946202 -0.00000135
-0.46750343 -0.23108298 -0.00000017
-0.77023178 -0.64180195 -0.00000040
-0.10984749 0.43134812 0.00000000
-0.62337750 -0.66342384 -0.00000007
-0.34562555 -0.15717475 0.00000000
-0.50702125 0.14100458 -0.00000100
-0.21885188 0.45428953 -0.00000032
-0.32196432 -0.23456734 0.00000000
-0.44104829 0.26443544 -0.00000094
0.07692627 -0.77723557 0.20039587
-0.06594209 0.45911387 0.00000000
-0.43854591 0.24607873 -0.00000089
-0.46153215 0.31599066 -0.00000111
-0.04195122 0.54901397 0.00000000
-0.02231689 -0.14016318 0.00000000
0.12182745 -0.70799798 0.31736517
-0.66737348 -0.74196708 -0.00000012
-0.14711785 -0.05798702 0.00000000
-0.53024161 0.13889676 -0.00000109
-0.74054372 -0.45194209 -0.00000087
0.24154034 -0.65034527 0.62922090
-0.49282080 -0.00891514 -0.00000067
-0.26501155 -0.01684108 0.00000000
-0.14908542 -0.73611253 0.00000000
-0.08902215 -0.75189149 0.00000000
0.07342153 -0.75024927 0.19126587
-0.60227358 -0.37172204 -0.00000050
-0.02796874 -0.38233426 0.00000000
-0.62141353 -0.67033809 -0.00000005
-0.23333973 -0.73845536 0.00000000
-0.64022434 0.01138796 -0.00000134
-0.01385612 0.38310620 0.00000000
-0.63874245 -0.45062459 -0.00000052
-0.18159130 -0.01878541 0.00000000
-0.03510396 -0.72728044 0.00000000
-0.22436950 0.07347144 0.00000000
-0.18753240 -0.68879324 0.00000000
-0.12669218 0.01542812 0.00000000
0.06514817 -0.75659102 0.16971348
-0.24993980 -0.63527977 0.00000000
-0.08523116 0.14074145 0.00000000
-0.36528993 0.05259868 -0.00000024
-0.78919739 -0.00621747 -0.00000194
-0.01941751 -0.52174890 0.00000000
-0.37871724 -0.60946226 0.00000000
-0.20444848 -0.44782934 0.00000000
-0.01077880 -0.05159784 0.00000000
-0.44088581 0.20288882 -0.00000083
-0.46065140 0.24160877 -0.00000098
-0.04960646 0.18077864 0.00000000
-0.46600318 0.01299492 -0.00000060
-0.51949596 -0.52790397 0.00000000
-0.76595509 -0.58283305 -0.00000054
0.21084490 -0.67513466 0.54925907
-0.44864804 -0.68444937 0.00000000
-0.49672139 -0.18311667 -0.00000038
-0.48449922 -0.49798644 0.00000000
-0.71865833 -0.70502281 -0.00000024
-0.34175020 -0.25005594 0.00000000
-0.14717875 0.46902627 -0.00000004
-0.53978568 0.06873168 -0.00000101
-0.10746589 -0.46568206 0.00000000
-0.25015944 -0.68586183 0.00000000
-0.20267825 0.02940073 0.00000000
-0.22443765 0.44193479 -0.00000032
-0.36398327 -0.07815289 -0.00000000
-0.30316862 0.17983417 -0.00000020
-0.25240597 0.13604996 0.00000000
-0.64705235 -0.43231210 -0.00000058
-0.41623211 -0.43176070 0.00000000
-0.66007513 -0.31523356 -0.00000085
-0.76001400 0.03788303 -0.00000190
-0.78707975 -0.00955918 -0.00000193
-0.15488096 0.09102503 0.00000000
-0.72585499 -0.19269007 -0.00000134
-0.13184148 0.18511511 0.00000000
-0.75669664 -0.70740134 -0.00000023
0.21805166 -0.66514623 0.56803286
-0.19039430 -0.16783954 0.00000000
0.21720907 -0.79245251 0.56583792
-0.07382809 -0.29525712 0.00000000
-0.19037537 0.33002430 0.00000000
-0.22307163 -0.38684741 0.00000000
-0.62568933 -0.37858802 -0.00000059
-0.02898758 -0.17328148 0.00000000
-0.01161881 -0.20221984 0.00000000
-0.74651158 -0.15331207 -0.00000150
0.19847624 -0.75843638 0.51703817
-0.79356700 -0.09460077 -0.00000176
-0.78320676 -0.24202979 -0.00000139
-0.02676334 -0.66638070 0.00000000
-0.36188036 0.18402240 -0.00000046
-0.17351060 0.07488748 0.00000000
-0.19994679 0.19450076 0.00000000
-0.29270113 -0.21356072 0.00000000
-0.38678405 -0.12210663 -0.00000002
-0.64985019 -0.77494872 0.00000000
0.21643819 -0.78801161 0.56382972
-0.13889915 0.08972450 0.00000000
-0.20343351 -0.06475553 0.00000000
-0.20506120 -0.73164529 0.00000000
-0.09063627 0.08835416 0.00000000
-0.27064082 0.14114207 0.00000000
-0.38268140 0.15383321 -0.00000049
-0.14384559 -0.26252493 0.00000000
-0.00235355 0.20246641 0.00000000
-0.36632460 0.33480334 -0.00000074
-0.07784099 -0.17541009 0.00000000
-0.17889790 -0.31282783 0.00000000
-0.40343273 -0.47779274 0.00000000
-0.29820803 0.38586146 -0.00000054
-0.72391379 -0.06685971 -0.00000156
-0.57960033 -0.56931341 -0.00000005
-0.35296634 0.06490766 -0.00000021
-0.26948482 -0.50469726 0.00000000
-0.68567622 -0.38507047 -0.00000083
-0.03586307 0.16647325 0.00000000
-0.38474572 0.34928837 -0.00000085
-0.11531501 0.52911872 -0.00000001
-0.15539435 0.07831062 0.00000000
-0.22195636 -0.08488818 0.00000000
-0.44314751 -0.37297031 0.00000000
-0.20625912 -0.56615311 0.00000000
-0.46130338 -0.75732046 0.00000000
0.28430372 -0.75470418 0.74062091
-0.58780026 0.03532714 -0.00000116
-0.50350922 -0.19934408 -0.00000038
-0.04679954 -0.61965352 0.00000000
0.04750560 -0.76128376 0.12375391
-0.59993058 -0.39690262 -0.00000044
-0.29626265 0.47013333 -0.00000068
0.19470946 -0.74157423 0.50722557
-0.20214438 -0.39899185 0.00000000
-0.32900181 -0.09308934 0.00000000
-0.05501067 0.72001505 -0.00000009
-0.72758090 -0.61169273 -0.00000047
0.20752685 -0.66125780 0.54061538
-0.53393638 0.19078203 -0.00000120
-0.49376753 -0.31855530 -0.00000013
-0.17529614 -0.38735878 0.00000000
-0.78349084 -0.17149188 -0.00000157
-0.00268563 -0.00627307 0.00000000
-0.39375514 0.22732611 -0.00000067
-0.29840815 -0.66990155 0.00000000
-0.15059520 -0.61031067 0.00000000
-0.03046978 -0.49598226 0.00000000
-0.15429553 -0.07447273 0.00000000
-0.10722576 -0.57700062 0.00000000
-0.29057914 0.05954839 0.00000000
-0.48079005 -0.45679471 0.00000000
-0.56467623 -0.44610411 -0.00000021
-0.48296469 -0.56655884 0.00000000
-0.56218320 -0.54379326 -0.00000002
-0.00863869 -0.62393671 0.00000000
-0.18224765 0.07575365 0.00000000
-0.04704064 -0.54758829 0.00000000
-0.46304205 -0.13572437 -0.00000032
-0.02399728 -0.19447745 0.00000000
-0.09200174 -0.68053687 0.00000000
-0.01101153 0.06112998 0.00000000
-0.72013855 -0.56474054 -0.00000059
0.15283227 -0.78764212 0.39813387
-0.78078616 -0.33553395 -0.00000116
-0.00426880 -0.35664278 0.00000000
0.22295406 -0.76986545 0.58080381
0.14087246 -0.76218772 0.36697814
-0.67093486 -0.24668244 -0.00000101
-0.79659593 -0.32448322 -0.00000119
-0.77375913 -0.67018968 -0.00000032
-0.34505007 0.06201333 -0.00000017
-0.76731819 -0.70634687 -0.00000023
-0.13710491 -0.00146891 0.00000000
-0.31044590 0.01390908 0.00000000
-0.35273907 -0.32140550 0.00000000
-0.25616890 0.15072428 0.00000000
-0.18351199 0.26168135 0.00000000
0.26959407 -0.68830359 0.70230156
-0.45917329 -0.49566868 0.00000000
-0.17497711 -0.58798277 0.00000000
-0.73395157 -0.32960358 -0.00000114
-0.56432551 0.00827408 -0.00000101
0.27013615 -0.78132236 0.70371425
-0.39691827 -0.14741549 -0.00000002
0.16716442 -0.72179884 0.43546966
-0.61832780 -0.04710485 -0.00000114
0.26664314 -0.64089531 0.69461405
-0.35823584 -0.66463405 0.00000000
-0.08141407 0.67448592 -0.00000013
-0.72970814 -0.65327889 -0.00000037
-0.24042676 0.25033584 -0.00000005
-0.00146492 -0.44148168 0.00000000
-0.08587771 0.04949333 0.00000000
-0.26161721 -0.43984073 0.00000000
-0.12003820 -0.09613208 0.00000000
-0.03312758 0.24195062 0.00000000
-0.20849130 -0.22158380 0.00000000
-0.14378572 0.40133399 0.00000000
-0.09854143 0.42993927 0.00000000
-0.25422627 0.34651798 -0.00000028
-0.49861577 -0.02657674 -0.00000067
-0.53551835 0.08694345 -0.00000102
-0.19731453 -0.79350096 0.00000000
-0.24028094 -0.27858070 0.00000000
0.19999018 -0.73495960 0.52098209
-0.75578511 -0.54193842 -0.00000065
-0.59168947 0.13865253 -0.00000136
-0.70695144 0.01614210 -0.00000163
-0.78873372 -0.43530399 -0.00000091
-0.64868474 -0.23325486 -0.00000094
-0.35736540 -0.19486859 0.00000000
-0.31639993 0.09762424 -0.00000011
-0.03055652 0.53748006 0.00000000
-0.56985122 0.05272702 -0.00000111
-0.30752358 -0.65409803 0.00000000
-0.11844595 -0.02534358 0.00000000
-0.12818240 -0.77277982 0.00000000
-0.14955360 0.49894854 -0.00000011
-0.48838890 -0.68307352 0.00000000
-0.08667690 0.21626960 0.00000000
0.27588218 -0.61768681 0.71868175
-0.71354675 -0.72377127 -0.00000019
-0.29941893 0.07550828 0.00000000
-0.00050064 -0.59638536 0.00000000
-0.10439352 -0.06180686 0.00000000
-0.16659127 0.21592151 0.00000000
-0.36149877 -0.52425045 0.00000000
-0.43944222 -0.65659308 0.00000000
-0.14380044 0.26066765 0.00000000
-0.50637078 -0.21028498 -0.00000038
-0.10587123 0.10746131 0.00000000
-0.68398219 -0.31411731 -0.00000095
-0.40736324 0.24030638 -0.00000075
-0.66570711 0.06884718 -0.00000155
-0.07988874 0.45657584 0.00000000
-0.19137621 0.36945599 -0.00000006
-0.69892412 -0.74710649 -0.00000013
-0.19332267 -0.69821942 0.00000000
-0.58962250 -0.39315277 -0.00000041
-0.43104267 -0.39325187 0.00000000
-0.70087439 -0.65872627 -0.00000035
0.15988699 -0.71149004 0.41651171
-0.73130214 0.06823669 -0.00000182
-0.05451781 -0.38432714 0.00000000
-0.64471990 -0.03933237 -0.00000127
-0.10454269 -0.53856313 0.00000000
-0.50393003 0.28116301 -0.00000123
-0.64468849 -0.56620926 -0.00000034
-0.37369093 -0.78831095 0.00000000
-0.63696498 0.04860865 -0.00000139
-0.17817514 -0.77917707 0.00000000
-0.27166161 -0.74292332 0.00000000
-0.07159794 -0.03081141 0.00000000
-0.13848121 -0.26547101 0.00000000
-0.42070130 -0.40608668 0.00000000
-0.00182364 0.33827686 0.00000000
0.14354330 -0.77902848 0.37393576
-0.03394457 0.49323136 0.00000000
-0.17480126 -0.70321560 0.00000000
-0.01619790 -0.00135691 0.00000000
-0.06556871 -0.15732484 0.00000000
-0.44586170 0.03868719 -0.00000056
-0.42534459 -0.01950579 -0.00000037
-0.11415086 -0.31448826 0.00000000
-0.64152348 -0.32585567 -0.00000075
-0.29874155 -0.25084537 0.00000000
-0.14653602 0.44239208 0.00000000
-0.03038792 0.43615890 0.00000000
-0.75869328 -0.08675866 -0.00000167
-0.17035435 -0.43284705 0.00000000
-0.45230699 -0.65197170 0.00000000
-0.70354497 -0.30879501 -0.00000104
-0.53661269 -0.75625986 0.00000000
-0.54122412 -0.00660665 -0.00000088
-0.28230911 0.36699584 -0.00000044
-0.67046350 -0.42882237 -0.00000069
-0.00038477 0.52284878 0.00000000
-0.59002292 -0.59876770 -0.00000005
-0.44702789 -0.36935699 0.00000000
-0.03854884 -0.06530419 0.00000000
-0.33122492 -0.46579447 0.00000000
-0.02606480 0.65497977 0.00000000
-0.45101294 0.28993812 -0.00000102
-0.02602063 -0.23787892 0.00000000
-0.14556813 0.43186197 0.00000000
-0.59244901 -0.21853261 -0.00000073
-0.39820045 -0.59280181 0.00000000
-0.10289088 -0.26721635 0.00000000
0.19565907 -0.71690476 0.50969934
-0.24701516 -0.59199780 0.00000000
-0.71827179 -0.16717184 -0.00000136
0.16562881 -0.70289290 0.43146938
-0.36377153 -0.49341393 0.00000000
-0.50414163 -0.01704781 -0.00000071
-0.21116942 -0.10956603 0.00000000
-0.49375865 0.24894616 -0.00000113
-0.69750589 -0.40888092 -0.00000084
-0.42848310 -0.52615577 0.00000000
-0.04040546 -0.63834721 0.00000000
-0.08012346 0.52655923 0.00000000
-0.24502639 0.08664375 0.00000000
-0.39621657 0.11377276 -0.00000048
0.11023758 -0.71911168 0.28717309
0.18545012 -0.64022970 0.48310465
-0.51613206 0.03704820 -0.00000085
-0.02404534 0.08470392 0.00000000
0.15213537 -0.71629518 0.39631844
-0.63690364 -0.42351839 -0.00000056
0.24008504 -0.67850250 0.62542993
-0.36807370 -0.50482321 0.00000000
-0.13319169 0.47070774 0.00000000
-0.04126921 -0.36892232 0.00000000
0.24081616 -0.78154910 0.62733507
-0.08003586 -0.59493518 0.00000000
-0.50020021 -0.03139185 -0.00000067
-0.39859945 -0.11828600 -0.00000008
0.27905852 -0.71995074 0.72695684
-0.49265280 -0.51003063 0.00000000
-0.05473484 0.52865160 0.00000000
-0.01894860 -0.72348613 0.00000000
-0.07971097 0.27006292 0.00000000
-0.01590115 0.75546592 0.00000000
-0.45484638 -0.22561611 -0.00000013
-0.25682226 0.04364190 0.00000000
-0.05440760 0.68796974 -0.00000003
-0.22286722 0.06707008 0.00000000
-0.72290367 -0.22584528 -0.00000127
-0.51425791 -0.21473807 -0.00000040
-0.68093514 -0.14147305 -0.00000124
-0.42925638 -0.68537408 0.00000000
-0.75825274 -0.59519261 -0.00000051
-0.12535408 -0.66002494 0.00000000
-0.14794789 0.30582857 0.00000000
0.28008026 -0.78658813 0.72961891
-0.25820708 0.20506099 -0.00000005
-0.19868863 0.49929893 -0.00000032
-0.41538751 -0.18902788 -0.00000002
-0.02814493 -0.25942060 0.00000000
-0.01897199 -0.69159257 0.00000000
-0.29261529 -0.58821958 0.00000000
-0.32012945 -0.11117665 0.00000000
-0.07282687 0.42920905 0.00000000
-0.31706598 0.36079082 -0.00000058
-0.72371638 -0.76327127 -0.00000009
0.11629766 -0.76406533 0.30295983
-0.39764392 -0.13875771 -0.00000004
0.24702068 -0.61246407 0.64349693
-0.71079212 -0.26571462 -0.00000115
-0.54520535 -0.71875155 0.00000000
-0.46216863 -0.34980661 0.00000000
-0.72768533 -0.75224912 -0.00000012
-0.04466699 0.45019379 0.00000000
-0.43399876 -0.07926549 -0.00000030
-0.21936043 -0.20969115 0.00000000
-0.37738740 -0.41521332 0.00000000
-0.68467808 -0.77222860 -0.00000007
-0.19034721 0.13107973 0.00000000
-0.72337002 -0.31416193 -0.00000112
-0.13992342 0.45083222 0.00000000
-0.09716333 -0.29026377 0.00000000
-0.58206373 -0.25657335 -0.00000062
-0.59723169 -0.13919786 -0.00000089
-0.68945557 -0.71301597 -0.00000022
-0.04910337 -0.23549563 0.00000000
-0.23616461 -0.06447756 0.00000000
-0.62905204 0.14644954 -0.00000153
-0.00094007 0.16942726 0.00000000
-0.32910010 -0.19755606 0.00000000
-0.32628149 -0.43165660 0.00000000
-0.61465961 -0.07522341 -0.00000108
-0.12588005 -0.01187108 0.00000000
-0.61010069 -0.18685012 -0.00000086
-0.72438538 -0.06091320 -0.00000157
-0.28747302 -0.50980598 0.00000000
-0.47611710 -0.32007802 -0.00000005
0.20550270 -0.71054769 0.53534240
-0.63680577 0.09833404 -0.00000148
0.21399756 -0.79807901 0.55747181
-0.37591994 -0.23108511 0.00000000
-0.09178727 0.47877222 0.00000000
-0.69318587 -0.24977107 -0.00000110
-0.01493423 0.08561784 0.00000000
-0.38129014 -0.40763739 0.00000000
-0.46638727 0.26651534 -0.00000105
-0.18615402 0.34206149 0.00000000
-0.54957879 0.21183334 -0.00000131
-0.69171417 -0.56846982 -0.00000053
-0.24582168 -0.38463563 0.00000000
-0.60241079 -0.17808686 -0.00000084
-0.21775411 -0.41841373 0.00000000
0.26470551 -0.79956627 0.68956751
-0.42474818 -0.71573383 0.00000000
-0.36314276 -0.75028455 0.00000000
-0.77202433 -0.71346766 -0.00000022
-0.76879561 -0.30413255 -0.00000124
0.22333544 -0.76320457 0.58179736
-0.77483505 -0.78789568 -0.00000003
0.11763339 -0.71493584 0.30643949
0.18523160 -0.71430284 0.48253536
-0.28711247 -0.13317004 0.00000000
-0.76575834 -0.76478124 -0.00000009
-0.54744226 -0.08839335 -0.00000077
-0.41997039 -0.08855804 -0.00000022
0.27888501 -0.56717753 0.72650385
-0.54905641 0.12952349 -0.00000116
0.12642679 -0.72956699 0.32934660
-0.52575833 -0.49802843 0.00000000
-0.54812694 -0.25457254 -0.00000048
-0.29329449 -0.77021015 0.00000000
-0.28848758 0.37149462 -0.00000047
-0.27983803 0.25098571 -0.00000022
-0.34327671 0.14943832 -0.00000031
-0.12064725 -0.45495972 0.00000000
0.25177974 -0.71469080 0.65589499
-0.17256892 0.29837421 0.00000000
-0.75191480 -0.24551532 -0.00000136
-0.40508595 0.17849673 -0.00000063
-0.07811924 -0.32189909 0.00000000
-0.65367109 -0.13612819 -0.00000113
-0.63577712 0.07118752 -0.00000142
-0.03815001 -0.52200001 0.00000000
0.08790431 -0.74864978 0.22899407
-0.33963758 0.04196901 -0.00000011
-0.79569137 -0.68395680 -0.00000029
-0.43227893 0.25671482 -0.00000088
-0.25103095 0.35116991 -0.00000028
-0.75092828 -0.64869249 -0.00000038
-0.17828450 0.34488523 0.00000000
-0.37607542 -0.47234458 0.00000000
-0.11677124 0.37919265 0.00000000
-0.12682196 0.56700093 -0.00000013
-0.40149075 0.30234036 -0.00000083
0.24083661 -0.67765838 0.62738776
-0.31321844 -0.66279846 0.00000000
-0.11216468 0.63583183 -0.00000019
-0.54740345 -0.58695674 0.00000000
-0.49470061 0.22852871 -0.00000110
-0.52826381 0.26669383 -0.00000131
-0.42204818 -0.46542460 0.00000000
-0.23888478 0.38989779 -0.00000029
0.14917871 -0.76286066 0.38861623
-0.28115302 0.17965902 -0.00000010
-0.55374622 0.19420858 -0.00000129
-0.14465539 0.31002837 0.00000000
-0.08382772 -0.08527163 0.00000000
-0.04935676 0.47435707 0.00000000
-0.26365289 0.29373938 -0.00000023
-0.43673503 0.24879880 -0.00000089
-0.11877486 -0.65856886 0.00000000
-0.79851758 -0.20234352 -0.00000149
-0.59619957 0.18272236 -0.00000145
-0.63650250 -0.44227150 -0.00000052
-0.42971221 -0.34244391 0.00000000
-0.32105538 0.06762971 -0.00000008
-0.43641436 -0.15788108 -0.00000017
-0.04370812 -0.04453777 0.00000000
-0.26240146 -0.69665873 0.00000000
-0.17952298 -0.31812561 0.00000000
-0.28517506 -0.26389673 0.00000000
-0.72892928 -0.53665364 -0.00000066
0.15201361 -0.75233513 0.39600128
-0.05846524 0.59315777 0.00000000
-0.07216315 -0.64079356 0.00000000
-0.15293367 -0.38244557 0.00000000
-0.26307631 0.00105497 0.00000000
-0.24880117 -0.27817991 0.00000000
-0.35327831 0.28141275 -0.00000059
-0.66397339 -0.28500697 -0.00000092
-0.46275800 0.14947852 -0.00000082
-0.25634137 0.14131239 0.00000000
0.13989905 -0.77090758 0.36444235
-0.03065012 0.29801738 0.00000000
-0.49224541 -0.42313105 0.00000000
-0.49676329 0.02552346 -0.00000075
-0.06249829 0.06613908 0.00000000
-0.78252620 -0.29418159 -0.00000126
-0.03141965 -0.30699998 0.00000000
-0.06367447 -0.73828179 0.00000000
-0.67540252 -0.14325225 -0.00000122
-0.04348571 -0.58592910 0.00000000
-0.43779740 -0.38824812 0.00000000
-0.41236600 -0.48062226 0.00000000
-0.41053838 0.26413292 -0.00000080
-0.63189608 0.03932464 -0.00000135
-0.64373720 -0.58940202 -0.00000029
-0.22379702 -0.55821699 0.00000000
-0.30222553 0.29409343 -0.00000040
-0.54615104 -0.68755436 0.00000000
-0.50417292 -0.02953294 -0.00000069
0.21375622 -0.62861061 0.55684304
-0.15844443 0.43185839 -0.00000003
-0.47204593 -0.71800232 0.00000000
-0.20211598 -0.75930113 0.00000000
-0.43994594 0.14968722 -0.00000073
-0.30057126 -0.40590546 0.00000000
-0.38702112 0.05534020 -0.00000034
-0.07286582 0.39394042 0.00000000
-0.13188563 -0.20863444 0.00000000
-0.52899027 -0.50311822 0.00000000
-0.19352028 -0.18989807 0.00000000
-0.32797959 -0.34840792 0.00000000
-0.23471476 -0.76881599 0.00000000
-0.28581253 -0.49876392 0.00000000
-0.03641937 0.74200422 -0.00000005
-0.32161546 -0.04412520 0.00000000
-0.20033875 -0.61073381 0.00000000
-0.41920391 0.14476886 -0.00000063
-0.15242366 0.07731075 0.00000000
0.26499912 -0.60795951 0.69033104
-0.15612125 -0.79753542 0.00000000
-0.01030940 0.72182488 0.00000000
-0.04999642 -0.42804599 0.00000000
-0.27982467 -0.52311873 0.00000000
-0.63241231 0.01199978 -0.00000131
-0.42376861 -0.30891871 0.00000000
-0.65588015 0.06872041 -0.00000151
-0.06666799 -0.45731705 0.00000000
-0.22599839 0.44715872 -0.00000034
-0.27415270 0.33978358 -0.00000036
-0.16258775 -0.32722583 0.00000000
-0.12022632 0.48298049 0.00000000
-0.74742496 -0.15237816 -0.00000151
-0.03531893 -0.73713833 0.00000000
-0.24861184 -0.35826072 0.00000000
-0.04904628 0.13274051 0.00000000
-0.51639831 -0.32062927 -0.00000022
-0.40788171 0.06777107 -0.00000045
-0.07510932 0.01444479 0.00000000
-0.16053599 0.42545119 -0.00000002
-0.61627769 -0.24158919 -0.00000079
-0.45313621 0.20467342 -0.00000088
-0.64801335 -0.79414886 0.00000000
-0.64278781 -0.63548732 -0.00000021
-0.04257909 -0.25649253 0.00000000
-0.42913416 -0.02767505 -0.00000037
-0.48034638 -0.16428781 -0.00000035
-0.33566165 -0.46530163 0.00000000
-0.48526621 -0.50020301 0.00000000
-0.14650007 -0.71503139 0.00000000
-0.38190719 0.26718703 -0.00000069
0.26381525 -0.57174772 0.68724686
-0.65311641 -0.34669325 -0.00000076
-0.42445594 -0.25382903 0.00000000
-0.16020405 0.45266256 -0.00000007
-0.36569187 0.14301158 -0.00000040
-0.72783190 -0.33953342 -0.00000109
-0.69090891 0.02930609 -0.00000159
0.08025331 -0.74625254 0.20906293
-0.11894959 -0.68835485 0.00000000
-0.27425537 -0.49354270 0.00000000
-0.19393921 -0.31985962 0.00000000
-0.62732708 -0.72348493 0.00000000
-0.29871744 -0.05084960 0.00000000
-0.09045672 -0.38161424 0.00000000
-0.31352809 0.22066735 -0.00000031
-0.77246583 -0.32334864 -0.00000119
-0.18684883 -0.65503430 0.00000000
-0.29665145 -0.52872789 0.00000000
0.23529275 -0.63952041 0.61294580
-0.35346937 -0.37850490 0.00000000
-0.29353094 -0.17706440 0.00000000
-0.09422422 0.08477281 0.00000000
-0.55926228 -0.78789139 0.00000000
-0.20544387 -0.44443226 0.00000000
-0.17244229 -0.34986869 0.00000000
-0.18187624 0.18823285 0.00000000
-0.13577247 -0.28145114 0.00000000
-0.77379578 -0.36112824 -0.00000110
-0.68035942 -0.55552280 -0.00000051
-0.57746297 -0.34631982 -0.00000044
-0.17841554 -0.19574884 0.00000000
-0.77024633 0.01257642 -0.00000190
-0.20392956 -0.06580387 0.00000000
-0.59434545 -0.02129982 -0.00000108
-0.66585523 -0.09255424 -0.00000126
-0.20737486 0.21857397 0.00000000
-0.05318792 0.67066109 0.00000000
-0.36831293 -0.57987636 0.00000000
-0.10680406 0.14498758 0.00000000
-0.19884510 -0.67162323 0.00000000
-0.46451259 -0.55750543 0.00000000
-0.03486959 0.21801990 0.00000000
-0.63849914 -0.62555534 -0.00000020
-0.58816093 -0.13045996 -0.00000087
-0.04939544 -0.67385656 0.00000000
-0.05865834 0.06954142 0.00000000
-0.66885132 0.04969999 -0.00000153
0.09293538 -0.72217321 0.24210021
-0.31839865 0.10276555 -0.00000013
-0.41453636 -0.10830164 -0.00000016
-0.43102500 -0.50226653 0.00000000
-0.47898468 -0.48486558 0.00000000
-0.30814719 -0.30007961 0.00000000
-0.13815024 0.59578526 -0.00000023
-0.07241526 0.55988550 0.00000000
0.14802118 -0.79477900 0.38560081
-0.10605065 0.46331486 0.00000000
0.22049917 -0.77466464 0.57440877
0.28264108 -0.75113642 0.73628974
-0.10197187 -0.25150698 0.00000000
-0.34901106 -0.54267043 0.00000000
0.06932569 -0.76326615 0.18059605
-0.66197127 -0.47836697 -0.00000057
-0.73861700 -0.38992026 -0.00000103
0.21560454 -0.61681336 0.56165791
-0.12265045 0.24433821 0.00000000
-0.36409828 0.37802544 -0.00000081
-0.55025733 0.10415682 -0.00000112
-0.55569184 -0.75889760 0.00000000
-0.58283961 -0.37799004 -0.00000041
-0.15061826 0.17146395 0.00000000
-0.10669314 -0.08060995 0.00000000
-0.13566418 -0.49913183 0.00000000
-0.04564338 0.10264332 0.00000000
-0.33971277 0.02742694 -0.00000008
-0.11674174 0.12743145 0.00000000
-0.63155442 0.10950998 -0.00000147
-0.59519523 -0.48968971 -0.00000026
-0.19769818 -0.40773153 0.00000000
0.27727529 -0.57035291 0.72231054
-0.08580671 0.59114599 0.00000000
-0.27201492 -0.75367886 0.00000000
-0.46435592 0.01869376 -0.00000060
-0.24826175 -0.10254540 0.00000000
0.27912238 -0.64554799 0.72712272
-0.32561061 -0.48037851 0.00000000
-0.08173955 0.06847320 0.00000000
-0.62976050 -0.40857384 -0.00000055
0.27698562 -0.69328028 0.72155672
-0.69317919 -0.37865660 -0.00000087
-0.59505886 -0.05184406 -0.00000103
-0.78256464 -0.46707407 -0.00000083
-0.00602514 -0.18211661 0.00000000
-0.33195236 -0.13941608 0.00000000
-0.23085028 0.37932822 -0.00000024
-0.21773867 -0.16113530 0.00000000
-0.16508152 -0.39317954 0.00000000
-0.05564667 -0.72165191 0.00000000
-0.52317947 -0.63502997 0.00000000
-0.78735119 -0.77320623 -0.00000007
-0.05678312 -0.57197773 0.00000000
-0.48692545 -0.66059554 0.00000000
-0.32618406 -0.50401354 0.00000000
-0.32236207 0.03508774 -0.00000002
-0.11448656 -0.27812308 0.00000000
-0.00698520 -0.72265661 0.00000000
-0.50703090 0.02099586 -0.00000079
-0.27727470 0.30565205 -0.00000031
-0.46909451 -0.63862139 0.00000000
-0.47777995 -0.31529844 -0.00000007
-0.17647856 -0.73854059 0.00000000
-0.77333826 -0.73027945 -0.00000017
-0.10130337 0.55866492 -0.00000001
-0.73788720 -0.11371351 -0.00000153
-0.28123131 0.22955807 -0.00000019
-0.77052814 -0.34701112 -0.00000113
-0.06430311 -0.70413482 0.00000000
-0.15135016 -0.34056944 0.00000000
