ply
format ascii 1.0
element vertex 1172
property float x
property float y
property float z
end_header
-0.43059468 -0.69861245 0.00000025
-0.30456081 0.13328782 0.00000209
-0.66510594 -0.33283821 -0.00000050
-0.14018942 -0.64294672 0.00000039
-0.41411784 -0.25953966 0.00000135
-0.08220866 -0.19370660 0.00000152
-0.01094414 -0.60538584 0.00000049
-0.10050671 -0.55319494 0.00000062
-0.55091864 -0.09014893 0.00000022
-0.27285898 0.25347692 0.00000224
-0.61999333 -0.03388504 -0.00000043
-0.77850467 -0.07002720 -0.00000174
-0.08544955 0.21773870 -0.00000532
-0.48926866 -0.15566662 0.00000081
-0.04350683 -0.41376239 0.00000097
-0.09882975 0.25023437 -0.00000431
-0.78774738 -0.62201619 -0.00000044
-0.38018438 -0.33151990 0.00000117
-0.28484157 0.17360173 0.00000222
-0.08478614 0.20080353 -0.00000568
-0.25956640 -0.46285969 0.00000084
-0.34665844 0.09337405 0.00000177
-0.08225500 0.58911890 0.00000202
-0.11072060 -0.40791023 0.00000098
-0.14382133 0.63365424 0.00000294
-0.64290172 -0.22323973 -0.00000043
-0.11092669 0.43140900 -0.00000036
-0.06617457 -0.70612592 0.00000023
-0.33903897 0.00858862 0.00000193
-0.54960036 0.09383008 0.00000004
-0.47818193 -0.51590461 0.00000071
-0.52904040 0.11077852 0.00000020
-0.38749930 0.24436918 0.00000127
-0.39834535 0.30970195 0.00000111
-0.41689920 0.24649101 0.00000101
-0.68627197 -0.33636084 0.17934284
-0.49492562 -0.59035099 0.00000052
-0.47676247 0.04760816 0.00000071
-0.47250259 -0.36183715 0.00000110
-0.61378407 -0.27248248 -0.00000013
-0.75119954 -0.21561550 -0.00000136
-0.28251085 0.44191384 0.00000196
-0.49571210 -0.65272474 0.00000037
-0.05125319 0.18396369 -0.00000693
-0.17859022 -0.63606560 0.00000041
-0.71134645 -0.21354134 0.24252369
-0.05639576 0.68935984 0.00000363
-0.27793664 0.41239271 0.00000203
-0.08550817 0.25486374 -0.00000458
-0.69298440 -0.73966455 -0.00000015
-0.66701359 -0.03157572 0.26834446
-0.04210499 0.40573567 -0.00000274
-0.29042101 0.21391524 0.00000213
-0.37725070 -0.34825528 0.00000113
-0.57866979 0.01116287 -0.00000012
-0.66401070 -0.36407706 0.15127333
-0.60368317 0.06885708 -0.00000040
-0.34981364 -0.29653549 0.00000126
-0.49163392 -0.14662427 0.00000078
-0.08573048 0.15414362 -0.00000659
-0.30623278 -0.49339175 0.00000077
-0.20945518 0.43413863 0.00000259
-0.62487060 -0.07837094 0.21716172
-0.46602866 -0.09439654 0.00000095
-0.69885123 -0.40233663 0.16707370
-0.43023422 0.16411272 0.00000099
-0.17765415 -0.41495261 0.00000096
-0.36200133 0.20082366 0.00000153
-0.29195362 0.25678948 0.00000207
-0.71907097 -0.34636614 0.20318097
-0.11048720 -0.69380856 0.00000027
-0.12440601 -0.04445691 0.00000189
-0.17866407 -0.36277413 0.00000109
-0.29094958 -0.15987043 0.00000160
-0.28059626 -0.69324529 0.00000027
-0.68273765 -0.65754539 -0.00000032
-0.10135571 0.55833131 0.00000339
-0.43282405 -0.61546618 0.00000046
-0.65011352 0.00817952 -0.00000073
-0.31409952 -0.47181600 0.00000082
-0.01994330 -0.08161252 0.00000180
-0.00189182 -0.25985134 0.00000136
-0.35551611 -0.60813403 0.00000048
-0.60073531 -0.64683849 0.00000037
-0.77016258 -0.01876888 -0.00000173
-0.31755665 -0.38292304 0.00000104
-0.65153074 -0.28714451 -0.00000044
-0.78442156 -0.76301128 -0.00000009
-0.21488138 -0.41827187 0.00000095
-0.48118848 -0.22053231 0.00000095
-0.47171518 -0.57246751 0.00000057
-0.65584975 -0.14906050 -0.00000062
-0.47571528 -0.63476831 0.00000041
-0.12411372 -0.37892297 0.00000105
-0.14214940 0.54727393 0.00000305
-0.32247639 -0.66997761 0.00000033
-0.00237209 -0.52214760 0.00000071
-0.50211394 0.29494759 0.00000027
-0.70022410 -0.57198113 0.10975962
-0.38754374 -0.00713811 0.00000153
-0.28627428 -0.79549515 0.00000001
-0.72546166 -0.61900014 -0.00000045
-0.05718247 0.24987021 -0.00000545
-0.40350571 -0.77775240 0.00000006
-0.54224408 0.15826482 0.00000004
-0.31833968 -0.07253689 0.00000182
-0.73920739 -0.30111328 -0.00000117
-0.03613607 0.28000855 -0.00000542
-0.45110983 -0.26581803 0.00000125
-0.12048768 -0.02643022 0.00000193
-0.36238468 -0.46613842 0.00000083
-0.12812266 0.02183746 -0.00000808
-0.75314468 -0.47671723 -0.00000081
-0.29343319 -0.38016534 0.00000105
-0.46506396 0.00685392 0.00000085
-0.22113514 -0.25153539 0.00000137
-0.19022261 -0.27429634 0.00000131
-0.45860565 -0.05639292 0.00000097
-0.09925152 0.11628339 -0.00000698
-0.14604434 -0.48684245 0.00000078
-0.45172369 -0.68557036 0.00000029
-0.09592704 -0.48807657 0.00000078
-0.62512499 -0.68783242 0.00000020
-0.04536049 0.44040585 -0.00000196
-0.02709119 0.44850591 -0.00000229
-0.01317435 0.13399825 -0.00000896
-0.06755574 -0.21903892 0.00000145
-0.69180077 -0.04002053 -0.00000104
-0.62167037 -0.11610896 -0.00000036
-0.61238569 -0.04053756 0.21981224
-0.39930379 -0.75641102 0.00000011
-0.34681749 -0.38958767 0.00000103
-0.02063228 -0.43099472 0.00000092
-0.41838461 -0.08313943 0.00000134
-0.31459999 -0.00158209 0.00000200
-0.21256413 0.29921910 0.00000270
-0.53037143 -0.46460024 0.00000078
-0.25800207 -0.15766798 0.00000161
-0.67511374 -0.77306336 -0.00000007
-0.23346113 -0.04819102 0.00000188
-0.60960466 0.03096497 -0.00000041
-0.30687174 0.33946675 0.00000186
-0.63212943 -0.17134850 -0.00000039
-0.29587093 0.49990636 0.00000183
-0.64290547 0.09702166 -0.00000076
-0.37950140 -0.77430975 0.00000006
-0.02323843 -0.16969503 0.00000158
-0.02700149 0.32908016 -0.00000469
-0.47693905 -0.43171659 0.00000092
-0.12299715 -0.14664853 0.00000163
-0.07527919 0.44563970 -0.00000104
-0.19337761 0.35314429 0.00000281
-0.78214061 -0.60232103 -0.00000049
-0.03372333 -0.58319867 0.00000054
-0.36919078 -0.18366168 0.00000154
-0.06244960 -0.27750939 0.00000131
-0.69068205 -0.79543114 0.02482506
-0.05438839 0.63082594 0.00000209
-0.38770092 0.04476028 0.00000147
-0.00083718 -0.44878897 0.00000088
-0.63772994 0.11316829 -0.00000073
-0.35735193 -0.59362936 0.00000052
-0.54632664 0.15652411 0.00000000
-0.34055129 -0.12057587 0.00000170
-0.00500164 -0.04768707 0.00000191
-0.55883044 -0.35983625 0.00000043
-0.03119590 -0.18116520 0.00000155
-0.36984587 0.11585640 0.00000155
-0.44534820 -0.58683115 0.00000053
-0.05372268 0.25079727 -0.00000552
-0.49661872 0.13226932 0.00000045
-0.49832675 -0.06035009 0.00000064
-0.48797119 0.03439469 0.00000063
-0.07152964 -0.00867574 0.00000198
-0.77254558 -0.08920004 -0.00000167
-0.18546335 0.52086085 0.00000271
-0.70644504 -0.44476014 0.15877271
-0.65128106 -0.24063414 0.18321966
-0.46635476 -0.33346701 0.00000117
-0.73064375 -0.50660223 0.15759422
-0.23178264 0.26063198 0.00000258
-0.65559065 -0.78888988 0.00000003
-0.75443399 -0.09250628 -0.00000152
-0.56939483 -0.53030860 0.00000052
-0.71408683 -0.48518148 -0.00000076
-0.74681562 -0.31122363 -0.00000122
-0.51948804 -0.78912187 0.00000003
-0.03353696 -0.33405414 0.00000116
-0.07369209 0.65572637 0.00000352
-0.06998209 -0.05361907 0.00000187
-0.49743757 -0.41007453 0.00000097
-0.14412488 0.03306952 -0.00000742
-0.00895213 -0.78238916 0.00000004
-0.44816157 0.04667158 0.00000095
-0.12213384 -0.44681615 0.00000088
-0.13008767 -0.28900340 0.00000128
-0.12037969 -0.07068238 0.00000182
-0.29847670 0.36796039 0.00000190
-0.23704393 0.04367580 -0.00000469
-0.31240600 -0.33753142 0.00000116
-0.54317868 0.00212296 0.00000019
-0.34083933 0.40340522 0.00000150
-0.24081603 -0.29723784 0.00000126
-0.16070884 -0.68080330 0.00000030
-0.59083396 -0.60549450 0.00000041
-0.72928351 -0.02255878 -0.00000137
-0.73361313 -0.12447916 -0.00000130
-0.07319200 0.19976394 -0.00000602
-0.15489216 -0.05639697 0.00000186
-0.60301942 0.09861991 -0.00000042
-0.03217425 -0.46072876 0.00000085
-0.14834644 -0.48572880 0.00000079
-0.12534097 -0.32371914 0.00000119
-0.00534676 -0.56062841 0.00000063
-0.42253608 0.08206836 0.00000114
-0.43597901 0.25810841 0.00000084
-0.10266024 0.32035196 -0.00000280
-0.37489119 0.29343602 0.00000132
-0.05655887 -0.66274744 0.00000034
-0.59172976 0.15219171 -0.00000038
-0.37436327 -0.57738501 0.00000056
-0.44560003 -0.25973335 0.00000129
-0.58956236 -0.15844557 -0.00000004
-0.53874379 0.16316414 0.00000006
-0.40130234 0.01557241 0.00000139
-0.78622347 -0.05933810 -0.00000182
-0.34104988 0.27408171 0.00000163
-0.24754298 0.42629465 0.00000227
-0.17951728 -0.45245442 0.00000087
-0.21393619 0.50447571 0.00000248
-0.11334472 -0.54123640 0.00000065
-0.39549378 -0.16129540 0.00000160
-0.60932666 0.03171060 0.24216209
-0.30254230 0.21969450 0.00000202
-0.03237723 0.22509778 -0.00000662
-0.20883933 -0.59689128 0.00000051
-0.75495666 -0.21179150 -0.00000140
-0.23682272 -0.32173458 0.00000120
-0.07890430 0.24977148 -0.00000486
-0.21327509 0.16398259 -0.00000293
-0.74581122 -0.74610949 0.08768272
-0.13886642 -0.03480352 0.00000191
-0.42908210 0.12805486 0.00000103
-0.13829941 0.44573972 0.00000067
-0.57949305 -0.00712819 -0.00000011
-0.31393123 -0.46276662 0.00000084
-0.78419000 -0.79678065 -0.00000001
-0.68950331 -0.06340749 0.27608550
-0.39781526 0.22869346 0.00000120
-0.38468435 -0.35560301 0.00000111
-0.35595009 -0.19772229 0.00000151
-0.20933059 0.07987595 -0.00000472
-0.44830507 -0.65644366 0.00000036
-0.16248760 0.42171684 0.00000300
-0.04290775 -0.74964559 0.00000013
-0.05731866 0.46445838 -0.00000115
-0.41028646 -0.08258604 0.00000141
-0.67702347 -0.56367308 -0.00000037
-0.36177719 0.03423121 0.00000171
-0.39643550 -0.70988667 0.00000023
-0.20244487 -0.79386175 0.00000002
-0.59592313 -0.20713253 -0.00000004
-0.24915095 0.41558629 0.00000227
-0.60354269 0.01503547 0.23160397
-0.19492397 -0.52835745 0.00000068
-0.33156744 -0.00019063 0.00000200
-0.51744550 -0.79060024 0.00000002
-0.27538452 0.45302823 0.00000201
-0.02188003 0.76978356 0.00000384
-0.03388909 -0.72733980 0.00000018
-0.52454638 -0.55187380 0.00000062
-0.48780179 -0.74289036 0.00000014
-0.44943982 0.17025644 0.00000082
-0.59292406 -0.08649007 -0.00000014
-0.35470483 -0.08090326 0.00000180
-0.19014592 0.00914798 -0.00000665
-0.52323657 -0.70199645 0.00000025
-0.54495943 -0.63089877 0.00000042
-0.02222293 0.69448829 0.00000249
-0.13807984 0.22530836 -0.00000374
-0.67605352 -0.29595694 -0.00000064
-0.03424532 0.04316484 -0.00001021
-0.54647511 -0.39525786 0.00000057
-0.34667820 -0.73574370 0.00000016
-0.69402277 -0.31037322 0.19474562
-0.17839786 -0.70639151 0.00000023
-0.10860792 -0.64394724 0.00000039
-0.45058438 -0.40019369 0.00000100
-0.76746213 -0.25815025 -0.00000135
-0.76895100 -0.75533438 -0.00000011
-0.57352293 -0.70164347 0.00000025
-0.54668707 0.10001146 0.00000006
-0.68877900 -0.62704617 -0.00000040
-0.02294872 -0.79102337 0.00000002
-0.42787334 0.10190286 0.00000107
-0.54476780 0.03049004 0.00000015
-0.12257969 0.27628767 -0.00000314
-0.10507670 0.62866563 0.00000328
-0.34114987 0.36846796 0.00000153
-0.23001476 -0.75014615 0.00000012
-0.24730097 -0.68495381 0.00000029
-0.11020195 -0.73931742 0.00000015
-0.65563065 -0.11806246 -0.00000065
-0.12010241 -0.39679742 0.00000101
-0.40176195 -0.42458352 0.00000094
-0.22937891 -0.18487310 0.00000154
-0.64281911 -0.11412080 0.21977425
-0.45018756 0.01263123 0.00000097
-0.14309409 0.35844558 -0.00000094
-0.66823578 -0.78129578 -0.00000005
-0.78290015 -0.30026507 -0.00000125
-0.66095132 -0.08367723 -0.00000073
-0.59799612 -0.70708174 0.00000023
-0.03087823 -0.49384254 0.00000077
-0.30468640 0.40887430 0.00000180
-0.17060992 -0.63911802 0.00000040
-0.51142776 -0.29954556 0.00000077
-0.41409066 -0.11809566 0.00000142
-0.28687468 -0.01301590 0.00000197
-0.29937908 -0.41230807 0.00000097
-0.75602484 -0.02813153 -0.00000160
-0.69843352 0.00454810 -0.00000114
-0.25928879 0.41969559 0.00000218
-0.22960378 0.55719393 0.00000229
-0.21214741 0.18460512 -0.00000255
-0.38666543 0.11613270 0.00000141
-0.69510055 -0.24180670 0.21926890
-0.64146036 -0.43719441 -0.00000019
-0.55136430 0.24659032 -0.00000011
-0.18186437 -0.14966582 0.00000163
-0.11544010 -0.03928769 0.00000190
-0.13118336 0.25239950 -0.00000339
-0.16026281 0.05761667 -0.00000649
-0.64335871 -0.75659543 0.00000011
-0.06117240 -0.17846192 0.00000155
-0.43747503 -0.54402339 0.00000064
-0.06537877 0.40050519 -0.00000221
-0.17542203 -0.30873501 0.00000123
-0.49057806 0.07918199 0.00000056
-0.31400239 -0.46558157 0.00000084
-0.48616379 -0.65027612 0.00000037
-0.09226425 -0.47314221 0.00000082
-0.40484208 -0.35671619 0.00000111
-0.55504984 0.15341064 -0.00000007
-0.47110730 0.01546791 0.00000079
-0.57758540 -0.38739616 0.00000030
-0.14350416 -0.05347242 0.00000187
-0.06373182 0.61165494 0.00000196
-0.36126390 -0.52710879 0.00000068
-0.75436699 -0.12376902 -0.00000148
-0.78735846 -0.00663427 -0.00000189
-0.22251821 0.46173701 0.00000245
-0.50836283 -0.59859985 0.00000050
-0.47962436 -0.50837243 0.00000073
-0.68168324 -0.49197507 -0.00000048
-0.79570442 -0.10196066 -0.00000175
-0.02538808 -0.76622355 0.00000008
-0.04200411 0.11570512 -0.00000855
-0.71105868 -0.47105482 0.15355019
-0.10355622 0.06961526 -0.00000780
-0.15792947 -0.47552252 0.00000081
-0.71870148 -0.48049212 0.15665644
-0.22156665 -0.78429079 0.00000004
-0.03275188 0.47643322 -0.00000158
-0.50908607 -0.71840531 0.00000020
-0.03761651 0.02124874 -0.00001055
-0.03841421 -0.56576985 0.00000059
-0.37535515 0.38519800 0.00000123
-0.24143554 -0.68270898 0.00000029
-0.69577223 -0.71594590 -0.00000021
-0.02807176 0.02360098 -0.00001077
-0.18663983 0.13637903 -0.00000420
-0.33912277 -0.25199682 0.00000137
-0.36936560 -0.31261858 0.00000122
-0.11430386 0.17212348 -0.00000545
-0.03143666 0.56864768 0.00000023
-0.57835257 -0.47603533 0.00000038
-0.24355087 -0.65238857 0.00000037
-0.77611655 -0.53297645 -0.00000067
-0.61537415 -0.09907540 0.20212729
-0.54849076 0.22419371 -0.00000009
-0.22130124 0.52921033 0.00000239
-0.08034686 0.66122723 0.00000346
-0.31501982 -0.56293386 0.00000059
-0.03162288 -0.60156345 0.00000050
-0.22399060 -0.66370118 0.00000034
-0.37818530 -0.74898207 0.00000013
-0.37138936 -0.50220150 0.00000074
-0.33196530 0.15275045 0.00000184
-0.26511851 0.22385657 0.00000233
-0.19833584 -0.44124749 0.00000090
-0.33633769 0.20237133 0.00000175
-0.38853872 -0.74017382 0.00000015
-0.70520371 -0.40069672 0.17292345
-0.02353895 -0.70237982 0.00000024
-0.42525476 -0.63564950 0.00000041
-0.67498571 -0.26162133 -0.00000066
-0.72607547 -0.66828120 0.09808249
-0.21197076 0.07913230 -0.00000466
-0.49268284 -0.25845626 0.00000089
-0.38107800 -0.05052628 0.00000163
-0.02956581 0.27113271 -0.00000577
-0.40217271 -0.68065012 0.00000030
-0.12239785 0.43453532 0.00000002
-0.48713508 -0.38678861 0.00000103
-0.68034083 -0.05340603 0.27190953
-0.31618726 0.36094862 0.00000176
-0.50864339 -0.76985013 0.00000008
-0.08272903 0.66940320 0.00000343
-0.47118163 -0.55589134 0.00000061
-0.24928343 -0.44669372 0.00000088
-0.28428197 0.22908503 0.00000216
-0.16267972 0.57720351 0.00000284
-0.21016410 -0.44340014 0.00000089
-0.06721580 0.52938712 0.00000041
-0.31102085 0.32356185 0.00000184
-0.61972106 -0.40207085 -0.00000004
-0.12744139 -0.07444447 0.00000181
-0.18451978 0.44228530 0.00000280
-0.35025695 -0.39748129 0.00000101
-0.03773923 0.06032027 -0.00000977
-0.75357085 -0.50968516 -0.00000073
-0.32355621 0.21330117 0.00000185
-0.03863992 -0.15124536 0.00000162
-0.63834596 -0.22643904 0.17735036
-0.48847282 -0.54519582 0.00000064
-0.46538147 -0.48394245 0.00000079
-0.77300966 -0.02967764 -0.00000174
-0.00878096 -0.29292166 0.00000127
-0.73942262 -0.80531007 0.06196862
-0.18289346 0.02370187 -0.00000656
-0.19843195 0.58499813 0.00000253
-0.76132321 -0.17964762 -0.00000148
-0.42712098 -0.30423954 0.00000124
-0.31032711 0.07401103 0.00000210
-0.32604748 0.17971604 0.00000186
-0.31362286 -0.20887983 0.00000148
-0.05960141 0.43012512 -0.00000178
-0.08361193 0.35484886 -0.00000263
-0.03863221 -0.25466219 0.00000136
-0.41686314 -0.53925836 0.00000065
-0.62658262 -0.03897772 -0.00000048
-0.11988413 -0.03987636 0.00000190
-0.40617874 -0.45024881 0.00000087
-0.64705014 -0.24424164 -0.00000044
-0.56225109 0.12770973 -0.00000010
-0.70527369 -0.44110015 -0.00000073
-0.03118621 0.47618541 -0.00000163
-0.44511524 -0.06580108 0.00000110
-0.74514538 -0.74717325 -0.00000013
-0.03656262 -0.08253573 0.00000179
-0.65951681 -0.59639162 -0.00000018
-0.12702189 0.32041255 -0.00000214
-0.65058202 -0.68572569 -0.00000001
-0.24393161 0.10194752 -0.00000334
-0.30065343 -0.49664378 0.00000076
-0.61614215 -0.02433556 0.22851835
-0.62987977 -0.07614119 0.22209717
-0.61600208 -0.67662257 0.00000027
-0.02863375 0.76849717 0.00000382
-0.69870621 -0.77004498 -0.00000007
-0.17277367 0.53267413 0.00000280
-0.75240684 -0.46882245 -0.00000083
-0.28783831 0.22339068 0.00000214
-0.21490145 -0.20721623 0.00000148
-0.46452588 -0.27952397 0.00000115
-0.29636896 0.44479981 0.00000184
-0.35298568 -0.18138397 0.00000155
-0.14565703 0.46468496 0.00000310
-0.18366934 0.22671396 -0.00000248
-0.67285913 -0.33419752 -0.00000057
-0.02363647 0.35225403 -0.00000431
-0.06073293 0.67989165 0.00000361
-0.45929533 0.32915860 0.00000057
-0.74725896 -0.73662060 0.09215679
-0.51277351 0.07426634 0.00000037
-0.49577174 -0.77132177 0.00000007
-0.00039186 -0.58838928 0.00000053
-0.51395464 -0.38714793 0.00000084
-0.04904369 0.35615191 -0.00000354
-0.07132061 -0.32829279 0.00000118
-0.43870893 -0.60230273 0.00000049
-0.53410363 -0.68888611 0.00000028
-0.05437789 -0.69294059 0.00000027
-0.38560790 -0.46484837 0.00000084
-0.66552967 0.02718361 -0.00000088
-0.77740371 -0.70971972 -0.00000023
-0.32397446 -0.04634584 0.00000188
-0.71552670 -0.08329308 -0.00000119
-0.36412030 -0.28418964 0.00000129
-0.06745235 -0.60446429 0.00000049
-0.27990800 0.33804291 0.00000209
-0.34603798 -0.33631992 0.00000116
-0.38934651 0.22407199 0.00000127
-0.57848287 -0.74853319 0.00000013
-0.55287516 -0.29799595 0.00000042
-0.69965112 -0.26349792 0.21558022
-0.01353678 0.73216999 0.00000301
-0.08284290 -0.08816985 0.00000178
-0.64634526 0.00404553 0.26342517
-0.28938270 -0.31784976 0.00000121
-0.13457288 0.24186753 -0.00000351
-0.30405304 -0.49434131 0.00000076
-0.10810216 -0.73949403 0.00000015
-0.44300869 -0.76525915 0.00000009
-0.63035309 -0.21159124 0.17581739
-0.22444303 -0.09354443 0.00000177
-0.20102558 -0.09586621 0.00000176
-0.44773409 0.19735743 0.00000080
-0.06646183 -0.22191027 0.00000145
-0.32968879 0.03878014 0.00000197
-0.63220572 0.01135479 0.25418100
-0.44617930 -0.76378256 0.00000009
-0.70862406 -0.01812847 -0.00000120
-0.68291277 -0.42962569 0.14441109
-0.24008419 -0.64384562 0.00000039
-0.32316455 -0.24286953 0.00000139
-0.30062151 -0.26296312 0.00000134
-0.34798098 -0.29249430 0.00000127
-0.63519204 -0.25082153 -0.00000033
-0.27079231 -0.76697654 0.00000008
-0.51319444 0.25125495 0.00000019
-0.69757581 -0.52783161 -0.00000058
-0.69441384 -0.32921419 0.18857875
-0.56610548 0.12751424 -0.00000014
-0.38636038 -0.59988856 0.00000050
-0.53628087 -0.43647912 0.00000070
-0.55357105 -0.45344916 0.00000057
-0.71316767 0.00607703 -0.00000127
-0.54090583 -0.66670811 0.00000033
-0.13130470 0.45023540 0.00000057
-0.44451663 0.17618074 0.00000085
-0.40156630 -0.37316278 0.00000107
-0.04974376 0.13748446 -0.00000790
-0.35067773 -0.02676492 0.00000186
-0.78544170 -0.33429047 -0.00000116
-0.69461805 -0.64214361 -0.00000039
-0.17822111 -0.16014595 0.00000160
-0.08010398 -0.65863925 0.00000035
-0.36338437 -0.75861162 0.00000010
-0.65953225 -0.25990465 0.18344355
-0.24448518 0.39020082 0.00000234
-0.68942422 -0.52906972 0.11556157
-0.31233922 -0.24450089 0.00000139
-0.50244880 0.13182722 0.00000040
-0.72999668 -0.31240046 -0.00000108
-0.70175433 -0.00925123 -0.00000115
-0.03426246 -0.70540094 0.00000024
-0.64156336 -0.77819848 0.00000005
-0.59856975 -0.41286367 0.00000015
-0.16792946 -0.46138448 0.00000085
-0.24071430 -0.04678458 0.00000188
-0.20347944 -0.37507245 0.00000106
-0.22425376 -0.76298100 0.00000009
-0.25552702 -0.39245778 0.00000102
-0.07444399 -0.68766773 0.00000028
-0.78650469 -0.37796691 -0.00000106
-0.45330113 0.33990613 0.00000061
-0.12746704 -0.78656882 0.00000003
-0.03085298 0.01816205 -0.00001080
-0.66530865 -0.04310307 0.26295459
-0.18337584 -0.72388357 0.00000019
-0.29618955 0.32171312 0.00000197
-0.54194236 -0.55383313 0.00000062
-0.09906441 -0.16003622 0.00000160
-0.09282535 -0.54363465 0.00000064
-0.05211144 0.71739179 0.00000364
-0.70086783 -0.18987963 -0.00000096
-0.13179377 0.66319603 0.00000302
-0.30627364 -0.21112296 0.00000147
-0.18468988 -0.58079433 0.00000055
-0.70449936 -0.51903105 0.13156182
-0.58098620 0.18259920 -0.00000032
-0.77613872 -0.76494437 -0.00000009
-0.75534374 -0.56267285 -0.00000059
-0.70089924 -0.19462690 0.24035010
-0.22861202 -0.40824911 0.00000098
-0.17543347 -0.06792470 0.00000183
-0.79478669 -0.39487410 -0.00000101
-0.40521288 0.14711906 0.00000122
-0.06091739 -0.29260853 0.00000127
-0.23684630 -0.27394119 0.00000132
-0.11466023 -0.28121158 0.00000130
-0.03500204 0.31093538 -0.00000483
-0.55237633 0.24506980 -0.00000014
-0.05769263 0.41520050 -0.00000213
-0.45300439 -0.18865018 0.00000116
-0.26254979 0.06164504 -0.00000364
-0.34697980 -0.58486992 0.00000054
-0.75086337 -0.43842602 -0.00000090
-0.14445172 -0.10206575 0.00000174
-0.52867031 0.08252861 0.00000023
-0.08981327 0.50914872 0.00000062
-0.59364712 0.07409260 -0.00000032
-0.46233547 -0.63625163 0.00000041
-0.16296911 -0.21972187 0.00000145
-0.05068979 -0.41605994 0.00000096
-0.22621211 0.35141605 0.00000253
-0.19234499 -0.64111692 0.00000040
-0.08463464 -0.72984552 0.00000018
-0.32324311 -0.64153802 0.00000040
-0.10106050 0.03839755 -0.00000849
-0.06628022 -0.47700807 0.00000081
-0.76735967 -0.18424296 -0.00000153
-0.53681242 0.05775788 0.00000019
-0.40058404 -0.50441068 0.00000074
-0.17686731 -0.55582935 0.00000061
-0.62632972 -0.59653759 0.00000010
-0.21965909 -0.32448158 0.00000119
-0.25533938 0.42507216 0.00000221
-0.22177857 -0.12352175 0.00000169
-0.15906829 -0.39095789 0.00000102
-0.29166409 0.39572415 0.00000193
-0.36522499 0.26356614 0.00000144
-0.32099292 -0.70406258 0.00000024
-0.71464485 -0.45339674 0.16261819
-0.14014971 0.64360362 0.00000297
-0.03928265 0.08001122 -0.00000933
-0.22045420 0.00702666 -0.00000587
-0.05794762 0.60546213 0.00000168
-0.19371131 0.27675691 -0.00000120
-0.71196193 -0.60208589 0.10915093
-0.07683241 0.70378804 0.00000344
-0.44223273 0.31707081 0.00000073
-0.66074228 -0.15484986 0.22065000
-0.13270614 0.07427480 -0.00000691
-0.24555013 -0.46190366 0.00000085
-0.61218828 -0.06649973 0.21070196
-0.05026063 0.69816244 0.00000368
-0.41928703 -0.73582363 0.00000016
-0.03186595 0.17633823 -0.00000761
-0.67907953 -0.28964111 -0.00000067
-0.74049640 -0.62061322 -0.00000045
-0.23276481 0.29607514 0.00000254
-0.13166416 -0.49417228 0.00000076
-0.13692679 -0.22845599 0.00000143
-0.23044319 -0.16093169 0.00000160
-0.16235913 -0.49501812 0.00000076
-0.34572247 -0.39742976 0.00000101
-0.45696446 -0.26795590 0.00000121
-0.40254599 -0.05336584 0.00000145
-0.44942608 -0.49480429 0.00000076
-0.22599749 0.38690478 0.00000250
-0.69895959 -0.21900547 -0.00000091
-0.05112721 -0.50871706 0.00000073
-0.37178811 -0.59444225 0.00000051
-0.58660263 0.00087190 -0.00000018
-0.09486022 -0.06046004 0.00000185
-0.18136036 -0.36566618 0.00000109
-0.17164770 -0.72363311 0.00000019
-0.60832387 -0.58848435 0.00000025
-0.11782466 -0.32684925 0.00000118
-0.13991296 0.30942881 -0.00000201
-0.35545272 -0.19897234 0.00000150
-0.68776804 -0.54618090 -0.00000048
-0.16972177 0.03027166 -0.00000678
-0.12141394 0.06507868 -0.00000740
-0.33179617 -0.64102197 0.00000040
-0.69060570 -0.43369821 -0.00000062
-0.43341815 0.32303041 0.00000079
-0.33552521 0.23280972 0.00000172
-0.06218769 -0.65816951 0.00000035
-0.50569504 0.21624222 0.00000029
-0.49075380 -0.63818300 0.00000040
-0.38447806 -0.11639358 0.00000167
-0.00189056 -0.35877612 0.00000110
-0.45325699 -0.26108602 0.00000123
-0.52541673 -0.59505230 0.00000051
-0.17879336 -0.43102959 0.00000092
-0.34623718 -0.78735107 0.00000003
-0.52224827 -0.57021546 0.00000057
-0.70570755 -0.77639675 -0.00000006
-0.05180484 -0.55291820 0.00000062
-0.09113568 -0.36627841 0.00000108
-0.60273069 0.09886037 -0.00000042
-0.49341902 -0.40728030 0.00000098
-0.76764810 -0.47439203 -0.00000081
-0.79502261 -0.16077635 -0.00000160
-0.71757740 -0.32140416 0.21053983
-0.62764877 -0.65752703 0.00000015
-0.24289231 0.07272749 -0.00000395
-0.24919927 -0.57843405 0.00000055
-0.59757268 0.04254626 0.23611768
-0.48360485 -0.46288443 0.00000084
-0.51864135 -0.52146935 0.00000070
-0.49856487 -0.39867744 0.00000099
-0.63463074 -0.19802915 -0.00000038
-0.08457033 -0.16463055 0.00000159
-0.08985276 -0.01406380 0.00000196
-0.19628599 0.42617416 0.00000271
-0.20184471 -0.61472905 0.00000046
-0.58218843 -0.51136196 0.00000039
-0.66831470 -0.15128927 0.22817639
-0.01103169 0.70659435 0.00000243
-0.07785416 0.24793874 -0.00000493
-0.57583612 -0.21813478 0.00000014
-0.71239597 -0.26873207 0.22437917
-0.05629340 0.22500730 -0.00000597
-0.63898152 -0.37395707 -0.00000024
-0.56971419 0.21251196 -0.00000025
-0.52570105 0.03828668 0.00000030
-0.24825828 -0.37622386 0.00000106
-0.51668119 0.01051814 0.00000041
-0.74970108 -0.75135833 -0.00000012
-0.09321755 0.50061846 0.00000054
-0.00505043 -0.78517342 0.00000004
-0.28200951 -0.68148530 0.00000030
-0.55744714 -0.63522989 0.00000041
-0.39957088 -0.09024441 0.00000151
-0.35502854 -0.03515841 0.00000183
-0.25516739 -0.53455973 0.00000066
-0.12871312 0.44517031 0.00000040
-0.79793632 -0.77854735 -0.00000005
-0.20632708 0.40336213 0.00000265
-0.23717524 0.51787263 0.00000227
-0.17409953 0.01933180 -0.00000688
-0.48237866 0.06218467 0.00000065
-0.57441109 -0.79717338 0.00000001
-0.23078328 -0.35869828 0.00000110
-0.63089734 -0.64938712 0.00000012
-0.69923854 -0.45414561 -0.00000067
-0.60584968 -0.56730229 0.00000024
-0.49843246 -0.71909136 0.00000020
-0.48458570 -0.27701464 0.00000098
-0.79862821 -0.50426906 -0.00000074
-0.67633772 -0.54628259 -0.00000038
-0.16444091 0.18902113 -0.00000375
-0.06577820 -0.52315998 0.00000069
-0.71001631 -0.15575498 -0.00000107
-0.53364551 -0.09228353 0.00000037
-0.70871818 -0.12952401 -0.00000109
-0.49180961 -0.47198138 0.00000082
-0.30468574 -0.32124677 0.00000120
-0.49453697 -0.70109951 0.00000025
-0.60652524 -0.12001581 -0.00000022
-0.48670602 -0.37758392 0.00000106
-0.51023912 -0.51862472 0.00000070
-0.04358363 -0.05979079 0.00000185
-0.54648751 -0.18216567 0.00000035
-0.04541702 -0.69939297 0.00000025
-0.36540592 0.25222915 0.00000145
-0.20420012 0.34294587 0.00000273
-0.02843474 0.29241815 -0.00000538
-0.30616313 0.40138736 0.00000180
-0.22024304 -0.40259272 0.00000099
-0.40311769 0.14339016 0.00000124
-0.14993317 0.25601929 -0.00000281
-0.23225108 0.03853098 -0.00000492
-0.01444907 0.59713209 0.00000034
-0.25915310 0.00501011 -0.00000486
-0.38660586 0.30881521 0.00000121
-0.54367304 -0.56226230 0.00000059
-0.02406302 -0.45603016 0.00000086
-0.02051488 -0.22464085 0.00000144
-0.61011368 -0.04462384 -0.00000033
-0.64035529 -0.30988768 -0.00000032
-0.13407668 -0.70042658 0.00000025
-0.35926783 -0.20190112 0.00000150
-0.37885714 0.35624418 0.00000123
-0.38954854 -0.14309047 0.00000164
-0.63604975 -0.13451417 0.20711571
-0.37841880 -0.56874299 0.00000058
-0.36170915 0.17652597 0.00000156
-0.59284467 -0.12081410 -0.00000011
-0.02864434 0.21277171 -0.00000697
-0.19802880 0.59293896 0.00000252
-0.18993255 0.33588877 -0.00000012
-0.56172973 -0.68661249 0.00000028
-0.04171804 -0.31908652 0.00000120
-0.03402872 -0.75543934 0.00000011
-0.67856151 -0.07048236 0.26454514
-0.35614476 -0.65480042 0.00000036
-0.73930115 -0.36646470 -0.00000108
-0.35699755 -0.43658587 0.00000091
-0.00657206 -0.17854743 0.00000155
-0.13276654 0.10964876 -0.00000620
-0.07427952 -0.06482309 0.00000184
-0.52202129 -0.74017066 0.00000015
-0.01892581 0.37382752 -0.00000401
-0.66962224 -0.13596250 -0.00000075
-0.32613650 -0.14210202 0.00000164
-0.11716525 0.07606755 -0.00000730
-0.48014733 0.15028332 0.00000057
-0.18367745 -0.12093761 0.00000170
-0.15698466 0.03766256 -0.00000698
-0.00971750 0.62696660 0.00000080
-0.21354844 0.28348169 -0.00000053
-0.31218779 -0.68954247 0.00000028
-0.54568726 -0.40493348 0.00000059
-0.41878280 -0.22085403 0.00000145
-0.43113214 -0.48683301 0.00000078
-0.65006697 0.04002279 -0.00000076
-0.74022013 -0.75034136 0.08157319
-0.53159618 0.02432069 0.00000027
-0.28034899 -0.21066578 0.00000147
-0.19985494 0.05636275 -0.00000544
-0.36040822 -0.04943740 0.00000180
-0.61835992 -0.57353950 0.00000014
-0.23932190 0.08139336 -0.00000387
-0.65418780 -0.44720697 -0.00000029
-0.25639024 0.34628841 0.00000228
-0.61463195 -0.64130753 0.00000025
-0.63415504 -0.07513309 0.22600108
-0.04282866 -0.46100971 0.00000085
-0.44831896 -0.55789495 0.00000061
-0.12049394 0.34258255 -0.00000188
-0.64012885 -0.39110169 -0.00000023
-0.27213782 0.40950724 0.00000208
-0.74375856 -0.62012827 0.12938574
-0.06567224 0.39335501 -0.00000235
-0.46968377 -0.14930704 0.00000097
-0.77553827 0.00160570 -0.00000179
-0.54009897 0.17522332 0.00000004
-0.05564204 0.12131221 -0.00000806
-0.14240202 0.16588271 -0.00000481
-0.21142054 0.08797418 -0.00000450
-0.19841713 -0.24989901 0.00000138
-0.24809580 -0.57911783 0.00000055
-0.02268573 -0.46327773 0.00000084
-0.12475705 -0.17867872 0.00000155
-0.45449576 -0.59525484 0.00000051
-0.79683322 -0.35055408 -0.00000112
-0.53809392 -0.66160595 0.00000035
-0.13007067 -0.72834468 0.00000018
-0.16032881 0.41006574 0.00000056
-0.63155240 -0.17452298 -0.00000038
-0.58550376 -0.35146374 0.00000019
-0.42350438 -0.63778031 0.00000041
-0.73976278 -0.09752488 -0.00000138
-0.62758338 -0.67774129 0.00000017
-0.36770630 0.43147245 0.00000124
-0.66610128 -0.40032479 0.14052218
-0.51597637 -0.47373527 0.00000082
-0.38622007 0.06980440 0.00000146
-0.04852813 -0.18004476 0.00000155
-0.44736564 0.21340521 0.00000079
-0.65603340 -0.55702239 -0.00000019
-0.47755325 0.06701094 0.00000068
-0.14578730 -0.27143729 0.00000132
-0.04083329 0.34956917 -0.00000390
-0.10925452 0.13084488 -0.00000642
-0.01058456 -0.76345199 0.00000009
-0.70276266 -0.18978950 -0.00000097
-0.55218726 0.00580682 0.00000011
-0.73468679 -0.72444701 -0.00000019
-0.33332351 -0.12206279 0.00000169
-0.52872121 -0.65202999 0.00000037
-0.46576700 -0.23134482 0.00000109
-0.56862676 -0.44378793 0.00000043
-0.72522748 -0.29461744 -0.00000106
-0.11793352 0.04368404 -0.00000792
-0.24190097 0.30984166 0.00000244
-0.32287404 -0.52691394 0.00000068
-0.17428505 -0.72313827 0.00000019
-0.52441359 0.10413563 0.00000024
-0.14912349 0.10759137 -0.00000580
-0.54574263 -0.34660178 0.00000053
-0.30838838 -0.08625282 0.00000178
-0.07048317 0.70549405 0.00000350
-0.74535358 -0.62699300 -0.00000043
-0.64413869 -0.65789676 0.00000001
-0.61431962 -0.05002975 0.21815023
-0.27216139 -0.64936632 0.00000038
-0.41816673 -0.42627901 0.00000093
-0.79170573 -0.38481361 -0.00000104
-0.48171264 -0.20366292 0.00000093
-0.47573796 -0.56181908 0.00000060
-0.44446820 -0.26198381 0.00000131
-0.71269673 0.04397920 -0.00000130
-0.59433711 -0.71295190 0.00000022
-0.03355985 -0.72059023 0.00000020
-0.59206486 -0.44773373 0.00000024
-0.12150604 -0.25705713 0.00000136
-0.65782958 -0.14698897 0.22093567
-0.30572310 0.12296980 0.00000209
-0.14589153 -0.61184710 0.00000047
-0.75835544 -0.71715730 0.10809470
-0.51500773 -0.56849623 0.00000058
-0.35745832 -0.28753436 0.00000128
-0.70126367 -0.11157820 0.26927021
-0.55740088 0.09178312 -0.00000002
-0.35694018 -0.40379328 0.00000099
-0.14125851 0.21586549 -0.00000385
-0.24690060 0.23706155 0.00000248
-0.30519557 0.12189076 0.00000210
-0.35530511 0.32942849 0.00000145
-0.71711731 -0.16467929 -0.00000112
-0.42026731 -0.66139919 0.00000035
-0.08286232 0.43751612 -0.00000100
-0.64156514 -0.49735874 -0.00000013
-0.51937264 -0.62906051 0.00000043
-0.51972866 -0.25371200 0.00000065
-0.07462573 0.03311114 -0.00000931
-0.60714275 -0.69358468 0.00000027
-0.59421426 -0.02110478 -0.00000022
-0.78683794 -0.41993356 -0.00000095
-0.77145487 -0.56501591 -0.00000059
-0.51154053 -0.34556207 0.00000082
-0.35997957 -0.21966600 0.00000145
-0.58079457 -0.69892687 0.00000025
-0.04004320 -0.44679475 0.00000088
-0.15364715 -0.48155132 0.00000080
-0.70616502 -0.66801685 -0.00000033
-0.29698449 0.15859321 0.00000213
-0.17604926 -0.48963821 0.00000078
-0.62914884 -0.02807899 0.23804891
-0.31603539 -0.69999605 0.00000025
-0.46593547 0.06311901 0.00000079
-0.72246772 -0.49133253 -0.00000077
-0.09906702 -0.57681495 0.00000056
-0.25740054 -0.11363921 0.00000172
-0.42434531 0.07764614 0.00000113
-0.07058020 -0.35432178 0.00000111
-0.00468869 -0.76988566 0.00000008
-0.10257947 0.21569549 -0.00000490
-0.29991665 0.28276432 0.00000198
-0.28775007 0.39622012 0.00000196
-0.49463198 -0.28319457 0.00000090
-0.36866182 0.36057863 0.00000131
-0.06919771 0.72832423 0.00000351
-0.26165900 -0.63923889 0.00000040
-0.48505852 0.14633808 0.00000054
-0.41466478 -0.24737900 0.00000138
-0.57978922 0.17852977 -0.00000031
-0.33124262 0.17410381 0.00000182
-0.60981458 -0.41589150 0.00000005
-0.22914463 0.15283284 -0.00000272
-0.39478379 -0.74607313 0.00000013
-0.43699303 -0.33829612 0.00000115
-0.41000399 0.09530047 0.00000123
-0.26741692 -0.71938121 0.00000020
-0.18970060 0.50077659 0.00000269
-0.29384089 0.49738157 0.00000181
-0.59645611 -0.29667255 0.00000004
-0.37284517 0.26403946 0.00000137
-0.31869444 -0.11805138 0.00000170
-0.59545052 0.07622722 0.24595881
-0.75747275 -0.12067044 -0.00000151
-0.22038542 0.53452021 0.00000239
-0.72433448 -0.00191284 -0.00000135
-0.04652569 0.22061127 -0.00000632
-0.21464448 0.43609121 0.00000254
-0.76069784 -0.42537719 -0.00000094
-0.00832270 0.66334826 0.00000149
-0.38833150 -0.37459350 0.00000106
-0.36309269 -0.26398656 0.00000134
-0.48515794 -0.14179642 0.00000083
-0.63759071 -0.00425952 -0.00000061
-0.66104239 -0.07954105 -0.00000073
-0.71448648 -0.45938715 0.16042230
-0.66506761 -0.04889799 0.26075721
-0.22684076 -0.61531043 0.00000046
-0.36087063 0.11822903 0.00000163
-0.06234864 0.62127197 0.00000212
-0.26561165 0.35846254 0.00000219
-0.20422675 -0.39901790 0.00000100
-0.12566955 0.44255650 0.00000026
-0.42039683 0.27519292 0.00000096
-0.30531925 0.35996467 0.00000185
-0.52572328 -0.16150828 0.00000051
-0.34673962 0.36684638 0.00000149
-0.75403661 -0.42550370 -0.00000094
-0.54677886 -0.57540929 0.00000056
-0.60617441 -0.35790128 0.00000003
-0.70137680 -0.29221943 -0.00000086
-0.05327836 0.73926616 0.00000361
-0.14858784 -0.13832358 0.00000165
-0.78341854 -0.36243218 -0.00000109
-0.50444764 -0.71403557 0.00000021
-0.47607169 0.18846457 0.00000057
-0.00432726 0.70509046 0.00000222
-0.44135380 0.35395706 0.00000074
-0.03553135 -0.24058165 0.00000140
-0.40278187 -0.00633919 0.00000140
-0.48218030 -0.75888133 0.00000010
-0.43092886 -0.27035984 0.00000132
-0.18177989 -0.12189858 0.00000170
-0.27710608 -0.37465742 0.00000106
-0.73484790 0.00351715 -0.00000145
-0.77380186 -0.20552006 -0.00000149
-0.33956009 -0.50739110 0.00000073
-0.71593529 -0.54721838 -0.00000063
-0.05527497 0.50226080 -0.00000045
-0.34773946 -0.30059564 0.00000125
-0.15521608 -0.45983899 0.00000085
-0.61665201 0.03848551 0.25059083
-0.13090967 -0.71428269 0.00000021
-0.38520360 0.10020842 0.00000144
-0.28218332 -0.15272109 0.00000162
-0.70884895 -0.59784508 0.10802253
-0.60525888 -0.66687953 0.00000033
-0.24430463 0.55567342 0.00000217
-0.42924520 -0.49875450 0.00000075
-0.27955642 0.51390219 0.00000191
-0.62391466 0.14156935 -0.00000064
-0.65093172 -0.10140056 0.23090628
-0.12900913 0.01542314 -0.00000819
-0.32777366 -0.30800495 0.00000123
-0.03915742 -0.74387258 0.00000014
-0.78472990 0.00908793 -0.00000188
-0.00418266 -0.71734142 0.00000023
-0.15262282 0.37138423 -0.00000043
-0.53402787 -0.17584214 0.00000045
-0.17907505 0.61011606 0.00000267
-0.58641088 -0.59941721 0.00000044
-0.16254294 -0.61239129 0.00000047
-0.70196885 -0.21426038 0.23447464
-0.45167601 0.06685065 0.00000090
-0.48377874 -0.73532772 0.00000016
-0.07545630 -0.69083095 0.00000027
-0.26593336 0.51449400 0.00000203
-0.27175239 -0.43026593 0.00000092
-0.06796685 -0.21177112 0.00000147
-0.37257981 0.28521529 0.00000135
-0.51254541 -0.14217593 0.00000060
-0.25745383 -0.05614051 0.00000186
-0.22047774 -0.33274990 0.00000117
-0.03023101 -0.35404190 0.00000111
-0.33001447 0.42548740 0.00000157
-0.06560646 0.39593109 -0.00000230
-0.54922509 -0.07694119 0.00000022
-0.67584640 -0.42697975 -0.00000050
-0.18628742 -0.29670659 0.00000126
-0.54619175 -0.68942153 0.00000028
-0.12011585 -0.59346014 0.00000052
-0.06147445 -0.30984372 0.00000123
-0.47687745 0.28270355 0.00000047
-0.21833229 -0.04980144 0.00000188
-0.16215838 -0.22567177 0.00000144
-0.71481472 -0.15661427 -0.00000111
-0.06504697 -0.33318093 0.00000117
-0.08761954 -0.69283372 0.00000027
-0.23845384 -0.75657886 0.00000011
-0.19623534 -0.06028660 0.00000185
-0.68808919 -0.53272259 -0.00000049
-0.42297775 -0.56508195 0.00000059
-0.50340784 0.26903647 0.00000025
-0.10944150 -0.71752787 0.00000021
-0.13756597 -0.79208839 0.00000002
-0.64986926 -0.29825208 0.16219117
-0.28094915 -0.20197850 0.00000150
-0.75320596 -0.62061024 -0.00000045
-0.23127455 -0.78294879 0.00000004
-0.43749622 -0.13800605 0.00000124
-0.17139436 -0.40303627 0.00000099
-0.26045936 -0.08951793 0.00000178
-0.53574276 -0.00456915 0.00000026
-0.07165837 -0.34210366 0.00000114
-0.09113126 -0.00228639 0.00000199
-0.17010811 -0.79720712 0.00000001
-0.67635030 -0.67543620 -0.00000025
-0.75824463 0.02857550 -0.00000167
-0.41190082 0.37739444 0.00000092
-0.44081715 0.27008983 0.00000079
-0.34800330 -0.47010118 0.00000082
-0.27333140 -0.56335092 0.00000059
-0.20242710 -0.30076787 0.00000125
-0.38880953 -0.62595338 0.00000044
-0.08024665 -0.56742173 0.00000058
-0.49056390 -0.24800661 0.00000090
-0.74893218 -0.16880660 -0.00000139
-0.19330908 -0.36775789 0.00000108
-0.22383168 -0.33268994 0.00000117
-0.78644508 -0.70659673 -0.00000023
-0.16458219 -0.54240382 0.00000064
-0.64648950 -0.18664622 0.19783679
-0.60823923 -0.51031613 0.00000017
-0.41489565 -0.13074665 0.00000142
-0.07735298 -0.10601279 0.00000173
-0.37121156 0.01098470 0.00000165
-0.10110260 0.28069040 -0.00000364
-0.39290664 -0.09173536 0.00000157
-0.01708204 0.30408221 -0.00000545
-0.34485582 -0.53773630 0.00000066
-0.14133467 -0.77414852 0.00000006
-0.47067490 0.08900609 0.00000072
-0.10129551 0.25177598 -0.00000421
-0.29346901 -0.63308620 0.00000042
-0.35195297 -0.20895660 0.00000148
-0.47010243 -0.70125663 0.00000025
-0.00645458 -0.41740739 0.00000096
-0.36144781 -0.48267192 0.00000079
-0.35120529 -0.62346923 0.00000044
-0.52983254 -0.54417610 0.00000064
-0.09807306 -0.61606324 0.00000046
-0.09193847 0.09759064 -0.00000755
-0.22147873 -0.43197259 0.00000092
-0.09580370 -0.15180746 0.00000162
-0.05022485 0.70391291 0.00000367
-0.39793167 0.25160089 0.00000117
-0.12798795 -0.14579801 0.00000164
-0.68167263 -0.74454898 -0.00000014
-0.57577771 -0.67230994 0.00000032
-0.37568623 -0.75844634 0.00000010
-0.73505598 -0.27438557 -0.00000116
-0.76517320 -0.51133925 -0.00000072
-0.09736557 0.08398828 -0.00000768
-0.43151379 -0.57039022 0.00000057
-0.08328992 0.01841228 -0.00000937
-0.34480327 -0.32915646 0.00000118
-0.03431130 -0.52567112 0.00000069
-0.08670670 -0.51620638 0.00000071
-0.10705684 -0.68785304 0.00000028
-0.74330181 -0.59531438 0.13755609
-0.61811692 0.18016030 -0.00000063
-0.20134439 -0.27275348 0.00000132
-0.71688062 -0.38583416 -0.00000089
-0.04615473 0.06043941 -0.00000954
-0.10879317 0.36652175 -0.00000171
-0.65256643 0.06255931 -0.00000081
-0.67932767 -0.23446783 -0.00000073
-0.28456801 -0.45447844 0.00000086
-0.71383983 -0.44698840 0.16415668
-0.70197415 -0.41231358 -0.00000074
-0.46423942 0.14316301 0.00000072
-0.35863778 0.32384181 0.00000143
-0.50628155 -0.38702917 0.00000091
-0.76197803 -0.16739704 -0.00000150
-0.63203758 -0.20714466 0.17875095
-0.72321647 0.00636911 -0.00000135
-0.13870998 0.18637238 -0.00000451
-0.29686394 0.22799262 0.00000206
-0.04574087 0.16033670 -0.00000755
-0.74657571 -0.23537269 -0.00000130
-0.31507182 0.37064910 0.00000176
-0.78917754 -0.69969964 -0.00000025
-0.52996498 -0.35148701 0.00000067
-0.35488242 -0.41285306 0.00000097
-0.71186227 -0.79117721 0.04391090
-0.58037120 0.13168317 -0.00000026
-0.51502472 -0.48536298 0.00000079
-0.58262503 0.15386257 -0.00000030
-0.46140739 -0.04066898 0.00000093
-0.45422685 -0.06552742 0.00000102
-0.06743358 -0.38934511 0.00000103
-0.25882140 -0.18445136 0.00000154
-0.76756442 -0.44687024 -0.00000088
-0.67144740 -0.22114883 0.20671017
-0.20568351 0.33844650 0.00000272
-0.09331400 -0.08254219 0.00000179
-0.61135876 0.05336662 0.25131536
-0.40162912 -0.07599130 0.00000148
-0.41246122 -0.15246081 0.00000147
-0.28935325 0.01294672 -0.00000388
-0.43549749 0.15064514 0.00000096
-0.15603282 0.10000328 -0.00000576
-0.22196151 -0.12041185 0.00000170
-0.30213234 -0.40720856 0.00000098
-0.67398936 -0.16262856 0.22898978
-0.13171913 -0.19980389 0.00000150
-0.54016942 -0.70323950 0.00000024
-0.07640378 -0.32131460 0.00000120
-0.42031133 -0.47697234 0.00000081
-0.38601530 -0.04899833 0.00000158
-0.56120473 -0.48222160 0.00000054
-0.55592066 -0.58839560 0.00000053
-0.36674565 0.07141872 0.00000162
-0.18503141 -0.10841312 0.00000173
-0.42775005 0.25290295 0.00000092
-0.36236650 -0.31290653 0.00000122
-0.26085544 -0.08994374 0.00000178
-0.32969782 -0.37988225 0.00000105
-0.15427946 -0.64025694 0.00000040
-0.48604885 0.09622975 0.00000058
-0.66047376 -0.25337648 0.18647628
-0.67109352 -0.08019843 0.25498462
-0.31821865 -0.18166877 0.00000155
-0.38839617 -0.70954591 0.00000023
-0.18899967 -0.42844027 0.00000093
-0.40442038 -0.63787502 0.00000041
-0.22622398 0.50947940 0.00000237
-0.42015201 -0.04672401 0.00000129
