ply
format ascii 1.0
element vertex 1175
property float x
property float y
property float z
end_header
-0.11041361 0.43384737 0.00000000
0.10880082 -0.76976705 0.09969664
-0.51487565 -0.47730160 0.00000000
-0.79095852 -0.10157193 -0.00000175
-0.04103187 0.46500072 0.00000000
-0.70592242 -0.50179034 -0.00000071
-0.09559977 0.12176732 0.00000000
-0.48889706 -0.45678040 0.00000000
-0.59019768 -0.78365201 0.00000000
-0.27726257 0.51993978 -0.00000065
-0.09023878 0.05661230 0.00000000
-0.05228208 0.50374883 0.00000000
-0.66696531 0.02672244 -0.00000148
0.23741738 -0.75571263 0.21755089
-0.13473418 0.45645982 0.00000000
-0.02236393 -0.50448811 0.00000000
-0.75989074 -0.09161409 -0.00000167
-0.14311203 -0.08913109 0.00000000
-0.30101648 -0.13838890 0.00000000
-0.29303715 0.33989245 -0.00000044
-0.00403259 -0.15410540 0.00000000
-0.45572105 -0.10362986 -0.00000035
-0.59054685 -0.52665579 -0.00000018
-0.33838901 -0.06968649 0.00000000
-0.21901587 -0.51502383 0.00000000
-0.36010888 -0.51512384 0.00000000
-0.08423747 0.63679093 -0.00000007
-0.60600644 -0.34455222 -0.00000056
-0.31796184 -0.39998066 0.00000000
-0.36506382 0.07327293 -0.00000027
-0.01965950 -0.21472098 0.00000000
-0.10742265 0.12940679 0.00000000
-0.18290250 0.30743349 0.00000000
-0.32606304 -0.03855519 0.00000000
-0.12375080 -0.05490545 0.00000000
-0.22081655 0.49162039 -0.00000040
-0.41740799 -0.54694998 0.00000000
0.29858536 -0.71376097 0.27360049
-0.05650944 -0.17786266 0.00000000
-0.47130132 -0.01755433 -0.00000057
-0.10026182 -0.20366967 0.00000000
-0.16298261 -0.03710715 0.00000000
-0.13450633 -0.19846877 0.00000000
-0.32412586 -0.61635619 0.00000000
-0.63199830 -0.09601135 -0.00000111
-0.69623238 0.03195663 -0.00000161
-0.72489434 -0.21904805 -0.00000129
-0.42263687 0.01639005 -0.00000042
-0.00738174 0.13002501 0.00000000
-0.20807779 0.45577833 -0.00000028
-0.15685564 -0.30524689 0.00000000
-0.47023317 -0.01273293 -0.00000057
-0.32184228 0.02110591 0.00000000
-0.06557659 -0.18984292 0.00000000
-0.15224552 -0.30668268 0.00000000
-0.55292273 -0.73380762 0.00000000
-0.65856379 0.01059124 -0.00000142
-0.14086264 0.22961856 0.00000000
-0.24868406 -0.67621458 0.00000000
-0.55754793 0.12301806 -0.00000118
-0.15802293 -0.78818834 0.00000000
-0.20114142 0.43636850 -0.00000022
-0.26746860 -0.55443382 0.00000000
-0.09112059 0.46274063 0.00000000
-0.06419858 0.18953539 0.00000000
-0.17926739 0.01156462 0.00000000
0.44778782 -0.77701974 0.41031805
-0.66516393 -0.77221239 -0.00000006
-0.33336246 -0.63519108 0.00000000
-0.53471899 -0.49799851 0.00000000
-0.67049569 -0.36830243 -0.00000080
-0.12704524 0.34093899 0.00000000
-0.17741798 -0.21475701 0.00000000
-0.16235685 -0.10680653 0.00000000
-0.79461908 -0.77256638 -0.00000007
-0.04163502 -0.77504414 0.00000000
-0.14183481 -0.19618738 0.00000000
-0.18099806 -0.45181277 0.00000000
-0.15513647 -0.39647049 0.00000000
-0.72359484 -0.27273539 -0.00000119
-0.54017377 0.10774243 -0.00000108
-0.63599896 -0.02165427 -0.00000126
-0.36004069 -0.76264334 0.00000000
-0.15762813 -0.59969431 0.00000000
-0.54667836 -0.18841130 -0.00000059
0.51207954 -0.69907951 0.46922976
-0.11647524 -0.45634985 0.00000000
-0.64895350 0.01677767 -0.00000139
-0.30790031 -0.28838062 0.00000000
-0.01227124 -0.34136942 0.00000000
-0.06591878 0.54376131 0.00000000
-0.30863473 -0.55143243 0.00000000
-0.25182965 -0.00879275 0.00000000
-0.41909331 0.28784057 -0.00000088
-0.18435200 0.41143441 -0.00000010
0.27567121 -0.72651702 0.25260374
-0.60625929 -0.44360316 -0.00000039
-0.02062402 0.53266066 0.00000000
-0.36254674 -0.71407986 0.00000000
-0.12549421 0.11082107 0.00000000
-0.07114676 0.10231042 0.00000000
-0.24734399 -0.37094977 0.00000000
-0.01138591 0.33671445 0.00000000
0.49276632 -0.76764560 0.45153278
0.24535188 -0.73240018 0.22482145
-0.79811627 -0.50289303 -0.00000074
-0.33455673 0.01183759 -0.00000003
-0.10343192 0.42186460 0.00000000
-0.43859646 -0.46339428 0.00000000
-0.25823653 0.25983787 -0.00000015
-0.13760976 0.62094206 -0.00000027
-0.05524138 -0.43704441 0.00000000
-0.36726040 0.29837066 -0.00000068
-0.03111002 -0.76210207 0.00000000
-0.21448214 -0.30496034 0.00000000
-0.73621380 -0.10749722 -0.00000154
-0.00578063 0.22551093 0.00000000
-0.37828696 -0.60482317 0.00000000
-0.54707474 0.12560213 -0.00000114
-0.37628567 -0.04226048 -0.00000012
-0.23374104 0.31947273 -0.00000015
-0.61781347 -0.35268891 -0.00000060
-0.41450238 -0.52290362 0.00000000
-0.14048497 -0.70331192 0.00000000
-0.53203392 0.10408755 -0.00000104
-0.15901230 -0.09985005 0.00000000
-0.42212781 -0.12738606 -0.00000016
-0.53696501 0.18450449 -0.00000120
-0.69332910 -0.43093932 -0.00000078
-0.28055015 0.15025961 -0.00000005
0.10967458 -0.77805471 0.10049729
-0.65132880 -0.53388619 -0.00000042
-0.71271253 -0.35971013 -0.00000099
-0.61917984 -0.41021061 -0.00000050
-0.24384610 0.26296100 -0.00000009
-0.50160724 -0.33348879 -0.00000014
-0.46066251 -0.72925377 0.00000000
-0.18566962 0.36351931 -0.00000002
-0.22901288 -0.09088264 0.00000000
-0.40304771 -0.21439983 0.00000000
0.17678913 -0.76698363 0.16199586
-0.78195733 -0.47657800 -0.00000081
0.23817526 -0.77078152 0.21824536
-0.43322000 -0.37568942 0.00000000
-0.09185354 0.53368807 0.00000000
-0.41647139 -0.30023953 0.00000000
-0.52685112 -0.24271028 -0.00000041
-0.39522484 -0.62778503 0.00000000
-0.22447659 0.38061497 -0.00000022
-0.38942808 -0.00672953 -0.00000024
-0.47152618 0.24045175 -0.00000102
-0.79374057 -0.74490410 -0.00000014
-0.06162639 -0.53395730 0.00000000
-0.31203896 -0.63123411 0.00000000
-0.11575914 0.25930145 0.00000000
-0.19404013 -0.60010874 0.00000000
-0.00627714 -0.68220925 0.00000000
-0.19421101 -0.38656816 0.00000000
0.36912507 -0.70540899 0.33823761
-0.79115218 -0.77650893 -0.00000006
-0.67145753 -0.17485997 -0.00000114
-0.71485674 -0.24735987 -0.00000120
-0.65742588 -0.18167517 -0.00000107
-0.38444716 0.13979048 -0.00000047
-0.63672930 -0.05829198 -0.00000120
-0.61940640 -0.53825027 -0.00000028
-0.32347766 -0.55136538 0.00000000
-0.28035095 -0.49147815 0.00000000
-0.37583616 -0.35802183 0.00000000
-0.10686610 0.27762735 0.00000000
-0.01427550 0.54285669 0.00000000
-0.73605472 -0.75911427 -0.00000010
-0.64666557 0.07601070 -0.00000148
-0.21917944 0.04055221 0.00000000
-0.52390915 -0.28913510 -0.00000031
-0.07242643 -0.39295790 0.00000000
-0.53679031 -0.20700344 -0.00000051
-0.47429276 -0.09761413 -0.00000044
-0.20970260 -0.68477780 0.00000000
-0.11823340 -0.79675853 0.00000000
-0.22359279 -0.35149473 0.00000000
-0.49402142 0.29488513 -0.00000122
-0.01960408 0.32707042 0.00000000
-0.39619848 0.05226683 -0.00000037
-0.24540187 -0.48246506 0.00000000
-0.35114700 -0.13786814 0.00000000
-0.77490956 -0.60749274 -0.00000048
-0.62955856 -0.62472838 -0.00000017
-0.19586411 0.27632555 0.00000000
-0.20700403 -0.70258898 0.00000000
-0.24973521 -0.24328572 0.00000000
-0.38087261 -0.20334864 0.00000000
-0.48498380 -0.44035402 0.00000000
-0.12571657 -0.26943445 0.00000000
-0.79118705 -0.55483103 -0.00000061
-0.06324858 -0.43178013 0.00000000
-0.77675503 -0.56819737 -0.00000058
0.33073834 -0.70768028 0.30306298
-0.24656677 0.28739473 -0.00000015
0.16800596 -0.76421648 0.15394765
-0.46743193 0.02659974 -0.00000063
-0.61487144 -0.18384987 -0.00000088
-0.05028776 0.41811940 0.00000000
-0.24250923 0.55695099 -0.00000061
-0.28191870 -0.79740053 0.00000000
0.52697295 -0.68813354 0.48287690
-0.02450443 0.50082642 0.00000000
-0.71394289 -0.43397364 -0.00000087
0.52738994 -0.78724718 0.48325923
-0.72482502 -0.30760232 -0.00000114
-0.32642007 0.31644550 -0.00000054
-0.56897199 0.21227217 -0.00000139
-0.32407355 -0.10643260 0.00000000
-0.57941943 -0.60505217 0.00000000
-0.29033279 -0.33674085 0.00000000
-0.14994544 -0.73761642 0.00000000
-0.25717983 -0.74182981 0.00000000
-0.42812705 0.09894155 -0.00000059
-0.36620289 -0.29133597 0.00000000
-0.76763374 -0.46351221 -0.00000084
-0.60415030 0.14512965 -0.00000142
-0.69675475 -0.51219618 -0.00000065
-0.53507072 -0.35765955 -0.00000024
-0.36643070 -0.37392899 0.00000000
-0.12607390 -0.26417097 0.00000000
-0.51702851 -0.19668701 -0.00000044
-0.08819159 -0.77077711 0.00000000
-0.62080020 0.01402782 -0.00000126
-0.75170445 -0.47971886 -0.00000080
-0.40809622 -0.27018350 0.00000000
-0.63289684 -0.09047559 -0.00000113
0.55971879 -0.64823294 0.51288253
-0.43939307 0.21691801 -0.00000084
-0.37271518 0.19048133 -0.00000051
0.30078512 -0.72344559 0.27561617
-0.39302072 0.34334379 -0.00000087
-0.75909865 -0.10122679 -0.00000165
-0.29693064 -0.36519432 0.00000000
-0.41466004 -0.38151962 0.00000000
-0.38501421 -0.64280266 0.00000000
-0.02457960 0.65561050 0.00000000
-0.34759739 0.02861437 -0.00000012
-0.32449332 -0.66959912 0.00000000
-0.68257314 -0.26988757 -0.00000102
-0.56511873 -0.19786033 -0.00000065
-0.76743263 -0.73668289 -0.00000016
-0.46264228 -0.17708957 -0.00000025
-0.26196274 0.49100581 -0.00000057
-0.00703199 -0.77537405 0.00000000
-0.57120126 -0.49140427 -0.00000015
-0.01338647 0.56845164 0.00000000
-0.32752883 -0.04574732 0.00000000
-0.41363266 -0.25034359 0.00000000
-0.33022922 0.17657079 -0.00000031
-0.75251400 -0.27280736 -0.00000132
-0.41719019 -0.41046160 0.00000000
-0.06025715 0.41266409 0.00000000
-0.02386875 -0.73045164 0.00000000
-0.04243107 0.29961959 0.00000000
-0.38171932 -0.14124037 0.00000000
-0.22276907 0.23451746 0.00000000
-0.76762551 -0.20146590 -0.00000150
-0.35737535 0.16545253 -0.00000040
-0.27157044 -0.26631194 0.00000000
-0.01239209 -0.48202264 0.00000000
-0.64597213 0.12832268 -0.00000157
-0.57307476 -0.71528518 0.00000000
-0.48885712 0.17095473 -0.00000097
-0.30207497 -0.56782043 0.00000000
-0.29169735 -0.50714457 0.00000000
-0.01155852 0.27333656 0.00000000
-0.15804912 0.26016057 0.00000000
-0.42142656 -0.36310235 0.00000000
-0.02926840 0.43748617 0.00000000
-0.20007409 -0.17626314 0.00000000
-0.62781090 -0.17136729 -0.00000096
-0.00174450 -0.51827323 0.00000000
-0.24831101 0.41898626 -0.00000039
-0.36566997 0.40361166 -0.00000086
-0.09183468 0.40290967 0.00000000
-0.61516106 -0.77861851 0.00000000
-0.61361527 -0.55296373 -0.00000023
-0.60687691 -0.45348611 -0.00000037
-0.03929385 -0.64734900 0.00000000
-0.51101226 -0.71159291 0.00000000
-0.29972330 -0.63567412 0.00000000
-0.73237324 -0.48502949 -0.00000079
-0.43525958 0.20857506 -0.00000081
-0.44841084 -0.11638458 -0.00000029
-0.29301870 -0.79272372 0.00000000
-0.08622861 0.57397681 0.00000000
-0.11717548 -0.36682618 0.00000000
-0.10087686 0.25315157 0.00000000
-0.04648413 0.68840683 -0.00000000
-0.61254048 -0.59939212 -0.00000014
-0.60253823 0.19063456 -0.00000149
-0.06655633 -0.38952687 0.00000000
-0.09156102 0.55514246 0.00000000
-0.21579932 -0.27335688 0.00000000
-0.03986187 0.21606335 0.00000000
-0.36869568 -0.29251444 0.00000000
-0.07071818 0.67444277 -0.00000008
-0.35323673 -0.26144829 0.00000000
-0.46674705 -0.64081818 0.00000000
-0.36093730 -0.73137856 0.00000000
-0.43519798 0.21074553 -0.00000082
-0.48106897 -0.50234324 0.00000000
-0.03763507 0.58970189 0.00000000
-0.22807370 -0.67938006 0.00000000
-0.12703840 0.61274970 -0.00000021
-0.07437452 -0.59978908 0.00000000
-0.07982669 -0.01907138 0.00000000
-0.11895408 0.43842384 0.00000000
-0.37756789 -0.22541858 0.00000000
-0.79616439 -0.32174295 -0.00000120
-0.28794864 0.34806648 -0.00000043
-0.53681499 -0.48882106 -0.00000001
-0.14902236 0.03218120 0.00000000
-0.59915471 0.15897159 -0.00000142
-0.03371394 -0.74763417 0.00000000
-0.03229193 -0.63667423 0.00000000
-0.49117035 -0.33907667 -0.00000008
-0.31904328 -0.14103869 0.00000000
-0.47837394 0.05950346 -0.00000073
-0.53546911 -0.13699748 -0.00000063
-0.11715841 0.05857697 0.00000000
-0.18804331 -0.39904836 0.00000000
-0.38193199 -0.44294348 0.00000000
-0.27175257 0.18822441 -0.00000008
-0.00782442 0.64887840 0.00000000
-0.63213289 0.13354574 -0.00000152
-0.03331927 -0.53349644 0.00000000
-0.47221383 -0.76945847 0.00000000
-0.28692600 -0.07161344 0.00000000
-0.22007488 0.57717830 -0.00000050
-0.72238779 -0.44102359 -0.00000089
-0.10334230 0.40643993 0.00000000
0.51353550 -0.66432279 0.47056380
-0.24851389 0.22088695 -0.00000004
-0.50844383 -0.70251167 0.00000000
-0.44488415 -0.48111561 0.00000000
-0.10882565 -0.09333287 0.00000000
-0.19116233 0.26606873 0.00000000
-0.24247625 0.39404047 -0.00000032
-0.02443211 0.72440988 0.00000000
-0.10226361 0.46656135 0.00000000
0.17661805 -0.78479701 0.16183910
-0.08990763 0.29581782 0.00000000
-0.31431040 -0.15816303 0.00000000
-0.37744853 -0.32005283 0.00000000
-0.70472836 -0.15399782 -0.00000132
-0.36912411 -0.33835015 0.00000000
-0.01097439 -0.63603234 0.00000000
-0.43875095 -0.02712995 -0.00000041
-0.01255055 -0.17774129 0.00000000
-0.29834196 -0.49804947 0.00000000
-0.10082734 -0.78531486 0.00000000
0.19601399 -0.78795367 0.17961203
-0.18980771 0.33227101 0.00000000
-0.79197377 -0.78205651 -0.00000004
-0.72269118 -0.08508048 -0.00000152
-0.05179450 0.55410665 0.00000000
-0.15118159 -0.75786841 0.00000000
-0.27572754 0.25839180 -0.00000022
0.42205283 -0.75111139 0.38673651
-0.54410440 -0.60153913 0.00000000
-0.07518037 0.31665733 0.00000000
-0.78001493 -0.51894253 -0.00000070
-0.21563525 -0.17390323 0.00000000
-0.62421638 -0.17599665 -0.00000094
-0.74471301 -0.24433114 -0.00000133
-0.38536599 -0.65639538 0.00000000
-0.34974751 0.18599436 -0.00000041
-0.18816067 0.02980337 0.00000000
-0.44946241 -0.19951439 -0.00000015
-0.58941746 -0.27444857 -0.00000062
-0.13329445 0.49432522 -0.00000003
-0.29853395 0.21020041 -0.00000023
-0.11824648 0.33378372 0.00000000
-0.38400143 -0.75575310 0.00000000
-0.06092456 0.22041731 0.00000000
-0.20030081 0.46823725 -0.00000027
-0.25504026 -0.00546330 0.00000000
0.42818478 -0.69965518 0.39235535
-0.63685346 0.08524595 -0.00000145
-0.75571340 -0.04290906 -0.00000174
-0.42373958 -0.36863136 0.00000000
-0.51922131 -0.16710438 -0.00000051
-0.15031539 0.20075735 0.00000000
-0.33979031 -0.15109184 0.00000000
-0.75418657 -0.59337080 -0.00000052
-0.28997952 0.07451337 0.00000000
-0.62449843 -0.63623822 -0.00000013
-0.26655918 -0.15709527 0.00000000
-0.15521373 -0.10630369 0.00000000
-0.36057779 -0.06641296 -0.00000001
-0.39985701 0.19843380 -0.00000064
-0.22960287 0.04655107 0.00000000
-0.62812465 -0.65353984 -0.00000011
-0.74220854 -0.04653775 -0.00000167
-0.43200988 -0.58559465 0.00000000
-0.69042265 -0.56104529 -0.00000054
-0.49172765 -0.51387018 0.00000000
-0.67828453 -0.09026879 -0.00000132
-0.69991225 0.01351046 -0.00000160
-0.52575105 -0.40024000 -0.00000012
-0.19804788 -0.04336476 0.00000000
-0.70530981 -0.45234057 -0.00000080
-0.42051518 -0.27375570 0.00000000
-0.10452629 -0.54512000 0.00000000
-0.37311175 0.17444266 -0.00000049
-0.11315061 -0.61831242 0.00000000
-0.48726416 0.16783939 -0.00000096
-0.40426767 0.12108223 -0.00000053
-0.04915407 -0.38834614 0.00000000
-0.33182669 -0.06734829 0.00000000
-0.61284977 -0.49720553 -0.00000032
-0.64167035 -0.62654769 -0.00000022
-0.15254696 0.49840927 -0.00000012
-0.23912568 -0.67724121 0.00000000
-0.06420753 0.25923383 0.00000000
-0.01985560 -0.67553908 0.00000000
-0.00132065 -0.03354518 0.00000000
-0.41034207 -0.00264248 -0.00000033
-0.27028781 0.41418049 -0.00000047
-0.08931683 0.54762900 0.00000000
-0.65323192 -0.49319309 -0.00000050
-0.56092000 -0.55240637 -0.00000000
-0.07910560 0.64144671 -0.00000006
-0.23459183 0.28520390 -0.00000009
0.41683084 -0.71404904 0.38195148
-0.05236245 -0.42428961 0.00000000
-0.46850187 -0.38296676 0.00000000
-0.46896958 -0.45158854 0.00000000
0.38242471 -0.69027764 0.35042438
-0.17065816 -0.37096632 0.00000000
-0.31112641 0.26383838 -0.00000038
-0.59566277 -0.00811731 -0.00000111
-0.15512903 -0.66588002 0.00000000
-0.04386774 0.04926331 0.00000000
-0.13809814 -0.07820339 0.00000000
-0.09982036 -0.26710960 0.00000000
-0.61952138 -0.23035467 -0.00000082
-0.52845633 -0.18911928 -0.00000051
-0.34696683 -0.74436772 0.00000000
-0.14812551 -0.60053891 0.00000000
-0.40786165 -0.59870273 0.00000000
-0.38543069 -0.02116060 -0.00000019
0.29093456 -0.75151813 0.26658988
-0.19207782 0.53773654 -0.00000036
-0.01311387 -0.60400003 0.00000000
-0.23816964 0.52003413 -0.00000052
-0.63029981 0.16754782 -0.00000157
-0.75481945 -0.77246654 -0.00000007
-0.46795833 0.11427653 -0.00000078
-0.04764411 -0.45235252 0.00000000
-0.64641887 0.06097372 -0.00000145
-0.34121466 0.11940223 -0.00000025
-0.27236828 -0.47067583 0.00000000
-0.32918575 0.43190810 -0.00000075
-0.02628502 0.25488949 0.00000000
-0.46730122 -0.10119138 -0.00000040
-0.18649231 0.27873981 0.00000000
0.05193946 -0.78508407 0.04759330
-0.08990324 -0.48583838 0.00000000
-0.05711533 -0.67146516 0.00000000
-0.15238349 0.24899717 0.00000000
-0.11859381 -0.53164691 0.00000000
-0.12162925 0.36724234 0.00000000
-0.45458689 0.27697772 -0.00000102
-0.36247632 -0.54899526 0.00000000
-0.11827013 0.19911845 0.00000000
-0.41983843 -0.50070047 0.00000000
-0.33405781 0.45133695 -0.00000081
-0.06938285 -0.18307140 0.00000000
-0.14785275 0.29518268 0.00000000
-0.39910072 -0.06634138 -0.00000017
-0.56099212 -0.60527426 0.00000000
-0.78835940 -0.06893793 -0.00000183
-0.61764258 -0.24284486 -0.00000079
-0.03583710 0.06783943 0.00000000
0.40251935 -0.74653316 0.36883754
-0.09860968 -0.63578272 0.00000000
-0.50891536 -0.46312904 0.00000000
-0.27436161 0.34073985 -0.00000036
-0.70871204 -0.67247891 -0.00000032
-0.54306972 -0.59073693 0.00000000
-0.50644153 0.12997466 -0.00000098
-0.53486544 -0.31050500 -0.00000032
-0.61271840 -0.57048064 -0.00000019
-0.19858573 -0.45282689 0.00000000
-0.33609176 0.16732039 -0.00000032
-0.76680535 -0.68724620 -0.00000028
-0.15407412 0.34224725 0.00000000
-0.53720659 -0.28546008 -0.00000037
-0.62445283 -0.36866024 -0.00000060
-0.67454010 -0.07064597 -0.00000134
-0.06315665 -0.04233744 0.00000000
-0.31451532 -0.63218719 0.00000000
-0.11639166 -0.45399290 0.00000000
-0.31972614 -0.18332314 0.00000000
-0.38702920 -0.07737301 -0.00000010
-0.39669862 0.18767805 -0.00000061
-0.63096821 -0.77296335 0.00000000
-0.47913948 -0.73615932 0.00000000
-0.04731169 -0.45283964 0.00000000
-0.69648778 -0.57574755 -0.00000054
0.25416607 -0.73538691 0.23289809
-0.03997769 -0.55217707 0.00000000
-0.74036539 -0.04701215 -0.00000166
-0.22202498 -0.72412771 0.00000000
-0.07602283 -0.48185205 0.00000000
-0.03862663 0.12656042 0.00000000
0.04843735 -0.79524714 0.04438423
-0.01527449 -0.60805577 0.00000000
-0.59897643 -0.12607668 -0.00000092
-0.29733598 -0.30238327 0.00000000
-0.02917974 -0.12684909 0.00000000
-0.08365350 0.69208986 -0.00000017
-0.26561168 -0.47391266 0.00000000
-0.63293535 0.00453915 -0.00000130
-0.41689473 0.24371035 -0.00000080
-0.37023455 -0.56909811 0.00000000
-0.23377238 -0.77110022 0.00000000
-0.08037013 -0.21649019 0.00000000
0.34084612 -0.72470897 0.31232497
-0.47391182 0.07988322 -0.00000075
-0.56903726 -0.68823951 0.00000000
-0.59789455 0.11532706 -0.00000134
-0.67987186 -0.19182523 -0.00000115
-0.37935951 0.30657220 -0.00000075
-0.72485721 -0.37428957 -0.00000102
-0.52632129 -0.41412187 -0.00000010
-0.44646490 -0.33603910 0.00000000
-0.48235732 0.27507508 -0.00000113
-0.42943779 -0.71776932 0.00000000
-0.48458385 -0.47853807 0.00000000
-0.63240385 -0.15297584 -0.00000101
-0.50566715 0.19648150 -0.00000109
-0.29020521 -0.76876467 0.00000000
-0.20220573 -0.41120547 0.00000000
-0.00439279 -0.75070608 0.00000000
-0.72723937 -0.59860003 -0.00000050
-0.20980516 -0.70204151 0.00000000
-0.15296832 -0.09974521 0.00000000
-0.68821281 0.04170219 -0.00000160
-0.58650053 -0.61635673 0.00000000
-0.21045469 -0.17154829 0.00000000
-0.52344501 -0.77517784 0.00000000
-0.10233909 -0.33835179 0.00000000
-0.04708101 0.45774552 0.00000000
-0.74062794 -0.31715986 -0.00000119
-0.33899531 -0.58814931 0.00000000
-0.19677284 -0.03871932 0.00000000
-0.12850440 0.07067763 0.00000000
-0.61124820 -0.58759546 -0.00000016
-0.44339967 -0.73109013 0.00000000
0.42491394 -0.73600632 0.38935822
-0.67042685 -0.56532103 -0.00000045
-0.03614638 -0.31453639 0.00000000
-0.01128555 -0.32054299 0.00000000
-0.48978829 -0.12470258 -0.00000046
-0.60936576 0.08492100 -0.00000134
-0.35314220 -0.65198708 0.00000000
-0.75911546 -0.05741960 -0.00000172
-0.54279476 0.04904584 -0.00000099
-0.25291175 0.38214380 -0.00000034
-0.21829304 0.57927090 -0.00000051
-0.69090718 -0.44506747 -0.00000075
-0.34226477 0.28411883 -0.00000055
-0.61098826 -0.73908305 0.00000000
-0.29239345 0.07457157 0.00000000
-0.55849624 -0.07405104 -0.00000084
-0.69284940 0.00562283 -0.00000155
-0.12870120 -0.34339201 0.00000000
-0.00434051 0.12690221 0.00000000
-0.42119253 -0.36864156 0.00000000
-0.34348106 0.01858439 -0.00000008
-0.06523258 -0.23677035 0.00000000
-0.62848079 -0.52796042 -0.00000033
-0.34531239 -0.08621957 0.00000000
-0.38899949 -0.13649184 -0.00000000
-0.72428650 -0.73130530 -0.00000017
-0.14472003 0.41893026 0.00000000
-0.08413595 0.01180747 0.00000000
-0.56376714 -0.79682463 0.00000000
-0.40998894 -0.40321732 0.00000000
-0.08344688 0.56191403 0.00000000
-0.37732288 -0.21339713 0.00000000
-0.35522929 -0.07108627 0.00000000
-0.36916441 -0.67463565 0.00000000
-0.39920321 0.10553464 -0.00000048
-0.35170886 0.05879264 -0.00000019
-0.10584732 -0.45612174 0.00000000
-0.57368445 -0.76951355 0.00000000
-0.47979450 0.14766291 -0.00000089
-0.26920447 -0.34508222 0.00000000
-0.47706431 -0.12059505 -0.00000041
0.52014112 -0.64361411 0.47661665
-0.45044446 -0.76445645 0.00000000
-0.50015616 0.06838102 -0.00000084
-0.34520859 0.04487026 -0.00000014
-0.38172257 -0.47516721 0.00000000
-0.32146767 -0.72448593 0.00000000
-0.45142075 -0.28621432 -0.00000001
-0.54610533 0.12733178 -0.00000114
-0.60644186 -0.05651232 -0.00000107
-0.21525285 0.28498521 -0.00000001
-0.10882389 -0.27683851 0.00000000
-0.07302938 -0.14805651 0.00000000
-0.15773360 0.63373464 -0.00000038
-0.24207038 -0.35362589 0.00000000
-0.16069315 0.32166126 0.00000000
-0.00557629 0.12001071 0.00000000
-0.04436247 -0.41816884 0.00000000
-0.22194400 -0.37179753 0.00000000
-0.45118937 -0.71466565 0.00000000
-0.63321865 -0.57500291 -0.00000027
-0.61152846 -0.33355853 -0.00000061
-0.63234043 0.15188673 -0.00000155
-0.71699250 -0.10879687 -0.00000145
-0.27959213 -0.62204528 0.00000000
-0.01551234 0.77881515 -0.00000003
-0.51072794 -0.05433405 -0.00000067
-0.11658826 0.06836317 0.00000000
-0.39494681 0.13693880 -0.00000051
-0.12156730 0.34699190 0.00000000
-0.21649686 0.23985055 0.00000000
-0.02507341 -0.23137467 0.00000000
-0.44135728 -0.75573510 0.00000000
-0.33080187 -0.31205779 0.00000000
-0.56937015 -0.47941583 -0.00000017
-0.07646117 0.18352740 0.00000000
-0.35927960 0.31721625 -0.00000068
-0.39157894 -0.32351512 0.00000000
-0.07791330 -0.47957569 0.00000000
-0.40898111 0.03805874 -0.00000040
-0.28018743 -0.58171046 0.00000000
-0.15736027 -0.48377794 0.00000000
-0.15785842 -0.60438585 0.00000000
-0.72799891 -0.65086639 -0.00000037
-0.04633378 0.49154538 0.00000000
-0.23042257 -0.72818357 0.00000000
-0.74640810 -0.32898024 -0.00000118
-0.26395819 0.17304704 -0.00000002
-0.67760611 -0.36379701 -0.00000083
-0.05221483 -0.45635855 0.00000000
0.48736060 -0.68790680 0.44657931
-0.75335157 -0.39422023 -0.00000101
-0.78367352 -0.01137991 -0.00000191
-0.32776240 -0.15702818 0.00000000
-0.55635417 -0.54547888 0.00000000
-0.47206366 -0.28113371 -0.00000010
-0.22158886 -0.38151571 0.00000000
-0.41141301 -0.44421664 0.00000000
-0.74248999 -0.18507192 -0.00000143
-0.62672490 -0.44158354 -0.00000048
0.27382502 -0.74257201 0.25091204
-0.48439357 -0.23103826 -0.00000024
-0.70483464 -0.00650196 -0.00000158
-0.60917979 -0.66229755 -0.00000001
-0.61758941 -0.39111012 -0.00000053
-0.19971117 0.10839454 0.00000000
-0.40145478 0.14353421 -0.00000055
-0.60253578 -0.31024539 -0.00000061
-0.64493006 -0.06956374 -0.00000122
-0.03552347 0.21908478 0.00000000
-0.10479224 -0.33828783 0.00000000
-0.40568143 0.22716847 -0.00000072
-0.26974338 -0.45825961 0.00000000
-0.43546671 -0.72933698 0.00000000
-0.35650048 -0.70876932 0.00000000
-0.76231277 -0.44027340 -0.00000090
-0.09382478 -0.42649755 0.00000000
-0.09672485 0.59702736 -0.00000005
-0.10719704 0.66993445 -0.00000023
-0.56285447 -0.47923306 -0.00000014
-0.50701553 -0.47113755 0.00000000
-0.55143392 -0.42734128 -0.00000018
-0.28702307 -0.68425322 0.00000000
-0.24212120 0.28925833 -0.00000013
-0.45554420 -0.50749767 0.00000000
-0.23073183 -0.03340449 0.00000000
-0.37383309 -0.16905251 0.00000000
-0.59760976 -0.76756507 0.00000000
-0.76704079 -0.18832263 -0.00000153
-0.60252768 -0.65930039 0.00000000
-0.56598562 0.17833693 -0.00000132
-0.42572555 -0.34102422 0.00000000
-0.00477472 0.42140940 0.00000000
-0.21649505 -0.67539650 0.00000000
-0.53382051 0.14816444 -0.00000113
-0.04318155 0.33481055 0.00000000
-0.46293175 -0.62506044 0.00000000
-0.39789653 0.12170647 -0.00000050
-0.41728923 -0.18463944 -0.00000004
-0.07649270 -0.70677459 0.00000000
0.54098338 -0.74451947 0.49571508
-0.39912447 0.14025190 -0.00000054
-0.69385147 -0.67641503 -0.00000031
-0.52061993 -0.10359791 -0.00000062
-0.58461124 0.05353154 -0.00000118
0.32624850 -0.76171046 0.29894885
-0.61204815 -0.21283481 -0.00000082
-0.49530241 0.24741279 -0.00000114
-0.04025606 0.29602867 0.00000000
-0.58552283 -0.46323135 -0.00000027
-0.51060116 -0.46231824 0.00000000
-0.34727293 -0.68601513 0.00000000
-0.39080778 -0.73717469 0.00000000
-0.45536000 -0.25884128 -0.00000007
-0.73664403 -0.50433844 -0.00000074
-0.02727302 -0.20236501 0.00000000
-0.04378340 -0.18519539 0.00000000
-0.05612076 0.38597119 0.00000000
-0.01097090 0.07157015 0.00000000
-0.23172750 -0.73770076 0.00000000
-0.03918886 -0.52255362 0.00000000
-0.60433704 -0.04445624 -0.00000109
-0.57842070 -0.79046190 0.00000000
-0.14340515 0.09641222 0.00000000
0.14078511 -0.79626244 0.12900457
-0.23972759 -0.26184666 0.00000000
-0.75157005 -0.52583826 -0.00000069
-0.28252244 0.17662349 -0.00000010
-0.00919745 0.63316214 0.00000000
-0.58487087 0.18562274 -0.00000141
-0.22112013 -0.55338544 0.00000000
-0.75013554 -0.25994614 -0.00000133
-0.11374602 0.18024832 0.00000000
-0.77258533 0.02441254 -0.00000193
-0.01993784 0.59725660 0.00000000
-0.72729665 -0.00401931 -0.00000168
-0.63375998 -0.65390384 -0.00000013
-0.53889334 -0.26720896 -0.00000041
-0.62693757 -0.16271332 -0.00000097
-0.53536582 -0.45213601 -0.00000007
-0.53804785 0.13930386 -0.00000113
-0.28486031 -0.19002479 0.00000000
-0.24603528 0.00222691 0.00000000
-0.32854182 0.30348378 -0.00000052
-0.17017511 -0.19580996 0.00000000
-0.47873977 -0.46056011 0.00000000
-0.55578488 -0.18965186 -0.00000062
-0.75951302 -0.40253133 -0.00000099
-0.39028469 0.08606489 -0.00000040
-0.03491475 0.27016556 0.00000000
-0.53978908 -0.40191805 -0.00000018
-0.13698156 0.50554186 -0.00000006
-0.52526677 -0.75229853 0.00000000
-0.49137995 -0.73830539 0.00000000
0.13271672 -0.78387839 0.12161131
-0.63033962 -0.01584196 -0.00000125
0.05719495 -0.78399736 0.05240902
-0.76512021 -0.14915881 -0.00000159
-0.16748415 -0.37837157 0.00000000
-0.30627894 -0.39687896 0.00000000
-0.64861554 -0.22560276 -0.00000096
-0.27330706 0.23587748 -0.00000017
-0.18032952 0.57322931 -0.00000037
-0.13802962 -0.39020401 0.00000000
-0.16727436 -0.38610771 0.00000000
-0.34208524 -0.44823122 0.00000000
-0.10982021 0.17320970 0.00000000
-0.67105633 -0.09533921 -0.00000128
-0.00858186 0.09651628 0.00000000
-0.00163002 -0.57688278 0.00000000
-0.76883131 -0.48609138 -0.00000078
-0.48483452 -0.75086796 0.00000000
-0.48073983 -0.18753389 -0.00000031
-0.15522131 -0.66837794 0.00000000
-0.19099233 0.44220433 -0.00000018
-0.52680963 -0.12500571 -0.00000061
-0.10793974 0.23847815 0.00000000
-0.13701013 0.01514475 0.00000000
-0.40096176 -0.18020266 0.00000000
-0.38184157 -0.37791711 0.00000000
-0.32002303 -0.51969165 0.00000000
-0.73018974 -0.39682940 -0.00000100
-0.51251924 -0.68183255 0.00000000
-0.33316115 -0.24190848 0.00000000
-0.70558596 -0.28292915 -0.00000110
-0.17970279 -0.22367914 0.00000000
-0.03450713 0.58655524 0.00000000
-0.02528050 0.10075867 0.00000000
-0.47017279 -0.14633814 -0.00000033
-0.20489092 0.45099872 -0.00000026
-0.10130739 0.43848816 0.00000000
-0.02098464 -0.67924547 0.00000000
-0.13284695 -0.18777284 0.00000000
-0.44444829 -0.18158969 -0.00000016
-0.74702257 0.00803105 -0.00000179
-0.28916749 -0.50145519 0.00000000
-0.79179901 -0.66979778 -0.00000033
-0.60431105 -0.60149914 -0.00000010
-0.22079465 0.29326066 -0.00000005
-0.48711187 -0.70558172 0.00000000
-0.75154954 -0.69771898 -0.00000026
-0.03538732 0.47984067 0.00000000
-0.57863557 0.04465401 -0.00000113
-0.40142974 0.02683016 -0.00000035
-0.44344974 -0.67009246 0.00000000
-0.16138054 0.44140550 -0.00000005
-0.05799366 -0.63493383 0.00000000
-0.51841271 -0.47395369 0.00000000
-0.02499149 -0.52531028 0.00000000
-0.08865305 0.56291825 0.00000000
-0.31737944 0.23159920 -0.00000035
-0.26600868 0.49072856 -0.00000059
-0.47636563 -0.55851495 0.00000000
-0.24199210 0.22986028 -0.00000002
-0.39873105 0.30371755 -0.00000082
-0.30468175 0.34461567 -0.00000050
-0.72388273 -0.10648923 -0.00000149
-0.12872986 0.51494735 -0.00000005
-0.68805200 -0.52402699 -0.00000060
-0.55241078 -0.17596261 -0.00000063
-0.56171668 -0.08016738 -0.00000084
-0.46777093 0.32730004 -0.00000116
-0.00123528 -0.17498566 0.00000000
-0.70806575 -0.68226182 -0.00000029
0.40733355 -0.70271504 0.37324890
-0.03958556 -0.78671211 0.00000000
0.21380983 -0.75474471 0.19591875
-0.66034889 0.08532158 -0.00000155
-0.46865427 -0.20847632 -0.00000022
-0.35701120 -0.52791160 0.00000000
-0.55855316 -0.42542416 -0.00000022
-0.14199071 0.13425103 0.00000000
-0.67304593 -0.57891995 -0.00000043
-0.34654701 -0.02654506 -0.00000002
-0.31924528 -0.50875300 0.00000000
-0.54060644 -0.09377950 -0.00000073
-0.54377419 -0.25540349 -0.00000045
-0.62228650 -0.27949518 -0.00000075
-0.50728792 -0.53183758 0.00000000
-0.58539522 -0.15223442 -0.00000082
0.27882087 -0.75868660 0.25548983
-0.50196975 -0.34029347 -0.00000013
-0.24852835 -0.65449226 0.00000000
-0.05110928 0.02320112 0.00000000
-0.71989959 -0.32082447 -0.00000109
-0.59204358 -0.47108811 -0.00000028
-0.62287551 0.04780026 -0.00000133
-0.21999563 0.14681949 0.00000000
-0.09985226 -0.72196519 0.00000000
-0.73104501 -0.01825150 -0.00000167
-0.32356155 0.42181811 -0.00000071
-0.55493367 -0.00687027 -0.00000094
-0.19474098 -0.51089764 0.00000000
-0.47268692 -0.16532499 -0.00000031
-0.07158561 0.72564131 -0.00000017
-0.59643632 0.10771081 -0.00000132
-0.72367489 -0.65154546 -0.00000037
-0.68403000 -0.32821381 -0.00000092
-0.79821867 -0.78880531 -0.00000003
-0.41976121 -0.64707315 0.00000000
-0.12488900 0.07923854 0.00000000
-0.05505718 0.62015218 0.00000000
-0.69458252 0.07705822 -0.00000169
-0.40145174 -0.01128773 -0.00000028
-0.76868832 -0.21551353 -0.00000146
-0.15434937 0.48714024 -0.00000011
-0.12614623 -0.66274053 0.00000000
-0.30796665 0.19575015 -0.00000025
-0.61431068 -0.56722754 -0.00000020
-0.16848975 0.07601856 0.00000000
-0.54549825 -0.35877517 -0.00000028
-0.12988117 0.19858386 0.00000000
-0.34017289 0.22178622 -0.00000043
-0.14998020 -0.76825070 0.00000000
-0.04849991 -0.64201617 0.00000000
-0.15641445 -0.10935532 0.00000000
-0.05465975 -0.66759044 0.00000000
-0.71666533 -0.79257768 -0.00000002
-0.09768745 0.14841890 0.00000000
-0.60416567 -0.07316356 -0.00000103
-0.66293216 -0.00384670 -0.00000141
-0.49383596 0.22558887 -0.00000109
-0.10111341 -0.72943681 0.00000000
0.23399819 -0.79945308 0.21441782
-0.05539290 -0.13484922 0.00000000
-0.07284784 0.25875893 0.00000000
-0.33494872 -0.54167694 0.00000000
0.56724304 -0.67497140 0.51977724
-0.38527137 -0.08301425 -0.00000008
-0.05622266 -0.40669802 0.00000000
-0.76752377 -0.74348211 -0.00000014
-0.42576772 -0.32795447 0.00000000
-0.45587444 -0.27030313 -0.00000005
-0.22185054 -0.40003005 0.00000000
-0.63524073 -0.74329686 0.00000000
-0.68659931 -0.69519478 -0.00000026
-0.76837695 -0.53836405 -0.00000065
-0.38165095 0.10605774 -0.00000040
-0.00564770 -0.33306992 0.00000000
-0.55773246 -0.36401734 -0.00000032
-0.45728564 -0.11563642 -0.00000033
-0.23262899 -0.07644343 0.00000000
-0.43830156 -0.65303761 0.00000000
-0.14319049 -0.11100027 0.00000000
-0.64744812 0.15089417 -0.00000159
-0.71142930 -0.13326000 -0.00000139
-0.06453886 0.60007846 0.00000000
-0.70790738 -0.02232507 -0.00000157
-0.05833764 0.57176149 0.00000000
-0.09866975 0.14849153 0.00000000
-0.00499545 0.19051079 0.00000000
-0.44038495 0.12440716 -0.00000069
-0.75521463 -0.30095744 -0.00000125
-0.55698216 -0.73377669 0.00000000
-0.74068755 -0.45300606 -0.00000087
-0.15342592 -0.69331288 0.00000000
-0.60467565 -0.01199208 -0.00000115
-0.34225234 -0.17282386 0.00000000
-0.65695417 0.11135606 -0.00000159
-0.22879156 0.16220506 0.00000000
-0.29226658 0.30185398 -0.00000037
-0.48935339 -0.74582696 0.00000000
-0.04964990 -0.42760435 0.00000000
-0.04407285 -0.65893835 0.00000000
-0.20906821 -0.57526922 0.00000000
-0.70259756 -0.27465764 -0.00000110
-0.35695159 0.38961411 -0.00000080
-0.59587371 -0.76024330 0.00000000
-0.78709799 -0.38362369 -0.00000104
-0.20358792 0.00434416 0.00000000
-0.33072683 -0.77848512 0.00000000
-0.47987768 -0.44800067 0.00000000
-0.18693325 0.00442187 0.00000000
-0.06395564 0.49559960 0.00000000
-0.23727410 -0.09264562 0.00000000
-0.08353669 0.65878850 -0.00000011
-0.02885041 0.27295673 0.00000000
-0.19163792 0.20359541 0.00000000
-0.17423388 -0.23282637 0.00000000
-0.69714272 -0.13814075 -0.00000132
-0.32602212 0.11360517 -0.00000018
-0.07180789 0.11765803 0.00000000
-0.29204410 0.41298580 -0.00000056
-0.22256622 -0.57522351 0.00000000
-0.22558367 -0.19829221 0.00000000
-0.49297786 -0.18475085 -0.00000036
-0.26230228 0.11854689 0.00000000
-0.15982971 0.58255231 -0.00000030
-0.57860845 -0.08234447 -0.00000091
-0.58171082 0.00799210 -0.00000108
-0.26397124 0.11987559 0.00000000
-0.07851392 -0.68761379 0.00000000
-0.71666217 -0.52228999 -0.00000069
-0.62791020 -0.35325345 -0.00000064
-0.71824855 0.01387837 -0.00000168
-0.70242107 -0.26717567 -0.00000111
-0.10932689 0.16823129 0.00000000
-0.77384126 -0.00512369 -0.00000188
-0.51338857 -0.01222737 -0.00000076
-0.23540181 -0.03104083 0.00000000
-0.15578873 -0.23476082 0.00000000
-0.07285443 -0.33479553 0.00000000
-0.62931120 -0.49436381 -0.00000040
-0.29496875 0.15889259 -0.00000013
-0.16638745 0.16464490 0.00000000
-0.09577285 0.10947207 0.00000000
-0.12255702 0.60873997 -0.00000018
-0.03619494 -0.70592469 0.00000000
-0.66962123 -0.61441284 -0.00000036
-0.79590428 -0.30176902 -0.00000125
-0.22412270 -0.55776227 0.00000000
-0.44286203 -0.35047188 0.00000000
-0.12148345 0.33394426 0.00000000
-0.44947121 -0.23794749 -0.00000008
-0.03031345 -0.01231897 0.00000000
-0.51373899 0.23542292 -0.00000119
-0.47361901 0.19059899 -0.00000094
-0.72936583 -0.05362177 -0.00000160
-0.01412799 -0.32761216 0.00000000
-0.56441194 -0.27021617 -0.00000052
-0.15969443 0.15778382 0.00000000
-0.71734428 -0.21822862 -0.00000126
-0.30968446 0.36955136 -0.00000056
-0.32024750 -0.31451985 0.00000000
-0.64428985 -0.20857991 -0.00000097
-0.14796089 0.48812479 -0.00000008
-0.33423159 0.01033602 -0.00000003
-0.13054058 -0.17375968 0.00000000
-0.69538552 -0.49989259 -0.00000067
-0.48253441 -0.47529179 0.00000000
-0.02300290 -0.16093931 0.00000000
-0.71196741 -0.76444823 -0.00000009
-0.09033363 -0.51507854 0.00000000
-0.02542372 0.45770249 0.00000000
-0.05019042 0.25493932 0.00000000
-0.74542397 -0.03644891 -0.00000170
0.53730476 -0.76079100 0.49234435
-0.70141131 -0.09668494 -0.00000141
-0.63819158 -0.31426287 -0.00000075
-0.44702488 -0.02177806 -0.00000046
-0.09925528 0.62704021 -0.00000012
-0.49712950 -0.70920318 0.00000000
-0.72305232 -0.53078955 -0.00000067
-0.62840474 0.07080995 -0.00000139
-0.28088412 -0.21024419 0.00000000
-0.33281973 -0.18071289 0.00000000
-0.38880679 -0.24168356 0.00000000
-0.71518022 0.07657906 -0.00000177
-0.74481314 -0.04865125 -0.00000168
-0.64065003 -0.74608380 -0.00000000
-0.14357392 0.63711363 -0.00000032
-0.00664413 -0.50447404 0.00000000
-0.42684600 0.36143389 -0.00000105
-0.53363860 -0.19492888 -0.00000052
-0.18527967 0.03213694 0.00000000
-0.17665003 0.33812857 0.00000000
-0.07076932 0.20837717 0.00000000
-0.33804759 -0.20052002 0.00000000
-0.28949949 0.32078415 -0.00000039
-0.08171438 -0.20178086 0.00000000
-0.27841976 0.24290565 -0.00000020
-0.12367837 -0.70102465 0.00000000
-0.28656009 -0.16831820 0.00000000
-0.66002268 0.10381029 -0.00000159
-0.74513423 -0.70974243 -0.00000023
-0.15223379 0.16456749 0.00000000
-0.56753302 -0.66128230 0.00000000
-0.17965399 0.49271825 -0.00000022
-0.09469618 -0.13384806 0.00000000
0.28740755 -0.74811465 0.26335800
-0.17340773 0.37020871 0.00000000
-0.64345604 -0.67950463 -0.00000013
-0.58759612 -0.40436035 -0.00000038
-0.36307943 -0.03342964 -0.00000008
-0.33492142 0.18209042 -0.00000034
-0.08435963 -0.72479546 0.00000000
-0.35652989 -0.45055807 0.00000000
-0.10907262 0.34280226 0.00000000
-0.64194995 -0.47903892 -0.00000048
0.27160862 -0.72113138 0.24888109
-0.08926308 -0.28818133 0.00000000
0.44333240 -0.68987972 0.40623546
-0.62095076 -0.16536358 -0.00000094
-0.26554739 0.08965812 0.00000000
-0.43198481 0.25779742 -0.00000089
-0.38601229 -0.29719138 0.00000000
-0.14174016 -0.61800510 0.00000000
-0.37531516 -0.35953599 0.00000000
-0.56595284 0.23229559 -0.00000141
-0.36100304 -0.14245917 0.00000000
-0.14536777 -0.14892998 0.00000000
-0.25232291 0.53481120 -0.00000061
-0.16131744 0.24640343 0.00000000
-0.66777277 -0.47058055 -0.00000060
-0.51414204 0.01243021 -0.00000080
-0.25881138 0.25362134 -0.00000014
-0.21858910 0.05421850 0.00000000
-0.54995078 0.11093698 -0.00000113
-0.71982557 -0.59509695 -0.00000051
-0.02656977 0.74306244 -0.00000001
-0.07588068 0.14063701 0.00000000
-0.60626632 -0.18256807 -0.00000085
-0.11150745 0.21686269 0.00000000
-0.16427654 -0.70431769 0.00000000
-0.56459421 0.08135854 -0.00000114
-0.26974341 -0.08356457 0.00000000
-0.28405717 0.35161602 -0.00000042
-0.52259439 -0.64996803 0.00000000
-0.37651870 -0.10567797 -0.00000001
0.31242558 -0.73938972 0.28628260
-0.56112444 -0.28392577 -0.00000048
-0.45432726 0.02022664 -0.00000056
0.42617393 -0.74777842 0.39051276
-0.45592839 -0.20099263 -0.00000018
-0.45214283 -0.00815706 -0.00000050
-0.71580541 -0.31662792 -0.00000108
-0.16584340 -0.17434472 0.00000000
-0.55107111 -0.67016411 0.00000000
-0.00992899 0.61662072 0.00000000
-0.18754683 -0.51335353 0.00000000
-0.49767387 -0.16700560 -0.00000041
-0.26633012 -0.49357226 0.00000000
-0.12106531 0.43835294 0.00000000
0.07399307 -0.77935106 0.06780152
-0.29979739 -0.57695508 0.00000000
0.23121902 -0.79121089 0.21187121
-0.13042580 0.23567241 0.00000000
-0.36996645 -0.34928694 0.00000000
-0.17962825 0.50834519 -0.00000025
-0.57040131 0.06817420 -0.00000114
-0.07823746 -0.26529554 0.00000000
-0.64857399 -0.03785055 -0.00000129
-0.30102885 0.27190924 -0.00000035
-0.42925736 -0.11596353 -0.00000021
-0.49698070 0.02799572 -0.00000076
-0.51663345 -0.57059836 0.00000000
-0.18679427 -0.61624694 0.00000000
-0.18398733 -0.64176869 0.00000000
-0.11809066 -0.16052788 0.00000000
-0.55849153 0.02854155 -0.00000102
-0.34604996 0.16564108 -0.00000036
-0.06570654 -0.42056599 0.00000000
-0.20255911 0.41113460 -0.00000018
-0.75909841 -0.73009151 -0.00000017
-0.21513990 -0.21300901 0.00000000
-0.72846377 -0.30323133 -0.00000116
0.45474312 -0.66783309 0.41669133
-0.59545106 -0.56154394 -0.00000013
-0.67034239 -0.26871517 -0.00000097
0.50178093 -0.72416985 0.45979297
-0.37563238 -0.04096010 -0.00000012
-0.70117676 -0.41223025 -0.00000085
-0.46813923 -0.62309915 0.00000000
-0.06067796 -0.08871955 0.00000000
-0.00007411 -0.70061660 0.00000000
-0.01461057 -0.38822687 0.00000000
-0.06794102 0.26603752 0.00000000
-0.13527533 -0.71071202 0.00000000
-0.53452837 0.10197040 -0.00000105
-0.73732871 -0.25633621 -0.00000128
-0.02239184 -0.69687539 0.00000000
-0.54284811 -0.72748023 0.00000000
-0.68329096 -0.37779862 -0.00000083
-0.07145929 0.11161751 0.00000000
-0.10355168 0.23947044 0.00000000
-0.29055366 0.25917935 -0.00000028
-0.72319752 -0.58950812 -0.00000053
-0.64973634 -0.21963276 -0.00000097
-0.76175165 -0.47204414 -0.00000082
-0.36838496 -0.79318470 0.00000000
-0.59454739 -0.64076191 0.00000000
-0.15378641 0.08480285 0.00000000
-0.28812540 0.28453949 -0.00000032
-0.00196606 -0.60118961 0.00000000
-0.66522390 -0.06381303 -0.00000131
-0.33631852 -0.77029651 0.00000000
-0.13611656 -0.22516777 0.00000000
-0.28789321 0.22293068 -0.00000021
-0.78798991 -0.15742669 -0.00000161
-0.39472923 -0.56466925 0.00000000
-0.64367586 0.07836747 -0.00000147
-0.49100706 0.13790703 -0.00000093
-0.40003043 -0.49649623 0.00000000
-0.30596355 0.37857813 -0.00000056
-0.03774149 -0.27793369 0.00000000
-0.04298156 -0.05242175 0.00000000
-0.45790133 -0.07291187 -0.00000041
-0.03252440 -0.68968517 0.00000000
0.27438954 -0.79059792 0.25142932
-0.04279717 0.67747277 0.00000000
0.08534386 -0.77997684 0.07820250
-0.55448073 -0.49889344 -0.00000007
-0.11606582 0.60062212 -0.00000014
-0.04961794 0.24088418 0.00000000
-0.21819530 -0.58138084 0.00000000
-0.04652908 0.72036850 -0.00000006
-0.74987227 -0.56042618 -0.00000060
-0.28083336 -0.10936101 0.00000000
-0.04882596 0.39122471 0.00000000
-0.13510565 0.16363706 0.00000000
0.47005486 -0.70796448 0.43072179
-0.09798840 -0.20149244 0.00000000
-0.71890974 -0.39870229 -0.00000095
-0.15787885 -0.79315901 0.00000000
-0.20410667 -0.64547873 0.00000000
-0.67066276 -0.01991774 -0.00000141
-0.56751943 -0.67737305 0.00000000
-0.12615712 -0.13023512 0.00000000
-0.43891197 0.31478134 -0.00000102
-0.30620521 -0.14307530 0.00000000
-0.49757940 -0.60397863 0.00000000
-0.11315527 -0.01878801 0.00000000
-0.19856863 0.58375788 -0.00000047
-0.10808049 -0.34072888 0.00000000
-0.75719643 -0.25488627 -0.00000136
-0.29885349 -0.07093581 0.00000000
-0.00471411 -0.21734172 0.00000000
-0.07626831 0.22304939 0.00000000
