ply
format ascii 1.0
element vertex 1369
property float x
property float y
property float z
end_header
-0.43173939 0.35908321 -0.00000046
-0.42934954 -0.28728360 -0.00000032
-0.33409405 -0.64875710 -0.00000009
0.72404915 0.07175473 0.00465555
-0.65663320 0.74219769 -0.00000018
-0.46184608 0.01232614 -0.00000036
-0.71330881 0.17713228 -0.00000011
0.07695481 -0.67692876 -0.00000008
-0.76977468 0.04645079 -0.00000004
-0.04509247 -0.07779189 -0.00000045
-0.37503505 0.36366218 -0.00000052
-0.69234288 0.07029335 -0.00000013
-0.46311253 -0.14153618 -0.00000033
0.28746361 0.45658669 0.06210124
0.56621552 -0.75427675 -0.00000003
0.10639433 0.48468572 0.23189373
-0.68499017 0.32509765 -0.00000014
0.63863754 -0.13550679 -0.00000068
-0.44726777 -0.05912972 -0.00000037
0.40190786 -0.30044496 -0.00000031
-0.67335391 0.20540591 -0.00000016
-0.08747254 -0.05246030 -0.00000047
-0.56776392 -0.41866857 -0.00000017
-0.60715622 0.58589584 -0.00000024
0.45589083 -0.32432503 -0.00000030
0.13597585 0.39247480 0.30141073
-0.44309890 -0.62496048 -0.00000011
-0.45391804 0.47959062 -0.00000043
0.61230630 0.17050490 0.01907720
0.12301089 0.50123388 0.19508205
0.72382164 -0.05159051 -0.00000086
-0.70834613 -0.19688955 -0.00000006
0.46441564 0.13052925 0.22760595
-0.16855454 -0.36920324 -0.00000027
0.03775115 0.64079273 -0.00000090
0.16588153 0.44423577 0.21076342
-0.57025939 0.65697438 -0.00000029
-0.65455210 -0.31418958 -0.00000010
-0.05925863 -0.78274208 -0.00000001
-0.37617972 0.42681855 -0.00000053
-0.01693175 0.27331731 -0.00000067
0.30579859 -0.50349557 -0.00000019
-0.02560060 -0.47201446 -0.00000020
-0.62583965 0.60356092 -0.00000022
0.31318060 -0.19942440 -0.00000038
-0.50182283 -0.15703607 -0.00000029
-0.09227606 -0.47754368 -0.00000020
0.75743765 -0.26056072 -0.00000067
0.58695704 -0.68749356 -0.00000007
0.02423991 0.59004742 -0.00000087
0.48641497 0.13798185 0.19491477
0.28199297 -0.54138964 -0.00000016
-0.49608520 0.06037832 -0.00000034
-0.79635525 0.76795536 -0.00000000
-0.03699511 -0.16950905 -0.00000039
0.06193484 0.36654097 -0.00000073
-0.52324873 -0.11826757 -0.00000027
0.77730721 -0.69300306 -0.00000013
-0.36081758 -0.15511411 -0.00000040
-0.10908867 -0.62456578 -0.00000011
-0.77747643 -0.21000458 0.00000000
-0.66552794 0.09418722 -0.00000016
-0.26053599 0.68881047 -0.00000067
-0.22294199 0.46029305 -0.00000070
-0.41779080 0.09796862 -0.00000043
0.61811531 -0.66018707 -0.00000010
-0.76767540 0.17036313 -0.00000004
-0.51494974 -0.49439099 -0.00000019
-0.44345415 0.01296751 -0.00000038
0.11977777 -0.10589210 -0.00000043
-0.08631151 -0.32914400 -0.00000029
-0.76195687 0.48118716 -0.00000005
0.03384702 0.23153277 -0.00000064
-0.08897256 0.51023751 -0.00000082
0.28016421 -0.10925774 -0.00000043
-0.15637478 0.42265564 -0.00000076
0.50373822 0.27707192 0.02129836
0.22256254 0.42945075 0.16426063
-0.38301331 -0.62928855 -0.00000011
-0.31625104 -0.68778265 -0.00000007
-0.43197241 -0.38751218 -0.00000026
-0.49170163 -0.72262549 -0.00000005
0.71761227 -0.73236161 -0.00000008
-0.58582443 -0.33799595 -0.00000017
-0.17867754 -0.37533650 -0.00000027
-0.09853540 0.65792853 -0.00000087
-0.62475860 0.51977366 -0.00000022
-0.44883904 -0.55166900 -0.00000016
-0.19112761 -0.65361273 -0.00000009
0.06900536 0.08652341 -0.00000055
-0.35330695 -0.54115796 -0.00000016
-0.65215319 -0.26025864 -0.00000011
0.51840329 0.18218340 0.11034520
0.09656904 0.61358285 0.09972742
0.03750926 -0.71107501 -0.00000006
0.17582375 0.02834001 -0.00000052
0.16873579 -0.09350610 -0.00000044
0.67529649 0.09190087 0.03640837
-0.43573245 -0.61744332 -0.00000011
0.09070636 0.52919000 -0.00000083
0.61148113 -0.10593712 -0.00000069
0.62943661 -0.04534256 -0.00000077
0.57610303 -0.39361903 -0.00000034
0.51552767 0.21958251 0.07202463
0.09960296 -0.65189064 -0.00000009
-0.49923509 0.58792239 -0.00000038
-0.78206933 -0.40456194 0.00000000
-0.11654015 0.48074400 -0.00000080
-0.65257734 0.77794063 -0.00000018
-0.42925870 -0.63679641 -0.00000010
0.55775779 -0.60220736 -0.00000012
0.53515619 0.13912433 0.13954464
0.23651084 0.53881699 0.02738363
-0.47086355 0.64935595 -0.00000041
0.71401066 -0.14671908 -0.00000075
0.42354938 -0.65272111 -0.00000009
-0.57773465 -0.11145329 -0.00000022
0.70621455 -0.18610953 -0.00000070
-0.63405997 0.02958332 -0.00000018
0.46395543 -0.67926961 -0.00000008
0.06302557 -0.37067002 -0.00000027
-0.34592700 0.70628637 -0.00000057
0.50221711 0.24855737 0.05463749
0.54789865 0.18529578 0.07415106
-0.01160956 -0.26588207 -0.00000033
-0.55068016 -0.62511545 -0.00000011
-0.53877687 0.62371260 -0.00000033
0.17304105 0.16137999 -0.00000060
0.09255416 0.25951511 -0.00000066
0.53680497 -0.06565064 -0.00000065
-0.72735608 0.42210913 -0.00000009
0.29605791 -0.33938962 -0.00000029
-0.33549663 0.56790459 -0.00000058
0.08862417 0.57792705 -0.00000086
-0.37556320 -0.39381677 -0.00000025
0.52596188 -0.50812757 -0.00000018
-0.27075762 0.60317039 -0.00000066
0.66810709 -0.19802491 -0.00000065
0.12064515 -0.06102478 -0.00000046
0.04404330 0.47619164 -0.00000080
-0.58845949 0.25534856 -0.00000026
-0.57566607 0.25374350 -0.00000028
0.35782754 -0.11738861 -0.00000043
0.43126360 -0.23234180 -0.00000036
-0.56623387 -0.40756249 -0.00000017
-0.29079425 0.27854452 -0.00000059
0.32312047 -0.66432494 -0.00000008
0.37611911 -0.67326963 -0.00000008
-0.00662158 0.65894061 -0.00000091
0.58242542 -0.41488937 -0.00000033
-0.60786003 0.30164787 -0.00000024
0.14583522 0.43812534 0.23979647
-0.50798541 -0.39502829 -0.00000024
-0.48117241 -0.26596817 -0.00000029
-0.58850521 0.71125937 -0.00000026
-0.51219851 0.57607341 -0.00000036
-0.76822877 -0.64476335 0.00000000
-0.29269806 0.45974094 -0.00000063
-0.19153322 -0.12825236 -0.00000042
0.35168710 -0.11532843 -0.00000043
-0.70545566 0.08034585 -0.00000012
-0.70302129 -0.13911194 -0.00000008
-0.56215221 -0.66862756 -0.00000008
-0.68157983 0.56101769 -0.00000015
0.24615569 0.31339255 0.26689428
-0.72845042 -0.23430654 -0.00000003
-0.27481267 -0.73971111 -0.00000004
0.41821095 -0.69328672 -0.00000007
-0.10864237 0.40370080 -0.00000075
-0.15240607 0.61318386 -0.00000080
0.43809155 0.12881017 0.25873348
-0.07816012 0.63221520 -0.00000089
0.16235153 -0.48450491 -0.00000020
0.64325577 -0.24193484 -0.00000057
0.18760268 0.03048508 -0.00000052
-0.68197668 -0.28974986 -0.00000007
0.56941879 0.10881081 0.13516118
0.02978815 0.16268726 -0.00000060
-0.64695752 0.67422080 -0.00000019
-0.37347907 -0.60449731 -0.00000012
-0.14359204 -0.43646848 -0.00000023
0.07692699 -0.34746668 -0.00000028
0.00507731 -0.28551632 -0.00000032
-0.56866330 0.00815077 -0.00000025
0.60015291 -0.32230571 -0.00000044
-0.17164826 0.37025613 -0.00000073
0.25381047 -0.24474028 -0.00000035
-0.26871744 -0.30687162 -0.00000031
0.28950882 -0.37098530 -0.00000027
-0.14081702 0.24460866 -0.00000065
-0.25186843 0.14196570 -0.00000059
-0.40167078 -0.24938820 -0.00000034
-0.02124075 0.38388708 -0.00000074
0.21683295 0.29948425 -0.00000070
-0.71860957 0.34370819 -0.00000010
0.12461388 0.38190645 -0.00000074
0.68618834 -0.58699656 -0.00000025
-0.79270124 0.04862986 -0.00000001
-0.13643220 0.29263094 -0.00000068
-0.13365118 -0.67233920 -0.00000008
-0.78085339 -0.33830851 0.00000000
-0.42305398 0.37640929 -0.00000047
0.05546504 -0.77173930 -0.00000002
0.41093573 -0.51041973 -0.00000018
-0.09501322 0.68370992 -0.00000088
-0.09866606 -0.40307817 -0.00000025
-0.37327853 -0.43662563 -0.00000023
-0.20747760 0.20804644 -0.00000063
0.13877767 0.27488410 -0.00000067
-0.33332250 -0.70198262 -0.00000006
0.76343727 -0.26406646 -0.00000067
-0.79435694 -0.49564263 0.00000000
-0.13480832 -0.54934341 -0.00000016
0.41961926 -0.65199298 -0.00000009
0.12485168 0.62437749 0.05635275
-0.23643023 -0.38063931 -0.00000026
-0.71151209 0.01269185 -0.00000010
0.63475090 -0.75204301 -0.00000003
-0.59559125 -0.74462783 -0.00000003
0.20302299 0.32435879 0.30259773
0.27153459 -0.29518193 -0.00000032
0.29410955 0.25033253 0.28366208
-0.65760458 -0.06942505 -0.00000014
0.56986743 -0.70760924 -0.00000006
-0.27946463 -0.67411941 -0.00000008
-0.71090275 -0.36885154 -0.00000003
0.15339111 0.57246578 0.08229565
-0.25951838 0.54437685 -0.00000068
-0.37397203 -0.54625773 -0.00000016
-0.16538209 0.32370403 -0.00000070
-0.71938044 0.55064309 -0.00000010
0.03207397 0.02636319 -0.00000052
-0.59902591 0.18493091 -0.00000025
-0.28045022 0.00542112 -0.00000050
0.68886083 -0.27795139 -0.00000058
0.13560244 0.46948424 -0.00000079
0.34406689 0.30285722 0.16990983
0.64093697 -0.21179596 -0.00000060
0.07929194 -0.08324198 -0.00000045
-0.12174225 0.18065444 -0.00000061
0.11113959 -0.02316483 -0.00000049
-0.06990359 0.19597682 -0.00000062
-0.22737744 0.00546699 -0.00000050
-0.08077892 0.77002525 -0.00000090
0.13044482 0.13460039 -0.00000058
0.72048742 -0.22538924 -0.00000067
0.17209034 -0.76856011 -0.00000002
0.70221549 -0.53869528 -0.00000032
-0.55923796 -0.24801819 -0.00000021
-0.77100968 0.71522129 -0.00000004
-0.40318590 -0.17138694 -0.00000039
-0.23616900 0.60031909 -0.00000070
-0.22848339 -0.02202495 -0.00000049
0.45263758 -0.44531539 -0.00000022
-0.40086603 0.16865003 -0.00000046
0.44112441 -0.32932618 -0.00000029
0.33664492 0.16981468 0.32582185
0.11225253 -0.10070510 -0.00000044
-0.49468008 -0.31635687 -0.00000027
-0.04037389 -0.23398665 -0.00000035
0.27982855 -0.77244258 -0.00000002
0.34188026 -0.19009168 -0.00000038
0.75106120 -0.28188828 -0.00000065
0.23864679 -0.16314289 -0.00000040
0.03895918 -0.01392731 -0.00000049
0.32241040 -0.01002323 -0.00000049
0.30418926 -0.06079254 -0.00000046
-0.69154251 -0.51342660 -0.00000002
-0.10654269 0.54453677 -0.00000084
-0.56087124 0.49008793 -0.00000030
0.43752939 0.16063330 0.22403429
-0.41174063 -0.61593354 -0.00000012
-0.68929356 -0.28938437 -0.00000007
0.37373874 -0.61123776 -0.00000012
0.22211997 0.23266765 0.38317522
0.52282232 0.12960172 0.16380502
-0.17693621 0.77960443 -0.00000078
-0.52077270 -0.03112882 -0.00000029
0.42515105 -0.53058612 -0.00000017
-0.72536296 -0.55547529 0.00000000
-0.54854536 -0.40821391 -0.00000019
-0.35568798 -0.65602762 -0.00000009
0.19524997 0.21817714 0.42908397
-0.04944166 0.17688107 -0.00000061
-0.48590514 -0.52565199 -0.00000017
-0.06322455 -0.29612198 -0.00000031
0.00178649 0.36938006 -0.00000073
-0.17038643 -0.69689602 -0.00000006
-0.76536280 -0.46004748 0.00000000
-0.41549671 0.35824615 -0.00000048
-0.46013412 0.78247547 -0.00000042
0.24958639 -0.06861544 -0.00000046
-0.53961831 0.14085992 -0.00000030
-0.76159877 0.68174732 -0.00000005
0.27322149 -0.09313329 -0.00000044
0.10090536 0.52622467 0.19187929
-0.38712263 -0.37225351 -0.00000027
-0.60963708 -0.12338858 -0.00000018
-0.33619615 -0.21848691 -0.00000036
-0.05399365 0.30305997 -0.00000069
-0.22177026 -0.29502249 -0.00000032
-0.04127313 0.79811472 -0.00000095
0.39788115 -0.57105094 -0.00000014
-0.14504068 0.06834455 -0.00000054
-0.31366804 -0.53101397 -0.00000017
-0.25323704 0.16727164 -0.00000060
-0.68869472 0.24987172 -0.00000014
-0.47880965 0.27496657 -0.00000039
-0.00514543 0.29949313 -0.00000069
0.07387677 -0.71077061 -0.00000006
-0.47588372 0.14521550 -0.00000037
-0.59918255 0.55624396 -0.00000025
0.79291618 -0.26479661 -0.00000067
-0.46727166 0.14262754 -0.00000038
-0.76877981 -0.06939923 -0.00000002
-0.75069714 -0.30585125 0.00000000
-0.23042503 -0.55330986 -0.00000015
0.17289080 0.49695525 0.14446636
0.25336751 0.34423900 0.22465079
0.13161717 0.44467920 0.24830337
-0.71897483 -0.04010236 -0.00000008
0.50696677 -0.46948546 -0.00000021
-0.38910553 0.78164238 -0.00000051
-0.05283574 0.53520292 -0.00000083
-0.06303916 0.70717406 -0.00000092
-0.47487304 0.74784881 -0.00000041
0.02601290 0.72817999 -0.00000096
0.30450922 -0.57047659 -0.00000014
-0.31645739 0.19722404 -0.00000055
-0.14886901 0.51530612 -0.00000079
-0.70504040 -0.69252956 0.00000000
-0.59070212 0.64503151 -0.00000026
0.76256979 -0.74209809 -0.00000007
0.13509005 -0.45401353 -0.00000022
0.23175904 0.17379765 -0.00000061
-0.39952216 0.19006568 -0.00000046
-0.02839870 0.62356567 -0.00000089
-0.74514890 -0.05262552 -0.00000005
0.53442329 -0.15291730 -0.00000055
0.05236421 -0.21832290 -0.00000036
-0.62327325 0.41812292 -0.00000022
0.77929580 -0.40057564 -0.00000050
-0.13195349 -0.58002001 -0.00000014
0.70009571 -0.39690995 -0.00000047
0.72378719 -0.13840643 -0.00000077
0.54936701 -0.52160341 -0.00000018
-0.74583822 -0.61897236 0.00000000
0.31987986 0.09584269 -0.00000059
0.77738565 -0.47520655 -0.00000041
0.75889480 -0.54767048 -0.00000032
-0.20660987 0.24461876 -0.00000065
-0.79644966 -0.11701925 0.00000000
0.65764117 0.04701232 0.10583111
0.47233486 -0.78385830 -0.00000001
-0.64238369 0.48974630 -0.00000020
0.63373524 -0.20037001 -0.00000061
-0.08983580 -0.06149901 -0.00000046
0.32570046 -0.33671045 -0.00000029
0.43852150 0.15855913 0.22523534
0.44050992 -0.50411707 -0.00000018
-0.16395415 0.35235271 -0.00000072
0.19279958 0.46249303 0.16062042
-0.78680116 -0.49526441 0.00000000
-0.69505876 -0.32706910 -0.00000005
0.27994850 -0.31630149 -0.00000030
0.04304329 0.35717040 -0.00000072
-0.62655640 0.70017415 -0.00000022
0.71178854 -0.62270588 -0.00000022
0.04095469 0.05703386 -0.00000054
-0.01956595 -0.11181695 -0.00000043
-0.52206481 0.24078028 -0.00000034
0.25449026 -0.60077620 -0.00000012
-0.20910463 -0.43758875 -0.00000023
0.69753432 -0.49751413 -0.00000036
0.17862388 0.00038026 -0.00000050
-0.02298039 0.72107893 -0.00000095
-0.20645377 0.43028101 -0.00000071
-0.61648768 -0.19733028 -0.00000016
-0.03522342 -0.35447827 -0.00000028
0.79153585 -0.69964778 -0.00000013
0.52205616 0.26152834 0.01821885
-0.33062714 -0.72878385 -0.00000004
0.30138522 0.36661896 0.14651129
-0.62013716 0.30502707 -0.00000022
0.32190663 0.47415131 0.00437353
0.22393309 0.19626683 0.42156658
-0.17368554 -0.08663698 -0.00000045
0.67823410 0.11749927 0.00473377
0.51511377 0.26793692 0.01881140
0.41195333 -0.32658321 -0.00000030
-0.37227303 0.54844046 -0.00000053
-0.34392077 -0.01595165 -0.00000048
-0.77699155 0.25782534 -0.00000003
-0.56616384 -0.51680601 -0.00000015
0.08232035 -0.11305342 -0.00000043
-0.36633867 0.53471810 -0.00000054
-0.35678646 -0.56213474 -0.00000015
-0.36374336 -0.22960065 -0.00000036
0.25078773 0.44770426 0.11267025
-0.71828127 -0.23892064 -0.00000004
-0.02463602 0.11831614 -0.00000057
0.21759968 0.11934698 -0.00000057
-0.31458414 0.02418984 -0.00000052
0.18312700 0.43467641 0.20223226
-0.78735006 0.59124100 -0.00000002
-0.28148660 0.21065074 -0.00000059
0.08234957 0.61871409 0.10981498
-0.36475605 -0.42077732 -0.00000024
0.50660318 0.14995545 0.15921564
-0.55534387 -0.06463689 -0.00000025
-0.20734967 -0.46684906 -0.00000021
0.48085532 -0.44760838 -0.00000022
-0.66316640 0.18347986 -0.00000017
0.67628819 -0.34294179 -0.00000050
-0.09243317 -0.47951829 -0.00000020
0.01750775 0.23986219 -0.00000065
-0.10649049 -0.15045211 -0.00000041
-0.26018974 -0.29407170 -0.00000032
-0.20024680 -0.34526205 -0.00000028
-0.29685950 -0.70247114 -0.00000006
0.17630093 -0.09204243 -0.00000044
-0.36294410 0.14286284 -0.00000049
0.39897820 -0.68216032 -0.00000007
-0.69916958 0.70414197 -0.00000013
0.63736951 -0.50345004 -0.00000029
0.78388476 -0.26633352 -0.00000067
0.19898444 -0.72405279 -0.00000005
0.04270081 -0.56426871 -0.00000015
-0.15202327 0.70079798 -0.00000081
-0.01938642 0.08117162 -0.00000055
-0.41375747 0.50547904 -0.00000048
0.23795760 -0.15576704 -0.00000040
0.50968081 0.23221415 0.06449363
-0.42033839 -0.19348609 -0.00000037
-0.35879642 -0.20845836 -0.00000037
0.17249656 0.01620247 -0.00000051
-0.39119729 0.12868735 -0.00000046
-0.53967941 0.67549974 -0.00000033
0.74279010 -0.75519180 -0.00000006
-0.66372514 -0.39399835 -0.00000007
0.05927239 -0.07555923 -0.00000045
0.29131827 -0.34055579 -0.00000029
-0.30002272 -0.49051028 -0.00000019
0.18135768 -0.46466917 -0.00000021
0.15831092 0.55968785 0.09101801
-0.16464412 0.00973963 -0.00000051
0.15954722 -0.48874435 -0.00000019
-0.35145766 0.38783765 -0.00000055
-0.69651043 -0.52309024 -0.00000001
0.61135930 0.12660319 0.06885858
0.67580771 -0.10971533 -0.00000075
-0.46187001 0.20065372 -0.00000040
-0.02619494 0.06275777 -0.00000054
-0.61009723 -0.36143261 -0.00000014
0.22011971 -0.39593631 -0.00000025
-0.16060676 0.55372560 -0.00000078
0.68660367 -0.03879249 -0.00000084
0.51288879 -0.63594186 -0.00000010
-0.72925973 0.77737749 -0.00000009
0.12014282 -0.37358347 -0.00000027
-0.44127065 0.66056615 -0.00000045
-0.79031646 -0.07873981 0.00000000
-0.28436407 -0.21325196 -0.00000037
0.10993216 -0.22654784 -0.00000036
-0.22033563 0.52336872 -0.00000071
-0.24777336 -0.53377849 -0.00000017
-0.15432499 0.59973884 -0.00000080
0.01541695 -0.10547865 -0.00000043
-0.23352279 0.57044232 -0.00000071
0.08129957 -0.00055795 -0.00000050
-0.74557132 -0.46648535 0.00000000
-0.17693669 -0.68511039 -0.00000007
-0.16951472 0.31126517 -0.00000069
-0.21036766 -0.43021137 -0.00000023
0.01335268 0.08996078 -0.00000056
0.69557643 -0.18988265 -0.00000069
-0.61838943 -0.38066643 -0.00000012
0.14512019 0.44987193 0.22755177
0.78061640 0.01248673 0.00765330
-0.42087102 0.20061758 -0.00000044
0.37392968 -0.62069803 -0.00000011
-0.48236999 0.40595341 -0.00000040
0.26087415 0.44276041 0.10696208
0.11690408 0.18142597 -0.00000061
-0.68772167 0.51704812 -0.00000014
0.06341939 0.15385282 -0.00000060
-0.19666924 0.32009700 -0.00000070
-0.28433803 -0.13851883 -0.00000041
-0.07343360 -0.19157621 -0.00000038
-0.06407768 0.45114174 -0.00000078
-0.60743189 -0.09703864 -0.00000019
0.49209324 -0.23240906 -0.00000042
-0.19605081 0.07175135 -0.00000054
-0.02106454 0.18442808 -0.00000062
-0.19478692 -0.50323290 -0.00000019
-0.25693250 0.18972307 -0.00000061
0.06178897 -0.78195304 -0.00000001
0.37435764 0.24739385 0.19785109
0.40759894 -0.06479451 -0.00000051
0.08717711 0.07924174 -0.00000055
-0.04798790 0.43524060 -0.00000077
-0.71672821 0.20540252 -0.00000010
-0.54986858 0.08184832 -0.00000028
0.25823063 -0.14568716 -0.00000041
0.07223408 0.19402282 -0.00000062
0.05421523 -0.74033201 -0.00000004
-0.55464971 -0.54905403 -0.00000016
-0.57405746 -0.49775890 -0.00000015
-0.72095156 -0.00536374 -0.00000008
-0.60610437 -0.12693430 -0.00000018
-0.32741013 0.42311290 -0.00000058
-0.07516114 -0.19200528 -0.00000038
-0.43260497 0.17135489 -0.00000042
-0.67866880 0.32109025 -0.00000015
-0.30074686 -0.69321150 -0.00000007
-0.73236203 -0.12204876 -0.00000005
0.18322894 -0.52491909 -0.00000017
-0.19464503 -0.18582247 -0.00000038
0.44387615 -0.24133433 -0.00000036
0.19562347 -0.34338421 -0.00000029
0.39146680 -0.13117890 -0.00000042
0.09486420 0.49110714 0.23756418
-0.76087731 0.74652195 -0.00000005
-0.59766382 0.47289968 -0.00000025
-0.01238851 0.69295532 -0.00000093
0.63734382 -0.69090956 -0.00000009
-0.25397089 -0.56005991 -0.00000015
-0.40574041 0.60766399 -0.00000049
0.29799601 -0.78319579 -0.00000001
0.53233039 -0.20219012 -0.00000050
-0.01684089 0.32759660 -0.00000070
-0.58459008 -0.41866523 -0.00000015
-0.38416690 -0.38241643 -0.00000026
0.32436943 0.27225333 0.22574331
-0.10081300 0.30386844 -0.00000069
-0.03195226 0.07064018 -0.00000054
0.32468569 0.04479643 -0.00000054
0.01026664 -0.24002521 -0.00000035
-0.29475614 -0.79600739 -0.00000000
-0.53929031 -0.29265234 -0.00000022
0.62426466 -0.10319821 -0.00000070
-0.33149269 -0.76266980 -0.00000002
0.12755235 0.21321432 -0.00000063
-0.58921707 0.67053854 -0.00000026
0.70618504 -0.72298783 -0.00000010
-0.57102621 0.18979961 -0.00000028
0.42677894 0.35048014 0.02523999
-0.44424662 0.27728322 -0.00000043
-0.56850868 -0.24959745 -0.00000020
0.44932333 -0.51349759 -0.00000018
-0.78041351 -0.54373378 0.00000000
-0.50143522 -0.12428204 -0.00000030
0.04512408 -0.42712840 -0.00000023
0.38475755 0.28373083 0.14597382
0.52122849 -0.29362366 -0.00000039
0.16614804 -0.18554662 -0.00000038
0.19045649 -0.28144276 -0.00000032
-0.56008226 -0.75184476 -0.00000003
0.06714999 -0.28055158 -0.00000032
-0.46604618 -0.53039730 -0.00000017
-0.77933663 0.38772383 -0.00000003
0.15088615 -0.45204762 -0.00000022
-0.37647331 0.30524093 -0.00000051
-0.22415382 -0.31827688 -0.00000030
-0.01513624 -0.49714723 -0.00000019
-0.72876799 0.76410705 -0.00000009
0.07425132 0.60150903 0.13790084
0.02930943 0.76836663 0.00257746
0.09014968 -0.79108769 -0.00000001
-0.07346495 -0.70950246 -0.00000006
0.30139098 -0.63683432 -0.00000010
0.22226359 0.49249133 0.09461867
-0.08524618 0.30963272 -0.00000069
0.01425870 -0.60287338 -0.00000012
0.61737847 0.06201916 0.13386469
-0.13519336 -0.27343589 -0.00000033
-0.30317682 0.45982006 -0.00000061
0.27525440 -0.26615861 -0.00000033
-0.23286100 -0.14876983 -0.00000041
-0.33724019 0.76688057 -0.00000058
-0.43340957 0.37097403 -0.00000046
-0.22394270 0.71158594 -0.00000072
-0.35999793 -0.48164329 -0.00000020
-0.06329786 -0.04682851 -0.00000047
-0.70719212 0.10548835 -0.00000012
0.16009866 -0.18503109 -0.00000038
0.62629062 -0.32843661 -0.00000046
0.30145121 -0.33020481 -0.00000029
-0.25944328 0.07739521 -0.00000055
-0.37956700 -0.29371133 -0.00000032
0.16757213 -0.57143068 -0.00000014
0.11664751 0.33653954 -0.00000071
-0.00573835 0.43682170 -0.00000077
0.63669276 -0.79752165 -0.00000000
0.28162363 0.43247995 0.09534164
0.14947852 -0.22926003 -0.00000036
-0.15239985 0.39305905 -0.00000075
-0.16619051 -0.48636439 -0.00000020
0.77518648 -0.61941230 -0.00000023
-0.08602922 -0.30568197 -0.00000031
-0.33049238 0.36409047 -0.00000057
-0.63402641 -0.23996098 -0.00000013
-0.09958130 0.19953188 -0.00000062
0.50947636 -0.72635269 -0.00000005
0.41891214 -0.78808981 -0.00000001
-0.66210842 -0.18153684 -0.00000011
0.25379583 0.35645947 0.21061103
-0.35785997 -0.02856004 -0.00000047
-0.41899157 -0.05747921 -0.00000040
-0.43706173 0.38975000 -0.00000045
0.12849540 -0.18910056 -0.00000038
-0.21197712 0.20046528 -0.00000063
-0.54081053 0.06135755 -0.00000029
0.01562000 -0.35078943 -0.00000028
-0.05833474 0.72429186 -0.00000092
0.16154198 -0.45885351 -0.00000021
-0.39831638 -0.11803233 -0.00000041
0.62549132 0.16471940 0.01086382
0.00735970 -0.48633486 -0.00000020
-0.78582507 -0.43352726 0.00000000
0.27510884 -0.65339631 -0.00000009
-0.75133300 0.08110892 -0.00000006
0.09073485 0.57219434 -0.00000086
-0.01955160 -0.40507922 -0.00000025
0.14963661 0.40596840 0.27127033
0.53844166 -0.25080428 -0.00000045
-0.11771639 -0.42828348 -0.00000023
0.47165090 0.16211534 0.18451487
0.11411003 -0.07639398 -0.00000045
0.02133597 0.16661234 -0.00000060
0.07841021 -0.09378534 -0.00000044
-0.50891274 -0.07640093 -0.00000030
-0.29879186 0.77347726 -0.00000063
0.27086920 -0.47654405 -0.00000020
-0.58683640 -0.33734334 -0.00000017
-0.68189335 -0.47068518 -0.00000004
-0.37440589 -0.23175415 -0.00000036
0.71975011 -0.04127331 -0.00000087
0.14592481 0.23754425 -0.00000065
0.60214669 0.09941894 0.10925860
0.11097998 -0.64507776 -0.00000010
-0.57661575 0.72642541 -0.00000028
0.46992385 0.17085858 0.17672701
0.18151607 0.33024284 0.31993848
0.00766626 -0.59584808 -0.00000013
0.72353846 -0.02202934 -0.00000089
-0.35737151 -0.25591224 -0.00000034
0.05461667 0.36463100 -0.00000073
-0.42337516 -0.12720791 -0.00000038
0.21716468 -0.55445945 -0.00000015
0.25143769 -0.45780897 -0.00000021
-0.38895920 -0.65402377 -0.00000009
-0.05965828 0.17379208 -0.00000061
-0.07386273 -0.24216796 -0.00000035
-0.15786517 0.74316311 -0.00000080
0.47262257 -0.75667709 -0.00000003
0.30984783 0.15433346 0.37274930
0.32396969 0.18749945 0.32026130
-0.04110488 0.15847106 -0.00000060
-0.62674952 -0.08148656 -0.00000017
-0.29201776 0.32448611 -0.00000060
-0.53916037 -0.56828791 -0.00000014
-0.30679354 0.00135234 -0.00000050
-0.51242608 -0.38048607 -0.00000024
0.01851967 0.44675729 -0.00000078
-0.44180563 0.27155203 -0.00000043
-0.07099955 0.58270168 -0.00000086
-0.37343875 -0.36699390 -0.00000027
0.46813399 -0.21535406 -0.00000042
0.40677565 0.29608086 0.10782570
0.76651508 -0.44246888 -0.00000045
-0.62181658 -0.11783318 -0.00000017
-0.40721643 -0.27709892 -0.00000033
-0.07949702 -0.77807969 -0.00000001
-0.40394643 -0.11884122 -0.00000040
-0.38099638 -0.26472938 -0.00000033
-0.62642527 0.46660388 -0.00000022
-0.43475112 0.78791422 -0.00000046
-0.73555863 -0.43325126 0.00000000
-0.11907342 -0.55136889 -0.00000016
-0.36029479 0.28301513 -0.00000052
0.38345096 -0.55146360 -0.00000016
0.33431870 -0.08213838 -0.00000045
0.11843856 0.44741896 0.25989008
-0.13845937 0.78191137 -0.00000083
-0.16877106 -0.75640100 -0.00000003
0.66266286 0.07005087 0.07468467
0.10853273 0.49335811 0.21989407
0.47993103 -0.13962403 -0.00000051
-0.20938011 0.76217246 -0.00000074
-0.69140756 0.58307177 -0.00000014
-0.60067558 -0.27414834 -0.00000016
0.57078403 -0.47906393 -0.00000024
0.39811718 -0.40404895 -0.00000025
0.24556629 0.16164246 -0.00000060
-0.37956759 -0.18805245 -0.00000038
-0.32042626 -0.77113509 -0.00000002
-0.08353853 -0.60455918 -0.00000012
0.23136389 -0.75723463 -0.00000003
-0.07310110 -0.67177445 -0.00000008
0.66960657 -0.21633802 -0.00000063
-0.41502580 -0.03905511 -0.00000040
-0.60107648 0.52105451 -0.00000025
-0.31234896 0.44166648 -0.00000060
-0.11332143 -0.06470760 -0.00000046
-0.55027825 0.57614923 -0.00000031
0.62437588 -0.06186871 -0.00000075
-0.68248808 0.55619329 -0.00000015
0.58834380 -0.48448297 -0.00000026
0.03852614 -0.43166625 -0.00000023
-0.70842904 0.48239365 -0.00000011
-0.31646803 -0.38080367 -0.00000026
0.17284836 0.32984483 -0.00000071
0.26395667 -0.59257567 -0.00000013
-0.01462826 0.34355241 -0.00000071
0.04703799 0.39167035 -0.00000074
0.18192720 -0.78762287 -0.00000001
0.26162103 0.43595907 0.11368244
-0.39180335 0.12034337 -0.00000046
-0.52962905 0.08459153 -0.00000030
-0.31175986 -0.67413533 -0.00000008
-0.71196342 0.27363425 -0.00000011
-0.79843622 -0.36244878 0.00000000
-0.60805386 -0.75766432 -0.00000003
0.11764274 -0.22565207 -0.00000036
-0.53121614 -0.64201319 -0.00000010
0.02282663 -0.53919017 -0.00000016
-0.15225261 0.30936590 -0.00000069
-0.52999014 -0.07870896 -0.00000027
-0.19569033 -0.05874727 -0.00000046
-0.00875279 0.01595076 -0.00000051
0.51930636 -0.34082171 -0.00000034
0.61285394 -0.18104886 -0.00000061
-0.34194878 -0.54336500 -0.00000016
0.21281272 0.34127429 0.27295581
0.20985325 -0.08342538 -0.00000045
-0.30786815 -0.14018106 -0.00000041
-0.52154291 -0.55527186 -0.00000015
0.64246124 0.09569809 0.06864014
0.57910520 -0.62176991 -0.00000011
-0.34407014 -0.54022586 -0.00000016
-0.12196585 -0.44281676 -0.00000022
0.15218405 0.51672971 0.14550100
-0.74640608 0.35147193 -0.00000007
0.43393856 0.26066884 0.11698209
-0.38882184 0.06181939 -0.00000045
0.63793266 0.05329822 0.12072996
-0.72646058 -0.58093292 0.00000000
0.49995655 0.15263392 0.16362023
-0.56710047 -0.42229804 -0.00000017
-0.66150391 0.51502293 -0.00000017
0.41561919 -0.78045654 -0.00000001
0.07027244 0.56223553 -0.00000085
0.33746925 0.00134245 -0.00000051
0.12822910 0.16537566 -0.00000060
0.09217873 -0.36904660 -0.00000027
-0.57080978 0.35419977 -0.00000029
0.03682920 -0.45847902 -0.00000021
-0.21809080 -0.22018784 -0.00000036
-0.51560616 0.51596928 -0.00000036
-0.00616177 0.50702429 -0.00000082
-0.04595566 -0.01215362 -0.00000049
0.47886834 0.25597590 0.07231981
-0.62498254 0.20710000 -0.00000022
-0.14953955 0.48405680 -0.00000078
0.02226707 -0.40705356 -0.00000025
-0.13710758 -0.15720713 -0.00000040
-0.23377165 -0.46729121 -0.00000021
0.12145279 0.31462982 -0.00000070
0.62172753 -0.07114691 -0.00000073
-0.51448470 0.46868896 -0.00000036
-0.43709406 0.41583753 -0.00000045
-0.35556704 0.39045012 -0.00000055
0.20160531 0.33552027 0.29178238
0.06728369 -0.60974771 -0.00000012
-0.00492603 -0.63627684 -0.00000010
-0.76123470 0.18905796 -0.00000005
-0.10363958 -0.38478735 -0.00000026
0.48748276 -0.52357972 -0.00000017
0.14241970 -0.59396219 -0.00000013
0.38917321 -0.22752644 -0.00000036
-0.66601491 0.68110955 -0.00000017
-0.44402570 0.65012777 -0.00000044
0.07418053 -0.59449291 -0.00000013
0.14833853 -0.68295079 -0.00000007
-0.04331347 -0.14813332 -0.00000041
0.27859771 0.11980249 -0.00000057
0.34265378 -0.28120694 -0.00000032
-0.28694057 -0.31174937 -0.00000031
0.54310298 -0.25098482 -0.00000046
-0.40006167 0.40336537 -0.00000050
-0.46209863 -0.70099211 -0.00000006
-0.06811040 -0.69893849 -0.00000006
0.18949804 -0.79901564 -0.00000000
-0.53581601 0.70231342 -0.00000033
-0.17346875 0.72529292 -0.00000078
-0.30804253 0.43269324 -0.00000060
-0.19106857 0.57764900 -0.00000076
0.62834829 -0.42320934 -0.00000037
0.40096122 0.33319217 0.07308662
-0.61836326 0.24521138 -0.00000023
0.52453244 -0.35995042 -0.00000032
-0.72796541 0.34441814 -0.00000009
0.30047005 0.30434772 0.21664692
-0.22081491 -0.10574967 -0.00000043
-0.47669071 0.78693891 -0.00000040
0.43874273 0.11260697 0.27599597
-0.30142748 0.53213644 -0.00000062
-0.34167621 -0.77611595 -0.00000001
-0.14142404 -0.55960822 -0.00000015
-0.58960664 0.27065811 -0.00000026
-0.01031413 -0.75654733 -0.00000003
0.77460188 -0.23996006 -0.00000070
-0.11914844 -0.22785436 -0.00000036
-0.78945833 -0.68058813 0.00000000
-0.74167258 0.47562861 -0.00000007
-0.06091404 -0.06067552 -0.00000046
0.28179625 0.22043310 0.33051684
0.30324823 0.31247374 0.20454358
-0.56521481 0.75889552 -0.00000029
-0.72008955 -0.34157655 -0.00000002
0.43540803 0.29016039 0.08261584
0.16681106 0.14674336 -0.00000059
-0.18712531 0.36542055 -0.00000072
0.23796882 0.51338899 0.05399000
-0.71902388 -0.31438240 -0.00000003
-0.36009651 0.26477793 -0.00000052
-0.40218309 0.53921503 -0.00000050
-0.32363090 0.21968491 -0.00000055
-0.24759412 -0.54086345 -0.00000016
0.70012552 -0.77043438 -0.00000004
-0.14536509 0.08323130 -0.00000055
-0.30211774 -0.52760518 -0.00000017
0.58319223 -0.44325355 -0.00000030
-0.52665102 0.39848718 -0.00000034
0.76356024 -0.10017036 -0.00000085
-0.19808958 0.61106420 -0.00000075
-0.01879598 -0.39408240 -0.00000025
0.43197978 -0.43926293 -0.00000023
-0.56268889 -0.73914748 -0.00000004
-0.48544133 -0.27527025 -0.00000029
-0.68238628 -0.29734001 -0.00000007
-0.10338796 -0.25145888 -0.00000034
0.27690041 0.00078559 -0.00000050
-0.13887031 -0.04774347 -0.00000047
-0.72590113 -0.35700253 -0.00000001
0.63442385 0.10444467 0.06785288
-0.34953144 0.10110133 -0.00000050
0.51168275 -0.69484740 -0.00000007
0.76694608 -0.68509585 -0.00000014
-0.04850310 -0.18903211 -0.00000038
-0.74001378 0.72187191 -0.00000007
0.25715810 -0.02335565 -0.00000049
0.64541340 -0.45411950 -0.00000035
0.52821386 -0.77564383 -0.00000002
-0.27031711 0.42754576 -0.00000064
-0.44248557 -0.46893305 -0.00000021
-0.26244718 -0.09139157 -0.00000044
0.62578046 -0.74381989 -0.00000004
0.20086297 0.31845748 -0.00000070
0.16690107 0.40524685 -0.00000076
-0.77463913 0.10859548 -0.00000003
-0.59951591 0.49301741 -0.00000025
0.52630281 0.25116882 0.02500405
-0.67618537 0.01805999 -0.00000014
0.22484429 0.18498506 -0.00000062
0.42893690 0.12305184 0.27528661
0.53977168 -0.23751844 -0.00000047
-0.57855242 -0.38018101 -0.00000017
-0.02926328 0.39298806 -0.00000075
0.36086249 0.24724232 0.21299869
0.40183303 0.38434505 0.01534003
0.53646994 -0.11960166 -0.00000059
0.77241796 -0.21093671 -0.00000074
-0.72412008 -0.41214752 -0.00000001
0.33402920 -0.08644597 -0.00000045
0.15744206 0.52082467 0.13511953
-0.05789341 0.68085802 -0.00000092
0.24070369 0.25595662 0.33669797
-0.65114123 -0.77189201 -0.00000002
-0.26622793 -0.40549555 -0.00000025
0.76453859 -0.41738993 -0.00000048
-0.26483440 0.25924382 -0.00000062
0.22746515 0.36609462 0.22914229
0.36568439 -0.13398246 -0.00000042
0.43713400 0.24176823 0.13441461
-0.73722440 -0.48393834 0.00000000
0.55526578 -0.73878115 -0.00000004
-0.57141590 -0.42571154 -0.00000017
0.68539369 -0.47281331 -0.00000037
0.19180959 -0.04665694 -0.00000047
-0.17261524 -0.30688149 -0.00000031
-0.62370199 0.78830910 -0.00000022
0.41853586 0.12434724 0.28539351
-0.63713324 0.76824117 -0.00000020
-0.20287971 -0.13677481 -0.00000041
-0.61331546 0.14779101 -0.00000023
0.64299393 -0.26845446 -0.00000055
0.32673553 0.36945459 0.11522529
-0.33551660 -0.33932984 -0.00000029
0.63939285 -0.59024411 -0.00000020
-0.39671442 -0.70382428 -0.00000006
0.20970768 -0.74209541 -0.00000004
-0.22265396 -0.63815618 -0.00000010
-0.21013768 0.75645649 -0.00000074
-0.00857183 -0.10808569 -0.00000043
0.31813368 0.29064041 0.21225563
0.21091183 0.11021969 -0.00000057
0.07074682 -0.66849321 -0.00000008
-0.06663472 0.74928689 -0.00000092
0.66198820 -0.32621512 -0.00000050
0.33744532 -0.45661339 -0.00000021
-0.14948162 0.10517137 -0.00000057
-0.74438989 0.27832535 -0.00000007
0.43992072 -0.73559594 -0.00000004
0.06238849 -0.41095543 -0.00000024
0.29103118 0.07414700 -0.00000055
-0.50841582 -0.26110393 -0.00000026
0.62702852 -0.16393027 -0.00000064
-0.67110103 0.61281037 -0.00000016
0.00039726 -0.77948618 -0.00000001
-0.34281218 0.75403726 -0.00000057
0.09064073 0.55778676 0.16823965
0.33426541 -0.14495644 -0.00000041
-0.67473763 0.08626948 -0.00000015
0.63738328 -0.22151425 -0.00000059
-0.13481304 0.45989576 -0.00000079
0.08305567 0.13872848 -0.00000059
0.15729082 0.58227533 0.06707856
0.69165158 -0.36587787 -0.00000049
-0.50977606 -0.16885398 -0.00000028
0.26625389 0.31167781 0.24648935
-0.41866031 0.15445323 -0.00000044
-0.78893781 0.47647065 -0.00000001
-0.70275342 0.10739578 -0.00000012
0.15029375 -0.27956626 -0.00000033
0.54623401 0.18513593 0.07617624
0.11482133 0.01229657 -0.00000051
-0.58480555 0.02640439 -0.00000023
0.79400557 -0.24012797 -0.00000070
-0.65482396 -0.22184017 -0.00000011
-0.17067730 0.40411875 -0.00000075
0.70893836 0.08468844 0.00707204
-0.47936651 -0.18417782 -0.00000031
-0.49413601 -0.38698003 -0.00000026
0.50649124 -0.71000069 -0.00000006
-0.15446427 -0.12748651 -0.00000042
0.75849450 -0.19590250 -0.00000075
0.74511027 -0.46139684 -0.00000042
0.23318014 -0.32467255 -0.00000030
-0.14701580 0.08298366 -0.00000055
0.77249318 -0.62361932 -0.00000022
-0.59110147 0.78309542 -0.00000026
-0.58633542 -0.09079029 -0.00000021
-0.79549867 -0.12032814 0.00000000
0.20725685 0.30964112 0.31423447
0.38448521 0.33406135 0.09040998
-0.52343953 0.23353808 -0.00000034
-0.79345959 0.37893751 -0.00000001
0.35670495 0.14779478 0.32799742
0.47885060 0.14712583 0.19316144
0.22994255 -0.28431007 -0.00000032
-0.68917286 -0.57835311 -0.00000001
0.70703727 -0.23039921 -0.00000065
-0.06319553 0.25956738 -0.00000066
-0.12296631 -0.79753172 -0.00000000
-0.07288190 0.38550186 -0.00000074
-0.50123566 -0.30173847 -0.00000026
0.13946390 -0.64161807 -0.00000010
-0.05572003 -0.49589181 -0.00000019
0.54900026 -0.59740484 -0.00000013
-0.32895392 -0.49426615 -0.00000019
0.79740739 -0.61590326 -0.00000023
0.26096743 -0.19053727 -0.00000038
-0.52492589 -0.22188912 -0.00000025
-0.74418902 -0.34463543 0.00000000
0.27771091 -0.60538960 -0.00000012
-0.28597605 -0.44303432 -0.00000022
0.16475807 0.28846955 -0.00000068
-0.51357538 -0.77644980 -0.00000001
-0.61251074 0.68558073 -0.00000023
0.68290782 0.08650365 0.03395073
0.21021418 0.31726766 -0.00000071
0.68225211 -0.63468474 -0.00000020
-0.44522208 -0.76170814 -0.00000002
-0.54445195 -0.20013133 -0.00000024
-0.04246227 0.02303473 -0.00000051
0.39779773 -0.63461161 -0.00000010
0.12139368 0.52333438 -0.00000083
-0.04413939 0.12643002 -0.00000058
-0.14030422 -0.21683548 -0.00000036
0.33327851 -0.53796852 -0.00000016
-0.79501241 0.38162729 -0.00000001
0.18066870 0.58994979 0.03261096
-0.09089752 -0.39594492 -0.00000025
-0.73370707 -0.48208463 0.00000000
-0.60266960 -0.19178516 -0.00000018
0.40286499 0.20953782 0.20822795
0.42920151 -0.45357540 -0.00000022
-0.14879362 -0.66388768 -0.00000009
-0.64195138 0.64280820 -0.00000020
-0.67213863 0.37512767 -0.00000016
0.30121511 0.46199533 0.04083377
-0.48120704 -0.23988229 -0.00000030
-0.31284428 -0.14314358 -0.00000041
0.71489608 -0.50879240 -0.00000036
0.73863459 -0.60273141 -0.00000025
0.36709803 -0.72988766 -0.00000004
-0.10453275 0.43409511 -0.00000077
-0.72855103 0.77311593 -0.00000009
0.06899796 0.46627966 -0.00000079
0.22466666 -0.24659789 -0.00000035
0.69453245 -0.79311448 -0.00000001
0.28780439 0.30723062 0.22750537
-0.10449012 0.68945146 -0.00000087
-0.03258301 0.43806183 -0.00000077
-0.41349858 0.10217979 -0.00000043
0.25833476 -0.78548962 -0.00000001
0.23955807 0.02631120 -0.00000052
-0.73657411 -0.58709586 0.00000000
0.16988073 -0.45942712 -0.00000021
-0.76058704 0.76972049 -0.00000005
-0.71974367 0.76854730 -0.00000010
0.22480911 0.39332750 0.20186277
-0.20789032 0.24315484 -0.00000065
0.26671880 -0.55834919 -0.00000015
0.07133164 -0.65976679 -0.00000009
0.57049036 -0.59371156 -0.00000013
0.28958160 -0.50252163 -0.00000019
0.59185958 -0.76768893 -0.00000002
-0.47317269 -0.00653813 -0.00000035
0.14470303 0.51631683 0.15426296
-0.56128621 0.10932116 -0.00000027
-0.61620671 -0.73603374 -0.00000004
-0.79525518 -0.40546796 0.00000000
0.46338060 -0.79726744 -0.00000000
0.51748478 0.23168911 0.05641413
-0.34683877 -0.04157656 -0.00000047
-0.35764721 -0.38323286 -0.00000026
0.07300210 -0.29341114 -0.00000032
-0.56538826 -0.29508203 -0.00000020
-0.02195265 -0.42057225 -0.00000024
-0.35484123 -0.19348864 -0.00000038
-0.39300913 -0.46191183 -0.00000021
-0.76809162 -0.62603843 0.00000000
0.05878056 0.61928457 0.13534243
-0.79823935 0.52907419 -0.00000000
-0.26189554 0.37647814 -0.00000064
-0.50830668 0.67392349 -0.00000036
0.38124356 -0.22596171 -0.00000036
-0.09469179 0.77214903 -0.00000088
-0.52504444 -0.33249107 -0.00000023
0.24705960 0.22495103 0.36405843
-0.10444003 -0.60112321 -0.00000012
0.62785071 -0.22290190 -0.00000058
0.20251153 -0.50324154 -0.00000019
-0.58642560 -0.61374211 -0.00000012
0.04609703 0.15689062 -0.00000060
0.24788725 0.34009156 0.23533720
0.42561749 0.27668509 0.10844055
0.17442377 0.18945831 -0.00000062
-0.74200666 -0.18073598 -0.00000003
0.10013695 -0.63311601 -0.00000010
0.27480081 0.27749097 0.27494898
-0.49884444 -0.17504857 -0.00000029
0.40433097 -0.20190418 -0.00000037
0.27395231 -0.47757533 -0.00000020
0.62936652 -0.27684426 -0.00000052
-0.07239191 -0.67094350 -0.00000008
-0.14402376 -0.00027881 -0.00000050
-0.11635643 0.25125375 -0.00000066
0.25859341 -0.18306622 -0.00000039
-0.42482513 -0.60033196 -0.00000012
0.00010176 -0.45826599 -0.00000021
-0.46238127 0.68668938 -0.00000042
0.52850497 0.25530270 0.01797116
-0.13635726 0.61239350 -0.00000082
-0.32984027 -0.55329919 -0.00000015
-0.06175244 0.40268004 -0.00000075
-0.32738015 0.50963813 -0.00000059
0.65638930 -0.05369069 -0.00000079
0.73201048 -0.41775054 -0.00000048
0.75429136 -0.44956854 -0.00000044
-0.36748233 -0.11982380 -0.00000043
0.14167102 0.11923614 -0.00000057
-0.05701531 -0.38261563 -0.00000026
-0.32433930 0.22421248 -0.00000055
0.08211514 0.06050504 -0.00000054
-0.68654275 -0.65631443 -0.00000000
0.54661566 -0.43862396 -0.00000026
-0.55289578 -0.44628268 -0.00000018
-0.44547775 -0.75506777 -0.00000003
0.14984129 -0.17919233 -0.00000039
-0.61659145 -0.11802420 -0.00000017
0.74086154 -0.72546810 -0.00000009
-0.60743368 -0.77247536 -0.00000002
-0.11867882 -0.26019868 -0.00000034
0.60325551 0.18362498 0.01456037
0.47692561 -0.48401496 -0.00000020
0.05158401 -0.51777756 -0.00000018
-0.27118894 0.58814216 -0.00000066
-0.33696353 0.69586015 -0.00000058
0.31832904 0.03678735 -0.00000053
-0.26233807 0.53841579 -0.00000067
-0.12344607 -0.01239415 -0.00000049
-0.79281336 0.47400320 -0.00000001
0.11664448 0.58304685 0.11133849
-0.49436846 -0.41361347 -0.00000024
0.36594674 -0.70710516 -0.00000006
0.14319773 -0.30228338 -0.00000031
0.09206582 0.32889643 -0.00000071
0.41637427 0.30018812 0.09261237
-0.67705452 0.19112186 -0.00000015
0.52637827 -0.09156555 -0.00000061
-0.73857230 0.28191170 -0.00000008
-0.20385781 -0.14138117 -0.00000041
0.18940660 0.29764664 0.34736112
-0.04018898 -0.76165062 -0.00000002
-0.05908898 -0.63004214 -0.00000011
-0.38412857 0.27817917 -0.00000049
-0.36751640 0.66664433 -0.00000054
-0.51819634 0.75311100 -0.00000035
-0.13469179 0.55643827 -0.00000081
0.66455609 -0.67747802 -0.00000013
0.49185869 -0.26740590 -0.00000039
-0.08245702 -0.01502764 -0.00000049
-0.09736582 0.42693728 -0.00000077
0.64620513 -0.73400950 -0.00000005
-0.43236214 -0.35064277 -0.00000028
-0.63869894 -0.38954517 -0.00000010
-0.25725389 0.29911664 -0.00000063
-0.05779492 -0.13298835 -0.00000042
-0.59010667 0.64569932 -0.00000026
-0.17952053 0.01997878 -0.00000051
0.01156841 0.23182905 -0.00000064
0.76240182 -0.51048380 -0.00000036
0.11306065 -0.12202131 -0.00000042
-0.77028221 0.28675947 -0.00000004
-0.26561075 -0.47714517 -0.00000020
0.66998154 -0.22014038 -0.00000063
0.59546024 -0.60945672 -0.00000013
0.26722762 -0.26467097 -0.00000033
-0.36115670 -0.64857602 -0.00000009
-0.63413143 0.43451008 -0.00000021
-0.44265732 0.39578825 -0.00000045
0.34794012 0.40330762 0.05411218
-0.39130634 0.23751263 -0.00000048
0.22809680 -0.27509603 -0.00000033
-0.68282443 -0.27728912 -0.00000007
-0.69578427 0.21103874 -0.00000013
0.56544650 -0.55365479 -0.00000016
0.22873329 -0.04815222 -0.00000047
-0.46154973 0.46251389 -0.00000042
0.78268629 -0.10840253 -0.00000086
-0.44127086 -0.67343646 -0.00000008
-0.26819295 0.59550309 -0.00000066
0.24115075 -0.28743172 -0.00000032
-0.00552382 0.54987019 -0.00000084
-0.58546847 -0.19080479 -0.00000019
-0.24783213 -0.02397537 -0.00000049
-0.74843127 0.28242019 -0.00000006
-0.04819617 0.69726300 -0.00000093
-0.12538189 -0.69568312 -0.00000007
-0.78833884 0.02654282 -0.00000001
-0.11296075 0.65407073 -0.00000085
-0.59823549 0.57979804 -0.00000025
-0.09176601 0.55912966 -0.00000085
-0.34933820 0.58190030 -0.00000056
-0.17168064 -0.49563712 -0.00000019
0.59927702 -0.23638411 -0.00000053
-0.61161005 -0.29053223 -0.00000015
-0.44446829 0.39065772 -0.00000044
-0.29930812 -0.20969422 -0.00000037
0.72011870 -0.12667029 -0.00000078
0.16973844 -0.44597819 -0.00000022
-0.53276080 -0.78833151 -0.00000001
-0.37548217 -0.34251201 -0.00000029
-0.31624869 0.51978195 -0.00000060
-0.12904185 0.15690878 -0.00000060
-0.50576788 0.73174888 -0.00000037
-0.05894634 -0.11195392 -0.00000043
0.08904487 -0.11427091 -0.00000043
-0.36992547 0.17114671 -0.00000049
0.17541526 0.35193035 -0.00000072
-0.41364920 -0.45824760 -0.00000021
-0.76137799 -0.43920895 0.00000000
-0.03295837 0.56666064 -0.00000085
-0.34939688 -0.36101279 -0.00000027
-0.26718169 -0.66047823 -0.00000009
-0.37999842 -0.62781197 -0.00000011
0.28163257 -0.42839560 -0.00000023
0.65272415 -0.44423321 -0.00000037
-0.05442333 -0.15289493 -0.00000040
-0.11065159 -0.10960238 -0.00000043
-0.72172397 0.45313567 -0.00000010
-0.27917561 -0.58257318 -0.00000014
0.34966475 -0.42806923 -0.00000023
0.25725701 -0.39769620 -0.00000025
0.41273993 -0.24846618 -0.00000034
-0.21390042 -0.42849177 -0.00000023
-0.46605676 -0.22231352 -0.00000032
-0.35879743 0.76451409 -0.00000055
-0.72333890 -0.76862550 0.00000000
-0.29429933 0.19649816 -0.00000058
0.31987420 -0.65954930 -0.00000009
0.51301777 -0.50806713 -0.00000018
-0.01896710 -0.06955256 -0.00000046
0.10936085 -0.13856663 -0.00000041
-0.02730326 -0.04544311 -0.00000047
0.27011201 0.39006257 0.15520202
-0.45684412 -0.47883701 -0.00000020
0.17523745 0.10227968 -0.00000056
-0.50094187 0.38043302 -0.00000037
0.22771305 -0.10108364 -0.00000044
0.09576738 0.68584192 0.02041132
0.49852049 -0.14873630 -0.00000052
-0.68875116 -0.42221636 -0.00000004
-0.22889659 0.67418826 -0.00000071
-0.43434322 0.62112868 -0.00000046
-0.14614318 0.53104222 -0.00000079
0.33603463 -0.30644086 -0.00000031
0.44380254 0.15875579 0.21915516
0.13614602 0.19913162 -0.00000062
-0.35153100 -0.41632006 -0.00000024
0.03349536 0.54523748 -0.00000084
-0.60360241 -0.33345518 -0.00000015
0.14171983 -0.68278164 -0.00000007
0.33896497 -0.52863950 -0.00000017
0.57878834 -0.34749082 -0.00000039
0.12992895 0.05101120 -0.00000053
-0.57685000 0.24486196 -0.00000028
-0.31311539 -0.22906290 -0.00000036
-0.42321146 -0.75075364 -0.00000003
0.15523133 0.19958250 -0.00000062
-0.16422319 -0.71542853 -0.00000005
-0.54111582 -0.10679252 -0.00000026
0.77738565 -0.64298427 -0.00000020
-0.53670216 -0.51099908 -0.00000018
0.56199032 0.19102375 0.05215157
0.28629202 -0.31873280 -0.00000030
-0.65416479 -0.09866291 -0.00000014
-0.28821588 -0.08149278 -0.00000045
0.04880739 0.57912946 -0.00000086
-0.47989333 -0.73800582 -0.00000004
0.54816121 0.23880503 0.01446517
0.27462348 0.20442781 0.35624373
-0.08827425 0.32188380 -0.00000070
-0.71003145 0.53524500 -0.00000011
-0.29743779 -0.42752060 -0.00000023
-0.69031405 -0.27693993 -0.00000007
-0.79238272 0.10439141 -0.00000001
-0.46216172 -0.52011544 -0.00000017
0.22895978 0.01513689 -0.00000051
-0.22391295 0.41765878 -0.00000069
0.36857900 -0.78858411 -0.00000001
-0.01005780 0.38864774 -0.00000074
-0.72232002 -0.24519365 -0.00000004
0.79028660 -0.18145868 -0.00000077
0.09810621 -0.71359277 -0.00000005
-0.47109315 -0.17130412 -0.00000032
-0.10859169 -0.19962604 -0.00000038
-0.60766369 -0.73636711 -0.00000004
0.62707281 -0.12555169 -0.00000068
-0.70583004 0.28244516 -0.00000012
-0.24454018 0.45774761 -0.00000068
-0.23074295 0.32868639 -0.00000067
0.52085131 0.21323703 0.07315883
-0.16580300 0.49480352 -0.00000077
-0.07405602 -0.79305762 -0.00000000
-0.01468127 -0.56862622 -0.00000014
0.57691610 -0.15064843 -0.00000060
-0.69486946 -0.58824408 -0.00000000
-0.45089310 0.19909699 -0.00000041
-0.70052969 0.38872537 -0.00000012
0.63227773 -0.39293179 -0.00000040
0.45300984 -0.22567979 -0.00000039
-0.09789914 -0.45075694 -0.00000022
0.15979527 0.38352653 -0.00000074
0.50916654 -0.74481016 -0.00000003
0.28935620 -0.20080075 -0.00000037
-0.00514920 -0.27265170 -0.00000033
0.03813581 0.20949402 -0.00000063
0.47561139 0.26942262 0.06100933
0.69399136 -0.60801601 -0.00000024
-0.42076442 0.73373324 -0.00000047
-0.69431347 0.40772128 -0.00000013
0.13701504 -0.16957857 -0.00000039
-0.60325372 0.19521289 -0.00000025
0.20313033 0.52373964 0.08117110
-0.74788469 0.35983583 -0.00000007
0.48107257 0.29185936 0.03004307
-0.33735520 -0.50529295 -0.00000018
-0.17249702 0.41567963 -0.00000075
-0.68800861 0.01284435 -0.00000012
0.74010551 -0.34368894 -0.00000057
0.04351222 0.20167147 -0.00000063
-0.66924548 0.17481348 -0.00000016
0.02511661 0.43280873 -0.00000077
-0.75129485 -0.74676383 0.00000000
-0.23687060 -0.39228079 -0.00000025
0.16221286 0.28802690 0.38822275
-0.56572533 -0.34744501 -0.00000019
-0.21476611 0.09251178 -0.00000056
-0.17218558 -0.05260664 -0.00000047
0.14400893 -0.49408528 -0.00000019
0.17058501 0.54888058 0.08938989
0.40984944 0.38104278 0.01010742
0.49167803 0.09738362 0.23413628
0.24215215 -0.05996523 -0.00000046
-0.17812894 0.76792526 -0.00000078
0.07935116 0.60481161 0.12857448
-0.74494964 0.40142837 -0.00000007
-0.08134489 -0.04295093 -0.00000047
-0.51464480 -0.73556244 -0.00000004
-0.28568739 0.79178280 -0.00000064
0.47507137 -0.27595985 -0.00000036
0.19230738 0.48794115 0.13292009
-0.05173806 0.15123791 -0.00000059
0.26623204 0.47672448 0.06331531
-0.17130089 0.70609069 -0.00000079
0.20368282 0.26913375 0.36316347
-0.50963753 -0.48141098 -0.00000020
0.61637425 -0.20575631 -0.00000058
-0.69731593 0.16467459 -0.00000013
-0.09824328 0.13398679 -0.00000058
-0.22845848 0.35488889 -0.00000067
-0.25289661 -0.62301987 -0.00000011
0.30776790 0.10744240 -0.00000059
0.00741918 0.36215615 -0.00000073
-0.55650610 0.44685745 -0.00000030
-0.56250244 0.68150371 -0.00000030
0.22936574 -0.14183685 -0.00000041
-0.64582264 -0.69621742 -0.00000004
0.54823947 -0.68511200 -0.00000007
0.30269331 0.38329518 0.12654895
0.73564601 0.02510498 0.04356375
0.48071590 0.11660289 0.22497100
-0.23428737 -0.37720373 -0.00000026
0.68973011 -0.75157046 -0.00000006
-0.71409702 -0.47671363 -0.00000000
-0.30872941 0.24562874 -0.00000057
0.42151868 -0.74676108 -0.00000003
0.37973696 -0.08509546 -0.00000046
0.09587893 -0.57218111 -0.00000014
-0.47915503 -0.09210862 -0.00000033
0.60235113 -0.11158790 -0.00000067
-0.65408480 -0.61725968 -0.00000004
-0.52245212 0.69340271 -0.00000035
0.78680694 -0.67952979 -0.00000015
0.69864815 -0.64771503 -0.00000019
0.40975407 0.37335810 0.01874313
-0.46674532 -0.14457214 -0.00000033
-0.32543200 -0.78252488 -0.00000001
-0.64604139 -0.12467240 -0.00000014
-0.75290722 0.74804747 -0.00000006
-0.47657168 -0.39983502 -0.00000025
-0.35347030 -0.13399442 -0.00000042
-0.15666892 -0.23487130 -0.00000035
-0.48239347 -0.46740523 -0.00000021
-0.00899415 -0.77021754 -0.00000002
-0.74671221 -0.76963979 0.00000000
-0.24731676 0.41835725 -0.00000067
-0.39596599 0.03180766 -0.00000044
0.15796529 0.40798810 -0.00000075
-0.64493972 0.32244745 -0.00000019
0.59716642 -0.30273706 -0.00000046
-0.61088127 -0.04437019 -0.00000019
-0.44184837 -0.34489769 -0.00000028
-0.69232392 0.07305225 -0.00000013
