ply
format ascii 1.0
element vertex 1378
property float x
property float y
property float z
end_header
-0.51675808 -0.09729737 0.28058785
-0.18388429 0.37877765 0.09984482
-0.47820666 0.12119192 0.00000216
-0.49788910 0.07129617 0.00000261
-0.34831354 0.32554179 0.00000124
-0.36034423 -0.74401116 0.19565816
-0.21067536 -0.07388305 0.11439160
-0.67603409 -0.18747865 0.36707136
-0.01095099 -0.19403294 0.00594612
-0.45050654 -0.05171452 0.24461466
-0.69354182 -0.27337649 0.37657747
-0.46007490 -0.70049465 0.24980949
-0.48365936 0.21849003 0.00000043
-0.41257998 -0.69556594 0.22402090
-0.40568572 0.05755604 0.22027802
-0.39039919 -0.28736356 0.21197727
-0.46421957 -0.21456128 0.25206032
-0.49393186 -0.59923112 0.26819298
-0.11850947 -0.50519300 0.06434776
-0.04818269 0.01671887 0.02616203
-0.08319413 0.68825316 0.00000027
-0.22349197 0.15186995 0.12135070
-0.42743728 0.31206307 0.23208901
-0.77982861 -0.02911750 -0.00000186
-0.02129664 0.64660478 0.01156356
-0.14287734 -0.52131581 0.07757892
-0.35722062 -0.36449435 0.19396211
-0.00707319 -0.73460263 0.00384057
-0.70176464 -0.21388952 -0.00000120
-0.11948706 0.54473656 0.06487868
-0.31612656 -0.12405069 0.17164904
-0.56181109 -0.59606159 0.30504999
-0.08417991 0.67565292 0.04570780
-0.19355497 -0.45895833 0.10509564
-0.09597402 0.27120644 0.05211156
-0.10834845 0.04298095 0.05883057
-0.64292783 -0.00147940 -0.00000133
-0.50922632 0.11843515 0.27649856
-0.28702402 0.29953465 0.15584747
-0.58089191 -0.53175825 0.31541055
-0.06639926 -0.36566943 0.03605318
-0.47074151 -0.39426723 0.25560135
-0.05889673 -0.03734360 0.03197949
-0.79911470 -0.00082078 -0.00000199
-0.36004403 -0.32557482 0.19549514
-0.42342371 0.09934244 0.22990946
-0.00187105 0.74862784 0.00101594
-0.35671148 -0.38001862 0.19368567
-0.33878860 0.42780805 -0.00000029
-0.51541847 -0.27933779 0.27986020
-0.08535550 0.00640244 0.04634596
-0.70041007 -0.46307048 -0.00000076
-0.01983012 -0.77979207 0.01076727
-0.42587531 -0.24177319 0.23124012
-0.01576039 0.11070813 0.00855751
-0.44120833 -0.76442254 0.23956539
-0.65183729 0.01003572 0.00000068
-0.71907443 -0.24236917 -0.00000123
-0.16081735 -0.04354092 0.08731991
-0.10865536 0.33637181 0.05899722
-0.35433194 -0.62589860 0.19239363
-0.68401772 -0.00295175 0.37140656
-0.71692419 -0.25243068 -0.00000120
-0.51834637 0.19826736 0.28145069
-0.78104210 -0.77778625 -0.00000006
-0.55195951 -0.14118288 0.29970145
-0.06553566 -0.55622083 0.03558427
-0.29267943 -0.37988451 0.15891781
-0.19081113 0.53360820 0.00000079
-0.28188908 0.04332092 0.15305895
-0.63813198 -0.51922649 0.34649074
-0.41894472 -0.52970713 0.22747681
-0.49358746 -0.02578864 0.26800677
-0.50940388 -0.20640616 0.27659449
-0.42850789 -0.78944427 0.23266935
-0.53545845 0.23827662 -0.00000090
-0.72352791 -0.30948514 -0.00000113
-0.61965889 -0.76443601 0.33645982
-0.60664296 -0.26463509 0.32939327
-0.18759775 0.15552478 0.10186102
-0.44237384 -0.75538796 0.24019824
-0.71177983 -0.67956090 -0.00000030
-0.03961722 0.25411728 0.02151119
-0.10437405 -0.44160387 0.05667257
-0.70243120 -0.00445770 -0.00000158
-0.68306375 -0.27101922 0.37088811
-0.04773404 -0.43145725 0.02591842
-0.06919731 0.48457006 0.03757245
-0.44047591 0.06119235 0.23916841
-0.75210351 -0.42982027 -0.00000093
-0.49197960 -0.05534479 0.26713368
-0.42584792 -0.13462104 0.23122542
-0.25499406 -0.14497253 0.13845558
-0.74939418 -0.53086036 -0.00000067
-0.43139905 0.02331511 0.23423979
-0.11557169 0.17703512 0.06275262
-0.35644588 0.38901573 0.19354229
-0.51224899 0.19976231 0.27813995
-0.62318355 0.12531050 -0.00000070
-0.04954307 -0.63030714 0.02690068
-0.44814509 0.22367880 0.24333285
-0.44391572 -0.00121646 0.24103604
-0.47079042 0.18408489 0.00000125
-0.69086111 0.09986844 -0.00000157
-0.62178028 -0.12266337 0.33761275
-0.77470189 -0.54778183 -0.00000063
-0.08819229 -0.62441474 0.04788627
-0.32682851 0.27547628 0.17746048
-0.09145532 0.36040491 0.04965802
-0.32457480 -0.61215246 0.17623623
-0.03493507 0.23933864 0.01896889
-0.63944423 -0.20271204 0.34720379
-0.40266433 0.36888975 -0.00000053
-0.46562558 -0.16691498 0.25282383
-0.62940645 0.13324356 -0.00000095
-0.46531484 -0.33111325 0.25265488
-0.43894154 -0.57798123 0.23833460
-0.52656531 -0.65958017 0.28591216
-0.46012732 0.01709660 0.24983867
-0.31088161 -0.19265325 0.16880116
-0.06802798 0.58140564 0.03693754
-0.68711007 -0.18201576 0.37308535
-0.16031177 0.55342740 0.08704568
-0.20940270 -0.46739894 0.11370057
-0.77623481 -0.18957134 -0.00000153
-0.30814192 0.31298056 0.16731410
-0.63048226 -0.58702552 0.34233698
-0.36130032 0.20231144 0.19617787
-0.08474787 0.69936508 0.04601623
-0.52205944 -0.72522056 0.28346559
-0.10859465 -0.36210546 0.05896425
-0.20713338 -0.15044378 0.11246839
-0.58875352 -0.04111390 0.31968001
-0.01942089 -0.17635228 0.01054507
-0.32004848 -0.51374394 0.17377853
-0.39230698 -0.24188396 0.21301320
-0.22619785 0.32631898 0.12282016
-0.26078275 -0.79574460 0.14159869
-0.40258157 -0.02955959 0.21859241
-0.18592027 -0.00630684 0.10095019
-0.70730001 -0.69028968 -0.00000027
-0.64568979 -0.72127879 0.35059407
-0.46745956 -0.77971280 0.25381917
-0.47524789 0.04229124 0.25804886
-0.05843512 0.47958750 0.03172885
-0.41081342 0.13732529 0.22306238
-0.42793086 -0.78256428 0.23235606
-0.33086738 0.18201169 0.17965336
-0.02420279 -0.30125791 0.01314153
-0.72335440 -0.40531376 -0.00000096
-0.38255903 0.22087015 0.20772095
-0.03705224 0.04282345 0.02011847
-0.29990619 -0.78332329 0.16284177
-0.04412859 -0.19134682 0.02396075
-0.00549761 -0.07462606 0.00298507
-0.51242650 -0.24512444 0.27823567
-0.59462285 -0.05206627 -0.00000103
-0.21507618 0.46011576 0.11678150
-0.02314015 -0.15601622 0.01256454
-0.01101521 -0.20923394 0.00598099
-0.02277953 0.21604508 0.01236873
-0.10338846 0.32557771 0.05613742
-0.39752284 0.33744037 0.21584617
-0.28934491 0.48888966 -0.00000036
-0.29749665 -0.53131413 0.16153345
-0.29126674 0.12739280 0.15815096
-0.46885222 -0.79349566 0.25457534
-0.00718594 0.21441214 0.00390179
-0.06545054 0.18605191 0.03553805
-0.69673580 -0.40538189 0.37831146
-0.09193781 -0.66923261 0.04991999
-0.30827352 0.47476375 -0.00000049
-0.34035307 -0.25104812 0.18480346
-0.09373835 -0.68570352 0.05089765
-0.26600429 0.34717309 0.14443427
-0.19454108 0.12657440 0.10563108
-0.42389715 -0.62789500 0.23016584
-0.59668666 -0.53400820 0.32398680
-0.02621663 -0.23422618 0.01423500
-0.79897392 -0.67367435 -0.00000032
-0.35312763 -0.58785230 0.19173972
-0.17472406 0.54884106 0.09487125
-0.63075888 -0.11646900 -0.00000107
-0.40866527 -0.74709165 0.22189531
-0.67167079 -0.03091539 -0.00000140
-0.53243023 0.04496105 0.00000239
-0.75318164 -0.68629944 -0.00000028
-0.23798811 -0.58424592 0.12922177
-0.48885196 -0.03639754 0.26543546
-0.74123788 -0.67328316 -0.00000032
-0.41616246 0.23894827 0.22596696
-0.09797755 -0.59276474 0.05319943
-0.18747611 -0.44569376 0.10179497
-0.15821072 0.31505868 0.08590457
-0.17537993 0.18333597 0.09522704
-0.73666888 0.06140925 -0.00000184
-0.32845038 0.15780234 0.17834096
-0.42906287 -0.43568939 0.23297070
-0.65230858 -0.03357683 -0.00000131
-0.59510034 0.18810187 -0.00000121
-0.17836753 -0.59436375 0.09684923
-0.54494601 -0.01511418 0.29589343
-0.56636554 0.02979250 0.30752388
-0.15217936 0.01997733 0.08262969
-0.63661742 -0.75880367 0.34566790
-0.32932454 -0.27859116 0.17881522
-0.14799830 0.31841707 0.08035948
-0.00286544 -0.79885012 0.00155586
-0.44319358 0.29356420 0.24064440
-0.08785116 -0.08283723 0.04770105
-0.63336968 -0.06382254 -0.00000118
-0.21187805 -0.46361008 0.11504463
-0.39082175 -0.30373392 0.21220672
-0.04909636 -0.36904451 0.02665813
-0.07506557 0.67351526 0.04075890
-0.20926625 -0.56154263 0.11362648
-0.04626681 -0.47513798 0.02512175
-0.10782929 -0.10737044 0.05854868
-0.64137238 -0.32415134 0.34825057
-0.76082087 -0.09649580 -0.00000166
-0.22638023 -0.62751436 0.12291896
-0.57440817 -0.15947746 0.31189057
-0.02802565 0.34226483 0.01521725
-0.30307493 0.44338629 0.00000014
-0.27084100 0.49039960 0.14706069
-0.67774993 -0.12997302 -0.00000125
-0.29640949 -0.33257189 0.16094315
-0.59066242 0.05951590 0.00000103
-0.09541880 0.53551406 0.05181009
-0.55220073 -0.77818567 0.29983157
-0.68360394 -0.51216596 0.37118098
-0.51894665 -0.57664448 0.28177550
-0.67154950 0.08198102 -0.00000090
-0.06638307 0.60469627 0.03604440
-0.03506883 0.25320676 0.01904152
-0.69081938 -0.23427942 0.37509930
-0.03724293 -0.39136767 0.02022201
-0.26990345 -0.06500095 0.14655101
-0.28819954 0.25081521 0.15648571
-0.06832924 -0.37284949 0.03710112
-0.31717816 -0.36929369 0.17222004
-0.11881456 0.39395931 0.06451342
-0.10384341 -0.51249099 0.05638445
-0.66643673 -0.63880706 0.36185932
-0.30984798 0.05039731 0.16824006
-0.64281797 -0.14360930 0.34903574
-0.70204341 -0.51760805 -0.00000067
-0.17083654 0.33394599 0.09276009
-0.63265455 0.06119940 0.00000019
-0.71701056 -0.69835794 -0.00000025
-0.00598883 0.44071344 0.00325179
-0.55263108 -0.13835159 0.30006611
-0.64334869 -0.56421334 0.34932321
-0.15773176 -0.26388317 0.08564451
-0.13514408 -0.68369412 0.07337995
-0.02782372 -0.54654384 0.01510761
-0.43324324 -0.23570073 0.23524077
-0.27016470 -0.09760027 0.14669287
-0.40970045 -0.61752021 0.22245738
-0.02108000 0.70503414 0.01144593
-0.77587682 -0.09448544 -0.00000173
-0.52959740 0.09395839 0.28755960
-0.75305575 -0.05205297 -0.00000171
-0.22493601 -0.06923603 0.12213478
-0.10790715 -0.75192541 0.05859096
-0.10351215 -0.51695424 0.05620458
-0.33560625 -0.42970073 0.18222603
-0.36053571 0.18620506 0.19576268
-0.65377998 0.04002798 0.00000014
-0.50890768 -0.52876806 0.27632460
-0.11400018 -0.63596129 0.06189933
-0.14341933 0.26433486 0.07787321
-0.36719465 -0.61150765 0.19937776
-0.00999517 0.76817602 0.00542714
-0.49480984 -0.06710497 0.26867044
-0.47570223 -0.34847575 0.25829497
-0.27138472 0.41878200 0.00000116
-0.40875426 0.07409561 0.22194421
-0.44723296 0.33231521 -0.00000078
-0.48324597 -0.48521462 0.26239088
-0.57790798 -0.67180437 0.31379017
-0.44060129 0.17137899 0.23923664
-0.62700593 -0.29563674 0.34044990
-0.38665083 -0.22651598 0.20994206
-0.55636841 -0.03506903 0.30209556
-0.38208354 0.00741858 0.20746244
-0.44277683 0.04334411 0.24041773
-0.25118414 0.09643611 0.13638689
-0.39954701 -0.02500717 0.21694471
-0.15677501 0.63837856 -0.00000031
-0.35798687 -0.29310787 0.19437817
-0.31469676 -0.10712684 0.17087270
-0.58820719 -0.33505967 0.31938291
-0.60580367 -0.67237979 0.32893693
-0.56906903 -0.77667904 0.30899066
-0.49085262 -0.30492291 0.26652139
-0.41521439 -0.04380190 0.22545177
-0.34412116 0.31659722 0.00000147
-0.19402088 0.50820976 0.10534897
-0.68472111 -0.22046664 0.37178814
-0.19328913 -0.57570267 0.10495130
-0.37268561 0.28245637 0.00000149
-0.41267964 -0.34069979 0.22407500
-0.12662631 -0.20702124 0.06875501
-0.04279421 0.42583957 0.02323622
-0.68519026 -0.26102144 0.37204278
-0.65447295 -0.63964230 0.35536328
-0.78227091 -0.74390817 -0.00000014
-0.06163989 0.33837032 0.03346896
-0.55955529 0.16818637 -0.00000019
-0.38578218 0.35542846 0.20947124
-0.41232204 -0.50807309 0.22388084
-0.47659749 -0.65726721 0.25878084
-0.53441280 -0.38867486 0.29017356
-0.08142435 0.23503433 0.04421144
-0.38666770 -0.38779920 0.20995115
-0.25229007 0.27601039 0.13698763
-0.27246538 0.18834499 0.14794227
-0.08001811 0.37908825 0.04344789
-0.60945970 -0.26487386 0.33092269
-0.21865289 -0.08706875 0.11872320
-0.40447780 -0.45892256 0.21962161
-0.31383148 0.38976118 0.00000083
-0.60879320 -0.29877365 0.33056074
-0.58211035 0.03894048 0.31607300
-0.11352178 0.47116417 0.06163956
-0.51000065 -0.73724091 0.27691796
-0.37193096 -0.51092070 0.20194946
-0.29825565 0.35136533 0.16194612
-0.28366613 -0.16181117 0.15402381
-0.24678873 0.16771840 0.13400035
-0.12423427 0.57595593 0.06745636
-0.68216449 -0.13877040 -0.00000125
-0.41744021 0.25178388 0.00000114
-0.16224431 0.17914040 0.08809471
-0.59004545 -0.06590879 -0.00000099
-0.24904352 -0.58240330 0.13522458
-0.50831038 0.13877676 0.27600127
-0.08314859 -0.76509315 0.04514766
-0.21838203 -0.04260290 0.11857613
-0.63657194 -0.48958728 0.34564373
-0.44019780 0.15285321 0.23901753
-0.48157364 -0.55907738 0.26148278
-0.46608934 0.06341802 0.25307599
-0.43413669 0.02357245 0.23572628
-0.39056471 0.18729277 0.21206781
-0.68900657 -0.63898343 0.37411422
-0.51061475 -0.58169377 0.27725145
-0.13096455 0.29691154 0.07111056
-0.45859975 0.16873516 0.24900945
-0.45656422 -0.55225801 0.24790327
-0.03666573 0.26007506 0.01990860
-0.56218415 0.05038752 0.00000173
-0.61868185 0.15034880 -0.00000103
-0.19918574 0.44065988 0.10815329
-0.52708989 -0.11950692 0.28619778
-0.52814227 0.11227488 0.00000135
-0.54125291 -0.26555115 0.29388782
-0.28260076 0.30256873 0.15344575
-0.76525599 -0.63467932 -0.00000041
-0.57991827 -0.41732246 0.31488207
-0.04022417 0.53144491 0.02184075
-0.16941297 -0.65739882 0.09198712
-0.26714846 -0.11319674 0.14505513
-0.35087901 -0.79643267 0.19051877
-0.17366931 0.46277636 0.09429842
-0.32907933 -0.73322290 0.17868207
-0.08183662 -0.13659030 0.04443530
-0.65325361 0.08038689 -0.00000052
-0.39663550 0.28524163 0.00000098
-0.28116968 0.06238140 0.15266836
-0.75723392 -0.09206017 -0.00000165
-0.41352618 0.25569475 0.00000115
-0.75110167 -0.05328522 -0.00000170
-0.00501956 -0.16369067 0.00272550
-0.35595033 0.00967803 0.19327267
-0.04077246 0.54172003 0.02213845
-0.37036204 0.11100849 0.20109807
-0.60900646 -0.06073725 -0.00000108
-0.64686698 -0.46340749 0.35123375
-0.36357689 -0.21170384 0.19741341
-0.27952835 0.49958330 -0.00000035
-0.05202703 0.13324855 0.02824941
-0.00220661 -0.22913481 0.00119814
-0.27994004 -0.66668791 0.15200064
-0.05832298 0.08120581 0.03166796
-0.24506287 0.01522831 0.13306318
-0.25451124 -0.77201486 0.13819341
-0.11984056 0.27972206 0.06507051
-0.16670994 -0.30497333 0.09051944
-0.05979976 -0.31318751 0.03246981
-0.14346933 0.30051827 0.07790036
-0.16194709 0.01982759 0.08793333
-0.28554428 -0.48932573 0.15504360
-0.78651708 -0.11907390 -0.00000170
-0.06858579 0.21817315 0.03724042
-0.04317319 0.70946884 0.02344203
-0.70505929 -0.12685116 -0.00000137
-0.32478485 -0.59484333 0.17635027
-0.53027946 0.08592147 0.28792992
-0.22004706 -0.13379031 0.11948020
-0.33004925 0.27738523 0.17920928
-0.19302605 0.05177827 0.10480845
-0.17932703 -0.60227084 0.09737022
-0.65391874 -0.06972554 0.35506335
-0.12514687 0.38647646 0.06795171
-0.79749227 -0.28438979 -0.00000129
-0.14596169 0.29411662 0.07925365
-0.31938305 -0.42335397 0.17341723
-0.26317555 0.38130125 0.14289837
-0.20631625 0.11166959 0.11202471
-0.42572230 0.17661010 0.23115766
-0.63207567 -0.18061340 0.34320283
-0.70052665 0.01113226 -0.00000028
-0.08861387 -0.50998080 0.04811518
-0.62742364 0.04939506 0.00000049
-0.69914252 -0.63537532 0.37961781
-0.58722591 -0.01946972 0.31885055
-0.77354735 -0.48320436 -0.00000079
-0.71370935 -0.09154893 -0.00000147
-0.54934466 -0.02086894 0.29828179
-0.40770778 -0.56959569 0.22137541
-0.17950734 0.29397038 0.09746813
-0.44497836 0.14769636 0.24161327
-0.45910731 -0.67497772 0.24928410
-0.06260815 0.49928594 0.03399470
-0.26143828 -0.43593752 0.14195463
-0.13361903 -0.56470466 0.07255189
-0.55140722 -0.58228683 0.29940090
-0.04055232 -0.26965579 0.02201892
-0.31910190 0.34420776 0.17326519
-0.50850129 -0.52266860 0.27610394
-0.19822645 -0.02925451 0.10763215
-0.01154254 -0.22431454 0.00626732
-0.34923914 -0.35615245 0.18962836
-0.12781401 -0.68946522 0.06939990
-0.26706201 0.38088235 0.14500864
-0.64095205 -0.50597769 0.34802198
-0.52163875 -0.15895116 0.28323787
-0.52248508 0.18312030 0.28369790
-0.39842376 -0.42157075 0.21633440
-0.69235706 -0.01035432 -0.00000152
-0.55904335 -0.17206100 0.30354780
-0.27132389 0.20045334 0.14732248
-0.73075914 -0.00184468 -0.00000170
-0.16561358 0.02784990 0.08992415
-0.45341200 -0.30045265 0.24619190
-0.30443326 -0.63389105 0.16529985
-0.79002935 -0.34920746 -0.00000113
-0.66789448 -0.64573866 0.36265084
-0.68964446 -0.63874632 0.37446058
-0.52947825 -0.00755959 0.28749478
-0.63288218 -0.78209907 0.34363973
-0.56449074 0.01754570 0.00000223
-0.35753736 0.38835257 0.19413485
-0.31485191 -0.40141270 0.17095692
-0.01624044 0.33744022 0.00881817
-0.03540195 -0.07339054 0.01922240
-0.07941708 -0.58928335 0.04312154
-0.35662910 -0.34430453 0.19364092
-0.74013239 -0.09908142 -0.00000157
-0.77954745 -0.11306355 -0.00000171
-0.31572002 0.43550801 0.00000003
-0.63575906 -0.25077388 0.34520274
-0.31417879 -0.04569521 0.17059147
-0.13324869 0.12770499 0.07235079
-0.49225914 -0.26548266 0.26728517
-0.44104803 -0.79029095 0.23947836
-0.51454628 -0.38770178 0.27938643
-0.73719686 -0.76199609 -0.00000010
-0.43822035 -0.65373296 0.23794299
-0.09567546 0.22479467 0.05194945
-0.60106570 0.10961719 -0.00000001
-0.33643436 0.11759041 0.18267603
-0.08540638 -0.73059112 0.04637359
-0.39061558 -0.15513135 0.21209493
-0.02141383 -0.53544831 0.01162719
-0.75230467 -0.70575213 -0.00000024
-0.65207744 0.12374326 -0.00000123
-0.69119805 0.00637438 0.37530535
-0.21883686 0.47583699 0.11882350
-0.40260243 -0.21731554 0.21860346
-0.38931361 0.25009513 0.21138859
-0.18564229 -0.35942093 0.10079924
-0.72732741 -0.14713781 -0.00000143
-0.77829921 -0.76722145 -0.00000008
-0.70587713 -0.44827732 -0.00000081
-0.33996394 0.01614889 0.18459237
-0.52828425 0.21977878 -0.00000045
-0.01935967 0.58488494 0.01051183
-0.14282043 -0.46761334 0.07754803
-0.08297585 0.18013796 0.04505387
-0.47389370 0.27125841 -0.00000027
-0.59324265 -0.01868695 0.32211754
-0.28444892 -0.54323626 0.15444887
-0.05862725 -0.09215233 0.03183317
-0.76105094 -0.53748488 -0.00000066
-0.34988371 -0.35333985 0.18997835
-0.16441251 0.14783220 0.08927200
-0.19180080 0.28789133 0.10414320
-0.43537542 -0.33341593 0.23639837
-0.11727319 0.45604056 0.06367649
-0.16838902 -0.62812078 0.09143114
-0.67865449 -0.02159861 -0.00000144
-0.04935243 -0.51359862 0.02679717
-0.06324842 -0.22210674 0.03434235
-0.68190181 -0.50227749 0.37025675
-0.36079103 -0.02006395 0.19590101
-0.60429978 -0.21815801 0.32812104
-0.39323702 0.23936021 0.21351890
-0.13796067 -0.12230954 0.07490929
-0.09684998 -0.26678410 0.05258718
-0.32707277 0.27951840 0.17759311
-0.38991094 -0.53402346 0.21171215
-0.67547858 -0.11646374 0.36676985
-0.65490162 0.00291350 0.35559714
-0.26996231 -0.63649750 0.14658298
-0.34174812 -0.18826047 0.18556091
-0.27277642 -0.40039426 0.14811097
-0.51285738 -0.30244422 0.27846953
-0.15891153 -0.08445482 0.08628509
-0.71649528 0.03933083 -0.00000105
-0.16770554 -0.72763133 0.09106003
-0.34392366 -0.39306465 0.18674219
-0.29895201 -0.02409604 0.16232368
-0.76525497 -0.11007681 -0.00000166
-0.17505758 -0.63796520 0.09505200
-0.02100106 -0.74190170 0.01140306
-0.20899780 0.52426887 0.11348116
-0.50434011 -0.18298166 0.27384502
-0.79238969 0.00223332 -0.00000189
-0.56842095 -0.04642862 0.30863982
-0.24918050 -0.61137950 0.13529895
-0.20109642 -0.73406279 0.10919046
-0.35537237 -0.73230678 0.19295855
-0.58240944 -0.75892431 0.31623423
-0.01802156 -0.43117848 0.00978527
-0.31698796 0.38634458 0.00000082
-0.06273418 0.34936380 0.03406314
-0.08704224 0.70084071 0.04726203
-0.35010627 -0.39228573 0.19009919
-0.11798546 0.61421609 0.06406344
-0.26268604 0.19364345 0.14263231
-0.65168852 -0.64948869 0.35385135
-0.44510406 0.29855826 -0.00000017
-0.60830426 -0.62491530 0.33029479
-0.51931387 0.09384125 0.00000182
-0.20563067 0.07373499 0.11165246
-0.57376206 0.04664453 0.31154004
-0.53182912 0.14828680 0.28877148
-0.36728853 0.29343697 0.00000141
-0.55206209 0.15428713 0.00000018
-0.34369341 -0.37230781 0.18661717
-0.27762419 0.26566014 0.15074353
-0.05030205 0.61699861 0.02731279
-0.73525572 -0.74723154 -0.00000013
-0.58571875 0.16986153 -0.00000072
-0.32792124 -0.41676342 0.17805327
-0.26678598 -0.09443564 0.14485832
-0.23725136 -0.34394020 0.12882172
-0.02061536 -0.61419582 0.01119364
-0.74387598 -0.12410017 -0.00000154
-0.73882455 -0.34408206 -0.00000113
-0.24513626 0.12955186 0.13310304
-0.51690900 -0.19059178 0.28066966
-0.25549239 -0.40171853 0.13872615
-0.48939225 -0.60102862 0.26572809
-0.12042578 0.60090286 0.06538846
-0.45008337 0.03404024 0.24438502
-0.42191252 0.06954134 0.22908887
-0.19348644 0.12521507 0.10505843
-0.61112112 -0.71454209 0.33182409
-0.03010824 0.76542860 0.01634811
-0.38059780 -0.01070956 0.20665570
-0.46344486 -0.26419809 0.25163960
-0.04383157 -0.58401126 0.02379948
-0.31299025 -0.21089645 0.16994609
-0.06025637 -0.08737600 0.03271774
-0.47808555 0.27250931 -0.00000037
-0.43770236 -0.57669008 0.23766173
-0.10911613 0.13813809 0.05924740
-0.37457931 -0.63557273 0.20338745
-0.70603710 -0.49859747 -0.00000072
-0.56047392 -0.47221932 0.30432409
-0.24803483 -0.25074244 0.13467687
-0.17320997 -0.44088167 0.09404880
-0.29947323 0.20421121 0.16260701
-0.09565489 -0.32188213 0.05193828
-0.16076680 0.45446810 0.08729261
-0.44292238 0.15124913 0.00000233
-0.26620889 0.33910370 0.14454536
-0.27183902 -0.28745008 0.14760198
-0.22295433 -0.16051109 0.12105879
-0.07889777 -0.51860088 0.04283957
-0.11614169 0.30595261 0.06306212
-0.76784885 -0.66002566 -0.00000035
-0.15406032 0.58657122 0.00000061
-0.40592542 -0.22823860 0.22040775
-0.03834099 0.17877452 0.02081822
-0.31200540 -0.05949045 0.16941135
-0.14601025 0.04005579 0.07928002
-0.22252323 -0.24502108 0.12082470
-0.02664782 -0.64631259 0.01446912
-0.61154372 -0.49004868 0.33205393
-0.54577947 -0.31140691 0.29634553
-0.26237631 -0.35127935 0.14246397
-0.30625913 0.11705378 0.16629151
-0.43151638 0.30131656 0.23430391
-0.54543000 0.05463685 0.00000198
-0.63713866 -0.29489926 0.34595177
-0.53749526 0.23698859 -0.00000092
-0.35102412 0.11822360 0.19059798
-0.31252724 0.07833171 0.16969489
-0.54282677 -0.78415132 0.29474172
-0.25562724 -0.17665024 0.13879938
-0.30480862 -0.74376947 0.16550367
-0.42572808 0.28441203 0.00000044
-0.23346521 -0.36788473 0.12676594
-0.33776692 0.19654919 0.18339971
-0.43102911 -0.28082582 0.23403849
-0.41612014 -0.39792913 0.22594310
-0.02686601 -0.05301115 0.01458759
-0.77946061 -0.52121478 -0.00000070
-0.35047314 -0.52501100 0.19029839
-0.19800027 0.50560522 0.10750969
-0.15116429 -0.39412284 0.08207854
-0.32674211 0.38498554 0.17741373
-0.65052301 0.04443356 0.00000013
-0.05703805 0.00256398 0.03097028
-0.72634351 0.01380215 -0.00000082
-0.43816954 -0.71554238 0.23791540
-0.61154771 -0.17610922 0.33205655
-0.08445907 -0.64891875 0.04585922
-0.37707135 0.26773435 0.00000165
-0.41304576 0.33752763 -0.00000021
-0.11977317 0.35366255 0.06503392
-0.57271874 -0.78302681 0.31097236
-0.10564819 0.45400432 0.05736440
-0.50738043 -0.27249330 0.27549568
-0.71060866 0.07981754 -0.00000162
-0.47862107 -0.16451548 0.25988013
-0.50628322 0.18011633 0.27490062
-0.42632920 -0.32071719 0.23148647
-0.14650518 0.01776824 0.07954874
-0.42708793 -0.62200445 0.23189837
-0.50585258 -0.08368256 0.27466640
-0.39380234 -0.69674015 0.21382509
-0.04697436 0.58667761 0.02550593
-0.62419802 -0.58644235 0.33892480
-0.66267598 -0.00578784 -0.00000140
-0.43405664 -0.57940471 0.23568220
-0.54235119 0.07624639 0.00000167
-0.52369559 0.25325790 -0.00000092
-0.48965439 -0.14172378 0.26587102
-0.32194033 0.39579296 0.00000057
-0.02571937 0.21164618 0.01396499
-0.64972609 -0.25629267 0.35278654
-0.62928998 -0.64683545 0.34168950
-0.65637356 -0.52157730 0.35639548
-0.09479085 -0.06716747 0.05146913
-0.56932586 -0.25533932 0.30913085
-0.10036159 0.31074920 0.05449390
-0.68458295 -0.11923452 0.37171331
-0.27982756 -0.43777096 0.15193956
-0.31655377 -0.23023453 0.17188101
-0.11823995 -0.51168048 0.06420142
-0.12235132 0.42698312 0.06643379
-0.60531259 -0.68673325 0.32867026
-0.73637122 -0.00882983 -0.00000171
-0.58212435 -0.00638918 0.31608054
-0.34239033 -0.60848904 0.18590963
-0.65083915 -0.18446220 0.35339102
-0.64432776 -0.42771783 0.34985507
-0.21867515 0.43929842 0.11873564
-0.57590204 -0.29996657 0.31270152
-0.27388516 -0.10386077 0.14871298
-0.62069935 0.10701107 -0.00000034
-0.44838181 -0.32356408 0.24346060
-0.66375870 -0.05680726 0.36040625
-0.14672841 -0.19155598 0.07966996
-0.22654270 -0.23202839 0.12300718
-0.04971262 -0.57839757 0.02699275
-0.36402395 -0.21916912 0.19765615
-0.21257573 -0.07199295 0.11542346
-0.52766520 -0.40728122 0.28650972
-0.01065517 -0.17960165 0.00578550
-0.29888260 -0.77556342 0.16228598
-0.56876832 -0.03790906 0.30882844
-0.76272446 -0.39775777 -0.00000101
-0.50127405 0.03346417 0.27218050
-0.79793406 -0.52285463 -0.00000069
-0.24553406 -0.57103956 0.13331902
-0.18494058 0.44715801 0.10041847
-0.65466124 0.05162084 0.35546666
-0.16962288 -0.13275054 0.09210110
-0.13902190 -0.42835709 0.07548551
-0.66354084 -0.02315641 -0.00000138
-0.13434701 0.33944771 0.07294716
-0.48927042 0.20641258 0.26566306
-0.18163064 0.08074859 0.09862102
-0.36735243 0.19384301 0.19946402
-0.66974175 -0.01053658 -0.00000143
-0.01932791 -0.37156808 0.01049458
-0.09892207 0.23777021 0.05371228
-0.14087504 -0.06460971 0.07649172
-0.73400348 -0.05499198 -0.00000162
-0.18989471 -0.18466505 0.10310821
-0.50961751 0.13868058 0.00000126
-0.36073551 -0.15871659 0.19587065
-0.46908972 0.15665193 0.00000174
-0.36117756 0.36209652 0.19611146
-0.70593667 -0.75781876 -0.00000011
-0.38490650 -0.00595869 0.20899525
-0.63271743 0.00576573 0.34355158
-0.61798859 -0.69338393 0.33555302
-0.75698078 -0.02997905 -0.00000176
-0.22900037 0.50383830 0.12434213
-0.65462047 -0.56519067 0.35544351
-0.39954802 -0.11957252 0.21694513
-0.03365054 -0.08854765 0.01827142
-0.50404108 0.06983466 0.00000252
-0.11854601 0.49055213 0.06436762
-0.60557920 -0.52177680 0.32881528
-0.28804344 -0.14439154 0.15640058
-0.58636558 -0.29624557 0.31838304
-0.16375546 0.39636278 0.08891530
-0.60603124 -0.47663239 0.32906079
-0.16785514 -0.29383290 0.09114126
-0.66360462 -0.40019876 0.36032200
-0.74495244 -0.46627551 -0.00000083
-0.06043000 -0.23417932 0.03281202
-0.39576417 0.27114263 0.00000123
-0.45760632 -0.29015225 0.24846935
-0.57322901 -0.02462479 -0.00000099
-0.13855764 0.62433296 0.00000027
-0.71537954 -0.35155940 -0.00000102
-0.49739158 -0.55515164 0.27007157
-0.50792235 0.14351843 0.27579057
-0.43157098 -0.72793287 0.23433256
-0.14176367 -0.40357780 0.07697423
-0.22812453 0.51662719 0.12386658
-0.32010117 -0.25751787 0.17380716
-0.05501725 0.62148821 0.02987303
-0.18195665 0.42847490 0.09879823
-0.35197705 -0.67852181 0.19111498
-0.59882325 -0.34235728 0.32514721
-0.12413191 0.48724535 0.06740065
-0.11571201 0.28241152 0.06282881
-0.06921741 -0.43553317 0.03758337
-0.46430367 -0.59269458 0.25210559
-0.47262987 0.11754436 0.00000232
-0.29442465 -0.17654638 0.15986542
-0.69756395 -0.58715278 -0.00000052
-0.15971442 0.57256639 0.00000073
-0.10821736 0.55989629 0.05875948
-0.04882855 -0.17823236 0.02651272
-0.43085665 0.30353662 0.23394568
-0.19405596 -0.48528925 0.10536767
-0.69205827 0.01881710 -0.00000024
-0.68009239 -0.11534382 -0.00000128
-0.13783556 -0.23170023 0.07484136
-0.21164231 -0.49342671 0.11491663
-0.07050573 -0.10501586 0.03828290
-0.54848081 -0.07418484 0.29781267
-0.45775953 -0.49093392 0.24855229
-0.12990303 0.15588929 0.07053420
-0.18267395 -0.61104691 0.09918751
-0.71811461 -0.71745765 -0.00000021
-0.22545192 -0.49619853 0.12241491
-0.65613353 -0.29623458 0.35626557
-0.14553902 -0.02163391 0.07902414
-0.41761610 0.21037759 0.00000183
-0.50553292 -0.08107747 0.27449283
-0.36897978 0.30133873 0.20034780
-0.44459692 0.09470259 0.24140608
-0.14842845 -0.19123888 0.08059304
-0.77817392 -0.23278165 -0.00000142
-0.65793729 -0.48908016 0.35724464
-0.17177781 0.54724264 0.09327150
-0.58482176 -0.51443273 0.31754440
-0.50968361 -0.49693254 0.27674595
-0.43270057 -0.23863015 0.23494612
-0.58105195 -0.05841825 0.31549817
-0.58971053 -0.45539892 0.32019904
-0.43718299 -0.23552491 0.23737998
-0.43592671 0.33961380 -0.00000068
-0.16579723 0.59014255 0.09002423
-0.36686435 0.21099949 0.19919904
-0.17858687 -0.18715373 0.09696833
-0.17811814 -0.20252740 0.09671382
-0.00356992 0.76221949 0.00193838
-0.24256212 -0.14572977 0.13170534
-0.03512001 -0.09560848 0.01906931
-0.64130473 -0.17277825 0.34821403
-0.55615097 -0.04737267 0.30197746
-0.77291864 -0.46684188 -0.00000083
-0.20032288 -0.74675512 0.10877046
-0.30642703 0.47905385 -0.00000052
-0.11729389 0.34527886 0.06368773
-0.16922735 0.49498609 0.09188657
-0.14086871 0.42617160 0.07648830
-0.41519985 -0.75878710 0.22544342
-0.44683400 -0.46329156 0.24262001
-0.08126296 -0.32287809 0.04412381
-0.12554467 -0.44301227 0.06816770
-0.59574997 -0.24993037 0.32347861
-0.09514706 -0.60978138 0.05166254
-0.46547750 -0.47586519 0.25274298
-0.58128166 -0.13946418 0.31562278
-0.42184305 -0.23269603 0.22905070
-0.18645540 0.50290072 0.10124106
-0.58190650 -0.71288842 0.31596118
-0.06341010 0.48099393 0.03443014
-0.73079562 -0.10639721 -0.00000152
-0.34090373 -0.50152630 0.18510243
-0.07330581 -0.02889441 0.03980327
-0.54493481 -0.18707792 0.29588711
-0.26955327 0.16320731 0.14636102
-0.00295556 0.56794846 0.00160480
-0.26522806 0.45679769 0.14401294
-0.02316308 0.10125614 0.01257699
-0.05577765 -0.06944703 0.03028591
-0.04721015 -0.49240285 0.02563396
-0.38549709 -0.78716278 0.20931555
-0.58525431 0.13897838 -0.00000020
-0.26507920 -0.17110807 0.14393157
-0.07971608 0.48489800 0.04328389
-0.54493624 -0.38883010 0.29588759
-0.57343459 0.14054984 0.31136239
-0.00263743 0.20227191 0.00143206
-0.56091112 -0.13050292 0.30456197
-0.19132462 0.19491617 0.10388461
-0.49483761 0.12586597 0.00000176
-0.12600222 0.52290964 0.06841624
-0.55587149 -0.73278713 0.30182469
-0.16936952 -0.67392057 0.09196353
-0.48746416 0.30965558 -0.00000121
-0.33826569 -0.01373930 0.18367021
-0.17281353 -0.51458764 0.09383355
-0.02742792 -0.56014353 0.01489269
-0.43199784 -0.69080848 0.23456433
-0.56069040 0.12101557 0.30444252
-0.66080868 -0.49251750 0.35880369
-0.47005162 -0.31405905 0.25522688
-0.46023580 -0.13965292 0.24989732
-0.13907932 -0.67654324 0.07551668
-0.58014578 -0.59778637 0.31500533
-0.01685625 0.03028844 0.00915254
-0.52546996 -0.38039842 0.28531781
-0.29279512 -0.03724232 0.15898062
-0.25199723 0.17777319 0.13682848
-0.00741820 0.03862753 0.00402790
-0.30085626 0.10976191 0.16335782
-0.65869302 -0.44607866 0.35765505
-0.32546118 -0.69012868 0.17671750
-0.13032101 -0.47606522 0.07076114
-0.00991147 -0.35897201 0.00538169
-0.14796650 -0.70588195 0.08034222
-0.65335923 0.00273073 0.35475963
-0.16151708 0.34927550 0.08769985
-0.14885631 -0.21734554 0.08082536
-0.62938166 -0.66061574 0.34173927
-0.42538700 0.22442701 0.00000145
-0.43636915 -0.69084746 0.23693784
-0.43222320 -0.06459727 0.23468716
-0.68110877 -0.56055188 0.36982605
-0.78945100 -0.60560548 -0.00000049
-0.59389603 0.11133670 0.32247248
-0.36230791 -0.15238225 0.19672446
-0.06390142 0.43305293 0.03469692
-0.28348616 0.37126803 0.15392661
-0.35260686 -0.09579822 0.19145706
-0.06342968 0.16711690 0.03444078
-0.05814558 0.20332474 0.03157164
-0.45344988 -0.38962930 0.24621233
-0.66073227 -0.64519823 0.35876191
-0.30817667 0.05839215 0.16733259
-0.11221024 0.37681448 0.06092743
-0.61076534 -0.62668127 0.33163109
-0.19213262 -0.08798511 0.10432334
-0.00702275 0.04523738 0.00381318
-0.61562467 -0.12431709 0.33427033
-0.72370642 -0.16132218 -0.00000139
-0.47573209 0.27954319 -0.00000044
-0.54050076 -0.10854720 0.29347962
-0.34596798 0.27003029 0.18785281
-0.00017847 0.44115740 0.00009690
-0.18857549 -0.05135457 0.10239191
-0.02565927 -0.33302304 0.01393236
-0.31590116 0.01810130 0.17152677
-0.10527331 -0.11045581 0.05716085
-0.48387936 0.12288833 0.00000202
-0.40941843 -0.20393994 0.22230442
-0.14715013 0.15665655 0.07989894
-0.39670226 0.39185366 -0.00000080
-0.35204941 0.16801082 0.19115476
-0.28329834 -0.47321156 0.15382411
-0.18195221 0.15835615 0.09879563
-0.20226714 0.41944516 0.10982640
-0.35219997 -0.23364954 0.19123600
-0.36702013 -0.54144967 0.19928300
-0.12334882 0.33433476 0.06697541
-0.67004287 -0.68672627 0.36381730
-0.03826287 0.71799976 0.02077584
-0.69064796 -0.00882606 0.37500665
-0.68108630 0.01564535 0.36981490
-0.55786681 -0.07029537 0.30290908
-0.33915907 -0.47104773 0.18415514
-0.52138746 -0.29554638 0.28310120
-0.36987823 0.32330713 0.20083568
-0.27231994 -0.45244324 0.14786310
-0.57529622 -0.00398182 0.31237301
-0.37295204 0.31266955 0.00000098
-0.24033216 -0.28562886 0.13049452
-0.58112299 0.00040246 0.00000220
-0.06927489 -0.11868742 0.03761458
-0.39764720 -0.53739649 0.21591277
-0.08005856 0.04113386 0.04346985
-0.25995633 0.40249544 0.14115043
-0.08679166 0.15622760 0.04712576
-0.70545441 -0.33977559 -0.00000100
-0.22091663 0.20882277 0.11995238
-0.20287237 0.58304799 -0.00000027
-0.59950793 -0.65072465 0.32551852
-0.37494764 -0.20755304 0.20358749
-0.10255154 0.20396861 0.05568299
-0.14904371 -0.14547694 0.08092711
-0.10477140 -0.50543624 0.05688832
-0.60405171 0.10874245 0.32798681
-0.22257023 0.10717318 0.12085022
-0.08737396 0.69507223 0.04744213
-0.15922122 -0.67973381 0.08645325
-0.20204140 -0.63392925 0.10970357
-0.76614112 -0.07755493 -0.00000172
-0.63944429 -0.66452676 0.34720302
-0.05203946 -0.20761107 0.02825616
-0.69420213 0.00959102 -0.00000013
-0.29549479 0.12620890 0.16044669
-0.54748511 -0.74234384 0.29727113
-0.55450726 0.15130891 0.30108523
-0.30977902 0.02312389 0.16820258
-0.11527174 0.24978969 0.06258975
-0.47190875 -0.12445778 0.25623554
-0.05809073 -0.55712360 0.03154186
-0.52431923 -0.75481492 0.28469259
-0.06108820 -0.39461458 0.03316941
-0.68612152 0.09248580 -0.00000136
-0.70855981 -0.18338247 -0.00000129
-0.64954066 -0.70729911 0.35268503
-0.59074664 -0.74147296 0.32076120
-0.27276415 0.15696251 0.14810446
-0.24408796 -0.49743393 0.13253383
-0.18568884 -0.09185417 0.10082453
-0.51529664 -0.31661242 0.27979401
-0.08631522 -0.49251631 0.04686707
-0.04565495 0.09186559 0.02478953
-0.44010288 0.20767735 0.00000144
-0.08166591 0.23680133 0.04434260
-0.44617191 -0.45133939 0.24226050
-0.48928809 0.07637443 0.26567245
-0.07826186 0.60071242 0.04249431
-0.63017809 -0.41151878 0.34217215
-0.37108952 -0.05189092 0.20149283
-0.73307282 -0.54268575 -0.00000064
-0.65523750 -0.56702876 0.35577852
-0.32612142 -0.65494543 0.17707600
-0.28792968 0.10782764 0.15633896
-0.50739181 -0.22685695 0.27550197
-0.53126490 0.21570744 -0.00000044
-0.16591702 -0.41339681 0.09008891
-0.54292548 -0.50145435 0.29479560
-0.14913771 -0.18754044 0.08097815
-0.21519774 -0.12769376 0.11684714
-0.42587426 -0.53737491 0.23123936
-0.00149717 -0.51345521 0.00081293
-0.54351044 -0.33896831 0.29511347
-0.75000948 -0.55674607 -0.00000061
-0.50873190 0.21262802 0.00000004
-0.28846738 -0.09984847 0.15663077
-0.68251878 -0.79649168 0.37059119
-0.35789022 -0.36976418 0.19432569
-0.41292101 -0.20007518 0.22420625
-0.22665474 -0.17654824 0.12306801
-0.63054842 0.03194811 0.34237385
-0.33335423 -0.14635879 0.18100324
-0.53481448 0.10450139 0.00000135
-0.21345347 0.40559366 0.11590033
-0.29727668 -0.55374920 0.16141400
-0.63995701 -0.47266808 0.34748179
-0.68531901 -0.53393602 0.37211215
-0.27233988 -0.71457940 0.14787392
-0.51033145 -0.08606296 0.27709833
-0.40903100 -0.10009348 0.22209422
-0.42465943 0.02498466 0.23058031
-0.38971293 -0.01560492 0.21160503
-0.78811944 -0.47502711 -0.00000081
-0.16032353 -0.01671810 0.08705178
-0.48688048 -0.71199083 0.26436427
-0.04931354 0.66570145 0.02677606
-0.31447899 -0.10282085 0.17075445
-0.74849206 -0.60232800 -0.00000049
-0.56939793 -0.76427066 0.30916923
-0.54513276 -0.48222128 0.29599413
-0.43957475 0.00036752 0.23867901
-0.78990567 -0.26643887 -0.00000133
-0.25029740 0.39766848 0.13590582
-0.13032857 -0.68216813 0.07076524
-0.61603773 -0.22535369 0.33449447
-0.69985348 -0.76700091 -0.00000008
-0.09765370 0.69138849 -0.00000006
-0.44763261 -0.57562262 0.24305363
-0.58020139 -0.46131441 0.31503573
-0.43082055 0.31196541 -0.00000012
-0.55197704 -0.35098043 0.29971066
-0.51940048 -0.69382983 0.28202185
-0.27163839 -0.24469146 0.14749303
-0.60684878 0.08986743 0.00000021
-0.31756312 -0.30162862 0.17242905
-0.03545444 -0.03495174 0.01925090
-0.22572121 0.53701562 0.12256165
-0.09378849 0.14601316 0.05092487
-0.76915067 -0.01026442 -0.00000185
-0.49217239 -0.37486503 0.26723790
-0.30573106 0.27496928 0.16600500
-0.69695663 -0.32433173 -0.00000099
-0.00194558 -0.17922337 0.00105640
-0.30637401 -0.06229221 0.16635363
-0.30527446 0.10878917 0.16575684
-0.02365440 -0.47914228 0.01284376
-0.06671250 0.19191335 0.03622326
-0.51229727 0.28158808 -0.00000127
-0.37225109 -0.79311681 0.20212328
-0.29943031 0.15112907 0.16258363
-0.01198694 -0.76032162 0.00650862
-0.20440982 0.47339794 0.11098991
-0.44447228 0.10173511 0.24133840
-0.01771922 0.72215009 0.00962111
-0.22212777 0.40775356 0.12061029
-0.30309835 -0.65784639 0.16457503
-0.56719458 0.19435178 -0.00000078
-0.66884750 -0.05056594 -0.00000135
-0.29709655 0.41598752 0.00000071
-0.15738206 0.03500110 0.08545462
-0.67159522 0.09347180 -0.00000110
-0.11428383 0.66946965 -0.00000001
-0.45859453 0.12419295 0.24900654
-0.63275564 -0.07838377 0.34357217
-0.07622008 -0.17965907 0.04138565
-0.08472293 0.52612472 0.04600249
-0.07993118 -0.18151549 0.04340069
-0.00870630 0.55711788 0.00472731
-0.29243705 0.21007548 0.15878652
-0.54624492 -0.06405972 0.29659864
-0.67917448 0.03963528 -0.00000034
-0.22912204 0.39918545 0.12440803
-0.03132226 -0.59560496 0.01700723
-0.60729951 0.09330566 0.32975030
-0.55798823 -0.58710057 0.30297425
-0.56931150 -0.06730975 0.30912331
-0.40704587 -0.57559437 0.22101602
-0.60406828 -0.12647247 0.32799545
-0.79621625 -0.29680574 -0.00000126
-0.19345650 0.22465950 0.10504218
-0.12968388 -0.19452545 0.07041520
-0.20234865 0.46307647 0.10987072
-0.65102822 -0.76199633 0.35349262
-0.11529380 -0.66477436 0.06260173
-0.28907421 0.41726178 0.15696087
-0.49364543 -0.11100118 0.26803812
-0.20744950 -0.36238420 0.11264004
-0.31172341 -0.44643065 0.16925824
-0.30416963 0.41441998 0.16515736
-0.15759131 -0.37250403 0.08556825
-0.70215052 -0.72445071 0.38125092
-0.11280457 -0.47463563 0.06125014
-0.11708756 -0.13485444 0.06357570
-0.48489064 -0.47628158 0.26328391
-0.33939403 -0.51145691 0.18428271
-0.08940583 -0.27892414 0.04854519
-0.33545709 -0.17229602 0.18214504
-0.75938100 -0.56529260 -0.00000059
-0.02303329 0.29074073 0.01250651
-0.73153490 -0.30361360 -0.00000117
-0.02911136 -0.44603419 0.01580676
-0.55111283 -0.25157398 0.29924154
-0.27134764 0.38875321 0.14733566
-0.38784504 0.31608459 0.00000064
-0.15445185 -0.56375742 0.08386359
-0.19661228 -0.04056165 0.10675570
-0.23863886 -0.73610491 0.12957510
-0.04162083 -0.18121867 0.02259910
-0.12218725 -0.67051756 0.06634471
-0.32884327 0.04108435 0.17855410
-0.69519031 -0.03345384 0.37747303
-0.11597838 -0.70496696 0.06297344
-0.30484307 -0.48067197 0.16552237
-0.21105129 0.46950260 0.11459608
-0.24682885 -0.62512869 0.13402207
-0.41256776 0.27645299 0.00000082
-0.46603218 -0.51178366 0.25304416
-0.27532259 0.52396727 -0.00000068
-0.33003187 -0.37467721 0.17919928
-0.32350162 0.45618612 -0.00000047
-0.42985237 0.10288456 0.23340011
-0.15385050 -0.51786005 0.08353708
-0.33281684 0.43927544 -0.00000037
-0.60474640 -0.39753935 0.32836327
-0.30972940 -0.21828516 0.16817553
-0.36285135 0.18345375 0.19702001
-0.22029437 0.51288742 0.11961495
-0.22590455 -0.38884878 0.12266068
-0.78036702 -0.60146499 -0.00000050
-0.27175069 0.07136322 0.14755404
-0.01072082 0.03753272 0.00582114
-0.29609120 -0.75060701 0.16077033
-0.72520936 -0.04081352 -0.00000161
-0.10193855 0.15230916 0.05535015
-0.59357345 -0.71023422 0.32229611
-0.41462865 -0.28370768 0.22513336
-0.62854868 -0.79087275 0.34128669
-0.26830530 -0.29121444 0.14568326
-0.59854829 -0.38158548 0.32499784
-0.30472931 -0.27383283 0.16546062
-0.31058490 -0.51062876 0.16864005
-0.04154683 -0.62058371 0.02255892
-0.23236613 0.39867029 0.12616950
-0.05079062 -0.70015836 0.02757807
-0.29892692 -0.71150523 0.16231003
-0.00535375 -0.33000442 0.00290696
-0.78534448 -0.32611093 -0.00000118
-0.17288089 -0.33627304 0.09387012
-0.06392601 -0.57925642 0.03471027
-0.05987916 0.51227182 0.03251293
-0.72446072 -0.49483708 -0.00000076
-0.02342359 -0.63954699 0.01271844
-0.47174159 0.10813275 0.25614512
-0.14432009 -0.70988601 0.07836230
-0.49785092 0.16186263 0.27032202
-0.75929469 -0.56613970 -0.00000058
-0.38653904 -0.22666201 0.20988135
-0.35502633 0.35054797 0.00000069
-0.02723103 0.42568728 0.01478578
-0.03106420 0.41788960 0.01686710
-0.04933550 -0.07652008 0.02678798
-0.28973040 -0.14525285 0.15731657
-0.00611160 -0.41057003 0.00331845
-0.31634289 -0.66056526 0.17176650
-0.09217041 -0.69424486 0.05004629
-0.05925211 -0.49128851 0.03217245
-0.41877052 -0.40025494 0.22738221
-0.34905860 -0.76501822 0.18953033
-0.60627532 -0.36123550 0.32919350
-0.62510777 -0.15881991 0.33941945
-0.20362869 -0.66211200 0.11056543
-0.01841370 0.02335286 0.00999819
-0.57674789 -0.39632922 0.31316066
-0.37090436 0.10279178 0.20139252
-0.20441736 -0.22432879 0.11099366
-0.02634861 0.28572315 0.01430666
-0.04429368 -0.30234033 0.02405039
-0.45591819 -0.63927400 0.24755248
-0.17443117 0.22245367 0.09471189
-0.53138512 -0.42763171 0.28852955
-0.05366875 0.55830443 0.02914083
-0.70598274 -0.50435579 -0.00000071
-0.05650530 0.17159104 0.03068101
-0.00374500 -0.56908500 0.00203344
-0.35702068 -0.17336278 0.19385356
-0.08752317 -0.08960405 0.04752296
-0.23417675 -0.37286246 0.12715229
-0.24134243 0.36660245 0.13104340
-0.25826240 0.49822146 0.14023080
-0.37263656 -0.57036906 0.20233259
-0.08503971 0.71242309 -0.00000021
-0.68075955 -0.18754338 0.36963716
-0.16462007 0.10412409 0.08938470
-0.06162667 -0.38576663 0.03346178
-0.30569422 -0.72685575 0.16598453
-0.24191415 0.03500279 0.13135350
-0.31751195 -0.20337200 0.17240128
-0.42964852 0.05240318 0.23328933
-0.23989905 -0.58950543 0.13025936
-0.24837054 -0.10660963 0.13485917
-0.54643989 -0.66330582 0.29670364
-0.43471417 -0.02417841 0.23603977
-0.35920149 0.30115288 0.00000143
-0.04559268 0.69377750 0.02475574
-0.26616395 0.41460878 0.14452106
-0.25962198 -0.77481920 0.14096843
-0.29166642 0.41111898 0.00000089
-0.31325689 0.46788317 -0.00000047
-0.03186055 0.02895588 0.01729951
-0.22893225 -0.26349926 0.12430464
-0.69316715 -0.77835196 0.37637305
-0.76514530 -0.72456533 -0.00000019
-0.41803825 -0.46381363 0.22698461
-0.20553359 0.54520053 0.11160019
-0.50578743 0.20338477 0.27463144
-0.58895278 -0.21891534 0.31978792
-0.51997435 0.14497128 0.28233457
-0.36240169 -0.06602658 0.19677550
-0.49988487 -0.54159671 0.27142537
-0.10874891 -0.50403428 0.05904801
-0.70735729 -0.49569499 -0.00000073
-0.39850542 0.37407914 -0.00000054
-0.07333985 0.62348521 0.03982179
-0.32648084 -0.79601824 0.17727114
-0.12715621 -0.16666543 0.06904273
-0.28605297 0.04676727 0.15531985
-0.42104003 -0.41729373 0.22861449
-0.37569898 -0.62177080 0.20399542
-0.65710336 -0.30096269 0.35679218
-0.11246373 -0.55223322 0.06106507
-0.38940534 -0.43091241 0.21143763
-0.35875320 -0.72631985 0.19479427
-0.57744205 0.14016947 0.31353837
-0.63004398 0.02678823 0.00000082
-0.17894095 -0.59432012 0.09716058
-0.78177476 -0.46171471 -0.00000085
-0.37535071 0.30659163 0.20380709
-0.49007246 -0.27741724 0.26609784
-0.04330456 0.01425938 0.02351332
-0.41562468 -0.30444801 0.22567417
-0.53107518 -0.25076461 0.28836149
-0.53606206 -0.64192593 0.29106873
-0.01267451 -0.53380328 0.00688195
-0.57688695 -0.29651484 0.31323633
-0.73501182 -0.64007664 -0.00000040
-0.29530117 -0.53162467 0.16034135
-0.50442773 -0.63181150 0.27389199
-0.49096870 0.07838899 0.00000263
-0.48228955 -0.17592183 0.26187202
-0.06363565 0.26140228 0.03455261
-0.14512193 0.40768075 0.07879769
-0.19472364 0.14786236 0.10573020
-0.08997368 0.33802545 0.04885352
-0.33508146 -0.64047241 0.18194109
-0.15014271 -0.76768810 0.08152384
-0.13699254 -0.69813967 0.07438362
-0.56231099 -0.19204758 0.30532202
-0.72209293 -0.71179825 -0.00000022
-0.30680126 -0.10241238 0.16658562
-0.69520301 -0.49361688 0.37747902
-0.26346254 -0.51483929 0.14305376
-0.35179448 0.27267554 0.19101650
-0.31979796 0.05920065 0.17364272
-0.56801832 0.12013726 0.00000045
-0.49735084 0.14098582 0.00000146
-0.15273093 -0.55589491 0.08292918
-0.31254476 -0.28225985 0.16970421
-0.23229048 -0.75471318 0.12612808
-0.02049480 0.38285846 0.01112818
-0.06163919 -0.62280035 0.03346858
-0.29291058 -0.68735850 0.15904333
-0.64964956 0.04613286 0.00000012
-0.63825947 0.09677033 -0.00000051
-0.63971585 -0.77816832 0.34735024
-0.31767610 -0.01628226 0.17249048
-0.19258362 0.57339275 0.00000009
-0.07337957 0.70127153 0.03984347
-0.72363341 -0.50161749 -0.00000075
-0.02231442 0.28444150 0.01211619
-0.26551881 -0.53811991 0.14417025
-0.38025087 0.20459238 0.20646763
-0.65726030 -0.52789009 0.35687697
-0.40420711 -0.14340465 0.21947488
-0.11174404 0.14592814 0.06067429
-0.59119278 -0.63098252 0.32100359
-0.11735058 0.14867654 0.06371851
-0.00788444 0.01572307 0.00428106
-0.20259789 0.47289854 0.11000606
-0.55912513 -0.56960654 0.30359158
-0.69145423 -0.56430233 0.37544340
-0.48952866 -0.21223161 0.26580265
-0.35307935 0.33474293 0.19171424
-0.75276172 -0.05589434 -0.00000170
-0.67486572 -0.46301258 0.36643639
-0.61110711 0.00303257 0.00000158
-0.17860293 0.01380940 0.09697706
-0.39772841 -0.41253352 0.21595687
-0.72629869 -0.68126595 -0.00000030
-0.78209370 -0.07874964 -0.00000178
-0.73366565 -0.57989401 -0.00000055
-0.55721176 0.11604989 0.30255368
-0.29173243 -0.71043712 0.15840361
-0.72503471 -0.69048125 -0.00000027
-0.47264776 0.00782370 0.25663698
-0.52769762 -0.43838650 0.28652728
-0.33584729 -0.73619950 0.18235691
-0.24090736 0.10559923 0.13080683
-0.13278507 -0.59584188 0.07209906
-0.19123603 0.51793653 0.10383688
-0.70012575 0.05423586 -0.00000099
-0.23701493 -0.28633252 0.12869336
-0.57682592 -0.65700120 0.31320262
-0.09766173 -0.65738183 0.05302794
-0.64986330 -0.01016919 0.35286143
-0.09263040 0.41076511 0.05029606
-0.54773968 -0.00038256 -0.00000092
-0.45361757 0.28018919 0.24630430
-0.16396996 0.17195690 0.08903171
-0.14293920 -0.22979464 0.07761250
-0.56498230 -0.18127519 0.30677247
-0.34417790 0.11322232 0.18688060
-0.50141704 0.23718466 -0.00000023
-0.36263782 -0.00162178 0.19690381
-0.40114036 -0.28992587 0.21780948
-0.24748275 0.09317615 0.13437711
-0.66295117 -0.77120298 0.35996649
-0.13103414 -0.50137812 0.07114835
-0.48106530 0.16692190 0.26120776
-0.15625747 -0.30722284 0.08484401
-0.29974949 0.30553126 0.16275716
-0.11310379 -0.25150183 0.06141261
-0.47258687 -0.22046363 0.25660357
-0.79615200 -0.04076736 -0.00000190
-0.37516770 0.33138847 0.20370775
-0.04855129 -0.42858979 0.02636217
-0.03528327 -0.58714134 0.01915796
-0.33609203 0.18704316 0.18249024
-0.61297202 -0.76180452 0.33282900
-0.06330676 -0.29061496 0.03437403
-0.42415112 0.23123297 0.00000136
-0.26473361 -0.58585584 0.14374392
-0.70869517 0.08980075 -0.00000175
-0.09365287 0.55761182 0.05085125
-0.06731539 0.37044924 0.03655062
-0.55251658 -0.36244982 0.30000359
-0.04126144 0.54959327 0.02240396
-0.01574770 -0.23997986 0.00855062
-0.19044708 -0.60285449 0.10340813
-0.09104337 0.21433841 0.04943434
-0.06052367 -0.46395174 0.03286288
-0.21400432 -0.47661653 0.11619915
-0.52470917 -0.19386449 0.28490499
-0.62804306 0.00845997 0.00000116
-0.42914650 0.18703341 0.00000200
-0.21991980 0.02467306 0.11941110
-0.18398045 0.15924136 0.09989691
-0.66230267 -0.22175062 0.35961542
-0.47576433 0.30421498 -0.00000085
-0.32778987 0.33348334 0.17798257
-0.23450941 -0.77526176 0.12733291
-0.41417015 0.35263234 -0.00000048
-0.21510766 0.48867410 0.00000107
-0.68781322 0.03861361 -0.00000049
-0.06694434 -0.28613985 0.03634915
-0.39527512 0.22151805 0.00000207
-0.09560683 -0.19814746 0.05191218
-0.73234576 -0.53611559 -0.00000066
-0.03085102 0.50844043 0.01675135
-0.05673324 -0.42752865 0.03080477
-0.16372269 -0.54312015 0.08889745
-0.75954354 -0.71599245 -0.00000021
-0.55574292 -0.74273998 0.30175489
-0.13516006 0.39991617 0.07338863
-0.17323412 0.57001603 0.00000051
-0.41517919 -0.03551089 0.22543266
-0.28258964 -0.32832333 0.15343930
-0.69596714 -0.08171589 0.37789473
-0.00748102 -0.12199110 0.00406201
-0.79713631 -0.67302579 -0.00000032
-0.42735729 -0.39216587 0.23204462
-0.71342462 -0.14732122 -0.00000137
-0.15328617 -0.08754696 0.08323066
-0.11286965 -0.08789887 0.06128547
-0.12573802 0.12748741 0.06827269
-0.24639726 -0.39138070 0.13378772
-0.35081810 0.10949116 0.19048609
-0.00130768 0.79820299 0.00071004
-0.05206075 -0.79470408 0.02826772
-0.13025345 0.20036688 0.07072446
-0.47056392 -0.30401269 0.25550503
-0.40619987 0.11503810 0.22055729
-0.42267415 0.12922168 0.22950251
-0.74654239 -0.57230920 -0.00000057
-0.44198042 0.19082528 0.23998551
-0.28540328 0.05939462 0.15496711
