ply
format ascii 1.0
element vertex 1233
property float x
property float y
property float z
end_header
-0.48995507 -0.34907478 0.00484091
-0.39934996 -0.25073966 0.00000551
-0.54374093 -0.76935560 0.00000660
-0.66856027 0.02185356 0.11961326
-0.37384593 -0.36372936 0.00000506
-0.20570548 -0.19728982 0.00000324
-0.49260908 0.24789789 0.09117494
-0.75960863 -0.71696866 0.04535189
-0.63394684 -0.21099737 0.07433897
-0.04066186 -0.11373037 0.00000135
-0.59488404 -0.73212653 0.00000727
-0.13240036 -0.48018682 0.00000200
-0.24816298 -0.18775824 0.00000376
-0.74950635 -0.73584175 0.03916166
-0.29063433 -0.41666892 0.00000399
-0.61309195 -0.65254653 0.00395614
-0.57070631 -0.07088172 0.07254107
-0.40947425 0.39003965 -0.00000004
-0.31749654 0.45513046 0.06033464
-0.26970288 -0.51370960 0.00000361
-0.01168191 -0.24318713 0.00000084
-0.33997348 0.41526237 0.06239473
-0.06838517 0.06925807 0.00001010
-0.28101921 -0.75284386 0.00000345
-0.61074984 -0.40663606 0.03833291
-0.19442622 0.38471308 0.00774489
-0.35156330 -0.22555842 0.00000496
-0.04928280 0.08455844 0.00001020
-0.41257763 0.38349074 -0.00000001
-0.76222783 -0.58404499 0.06527594
-0.09864155 -0.07263165 0.00000210
-0.32896751 0.18540949 0.02570450
-0.05686225 0.16295318 0.00000911
-0.01939098 -0.62268192 0.00000046
-0.03354330 -0.17774309 0.00000118
-0.11693504 -0.50860310 0.00000178
-0.41645685 0.11564585 0.04594530
-0.38827112 -0.37150073 0.00000522
-0.62759805 -0.43546072 0.04002871
-0.11079841 -0.21483038 0.00000207
-0.07295691 0.51251006 0.00000449
-0.75015885 -0.43069708 0.08304842
-0.09322794 0.48270857 0.00000456
-0.12460529 -0.42640206 0.00000197
-0.08842400 -0.31625929 0.00000167
-0.64837492 -0.34216264 0.06055545
-0.00676850 0.09212552 0.00001075
-0.16559280 -0.76921088 0.00000204
-0.45172995 -0.50361365 0.00000582
-0.73468602 -0.79389095 0.02573614
-0.24570192 -0.08982641 0.00000385
-0.26441252 0.45214477 0.04156977
-0.69843775 -0.45492199 0.06171540
-0.13623703 0.65095520 0.02573863
-0.53870797 -0.23533005 0.03795746
-0.19533806 0.59466136 0.00000117
-0.40851280 -0.63686049 0.00000514
-0.22981146 0.45786628 0.03043563
-0.15879972 -0.09285780 0.00000280
-0.50331920 0.15693471 0.08185933
-0.60752898 -0.25464311 0.05896802
-0.16668706 0.62356621 0.03233851
-0.03153865 0.05302394 0.00001086
-0.63331807 -0.38273039 0.04954953
-0.13916101 -0.01599910 0.00000266
-0.01499374 -0.24979322 0.00000087
-0.34237245 0.27666256 0.04339204
-0.41131628 0.28072619 0.06778986
-0.65915877 -0.44342804 0.04979123
-0.66457897 -0.16865143 0.09097974
-0.67412388 -0.19291054 0.09080591
-0.08882436 -0.32994369 0.00000166
-0.12201617 -0.65770149 0.00000165
-0.70159906 0.09166712 -0.00000150
-0.22228304 0.14959335 0.00000678
-0.33739620 -0.12506531 0.00000492
-0.69035280 -0.44676998 0.06008891
-0.25256765 0.23377059 0.00623217
-0.65106505 -0.41407681 0.05119498
-0.20439965 -0.46048141 0.00000289
-0.49479929 -0.49135301 0.00000636
-0.37270886 -0.77385855 0.00000453
-0.17022023 0.50478894 0.01656395
-0.26266912 -0.60100591 0.00000342
-0.44450518 -0.31357241 0.00000597
-0.63351327 0.02091124 0.10737159
-0.00128524 -0.06454314 0.00000092
-0.30936736 -0.14309391 0.00000456
-0.09211561 -0.68904632 0.00000125
-0.18232138 -0.46646041 0.00000262
-0.23945460 -0.11419090 0.00000375
-0.21739303 -0.09879196 0.00000350
-0.29657128 -0.32376918 0.00000418
-0.31893608 -0.01259346 0.00000483
-0.06623534 0.73202050 0.00000169
-0.71853000 -0.15417799 0.11168783
-0.53121871 0.12005274 0.08621989
-0.07058523 -0.40455195 0.00000135
-0.39965162 -0.70118946 0.00000495
-0.13415608 0.22812477 0.00000712
-0.40513277 -0.63429654 0.00000510
-0.05717308 0.18949530 0.00000877
-0.76665372 -0.02529631 -0.00000175
-0.42301035 0.13513306 0.05099749
-0.19204609 0.60166395 0.00000105
-0.18875100 0.31970704 0.00000516
-0.41797683 -0.10533609 0.01485141
-0.18788184 0.28264949 0.00000563
-0.26967952 -0.28642160 0.00000390
-0.52274865 -0.52822709 0.00000665
-0.48928207 -0.52846479 0.00000625
-0.48100594 -0.48274127 0.00000620
-0.35424525 0.34759083 0.05764215
-0.23135757 -0.36502680 0.00000334
-0.02243817 0.64165848 0.00000364
-0.06562791 -0.36416855 0.00000134
-0.11421962 0.51312292 0.00000386
-0.51114571 -0.79883528 0.00000617
-0.07304098 0.11160084 0.00000950
-0.42971835 -0.02863373 0.02988234
-0.77105159 -0.26396823 0.11412196
-0.60649818 -0.18321359 0.06883236
-0.09132689 -0.20350973 0.00000185
-0.22797582 0.01937100 0.00000832
-0.45167747 0.09783200 0.05556325
-0.35645115 0.29078367 0.05027597
-0.11206507 -0.71400404 0.00000146
-0.26853380 -0.70604306 0.00000336
-0.21283039 -0.02118965 0.00000354
-0.04792695 -0.21252577 0.00000131
-0.00516576 -0.54877549 0.00000038
-0.43059984 -0.71945542 0.00000530
-0.50169104 -0.39276221 0.00264409
-0.37456071 -0.27965057 0.00000517
-0.58850968 0.15954964 -0.00000020
-0.53664297 -0.53209293 0.00000681
-0.16313662 0.62771386 0.00000131
-0.14534271 0.07932714 0.00000882
-0.36900038 0.39571792 0.00000066
-0.23337404 0.39085674 0.02207832
-0.16636001 0.20802082 0.00000689
-0.41525376 0.24901450 0.06461261
-0.12344248 0.26596010 0.00000681
-0.11442849 -0.38689026 0.00000190
-0.20606171 -0.76311737 0.00000253
-0.19346666 0.05332018 0.00000841
-0.25574383 0.24470352 0.00889369
-0.72106880 -0.39494056 0.07811559
-0.65035939 -0.42373687 0.04956902
-0.03818605 -0.60530299 0.00000070
-0.24349608 -0.11280180 0.00000380
-0.38586351 -0.53847861 0.00000498
-0.76904112 -0.48947188 0.08116147
-0.68419456 -0.75559199 0.01377408
-0.63641220 -0.13441692 0.08614806
-0.01190435 0.60962069 0.00000420
-0.36249837 -0.26413029 0.00000505
-0.08103748 -0.27134439 0.00000164
-0.41535717 0.12207954 0.04648598
-0.00897167 -0.24056204 0.00000081
-0.31568354 0.26770917 0.03289138
-0.25904092 -0.65464807 0.00000331
-0.16277531 0.30173251 0.00000577
-0.08853154 -0.30915892 0.00000168
-0.77697659 -0.71252531 0.05198733
-0.07397139 0.49748418 0.00000467
-0.25207347 -0.46199584 0.00000347
-0.42354250 -0.47940654 0.00000551
-0.30563807 -0.61177367 0.00000392
-0.47413257 -0.49527952 0.00000610
-0.24291205 0.55046654 0.00000079
-0.54474431 -0.03324235 0.06895819
-0.05708642 -0.52709258 0.00000103
-0.25477850 0.35014284 0.02364690
-0.43131322 0.26357380 0.07224349
-0.53738421 -0.54379278 0.00000681
-0.02164120 0.04843464 0.00001107
-0.75117427 0.01258275 0.14682543
-0.06975197 0.12025004 0.00000944
-0.64329582 -0.71121615 0.00599526
-0.77824903 -0.68019390 0.05705299
-0.40773880 -0.68320471 0.00000507
-0.66078115 0.00867272 0.11504004
-0.18428192 -0.50565475 0.00000259
-0.22196677 -0.36406600 0.00000322
-0.35276669 0.44125354 0.00000032
-0.33228984 0.09213066 0.01350549
-0.30683485 -0.62275380 0.00000393
-0.04052940 -0.74576575 0.00000056
-0.18635023 -0.13348609 0.00000308
-0.77921093 -0.47035760 0.08740951
-0.34453693 -0.36066830 0.00000471
-0.35609207 -0.18501054 0.00000507
-0.59530133 -0.26232490 0.05364489
-0.69666058 -0.32881173 0.07914585
-0.32695213 -0.22477859 0.00000467
-0.61319876 -0.06891096 0.08750190
-0.00662710 -0.35527682 0.00000056
-0.02043120 -0.69724900 0.00000038
-0.11796613 -0.41751391 0.00000190
-0.67733854 -0.06726246 0.10989462
-0.42473063 0.36989465 -0.00000005
-0.62746793 0.08993848 0.11515995
-0.26175636 0.29462969 0.01811433
-0.52859956 0.20200358 0.00000034
-0.39888939 -0.00455587 0.02267775
-0.00273610 0.66589892 0.00000363
-0.16607448 -0.15826675 0.00000281
-0.61327904 0.03038961 0.10173796
-0.06255717 -0.27247393 0.00000141
-0.29129744 0.24057491 0.02058481
-0.33477479 -0.09438038 0.00000492
-0.59399194 -0.09094924 0.07771366
-0.34546086 -0.64743769 0.00000436
-0.21984448 0.21912280 0.00000594
-0.28142649 -0.60134768 0.00000365
-0.10628847 0.31110054 0.00000651
-0.51777875 -0.11211115 0.04835820
-0.08620717 -0.58699501 0.00000131
-0.14637622 -0.46528894 0.00000219
-0.29677632 0.49094775 0.00000069
-0.27073604 -0.69547218 0.00000340
-0.50842589 0.25465310 -0.00000002
-0.25514418 -0.22350301 0.00000380
-0.48716947 -0.70089740 0.00000600
-0.29443118 -0.02149082 0.00000453
-0.29320756 -0.16607733 0.00000433
-0.51084590 -0.46519396 0.00000658
-0.21182323 -0.47198671 0.00000297
-0.15025610 0.19784398 0.00000726
-0.15416397 0.04943028 0.00000906
-0.64392740 -0.67886102 0.01084295
-0.37118277 -0.31686866 0.00000508
-0.23378341 0.50890714 0.03911085
-0.67005408 -0.56540114 0.03610258
-0.24792089 -0.01601952 0.00000397
-0.08017224 -0.72527015 0.00000106
-0.02109610 0.21589154 0.00000898
-0.32433727 -0.23729739 0.00000462
-0.50040245 -0.62584013 0.00000626
-0.17183764 0.51169878 0.01811137
-0.16013265 0.30911726 0.00000572
-0.49491078 0.18272568 0.08264495
-0.29967430 0.40881810 0.04755147
-0.53081542 -0.42150891 0.00859180
-0.39312991 -0.10407677 0.00644833
-0.75387239 -0.74723500 0.03903971
-0.08352206 -0.62762398 0.00000122
-0.47523713 -0.28277054 0.00924373
-0.16800909 -0.78636676 0.00000205
-0.74146336 -0.22537345 0.10942314
-0.05741389 -0.00959696 0.00000168
-0.73272753 -0.13741544 0.11899076
-0.03179334 0.15258515 0.00000961
-0.11754424 -0.19802614 0.00000217
-0.48871902 0.25322977 0.09059403
-0.72476232 -0.20503406 0.10656407
-0.54375839 -0.61119783 0.00000680
-0.25153968 0.50433856 0.04459099
-0.24385168 -0.76047808 0.00000299
-0.32776245 -0.49067584 0.00000434
-0.20470101 -0.41905653 0.00000295
-0.54015905 -0.55873692 0.00000682
-0.10262414 -0.12525578 0.00000208
-0.00473857 0.69780773 0.00000321
-0.69284195 -0.18648337 0.09819161
-0.31665128 0.43584988 0.05728391
-0.53465444 -0.28907058 0.02886778
-0.34130955 0.43113729 0.06512771
-0.45511642 -0.17135854 0.01823438
-0.36787769 0.17644884 0.03786376
-0.20275135 0.12790576 0.00000734
-0.52803499 -0.13709763 0.04832601
-0.39538664 -0.12984516 0.00354086
-0.15426105 -0.55169415 0.00000217
-0.14656763 0.23313399 0.00000687
-0.67795539 -0.21032596 0.08963761
-0.45924157 -0.75280911 0.00000560
-0.05473593 0.30553612 0.00000735
-0.11747607 0.33870351 0.00000599
-0.27302295 -0.25421780 0.00000398
-0.40991107 0.33430883 0.07497125
-0.49977392 -0.08002448 0.04672958
-0.71234065 -0.17719257 0.10625673
-0.42814332 -0.27651373 0.00000582
-0.28864494 -0.79994476 0.00000348
-0.10931321 0.66850895 0.01894956
-0.33082885 -0.04304898 0.00000494
-0.29869458 -0.39798084 0.00000411
-0.59983271 -0.46209118 0.02662689
-0.31380352 -0.13841490 0.00000461
-0.59726983 0.11837804 0.10879737
-0.16176970 -0.03455382 0.00000291
-0.69926834 -0.00220686 0.12677860
-0.00723780 -0.31385374 0.00000070
-0.35104433 -0.23837249 0.00000494
-0.18216024 -0.05364301 0.00000313
-0.00521381 -0.37281561 0.00000053
-0.67035782 -0.66476303 0.02199042
-0.44363046 -0.17108734 0.01430540
-0.39194456 0.11403175 0.03724667
-0.40314731 -0.19289419 0.00000563
-0.22769308 -0.15270691 0.00000356
-0.11692787 -0.02671991 0.00000238
-0.40382034 -0.09107720 0.01200132
-0.32908696 -0.42791960 0.00000444
-0.17498711 0.26724750 0.00000602
-0.68865299 0.05441501 0.13121323
-0.72439337 -0.12413869 0.11801146
-0.40247300 -0.69386804 0.00000499
-0.78201371 -0.05191123 -0.00000181
-0.09551063 -0.51107854 0.00000151
-0.30602893 -0.56807601 0.00000398
-0.29193875 -0.31955224 0.00000412
-0.43601307 -0.00011148 0.03613790
-0.45421800 -0.52021152 0.00000583
-0.35545251 -0.17480493 0.00000507
-0.46782792 -0.31919599 0.00147235
-0.57975584 0.21217492 -0.00000078
-0.30953431 0.22935507 0.02527929
-0.70823479 -0.04281551 0.12406556
-0.79373443 -0.28755766 -0.00000128
-0.65437049 -0.04441249 0.10522985
-0.13180062 -0.44553447 0.00000203
-0.42369458 -0.20700087 0.00227998
-0.69517565 -0.69908023 0.02565339
-0.14091814 0.54166430 0.01171793
-0.03181763 0.43664590 0.00000606
-0.55769610 -0.45738116 0.01274489
-0.04484156 0.30473864 0.00000751
-0.28175998 -0.16175038 0.00000420
-0.02702848 -0.17316677 0.00000111
-0.56963873 0.12596223 0.10033749
-0.58665961 0.19227229 -0.00000063
-0.33383408 -0.19763327 0.00000478
-0.72350848 0.04324290 -0.00000115
-0.28216147 0.26398307 0.02077816
-0.67493469 -0.62323505 0.02951348
-0.10912398 -0.02078290 0.00000229
-0.13115253 -0.31428662 0.00000219
-0.00378985 -0.76952976 0.00000004
-0.20475665 0.58437592 0.00000113
-0.51180148 0.18854555 0.08931251
-0.73154145 0.05047159 -0.00000140
-0.76229513 -0.28502956 0.10808354
-0.12509617 -0.21437678 0.00000224
-0.47522685 0.30186316 0.09289187
-0.36389592 -0.35112941 0.00000495
-0.08122728 0.22651713 0.00000794
-0.21905294 0.27313074 0.00028645
-0.18539469 -0.36278385 0.00000278
-0.55596554 -0.21743804 0.04647908
-0.67498553 -0.37219170 0.06545130
-0.00655334 -0.70000356 0.00000020
-0.43141603 -0.48468402 0.00000560
-0.16161643 0.13917196 0.00000782
-0.55042028 -0.63308209 0.00000685
-0.56085050 -0.47500008 0.01131359
-0.06053870 -0.71088898 0.00000084
-0.79358464 -0.66386020 -0.00000034
-0.04133430 0.73321009 0.00472421
-0.54318768 -0.35302299 0.02266499
-0.65797490 -0.29613233 0.07045792
-0.28748640 -0.65128833 0.00000366
-0.16205767 0.41749212 0.00125345
-0.24175189 0.47488943 0.03699614
-0.72898370 -0.73794025 0.03177196
-0.71063983 -0.22252555 0.09918276
-0.63766074 -0.28392518 0.06518713
-0.23216683 -0.13190608 0.00000364
-0.63745940 -0.74459773 0.00000776
-0.01889301 0.02173476 0.00001144
-0.08328559 0.28031710 0.00000724
-0.36906412 -0.10462555 0.00000532
-0.13623226 0.24493922 0.00000688
-0.08131986 -0.47697693 0.00000139
-0.02850169 0.75291216 0.00311028
-0.54243118 -0.58716935 0.00000681
-0.75987047 0.03411867 -0.00000179
-0.00034441 -0.25244662 0.00000068
-0.46364421 0.31168994 0.09029675
-0.58523047 -0.27191544 0.04879369
-0.05468262 0.40898395 0.00000606
-0.29339388 0.23981059 0.02119965
-0.19916530 -0.29762673 0.00000303
-0.25714922 -0.38826549 0.00000362
-0.64594018 -0.26353836 0.07096424
-0.09973004 -0.10771872 0.00000207
-0.68334442 -0.30182824 0.07840673
-0.66810066 -0.68203527 0.01873930
-0.12553917 0.56318873 0.00948513
-0.73885947 -0.17078353 0.11633458
-0.26123077 0.41427410 0.03505196
-0.39146131 0.06210002 0.02964914
-0.30667564 0.31615195 0.03671101
-0.50833631 -0.54286760 0.00000646
-0.27764991 0.44805652 0.04555761
-0.45159790 -0.18189964 0.01551066
-0.79847389 -0.69824982 -0.00000025
-0.06811749 0.09409770 0.00000980
-0.38958552 -0.57103294 0.00000499
-0.62179130 -0.26809004 0.06197084
-0.13847351 -0.14880317 0.00000249
-0.44583499 -0.55084330 0.00000569
-0.44455564 -0.53304625 0.00000570
-0.16982280 0.62525260 0.00000122
-0.36700711 0.14436463 0.03297228
-0.29948816 0.04419069 0.00000693
-0.45061412 -0.17946033 0.01551984
-0.15948428 0.45776445 0.00612681
-0.08765304 0.32940415 0.00000656
-0.09224788 -0.60297328 0.00000136
-0.14219995 0.25040177 0.00000672
-0.42211643 -0.29968306 0.00000572
-0.16879803 -0.71236634 0.00000215
-0.46367109 -0.73581928 0.00000568
-0.75766224 -0.58878487 0.06302057
-0.76899850 -0.68530864 0.05312561
-0.34573391 -0.09171109 0.00000506
-0.37019739 -0.33307061 0.00000505
-0.60335767 -0.14923695 0.07260898
-0.70057100 0.01090235 -0.00000025
-0.12838244 0.33755210 0.00000584
-0.24880672 0.02056117 0.00000799
-0.65092957 -0.53134382 0.03436916
-0.58558500 -0.20003526 0.05920106
-0.18175730 -0.08398192 0.00000309
-0.24277633 0.00708062 0.00000825
-0.23795938 -0.21379019 0.00000361
-0.27842972 0.13748661 0.00138943
-0.58414567 0.05226655 0.09480418
-0.45504871 -0.03456648 0.03778373
-0.21532190 0.47273219 0.02755734
-0.49902523 -0.00705417 0.05691183
-0.06717456 0.39629707 0.00000603
-0.73941338 -0.18239763 0.11486413
-0.49027482 0.22199742 0.08666263
-0.32679087 -0.23414072 0.00000465
-0.65373158 -0.74116600 0.00531491
-0.63440746 -0.36769846 0.05207668
-0.47236300 -0.37126023 0.00000624
-0.50577384 0.10701179 0.07556411
-0.35194373 0.40968791 0.00000079
-0.61939979 -0.07476752 0.08880605
-0.33074531 -0.56703603 0.00000428
-0.35803097 -0.37661397 0.00000485
-0.18953785 0.53904015 0.02813794
-0.45781645 -0.78616017 0.00000554
-0.19263907 -0.30837989 0.00000294
-0.00233795 -0.19973826 0.00000075
-0.54232579 -0.56632590 0.00000684
-0.09127551 0.30492747 0.00000681
-0.41471785 0.36459619 0.08096536
-0.00302093 -0.40312693 0.00000053
-0.32360187 -0.34743637 0.00000447
-0.02727890 -0.42501950 0.00000080
-0.27835661 -0.27842560 0.00000401
-0.74443734 -0.80165565 0.02799367
-0.39734370 -0.40260345 0.00000529
-0.18630743 0.17743728 0.00000697
-0.11738358 -0.42371476 0.00000189
-0.65627116 -0.68934172 0.01360743
-0.60726827 -0.05631119 0.08725606
-0.74779433 0.01719055 -0.00000124
-0.65299070 0.04895282 0.11811229
-0.13249385 -0.79838687 0.00000160
-0.74223286 -0.72596103 0.03806284
-0.10609304 -0.39684492 0.00000178
-0.64663517 -0.44866472 0.04471572
-0.17031145 0.44122350 0.00750027
-0.18478204 0.51671684 0.02330096
-0.45412168 -0.73712182 0.00000556
-0.16261995 0.57337844 0.02375252
-0.34489536 -0.73489994 0.00000424
-0.40235358 -0.19025715 0.00000562
-0.52283812 -0.59758711 0.00000656
-0.03846879 0.30862394 0.00000756
-0.47398701 0.24863359 0.08484728
-0.62404907 0.03481649 0.10609183
-0.13101362 -0.26444352 0.00000225
-0.56518769 0.02840632 0.08484121
-0.31026962 -0.51707315 0.00000410
-0.35102192 0.14897232 0.02810954
-0.42117807 0.37096697 0.00000001
-0.75849962 -0.41223145 0.08857184
-0.76200634 -0.56734878 0.06758839
-0.17306252 0.49071425 0.01553194
-0.10218066 0.07890422 0.00000947
-0.20497997 0.13291700 0.00000725
-0.04778501 -0.37240073 0.00000111
-0.77298564 -0.42379165 0.09192186
-0.00465228 0.67710692 0.00000347
-0.43838865 0.30127963 0.08008276
-0.79937977 -0.45624921 -0.00000086
-0.72688752 -0.00017023 0.13661093
-0.23295823 0.09032467 0.00000736
-0.13811304 -0.35914630 0.00000222
-0.40755507 -0.54879797 0.00000523
-0.25773245 0.06613907 0.00000728
-0.07857057 0.37908125 0.00000608
-0.61777961 -0.55358911 0.01973468
-0.45677441 0.19770630 0.07161437
-0.03762616 -0.43871984 0.00000091
-0.54097223 -0.52861905 0.00000687
-0.13947709 -0.55355597 0.00000199
-0.70510566 -0.74098301 0.02308803
-0.09265312 0.12591805 0.00000903
-0.17389069 0.05350622 0.00000871
-0.62613565 -0.26916766 0.06331739
-0.30530131 -0.51050532 0.00000405
-0.41339687 -0.29978245 0.00000562
-0.25865981 0.40496033 0.03283119
-0.25337598 -0.50213838 0.00000343
-0.09462876 -0.29996046 0.00000177
-0.10713122 -0.47422427 0.00000170
-0.16682366 0.35170609 0.00000509
-0.42223045 0.22947802 0.06422733
-0.16873915 0.16683035 0.00000737
-0.63478893 -0.75061142 0.00000772
-0.01257180 0.30114609 0.00000805
-0.04771976 0.45748061 0.00000556
-0.75306058 -0.06342795 0.13660115
-0.22799310 0.12757093 0.00000697
-0.00213096 0.43687081 0.00000651
-0.02098832 0.40937862 0.00000657
-0.36773452 0.12450316 0.03038171
-0.21585466 0.19556296 0.00000630
-0.06089431 -0.59163636 0.00000100
-0.30760753 -0.78898382 0.00000373
-0.33852392 0.06327482 0.01153022
-0.27649578 0.38173637 0.03566957
-0.17384966 0.60461509 0.00000144
-0.05270305 -0.51100898 0.00000100
-0.75960851 0.03860700 -0.00000177
-0.74328995 -0.03081846 -0.00000159
-0.12168987 0.03569433 0.00000972
-0.03691272 -0.71571255 0.00000055
-0.41900024 -0.39156923 0.00000557
-0.03230966 0.44536772 0.00000595
-0.73613822 -0.05554158 0.13188381
-0.25042689 0.27882457 0.01193915
-0.70227265 -0.15932868 0.10533481
-0.64950711 -0.39835337 0.05290656
-0.30807942 -0.38308182 0.00000424
-0.66567516 0.05624092 -0.00000022
-0.66562980 -0.43679687 0.05297545
-0.48589745 -0.78936404 0.00000588
-0.65858173 -0.30220696 0.06979837
-0.25409940 0.12708536 0.00000658
-0.50493050 -0.76310235 0.00000614
-0.27940848 -0.35403791 0.00000393
-0.03196000 0.67077589 0.00000313
-0.16384569 0.37351421 0.00000486
-0.22079962 0.22377707 0.00000587
-0.06895491 -0.28194541 0.00000148
-0.09859161 -0.50981528 0.00000155
-0.74717158 -0.04285271 0.13751082
-0.15274626 0.02581138 0.00000937
-0.66838014 -0.52068549 0.04192242
-0.14205278 -0.24902289 0.00000240
-0.73128372 -0.11145047 0.12220718
-0.26699880 0.40949354 0.03636049
-0.52928072 -0.44125578 0.00523618
-0.17029367 -0.72211933 0.00000215
-0.15871032 0.31278345 0.00000570
-0.27136746 0.14672644 0.00027187
-0.08100160 0.36057463 0.00000627
-0.61979121 -0.42148927 0.03933096
-0.65363055 -0.36253613 0.05945587
-0.27996975 -0.12096915 0.00000423
-0.73535621 -0.79704529 0.02551633
-0.22993550 -0.72712463 0.00000287
-0.34103316 0.10805408 0.01880422
-0.57822365 0.13435687 0.10450426
-0.33293962 -0.14417011 0.00000484
-0.63927722 -0.57928944 0.02348364
-0.22178122 0.07039965 0.00000777
-0.69277495 -0.66241807 0.03006985
-0.49761605 0.24170902 0.09201904
-0.45337960 -0.41373467 0.00000596
-0.17981257 0.12176732 0.00000776
-0.64878136 -0.04704018 0.10292314
-0.60971248 -0.41271669 0.03710451
-0.42056811 0.37925941 -0.00000010
-0.28824574 0.31592384 0.03031184
-0.04686029 -0.46154809 0.00000099
-0.25032082 -0.53734380 0.00000335
-0.10597625 0.28868955 0.00000679
-0.42432719 -0.03927522 0.02649736
-0.71165311 -0.48780054 0.06157620
-0.47227928 -0.18292451 0.02250831
-0.70005417 -0.06995458 0.11735644
-0.35669860 -0.56032944 0.00000461
-0.16862930 -0.66182679 0.00000221
-0.18542911 -0.77900308 0.00000226
-0.51937324 -0.59941196 0.00000652
-0.53408247 -0.68152124 0.00000660
-0.14085646 -0.55569673 0.00000201
-0.09327775 0.59950376 0.00353664
-0.37121129 0.07884589 0.02504991
-0.35723266 -0.00316144 0.00848712
-0.21443436 0.26005414 0.00000551
-0.36948538 -0.55919915 0.00000476
-0.09437913 0.12688471 0.00000899
-0.32886356 -0.24909981 0.00000466
-0.48448068 -0.77550542 0.00000588
-0.55458784 -0.66197854 0.00000687
-0.66065872 -0.30465427 0.07016569
-0.50407058 -0.35803255 0.00843535
-0.62886447 -0.55789489 0.02294781
-0.48307621 0.15241773 0.07422016
-0.41181445 -0.25122705 0.00000566
-0.06207628 0.11525942 0.00000962
-0.16098496 -0.67546475 0.00000210
-0.00250420 -0.28886953 0.00000067
-0.17096891 -0.61238438 0.00000230
-0.45605662 -0.32193351 0.00000610
-0.76157504 -0.76182151 0.03961345
-0.04621077 0.74447316 0.00802033
-0.59443438 -0.44119692 0.02775169
-0.56154436 0.04071131 0.08534329
-0.67690045 -0.17191398 0.09476934
-0.15546398 -0.36743778 0.00000242
-0.53718042 0.01054106 0.07260999
-0.65348983 -0.41920984 0.05129815
-0.00557582 0.61222547 0.00000426
-0.12729023 -0.64794624 0.00000173
-0.72957730 0.01641882 0.13991374
-0.68855578 0.07555024 -0.00000093
-0.66547757 -0.54345310 0.03766206
-0.63089222 -0.36761969 0.05087362
-0.11950628 0.14596300 0.00000837
-0.67833114 0.10914832 -0.00000121
-0.08888479 0.56593716 0.00000358
-0.65620905 -0.51983291 0.03783996
-0.20158499 -0.11906319 0.00000328
-0.01670133 0.39360869 0.00000683
-0.65563154 -0.17560707 0.08689364
-0.06114802 0.54771781 0.00000423
-0.03556500 0.68162340 0.00000294
-0.12963799 -0.40604746 0.00000206
-0.03361435 -0.53774047 0.00000073
-0.24854426 -0.57263881 0.00000328
-0.56684899 -0.63451612 0.00000705
-0.19085111 -0.40100729 0.00000280
-0.24305680 0.47064587 0.03683974
-0.38468480 0.09285686 0.03170903
-0.56238270 -0.53810680 0.00281330
-0.30646089 0.19076285 0.01869566
-0.73659909 -0.23539075 0.10630949
-0.31816357 0.19493601 0.02333541
-0.40856409 -0.41067490 0.00000542
-0.25879812 0.41762272 0.03469075
-0.12286364 0.00963706 0.00001003
-0.02477686 0.35664824 0.00000717
-0.08221120 -0.50587976 0.00000136
-0.12497385 0.61160249 0.01621707
-0.07536133 0.51025355 0.00000448
-0.32861289 -0.08692517 0.00000486
-0.51516455 -0.75326622 0.00000628
-0.07673332 -0.39104569 0.00000144
-0.17516568 -0.65480304 0.00000230
-0.64254403 -0.31249496 0.06278615
-0.44495910 0.22610067 0.07159560
-0.49343079 -0.40089402 0.00000646
-0.70682555 -0.50928521 0.05683443
-0.11626090 -0.38378587 0.00000192
-0.07086823 -0.02547951 0.00000182
-0.05117401 0.06846392 0.00001037
-0.34281456 -0.51765805 0.00000449
-0.01689019 0.38029683 0.00000699
-0.30343443 0.00120264 0.00000741
-0.23559673 0.32010692 0.01272297
-0.05204127 -0.19272666 0.00000139
-0.26350930 -0.75827193 0.00000323
-0.29438493 -0.14375433 0.00000437
-0.46115461 -0.49201727 0.00000595
-0.16345809 0.57944453 0.02491001
-0.44892406 0.01042711 0.04210586
-0.51414621 -0.68605071 0.00000635
-0.23174945 -0.51589745 0.00000315
-0.18483071 -0.66199213 0.00000240
-0.31260875 0.22076304 0.02511196
-0.68539476 -0.26835209 0.08390492
-0.24544472 -0.17145319 0.00000375
-0.30928692 0.01947362 0.00000709
-0.24175619 -0.11007068 0.00000378
-0.39037240 -0.22388504 0.00000543
-0.57612014 -0.40229908 0.02699076
-0.74905115 0.01218398 0.14603499
-0.43963888 0.04281091 0.04353194
-0.67197937 -0.44602564 0.05384839
-0.61261821 -0.41369322 0.03796856
-0.67282164 -0.62836474 0.02804955
-0.61623979 -0.41646791 0.03882261
-0.33594307 0.17883685 0.02717374
-0.36823529 0.26518166 0.05068353
-0.15322192 0.44432893 0.00204109
-0.63918084 -0.05236013 0.09884548
-0.36888897 -0.74809760 0.00000452
-0.35126570 -0.53797638 0.00000457
-0.17496029 0.12578242 0.00000779
-0.73227549 -0.53035933 0.06261062
-0.38719535 0.31287292 0.06405706
-0.35133061 0.11682260 0.02361607
-0.56203592 0.17691597 0.00000006
-0.33076909 -0.74410307 0.00000406
-0.21256034 0.51297182 0.03236101
-0.40528113 -0.17819960 0.00004013
-0.34308112 0.44950300 0.00000039
-0.56612206 -0.69653022 0.00000696
-0.21067114 -0.43798792 0.00000300
-0.41814891 -0.54000628 0.00000537
-0.29307011 0.48143670 0.05566063
-0.69856322 -0.11835731 0.10991575
-0.12731270 -0.41097286 0.00000202
-0.68288809 -0.71361548 0.01932894
-0.19338305 -0.58979988 0.00000260
-0.78695130 -0.00184415 -0.00000191
-0.40582687 -0.73846674 0.00000498
-0.77326643 -0.75023007 0.04531073
-0.74830359 -0.13990960 0.12401458
-0.31671357 -0.33963096 0.00000440
-0.27393356 0.19031540 0.00739520
-0.62974840 -0.66400915 0.00806994
-0.58901411 -0.66310900 0.00000728
-0.27617097 -0.36339611 0.00000388
-0.05597951 0.18318674 0.00000887
-0.13644327 0.25991493 0.00000669
-0.30128458 0.23770836 0.02362468
-0.24270739 -0.68118334 0.00000308
-0.05257276 0.15893544 0.00000922
-0.41731730 -0.38005120 0.00000556
-0.71220297 0.04477817 0.13796961
-0.41204280 -0.60277420 0.00000522
-0.08952211 0.28877187 0.00000704
-0.02550867 -0.06863778 0.00000122
-0.02003233 0.62135214 0.00000393
-0.05361585 -0.12439234 0.00000149
-0.14956599 0.43339065 0.00000433
-0.15999115 0.40064207 0.00000458
-0.10027166 0.15629680 0.00000853
-0.79408705 -0.47058135 -0.00000082
-0.11578221 0.30828771 0.00000640
-0.18261398 0.09501602 0.00000806
-0.23177280 0.36769116 0.01821055
-0.59073228 -0.02077847 0.08662793
-0.52004308 0.23637536 0.00000002
-0.08337700 0.22979020 0.00000787
-0.69173509 -0.59820896 0.03889792
-0.03538503 -0.42593861 0.00000089
-0.57361025 -0.31697845 0.03833174
-0.02253824 0.00317656 0.00001162
-0.36744383 -0.55593354 0.00000474
-0.04716054 -0.58974439 0.00000083
-0.02151329 -0.57884896 0.00000054
-0.24470027 -0.49093792 0.00000334
-0.57819098 -0.08649649 0.07289241
-0.17700821 -0.18353929 0.00000291
-0.19116788 0.58612657 0.00000137
-0.18002063 0.39780194 0.00464134
-0.68536496 -0.65786725 0.02816125
-0.05914739 0.73956901 0.00000172
-0.02686525 0.23010880 0.00000872
-0.69972616 -0.27362812 0.08810074
-0.10399002 0.41022569 0.00000530
-0.61083758 -0.24710456 0.06118961
-0.50508600 -0.16466440 0.03645400
-0.14672394 0.64884388 0.00000127
-0.50205851 -0.18180104 0.03295620
-0.41920543 -0.00303980 0.02991277
-0.34044975 -0.27017838 0.00000477
-0.36198223 0.32345888 0.05686196
-0.20789434 0.46678099 0.02414000
-0.44070509 -0.39824870 0.00000582
-0.12570789 0.55971068 0.00904575
-0.52472377 -0.78404617 0.00000635
-0.36032996 0.06736616 0.01964843
-0.22717297 -0.38093814 0.00000327
-0.37982473 -0.68807262 0.00000472
-0.57966632 -0.17706493 0.06044316
-0.45213774 -0.09444856 0.02820999
-0.34816915 -0.75038940 0.00000426
-0.49825439 -0.73944896 0.00000609
-0.61970383 -0.04721247 0.09285377
-0.17777774 0.37378526 0.00043014
-0.19832158 -0.74658507 0.00000246
-0.48975906 -0.38225499 0.00002565
-0.42491403 -0.32406691 0.00000572
-0.37171623 -0.51332563 0.00000485
-0.67637396 -0.18466642 0.09276279
-0.21598175 0.25201014 0.00000559
-0.02089768 -0.53944612 0.00000058
-0.20663925 0.42230025 0.01734195
-0.12163886 -0.25132692 0.00000215
-0.29830500 -0.05304765 0.00000453
-0.41976267 -0.31968886 0.00000567
-0.53634357 0.03164505 0.07534054
-0.36943549 0.14369640 0.03371554
-0.14937761 -0.39354882 0.00000231
-0.31776759 -0.18593705 0.00000460
-0.42396799 -0.54009259 0.00000544
-0.33950028 -0.25119695 0.00000478
-0.33756670 0.34191522 0.05106853
-0.40520737 0.34971726 0.07555107
-0.24620043 0.08368137 0.00000724
-0.72038895 0.01541885 0.13659658
-0.58027434 -0.53707653 0.00914133
-0.48479113 -0.21089797 0.02282793
-0.55109489 -0.29830080 0.03322636
-0.57989669 0.16055150 0.10883023
-0.63958871 -0.49284711 0.03595977
-0.32177636 -0.57984275 0.00000416
-0.30472940 -0.55899572 0.00000398
-0.63009101 -0.07157589 0.09295596
-0.79794550 -0.29427829 -0.00000126
-0.22744505 0.38441953 0.01910911
-0.26139751 0.19339725 0.00350563
-0.01939322 0.66844618 0.00000335
-0.33827105 0.34201592 0.05132625
-0.18263371 0.47421822 0.01647796
-0.09732007 -0.47529128 0.00000158
-0.16767175 -0.59309155 0.00000228
-0.05332980 -0.57034743 0.00000093
-0.09025866 -0.22052523 0.00000181
-0.64895457 0.08571901 0.12197868
-0.16048142 -0.31461754 0.00000254
-0.50060260 -0.66115254 0.00000622
-0.75509501 -0.26923645 0.10785603
-0.21064475 -0.11149232 0.00000340
-0.21711999 0.51067263 0.03360715
-0.02284251 -0.35181236 0.00000084
-0.00146125 -0.03554291 0.00000096
-0.01945527 -0.72608894 0.00000033
-0.05160347 -0.77366477 0.00000066
-0.28994876 -0.56798160 0.00000379
-0.30840102 0.44669247 0.05598529
-0.73609775 -0.11905297 0.12278237
-0.17914069 -0.69976103 0.00000229
-0.78309590 -0.68189454 0.05848398
-0.35952002 0.16961980 0.03399950
-0.53889847 -0.11730828 0.05491029
-0.52289939 -0.38073742 0.01169098
-0.77535206 -0.69199258 0.05436405
-0.17227732 -0.29052463 0.00000272
-0.30419439 0.07553796 0.00142588
-0.35906753 0.04487399 0.01599406
-0.01912157 -0.13177624 0.00000107
-0.26427305 0.52644831 0.00000081
-0.38726008 0.36900088 0.07211042
-0.67624640 -0.11297712 0.10297632
-0.01224934 0.72867227 0.00000271
-0.49922058 -0.54621518 0.00000634
-0.55897909 0.23165949 -0.00000066
-0.74063993 0.05679078 -0.00000167
-0.47098202 0.32239065 -0.00000026
-0.45401183 -0.55244076 0.00000579
-0.20771080 -0.35265869 0.00000307
-0.22733995 -0.31726107 0.00000335
-0.66199082 0.10051728 -0.00000078
-0.67170441 -0.48418981 0.04829273
-0.43879342 -0.73819101 0.00000537
-0.14495240 0.38400581 0.00000501
-0.72372234 -0.06075661 0.12684859
-0.22697356 -0.72072077 0.00000284
-0.08886824 0.63052273 0.00645171
-0.30031621 -0.58459938 0.00000389
-0.64777350 -0.72665966 0.00533235
-0.33899552 -0.52548510 0.00000444
-0.00267454 -0.66042250 0.00000017
-0.00340556 -0.33196908 0.00000063
-0.73901665 -0.20793089 0.11107368
-0.54406059 -0.72474521 0.00000666
-0.70796829 0.07992413 -0.00000137
-0.41790688 -0.05231935 0.02241309
-0.51651478 0.07073216 0.07408349
-0.22027564 -0.47097957 0.00000307
-0.06455202 -0.74302089 0.00000085
-0.70718932 0.02829936 -0.00000062
-0.47402054 -0.45668408 0.00000615
-0.37336394 0.18677597 0.04123660
-0.07114442 0.47651961 0.00000497
-0.46462923 -0.47036624 0.00000602
-0.76703626 -0.24060681 0.11607753
-0.29661337 -0.72061068 0.00000368
-0.56193841 0.09212355 0.09283566
-0.19072565 -0.55973440 0.00000260
-0.33597180 -0.14807320 0.00000487
-0.16123253 -0.24528851 0.00000264
-0.39713937 -0.37370309 0.00000533
-0.29141060 0.18327391 0.01242505
-0.69624895 -0.24662270 0.09076358
-0.72375375 -0.14102054 0.11537497
-0.29804587 -0.11827211 0.00000445
-0.65692061 -0.63345742 0.02182792
-0.26099765 0.43681180 0.03819622
-0.62359756 -0.23948973 0.06668705
-0.01869825 0.46482274 0.00000591
-0.50252724 -0.35264391 0.00867323
-0.15695485 -0.70511943 0.00000201
-0.65061504 -0.57003039 0.02872508
-0.09577430 0.44739935 0.00000496
-0.47610301 -0.32019135 0.00418853
-0.74732447 -0.41262507 0.08465511
-0.75209248 -0.77004951 0.03516044
-0.11102035 -0.05903611 0.00000227
-0.31006745 -0.77332115 0.00000378
-0.63107002 -0.43718645 0.04098116
-0.07232485 -0.00609890 0.00000187
-0.40564224 -0.48757270 0.00000529
-0.24619289 0.49457869 0.04134749
-0.75864816 -0.24261019 0.11289326
-0.24545705 0.36658308 0.02277918
-0.09755422 0.24133229 0.00000751
-0.00613246 -0.51368564 0.00000043
-0.72382402 -0.01878140 -0.00000149
-0.79932010 -0.24347220 -0.00000139
-0.20899093 -0.32932055 0.00000311
-0.68780488 0.10822673 -0.00000138
-0.14920673 0.10734637 0.00000841
-0.00612056 -0.45041019 0.00000044
-0.70926428 0.01305821 -0.00000044
-0.13500661 0.12108644 0.00000845
-0.30545515 -0.52395380 0.00000403
-0.17362630 0.57467985 0.02774083
-0.56862074 0.18881507 0.10897906
-0.50171703 0.20633912 0.08837486
-0.38333669 0.16401684 0.04142518
-0.00579997 0.76365292 0.00000237
-0.04548367 0.33251771 0.00000716
-0.57263321 -0.69824344 0.00000704
-0.33101651 -0.19965412 0.00000475
-0.45937961 0.29754472 0.08679961
-0.65375501 -0.73269951 0.00653443
-0.51707906 -0.26215765 0.02664723
-0.28720471 -0.62442100 0.00000369
-0.17862372 -0.27546820 0.00000281
-0.52594697 0.11741353 0.08402116
-0.75937420 -0.68386757 0.05000714
-0.08750627 -0.73406631 0.00000114
-0.63026828 -0.52620655 0.02796684
-0.23410858 -0.18088515 0.00000360
-0.08862679 -0.34063902 0.00000164
-0.21893513 -0.04491730 0.00000359
-0.28561151 -0.43714520 0.00000390
-0.57183403 -0.01417719 0.08104415
-0.37536153 0.04536418 0.02169291
-0.13599212 -0.27332804 0.00000230
-0.24746808 -0.05929452 0.00000391
-0.09837447 -0.73144788 0.00000127
-0.04958033 -0.23503296 0.00000130
-0.20419346 -0.35995275 0.00000301
-0.03090388 -0.64533764 0.00000057
-0.05620798 -0.43190408 0.00000114
-0.05278733 -0.59022331 0.00000090
-0.49413791 -0.74112195 0.00000604
-0.45322621 -0.50604844 0.00000584
-0.19644551 -0.59666330 0.00000263
-0.71069270 -0.00234447 -0.00000143
-0.30953649 0.02707852 0.00000699
-0.40310568 0.10336478 0.03957597
-0.11091780 -0.28786439 0.00000198
-0.22295319 0.55375320 0.04178635
-0.25791010 0.19515288 0.00255212
-0.18444315 0.43595961 0.01162883
-0.35116696 -0.55535424 0.00000454
-0.31032902 -0.06334778 0.00000467
-0.41833407 0.34640720 0.07961202
-0.03443764 0.21772686 0.00000876
-0.36870015 -0.75720960 0.00000450
-0.52689672 -0.66468519 0.00000653
-0.41439193 0.13054772 0.04736420
-0.00609782 0.58051157 0.00000465
-0.44166467 -0.19626181 0.01002427
-0.23311552 0.54765141 0.00000111
-0.13463211 0.59857833 0.01768993
-0.30770555 0.14255552 0.01222793
-0.50822800 -0.05515219 0.05320884
-0.11833339 0.37749201 0.00000550
-0.21475244 0.24450371 0.00000570
-0.43668640 0.04747894 0.04317993
-0.22623514 -0.35773623 0.00000328
-0.63140243 -0.73246306 0.00000771
-0.69503951 0.03631401 0.13082948
-0.19504230 -0.73773259 0.00000243
-0.67256480 -0.18134220 0.09192258
-0.09556534 -0.65173513 0.00000134
-0.01486894 0.76353002 0.00000223
-0.35432604 -0.22923070 0.00000499
-0.31030101 -0.16681802 0.00000454
-0.18689995 -0.13057241 0.00000309
-0.34487879 -0.56898808 0.00000445
-0.72543168 -0.57920039 0.05325807
-0.14587931 0.63844246 0.02727915
-0.06874974 0.03433857 0.00001053
-0.67157543 -0.75678062 0.00924479
-0.70908082 0.05155052 -0.00000099
-0.01804185 0.54197747 0.00000495
-0.15243639 -0.30247441 0.00000246
-0.05986693 -0.68333644 0.00000087
-0.45754808 -0.69614547 0.00000565
-0.34573856 -0.18103746 0.00000495
-0.54517406 0.22564591 -0.00000031
-0.49792027 -0.41589689 0.00000649
-0.43741971 -0.05380602 0.02894100
-0.78474462 -0.03627276 -0.00000185
-0.67366487 -0.49407989 0.04755485
-0.35984722 -0.34248662 0.00000492
-0.21395205 0.40781426 0.01779542
-0.18055587 0.09924273 0.00000804
-0.62414920 0.16936292 -0.00000103
-0.44434053 -0.73274410 0.00000545
-0.32757750 0.47037441 0.00000039
-0.63144344 0.13272896 0.12265589
-0.18862572 0.38181895 0.00532703
-0.66231292 -0.31564948 0.06916389
-0.40545899 -0.00516595 0.02485990
-0.68148232 0.08345628 0.13289145
-0.08534565 -0.23080930 0.00000174
-0.76215255 -0.57960892 0.06588466
-0.43157735 -0.09164684 0.02150837
-0.77204859 -0.55735141 0.07248790
-0.36010525 0.37115440 0.06303803
-0.53351343 -0.46392784 0.00345436
-0.22822049 -0.55552262 0.00000306
-0.12531927 -0.11962703 0.00000236
-0.24463753 -0.16355406 0.00000375
-0.20259918 0.40833989 0.01394882
-0.68765825 -0.17429774 0.09814449
-0.07349522 0.72533739 0.00000165
-0.52100098 -0.60636038 0.00000653
-0.75627756 -0.22276814 0.11491342
-0.16061936 0.60995001 0.02829423
-0.27951452 -0.62224358 0.00000360
-0.23381922 -0.01863255 0.00000380
-0.44299275 -0.43058747 0.00000581
-0.53819287 -0.20981954 0.04142966
-0.57631326 0.08298322 0.09649357
-0.20550260 -0.21275966 0.00000321
-0.35406315 -0.46416906 0.00000469
-0.11892452 -0.09696184 0.00000231
-0.29751015 0.06223079 0.00000673
-0.43927309 0.01662483 0.03965876
-0.77011019 -0.14012803 0.13151632
-0.26404417 -0.78259695 0.00000321
-0.00620102 -0.58248228 0.00000035
-0.28600869 -0.09818056 0.00000433
-0.58693081 -0.32455125 0.04184972
-0.40331125 0.34133384 0.00000077
-0.07907955 -0.05160685 0.00000189
-0.58988076 -0.78329653 0.00000714
-0.24367198 -0.06807683 0.00000386
-0.15796097 0.28643230 0.00000604
-0.74178421 -0.60895771 0.05464917
-0.55818349 -0.01804389 0.07577536
-0.65390360 -0.12054969 0.09417457
-0.73839688 -0.60741699 0.05369950
-0.53809083 -0.42442906 0.01068723
-0.00347890 0.04063452 0.00001144
-0.37448987 -0.65090710 0.00000471
-0.47609288 -0.69047374 0.00000588
-0.42568716 0.24613757 0.06780515
-0.43660074 -0.15061513 0.01480626
-0.16140355 -0.01337609 0.00000293
-0.06123708 0.52023774 0.00000457
-0.32131997 -0.55693156 0.00000418
-0.18183689 -0.72593284 0.00000229
-0.52308023 0.00882026 0.06749290
-0.13862082 0.05712052 0.00000919
-0.57131910 -0.23756921 0.04890246
-0.44615093 -0.07517700 0.02889932
-0.22765233 0.45742765 0.02962700
-0.50966579 -0.05479901 0.05375604
-0.19276068 -0.40379244 0.00000282
-0.40046906 -0.45163018 0.00000527
-0.41178232 -0.01538773 0.02558170
-0.05329323 -0.20804922 0.00000138
-0.50744188 -0.44862568 0.00000656
-0.00146245 -0.44855937 0.00000044
-0.03449078 0.12825902 0.00000988
-0.57125849 -0.05159758 0.07549108
-0.00622555 -0.22238579 0.00000072
-0.54551888 -0.59938490 0.00000684
-0.11784625 -0.25712585 0.00000210
-0.03404260 0.10105948 0.00001022
-0.57562029 -0.53787380 0.00741953
-0.26542485 0.28813910 0.01845290
-0.12132513 -0.79616624 0.00000147
-0.07898993 -0.48040992 0.00000135
-0.45879829 -0.49864134 0.00000591
-0.25737137 -0.50783175 0.00000347
-0.18055505 0.48295391 0.01700983
-0.74497092 -0.06382817 0.13374935
-0.25334156 -0.30100742 0.00000368
-0.18583462 -0.70845211 0.00000236
-0.24575062 -0.52938128 0.00000330
-0.09709611 -0.51502413 0.00000153
-0.06926566 0.67936307 0.00666834
-0.49877518 -0.43810573 0.00000647
-0.73390323 -0.24597846 0.10386327
-0.26053742 -0.10429996 0.00000401
-0.17306732 -0.47079387 0.00000250
-0.50489104 0.10495456 0.07496479
-0.06198556 -0.60999852 0.00000099
-0.36176062 0.06470481 0.01976185
-0.63480860 -0.49524090 0.03396597
-0.36883101 -0.76079494 0.00000450
-0.10421527 -0.56301457 0.00000155
-0.51953453 0.05000437 0.07216083
-0.71409178 -0.61704940 0.04392517
-0.35079098 0.30379495 0.05018240
-0.37552729 0.16369613 0.03868157
-0.49900445 -0.78131771 0.00000605
-0.07937399 0.34956396 0.00000643
-0.25801581 -0.48141292 0.00000351
-0.06359109 -0.47654742 0.00000117
-0.15577491 0.19394644 0.00000723
-0.09550800 0.07248254 0.00000965
-0.34402522 -0.28568199 0.00000480
-0.59310955 -0.52299500 0.01559003
-0.78345382 -0.27067274 -0.00000132
-0.00197340 0.65662569 0.00000376
-0.45433775 -0.64330935 0.00000568
-0.60737342 -0.22134355 0.06367891
-0.43649262 -0.13700147 0.01671681
-0.09650972 -0.14135604 0.00000199
-0.22433408 0.20274366 0.00000608
-0.46158066 -0.05243414 0.03748360
-0.37328315 0.35933474 0.06589909
-0.55411714 -0.44537178 0.01322690
-0.13341507 -0.36061960 0.00000216
-0.38197589 0.03201066 0.02206713
-0.66676611 -0.20762575 0.08615868
-0.50516069 0.26626873 0.09813942
-0.26264256 -0.14998502 0.00000398
-0.08536097 -0.62769276 0.00000125
-0.06383248 0.00115387 0.00001102
-0.75534987 -0.41433263 0.08718312
-0.06682479 0.55671161 0.00000403
-0.62832475 -0.58901036 0.01830924
-0.50079066 -0.58662587 0.00000631
-0.16909368 -0.67760485 0.00000219
-0.16448484 -0.45527089 0.00000242
-0.46502888 0.05474954 0.05401103
-0.69777113 0.01479446 -0.00000025
-0.61370957 -0.71834642 0.00000751
-0.43504921 -0.18128259 0.00988226
-0.40815264 -0.15883864 0.00380232
-0.39040053 -0.74451083 0.00000478
-0.18806243 -0.25611073 0.00000295
-0.55481917 -0.54286963 0.00000702
-0.13961616 0.05013881 0.00000927
-0.16655622 -0.76002878 0.00000206
-0.38809726 -0.29436985 0.00000532
-0.21494637 0.11486228 0.00000732
-0.27782202 0.33532184 0.02948655
-0.43559504 0.33913735 0.08453456
-0.01219218 0.73343563 0.00000265
-0.23726819 -0.66592455 0.00000303
-0.64239383 -0.71926260 0.00453236
-0.05568984 0.52409703 0.00000461
-0.00418314 -0.40108073 0.00000050
-0.49732304 0.09981556 0.07161515
-0.77090687 -0.54658383 0.07363416
-0.61263245 0.18201932 -0.00000106
-0.71918482 -0.03858093 0.12845412
-0.18078692 -0.12135369 0.00000303
-0.74810648 -0.41080678 0.08518542
-0.51129097 -0.65044719 0.00000636
-0.77083600 -0.02656647 0.14801589
-0.65320587 -0.75428551 0.00325612
-0.68729872 0.10747952 -0.00000143
-0.48821676 -0.41590679 0.00000637
-0.28885779 -0.35972804 0.00000404
-0.78732723 -0.19670047 -0.00000151
-0.50845283 0.05014982 0.06835353
-0.23845138 -0.50232881 0.00000325
-0.18540877 -0.78723782 0.00000225
-0.68962508 -0.05246510 0.11625623
-0.41990834 -0.16426606 0.00708671
-0.33030075 0.10090109 0.01407327
-0.23038189 0.15678465 0.00000656
-0.17075697 0.44471344 0.00815353
-0.28580314 -0.14727704 0.00000427
-0.70994782 -0.26652679 0.09264784
-0.25679928 -0.25163317 0.00000379
-0.21263783 -0.07574810 0.00000347
-0.34292600 -0.02531965 0.00037446
-0.35609156 0.37118462 0.06165585
-0.72931629 -0.18945034 0.11036700
-0.24656321 -0.54815781 0.00000329
-0.05641884 -0.31819269 0.00000128
-0.06451527 0.61617452 0.00000332
-0.61378777 -0.04651554 0.09090980
-0.56153709 -0.39339849 0.02322664
-0.00986561 -0.11200235 0.00000098
-0.40876982 -0.09278646 0.01346653
-0.20148252 -0.19127551 0.00000319
-0.01760913 -0.28268230 0.00000086
-0.51947683 -0.60853279 0.00000651
-0.22551283 0.03926540 0.00000811
-0.40548342 -0.42417049 0.00000536
-0.00772669 -0.19491987 0.00000085
-0.71116400 -0.26609847 0.09312926
-0.75692534 -0.68185127 0.04944969
-0.02726426 0.29248852 0.00000793
-0.07110932 -0.70301735 0.00000098
-0.43282205 -0.02091704 0.03205863
-0.07480851 -0.14585179 0.00000172
-0.53448576 -0.78950006 0.00000646
-0.61813843 -0.31519067 0.05396963
-0.70903540 -0.18777478 0.10360080
-0.49669066 -0.30275330 0.01379556
-0.53533190 -0.34936705 0.02047435
-0.74560559 0.01685097 0.14551248
-0.42987478 0.06570200 0.04343431
-0.30292231 0.35834122 0.04145104
-0.26512915 0.53222132 0.00000068
-0.10221105 -0.27350071 0.00000189
-0.06944407 -0.78883761 0.00000085
-0.14613841 0.41908538 0.00000456
-0.18932378 0.57168359 0.03273474
-0.70121443 -0.51052147 0.05471922
-0.52464169 0.09327395 0.08011627
-0.54633570 -0.67987537 0.00000675
-0.22434096 0.15088288 0.00000673
-0.09004967 -0.79590654 0.00000109
-0.17287259 0.10843262 0.00000804
-0.08183289 -0.62304503 0.00000121
-0.57877207 -0.02267172 0.08222544
-0.47442946 -0.22092403 0.01781397
-0.66833752 -0.73034918 0.01190818
-0.57071656 0.12188865 0.10012696
