ply
format ascii 1.0
element vertex 667
property float x
property float y
property float z
end_header
-0.51241988 -0.59934247 0.00000309
-0.07685622 0.52189887 0.00000162
-0.27111411 -0.07766031 0.00000164
-0.40477923 -0.23444685 0.00000244
-0.05252094 -0.37286764 0.00000032
-0.20341074 -0.27934816 0.00000123
-0.38560912 -0.19421560 0.00000233
-0.17622313 0.12272425 0.00000431
-0.53565794 -0.49316734 -0.17407046
-0.06633631 0.53320038 0.00000180
-0.16191240 -0.18065205 0.00000098
-0.20869522 0.04146677 0.00000445
-0.16671698 -0.45653185 0.00000101
-0.30668542 0.05959026 0.16569650
-0.06032560 -0.38198614 0.00000036
-0.08688414 -0.70340276 0.00000052
-0.03518505 0.42539024 0.00000445
-0.05565959 -0.51264924 0.00000034
-0.21112584 -0.10721993 0.00000127
-0.23823397 -0.72645426 0.00000144
-0.22147413 -0.04221655 0.00000134
-0.35901999 -0.06675677 0.02693295
-0.28536695 -0.19667695 0.00000172
-0.08266288 0.30963421 0.00000461
-0.04219003 -0.49945301 0.00000025
-0.36818284 -0.18953168 0.00000222
-0.53230023 -0.63325274 0.00000321
-0.30573276 0.03244956 0.00000185
-0.20208137 -0.01427965 0.00000122
-0.28395495 -0.52261084 0.00000171
-0.09760273 0.13837571 0.00000668
-0.45537147 -0.73634362 0.00000275
-0.08531410 -0.26558757 0.00000051
-0.39029115 -0.61651015 0.00000236
-0.19920087 0.31909540 -0.13768080
-0.15327449 -0.31802961 0.00000093
-0.22221226 0.26352465 0.16348912
-0.05741909 -0.51309311 0.00000035
-0.45908770 -0.54319000 0.00000277
-0.22665256 -0.70727193 0.00000137
-0.01411016 -0.34981462 0.00000009
-0.32604820 -0.74915355 0.00000197
-0.58023083 -0.73736930 0.00000350
-0.37918168 -0.53483993 0.00000229
-0.00419825 -0.02998561 0.00000003
-0.22874124 -0.17746124 0.00000138
-0.29563877 0.04106108 0.00000178
-0.11989630 -0.42381221 0.00000072
-0.04613585 0.59058601 0.00000161
-0.01247046 0.16394325 0.00000913
-0.52382356 -0.78093570 0.00000316
-0.45827779 -0.35814574 0.00000277
-0.20888789 0.08234209 0.00000383
-0.03837852 0.08177081 0.00000950
-0.66153437 -0.79705560 -0.10994341
-0.05526242 0.51148945 0.00000249
-0.23638587 0.17540860 0.00000152
-0.27980626 -0.78952461 0.00000169
-0.29771259 -0.77457702 0.00000180
-0.10290738 0.35843638 0.00000321
-0.23274539 0.03753751 0.00000371
-0.24220429 0.18341632 0.00000146
-0.44420803 -0.55732054 0.00000268
-0.00829036 0.33687600 0.00000667
-0.42853469 -0.23458523 0.12221956
-0.14807303 0.23279303 0.00000359
-0.18038645 -0.63498509 0.00000109
-0.51782954 -0.45013019 -0.29509839
-0.05013493 -0.07921634 0.00000030
-0.14358664 0.28537777 0.00000295
-0.09905819 0.31459901 0.00000399
-0.21312459 -0.23218121 0.00000129
-0.03416528 -0.09224779 0.00000021
-0.00128431 0.58831429 0.00000313
-0.08186166 0.55458254 0.00000096
-0.50017583 -0.43132350 0.00000302
-0.18641271 0.07097780 0.00000475
-0.16188395 0.11258685 0.00000494
-0.02012915 -0.05163516 0.00000012
-0.10823354 0.08121184 0.00000719
-0.06577191 -0.77633119 0.00000040
-0.33180690 -0.20836838 0.00000200
-0.58215427 -0.79346752 0.00000351
-0.04063463 -0.31267360 0.00000025
-0.04996628 0.58274484 0.00000160
-0.01941626 0.27362937 0.00000725
-0.01720956 0.44909158 0.00000469
-0.48809397 -0.37838224 0.31737438
-0.11295157 -0.27152520 0.00000068
-0.01881177 0.32437640 0.00000651
-0.01385873 0.45800936 0.00000467
-0.15965246 0.04238598 0.00000606
-0.24124227 0.21759540 0.00097870
-0.15892062 -0.30685031 0.00000096
-0.13184828 0.48168868 0.05868040
-0.43963784 -0.59579140 0.00000265
-0.08147082 0.03385605 0.00000879
-0.53034675 -0.67156225 0.00000320
-0.31287783 -0.59435505 0.00000189
-0.05389017 -0.40433052 0.00000033
-0.45068839 -0.41468334 0.00000272
-0.32486781 -0.64877218 0.00000196
-0.17566688 0.11049396 0.00000451
-0.28538072 -0.32374206 0.00000172
-0.36492670 -0.34657016 0.00000220
-0.28055805 -0.24566695 0.00000169
-0.25239676 0.04663497 0.00000292
-0.17884649 -0.18112127 0.00000108
-0.42205203 -0.21894313 0.31321138
-0.58712906 -0.65608770 0.00000354
-0.17680958 -0.34481499 0.00000107
-0.10826128 -0.53719813 0.00000065
-0.32999688 -0.45730266 0.00000199
-0.30318555 -0.09701991 0.00000183
-0.45764202 -0.30486655 0.34729558
-0.42483911 -0.22565782 0.00010889
-0.17944963 -0.78670144 0.00000108
-0.22717606 -0.01606503 0.00000137
-0.46281135 -0.35434824 0.00000279
-0.09934056 0.14784020 0.00000648
-0.50751936 -0.43995702 0.00000306
-0.26418072 -0.13566779 0.00000159
-0.07589904 -0.22213286 0.00000046
-0.23575136 -0.11685296 0.00000142
-0.26558107 -0.59243149 0.00000160
-0.00417849 -0.46456909 0.00000003
-0.03763009 0.54212117 0.00000262
-0.20624305 0.30209699 -0.02200590
-0.27462402 0.11077083 0.00000166
-0.00291976 0.64853525 0.00000218
-0.25874072 -0.55177903 0.00000156
-0.02646134 -0.19649163 0.00000016
-0.09643248 -0.04403702 0.00000058
-0.10926949 0.53620553 -0.04940929
-0.19779257 -0.78493494 0.00000119
-0.03918557 -0.46409881 0.00000024
-0.27083740 -0.17251462 0.00000163
-0.24905100 0.19873993 0.04804534
-0.11628511 0.09048433 0.00000678
-0.14179242 -0.64165193 0.00000086
-0.33896893 -0.43129325 0.00000205
-0.02384384 -0.55885857 0.00000014
-0.08983754 -0.07356293 0.00000054
-0.00428759 -0.35691646 0.00000003
-0.41634163 -0.20515276 0.21927086
-0.06470796 -0.25349161 0.00000039
-0.01477049 -0.45731562 0.00000009
-0.18879665 -0.64688128 0.00000114
-0.25815934 -0.51838315 0.00000156
-0.04226140 -0.62625825 0.00000026
-0.02262302 0.01430631 0.00001103
-0.12714940 0.06665941 0.00000678
-0.09918408 0.41302881 0.00000251
-0.05764067 -0.66982871 0.00000035
-0.10185365 0.40325525 0.00000257
-0.18787061 -0.22368102 0.00000113
-0.32434648 -0.74050236 0.00000196
-0.13282111 0.35171047 0.00000232
-0.48814520 -0.43238065 0.00000295
-0.04847266 0.22849153 0.00000696
-0.07473892 -0.07647383 0.00000045
-0.36082917 -0.07113070 0.16514748
-0.55325562 -0.75973243 0.00000334
-0.00632099 0.41362476 0.00000559
-0.36644608 -0.68093669 0.00000221
-0.07523978 -0.38176879 0.00000045
-0.29706898 -0.39401758 0.00000179
-0.11372718 -0.30495372 0.00000069
-0.06044184 0.24921708 0.00000626
-0.37166232 -0.78524208 0.00000224
-0.07374062 0.49433309 0.00000214
-0.03983137 0.13062935 0.00000872
-0.17466448 0.37833053 -0.11444254
-0.65937638 -0.79184127 -0.00957316
-0.07315838 0.32797599 0.00000465
-0.33358181 -0.37864643 0.00000201
-0.28577790 -0.66286129 0.00000172
-0.60122228 -0.69371033 0.00000363
-0.13003460 0.41427821 0.00000147
-0.33272484 -0.55361515 0.00000201
-0.07614886 -0.40376124 0.00000046
-0.27366298 -0.31796888 0.00000165
-0.52365607 -0.55975264 0.00000316
-0.53176212 -0.65936786 0.00000321
-0.08558396 -0.19660406 0.00000052
-0.10660173 0.42591763 0.00000207
-0.36450046 -0.57313156 0.00000220
-0.14848132 -0.33021009 0.00000090
-0.39123011 -0.20140778 0.00000236
-0.23502687 -0.78605342 0.00000142
-0.14250562 -0.39566544 0.00000086
-0.35613570 -0.05979681 0.10295562
-0.41364729 -0.52013928 0.00000250
-0.23079376 -0.37859553 0.00000139
-0.10895348 -0.72221535 0.00000066
-0.16885421 0.08622556 0.00000510
-0.18087496 0.31205499 0.00000132
-0.06569456 -0.27351773 0.00000040
-0.40792003 -0.18481565 0.09669000
-0.19712615 -0.12974182 0.00000119
-0.11338516 -0.16462557 0.00000068
-0.09010949 0.23623574 0.00000547
-0.44736561 -0.77318680 0.00000270
-0.01681125 -0.70925462 0.00000010
-0.14373410 0.42250565 0.00000089
-0.43356526 -0.53637666 0.00000262
-0.13558497 -0.20726120 0.00000082
-0.09146168 -0.09763604 0.00000055
-0.28127679 -0.61450917 0.00000170
-0.39618301 -0.57176542 0.00000239
-0.00538515 -0.37236956 0.00000003
-0.29251647 -0.66400230 0.00000177
-0.10876973 -0.03022790 0.00000066
-0.19016205 0.17491600 0.00000306
-0.21272233 -0.58852094 0.00000128
-0.28829819 0.10398479 0.11152309
-0.40971112 -0.22648264 0.00000247
-0.07318102 -0.42786178 0.00000044
-0.22576629 0.25496119 -0.19294538
-0.12683637 -0.53398633 0.00000077
-0.53688979 -0.73003191 0.00000324
-0.27617052 0.07591623 0.00000169
-0.42906004 -0.59696442 0.00000259
-0.35666889 -0.06109653 0.38405922
-0.51010716 -0.43151623 0.04555218
-0.39731649 -0.79166263 0.00000240
-0.46562663 -0.42248470 0.00000281
-0.14305423 -0.35467839 0.00000086
-0.06006910 -0.71186113 0.00000036
-0.35845760 -0.18121143 0.00000216
-0.43999636 -0.34405243 0.00000266
-0.04155066 0.27524653 0.00000649
-0.46051246 -0.57320154 0.00000278
-0.11512703 -0.54517269 0.00000069
-0.26773036 0.02156331 0.00000279
-0.47118372 -0.76156235 0.00000284
-0.21755849 0.27476242 0.12927063
-0.16744298 -0.64041394 0.00000101
-0.58022755 -0.70403790 0.00000350
-0.31017190 -0.04110343 0.00000187
-0.19675070 -0.30925575 0.00000119
-0.56353873 -0.60513157 0.00000340
-0.01299704 -0.45163381 0.00000008
-0.03869944 0.28078321 0.00000650
-0.06237693 0.45632696 0.00000308
-0.01269237 0.18444823 0.00000881
-0.32805029 -0.15969951 0.00000198
-0.27730089 -0.56990045 0.00000167
-0.18886067 -0.21021634 0.00000114
-0.36932498 -0.09161035 -0.01606708
-0.35486805 -0.58345097 0.00000214
-0.16467701 0.40244240 -0.08835568
-0.11873889 -0.69344026 0.00000072
-0.09204695 -0.41698638 0.00000056
-0.00825369 0.43162480 0.00000525
-0.26092249 -0.63384831 0.00000157
-0.32610461 -0.53617328 0.00000197
-0.36547452 -0.51082993 0.00000221
-0.28260449 -0.53927678 0.00000171
-0.20688246 -0.18562201 0.00000125
-0.33676419 -0.13522992 0.00000203
-0.25183010 -0.73757577 0.00000152
-0.00805281 -0.33703077 0.00000005
-0.41641429 -0.20532697 0.19239686
-0.37026489 -0.09387932 -0.00827757
-0.41035974 -0.22687335 0.00000248
-0.45020273 -0.47947618 0.00000272
-0.12117704 -0.36895052 0.00000073
-0.31918088 0.02941959 0.21983179
-0.12420063 -0.06463760 0.00000075
-0.14783010 0.44310009 0.12752999
-0.42144379 -0.64220315 0.00000254
-0.45900828 -0.74692130 0.00000277
-0.14846464 -0.35109645 0.00000090
-0.37822437 -0.23320524 0.00000228
-0.50857800 -0.42782363 0.02614475
-0.12820069 -0.19822331 0.00000077
-0.22044910 -0.00583510 0.00000133
-0.19523099 0.32867950 -0.12838434
-0.21748860 -0.60108984 0.00000131
-0.10720572 -0.06718074 0.00000065
-0.23996165 -0.59522563 0.00000145
-0.45239693 -0.29219890 0.23007026
-0.05313406 -0.72965419 0.00000032
-0.28384331 -0.68444186 0.00000171
-0.15337054 -0.14336479 0.00000093
-0.14614046 -0.43218890 0.00000088
-0.25655463 0.13310452 0.00000155
-0.09020920 0.07207462 0.00000792
-0.27215317 0.08057211 0.00000176
-0.06836230 -0.58874369 0.00000041
-0.01246542 0.53252041 0.00000360
-0.27356517 -0.49346036 0.00000165
-0.54463738 -0.58978939 0.00000329
-0.15765099 0.11869356 0.00000499
-0.14317016 0.41090041 0.00000108
-0.37488601 -0.10507012 0.30827266
-0.17994905 -0.59460253 0.00000109
-0.10278818 0.12288291 0.00000674
-0.02601315 -0.31540066 0.00000016
-0.18859515 0.29869130 0.00000126
-0.29825073 -0.40724176 0.00000180
-0.12867899 -0.56762713 0.00000078
-0.46448079 -0.70134270 0.00000280
-0.06041048 -0.02133807 0.00000036
-0.03914562 -0.72060919 0.00000024
-0.52561915 -0.77414298 0.00000317
-0.49091783 -0.38519946 0.30965048
-0.16420501 -0.25284463 0.00000099
-0.06622691 -0.53076887 0.00000040
-0.21006335 -0.44761842 0.00000127
-0.02997264 -0.32280469 0.00000018
-0.19422652 -0.51916736 0.00000117
-0.17996769 0.36552113 0.03550363
-0.16438699 -0.13863486 0.00000099
-0.16476260 -0.55129743 0.00000099
-0.21841531 -0.28848499 0.00000132
-0.49465984 -0.70459342 0.00000299
-0.15146875 0.43432280 0.03740039
-0.26694185 -0.00287910 0.00000161
-0.47544593 -0.54019392 0.00000287
-0.02741005 -0.52430904 0.00000017
-0.04413164 -0.72131717 0.00000027
-0.46772239 -0.48405796 0.00000282
-0.45542428 -0.35450423 0.00000275
-0.05523382 0.31906009 0.00000538
-0.39155895 -0.73253876 0.00000236
-0.34433568 -0.50190157 0.00000208
-0.16251197 -0.06324398 0.00000098
-0.38217008 -0.62904227 0.00000231
-0.23891832 0.22321318 -0.05324185
-0.10232017 -0.78867817 0.00000062
-0.05888369 0.15646268 0.00000770
-0.05387173 0.01313436 0.00001001
-0.15424266 0.26078248 0.00000297
-0.34973326 -0.47573161 0.00000211
-0.15510654 -0.11837913 0.00000094
-0.08176902 -0.79882193 0.00000049
-0.11057861 0.26882502 0.00000430
-0.45346239 -0.78199100 0.00000274
-0.17466938 -0.62617534 0.00000105
-0.30277184 -0.20228480 0.00000183
-0.51397896 -0.46406865 0.00000310
-0.03820351 -0.40557417 0.00000023
-0.17768903 0.21353145 0.00000290
-0.00723933 0.00268027 0.00001172
-0.27154735 -0.00673581 0.00000164
-0.05273812 0.53945839 0.00000216
-0.00983606 0.68289316 0.00000143
-0.26442316 0.04962749 0.00000248
-0.23160614 0.24086618 -0.04068437
-0.06468582 0.55662853 0.00000150
-0.33703473 -0.01368348 0.22594512
-0.25329426 -0.58440405 0.00000153
-0.36376861 -0.44999647 0.00000220
-0.57121933 -0.57905662 0.08548225
-0.23094235 -0.62428498 0.00000139
-0.59193009 -0.76807731 0.00000357
-0.03562822 0.17145336 0.00000825
-0.60218811 -0.66755152 0.00000363
-0.41711253 -0.36212525 0.00000252
-0.27463430 -0.06499562 0.00000166
-0.23409960 -0.27880627 0.00000141
-0.02570068 -0.30094391 0.00000016
-0.07223195 -0.17530063 0.00000044
-0.04504232 -0.73929882 0.00000027
-0.42620847 -0.22893801 -0.13215889
-0.14698569 -0.44703305 0.00000089
-0.30033150 -0.73230112 0.00000181
-0.41478974 -0.20137303 -0.24332768
-0.08050590 -0.65335310 0.00000049
-0.54337871 -0.65170383 0.00000328
-0.08798781 -0.07474926 0.00000053
-0.43668994 -0.38039759 0.00000264
-0.21846572 -0.04183464 0.00000132
-0.00586326 -0.09067513 0.00000004
-0.09813066 -0.08014613 0.00000059
-0.16636288 0.39835975 0.11111124
-0.37728763 -0.47968552 0.00000228
-0.05683528 0.15135644 0.00000784
-0.44273883 -0.26884866 -0.36722338
-0.54753113 -0.59891438 0.00000330
-0.19248512 -0.42061692 0.00000116
-0.37114570 -0.57634389 0.00000224
-0.33419457 -0.36261916 0.00000202
-0.08770404 0.14152388 0.00000697
-0.09423080 0.51910686 0.00000109
-0.14758913 0.36747158 0.00000159
-0.19783767 -0.65854448 0.00000119
-0.31542808 0.03849046 0.08162733
-0.04484498 -0.22227027 0.00000027
-0.00981464 0.14576972 0.00000949
-0.01110253 0.53590292 0.00000359
-0.34386218 -0.48476702 0.00000208
-0.33297434 -0.00389146 0.35934272
-0.35241163 -0.43637836 0.00000213
-0.22316651 -0.44033742 0.00000135
-0.26623517 -0.38604045 0.00000161
-0.00952200 -0.18976247 0.00000006
-0.29551378 -0.06078051 0.00000178
-0.37678903 -0.34742996 0.00000227
-0.14941543 0.02682813 0.00000664
-0.12718885 -0.25263479 0.00000077
-0.41723341 -0.20727122 -0.16186617
-0.51362872 -0.43998450 -0.12446951
-0.03916402 0.34629995 0.00000551
-0.35970187 -0.06840945 0.17211245
-0.08129571 -0.20810276 0.00000049
-0.00939856 -0.49771419 0.00000006
-0.08426350 -0.45519906 0.00000051
-0.11778466 0.10666937 0.00000649
-0.10131165 0.40022552 0.00000263
-0.55860656 -0.69886082 0.00000337
-0.32184821 0.02300614 -0.12173169
-0.30704543 -0.66079724 0.00000185
-0.33949152 -0.12271138 0.00000205
-0.29709098 -0.32549417 0.00000179
-0.42810673 -0.77413172 0.00000258
-0.40577644 -0.39160553 0.00000245
-0.38649124 -0.15539652 0.00000233
-0.44731623 -0.27992648 0.08530900
-0.33882511 -0.29801813 0.00000204
-0.16977002 -0.14378355 0.00000102
-0.02344502 0.33879080 0.00000614
-0.14941712 -0.10121434 0.00000090
-0.29383060 -0.70516717 0.00000177
-0.02335438 0.44259328 0.00000459
-0.05230886 0.35620484 0.00000492
-0.01676957 0.53488415 0.00000342
-0.22544263 -0.73416406 0.00000136
-0.05020656 -0.24009524 0.00000030
-0.14874560 -0.30018827 0.00000090
-0.31437954 -0.74179506 0.00000190
-0.13621865 -0.08196859 0.00000082
-0.25255468 0.19027920 0.07570243
-0.32244942 -0.28065223 0.00000195
-0.15018418 0.43742043 0.08269730
-0.13397066 -0.79659688 0.00000081
-0.46945763 -0.79630935 0.00000283
-0.09311136 -0.29700544 0.00000056
-0.00921958 -0.13710786 0.00000006
-0.16048315 -0.30671188 0.00000097
-0.16976060 0.31367564 0.00000166
-0.25205758 -0.71583468 0.00000152
-0.08736953 -0.59177518 0.00000053
-0.29114333 -0.65445691 0.00000176
-0.43945500 -0.28609458 0.00000265
-0.14313608 -0.05853385 0.00000086
-0.25512540 0.02954593 0.00000309
-0.54198867 -0.50844842 -0.01966206
-0.36001882 -0.50400883 0.00000217
-0.04988074 -0.30638814 0.00000030
-0.56010354 -0.76710099 0.00000338
-0.07524055 0.17519411 0.00000687
-0.29868153 -0.78387523 0.00000180
-0.16596420 -0.22316577 0.00000100
-0.20819479 0.13438301 0.00000307
-0.19309942 0.33382475 -0.15985118
-0.38007233 -0.11756045 -0.33447692
-0.31038734 0.01014136 0.00000187
-0.31436449 0.04106891 -0.31019130
-0.27008224 -0.50716186 0.00000163
-0.39494362 -0.15348902 0.12732419
-0.48866233 -0.37971234 -0.17330223
-0.04730198 0.04883022 0.00000970
-0.02635387 -0.38802546 0.00000016
-0.40456814 -0.24034569 0.00000244
-0.11890341 0.19269936 0.00000516
-0.13610052 -0.11885096 0.00000082
-0.22235642 -0.04680263 0.00000134
-0.61015052 -0.78642225 0.00000368
-0.43465382 -0.37911084 0.00000262
-0.05435546 0.31789023 0.00000543
-0.23348044 -0.38887125 0.00000141
-0.39704239 -0.15855797 0.17295197
-0.31145546 -0.12034777 0.00000188
-0.26001054 -0.20384327 0.00000157
-0.20174770 0.31292593 0.21447118
-0.41953644 -0.71515518 0.00000253
-0.40079689 -0.71381396 0.00000242
-0.11214174 -0.43350822 0.00000068
-0.08568566 0.27944851 0.00000496
-0.45240501 -0.55753851 0.00000273
-0.17367941 -0.35186082 0.00000105
-0.02830218 -0.69257730 0.00000017
-0.06814498 0.63548660 -0.04261262
-0.15945856 0.14427716 0.00000454
-0.15281025 0.01816050 0.00000666
-0.60628593 -0.66367340 -0.08719592
-0.13171791 -0.39847389 0.00000079
-0.17730343 0.26624185 0.00000212
-0.31471261 -0.53735310 0.00000190
-0.07619770 0.11240206 0.00000778
-0.36412930 -0.18437082 0.00000220
-0.43819615 -0.78508008 0.00000264
-0.56965464 -0.77657300 0.00000344
-0.22985387 0.24508335 0.07475656
-0.27327338 -0.53932726 0.00000165
-0.02499957 -0.35657796 0.00000015
-0.05193691 -0.08941136 0.00000031
-0.14897002 -0.50480300 0.00000090
-0.30768523 -0.05314141 0.00000186
-0.08954655 -0.00697525 0.00000054
-0.18841541 -0.65879655 0.00000114
-0.03653300 -0.36254618 0.00000022
-0.31853548 -0.29913050 0.00000192
-0.08395085 0.05757855 0.00000835
-0.20614168 -0.47445872 0.00000124
-0.05159113 -0.67044705 0.00000031
-0.44065771 -0.52905101 0.00000266
-0.12600355 0.06032208 0.00000691
-0.06631372 0.54509586 0.00000162
-0.59415483 -0.74757212 0.00000359
-0.04702980 -0.17846496 0.00000028
-0.47798356 -0.35396808 0.16852465
-0.41792339 -0.20896378 0.04651619
-0.29265553 -0.15986267 0.00000177
-0.03587895 -0.54250598 0.00000022
-0.19117396 -0.09966156 0.00000115
-0.04171588 0.10185582 0.00000909
-0.37125099 -0.35876587 0.00000224
-0.04200044 0.47575039 0.00000347
-0.26780298 0.15347815 -0.19182347
-0.38007602 -0.71362543 0.00000229
-0.59531498 -0.63723016 0.15451044
-0.35791323 -0.16504776 0.00000216
-0.33684629 -0.41040403 0.00000203
-0.39582676 -0.15562208 0.14920989
-0.03982102 0.38919163 0.00000484
-0.08267796 -0.03297441 0.00000050
-0.05637204 0.40297711 0.00000408
-0.14261672 0.45569012 0.07766437
-0.35237885 -0.29873204 0.00000213
-0.09795027 0.15086810 0.00000649
-0.30704346 -0.22500682 0.00000185
-0.07368489 0.09777481 0.00000809
-0.34699374 -0.52862734 0.00000209
-0.20262708 -0.28316703 0.00000122
-0.11236373 -0.20066410 0.00000068
-0.01607996 -0.72079718 0.00000010
-0.14913550 -0.19882984 0.00000090
-0.28401339 -0.75364506 0.00000171
-0.45414019 -0.50530326 0.00000274
-0.56154913 -0.75989443 0.00000339
-0.30392718 -0.50524193 0.00000183
-0.05398684 0.62789184 0.00000079
-0.13493276 0.32015505 0.00000272
-0.02633925 -0.18606286 0.00000016
-0.26378155 -0.17532963 0.00000159
-0.05715801 0.15818459 0.00000773
-0.40690941 -0.71958792 0.00000246
-0.13879839 -0.26095599 0.00000084
-0.23293234 -0.68334305 0.00000141
-0.00900016 -0.69576591 0.00000005
-0.41608849 -0.20450884 -0.27064815
-0.16836001 0.31997365 0.00000161
-0.02487399 0.69884932 0.00000069
-0.16535813 0.40078220 0.15187456
-0.19034000 -0.01195785 0.00000115
-0.17815626 -0.06313192 0.00000108
-0.29526144 0.08716313 0.25157580
-0.18045107 0.16620491 0.00000352
-0.17941922 -0.57034570 0.00000108
-0.24948213 -0.11280469 0.00000151
-0.17204316 -0.06686400 0.00000104
-0.20803528 -0.55414999 0.00000126
-0.16168311 -0.44213179 0.00000098
-0.09601308 -0.57606363 0.00000058
-0.53319323 -0.48721495 -0.02928382
-0.57556826 -0.71061629 0.00000347
-0.16223407 -0.50598079 0.00000098
-0.16981383 -0.12489563 0.00000102
-0.24493268 0.20867832 0.09905913
-0.18833169 0.06503798 0.00000477
-0.24052209 0.21932968 0.05653230
-0.30716002 -0.58026719 0.00000185
-0.16670524 -0.73912722 0.00000101
-0.35396209 -0.49437517 0.00000214
-0.16836031 0.02549540 0.00000603
-0.31294963 -0.56475168 0.00000189
-0.01029325 0.11590170 0.00000992
-0.32030144 -0.60948658 0.00000193
-0.20523331 -0.02543859 0.00000124
-0.21675687 -0.66475570 0.00000131
-0.21770100 -0.44199660 0.00000131
-0.14020899 -0.71187216 0.00000085
-0.08312890 -0.12946737 0.00000050
-0.04187270 0.38934788 0.00000477
-0.13871819 0.00676011 0.00000729
-0.26096252 -0.51647669 0.00000158
-0.16550592 -0.47117609 0.00000100
-0.06863454 0.18053012 0.00000701
-0.14910288 -0.22816870 0.00000090
-0.14622882 -0.63425863 0.00000088
-0.54585075 -0.76501137 0.00000329
-0.01108056 -0.67850810 0.00000007
-0.00826453 -0.26076800 0.00000005
-0.36848861 -0.35075295 0.00000222
-0.44282898 -0.53030580 0.00000267
-0.05267944 -0.22711000 0.00000032
-0.07195863 0.45557570 0.00000278
-0.25201979 -0.16470461 0.00000152
-0.28485966 -0.11813559 0.00000172
-0.08972746 -0.48703578 0.00000054
-0.47885734 -0.47666532 0.00000289
-0.05188225 0.00089621 0.00001026
-0.07678450 -0.63752550 0.00000046
-0.23327941 -0.60683054 0.00000141
-0.18302362 -0.26752585 0.00000110
-0.25610974 -0.05939150 0.00000155
-0.34328195 -0.27082816 0.00000207
-0.41438860 -0.27735922 0.00000250
-0.29094693 -0.18129423 0.00000176
-0.15971696 0.17557667 0.00000406
-0.46719038 -0.32787377 -0.05157397
-0.26744193 0.15434964 -0.19854113
-0.10481966 0.29347816 0.00000412
-0.03244337 0.43378478 0.00000442
-0.33858863 -0.56248808 0.00000204
-0.02842671 0.63175744 0.00000158
-0.05698043 0.34199059 0.00000498
-0.19748034 0.11897040 0.00000366
-0.22577137 0.25492883 0.20721243
-0.52612728 -0.53187001 0.00000318
-0.22665031 -0.64309436 0.00000137
-0.44507149 -0.27447715 -0.18288705
-0.53999335 -0.59809184 0.00000326
-0.22660711 0.25293413 -0.06255680
-0.11668536 -0.44897127 0.00000070
-0.05784238 0.61858523 0.00000080
-0.21086285 -0.59667879 0.00000127
-0.06843487 0.00007949 0.00000973
-0.58990401 -0.62416726 0.20040675
-0.23258585 0.23849912 -0.12830153
-0.33595037 -0.64723748 0.00000203
-0.28970909 0.04157274 0.00000175
-0.38363063 -0.31732965 0.00000232
-0.09453570 -0.45186993 0.00000057
-0.06786556 -0.28219688 0.00000041
-0.12534633 -0.09165523 0.00000076
-0.12612174 -0.31780374 0.00000076
-0.08283282 -0.17126897 0.00000050
-0.29808033 -0.68381405 0.00000180
-0.08385756 -0.24893646 0.00000051
-0.23315766 -0.25930899 0.00000141
-0.32182366 0.02306328 -0.22077574
-0.47354499 -0.64003462 0.00000286
-0.25914690 0.17437582 -0.16650519
-0.24471933 -0.08505163 0.00000148
-0.53513682 -0.57904619 0.00000323
-0.43052524 -0.61041909 0.00000260
-0.04425838 -0.00672271 0.00000027
-0.29612273 -0.47969788 0.00000179
-0.03711794 -0.69605505 0.00000022
-0.15220591 -0.43974853 0.00000092
-0.00911597 0.08364702 0.00001044
-0.19217786 0.08449003 0.00000435
-0.09894287 0.37386122 0.00000311
-0.19046634 -0.53767008 0.00000115
-0.13913280 -0.11601014 0.00000084
-0.32622507 -0.66619825 0.00000197
-0.25989997 -0.46836290 0.00000157
-0.31844765 -0.64530790 0.00000192
-0.47955850 -0.35777628 0.31804234
-0.15898827 0.20468350 0.00000365
-0.49312255 -0.54012436 0.00000298
-0.46054095 -0.31182486 -0.31083792
