ply
format ascii 1.0
element vertex 1226
property float x
property float y
property float z
end_header
-0.67821687 -0.45356658 -0.00000035
-0.27335337 -0.46585247 -0.00000019
-0.51497811 -0.05089673 0.00000137
-0.04111922 -0.78271008 -0.00000017
-0.19491425 0.08268720 -0.00000415
-0.20392850 -0.31913134 0.00000087
-0.75121713 -0.47029909 -0.00000082
-0.70823109 -0.15562612 -0.00000085
-0.33964106 -0.35128158 -0.00000009
-0.43955678 -0.64756531 -0.00000199
-0.30168897 -0.29756671 0.00000038
-0.29376701 0.19711970 0.00000385
-0.08139361 -0.09050824 0.00000261
-0.46664873 -0.06079580 0.00000194
-0.58062261 -0.56015360 0.00000085
-0.59158981 -0.16560127 0.00000053
-0.33061704 0.39157182 0.00000332
-0.59743232 -0.69959110 -0.00000317
-0.10233960 -0.38065010 0.00000122
-0.57546514 -0.18377921 0.00000072
-0.60426480 -0.50387985 0.00000054
-0.62262625 -0.74261677 -0.00000351
-0.22286707 0.03616791 -0.00000442
-0.50515705 -0.01002075 0.00000147
-0.01433424 -0.30959108 0.00000206
-0.76657277 -0.25403729 -0.00000136
-0.20187648 -0.27662033 0.00000107
-0.27920589 -0.68323046 -0.00000117
-0.02480135 0.57438827 0.00000239
-0.60944951 -0.70398289 -0.00000326
-0.04259967 -0.66865218 0.00000032
-0.74034625 0.01132606 -0.00000131
-0.70064443 -0.02255467 -0.00000082
-0.76119995 -0.62884718 -0.00000043
-0.35262913 -0.39823395 -0.00000037
-0.45708850 -0.00361880 0.00000203
-0.57478791 -0.70924944 -0.00000307
-0.73806173 -0.57240427 -0.00000057
-0.06615407 0.29465491 -0.00000301
-0.36800060 -0.03258823 0.34953758
-0.06671748 0.58326501 0.00000387
-0.07640542 -0.36061463 0.00000146
-0.69422156 -0.65337884 -0.00000037
-0.69409293 -0.56163436 -0.00000048
-0.13222620 -0.08916272 0.00000231
-0.60226709 -0.14894077 0.00000039
-0.22306252 0.23840903 0.00000039
-0.52593476 -0.13410823 0.00000128
-0.28069523 0.42059472 0.00000389
-0.09240426 -0.17369533 0.00000218
-0.25475082 0.50997108 0.00000415
-0.63477695 -0.33905494 0.00000010
-0.00208633 -0.20630161 0.00000258
-0.00885272 0.35276139 -0.00000335
-0.79059362 -0.07414468 -0.00000181
-0.12771142 0.02216626 -0.00000762
-0.12194291 0.37060598 0.00000048
-0.79658318 -0.00492371 -0.00000196
-0.51087517 -0.40477166 0.00000159
-0.34604245 -0.67791599 -0.00000155
-0.54862970 -0.68492466 -0.00000281
-0.76868999 -0.10971971 -0.00000158
-0.62276393 0.07084599 0.00000005
-0.32224390 -0.54029864 -0.00000081
-0.26356751 0.20009565 0.22787941
-0.58440733 -0.48244962 0.00000076
-0.60569394 -0.01171659 0.00000029
-0.76095271 -0.57189178 -0.00000057
-0.20383796 0.22678553 -0.00000046
-0.37912071 -0.06381017 0.32214177
-0.19417007 0.35536110 0.15106316
-0.11973561 -0.46313635 0.00000075
-0.31414616 0.47682610 0.00000347
-0.14735569 0.49165672 0.00000542
-0.77035391 -0.37062576 -0.00000107
-0.65486443 -0.16274630 -0.00000022
-0.03952832 -0.56380498 0.00000079
-0.32223317 0.07281934 0.31772310
-0.23990150 0.08245459 -0.00000280
-0.20979892 -0.61642092 -0.00000046
-0.41164497 0.24021624 0.00000244
-0.35725462 -0.31792516 -0.00000005
-0.33049306 0.04871315 0.29164618
-0.55124527 -0.22386685 0.00000103
-0.04765845 -0.15949932 0.00000251
-0.07165555 0.63648707 0.05939533
-0.17313333 -0.25280511 0.00000135
-0.78045827 -0.27426165 -0.00000131
-0.49315932 0.19358735 0.00000151
-0.07829136 -0.67637098 0.00000007
-0.47638726 -0.21510936 0.00000190
-0.30391207 -0.03977700 0.00000149
-0.18405183 0.39358339 0.00000504
-0.25287923 -0.55060744 -0.00000044
-0.36681461 -0.39895302 -0.00000046
-0.52986473 -0.26812711 0.00000130
-0.26302230 -0.16621459 0.00000119
-0.20902017 -0.31218952 0.00000087
-0.42588103 -0.07523452 0.00000243
-0.52820766 -0.36716512 0.00000137
-0.40025526 -0.10580583 0.37864828
-0.00895651 0.06602579 -0.00001016
-0.23397987 -0.05271051 0.00000186
-0.12329082 -0.52808648 0.00000045
-0.40906662 -0.12159066 0.41299832
-0.72082019 -0.28443369 -0.00000093
-0.12599738 0.55009484 0.00000564
-0.78028476 -0.15837216 -0.00000160
-0.14639817 -0.22656758 0.00000163
-0.63862652 -0.61307448 0.00000019
-0.26690054 0.19635727 0.25484872
-0.07842673 0.52115399 0.00000274
-0.30858624 0.14247236 0.00000370
-0.17529045 -0.03536125 0.00000229
-0.62551802 -0.50336885 0.00000029
-0.01311364 0.03842898 -0.00001069
-0.62176496 -0.67603475 0.00000042
-0.14674826 -0.28760871 0.00000136
-0.35273904 -0.06098843 0.00000110
-0.08635450 -0.29743001 0.00000168
-0.28597540 0.45330492 0.00000381
-0.31278333 0.41626596 0.00000352
-0.52150083 -0.73252362 -0.00000285
-0.01455659 0.67297143 0.00000442
-0.41304553 -0.68139452 -0.00000197
-0.41142923 -0.60216403 -0.00000162
-0.23102914 0.47504658 0.00000445
-0.30954146 0.45160547 0.00000354
-0.29156646 0.13749008 0.25910634
-0.54672891 0.05667081 0.00000094
-0.05179426 0.51433063 0.00000178
-0.01997673 -0.07010874 0.00000307
-0.42691258 -0.17890283 0.32395557
-0.34679419 0.40591726 0.00000312
-0.46421298 -0.58556795 -0.00000186
-0.12494886 -0.50504112 0.00000054
-0.20489714 0.33483717 0.18469788
-0.48244384 -0.38866878 -0.00000111
-0.60217494 -0.12135205 0.00000038
-0.53739810 -0.46112153 0.00000131
-0.13123710 0.63847500 0.00000554
-0.11674958 0.23927347 -0.00000279
-0.10548452 0.64022022 0.00000584
-0.28130597 -0.50095266 -0.00000039
-0.59021932 -0.67570013 -0.00000302
-0.64917845 0.12117219 -0.00000029
-0.18652181 -0.50777566 0.00000015
-0.22289568 -0.10925714 0.00000168
-0.73317456 -0.31449980 -0.00000106
-0.11457546 0.46649429 0.00000254
-0.19416443 0.08727989 -0.00000407
-0.30489916 0.08420456 0.00000377
-0.36795172 -0.36148125 -0.00000030
-0.54580140 -0.33067963 0.00000114
-0.01445847 0.27010858 -0.00000515
-0.64688176 -0.46206778 0.00000002
-0.20104957 -0.61861533 -0.00000042
-0.18010236 -0.57316309 -0.00000009
-0.45570841 -0.70651668 -0.00000234
-0.02472208 -0.29971686 0.00000204
-0.59863442 -0.20166805 0.00000046
-0.23715459 -0.69690275 -0.00000098
-0.28611347 0.14317611 0.21229126
-0.14282745 0.62183678 0.00000541
-0.47321025 -0.37150520 -0.00000098
-0.39545184 0.22337614 0.00000264
-0.12241091 -0.04335254 0.00000257
-0.08022281 0.52004224 0.00000277
-0.17611784 -0.06771957 0.00000214
-0.58174998 0.02769284 0.00000055
-0.33380592 -0.07708694 0.00000115
-0.64098650 -0.55232805 0.00000013
-0.57542717 -0.53350538 0.00000090
-0.52477449 -0.16310759 0.00000131
-0.40188655 -0.11526888 0.34406221
-0.47908658 -0.22607212 0.00000188
-0.78566647 -0.11985530 -0.00000170
-0.33385044 0.03426287 0.25192574
-0.24179755 0.24579066 0.18492867
-0.26130635 0.36811164 0.00000414
-0.58694816 -0.41222337 0.00000070
-0.39945301 -0.09975030 0.40443295
-0.69952315 -0.51566291 -0.00000057
-0.32148269 -0.21437851 0.00000062
-0.42722121 0.33525205 0.00000221
-0.36952847 -0.47043684 -0.00000079
-0.01487015 -0.43289268 0.00000152
-0.45944494 -0.58283961 -0.00000182
-0.55692977 -0.44878238 0.00000107
-0.49851015 0.27460563 0.00000140
-0.79323786 -0.77847224 -0.00000005
-0.44396374 -0.65330154 -0.00000204
-0.38614473 -0.30248806 -0.00000015
-0.07314721 -0.21646084 0.00000211
-0.59053582 -0.68590331 -0.00000307
-0.21594948 -0.05006298 0.00000198
-0.18099116 0.38916048 0.16347972
-0.50333196 -0.26214570 0.00000161
-0.00397040 -0.67228842 0.00000056
-0.08065549 -0.22980247 0.00000201
-0.02374497 0.74552882 0.01794185
-0.21028636 -0.20770480 0.00000132
-0.40411082 0.24861413 0.00000253
-0.22362193 -0.56155831 -0.00000031
-0.44588247 0.02658672 0.00000214
-0.56240505 -0.12986267 0.00000085
-0.13459536 0.10474244 -0.00000545
-0.02585075 -0.24633563 0.00000227
-0.35075539 -0.72141206 -0.00000177
-0.29021141 -0.76081610 -0.00000158
-0.76291740 -0.24414475 -0.00000139
-0.22562054 0.03370562 -0.00000439
-0.26083076 0.21002279 0.24866454
-0.09370995 0.50243896 0.00000276
-0.70777369 -0.23797724 -0.00000080
-0.31616157 -0.40488321 -0.00000018
-0.34951910 0.08887365 0.00000324
-0.77913010 -0.62326479 -0.00000044
-0.48725897 0.02642342 0.00000166
-0.08593245 0.38127694 -0.00000035
-0.03917152 0.20332173 -0.00000599
-0.17167705 0.48054442 0.00000514
-0.31520572 0.04954519 0.00000367
-0.15627740 -0.07280765 0.00000224
-0.05192682 -0.68274099 0.00000020
-0.36944616 -0.49823466 -0.00000091
-0.43808174 -0.38314381 -0.00000082
-0.43497729 -0.00460512 0.00000229
-0.08236377 0.62087327 0.00000612
-0.18819731 0.17591009 -0.00000214
-0.52387279 -0.65525681 -0.00000253
-0.33019423 -0.50208437 -0.00000069
-0.31589311 -0.27401555 0.00000039
-0.28518018 0.14711533 0.22284673
-0.04102107 0.31122500 -0.00000337
-0.18378444 -0.44441000 0.00000045
-0.73356712 -0.59493810 -0.00000051
-0.67440057 -0.23419003 -0.00000041
-0.73366368 -0.69569290 -0.00000026
-0.43314138 -0.13428555 0.00000237
-0.08353893 0.40586978 0.00000016
-0.39052489 0.03427252 0.00000279
-0.27203611 0.06790914 -0.00000218
-0.10756658 0.67607892 0.00000580
-0.14410500 -0.45760533 0.00000063
-0.56040597 0.21036553 0.00000071
-0.00408593 0.06228986 -0.00001040
-0.12130026 0.22996174 -0.00000288
-0.17443104 0.48734114 0.00000510
-0.68826574 -0.26342350 -0.00000056
-0.45183212 -0.10023590 0.00000213
-0.27279964 -0.47818848 -0.00000024
-0.34383264 0.10025630 0.00000330
-0.60842156 -0.25218734 0.00000037
-0.20087257 0.39328238 0.00000484
-0.07734369 0.50788862 0.00000240
-0.71528465 -0.10871853 -0.00000095
-0.14379998 -0.31512278 0.00000125
-0.40010300 -0.11970234 0.28938961
-0.29071715 -0.20057531 0.00000087
-0.27596557 0.12380452 -0.00000073
-0.01672263 -0.30121863 0.00000208
-0.78834230 -0.26583204 -0.00000134
-0.05239185 -0.27493095 0.00000198
-0.45139018 0.25535014 0.00000197
-0.27399242 -0.65765828 -0.00000103
-0.17125477 -0.62059271 -0.00000025
-0.45506343 0.09901004 0.00000200
-0.61857337 -0.08184106 0.00000017
-0.39408568 -0.65984553 -0.00000177
-0.13236783 0.00660817 -0.00000785
-0.41403216 -0.14788096 0.32349187
-0.36338705 0.05546241 0.00000310
-0.23753750 0.40305224 0.00000441
-0.07102438 -0.56225675 0.00000061
-0.50220150 -0.39966968 0.00000169
-0.70484543 -0.14432970 -0.00000081
-0.03677796 0.46563429 0.00000017
-0.15696917 -0.01279715 0.00000250
-0.69819432 -0.24822006 -0.00000068
-0.16009900 -0.53417021 0.00000020
-0.63759440 -0.30092040 0.00000005
-0.06560918 0.28940436 -0.00000315
-0.30903938 -0.57510358 -0.00000088
-0.14355676 0.47330385 0.12448492
-0.49974689 -0.50470871 -0.00000172
-0.06463569 -0.68958539 0.00000009
-0.04522434 0.69811708 0.04575434
-0.28773767 -0.33831882 0.00000028
-0.02796229 -0.07756580 0.00000299
-0.26897237 0.17629841 0.00000415
-0.17153002 0.31632504 0.00000069
-0.59157085 -0.49082273 0.00000068
-0.26362255 0.48601821 0.00000406
-0.19614275 -0.77970225 -0.00000110
-0.35730639 -0.43707907 -0.00000057
-0.14266504 -0.50527018 0.00000043
-0.15909964 0.49446043 0.00000528
-0.64637059 -0.75393987 0.00000017
-0.78538370 0.01373142 -0.00000183
-0.04148397 -0.49386203 0.00000109
-0.50639600 -0.35361862 0.00000162
-0.37840971 -0.22289689 0.00000024
-0.70339012 -0.58390868 -0.00000054
-0.65015793 -0.68053687 0.00000009
-0.33137265 0.04391593 0.27490816
-0.58200127 -0.08101584 0.00000060
-0.47345197 0.32334641 0.00000168
-0.64146644 -0.06287043 -0.00000011
-0.50201392 -0.58199567 -0.00000208
-0.04696638 -0.19461723 0.00000237
-0.53168952 -0.79867077 -0.00000320
-0.04359763 -0.60239321 0.00000060
-0.48606360 0.21000971 0.00000158
-0.77799690 -0.35351062 -0.00000112
-0.39380926 -0.03557064 0.00000278
-0.54140645 -0.73432463 -0.00000298
-0.00923341 -0.78041250 0.00000003
-0.65944231 -0.33645168 -0.00000019
-0.04167996 0.29253092 -0.00000379
-0.55436921 0.14550924 0.00000081
-0.39589989 -0.13046250 0.00000281
-0.34990263 0.00721288 0.32518446
-0.20127806 -0.61002845 -0.00000038
-0.18033578 -0.29606250 0.00000112
-0.38151118 -0.65095556 -0.00000165
-0.16964807 0.21970084 -0.00000166
-0.39493850 0.04189251 0.00000273
-0.28121853 0.06373414 -0.00000200
-0.51840144 0.22055124 0.00000120
-0.15841602 -0.70408320 -0.00000054
-0.70511162 0.08866685 -0.00000093
-0.42261586 -0.33357525 -0.00000051
-0.31081036 0.09262365 0.26906869
-0.28969210 0.14364038 0.26928103
-0.04833842 -0.78538573 -0.00000023
-0.39171228 0.21484324 0.00000269
-0.35345140 -0.09675927 0.00000094
-0.70757312 0.02453602 -0.00000093
-0.08497756 -0.21871561 0.00000203
-0.65810400 -0.35174680 -0.00000016
-0.01882377 0.59120160 0.00000261
-0.40057689 0.38063779 0.00000250
-0.78705835 -0.31027156 -0.00000122
-0.39256659 -0.31424257 -0.00000024
-0.25031814 -0.01795095 0.00000191
-0.24804039 -0.18963574 0.00000117
-0.30682135 -0.24712759 0.00000057
-0.32036284 0.36890140 0.00000345
-0.20447676 -0.62548751 -0.00000047
-0.18318553 -0.30335689 0.00000107
-0.16211018 -0.10142943 0.00000208
-0.62043971 0.17238010 0.00000008
-0.67941403 -0.61781019 -0.00000028
-0.53883737 -0.71871054 -0.00000290
-0.35065669 0.31085670 0.00000312
-0.13741764 -0.50019932 0.00000048
-0.55825329 -0.19128589 0.00000093
-0.25255090 -0.35182929 0.00000044
-0.45425689 0.34105247 0.00000193
-0.06770118 -0.58800006 0.00000052
-0.26899329 -0.25587937 0.00000076
-0.34272695 0.02661958 0.33822742
-0.19661292 -0.67726219 -0.00000065
-0.59659928 -0.02399742 0.00000040
-0.20273297 0.42111489 0.00000480
-0.65335912 0.12038658 -0.00000034
-0.04164440 0.00073481 -0.00001073
-0.62058407 -0.05187753 0.00000013
-0.68236053 -0.30036736 -0.00000047
-0.30928391 -0.01671603 0.00000156
-0.41109660 -0.29460046 -0.00000027
-0.75347048 -0.70202798 -0.00000024
-0.26726800 0.20522606 0.00000415
-0.60997647 -0.38050970 0.00000042
-0.66514599 -0.16954724 -0.00000033
-0.47217628 0.26056680 0.00000172
-0.51586974 -0.21542622 0.00000144
-0.68839204 -0.32181877 -0.00000053
-0.58278191 -0.19485673 0.00000064
-0.00939522 -0.41378966 0.00000163
-0.68567884 -0.27021483 -0.00000053
-0.05271152 -0.36546853 0.00000158
-0.43773562 -0.57641697 -0.00000166
-0.22540627 -0.16787942 0.00000141
-0.64816266 -0.26243377 -0.00000009
-0.63914716 -0.43695661 0.00000010
-0.44130656 0.06450803 0.00000218
-0.21756724 0.30183136 0.16955954
-0.28239632 0.25453177 0.00000395
-0.19681582 0.12925532 -0.00000299
-0.40972656 -0.08098263 0.00000262
-0.68976623 -0.18764341 -0.00000061
-0.01030085 0.71634859 0.00000532
-0.37592456 0.07365258 0.00000294
-0.34174618 0.26766428 0.00000325
-0.40292111 0.10526426 0.00000261
-0.67688590 -0.47079450 -0.00000033
-0.77622569 -0.32520318 -0.00000119
-0.28549939 0.15393868 0.27038562
-0.34601852 -0.02913813 0.00000334
-0.35352328 -0.60709947 -0.00000129
-0.05943658 0.67185622 0.00000636
-0.13484046 0.04947346 -0.00000676
-0.26357511 0.19556917 0.19965841
-0.26370758 0.43924761 0.00000408
-0.65443200 -0.71233225 0.00000005
-0.08794852 0.25315720 -0.00000333
-0.01474261 -0.54195929 0.00000104
-0.07599103 -0.79691035 -0.00000045
-0.21750173 0.41820651 0.00000463
-0.76452392 -0.12840921 -0.00000152
-0.15039447 0.52146018 0.00000537
-0.30143178 0.11073598 0.24071646
-0.78957397 -0.40908259 -0.00000098
-0.22926052 0.27446160 0.17494117
-0.64377260 -0.47811180 0.00000007
-0.43072525 -0.31581396 -0.00000048
-0.05635907 -0.58923167 0.00000058
-0.20326070 0.33817509 0.18086226
-0.58441132 -0.22890291 0.00000064
-0.30470085 -0.08645665 0.00000128
-0.09635965 0.57964510 0.00000598
-0.19408663 -0.79663754 -0.00000116
-0.12571979 0.51139158 0.00000566
-0.08786079 0.15644194 -0.00000563
-0.34121111 -0.33427349 -0.00000002
-0.28556162 -0.49384245 -0.00000038
-0.19983689 -0.55730790 -0.00000014
-0.46094418 -0.25398785 0.36822742
-0.12525509 -0.73360521 -0.00000047
-0.06328768 0.64597750 0.00000525
-0.23941255 -0.26281640 0.00000091
-0.43327388 0.23455098 0.00000219
-0.40754008 -0.03133544 0.00000262
-0.40622205 -0.21543983 0.00000011
-0.29875803 -0.33568984 0.00000023
-0.41713551 -0.00802769 0.00000250
-0.37620124 -0.58693397 -0.00000134
-0.02846199 -0.06888544 0.00000303
-0.67933309 -0.23769434 -0.00000047
-0.61696589 0.00125205 0.00000015
-0.14207977 -0.26407498 0.00000149
-0.09050104 -0.47255856 0.00000089
-0.29395661 0.45841318 0.00000372
-0.35840318 -0.01546926 0.31165990
-0.61595303 -0.11312826 0.00000022
-0.33259588 -0.77884388 -0.00000191
-0.56276476 -0.68979448 -0.00000291
-0.18850116 0.07145515 -0.00000461
-0.09326817 0.05027602 -0.00000799
-0.26947412 0.18312567 0.21091178
-0.48068085 0.27262405 0.00000162
-0.15101686 -0.33898011 0.00000111
-0.00314760 0.26832134 -0.00000553
-0.05289865 -0.69043398 0.00000016
-0.03507142 -0.11258247 0.00000280
-0.13305655 -0.79875278 -0.00000080
-0.14366928 -0.36654425 0.00000103
-0.01573903 0.40626395 -0.00000188
-0.22046903 -0.39613312 0.00000044
-0.28568643 0.01615587 -0.00000299
-0.50142694 -0.01563294 0.00000151
-0.65471983 -0.46705496 -0.00000007
-0.45346177 -0.51500416 -0.00000149
-0.51443082 -0.37724397 0.00000154
-0.60826498 -0.66497552 0.00000057
-0.24851239 0.07337761 -0.00000276
-0.57078618 -0.31380153 0.00000084
-0.13674118 -0.24973375 0.00000158
-0.11010415 -0.28933239 0.00000157
-0.33244169 -0.29416278 0.00000021
-0.50062394 -0.21440548 0.00000162
-0.07751011 0.56674922 0.00000380
-0.29807627 -0.71088946 -0.00000141
-0.37145948 0.13330467 0.00000296
-0.35656470 -0.73202282 -0.00000185
-0.01526282 0.20273226 -0.00000672
-0.53510404 -0.48191014 0.00000134
-0.70719200 -0.79379433 -0.00000002
-0.48432440 0.22597075 0.00000159
-0.19508964 0.13203567 -0.00000298
-0.29112414 0.13040832 0.20808928
-0.61660534 -0.06565403 0.00000018
-0.29031497 0.36987755 0.00000380
-0.04301848 -0.47045442 0.00000118
-0.41597709 -0.24552445 -0.00000008
-0.33446017 -0.58319676 -0.00000107
-0.15412176 0.03225890 -0.00000658
-0.25895613 -0.68759215 -0.00000107
-0.44831693 0.27934694 0.00000199
-0.11452612 -0.02085774 0.00000272
-0.63668132 -0.74552077 -0.00000360
-0.41142845 0.23771290 0.00000244
-0.50078201 0.03995255 0.00000149
-0.08962863 -0.04032758 0.00000278
-0.11529936 0.65963137 0.00000572
-0.43093422 -0.16726623 0.00000241
-0.66360396 -0.22929560 -0.00000029
-0.18743257 0.08340196 -0.00000436
-0.10146721 0.12093158 -0.00000607
-0.19360965 -0.65201706 -0.00000052
-0.38559422 -0.36508200 -0.00000042
-0.51970088 -0.41260666 0.00000149
-0.32766435 0.05278414 0.27438101
-0.43187201 -0.17923775 0.39678961
-0.71000177 -0.70116448 -0.00000025
-0.28855908 0.37883922 0.00000382
-0.72171777 -0.24690861 -0.00000096
-0.12726456 0.49744636 0.00000565
-0.17436942 -0.26913223 0.00000127
-0.79554880 -0.16615000 -0.00000158
-0.17569277 0.34474924 0.00000149
-0.06199367 0.40595719 -0.00000049
-0.08947483 0.15295209 -0.00000567
-0.38328326 -0.76572704 -0.00000216
-0.13823307 -0.57039618 0.00000017
-0.16547248 0.57489842 0.00000517
-0.49212527 -0.01989609 0.00000162
-0.28462487 0.22181131 0.00000394
-0.75627792 0.03452043 -0.00000150
-0.75106168 -0.15411837 -0.00000135
-0.49041441 -0.58783329 -0.00000203
-0.78049421 -0.21189049 -0.00000147
-0.12452508 -0.75349575 -0.00000055
-0.07287580 0.02255252 -0.00000927
-0.42364237 -0.03230871 0.00000243
-0.07270331 -0.43518358 0.00000116
-0.21423265 -0.08219535 0.00000185
-0.37342441 -0.16982707 0.00000050
-0.52339411 -0.52139801 -0.00000194
-0.02639681 -0.71473145 0.00000021
-0.14784907 0.11257362 -0.00000486
-0.45146704 -0.71477193 -0.00000235
-0.08714506 0.60043353 0.06778713
-0.12342904 0.30200925 -0.00000110
-0.05988416 0.11645649 -0.00000743
-0.32536554 0.18993407 0.00000348
-0.30302140 0.46855992 0.00000360
-0.17278299 -0.32813016 0.00000102
-0.30261490 0.11652474 0.29483491
-0.37598372 -0.11674678 0.00000072
-0.71244699 -0.07956783 -0.00000093
-0.26143920 -0.20870876 0.00000101
-0.57540369 0.11487101 0.00000058
-0.27428386 -0.14197366 0.00000122
-0.34427205 0.02078682 0.32506475
-0.37809265 -0.49465987 -0.00000095
-0.05488827 -0.01485499 0.00000310
-0.69650537 -0.49685735 -0.00000054
-0.10595186 -0.46232924 0.00000084
-0.25110415 -0.23148435 0.00000097
-0.36589476 -0.02506418 0.36481351
-0.06935649 -0.43422684 0.00000118
-0.07120904 -0.38175488 0.00000140
-0.43653527 -0.20207836 0.32430393
-0.25040600 0.31726897 0.00000430
-0.06096277 0.10832025 -0.00000759
-0.75299859 -0.02118169 -0.00000144
-0.32657313 0.47093922 0.00000335
-0.08279083 0.71470922 0.00000607
-0.79908073 -0.26556337 -0.00000134
-0.50874472 -0.07586755 0.00000146
-0.00660675 0.56231356 0.00000155
-0.72325426 -0.74581802 -0.00000014
-0.24625511 0.24460544 0.24487551
-0.79505742 -0.44357279 -0.00000089
-0.05730216 -0.37883914 0.00000150
-0.55494326 -0.36984682 0.00000106
-0.19120757 -0.72883248 -0.00000084
-0.08237903 -0.67136097 0.00000007
-0.64752191 -0.69666892 0.00000013
-0.77356160 -0.13547796 -0.00000162
-0.33871877 0.30797955 0.00000326
-0.13663533 -0.19948345 0.00000180
-0.57005209 -0.38501355 0.00000089
-0.21265107 0.32033792 0.21111523
-0.72337109 -0.02652753 -0.00000109
-0.74319488 -0.36118689 -0.00000110
-0.22572303 -0.36455208 0.00000054
-0.02274180 -0.42645320 0.00000150
-0.78248805 -0.55728990 -0.00000061
-0.55482346 -0.29116216 0.00000102
-0.34547049 -0.35371497 -0.00000013
-0.19479834 0.22956611 -0.00000067
-0.04539459 0.56440276 0.00000277
-0.27783152 0.19437104 0.00000403
-0.77490151 -0.42237726 -0.00000094
-0.45576203 -0.17139260 0.00000212
-0.36671361 -0.09967276 0.00000085
-0.00744661 0.52029890 0.00000058
-0.36709228 -0.41072288 -0.00000051
-0.30290586 -0.13369158 0.00000109
-0.59855670 0.00579974 0.00000036
-0.36752313 -0.21259242 0.00000035
-0.35359770 -0.70334816 -0.00000171
-0.41759843 -0.72964209 -0.00000221
-0.09369119 -0.56342143 0.00000047
-0.60808003 -0.32592228 0.00000041
-0.01945799 -0.54386485 0.00000100
-0.04119349 0.02267921 -0.00001022
-0.17071886 -0.69912213 -0.00000059
-0.38153440 -0.07703744 0.27581546
-0.46337342 -0.35684180 -0.00000086
-0.16250470 -0.14687885 0.00000188
-0.48561853 0.18802238 0.00000160
-0.61758596 0.12139471 0.00000008
-0.07180696 -0.04827102 0.00000286
-0.45964348 -0.64534140 -0.00000210
-0.44693384 -0.22646505 0.32879469
-0.21702711 -0.67254472 -0.00000075
-0.27594689 -0.32780260 0.00000040
-0.16553023 -0.77088988 -0.00000087
-0.21946545 0.21278584 -0.00000032
-0.55771112 -0.34792545 0.00000101
-0.28501901 -0.46608284 -0.00000026
-0.21381108 -0.62746727 -0.00000054
-0.28626931 -0.41364568 -0.00000004
-0.04597990 0.02073380 -0.00001012
-0.21927741 -0.07461765 0.00000185
-0.36616570 -0.03346419 0.31632337
-0.15600394 0.19843417 -0.00000258
-0.27431041 0.41043326 0.00000397
-0.03304305 -0.55734414 0.00000086
-0.53050542 -0.20720038 0.00000126
-0.23761065 0.25483406 0.17826533
-0.35107502 -0.73493207 -0.00000183
-0.67678666 -0.10902821 -0.00000050
-0.73343694 -0.64923936 -0.00000038
-0.17459361 0.40211076 0.14786460
-0.07033947 0.15377545 -0.00000623
-0.47132638 0.31381106 0.00000170
-0.14467509 -0.14353591 0.00000200
-0.49024621 0.22875772 0.00000152
-0.67886966 -0.45352131 -0.00000036
-0.34657219 -0.59504223 -0.00000120
-0.03816859 -0.10121524 0.00000283
-0.40404084 0.37834829 0.00000246
-0.34478632 -0.03833867 0.00000125
-0.40584543 -0.12381148 0.35041454
-0.50006300 -0.16855934 0.00000160
-0.43881270 -0.20104285 0.36519301
-0.43912777 -0.20050162 0.37334049
-0.04335864 -0.46055648 0.00000122
-0.39102727 -0.72775358 -0.00000204
-0.05435745 -0.35540658 0.00000162
-0.54655325 -0.26131636 0.00000110
-0.48790437 -0.77065593 -0.00000282
-0.13614997 -0.11836411 0.00000216
-0.29000929 0.43173760 0.00000378
-0.13956439 -0.13188089 0.00000208
-0.32389635 -0.30956018 0.00000019
-0.67877442 -0.62465435 -0.00000027
-0.58802414 -0.70564675 -0.00000314
-0.27229923 -0.40438330 0.00000009
-0.55573237 -0.36257780 0.00000104
-0.30164781 -0.63919502 -0.00000112
-0.01101781 0.70300061 0.00000503
-0.22316670 -0.52451229 -0.00000014
-0.21649931 0.15747780 -0.00000173
-0.51640129 -0.11427798 0.00000138
-0.39896637 -0.07158331 0.00000274
-0.49619684 0.18350662 0.00000148
-0.45948803 -0.07023437 0.00000203
-0.68547845 -0.10596899 -0.00000060
-0.36374134 -0.60938513 -0.00000136
-0.43588305 -0.20234896 0.31275612
-0.23653468 -0.14604124 0.00000143
-0.21697973 -0.28462377 0.00000095
-0.04297320 0.70319724 0.04353548
-0.08732170 -0.56654328 0.00000049
-0.40059134 -0.11780200 0.30866018
-0.15047868 -0.72592950 -0.00000058
-0.44750756 -0.56824410 -0.00000169
-0.71123272 -0.06178272 -0.00000093
-0.22647454 0.07117728 -0.00000348
-0.73904997 0.05043831 -0.00000131
-0.73955756 -0.14360964 -0.00000122
-0.04923002 -0.51837355 0.00000093
-0.74493176 0.03387378 -0.00000137
-0.37183833 0.11522840 0.00000297
-0.78112710 -0.59242094 -0.00000052
-0.43271106 -0.74666429 -0.00000238
-0.34523255 0.31820330 0.00000318
-0.26928452 -0.68086767 -0.00000110
-0.15773544 0.15258561 -0.00000362
-0.11950732 0.04660344 -0.00000729
-0.43808821 0.08282898 0.00000221
-0.05822111 -0.10739323 0.00000268
-0.48119077 -0.30672151 0.34410590
-0.03216762 0.40666232 -0.00000137
-0.24740207 0.23394461 0.19547147
-0.29350707 0.22948234 0.00000383
-0.11142343 -0.78390956 -0.00000060
-0.75249201 -0.76259089 -0.00000009
-0.62243778 -0.74112642 -0.00000350
-0.76261693 -0.49531788 -0.00000076
-0.66804081 -0.14490274 -0.00000038
-0.54904073 -0.43002594 0.00000115
-0.04407026 -0.76717591 -0.00000012
-0.48330778 -0.25157547 0.00000184
-0.66047043 -0.55231237 -0.00000009
-0.45186928 -0.23970602 0.00000220
-0.07401369 0.21093182 -0.00000476
-0.62205631 -0.22218005 0.00000020
-0.06513723 -0.51070672 0.00000087
-0.72650236 -0.51697505 -0.00000071
-0.31401637 0.07920389 0.23351145
-0.21413799 0.31329325 0.18948637
-0.62896508 -0.22842738 0.00000012
-0.11939681 0.61921483 0.00000569
-0.46250337 0.04671505 0.00000194
-0.05977933 -0.72889632 -0.00000005
-0.05220358 0.67989582 0.03716351
-0.32815129 0.21445587 0.00000343
-0.33553520 -0.06874996 0.00000117
-0.78128207 0.01808621 -0.00000178
-0.28384995 -0.46129015 -0.00000023
-0.54719120 -0.44310898 0.00000118
-0.79036117 -0.30015132 -0.00000125
-0.14596333 0.15351032 -0.00000395
-0.39523843 -0.12320058 0.00000281
-0.56462884 -0.44399422 0.00000098
-0.27984017 0.15827976 0.21203412
-0.04569017 0.41553968 -0.00000075
-0.35966873 -0.02706783 0.25817752
-0.43859917 -0.38022760 -0.00000081
-0.21629053 0.30633396 0.17845182
-0.06966804 0.60507530 0.00000447
-0.31157321 -0.04601083 0.00000142
-0.56923413 -0.41726047 0.00000091
-0.33965960 -0.34138241 -0.00000004
-0.23139623 0.27871957 0.23387362
-0.58207572 0.01620879 0.00000055
-0.43079346 -0.66700470 -0.00000202
-0.15792854 0.35776526 0.00000126
-0.25958532 0.21705537 0.00000424
-0.60864043 -0.50856870 0.00000049
-0.74192643 -0.11088107 -0.00000126
-0.59765756 -0.60790604 0.00000067
-0.42511475 0.32595286 0.00000224
-0.40550181 0.17754065 0.00000254
-0.52078480 -0.75839502 -0.00000296
-0.45325136 -0.59013796 -0.00000182
-0.35650253 0.02020123 0.00000320
-0.58595067 -0.37342155 0.00000069
-0.75860447 -0.07349771 -0.00000148
-0.55922610 0.22231393 0.00000072
-0.10633945 -0.03090255 0.00000272
-0.13755140 0.24836308 -0.00000195
-0.78618264 -0.03079287 -0.00000182
-0.41770497 0.11702327 0.00000243
-0.34057307 -0.12042068 0.00000092
-0.03044170 -0.71089995 0.00000021
-0.78261024 -0.48204905 -0.00000079
-0.06738497 -0.16711424 0.00000236
-0.71354437 -0.10924983 -0.00000093
-0.30319408 -0.23667452 0.00000063
-0.32759094 -0.39326757 -0.00000020
-0.47521970 0.00335228 0.00000181
-0.19516566 0.47136572 0.00000487
-0.54332983 0.06944346 0.00000098
-0.33129975 -0.19954535 0.00000063
-0.23116356 -0.50856286 -0.00000012
-0.34252071 -0.08714911 0.00000105
-0.27353638 -0.58255380 -0.00000070
-0.49294093 -0.24239060 0.00000172
-0.73909730 -0.56100965 -0.00000060
-0.15124530 -0.25145131 0.00000149
-0.01546660 0.30771723 -0.00000422
-0.79697663 -0.29910767 -0.00000125
-0.14919841 0.56265843 0.00000536
-0.73539287 -0.60710680 -0.00000048
-0.25438091 -0.56930256 -0.00000053
-0.29523194 0.08472833 -0.00000108
-0.17109959 0.39069831 0.00000519
-0.21943925 -0.53555131 -0.00000017
-0.27509332 -0.15069754 0.00000118
-0.33434996 0.45452365 0.00000324
-0.78695023 -0.09723955 -0.00000176
-0.65392023 0.14428271 -0.00000036
-0.29698151 -0.56878918 -0.00000078
-0.38411498 -0.60766739 -0.00000148
-0.62984312 -0.53909391 0.00000026
-0.46583036 -0.33469027 -0.00000078
-0.40786344 -0.13244177 0.32691300
-0.34006217 0.29289487 0.00000326
-0.51908684 -0.56679147 -0.00000211
-0.79006743 -0.20820062 -0.00000148
-0.66612279 -0.77632743 -0.00000005
-0.00116184 -0.07326797 0.00000318
-0.53822029 0.10761648 0.00000102
-0.77618128 -0.15668663 -0.00000161
-0.55226886 -0.68009973 -0.00000281
-0.43265831 -0.18119588 0.39641514
-0.07546782 -0.37121347 0.00000142
-0.53538150 -0.61967134 -0.00000244
-0.69258189 -0.15841822 -0.00000066
-0.57164448 -0.57578707 0.00000096
-0.13130631 -0.41361150 0.00000090
-0.02662932 0.06317976 -0.00000970
-0.76682717 -0.56444550 -0.00000059
-0.08897437 0.40573540 0.00000032
-0.43005198 0.29725701 0.00000220
-0.14786457 -0.16302674 0.00000189
-0.57233685 -0.04416758 0.00000069
-0.24425036 0.25003895 0.24859232
-0.40477625 -0.11880557 0.36559364
-0.69183129 -0.50150365 -0.00000049
-0.07905483 -0.12824720 0.00000246
-0.22233538 -0.05141170 0.00000193
-0.31869075 0.15133819 0.00000358
-0.72465932 -0.72940481 -0.00000018
-0.73122364 0.04220874 -0.00000121
-0.76047748 -0.07353756 -0.00000150
-0.35793111 0.11495686 0.00000313
-0.19588161 -0.17611288 0.00000155
-0.33228549 0.46615589 0.00000327
-0.04071140 0.33640993 -0.00000278
-0.62611526 -0.32350981 0.00000020
-0.65989631 -0.17917186 -0.00000027
-0.07472337 0.55853128 0.00000352
-0.57323301 -0.42695299 0.00000087
-0.23372377 0.27155358 0.22418927
-0.30833060 0.07381806 0.00000373
-0.26571015 -0.58647239 -0.00000067
-0.12266598 0.38719851 0.00000090
-0.20671423 -0.09038084 0.00000186
-0.24240828 -0.61670351 -0.00000066
-0.16136719 0.41516870 0.00000529
-0.23741773 0.25968620 0.20572449
-0.30937129 0.18025713 0.00000367
-0.55009758 -0.49124441 0.00000117
-0.35350111 -0.73940760 -0.00000187
-0.67697424 0.11314297 -0.00000061
-0.07907383 -0.19129968 0.00000219
-0.62944740 0.08379201 -0.00000004
-0.21231809 -0.29450586 0.00000093
-0.79610610 -0.08263842 -0.00000179
-0.03753818 0.62500864 0.00000398
-0.20387816 -0.17019787 0.00000152
-0.58313006 0.14091186 0.00000048
-0.56538874 0.20026962 0.00000066
-0.40990773 -0.61034590 -0.00000164
-0.18260679 0.38092649 0.13635093
-0.01625803 0.43882704 -0.00000109
-0.30514419 0.10851168 0.28289711
-0.78891253 -0.73962253 -0.00000015
-0.07020524 -0.44960749 0.00000111
-0.03972534 -0.19043256 0.00000243
-0.21014370 -0.28169981 0.00000100
-0.52669960 -0.13095643 0.00000127
-0.22331028 -0.10155475 0.00000171
-0.42584997 -0.35155538 -0.00000061
-0.78742713 -0.31862131 -0.00000120
-0.22986206 -0.48222223 0.00000000
-0.38693836 -0.30331218 -0.00000016
-0.25281945 -0.78730297 -0.00000147
-0.06636100 -0.00363468 0.00000308
-0.28348768 -0.23312961 0.00000077
-0.45614231 0.03982703 0.00000202
-0.48725840 -0.26904431 0.00000180
-0.23816596 -0.59076315 -0.00000052
-0.07683350 -0.42991590 0.00000116
-0.68105870 -0.46025363 -0.00000038
-0.45866743 -0.12353603 0.00000207
-0.14095604 0.25221735 -0.00000176
-0.36019573 -0.01646620 0.33250931
-0.63324302 -0.12859212 0.00000002
-0.11325474 -0.79848003 -0.00000068
-0.36092132 -0.01911329 0.00000316
-0.05960962 0.03354219 -0.00000940
-0.28118053 -0.43663833 -0.00000011
-0.05400682 -0.29080096 0.00000190
-0.44796041 0.25326189 0.00000201
-0.02827439 0.54647893 0.00000183
-0.58972788 -0.18749171 0.00000056
-0.37563846 -0.04632689 0.37896302
-0.30091575 -0.06721314 0.00000139
-0.00194346 0.07922914 -0.00001006
-0.65174305 -0.58485693 0.00000002
-0.39780709 -0.10379338 0.35424772
-0.77320933 -0.25945631 -0.00000135
-0.23028977 0.35255221 0.00000451
-0.78651577 -0.72137594 -0.00000020
-0.32800806 0.03645658 0.00000352
-0.30468488 0.30107123 0.00000367
-0.63623726 -0.59777260 0.00000021
-0.15044785 0.47066295 0.00000539
-0.57247478 -0.19355743 0.00000076
-0.25156626 0.29251772 0.00000429
-0.59605712 -0.74757737 -0.00000337
-0.16516653 -0.50985712 0.00000027
-0.11232418 -0.64541882 -0.00000000
-0.48089904 -0.54965067 -0.00000181
-0.67801368 -0.18543640 -0.00000048
-0.62594646 -0.55094302 0.00000031
-0.35345608 -0.65195388 -0.00000149
-0.27438086 0.07317941 -0.00000198
-0.21479593 0.25804329 0.00000061
-0.10442313 0.62548858 0.00000586
-0.74812901 -0.30500674 -0.00000124
-0.22309601 0.22746161 0.00000013
-0.34042904 0.03807987 0.00000338
-0.74133134 -0.24590302 -0.00000119
-0.31820741 0.07163553 0.24947149
-0.47399566 -0.51167667 -0.00000160
-0.23635951 0.26125538 0.19955474
-0.08806445 -0.20121612 0.00000209
-0.46047100 -0.25211662 0.37278846
-0.39208829 -0.61728293 -0.00000157
-0.25608397 -0.43151352 0.00000007
-0.64478254 -0.70437813 0.00000016
-0.36764762 0.42589098 0.00000292
-0.24973829 0.50759178 0.00000421
-0.21217999 0.16819271 -0.00000160
-0.04116404 -0.33159795 0.00000180
-0.27336991 0.18121304 0.25781474
-0.54903102 0.24387692 0.00000088
-0.21602803 -0.13877714 0.00000159
-0.09628571 -0.18249077 0.00000212
-0.22487178 -0.75954986 -0.00000118
-0.48746473 -0.18332127 0.00000176
-0.53670007 -0.56019187 -0.00000219
-0.43399623 -0.12401882 0.00000236
-0.01846628 -0.68441504 0.00000039
-0.23054345 0.06766670 -0.00000344
-0.28748482 -0.60307735 -0.00000087
-0.47639942 -0.38869721 -0.00000108
-0.46136278 0.23242976 0.00000186
-0.37425691 -0.07522927 0.00000303
-0.49317876 -0.63974965 -0.00000228
-0.63785326 -0.53818822 0.00000016
-0.08294614 -0.33940122 0.00000151
-0.19763021 -0.39847580 0.00000056
-0.39539367 -0.24652927 0.00000004
-0.50944167 -0.52930397 -0.00000189
-0.09466981 0.40577665 0.00000049
-0.04020423 0.18637998 -0.00000636
-0.48282892 -0.52642369 -0.00000172
-0.18575104 0.37873635 0.17015886
-0.19715650 -0.23149750 0.00000130
-0.00810848 0.05487428 -0.00001045
-0.41754773 0.22440828 0.00000238
-0.53062898 -0.56467837 -0.00000217
-0.03929069 0.75564015 0.00000660
-0.01673064 -0.07603877 0.00000307
-0.50007558 0.01719320 0.00000151
-0.72616446 -0.25711906 -0.00000101
-0.29985553 0.12148008 0.28415409
-0.69595844 -0.57201487 -0.00000050
-0.20898104 0.45114070 0.00000472
-0.54965317 -0.15141594 0.00000101
-0.09480836 0.51154077 0.00000301
-0.23508696 0.44751364 0.00000441
-0.59823740 -0.57174945 0.00000065
-0.53724116 -0.74766529 -0.00000301
-0.01054144 -0.69858247 0.00000038
-0.07963295 0.54394001 0.00000332
-0.67205220 -0.06987091 -0.00000046
-0.12821665 0.16856159 -0.00000413
-0.15248218 -0.14471459 0.00000195
-0.23437607 -0.58265340 -0.00000046
-0.02895497 -0.53934950 0.00000097
-0.58157569 -0.41772500 0.00000077
-0.02906344 -0.09824358 0.00000289
-0.14572895 0.49563062 0.00000544
-0.14595810 0.06675599 -0.00000601
-0.32701173 -0.79220355 -0.00000194
-0.07605390 -0.73324668 -0.00000017
-0.59241468 0.19994438 0.00000034
-0.73538232 -0.09522684 -0.00000120
-0.31660426 0.05992236 0.00000364
-0.36215007 0.08397381 0.00000310
-0.34986514 -0.71821827 -0.00000175
-0.00202972 -0.00060961 0.00000350
-0.13933067 0.25553316 -0.00000173
-0.69375950 0.03783496 -0.00000077
-0.78805721 -0.19489673 -0.00000151
-0.05164061 0.53470469 0.00000226
-0.45546398 -0.26041868 0.00000217
-0.22396718 -0.15486288 0.00000147
-0.01286286 0.44893888 -0.00000095
-0.28893492 -0.72738659 -0.00000143
-0.09215777 -0.00665877 0.00000291
-0.14123534 0.58133060 0.00000545
-0.78427005 -0.73494542 -0.00000016
-0.61966389 -0.15545897 0.00000019
-0.03094241 0.55353028 0.00000208
-0.01355322 -0.75918907 0.00000010
-0.54493761 -0.20152962 0.00000109
-0.04722283 -0.54742104 0.00000082
-0.17354111 0.06447504 -0.00000523
-0.56490487 -0.57841718 -0.00000244
-0.43185210 0.16336013 0.00000224
-0.10441890 -0.37391973 0.00000123
-0.19686179 -0.68217087 -0.00000067
-0.38232270 -0.07274376 0.31460771
-0.72636974 -0.63427299 -0.00000041
-0.21404932 0.36931583 0.00000470
-0.37978473 -0.05567789 0.38308576
-0.54206938 0.23714370 0.00000091
-0.11486247 -0.45896438 0.00000080
-0.67026573 -0.44859976 -0.00000026
-0.31910187 0.44884020 0.00000343
-0.27836090 -0.71100324 -0.00000129
-0.27199873 -0.43522179 -0.00000005
-0.44934526 -0.48920745 -0.00000135
-0.23117177 -0.11305013 0.00000161
-0.64395428 -0.72060871 0.00000018
-0.62270087 -0.70621794 -0.00000335
-0.22478247 0.28835836 0.19426005
-0.06610764 0.12891869 -0.00000694
-0.12272045 0.07121759 -0.00000661
-0.07731677 -0.67584050 0.00000008
-0.35977441 -0.25615451 0.00000021
-0.61292565 -0.74072146 -0.00000344
-0.24609149 -0.41207531 0.00000021
-0.79314941 -0.17145503 -0.00000157
-0.01132565 0.42158183 -0.00000165
-0.12662120 0.49386007 0.00000355
-0.39777932 -0.10076164 0.37280694
-0.56979972 -0.54130137 0.00000096
-0.02428051 0.72989917 0.00000607
-0.27580649 0.03628973 -0.00000281
-0.16866855 0.09088032 -0.00000475
-0.22538111 0.04559378 -0.00000412
-0.29376197 -0.14050877 0.00000111
-0.66248810 -0.39859632 -0.00000019
-0.54968554 -0.23344599 0.00000105
-0.00821370 -0.13114929 0.00000288
-0.35963899 -0.11575992 0.00000082
-0.31650689 -0.49413988 -0.00000057
-0.71608913 -0.66223204 -0.00000034
-0.21483321 0.00956206 -0.00000529
-0.37785777 -0.35605890 -0.00000034
-0.33367655 -0.38920036 -0.00000022
-0.20547645 -0.55655575 -0.00000018
-0.36745203 -0.03783850 0.00000309
-0.29005778 0.01587980 -0.00000287
-0.03548560 0.03118827 -0.00001019
-0.01335015 -0.42139569 0.00000158
-0.45421040 -0.23308367 0.39731038
-0.34439093 -0.35711744 -0.00000014
-0.20710023 -0.31471515 0.00000087
-0.04252246 0.20849620 -0.00000576
-0.03831502 0.11001578 -0.00000823
-0.75515461 -0.04781363 -0.00000145
-0.04594468 0.27444282 -0.00000410
-0.63562632 -0.54007405 0.00000019
-0.04643809 0.53786743 0.00000218
-0.70651329 -0.45999718 -0.00000068
-0.68476814 -0.40283632 -0.00000045
-0.26549044 -0.27996951 0.00000067
-0.64931381 -0.36934906 -0.00000005
-0.76095295 -0.05615240 -0.00000151
-0.52902818 -0.52736950 -0.00000200
-0.27837765 -0.63779867 -0.00000097
-0.50891185 0.23677412 0.00000130
-0.54121381 -0.11445969 0.00000109
-0.32845816 -0.71941900 -0.00000163
-0.21125001 0.49179068 0.00000467
-0.00672608 -0.44149029 0.00000153
-0.41890630 0.29733548 0.00000233
-0.39320391 -0.01544561 0.00000278
-0.45916787 -0.25591320 0.32934105
-0.38224849 -0.23983669 0.00000014
-0.08933360 0.64565605 0.00000603
-0.58263546 -0.18509223 0.00000064
-0.13889180 0.46824405 0.00000553
-0.53812194 -0.38425916 0.00000126
-0.13353053 -0.77009881 -0.00000068
-0.00638090 0.46139631 -0.00000085
-0.41678211 -0.70934296 -0.00000212
-0.03359603 -0.09178020 0.00000290
-0.24225032 -0.70305455 -0.00000104
-0.42162895 0.20449787 0.00000234
-0.13544701 -0.73041862 -0.00000051
-0.08383625 -0.35372645 0.00000145
-0.03391308 -0.00165969 0.00000329
-0.58532256 0.05937604 0.00000049
-0.66941625 -0.52203476 -0.00000021
-0.56622881 0.14460649 0.00000067
-0.71691799 -0.53691405 -0.00000066
-0.20837925 0.31169397 0.00000479
-0.71053433 -0.52269679 -0.00000069
-0.56914961 -0.70038319 -0.00000300
-0.70410246 -0.20100866 -0.00000078
-0.34204954 -0.28299528 0.00000020
-0.05024741 -0.15288158 0.00000253
-0.47361836 -0.76536840 -0.00000271
-0.02550210 -0.33533379 0.00000188
-0.22659542 0.05563472 -0.00000384
-0.73060733 0.00807450 -0.00000119
-0.33363983 -0.02395955 0.00000138
-0.41973266 -0.15008333 0.39583528
-0.26743257 -0.70661640 -0.00000121
-0.28049061 0.46643412 0.00000387
-0.01386467 -0.20440684 0.00000252
-0.30433708 -0.66487604 -0.00000125
-0.60892797 -0.63881987 0.00000055
-0.24171866 -0.23226489 0.00000102
-0.17869882 -0.71842557 -0.00000072
-0.32643470 0.14710025 0.00000349
-0.06270257 0.44682851 0.00000050
-0.22163463 0.40059578 0.00000459
-0.62581229 -0.14979807 0.00000012
-0.43911740 0.04584901 0.00000221
-0.19891751 -0.77723730 -0.00000110
-0.73347199 -0.25523019 -0.00000110
-0.64574438 -0.44142920 0.00000003
-0.08057545 -0.24173221 0.00000196
-0.43420601 -0.18633741 0.00000238
-0.36272183 -0.11652362 0.00000080
-0.31724751 -0.07954259 0.00000124
-0.45943016 0.17706625 0.00000191
-0.13385211 0.43844286 0.00000245
-0.01560908 0.69901371 0.00000507
-0.21513253 0.36402220 0.00000469
-0.29352242 0.36940566 0.00000376
-0.74772131 0.00196456 -0.00000139
-0.20104171 -0.05124934 0.00000206
-0.54851007 -0.00509463 0.00000095
-0.21993798 0.26545474 0.00000094
-0.03796417 0.73950034 0.00000658
-0.15839908 0.31396738 0.00000024
-0.45977166 -0.62914920 -0.00000203
-0.29711035 0.30961007 0.00000375
-0.57494831 -0.62795615 -0.00000272
-0.20485307 -0.43596831 0.00000036
-0.25389627 0.06680038 -0.00000275
-0.39671338 -0.50169027 -0.00000109
-0.53471500 -0.05620658 0.00000114
-0.22094825 -0.34674516 0.00000065
-0.42850837 -0.52311516 -0.00000137
-0.21987852 0.52330619 0.00000455
-0.56947243 0.10817011 0.00000065
-0.25646958 0.39378363 0.00000419
-0.74333405 -0.66465169 -0.00000034
-0.77644736 -0.62041110 -0.00000045
-0.77562588 -0.05344180 -0.00000169
-0.16031682 0.43209842 0.11982715
-0.03831604 -0.23415768 0.00000224
-0.35204935 -0.57081741 -0.00000112
-0.26790428 0.10145751 -0.00000151
-0.18249413 0.61175841 0.00000495
-0.70165288 -0.16766873 -0.00000076
-0.52688617 0.13820969 0.00000114
-0.04710122 0.39890257 -0.00000110
-0.57337445 0.09739758 0.00000061
-0.30737415 -0.13275498 0.00000106
-0.36637095 -0.03060217 0.33734205
-0.32282808 -0.39632434 -0.00000018
-0.18817265 -0.60962141 -0.00000030
-0.56672931 -0.46416336 0.00000096
-0.65984124 -0.23025562 -0.00000024
-0.47218996 -0.53608507 -0.00000170
-0.04344974 0.19217268 -0.00000612
-0.77756363 -0.58178514 -0.00000055
-0.22626059 0.53127325 0.00000448
-0.60536867 -0.44654396 0.00000050
-0.16302830 0.55314475 0.00000521
-0.00909206 -0.36738899 0.00000184
-0.02343307 -0.21375012 0.00000242
-0.10328857 -0.47082958 0.00000082
-0.08362918 -0.01822783 0.00000292
-0.64163476 -0.10682055 -0.00000009
-0.24655822 -0.56410903 -0.00000046
-0.75647384 -0.68195367 -0.00000030
-0.72513115 -0.30923855 -0.00000097
-0.35092145 -0.02940602 0.00000328
-0.34586653 0.02116182 0.35150942
-0.01872287 0.61549884 0.00000318
-0.37412822 -0.49577111 -0.00000093
-0.28221872 0.41059741 0.00000388
-0.22479311 0.33834064 0.00000459
-0.10398831 0.56121123 0.07680147
-0.40403643 -0.17057332 0.00000273
-0.47159418 0.03591513 0.00000184
-0.03225839 0.23102969 -0.00000554
-0.27970508 0.01781064 -0.00000314
-0.72381151 -0.35744503 -0.00000093
-0.77109683 -0.33266121 -0.00000117
-0.45422927 0.11415465 0.00000200
-0.27408874 -0.16982786 0.00000110
-0.50645542 -0.00713656 0.00000145
-0.05087035 -0.42395589 0.00000134
-0.39612967 -0.58297467 -0.00000144
-0.13940401 -0.73190677 -0.00000054
-0.36553818 -0.57128876 -0.00000121
-0.22487466 -0.04238866 0.00000196
-0.61302853 -0.75163394 -0.00000349
-0.54166347 -0.62873429 -0.00000252
-0.36056864 0.25272286 0.00000303
-0.05366173 0.59098697 0.00000366
-0.65103507 -0.39396667 -0.00000006
-0.00117242 -0.45273268 0.00000152
-0.03404953 -0.09523015 0.00000288
-0.32104644 -0.10705725 0.00000109
-0.18957525 0.47392324 0.00000493
-0.38504511 -0.25967187 0.00000004
-0.00427128 0.71813345 0.00000518
-0.06319373 0.13887596 -0.00000679
-0.21666045 0.49576488 0.00000461
-0.33677918 -0.62876129 -0.00000128
-0.60513747 -0.01449662 0.00000029
-0.52171087 -0.10053028 0.00000131
-0.45753092 -0.48624647 -0.00000139
-0.21271960 0.32101649 0.21639904
-0.54003775 -0.33507049 0.00000121
-0.07708535 -0.08141230 0.00000268
-0.57218659 -0.38937607 0.00000086
-0.16796020 -0.66417205 -0.00000042
-0.35822678 -0.41367784 -0.00000047
-0.12514748 -0.65243876 -0.00000011
-0.22102840 0.51852441 0.00000454
-0.01927359 0.39023855 -0.00000215
-0.24907105 0.06749990 -0.00000288
-0.28755030 -0.51595575 -0.00000049
-0.19662768 -0.47415227 0.00000024
-0.55546427 0.23723374 0.00000075
-0.06704019 0.54793715 0.00000304
-0.22518426 -0.51710713 -0.00000012
-0.17562848 -0.10477014 0.00000198
-0.16523927 0.42707849 0.16279420
-0.31432986 0.08909015 0.30013803
