ply
format ascii 1.0
element vertex 1390
property float x
property float y
property float z
end_header
0.53057557 -0.25666595 -0.00000040
0.63701648 -0.39604878 -0.00000060
0.33770412 -0.20771714 0.00000000
-0.12225130 0.64408809 0.16937590
0.26607808 0.00470778 0.00000791
-0.32621047 -0.50658566 0.00000000
0.26590672 -0.02083843 0.00000000
0.09295145 0.11384222 0.00000889
-0.49201241 0.25793639 -0.00000057
0.15301135 -0.22922198 0.00000000
0.03059809 0.36323899 0.00000609
-0.78312975 -0.36540148 -0.00000054
-0.22570811 0.47372976 -0.00000019
-0.47050768 0.26741338 0.31236935
0.47909138 -0.60593891 0.00000000
-0.17505160 0.57785648 0.23695858
-0.09240423 -0.10234155 0.00000000
-0.27959311 -0.46866968 0.00000000
-0.38023850 -0.22598986 0.00000000
-0.14447241 -0.01290810 0.00000000
-0.25092730 0.16671115 0.00000000
-0.59290636 0.18293564 0.12155604
-0.69172114 0.08950551 -0.00000085
-0.78242785 -0.27055839 -0.00000066
-0.45247331 0.27440283 0.36794421
-0.19983765 0.59304190 -0.00000024
0.45880839 0.27862278 -0.00000010
-0.25446039 0.49547672 0.25190780
-0.76602793 -0.63779306 -0.00000020
-0.17590058 0.57662332 0.23889165
0.03561789 -0.09611128 0.00000000
0.31874400 -0.17026743 0.00000000
-0.40710211 0.34556356 -0.00000047
0.72178990 -0.49411675 -0.00000076
-0.33226162 0.45214424 0.07846775
-0.13410948 0.17131999 0.00000000
0.41627702 -0.00660075 -0.00000035
0.43128517 -0.08434208 -0.00000028
-0.14742842 -0.42539498 0.00000000
-0.54508471 -0.72785950 0.00000000
-0.01264937 0.10949977 0.00000000
-0.40198004 -0.30717343 0.00000000
-0.08290255 0.14490084 0.00000000
0.17575262 -0.29921153 0.00000000
0.72993523 -0.29934353 -0.00000117
0.08664177 -0.02381942 0.00000000
-0.28256145 0.46530369 0.26233345
0.22494623 -0.00724272 0.00000000
-0.22292189 -0.63569772 0.00000000
-0.32514682 -0.17258969 0.00000000
-0.25618097 0.46173102 0.41304940
-0.03490342 -0.63842493 0.00000000
-0.05000593 -0.19351538 0.00000000
0.32011187 -0.15169132 0.00000000
-0.71804488 -0.69526035 -0.00000013
0.00242850 0.18636794 0.00000917
-0.17733067 -0.76565522 0.00000000
-0.45660314 -0.45214465 0.00000000
-0.45124567 0.05538196 -0.00000030
0.19850440 0.29112041 0.00000464
-0.68054324 -0.58899260 -0.00000022
-0.23998380 -0.35843316 0.00000000
0.19582818 -0.31526244 0.00000000
-0.49460208 0.00412112 -0.00000035
0.22805451 0.15317889 0.00000626
0.50506395 0.10549448 0.00000190
0.06804928 0.48288971 0.00000373
-0.43208030 0.36069202 0.03636763
-0.47989905 0.29439086 -0.00000058
-0.28018874 -0.18356635 0.00000000
0.43020934 -0.06256590 -0.00000031
0.27921802 -0.28403336 0.00000000
-0.74015647 -0.05667343 -0.00000082
-0.45001075 -0.64546382 0.00000000
-0.06537840 -0.06369610 0.00000000
-0.61706907 -0.57911593 -0.00000010
0.54976714 -0.13392708 -0.00000070
0.32900813 0.42032579 0.00000002
-0.74757922 -0.21495444 -0.00000070
-0.66169667 0.13462497 0.01850482
0.29659718 -0.74644583 0.00000000
0.41163218 -0.47441265 0.00000000
-0.21516371 0.12361771 0.00000000
0.27534059 -0.51887023 0.00000000
-0.03946176 0.42597538 0.00000000
0.15785240 0.06216459 0.00000869
-0.12327035 0.44705367 0.00000000
-0.01121245 0.69875944 0.00000000
-0.54066151 0.21165496 0.23993339
-0.20797940 0.48017114 -0.00000016
-0.04860169 0.32416412 0.00000000
-0.04223569 0.35171530 0.00000000
0.76830906 0.00959493 -0.00000155
-0.62358069 0.15343329 0.11565847
0.11785825 0.55426782 0.00000184
-0.28369242 -0.45931116 0.00000000
-0.07363856 -0.17759599 0.00000000
-0.16916174 0.61689991 0.07013844
-0.02472539 0.41486832 0.00000000
-0.21457881 -0.53009045 0.00000000
-0.37076694 -0.41958451 0.00000000
0.12253921 -0.62903702 0.00000000
0.32195672 -0.13509718 0.00000000
-0.49339062 0.29535478 0.05662959
-0.41075078 0.31354383 -0.00000045
-0.07137941 0.71912205 0.04779916
0.33834386 -0.02194384 0.00000000
-0.41438279 -0.52179432 0.00000000
0.34814936 -0.59027505 0.00000000
-0.48107573 0.25867605 0.30315775
-0.52262360 -0.78560698 0.00000000
0.17700487 0.05714002 0.00000847
0.37990996 -0.26388967 0.00000000
-0.35650679 0.08857257 -0.00000013
-0.46979752 0.28506300 0.22713329
-0.74191988 -0.39942697 -0.00000050
-0.54038727 -0.52150619 0.00000000
0.16019665 -0.43108270 0.00000000
0.06476359 0.60463619 0.00000195
-0.14199059 0.18071166 0.00000000
-0.51531494 0.07093362 -0.00000046
0.14084750 0.22783446 0.00000646
-0.56643355 -0.73162860 0.00000000
-0.56915849 0.20407054 0.13470437
0.34426397 -0.39730158 0.00000000
-0.55106187 -0.71012264 0.00000000
-0.02751132 0.29455945 0.00000000
-0.40231788 0.32349905 0.37327394
0.04150415 0.29234433 0.00000699
-0.20065150 0.59021950 0.04593803
0.35467619 -0.13632798 0.00000000
0.46887803 -0.11321811 -0.00000039
0.06780004 -0.41507638 0.00000000
-0.67302239 0.12092070 0.03047311
-0.07914099 -0.17013916 0.00000000
-0.71883363 -0.08444881 -0.00000075
0.15373027 -0.16417342 0.00000000
0.45658344 -0.64354146 0.00000000
-0.48024276 0.27983254 0.20089316
-0.53754532 0.17024107 -0.00000059
0.23260704 -0.27449721 0.00000000
-0.11766969 0.64658481 -0.00000012
-0.33678311 0.43547329 0.13960189
-0.31384215 -0.34020057 0.00000000
-0.01734057 0.51425350 0.00000000
0.47593361 0.16850255 0.00000141
-0.18266425 0.61707896 0.00129470
-0.13003398 0.63482010 -0.00000013
-0.03262586 0.76389694 0.01750125
0.48149878 0.21065070 0.00000060
0.10656471 -0.76726913 0.00000000
-0.78762120 -0.31747589 -0.00000060
0.17224042 -0.27576914 0.00000000
0.04685497 0.69691265 0.00000082
-0.66040778 -0.61999744 -0.00000015
0.00055127 0.76623911 0.00000050
0.06916955 -0.49172491 0.00000000
-0.35655531 -0.03067361 -0.00000003
-0.58822930 -0.38742253 -0.00000021
-0.40015554 0.33256704 0.33852670
-0.22653274 -0.51566088 0.00000000
-0.39596775 -0.61248410 0.00000000
-0.48545927 -0.49701858 0.00000000
0.44710568 -0.68806297 0.00000000
0.74944586 -0.47687095 -0.00000081
-0.09149939 0.00530639 0.00000000
0.60168862 -0.31598711 -0.00000060
0.75544780 -0.32506001 -0.00000119
-0.23042370 0.33335888 -0.00000008
0.76322508 -0.00831217 -0.00000183
-0.14523883 0.14813606 0.00000000
-0.49228722 0.12932555 -0.00000046
-0.75899160 -0.31298363 -0.00000061
0.15671331 0.39408866 0.00000372
0.37123936 -0.77626461 0.00000000
-0.00656971 0.13974246 0.00000000
0.55153376 0.24028414 -0.00000124
0.43460977 0.00147038 0.00000499
-0.05680054 0.47118205 0.00000000
0.20504230 -0.79381514 0.00000000
0.51875299 -0.76568282 0.00000000
-0.27802742 -0.09543446 0.00000000
-0.21918678 0.54980826 0.15601364
0.22102319 -0.45192069 0.00000000
-0.30777830 0.45843592 -0.00000035
-0.34856343 -0.06983916 0.00000000
-0.71142066 0.06841074 0.10148037
0.07979231 -0.72041941 0.00000000
-0.52641457 0.23669752 0.18561178
-0.03842917 -0.15660492 0.00000000
-0.78617936 -0.48045215 -0.00000040
0.43189991 -0.23400502 -0.00000002
-0.43725127 -0.22137471 -0.00000003
-0.28760305 -0.49637330 0.00000000
-0.36925396 -0.15820511 0.00000000
0.00397143 -0.33416811 0.00000000
0.34650317 -0.38106382 0.00000000
0.31856784 0.45880321 -0.00000042
0.21178748 -0.58505327 0.00000000
0.09436965 -0.72713542 0.00000000
-0.35611945 -0.77026105 0.00000000
-0.25024942 0.47382757 0.38202879
0.45221481 -0.12199341 -0.00000030
0.09152740 -0.64351940 0.00000000
-0.67653221 0.00659040 -0.00000074
0.61665493 -0.62265950 -0.00000012
0.24596632 0.08433438 0.00000702
0.18392715 -0.02462950 0.00000000
-0.14210802 -0.20206358 0.00000000
-0.39830488 0.32629883 0.37937862
-0.12598023 0.64432210 0.14943552
-0.26778817 0.44892821 0.41906533
0.04004387 -0.53598726 0.00000000
-0.18262798 -0.69318336 0.00000000
0.21297088 0.54614276 0.00000015
-0.36737460 0.38178366 0.25582689
-0.09128574 0.37471181 0.00000000
-0.67741215 -0.38052130 -0.00000040
-0.03401854 0.75330251 -0.00000003
-0.54802448 -0.13191444 -0.00000035
-0.30274075 0.42384148 0.36942318
0.18862376 -0.33167568 0.00000000
0.18435813 0.40395814 0.00000308
-0.35052940 -0.03309915 -0.00000001
0.23148935 -0.78339672 0.00000000
-0.20387088 0.58974224 0.03213999
0.62759912 -0.67793292 -0.00000007
-0.35671479 -0.33568165 0.00000000
-0.47482732 0.31967866 0.02764353
-0.65042406 -0.06214559 -0.00000063
-0.03260674 0.38783196 0.00000000
0.32727608 0.09828717 0.00000544
-0.33563921 0.39354131 0.35634926
0.18665802 -0.40963566 0.00000000
-0.13029587 0.42321214 0.00000000
0.63821191 -0.78106433 0.00000000
-0.24717592 -0.26161754 0.00000000
-0.55448937 -0.33199385 -0.00000018
-0.12664671 -0.70544207 0.00000000
0.05872993 0.59511560 0.00000219
0.27384636 -0.69605267 0.00000000
-0.39276201 0.06692028 -0.00000019
0.06497229 -0.04195177 0.00000000
0.68851787 -0.43876341 -0.00000075
0.41706795 0.33401725 -0.00000023
0.05577695 0.31075513 0.00000650
-0.01322471 0.58265358 0.00000000
-0.03523842 -0.45899147 0.00000000
-0.27020368 0.29875904 -0.00000013
-0.35434055 0.42707434 0.09351736
-0.48695496 -0.58128846 0.00000000
0.22689176 -0.27366653 0.00000000
-0.14308296 -0.27851757 0.00000000
-0.65321046 -0.72800654 -0.00000004
0.74356484 -0.20532721 -0.00000140
0.03270668 0.17161310 0.00000893
0.00335836 -0.00546388 0.00000000
-0.41533652 0.30989158 0.37623686
-0.14752094 0.62423664 0.14211315
-0.31431538 0.41995144 0.33075643
-0.42845848 0.30745590 0.32246637
0.41253516 -0.02636878 -0.00000030
-0.00908673 -0.28065005 0.00000000
0.52050483 -0.20915011 -0.00000044
0.01475243 0.70806050 0.00000116
0.47112572 0.07325828 0.00000309
-0.67449373 -0.13633934 -0.00000061
-0.12800810 -0.12617116 0.00000000
0.79845852 -0.31048697 -0.00000122
-0.48498157 -0.60888213 0.00000000
-0.71576881 -0.34430468 -0.00000052
-0.61320567 -0.02527218 -0.00000058
-0.33032829 0.38485202 0.42679447
-0.43198878 0.28381100 -0.00000047
-0.04378204 -0.24763966 0.00000000
-0.46671957 -0.17441535 -0.00000013
-0.55472201 0.23546830 0.04935833
-0.28130189 -0.22490981 0.00000000
0.22331604 -0.72412640 0.00000000
-0.35250121 -0.32935056 0.00000000
-0.38384286 -0.46217778 0.00000000
0.04613579 0.07876522 0.00001012
-0.63469177 -0.20766944 -0.00000046
0.63223648 -0.28610650 -0.00000078
0.28707865 -0.03925598 0.00000000
0.73989570 -0.60865617 -0.00000048
0.77314270 -0.10649545 -0.00000170
0.30993995 -0.75564003 0.00000000
0.16421872 0.11885795 0.00000774
-0.33298117 -0.30676940 0.00000000
0.58513123 -0.39085245 -0.00000039
-0.40337470 0.15829509 -0.00000029
0.29255873 -0.13331468 0.00000000
-0.00282390 0.15555841 0.00000000
0.10513242 0.47611761 0.00000327
0.00178624 0.55607277 0.00000363
-0.54787636 0.20544320 0.23488609
-0.57804763 0.13627672 -0.00000065
-0.05698181 0.08652584 0.00000000
-0.21356417 0.07672131 0.00000000
0.01493351 0.67149878 0.00000170
0.36331582 -0.74517655 0.00000000
0.24910574 -0.09238197 0.00000000
0.01775998 -0.10895777 0.00000000
0.39637649 -0.36356163 0.00000000
-0.12431972 -0.42635804 0.00000000
-0.62969303 0.15966772 0.05353130
-0.65184206 -0.29034093 -0.00000043
0.56009340 -0.47678533 -0.00000013
0.37541309 -0.43022963 0.00000000
-0.70942789 0.07164918 0.09521229
-0.05825364 -0.45668542 0.00000000
-0.43116817 0.35122174 0.08861036
0.01676355 -0.30495793 0.00000000
-0.18833707 -0.78276980 0.00000000
-0.46850130 -0.13224055 -0.00000018
-0.49180588 -0.19314370 -0.00000017
-0.22466519 0.33014974 -0.00000006
-0.15817428 0.11160104 0.00000000
0.24459399 -0.25054064 0.00000000
0.68843859 -0.07368364 -0.00000139
0.25669762 -0.31945220 0.00000000
-0.29581639 0.41224200 -0.00000029
-0.50006688 -0.55879998 0.00000000
0.40697578 0.14262462 0.00000317
-0.33401725 0.46002513 0.02997825
-0.52882159 -0.26572841 -0.00000019
-0.46934345 0.25397268 0.38585731
0.68918771 -0.53694844 -0.00000058
0.26230690 0.20463756 0.00000491
0.31808424 -0.61573136 0.00000000
-0.07634137 -0.60601276 0.00000000
-0.31165385 -0.78243440 0.00000000
0.03360375 -0.65998030 0.00000000
0.28789866 -0.34843242 0.00000000
0.26658922 0.24104255 0.00000422
0.32458955 0.09782016 0.00000550
0.33310032 -0.55795783 0.00000000
0.69103211 -0.63026816 -0.00000042
0.04051076 -0.34168911 0.00000000
0.37489393 0.40930250 -0.00000067
0.19189699 0.44363615 0.00000227
0.19668594 -0.69452041 0.00000000
-0.32522905 -0.20485455 0.00000000
-0.60579336 -0.52007896 -0.00000013
0.48540854 -0.70290995 0.00000000
-0.60046583 0.17648415 0.11598081
-0.14109986 0.65447152 0.02228719
-0.15355791 0.16055429 0.00000000
-0.65107715 -0.71007198 -0.00000005
-0.25513646 -0.69776285 0.00000000
0.73303515 -0.18739612 -0.00000138
-0.21641871 0.51533121 0.34342065
0.50464976 0.11602958 0.00000173
-0.58234715 0.20851517 0.04597644
-0.14541085 0.64207691 0.06296279
-0.49289885 0.27911240 0.14083317
-0.01866382 -0.52430296 0.00000000
0.53255403 0.24540703 -0.00000096
-0.45884538 0.31614366 0.12584989
0.37866154 0.22003487 0.00000242
0.02428528 -0.09122531 0.00000000
0.29110652 0.26099271 0.00000341
0.09463536 -0.23794751 0.00000000
0.46500683 -0.31091332 -0.00000002
0.28128713 0.40429884 0.00000121
0.12789916 -0.22031415 0.00000000
-0.37457579 0.14796728 -0.00000022
-0.35107628 0.43847090 0.05259712
-0.46873796 -0.48843464 0.00000000
-0.26945862 -0.12978856 0.00000000
-0.17404363 0.61237699 -0.00000021
0.68010700 -0.49767518 -0.00000061
0.55542523 -0.22183514 -0.00000056
0.04121289 0.16773339 0.00000886
0.48713598 -0.51939017 0.00000000
0.14911453 0.21041049 0.00000659
-0.26808891 -0.45248184 0.00000000
0.48088521 0.01280688 0.00000391
-0.72250187 -0.27965939 -0.00000059
-0.74674463 -0.63035709 -0.00000021
0.22745346 0.28742409 0.00000419
-0.33693987 0.13162415 -0.00000013
0.32944787 -0.32480773 0.00000000
0.34082386 0.15505156 0.00000423
-0.27917296 0.44845617 0.36415538
0.09307955 0.63743812 0.00000093
-0.04526194 -0.61728823 0.00000000
0.69135994 -0.11567968 -0.00000133
-0.78338045 0.01619907 -0.00000098
-0.24690191 -0.47841284 0.00000000
-0.50101161 -0.77415693 0.00000000
0.51931369 -0.57765472 0.00000000
-0.45007443 0.32931063 -0.00000054
-0.07461636 -0.30321583 0.00000000
0.42647400 -0.60575563 0.00000000
0.62864327 -0.41711563 -0.00000053
0.65298545 -0.15463999 -0.00000110
0.37251264 -0.65011954 0.00000000
-0.73217243 -0.10260661 -0.00000076
0.30647504 -0.20543121 0.00000000
-0.59733212 -0.39136717 -0.00000022
0.06697815 -0.04125847 0.00000000
-0.40964019 0.36428577 -0.00000049
-0.05383448 -0.53074837 0.00000000
0.55786920 -0.40035489 -0.00000026
-0.33164474 -0.36485124 0.00000000
0.03511406 -0.30550686 0.00000000
0.01274961 0.14620534 0.00000961
0.04297992 -0.06781336 0.00000000
-0.49422699 0.18261443 -0.00000051
0.00287180 -0.69611835 0.00000000
-0.49274078 -0.35312170 -0.00000003
0.39076021 -0.24228542 0.00000000
-0.54083270 -0.74191278 0.00000000
-0.34430313 0.42730308 -0.00000041
-0.21094655 -0.48613042 0.00000000
-0.27686158 0.06403236 0.00000000
0.21637359 0.19000041 0.00000589
-0.41436586 -0.62837076 0.00000000
-0.65258956 -0.31766292 -0.00000040
-0.40469044 0.33925983 0.28203192
-0.09261491 0.50392687 0.00000000
0.11922951 0.10783467 0.00000858
0.56467634 -0.07800202 -0.00000086
-0.16164164 -0.23522750 0.00000000
-0.12332608 0.51475114 -0.00000001
0.06972711 -0.72289985 0.00000000
0.62258089 -0.25361967 -0.00000079
-0.17386861 -0.54360455 0.00000000
0.58000869 -0.78491449 0.00000000
0.32260308 0.47643694 -0.00000080
0.08929461 0.20119338 0.00000763
-0.26419711 0.48010397 -0.00000028
-0.03393036 -0.76359922 0.00000000
-0.47687948 0.31442627 0.04374650
-0.38872772 0.39724419 0.07058669
-0.16046847 -0.14198656 0.00000000
0.35016212 -0.54270649 0.00000000
0.19789957 0.12507223 0.00000714
0.39943835 -0.49564797 0.00000000
-0.68069702 0.10356828 0.07917004
-0.13072865 -0.25663084 0.00000000
-0.42770967 -0.37569401 0.00000000
-0.12257676 -0.73187208 0.00000000
-0.31359056 0.42840055 0.29188982
0.03279175 -0.27897105 0.00000000
-0.35259172 0.08109173 -0.00000012
-0.13414711 0.65803254 0.03935406
0.44025320 0.06393968 0.00000384
-0.04821270 -0.51444286 0.00000000
-0.79957336 -0.39838588 -0.00000050
0.01536807 0.21320654 0.00000857
-0.76274854 -0.57470298 -0.00000028
-0.38686991 -0.66141909 0.00000000
0.48947170 -0.32259896 -0.00000010
-0.21933150 0.55419254 0.13322482
-0.50625420 -0.33726713 -0.00000008
0.59256148 -0.39362466 -0.00000042
-0.01306279 0.75379151 0.00000000
0.46606663 -0.42958465 0.00000000
-0.34555620 -0.61566085 0.00000000
0.08517388 -0.26326245 0.00000000
-0.33902639 -0.29197681 0.00000000
0.72778732 -0.43267322 -0.00000092
0.20993944 -0.57329315 0.00000000
-0.43078449 -0.72200435 0.00000000
-0.12468181 -0.08527823 0.00000000
-0.35070592 0.29930574 -0.00000031
-0.39587608 -0.46811864 0.00000000
0.04543642 -0.17371713 0.00000000
-0.12158273 0.14643702 0.00000000
0.63774335 -0.51268476 -0.00000040
-0.24650864 0.41497874 -0.00000019
0.15560378 -0.66251779 0.00000000
-0.55450541 0.19331250 0.26256937
-0.21025267 0.52973074 0.30199206
0.15445763 0.06430478 0.00000870
0.78750658 -0.42071092 -0.00000095
0.59640110 -0.56117433 -0.00000014
-0.32150257 0.38211206 0.48498979
0.10239115 -0.09394751 0.00000000
0.02244786 -0.14722449 0.00000000
0.22711661 0.20196673 0.00000554
-0.51326758 0.16037329 -0.00000053
-0.39862236 0.31498697 0.43469918
-0.06505425 -0.35462806 0.00000000
-0.50494736 0.24779253 -0.00000059
-0.45478335 0.26105931 0.42346174
0.21406759 0.21132560 0.00000560
0.23041974 -0.04646259 0.00000000
0.26175594 0.19870247 0.00000502
-0.43102938 0.25463879 -0.00000044
0.14869823 -0.52327132 0.00000000
0.48590997 0.08283447 0.00000265
-0.55161554 -0.54177833 0.00000000
-0.51648712 -0.07030392 -0.00000033
0.32411247 -0.73876745 0.00000000
-0.27048096 0.44824284 0.40896448
0.22783358 0.21271861 0.00000537
0.29216069 -0.73725957 0.00000000
-0.63667279 -0.72741324 -0.00000001
0.05529153 -0.56510979 0.00000000
-0.00925705 -0.69879645 0.00000000
-0.15415312 0.63500434 0.05456078
-0.61066395 -0.33656332 -0.00000030
-0.14219689 -0.60204256 0.00000000
-0.50040048 -0.60023880 0.00000000
-0.22072190 0.04626999 0.00000000
0.71809405 -0.46849838 -0.00000082
0.00544582 0.01899932 0.00001163
-0.15152071 -0.19682357 0.00000000
0.35267061 -0.35399160 0.00000000
0.35566956 -0.17887253 0.00000000
0.06778076 0.49484155 0.00000355
-0.01825917 0.23241822 0.00000000
0.60281253 -0.45711017 -0.00000035
-0.24467906 -0.06755482 0.00000000
-0.08182197 0.29259601 0.00000000
0.31499320 0.11258107 0.00000543
0.45063937 -0.38370538 0.00000000
-0.67189151 0.02265409 -0.00000075
-0.14805990 -0.50679874 0.00000000
-0.57562476 -0.69496864 0.00000000
-0.22250514 -0.34964436 0.00000000
0.11041858 0.50251734 0.00000280
0.40777558 -0.34535152 0.00000000
0.34870103 0.23993610 0.00000266
-0.04193998 -0.25025153 0.00000000
0.29904827 0.48725784 -0.00000052
-0.53406101 0.21980086 0.23215725
-0.79924387 -0.78092480 -0.00000002
-0.22177915 0.43232292 -0.00000015
-0.76957929 -0.79437429 -0.00000001
-0.00832072 -0.11563448 0.00000000
-0.11822475 0.41080716 0.00000000
0.11181347 -0.18294647 0.00000000
-0.72893590 0.06687827 0.02105742
0.38699657 -0.57174200 0.00000000
-0.50848186 0.24683923 0.22481523
0.63830286 -0.42849946 -0.00000055
-0.31786478 0.38547739 0.48636073
0.47465363 0.11947624 0.00000225
-0.21416853 -0.72025120 0.00000000
0.64870137 0.09855854 -0.00000074
0.36201930 -0.49780318 0.00000000
0.09827903 0.11569957 0.00000878
0.00452880 -0.37688735 0.00000000
0.49447706 -0.19855434 -0.00000035
0.13958973 -0.08658447 0.00000000
0.19970895 -0.11292166 0.00000000
0.51740026 -0.31150115 -0.00000024
-0.37060183 -0.77153772 0.00000000
-0.60896611 -0.78789151 0.00000000
-0.12007957 -0.75504404 0.00000000
-0.59517181 -0.02474408 -0.00000054
-0.39858517 0.37337139 0.14110979
-0.69629806 -0.53390700 -0.00000031
-0.41889501 0.29732263 0.42157504
0.41406915 0.07351970 0.00000418
0.29966834 0.11022996 0.00000577
0.10000461 0.54131681 0.00000237
-0.06700796 -0.14673890 0.00000000
0.11150766 -0.54036087 0.00000000
-0.26057595 0.47487372 0.32480463
-0.71966475 -0.65441644 -0.00000018
0.08140771 -0.65700376 0.00000000
0.28502631 -0.00242753 0.00000000
-0.10037882 -0.67744976 0.00000000
-0.75496894 -0.19053730 -0.00000074
-0.79333955 -0.72958016 -0.00000009
-0.41975051 -0.53825539 0.00000000
0.47327635 -0.65239173 0.00000000
0.78503519 -0.59254467 -0.00000052
0.46323994 -0.16484255 -0.00000027
-0.18597101 0.15782167 0.00000000
-0.21149807 -0.11403267 0.00000000
0.04736945 0.60481691 0.00000221
0.46460459 -0.57003784 0.00000000
0.48240304 -0.10303103 -0.00000046
0.01217284 -0.71378970 0.00000000
0.55669206 -0.57948011 0.00000000
0.15187119 -0.32777798 0.00000000
0.23017851 -0.12002073 0.00000000
-0.41505638 -0.57768071 0.00000000
-0.34409016 -0.08808457 0.00000000
0.52449608 -0.03325342 -0.00000077
0.00615036 0.40987435 0.00000576
0.25207222 -0.54844463 0.00000000
-0.57577318 -0.46917266 -0.00000011
-0.44105145 0.28311342 0.38158673
0.61229295 0.05136178 0.00000075
-0.25588828 -0.14464414 0.00000000
-0.19992092 -0.35180944 0.00000000
-0.25939876 0.51715636 0.11797249
-0.27634126 0.12397448 0.00000000
-0.42693764 -0.74815136 0.00000000
-0.39159825 0.35509929 0.26820850
0.62684095 -0.43654326 -0.00000049
0.16000693 0.63904262 -0.00000038
-0.40307316 0.03531801 -0.00000018
-0.11855631 -0.04404160 0.00000000
-0.40471098 -0.38925549 0.00000000
-0.49959388 -0.47984436 0.00000000
-0.16853480 0.62899756 0.01241954
0.19045959 -0.32334450 0.00000000
-0.31691185 -0.46884799 0.00000000
-0.51566964 -0.00484440 -0.00000039
0.71446341 -0.74208385 -0.00000014
-0.42552388 0.08901580 -0.00000028
0.54545957 0.17513932 -0.00000004
0.57511216 -0.39971432 -0.00000033
0.03633150 -0.66581869 0.00000000
0.06158239 0.70012635 0.00000049
-0.53388995 0.24296913 0.11643925
0.62617213 -0.71175975 0.00000000
-0.09306989 -0.10837060 0.00000000
0.09385057 0.40171829 0.00000456
-0.30255419 0.43898067 0.29418564
-0.11380683 -0.14584213 0.00000000
-0.23009695 0.50815976 0.31068048
0.24785294 -0.79994428 0.00000000
0.70741808 -0.29273596 -0.00000109
-0.58764642 -0.20192850 -0.00000037
-0.54206944 -0.05438073 -0.00000040
0.06211908 0.45296711 0.00000427
0.01106642 -0.72122747 0.00000000
-0.37900308 -0.18130957 0.00000000
0.31796774 -0.67687970 0.00000000
-0.12062194 -0.11166983 0.00000000
-0.37469253 0.23435764 -0.00000030
0.04376339 0.16389203 0.00000888
-0.12538813 0.39805990 0.00000000
0.13943343 -0.58869988 0.00000000
0.49661952 -0.52152431 0.00000000
-0.36153951 -0.38542512 0.00000000
0.12802991 -0.79177535 0.00000000
0.38245317 0.35673457 0.00000006
0.23170871 0.36772111 0.00000277
-0.43621123 -0.29276565 0.00000000
-0.21440347 0.08856540 0.00000000
0.29269907 -0.49604559 0.00000000
0.09846679 -0.46569583 0.00000000
-0.62389505 -0.35612750 -0.00000031
0.54604375 0.03341630 0.00000232
-0.78749669 -0.58453542 -0.00000027
-0.57089114 0.20568088 0.11788301
-0.44143689 0.30931136 0.24782600
-0.65267199 -0.47208756 -0.00000027
-0.72639543 -0.72233051 -0.00000010
-0.59367049 -0.04216920 -0.00000052
-0.57166326 -0.08839352 -0.00000043
-0.28241795 -0.18287484 0.00000000
-0.49523103 0.26526985 -0.00000058
-0.22230627 -0.41096956 0.00000000
0.68692076 0.04746733 -0.00000062
-0.39886120 -0.76065195 0.00000000
-0.70066482 -0.65434378 -0.00000018
0.02922684 -0.29389590 0.00000000
0.10751112 0.47926867 0.00000319
0.66388655 -0.39598158 -0.00000072
0.72244519 -0.52304512 -0.00000069
0.08442006 0.62184745 0.00000135
-0.31589651 0.46218565 0.11028779
0.52569455 -0.06823624 -0.00000071
0.10874534 0.49199578 0.00000298
0.09943576 -0.74022746 0.00000000
0.67697370 -0.14682467 -0.00000122
-0.35718644 0.43760341 0.02621677
-0.41210392 0.16266362 -0.00000032
0.63266909 -0.28831556 -0.00000078
0.41503808 -0.21803279 0.00000000
0.39373159 -0.66238022 0.00000000
0.22863162 -0.21958119 0.00000000
-0.16334270 0.43531650 -0.00000003
0.51413000 -0.01350205 -0.00000076
-0.46491709 -0.32236165 -0.00000000
-0.08709485 0.70614642 0.03401280
0.67464578 0.00142616 0.00000038
0.68224025 -0.19476502 -0.00000115
0.05745145 -0.72169822 0.00000000
0.52580911 -0.57256597 0.00000000
-0.31185949 -0.30987528 0.00000000
-0.36914146 0.36618268 0.32543623
0.02720505 -0.71069425 0.00000000
-0.04267375 -0.00112352 0.00000000
-0.38838622 -0.34726655 0.00000000
0.03671737 0.22196969 0.00000812
0.26192331 -0.71238267 0.00000000
-0.48974705 0.30738267 -0.00000061
-0.58136755 0.18468595 0.17081042
-0.38105747 -0.70313591 0.00000000
-0.65874439 -0.01250994 -0.00000069
-0.35121903 0.37191588 0.38676915
-0.11263820 0.67331105 0.07070469
0.11923714 0.04855925 0.00000947
0.21440735 0.32100400 0.00000388
-0.75682557 -0.39527589 -0.00000051
-0.34203577 -0.04781831 0.00000000
-0.14725395 0.61385238 0.19570740
0.67926812 -0.58485144 -0.00000045
-0.71584511 -0.43012378 -0.00000044
-0.43012747 0.28964111 0.40370753
-0.48027891 0.09252801 -0.00000040
-0.41695061 -0.72470444 0.00000000
-0.24699627 0.49489766 -0.00000026
0.69001722 -0.72051966 -0.00000020
-0.64245164 -0.54538190 -0.00000018
-0.12981753 0.23720804 0.00000000
0.77751982 -0.16563821 -0.00000159
0.21471773 0.24081697 0.00000515
-0.51878834 -0.53821033 0.00000000
0.13991016 0.46844110 0.00000285
-0.10272956 0.56539655 -0.00000001
0.62810463 -0.32585177 -0.00000069
-0.30146050 0.47029120 0.14214192
-0.66177416 -0.34231427 -0.00000040
0.74791151 -0.76514101 -0.00000009
0.00890347 0.48385793 0.00000461
0.58004653 0.14144515 -0.00000014
0.62757707 -0.07138957 -0.00000114
0.77811873 -0.75807410 -0.00000010
-0.08795755 0.62210733 -0.00000003
0.20470420 0.09153225 0.00000754
-0.77410704 -0.35884064 -0.00000055
-0.65622813 -0.67983085 -0.00000009
0.50694036 -0.52342296 0.00000000
0.69441491 -0.26870716 -0.00000107
-0.39095896 0.40509298 0.01986568
0.12312445 0.62436020 0.00000057
-0.53736293 -0.56863880 0.00000000
-0.37427318 0.41215825 0.06827479
-0.06527162 0.65271360 -0.00000001
0.72598737 -0.50405937 -0.00000074
0.56907207 -0.63813144 0.00000000
0.63539529 -0.41096589 -0.00000057
-0.28697357 0.49135432 0.10905183
0.00918453 -0.76508206 0.00000000
-0.01733504 -0.18636574 0.00000000
-0.28664222 0.43653512 0.38655555
0.16517016 0.01616201 0.00000927
-0.54820824 -0.48571092 -0.00000003
0.66352499 -0.46558222 -0.00000059
0.04118138 0.47750646 0.00000422
0.49240440 -0.67816877 0.00000000
-0.12833425 0.63724703 0.17319073
-0.10877345 -0.49789187 0.00000000
-0.38939646 0.35275367 0.29108980
0.60738790 0.03816829 0.00000106
-0.42693493 -0.36438793 0.00000000
-0.51322430 -0.43254262 -0.00000001
-0.41664895 0.19926430 -0.00000036
0.64795732 -0.55733544 -0.00000037
0.56817567 -0.18691035 -0.00000068
-0.25120896 0.52255219 -0.00000029
-0.27205610 0.29377612 -0.00000013
-0.21524276 0.52401119 0.30566254
0.62905878 -0.45358604 -0.00000047
-0.61658680 0.14058518 0.21550019
-0.38869259 0.38579014 0.12839867
-0.26591110 0.06625041 0.00000000
-0.71717119 -0.72651863 -0.00000009
-0.75005025 -0.27406728 -0.00000065
0.69875848 -0.22630042 -0.00000117
0.03283096 -0.16240013 0.00000000
0.24255177 0.39684099 0.00000208
-0.24421655 0.11203821 0.00000000
0.52919436 0.26967108 -0.00000132
-0.15291260 0.57446623 -0.00000013
-0.24143492 0.37868342 -0.00000014
0.42272204 0.01432271 0.00000501
0.29889476 0.34949520 0.00000179
-0.47455174 -0.36642748 0.00000000
0.72335190 -0.32581934 -0.00000110
-0.11386814 0.24914306 0.00000000
0.57266039 0.20161541 -0.00000100
-0.54321575 0.24502137 0.05918648
-0.07412304 -0.63596433 0.00000000
-0.15753543 0.59318459 0.24796841
-0.12043687 -0.21026877 0.00000000
0.57163733 -0.62961024 0.00000000
-0.63068753 0.13653861 0.16490915
0.11673617 0.25908715 0.00000635
0.28929213 -0.71081495 0.00000000
0.14099519 -0.60406452 0.00000000
-0.42475370 0.19712453 -0.00000037
0.00704356 -0.69912380 0.00000000
-0.36602154 0.08110146 -0.00000015
-0.37641174 -0.35003862 0.00000000
0.70943999 0.03157360 -0.00000079
0.01390042 0.64666700 0.00000209
0.75090289 -0.02380285 -0.00000175
0.43562451 -0.79124153 0.00000000
0.50616592 -0.29911757 -0.00000022
0.31067196 0.04278029 0.00000667
-0.73092169 -0.50745255 -0.00000037
0.20713186 0.00837161 0.00000875
-0.41683069 0.35746774 -0.00000050
-0.55553663 0.22411688 -0.00000068
-0.24617174 0.49881929 0.27679512
-0.06500643 -0.42057028 0.00000000
-0.26751250 0.45497811 0.39001104
-0.42989731 0.32518259 0.22602998
-0.46268493 0.26434430 -0.00000051
-0.46070167 0.27507085 0.32318017
-0.59400684 0.16600786 -0.00000071
-0.33315575 0.46459547 0.01131591
0.01877470 -0.77815402 0.00000000
-0.13956296 0.53644490 -0.00000006
-0.51827782 0.21759877 0.32265660
0.66129720 -0.16743615 -0.00000111
-0.14031366 0.35137397 0.00000000
0.17038386 0.19601019 0.00000649
0.36733150 -0.40178519 0.00000000
-0.31688130 0.40430757 0.39656103
-0.34192458 0.45097938 0.03570654
-0.16922615 -0.46521354 0.00000000
-0.17845181 0.22448407 0.00000000
-0.26102883 0.47592425 0.31723985
-0.37433678 0.34259123 0.41800055
0.06024886 0.27151912 0.00000702
-0.12384658 -0.65403855 0.00000000
-0.65474844 -0.23935020 -0.00000048
-0.59899068 -0.46026474 -0.00000016
0.59384173 -0.54354280 -0.00000016
-0.09377091 -0.54572058 0.00000000
-0.10920286 0.63899916 -0.00000009
-0.22531278 0.19192246 0.00000000
0.26771006 0.38040060 0.00000187
-0.39979026 0.35696012 0.21762468
-0.72949362 -0.00144088 -0.00000085
0.41064501 -0.28468853 0.00000000
-0.27717838 0.35695136 -0.00000020
0.26482609 -0.35594490 0.00000000
-0.12354103 -0.11431147 0.00000000
-0.12448638 -0.62060910 0.00000000
-0.16387340 -0.17761597 0.00000000
-0.22432081 -0.52338630 0.00000000
-0.03165590 -0.58148569 0.00000000
0.03780743 0.53810644 0.00000336
0.30029473 0.00027269 0.00000746
0.65537614 -0.18415546 -0.00000106
-0.53807753 0.25550103 0.03230934
-0.10564957 -0.39394268 0.00000000
0.37601525 0.40238270 -0.00000058
-0.29158926 -0.53259450 0.00000000
0.75934571 -0.07172744 -0.00000170
0.20296150 -0.30682161 0.00000000
-0.12415326 0.50307655 -0.00000000
-0.42962843 -0.00740260 -0.00000020
-0.44721842 -0.50092953 0.00000000
-0.46270195 0.29202285 0.22781630
-0.07199284 -0.31200194 0.00000000
0.37017992 0.39642572 -0.00000037
0.59244913 -0.73443007 0.00000000
-0.22742887 0.52068561 0.26107883
-0.35332301 0.34957615 0.48858985
-0.26201442 0.49384609 0.22210295
-0.29068980 0.43638146 0.36696243
0.30056861 0.09620802 0.00000598
-0.56440514 -0.64504439 0.00000000
0.50203478 -0.54434294 0.00000000
0.46066254 -0.50995839 0.00000000
-0.63233364 0.03081661 -0.00000067
0.33340880 -0.12211501 0.00000000
0.28499261 -0.61543697 0.00000000
-0.53236586 -0.38691288 -0.00000009
0.60686195 -0.34204301 -0.00000057
0.20725553 -0.25280958 0.00000000
0.41326520 -0.36019775 0.00000000
-0.30875996 0.43646032 0.27564162
-0.66967708 -0.18029235 -0.00000056
0.18892916 -0.29816148 0.00000000
0.66255850 -0.23926815 -0.00000099
0.10810215 -0.70974499 0.00000000
-0.13053434 0.65260899 0.08482331
0.50247580 -0.00457285 -0.00000072
0.14961624 0.16236851 0.00000731
0.73212218 0.06661932 -0.00000183
0.59289873 -0.15865719 -0.00000084
-0.45167360 0.26584572 0.41502535
-0.14177538 -0.58315444 0.00000000
-0.06864586 -0.67485952 0.00000000
-0.27581197 -0.05029401 0.00000000
0.41872102 -0.74972045 0.00000000
0.44195917 -0.23946045 -0.00000005
0.03013319 -0.68229651 0.00000000
0.36308858 -0.53045279 0.00000000
0.03278963 0.71357030 0.00000080
0.34258148 -0.39196390 0.00000000
-0.20663656 0.05270999 0.00000000
-0.05054718 -0.44514662 0.00000000
0.51556420 -0.72634310 0.00000000
0.31792054 -0.68435341 0.00000000
-0.50992078 -0.16061431 -0.00000024
-0.07380567 -0.28707728 0.00000000
-0.27078167 0.45469248 -0.00000027
0.17515925 -0.43929276 0.00000000
-0.29356718 -0.01904702 0.00000000
-0.01364950 -0.02900487 0.00000000
0.44133952 -0.65379953 0.00000000
-0.38521126 0.02338631 -0.00000014
-0.42282921 0.27344990 -0.00000044
0.52801877 -0.78074646 0.00000000
0.30743331 -0.00159107 0.00000000
-0.37854320 -0.21128583 0.00000000
0.39851046 -0.11934569 -0.00000008
0.59429419 -0.09153827 -0.00000096
-0.10077501 0.66104567 -0.00000009
-0.67347187 -0.55184364 -0.00000024
0.54795283 -0.02893325 -0.00000087
0.18362406 -0.61829525 0.00000000
0.01470777 0.57515645 0.00000315
0.74002987 -0.70227361 -0.00000024
-0.14260429 0.35167855 0.00000000
0.49055442 0.22746634 0.00000014
0.41297919 0.30631784 0.00000032
-0.19531810 -0.19990686 0.00000000
-0.19542938 -0.07777682 0.00000000
-0.74984860 -0.59136420 -0.00000026
0.16037425 0.32634747 0.00000468
0.58639699 0.11462357 0.00000019
0.69941860 -0.30018276 -0.00000104
-0.47576427 0.03200694 -0.00000034
-0.37639028 -0.17507142 0.00000000
-0.44872600 -0.25789183 -0.00000002
-0.04907586 -0.61266631 0.00000000
0.27323410 -0.07147156 0.00000000
-0.38865751 0.37887868 -0.00000046
0.24859640 0.38660914 0.00000213
-0.15541147 -0.22340776 0.00000000
-0.67060924 0.11232165 -0.00000082
0.47251937 0.21494281 0.00000070
-0.04752031 0.16696854 0.00000000
-0.43894705 -0.23796643 -0.00000002
-0.52876228 0.09789193 -0.00000051
-0.24876022 -0.70751637 0.00000000
-0.30325404 -0.00111624 0.00000000
-0.45361990 0.30915403 0.18731442
0.18903100 0.25773296 0.00000528
-0.12196699 0.40569317 0.00000000
-0.68672258 -0.12431594 -0.00000065
0.40886152 0.16680773 0.00000273
0.02420966 -0.19921809 0.00000000
-0.42850438 -0.28858033 0.00000000
0.71597141 -0.28017494 -0.00000115
-0.14039773 -0.29238576 0.00000000
-0.75193429 -0.53637516 -0.00000033
-0.22320130 -0.61501181 0.00000000
0.32276362 0.18544592 0.00000407
0.77939981 -0.70585853 -0.00000024
-0.39346457 -0.34443408 0.00000000
-0.12624311 0.42446104 0.00000000
-0.71864688 -0.38661423 -0.00000048
0.10256597 -0.17065372 0.00000000
0.16172650 0.57928753 0.00000058
0.30342662 0.09394182 0.00000597
-0.47669721 -0.11075878 -0.00000021
0.13875575 0.13486238 0.00000788
0.43866414 -0.32141191 0.00000000
0.53499609 0.06193937 0.00000205
0.06613599 0.23379681 0.00000750
0.32664454 0.44473675 -0.00000034
0.41170728 -0.59728026 0.00000000
0.15590525 -0.39912117 0.00000000
-0.52951127 0.00762354 -0.00000043
-0.65981293 -0.17072491 -0.00000055
0.25752741 0.07817970 0.00000694
-0.38849983 0.09403462 -0.00000021
0.17814068 -0.00782684 0.00000000
0.29583421 -0.72390920 0.00000000
0.08259462 -0.32042518 0.00000000
-0.57027692 0.21698374 -0.00000070
0.37656441 -0.73469812 0.00000000
-0.32667774 0.07616581 -0.00000006
-0.29647335 0.01452067 0.00000000
-0.35748887 0.41885215 0.11904836
-0.51473546 0.26462179 0.10386884
-0.38460895 -0.46952558 0.00000000
0.34221494 -0.46762633 0.00000000
-0.55090761 -0.11358825 -0.00000037
0.34369320 -0.04762548 0.00000000
-0.57307607 0.20794673 -0.00000070
-0.75083303 -0.44131351 -0.00000045
-0.44110125 -0.39913666 0.00000000
-0.24200663 -0.47016898 0.00000000
-0.39083198 -0.33371207 0.00000000
-0.14612336 0.65225625 0.00815652
0.24285203 -0.45704269 0.00000000
0.09541329 -0.63346946 0.00000000
-0.27194831 0.34996924 -0.00000018
0.38276321 -0.69918972 0.00000000
0.66110998 -0.59595227 -0.00000035
-0.66611266 -0.22874323 -0.00000051
0.52287245 -0.27836567 -0.00000033
-0.33640704 0.25009739 -0.00000023
0.75880468 -0.71446270 -0.00000021
0.25879148 -0.05574738 0.00000000
0.77223808 -0.32591748 -0.00000119
-0.11935154 0.64952117 0.15662912
0.07813686 0.29851010 0.00000634
0.07240800 0.52930987 0.00000297
-0.16886371 -0.07058099 0.00000000
-0.35426584 0.38113239 0.32506344
-0.24656685 0.01531049 0.00000000
-0.25393093 -0.37087071 0.00000000
-0.42050982 -0.34224829 0.00000000
0.28839448 0.40585649 0.00000105
0.69782782 -0.29252517 -0.00000105
0.72762018 0.00216528 -0.00000065
0.19907008 -0.78446442 0.00000000
-0.56826782 -0.18274684 -0.00000034
-0.35172409 0.42347267 0.12480619
-0.48940966 0.22898239 -0.00000054
-0.39155084 0.32695922 0.41004011
0.13916647 0.32214919 0.00000507
0.46839949 -0.65261346 0.00000000
0.77130991 -0.60351920 -0.00000049
-0.71006274 -0.45889542 -0.00000040
-0.64911199 0.12492320 0.13064691
0.28822073 -0.39470953 0.00000000
0.25149208 0.42924315 0.00000136
-0.67201471 -0.25367674 -0.00000050
0.73261017 -0.48441702 -0.00000079
0.37879491 0.27995151 0.00000141
-0.40615654 0.29814002 0.48155847
0.19163810 0.07648331 0.00000796
-0.70104039 -0.60048807 -0.00000025
-0.16745082 -0.10163661 0.00000000
-0.50586337 -0.75261354 0.00000000
-0.59566414 -0.04059598 -0.00000053
0.60198122 -0.26422378 -0.00000069
-0.52814621 -0.37196645 -0.00000009
0.01394742 -0.06639247 0.00000000
0.41368166 -0.59515268 0.00000000
0.54140705 0.16427690 0.00000022
-0.22434555 0.39062446 -0.00000012
-0.56568384 0.22731572 0.03522238
-0.52495593 0.14384367 -0.00000054
0.07502507 -0.30754304 0.00000000
-0.03718538 -0.75246489 0.00000000
-0.47419831 -0.08116407 -0.00000023
-0.34043926 -0.39683264 0.00000000
-0.26922137 -0.61687523 0.00000000
0.10720895 -0.70409763 0.00000000
-0.18080570 -0.12828276 0.00000000
0.58191019 -0.62597126 0.00000000
-0.30177796 0.40889755 0.44946131
-0.14218929 0.36240053 0.00000000
-0.28538603 0.42684901 0.44161415
-0.60958093 -0.08892666 -0.00000052
0.30919638 0.17620389 0.00000448
-0.57936788 -0.72914445 0.00000000
-0.31890982 0.43547842 0.22951108
0.06601499 0.66485083 0.00000099
-0.61714089 -0.22428672 -0.00000041
0.13309409 0.39081714 0.00000413
-0.76308042 -0.46414071 -0.00000042
0.34080076 0.10077837 0.00000514
0.43151850 -0.79222405 0.00000000
-0.08533906 0.58588964 0.00000000
-0.72641319 -0.18384963 -0.00000068
0.20627756 -0.48137522 0.00000000
-0.28868681 -0.63743007 0.00000000
-0.01913929 -0.53200847 0.00000000
0.10485620 -0.37029123 0.00000000
0.31294864 -0.68279451 0.00000000
-0.27569160 -0.44769290 0.00000000
-0.63612252 -0.45811474 -0.00000025
0.35523051 0.26508376 0.00000211
-0.44783294 -0.38985023 0.00000000
-0.45120212 0.32835665 0.10285593
0.47462606 -0.74817234 0.00000000
0.22572610 0.08609238 0.00000730
0.12953269 -0.22651811 0.00000000
0.11240408 -0.39804921 0.00000000
-0.59152681 0.17022838 0.19243880
-0.39938802 0.24936296 -0.00000037
-0.58578348 -0.06125909 -0.00000049
-0.13364731 -0.15367623 0.00000000
0.44537172 -0.05403758 -0.00000039
-0.05689512 -0.28754225 0.00000000
0.04287039 0.25043550 0.00000760
0.15664943 -0.40670490 0.00000000
0.64305282 -0.67770332 -0.00000013
0.49573678 -0.29106164 -0.00000019
0.02487490 0.16807513 0.00000910
0.69451827 -0.19567585 -0.00000120
0.18978363 0.58733183 -0.00000009
-0.15989469 -0.02306028 0.00000000
0.71899223 -0.58568329 -0.00000054
0.04279116 0.59565520 0.00000242
-0.55074340 0.22611788 0.11642780
-0.45383912 0.32587600 -0.00000055
0.14213520 0.54490054 0.00000153
-0.23609646 -0.06536124 0.00000000
0.75339079 0.01817054 -0.00000141
0.28875959 0.30241150 0.00000277
-0.02101278 0.08222320 0.00000000
-0.44251451 0.31668633 0.20529380
-0.27141902 0.44819212 0.40449971
0.63178903 -0.04035964 -0.00000121
-0.69140911 -0.21804813 -0.00000058
0.17116813 -0.68253410 0.00000000
-0.00626194 -0.54811937 0.00000000
0.46992373 -0.56833637 0.00000000
0.29526806 -0.13033608 0.00000000
0.20896628 0.29999259 0.00000434
-0.00929986 -0.09032954 0.00000000
0.27256659 -0.71076256 0.00000000
0.29475084 0.36155832 0.00000166
0.21610767 -0.42877284 0.00000000
0.01685473 -0.65791196 0.00000000
0.13236460 0.41070300 0.00000384
0.07780322 0.36843127 0.00000530
0.05561876 0.28841937 0.00000683
-0.53812456 -0.73616064 0.00000000
-0.43886676 0.29414800 0.33705655
-0.43062276 0.31446424 0.27631232
-0.55485654 -0.47933623 -0.00000005
-0.16500220 0.63246673 0.01273887
0.25626141 -0.57716262 0.00000000
-0.29391816 0.42594928 0.40321004
0.39187887 0.23065059 0.00000198
-0.22571200 0.54288810 0.15800078
0.63300723 -0.51358342 -0.00000038
0.17676932 0.02802352 0.00000891
-0.75076991 -0.55536264 -0.00000031
0.25495386 -0.08889627 0.00000000
0.79161555 -0.39344463 -0.00000102
-0.74918872 -0.02333782 -0.00000087
0.63649696 -0.72258109 -0.00000002
-0.08377745 0.16704981 0.00000000
-0.29921156 -0.47625813 0.00000000
-0.00167785 0.20253804 0.00000000
-0.52732837 0.15017481 -0.00000055
0.67674619 -0.32521001 -0.00000090
-0.27234620 -0.69662416 0.00000000
-0.54492283 -0.47720268 -0.00000003
0.39480880 0.03828121 0.00000514
0.56643391 -0.46277043 -0.00000019
-0.01526476 -0.70652461 0.00000000
0.68143964 -0.44925529 -0.00000070
-0.16871251 0.34886992 0.00000000
-0.35594749 0.33904546 0.52837169
-0.38159212 0.36236697 0.28198761
-0.41528863 0.16674723 -0.00000033
0.54439735 -0.15910374 -0.00000063
-0.12542352 0.65719110 0.08748359
0.20465599 0.32001388 0.00000409
-0.01791833 -0.43165293 0.00000000
0.58646464 -0.23164007 -0.00000068
-0.21399288 0.16938248 0.00000000
-0.24284071 -0.72990882 0.00000000
0.19317067 -0.47415584 0.00000000
-0.35761002 0.21753208 -0.00000025
0.28149793 -0.31287009 0.00000000
-0.54878306 -0.07006363 -0.00000040
-0.10340053 0.68709278 0.04783986
0.21428850 -0.00324716 0.00000000
0.79259545 -0.66825080 -0.00000033
-0.24692535 0.47627944 0.38641739
-0.74201971 -0.48619074 -0.00000039
-0.77375287 -0.45792621 -0.00000043
0.01790498 0.00757873 0.00001162
0.17854086 0.31628323 0.00000456
-0.47728148 0.31196746 0.05409610
-0.13874170 -0.69025093 0.00000000
-0.51278126 -0.12155469 -0.00000028
-0.10239626 -0.23846361 0.00000000
-0.68250173 -0.68090051 -0.00000015
-0.23799761 0.22421581 0.00000000
0.62801355 -0.51774448 -0.00000035
0.05193966 -0.57421482 0.00000000
0.18666282 -0.25238052 0.00000000
0.59409571 -0.66181451 0.00000000
0.17721760 -0.10737124 0.00000000
-0.30114403 -0.69408941 0.00000000
-0.15055364 0.45568672 -0.00000002
0.31600416 -0.69297010 0.00000000
0.37970516 -0.74390781 0.00000000
-0.79381275 -0.27513579 -0.00000066
0.51217544 0.23311643 -0.00000037
-0.46794578 -0.27035311 -0.00000005
-0.21835244 -0.40889540 0.00000000
-0.01574075 0.05863944 0.00000000
-0.27492535 -0.27479553 0.00000000
0.29044065 0.35247710 0.00000190
0.69742179 -0.61046839 -0.00000047
0.09507569 -0.47731200 0.00000000
-0.38813138 0.28142473 -0.00000037
-0.05099365 -0.37331179 0.00000000
-0.74555540 -0.24023473 -0.00000067
-0.59031516 -0.40258616 -0.00000020
-0.38902479 -0.00026167 -0.00000012
0.24061675 -0.57494694 0.00000000
0.74334884 -0.59097087 -0.00000052
-0.16410030 -0.47658539 0.00000000
-0.09051782 -0.05834965 0.00000000
-0.10010667 0.51496762 0.00000000
0.27530441 -0.02366496 0.00000000
0.72588372 -0.31252056 -0.00000113
0.70014232 -0.57336986 -0.00000056
-0.24388708 -0.17046526 0.00000000
0.76278442 -0.65721387 -0.00000036
-0.04147432 0.71763504 -0.00000002
0.63061368 -0.02849042 -0.00000123
0.62685734 -0.13838537 -0.00000102
-0.26512229 0.42013174 -0.00000023
-0.30518132 -0.37987545 0.00000000
0.74516726 -0.47240955 -0.00000082
0.76118183 -0.36221930 -0.00000109
0.63376468 -0.79031545 0.00000000
-0.37785596 0.33149558 0.45612323
-0.23198155 0.37531504 -0.00000012
-0.45785880 0.30984205 0.16252297
0.32972687 0.18672208 0.00000391
0.47983596 0.04595491 0.00000338
0.06492231 0.62579310 0.00000163
-0.55099148 -0.46502429 -0.00000006
-0.13116905 0.00474512 0.00000000
-0.19989909 -0.63894016 0.00000000
0.07533409 0.70658338 0.00000011
-0.56424940 -0.38454530 -0.00000016
-0.49696568 -0.64492571 0.00000000
0.27932766 0.02864523 0.00000736
0.03876073 -0.63050032 0.00000000
0.46372426 0.15336707 0.00000190
-0.22004792 0.23195469 0.00000000
-0.13158558 -0.34103620 0.00000000
0.02770309 -0.05634872 0.00000000
-0.01161275 -0.21859390 0.00000000
0.60671449 -0.12305214 -0.00000096
-0.05843057 -0.25231677 0.00000000
-0.41281646 0.03779853 -0.00000021
-0.13240042 -0.22288989 0.00000000
-0.37479195 0.39284343 0.16285355
0.29617172 -0.27286533 0.00000000
0.18266943 -0.31122217 0.00000000
-0.65322042 -0.29983672 -0.00000042
-0.25900504 -0.11191689 0.00000000
-0.74253559 -0.46988404 -0.00000041
-0.23745088 0.56139261 0.00582107
-0.65532929 -0.71977437 -0.00000006
0.65250891 -0.31991646 -0.00000081
-0.59588468 0.15918507 0.22607861
-0.41342133 -0.12746438 -0.00000006
-0.31753144 -0.59388864 0.00000000
-0.52290720 -0.27267805 -0.00000017
-0.20475489 0.28374276 0.00000000
-0.64356685 0.13147038 0.12560479
-0.05359518 -0.74126995 0.00000000
0.62884802 -0.68754411 -0.00000005
0.57185942 -0.34823352 -0.00000041
-0.11386475 -0.08603127 0.00000000
0.55429560 0.02048082 0.00000238
0.67170721 -0.71277112 -0.00000019
0.36892405 0.07877518 0.00000496
-0.37789503 0.13701548 -0.00000022
0.38646516 0.34201312 0.00000023
-0.33081752 0.36453709 0.52655178
-0.68831819 -0.30170381 -0.00000050
-0.54358029 -0.76012599 0.00000000
-0.10847388 -0.51701885 0.00000000
-0.24326929 0.07648458 0.00000000
-0.23757836 0.48852775 -0.00000023
0.03676521 -0.29680091 0.00000000
0.46486470 0.15193312 0.00000190
0.35709494 0.07468499 0.00000526
0.63273132 -0.20087440 -0.00000093
-0.39003828 0.28093371 -0.00000037
0.28739932 0.15767097 0.00000521
-0.11929052 0.60782582 -0.00000008
-0.48821324 -0.69900113 0.00000000
-0.43164331 0.30688709 0.30930331
0.06755150 -0.16595462 0.00000000
-0.62348545 0.15228070 -0.00000076
0.29562119 0.10517532 0.00000593
0.69186598 -0.28013596 -0.00000104
0.00508224 0.05700876 0.00001107
0.57719934 0.17697410 -0.00000068
0.42330092 -0.75527334 0.00000000
-0.77519482 -0.23928472 -0.00000070
0.36820108 0.27475509 0.00000170
0.72823578 -0.49358290 -0.00000077
0.02387550 -0.60771173 0.00000000
0.01776261 -0.48317555 0.00000000
-0.57448560 -0.60152406 0.00000000
0.08415603 -0.07956845 0.00000000
0.08769231 0.62108439 0.00000130
-0.52206391 -0.33314946 -0.00000011
-0.58374733 0.18073113 0.17873564
-0.20171975 0.57779920 0.10305981
-0.45685682 0.30361566 0.19889504
0.52795643 -0.05143770 -0.00000075
-0.26978528 0.52140129 0.04434910
-0.18861476 0.47325322 -0.00000011
-0.67236400 0.05580060 -0.00000078
-0.18701607 -0.61206758 0.00000000
-0.71010596 -0.33150348 -0.00000052
0.29102689 -0.76057392 0.00000000
-0.35884032 0.37107551 0.35264942
0.43393847 -0.50234222 0.00000000
0.11856185 0.38320544 0.00000446
0.32636514 0.29291496 0.00000220
-0.40346676 0.32748315 0.34744620
-0.44767985 -0.62854052 0.00000000
-0.09416758 0.02198183 0.00000000
-0.45941710 -0.37107456 0.00000000
-0.46424288 -0.01142994 -0.00000027
-0.00240894 -0.54799056 0.00000000
-0.26420680 0.45615965 0.40069920
-0.24186692 0.50179213 0.28349727
0.48614901 -0.58299261 0.00000000
-0.45963365 -0.05482950 -0.00000023
-0.48605031 -0.63825995 0.00000000
-0.32202160 0.38138869 0.48601797
0.33291787 0.16439472 0.00000422
0.34135231 0.12284714 0.00000476
0.51368034 -0.19889122 -0.00000043
-0.20880421 0.19749717 0.00000000
0.21715830 -0.20239913 0.00000000
0.20828210 -0.46363544 0.00000000
-0.00808653 0.30541036 0.00000000
0.75796103 -0.08314678 -0.00000167
0.28697774 0.17079452 0.00000500
-0.29898843 0.20946603 -0.00000012
-0.22064006 0.52166474 0.29031146
-0.49016312 -0.14203393 -0.00000021
-0.39700586 0.35931396 0.21979135
0.05742050 0.27153447 0.00000706
-0.23859659 0.50112551 0.30330682
-0.26826337 0.46466368 0.33749771
-0.20709342 0.58233315 -0.00000025
0.26754984 -0.79999977 0.00000000
0.26382425 -0.16294701 0.00000000
0.12943242 -0.35810310 0.00000000
0.75756603 0.03592429 -0.00000179
0.48137894 0.27929646 -0.00000055
-0.43894571 -0.52850765 0.00000000
-0.05420469 0.74550486 0.00146584
0.33397451 0.43195885 -0.00000027
-0.10254500 0.24542031 0.00000000
0.19952770 0.59569579 -0.00000042
-0.36984643 0.38337362 0.23538911
0.51953405 0.24958591 -0.00000078
-0.56032777 -0.08554398 -0.00000041
-0.46473703 -0.17914289 -0.00000013
-0.51439571 -0.00455026 -0.00000039
-0.45506686 0.32917324 0.07930010
-0.34060597 0.40171245 0.29024291
0.44244203 -0.17611516 -0.00000016
-0.22291778 0.54435503 0.16467933
0.79367757 -0.58444411 -0.00000054
-0.48848438 0.25550300 0.28184482
-0.20813118 -0.19508286 0.00000000
-0.33795831 0.43987411 0.11154411
-0.66876626 0.06213895 -0.00000077
-0.13938680 0.31299824 0.00000000
-0.30127767 0.15014789 -0.00000007
0.25509065 -0.44138768 0.00000000
0.08298015 -0.47247678 0.00000000
-0.18668170 -0.64645875 0.00000000
-0.60219747 -0.13612662 -0.00000046
-0.60317510 -0.04033913 -0.00000054
0.22709142 -0.12174321 0.00000000
0.00620849 0.34157053 0.00000678
-0.14300901 -0.37086442 0.00000000
0.09052042 -0.35170117 0.00000000
-0.00407117 0.75614762 0.00000000
0.12243553 -0.10400277 0.00000000
-0.28226489 -0.44428608 0.00000000
-0.53581595 -0.49882531 0.00000000
0.56042689 -0.25955090 -0.00000052
0.27547923 -0.64069939 0.00000000
-0.43960395 0.29480848 -0.00000049
-0.34906507 -0.24188992 0.00000000
0.47496215 -0.46200579 0.00000000
0.06569266 0.40700153 0.00000490
-0.32049158 -0.26730290 0.00000000
0.00778113 -0.57197034 0.00000000
-0.26327199 -0.21710919 0.00000000
-0.53526741 0.26363111 0.00554021
-0.33598417 -0.34248343 0.00000000
0.66284305 -0.25898442 -0.00000096
-0.74822992 0.03921573 0.06316622
0.42864153 -0.76436234 0.00000000
-0.67777348 -0.16569021 -0.00000059
-0.53934962 -0.75144219 0.00000000
-0.67062408 -0.03405567 -0.00000069
