ply
format ascii 1.0
element vertex 1391
property float x
property float y
property float z
end_header
0.05461338 -0.37891328 0.00000000
0.56506622 0.10047176 0.00000083
0.55247658 -0.51362598 -0.00000004
-0.17357852 0.27799773 0.26887789
0.23514701 0.55733466 -0.00000046
0.53623676 -0.68211424 0.00000000
-0.76817638 -0.58034974 -0.00000027
0.54813164 -0.35551494 -0.00000030
0.14687324 -0.23791274 0.00000000
-0.37190801 0.29395393 0.10351385
-0.09488089 0.32229096 0.29542765
0.58320081 -0.15522714 -0.00000080
0.09007829 -0.12846045 0.00000000
-0.76367563 -0.05231515 -0.00000088
0.35376295 -0.31670269 0.00000000
0.36722144 -0.43740362 0.00000000
0.64746451 -0.46656486 -0.00000052
-0.39763251 0.14086197 0.20180318
-0.17327654 0.49880579 0.09871421
-0.49077058 0.28806138 0.01633460
-0.23956856 -0.66854113 0.00000000
0.28442386 0.18712841 0.00000478
-0.27511257 -0.29400620 0.00000000
0.35554695 -0.37022319 0.00000000
-0.79628289 -0.55200821 -0.00000031
0.09747428 -0.34072113 0.00000000
-0.40674055 -0.66505146 0.00000000
0.40384758 0.03587901 0.00000501
-0.11980851 -0.64211714 0.00000000
-0.32277626 -0.33941725 0.00000000
0.79766500 -0.48399022 -0.00000079
-0.57993710 -0.40852469 -0.00000017
-0.12340903 -0.75433481 0.00000000
0.07680985 0.09046586 0.00000948
-0.33755240 0.11979214 0.26442644
0.12790690 -0.28232151 0.00000000
0.41784635 -0.77185339 0.00000000
-0.01413206 0.21041746 0.00000000
0.05328002 -0.72725874 0.00000000
-0.18417603 0.13769904 0.36896774
0.01337000 -0.38739973 0.00000000
0.03151412 0.21113265 0.00000836
-0.55405968 0.06414304 0.14029188
-0.07983990 -0.64138293 0.00000000
0.77654922 -0.54570460 -0.00000064
-0.17336123 0.07818359 0.00000000
-0.57137716 -0.63949841 0.00000000
0.43791807 -0.46282923 0.00000000
-0.34012842 0.09742426 0.27969974
0.78753626 -0.34207693 -0.00000114
-0.01191276 -0.50931937 0.00000000
-0.45934078 0.27052057 0.05412527
-0.52745903 -0.65639067 0.00000000
-0.11958001 -0.51453704 0.00000000
0.63189721 -0.03421546 -0.00000122
-0.66155511 -0.70582789 -0.00000008
0.26602820 0.40002179 0.00000157
0.48701382 -0.31849182 -0.00000010
-0.56395227 -0.64950871 0.00000000
0.20536332 -0.65719575 0.00000000
-0.32876152 0.11749555 0.27298263
0.60804176 -0.20475242 -0.00000082
0.02262938 0.69225436 0.00000127
0.35096803 -0.26130387 0.00000000
-0.61637557 -0.37438893 -0.00000028
-0.27605641 -0.29053879 0.00000000
0.54724753 -0.51022315 -0.00000002
-0.10509466 -0.27315271 0.00000000
0.31652659 0.28825685 0.00000247
-0.62042528 -0.13016300 -0.00000050
-0.26940233 0.22296683 0.23739812
-0.24734180 0.52519494 0.02119336
-0.34589106 0.36984301 0.06502764
0.07991445 0.38094416 0.00000508
-0.16924550 0.32636067 0.23490018
-0.54309553 -0.56060970 0.00000000
0.77682984 -0.09366956 -0.00000174
0.52892178 0.11172194 0.00000134
0.19071341 -0.19523746 0.00000000
-0.49960816 -0.34507170 -0.00000005
-0.32072145 -0.26720226 0.00000000
-0.73201138 0.04061960 0.02111912
-0.33494782 -0.38087833 0.00000000
-0.28592932 -0.08075835 0.00000000
-0.62269902 -0.37738913 -0.00000029
-0.30938241 0.46975043 0.01610296
-0.19876745 0.44014204 0.12431359
0.78043669 -0.72677237 -0.00000018
-0.00909144 -0.78798884 0.00000000
0.64205861 -0.41445005 -0.00000059
-0.11973806 0.26121217 0.00000000
0.50665748 -0.30965418 -0.00000020
-0.39861378 -0.14635821 -0.00000001
-0.10499172 -0.08029339 0.00000000
0.47753462 -0.03514216 -0.00000056
-0.43998528 0.18635842 0.13400987
0.08293369 0.60957700 0.00000159
-0.18539315 0.16174339 0.34947357
-0.01799887 0.27395892 0.00000000
-0.00728003 0.10055831 0.00000000
-0.70703447 -0.40836805 -0.00000044
-0.23223002 -0.20818324 0.00000000
-0.64078611 -0.25952536 -0.00000043
-0.28506580 -0.63839674 0.00000000
0.50525165 -0.35231167 -0.00000012
0.65240425 -0.44663414 -0.00000058
-0.43371838 -0.50040674 0.00000000
0.05937217 -0.02267154 0.00000000
-0.75553828 -0.38693720 -0.00000052
0.28443697 -0.76667011 0.00000000
0.18169232 0.36973491 0.00000370
-0.14256917 -0.26947570 0.00000000
-0.58818829 -0.36518639 -0.00000023
-0.69911516 -0.32849106 -0.00000049
0.56971252 -0.44944847 -0.00000022
0.36882484 0.30957901 0.00000111
0.07033665 -0.40465826 0.00000000
-0.62940776 -0.77724558 0.00000000
-0.49151552 -0.66026688 0.00000000
0.39932287 0.06826331 0.00000455
0.35537136 0.27334249 0.00000197
-0.76514691 -0.40493593 -0.00000049
0.65168452 -0.76304793 -0.00000002
0.14780083 -0.04276846 0.00000000
-0.49891910 -0.39982727 -0.00000000
-0.20980477 -0.61679524 0.00000000
0.45078629 -0.36383361 0.00000000
-0.62091178 -0.39995292 -0.00000026
-0.37154919 -0.28776115 0.00000000
-0.64727926 -0.72068959 -0.00000004
0.10732482 -0.10345682 0.00000000
0.79845124 -0.46567303 -0.00000084
-0.08613875 0.52569646 0.14520673
0.63325793 -0.33806857 -0.00000069
0.18437269 0.43495750 0.00000256
-0.26276106 -0.41792119 0.00000000
-0.18733041 -0.44473088 0.00000000
0.27920339 0.36589175 0.00000189
0.75281930 -0.65261114 -0.00000037
0.25104120 -0.74156612 0.00000000
-0.13241649 0.40700313 0.20108952
-0.22802259 0.33689752 0.18141088
-0.65537512 -0.22377683 -0.00000049
0.33173838 -0.10763152 0.00000000
-0.40858328 -0.39502892 0.00000000
0.19619574 -0.70354581 0.00000000
-0.37231934 -0.25582993 0.00000000
-0.39524221 0.15717638 0.19105798
-0.56539857 0.16520552 0.05355176
-0.48303854 -0.70245528 0.00000000
-0.48127979 -0.64211178 0.00000000
-0.43669531 -0.09264927 -0.00000014
-0.51115632 -0.69058919 0.00000000
-0.34910217 -0.38525584 0.00000000
0.56699574 -0.21409822 -0.00000063
0.10185513 0.39582589 0.00000453
-0.56642604 0.17725292 0.04346189
0.22338001 0.30135202 0.00000404
-0.19309431 0.53615284 0.05460011
-0.45363542 -0.30601808 0.00000000
0.48261493 -0.38614076 0.00000000
0.30414540 -0.44921160 0.00000000
-0.33315516 -0.57490557 0.00000000
-0.01914411 0.75574630 0.01937772
0.13550694 -0.00238298 0.00000000
0.53164750 0.08830585 0.00000168
-0.08208314 0.70006627 0.01377582
-0.55191320 0.04934736 0.15336615
-0.06105781 -0.55287158 0.00000000
-0.01768238 -0.68492830 0.00000000
-0.49074256 -0.26237723 -0.00000011
0.09680630 -0.33677721 0.00000000
-0.59509617 -0.71520531 0.00000000
-0.41936797 -0.72474456 0.00000000
-0.13475491 0.57924598 0.06636581
0.28448340 -0.59770507 0.00000000
-0.32533157 0.34437498 0.10054715
0.42426640 -0.42271268 0.00000000
0.53207165 -0.63589871 0.00000000
-0.03013462 0.07347676 0.00000000
-0.13912201 -0.48407835 0.00000000
0.22525358 0.04749517 0.00000789
-0.02315517 -0.40391594 0.00000000
0.26875749 -0.40324625 0.00000000
0.42729902 -0.41923288 0.00000000
0.44311863 0.06783211 0.00000372
0.00599316 0.08697505 0.00001060
-0.18857174 -0.58088714 0.00000000
0.51199615 0.17709450 0.00000057
-0.30195233 0.37183037 0.09740164
0.23064157 -0.20404962 0.00000000
0.31409797 -0.07355052 0.00000000
0.58224809 0.06390538 0.00000111
0.34175202 -0.70989835 0.00000000
-0.44840029 0.17507434 0.13622388
-0.75177264 -0.61002165 -0.00000024
0.00435637 -0.76498562 0.00000000
-0.44304532 0.14802024 0.16123396
-0.32338580 0.11830754 0.27650443
-0.09856926 -0.12390210 0.00000000
0.11231618 -0.05467512 0.00000000
-0.64408588 0.08045448 0.05823091
-0.53103614 0.13798280 0.10107711
0.53559577 0.13845842 0.00000076
0.60602635 -0.32020399 -0.00000061
-0.71770436 -0.52170670 -0.00000035
-0.14881738 0.17304112 0.36898053
0.42494878 -0.08158557 -0.00000026
-0.24928243 -0.49703237 0.00000000
0.14288314 0.40649745 0.00000375
0.20815834 0.26657307 0.00000486
-0.69995993 -0.32738352 -0.00000050
-0.29623672 -0.73250693 0.00000000
-0.20361400 0.13635032 0.00000000
-0.09617283 0.44991952 0.19594023
-0.17506263 -0.53155708 0.00000000
-0.31155318 -0.44804391 0.00000000
-0.31739897 -0.44141936 0.00000000
-0.67442322 -0.28889856 -0.00000048
-0.08379334 -0.51140594 0.00000000
-0.35219160 -0.60602939 0.00000000
0.64097095 -0.49751788 -0.00000044
0.07261469 0.40736935 0.00000479
0.66238278 -0.24334970 -0.00000098
-0.64077848 0.10773198 0.03973318
-0.38494015 0.13531765 0.21587646
0.75722384 -0.33702335 -0.00000116
0.21301003 0.04614073 0.00000809
0.67475551 -0.09560516 -0.00000130
0.46621031 -0.06825889 -0.00000045
-0.13404158 -0.04337531 0.00000000
-0.64833277 -0.47276574 -0.00000026
0.23090291 -0.06666378 0.00000000
-0.29392821 -0.08735632 0.00000000
-0.06263684 0.43006989 0.00000000
0.44723558 0.27566797 0.00000017
0.74974197 -0.14609590 -0.00000153
-0.50845319 0.25797009 0.02591030
0.47714391 -0.78179687 0.00000000
0.00369149 0.51825023 0.00000417
0.20779006 -0.29782969 0.00000000
0.16451873 0.59056991 0.00000034
-0.28329417 0.27084678 0.18972909
-0.11282238 -0.32110763 0.00000000
0.73270142 0.01618814 -0.00000098
-0.22089890 0.16230853 0.32163781
0.02749244 -0.61171275 0.00000000
0.45452061 -0.32579696 0.00000000
-0.46237856 -0.52985471 0.00000000
0.11198135 -0.73582965 0.00000000
0.41713226 -0.19406968 -0.00000002
-0.59025109 -0.62188292 -0.00000000
-0.46429825 -0.09210890 -0.00000020
0.13975161 0.41832951 0.00000362
0.05188999 -0.56813359 0.00000000
-0.19211841 0.23718037 0.28606930
-0.59674734 -0.74478418 0.00000000
-0.47103810 -0.51484412 0.00000000
-0.46786046 0.23029055 0.07859610
0.00246589 -0.54290611 0.00000000
0.06436258 -0.32468107 0.00000000
-0.47493973 -0.78934342 0.00000000
0.32498097 -0.63395762 0.00000000
0.55934054 -0.05690975 -0.00000087
-0.11130038 -0.20292120 0.00000000
-0.60129404 -0.37834948 -0.00000024
-0.72358751 -0.42379451 -0.00000046
0.01765878 0.53156155 0.00000376
0.61070031 -0.24921595 -0.00000075
-0.29801092 0.39104006 0.08561913
0.14077671 -0.64144874 0.00000000
0.14051694 -0.53395635 0.00000000
-0.30082554 -0.13194430 0.00000000
0.68141216 -0.68623680 -0.00000028
-0.64090735 -0.14353374 -0.00000053
0.52142060 -0.72374946 0.00000000
-0.53586835 -0.07897381 -0.00000037
-0.47708982 -0.50792760 0.00000000
-0.10178082 -0.02585121 0.00000000
0.10072070 -0.34347457 0.00000000
0.53281111 -0.46753961 -0.00000003
0.10191929 -0.69200110 0.00000000
-0.24060173 0.49371430 0.05068830
-0.45276180 0.29376319 0.04126599
0.14606199 -0.54121643 0.00000000
0.79218590 -0.59954125 -0.00000050
0.27382293 -0.12693545 0.00000000
-0.76301652 -0.08991877 -0.00000084
0.19012827 0.60273415 -0.00000036
-0.04172687 0.62876427 0.09994219
-0.16789263 0.33014822 0.23302132
-0.20310810 -0.73835629 0.00000000
0.01565158 0.08065531 0.00001055
0.74222422 -0.53307974 -0.00000067
0.09186002 0.26094541 0.00000670
0.45036429 0.07359914 0.00000349
-0.01020905 -0.76193810 0.00000000
0.11279403 -0.78965259 0.00000000
-0.30305052 0.46627423 0.02367188
0.50608718 0.17152898 0.00000078
-0.61870158 -0.68974209 -0.00000000
-0.10240893 -0.06435872 0.00000000
-0.34722418 0.28590339 0.12877505
0.71445435 0.03366843 -0.00000092
0.61704105 -0.05652607 -0.00000112
-0.21319053 0.55754286 0.02258516
-0.37263119 0.13917214 0.22240080
-0.08954975 0.53769988 0.13331150
0.13755457 -0.48722810 0.00000000
-0.46360773 0.14781737 0.14552245
-0.18931422 0.54195124 0.05304258
-0.23699681 -0.38546818 0.00000000
-0.36456636 0.10130586 0.25784564
0.37076572 -0.52385157 0.00000000
-0.29696566 -0.44238666 0.00000000
0.41101995 0.29380465 0.00000056
0.60123575 -0.34850681 -0.00000054
-0.68894291 -0.60593152 -0.00000023
-0.60061312 -0.51139563 -0.00000012
-0.68820798 -0.23094217 -0.00000056
-0.02508591 -0.15774108 0.00000000
-0.19348761 -0.36224064 0.00000000
-0.70804417 -0.32187569 -0.00000052
0.73715085 -0.27417293 -0.00000125
-0.00987418 0.75431216 0.02763804
0.71214634 -0.21491504 -0.00000125
0.07049903 -0.66505051 0.00000000
-0.18222953 0.12266527 0.38207132
-0.17427963 -0.01449273 0.00000000
0.53705597 -0.07628578 -0.00000074
-0.56225169 -0.64347637 0.00000000
0.28797370 -0.41387638 0.00000000
-0.47157979 -0.15039715 -0.00000017
0.64460653 -0.16291437 -0.00000105
-0.72391963 -0.33072516 -0.00000055
-0.51764619 -0.78159845 0.00000000
-0.26119083 0.18380736 0.27395412
-0.45479962 -0.30954126 0.00000000
0.37425318 -0.58546680 0.00000000
-0.26009259 0.52002639 0.01534213
0.19907929 0.03380797 0.00000849
0.19522034 -0.49148887 0.00000000
0.07699561 0.47496507 0.00000371
0.56670034 -0.49437708 -0.00000013
-0.10696250 0.26982304 0.00000000
-0.73051834 -0.56325811 -0.00000030
-0.69879788 -0.54752147 -0.00000030
0.47621468 0.08708598 0.00000276
0.65959698 -0.65259814 -0.00000025
-0.56290764 -0.40707362 -0.00000013
-0.23615655 0.31046489 0.19553186
-0.47769150 0.07036912 0.19442074
0.41263792 -0.04265085 -0.00000027
-0.51344663 -0.44787928 0.00000000
-0.73854578 -0.27957848 -0.00000062
0.33725163 -0.56963432 0.00000000
-0.66792601 -0.40380421 -0.00000036
0.42558980 -0.34857196 0.00000000
-0.61951363 0.07031698 0.08501646
0.72201627 -0.13424890 -0.00000143
0.54774755 -0.05896065 -0.00000082
-0.46122047 -0.73048723 0.00000000
-0.32332119 -0.55059850 0.00000000
-0.32407400 0.33810142 0.10635893
-0.69995809 -0.69024312 -0.00000014
-0.39313573 0.31940931 0.06748847
0.15672410 -0.04130342 0.00000000
0.54267538 -0.42066622 -0.00000016
-0.10672259 -0.72393149 0.00000000
-0.44431606 -0.42280358 0.00000000
0.63173920 -0.34498098 -0.00000067
0.50631964 -0.77548778 0.00000000
-0.43750384 0.10046496 0.20220873
-0.42473471 0.23800069 0.10592645
-0.31982741 -0.37450749 0.00000000
0.25045550 -0.39271387 0.00000000
0.33370322 -0.27668023 0.00000000
0.10554283 -0.61015320 0.00000000
0.47497839 -0.18219317 -0.00000029
0.11939415 -0.11907777 0.00000000
-0.26010987 -0.36879584 0.00000000
-0.69175297 -0.64787215 -0.00000019
0.06163260 -0.55148041 0.00000000
0.19184141 -0.40492648 0.00000000
0.62013602 0.03857531 0.00000081
-0.08765448 -0.24969284 0.00000000
0.41374126 -0.33655220 0.00000000
0.00501104 0.27811265 0.00000775
0.41084832 -0.17017378 -0.00000004
0.53451139 -0.71846509 0.00000000
0.13803501 0.36811015 0.00000440
-0.67532915 -0.78819656 -0.00000001
-0.61394846 -0.27664372 -0.00000036
0.60734379 -0.38118386 -0.00000050
-0.68627328 -0.21823038 -0.00000056
-0.12633066 0.03923242 0.00000000
-0.29977494 0.20319913 0.22921433
0.38922641 -0.52071780 0.00000000
0.09949565 -0.75164133 0.00000000
0.03432950 -0.42481497 0.00000000
-0.17689674 -0.64647937 0.00000000
0.47737968 -0.53610814 0.00000000
0.03053583 0.31886798 0.00000676
-0.28421581 -0.10718589 0.00000000
0.15356933 -0.24737537 0.00000000
0.66369712 -0.44749397 -0.00000063
0.59813905 -0.18208006 -0.00000082
-0.41678742 -0.62575161 0.00000000
0.75140589 -0.72892666 -0.00000018
0.07435826 0.34717685 0.00000567
-0.41594777 -0.50415480 0.00000000
-0.43998152 -0.26030049 -0.00000000
0.64849943 -0.13516700 -0.00000111
-0.29579675 0.18587181 0.24565573
-0.15226358 0.29544616 0.27186164
0.37963563 -0.07809901 -0.00000007
0.11220921 -0.65627652 0.00000000
0.26873291 -0.72517061 0.00000000
0.00097164 -0.41572657 0.00000000
-0.25599587 -0.23053728 0.00000000
-0.31054342 -0.59172016 0.00000000
-0.36598241 -0.51264459 0.00000000
-0.67918211 -0.10445810 -0.00000065
0.66838437 -0.21020561 -0.00000107
-0.22615315 -0.09818424 0.00000000
-0.08070662 0.41270253 0.23659565
-0.57600933 0.19932534 0.01903316
-0.75731987 -0.15174286 -0.00000077
-0.31276083 0.31228039 0.13501538
-0.07919161 0.28024423 0.00000000
-0.50295424 -0.16639628 -0.00000022
0.44729036 -0.08584274 -0.00000034
0.66336006 -0.29916754 -0.00000089
0.64057755 0.15479405 -0.00000152
0.04662327 -0.15168017 0.00000000
0.05975938 0.08426134 0.00000983
-0.10112732 0.55936027 0.10766190
-0.60266787 -0.15753204 -0.00000044
0.67271876 0.07077284 -0.00000074
-0.37786692 0.18635137 0.18195219
0.66079921 -0.44469538 -0.00000062
-0.08663635 -0.25824350 0.00000000
0.10569539 0.30251849 0.00000587
-0.33408925 0.24285071 0.17213506
0.52561074 0.12299645 0.00000121
0.43361196 -0.29254439 0.00000000
0.64615655 -0.63299155 -0.00000022
0.63749045 -0.12593926 -0.00000108
0.66367561 -0.40008563 -0.00000071
-0.56867629 0.13710950 0.07270401
-0.23919067 0.15639444 0.31208599
0.08482175 -0.47128409 0.00000000
-0.04504707 0.12305697 0.00000000
0.36672801 -0.65574640 0.00000000
-0.00993794 0.55267453 0.00000000
0.06234260 0.60292226 0.00000202
-0.33816344 0.13833123 0.24964838
-0.57602382 0.10147781 0.09453090
-0.18396477 0.40296453 0.16442649
0.00692274 -0.21304031 0.00000000
-0.13094249 0.52440757 0.11162649
-0.46712127 -0.76861459 0.00000000
0.14544131 0.64738005 -0.00000024
-0.03938583 0.52514511 0.00000000
-0.49398848 -0.54679734 0.00000000
-0.18483186 -0.43379977 0.00000000
-0.34870145 0.14456888 0.23670267
-0.17817052 -0.07068263 0.00000000
0.78635275 -0.75733966 -0.00000011
-0.02932543 0.57979953 0.00000000
-0.16111057 -0.19584149 0.00000000
0.76842588 -0.43402758 -0.00000091
0.38976887 -0.40432888 0.00000000
-0.69644040 -0.44048744 -0.00000039
0.62682188 -0.74488419 0.00000000
0.62085181 -0.75013363 0.00000000
0.34536436 -0.78556800 0.00000000
0.23914723 -0.12339807 0.00000000
-0.53001261 -0.32609177 -0.00000014
0.68945926 -0.46656531 -0.00000070
0.55370456 -0.77277160 0.00000000
-0.41684210 -0.24616864 0.00000000
0.05391372 -0.37209874 0.00000000
-0.43389210 0.20514572 0.12421384
-0.79374653 -0.14044686 -0.00000082
-0.20148163 -0.37121734 0.00000000
0.23762585 0.13387275 0.00000641
0.08321781 -0.36155108 0.00000000
0.57768160 -0.54999620 -0.00000008
0.38408393 -0.66101265 0.00000000
-0.20824796 -0.09491222 0.00000000
-0.39020953 -0.63873696 0.00000000
-0.40529683 -0.69620490 0.00000000
0.44002610 0.16840594 0.00000210
0.55951840 -0.35237423 -0.00000035
-0.55323148 0.23573478 0.00851376
0.39526933 0.26670054 0.00000132
0.44351164 -0.74869078 0.00000000
0.26651967 0.01127115 0.00000781
0.46840543 -0.35115981 0.00000000
0.12075610 0.30138794 0.00000566
-0.15898189 0.55998963 0.06252990
0.47047254 -0.31763449 -0.00000003
0.13117525 0.28310904 0.00000577
-0.05772785 -0.34590453 0.00000000
0.69690418 -0.23805176 -0.00000114
-0.45354295 -0.57807052 0.00000000
-0.19433884 -0.09709380 0.00000000
-0.57078278 -0.68811214 0.00000000
0.66826355 -0.22784472 -0.00000104
0.38919801 -0.21527810 0.00000000
-0.51890290 -0.57217914 0.00000000
0.69632226 -0.74418688 -0.00000014
-0.08050924 0.40686256 0.24125464
-0.36284864 -0.36280185 0.00000000
0.65107882 -0.27970728 -0.00000087
-0.01909333 0.29311574 0.00000000
0.34039539 -0.71385592 0.00000000
0.10789145 0.24301179 0.00000673
-0.02609775 0.70292979 0.00000000
0.52266061 -0.42086333 -0.00000007
-0.41219091 -0.57133651 0.00000000
0.28402805 -0.25490409 0.00000000
-0.55944288 -0.06313480 -0.00000043
-0.21205813 -0.09310360 0.00000000
-0.13235442 0.27573314 0.00000000
0.35988981 0.26325500 0.00000205
-0.53166151 -0.17808525 -0.00000027
0.07195309 0.53654838 0.00000287
-0.71412683 -0.73951983 -0.00000008
-0.07276665 0.22422960 0.00000000
0.45484379 0.11771193 0.00000266
0.67437875 -0.26458842 -0.00000100
0.42048520 -0.36014119 0.00000000
0.30605942 0.45398992 -0.00000010
-0.37941182 -0.34045458 0.00000000
0.50844431 -0.07047745 -0.00000063
0.23875178 0.40154666 0.00000207
0.65284282 -0.48960656 -0.00000051
-0.62255460 -0.07898085 -0.00000055
0.73272491 -0.74947703 -0.00000013
-0.24007541 0.55490869 0.00387080
-0.45062327 -0.10603708 -0.00000016
0.58214653 -0.08141696 -0.00000093
-0.53834581 -0.62528694 0.00000000
0.32004401 -0.04679383 0.00000000
0.14875053 -0.00707558 0.00000000
0.28406730 -0.75499296 0.00000000
0.50052983 -0.46948609 0.00000000
0.78543276 -0.15185723 -0.00000162
0.03690855 -0.36157447 0.00000000
0.19052970 -0.10517710 0.00000000
0.03366643 -0.56942117 0.00000000
0.44584903 0.11636835 0.00000286
0.18885733 -0.59425110 0.00000000
-0.03769348 -0.72412252 0.00000000
-0.34017533 -0.78450662 0.00000000
-0.17533582 0.22008288 0.31221443
0.66803324 -0.29793394 -0.00000091
0.11006788 0.30224866 0.00000581
-0.16402894 -0.46446270 0.00000000
0.23715085 0.29733840 0.00000384
-0.52782869 0.13203667 0.10814093
0.31303841 -0.46517283 0.00000000
0.39770862 -0.07034099 -0.00000016
-0.14062499 -0.51407963 0.00000000
0.18240505 0.47687656 0.00000189
-0.11817148 0.51714927 0.12708303
0.46306625 -0.58678514 0.00000000
0.08841576 0.42794585 0.00000425
-0.41651040 -0.33143476 0.00000000
-0.12393319 0.41220090 0.20362496
0.70175850 -0.23187742 -0.00000117
0.31788731 -0.22401394 0.00000000
0.44638711 -0.44071051 0.00000000
-0.65636450 -0.05393064 -0.00000065
0.79330820 -0.56860203 -0.00000058
0.54140931 -0.56392038 0.00000000
-0.11632122 -0.30180389 0.00000000
0.64967030 -0.68335849 -0.00000015
0.16633804 0.23926376 0.00000590
-0.71710664 -0.49866143 -0.00000038
0.78618979 -0.45334700 -0.00000087
-0.01067913 -0.78832167 0.00000000
0.33586946 -0.37856704 0.00000000
0.03740473 -0.31564331 0.00000000
0.52854705 -0.31647161 -0.00000028
-0.34409910 -0.59147418 0.00000000
-0.31898519 -0.47209564 0.00000000
-0.66859227 -0.30265117 -0.00000045
0.58655912 -0.30469427 -0.00000055
0.22573172 0.30386207 0.00000395
-0.59254533 -0.77049786 0.00000000
-0.30521110 0.25007138 0.18884815
0.25149623 -0.66070420 0.00000000
-0.49253583 -0.20898959 -0.00000016
-0.35784724 0.32934871 0.08705047
-0.23326606 -0.34190613 0.00000000
-0.12362185 0.33612958 0.00000000
-0.55315101 0.12523291 0.09385007
-0.50452715 -0.57811862 0.00000000
-0.72151142 -0.64469051 -0.00000019
-0.40166160 -0.11585809 -0.00000005
0.08459317 -0.20545903 0.00000000
0.65050310 -0.28621772 -0.00000086
0.74831069 -0.78679061 -0.00000003
0.59805888 0.16059886 -0.00000080
0.49997902 0.29697457 -0.00000124
-0.53526449 -0.26322916 -0.00000020
0.21109065 -0.36845568 0.00000000
0.05839615 -0.07332861 0.00000000
-0.65788883 -0.47618422 -0.00000028
-0.75925845 -0.06546673 -0.00000086
0.35716277 0.44106019 -0.00000089
0.15146910 -0.77372253 0.00000000
-0.24307396 0.38460508 0.13297999
-0.62083954 0.17245258 0.00517526
-0.38865605 -0.35210654 0.00000000
-0.04049915 -0.54292524 0.00000000
-0.17984220 0.28079620 0.26188466
0.68998444 -0.34294510 -0.00000092
0.28639969 0.40812895 0.00000105
0.05423022 0.11642714 0.00000944
-0.02284818 -0.06043749 0.00000000
-0.26997507 -0.64431208 0.00000000
-0.17567989 0.03756498 0.00000000
-0.01474763 -0.53284341 0.00000000
0.04084615 0.65631372 0.00000154
-0.48611674 -0.41885567 0.00000000
-0.19115593 0.06666483 0.00000000
0.31910440 -0.29905286 0.00000000
-0.09380662 0.52257240 0.14170028
0.12537953 0.54550874 0.00000184
-0.10939426 0.29067343 0.30862683
-0.01233025 -0.13723911 0.00000000
0.36460474 0.01252748 0.00000615
0.39335626 0.22245370 0.00000209
-0.20119374 0.07421164 0.00000000
-0.32635853 0.21740669 0.19773597
0.59444660 -0.24218839 -0.00000069
-0.50564992 0.15538161 0.10724107
-0.25201228 0.29093295 0.19836876
-0.25051278 -0.56642187 0.00000000
0.09325682 0.67995203 0.00000021
-0.45654619 -0.78423506 0.00000000
-0.39158273 -0.69512546 0.00000000
-0.20351070 0.42918035 0.12911233
0.10725944 0.23679075 0.00000683
-0.63482362 -0.73257095 -0.00000000
-0.17881550 -0.75201446 0.00000000
0.12647790 0.52363509 0.00000219
0.10910253 -0.40723372 0.00000000
0.04548061 -0.61562318 0.00000000
-0.02228033 0.44005379 0.00000000
0.48382735 0.01036424 0.00000390
-0.54859769 -0.59975439 0.00000000
-0.77328485 -0.53027618 -0.00000034
0.13441174 -0.77354211 0.00000000
0.09290899 -0.28697795 0.00000000
0.09117816 0.43695778 0.00000407
0.08621646 0.70120323 -0.00000001
-0.33131462 0.44890860 0.01526145
0.66616088 -0.06068879 -0.00000132
-0.11127989 -0.04319319 0.00000000
-0.11420000 -0.61866754 0.00000000
-0.70964175 -0.74076068 -0.00000007
0.69955653 -0.76700753 -0.00000008
0.41719234 0.21320246 0.00000179
0.56501091 0.09251044 0.00000097
-0.13860787 -0.46875316 0.00000000
0.15505265 0.49878007 0.00000205
0.31270278 -0.47914520 0.00000000
0.69231218 0.04737130 -0.00000072
0.53080708 -0.41422823 -0.00000012
0.62924820 -0.10124351 -0.00000109
0.21799982 -0.11988447 0.00000000
-0.33274224 0.37492460 0.07125318
0.35891825 0.29182228 0.00000160
0.61535996 -0.30745935 -0.00000067
0.67259139 -0.51681095 -0.00000054
-0.22683088 -0.19254978 0.00000000
0.52454162 -0.13357346 -0.00000059
0.14196166 -0.71541137 0.00000000
-0.23370177 0.36906317 0.15220618
-0.23122419 0.33574566 0.17982909
0.52627528 -0.09252436 -0.00000067
-0.56827432 -0.56512058 -0.00000001
0.43622679 -0.72345579 0.00000000
0.76657599 -0.30986726 -0.00000123
0.79168183 -0.65727204 -0.00000036
0.09059841 0.08855671 0.00000930
0.38530073 -0.35369006 0.00000000
-0.41943514 -0.67331415 0.00000000
0.14820865 -0.78598773 0.00000000
0.17348546 -0.73685557 0.00000000
-0.40133449 -0.61552924 0.00000000
0.09491659 -0.74195069 0.00000000
0.04918761 -0.02898570 0.00000000
0.65932125 -0.03423138 -0.00000134
-0.45845899 -0.53592944 0.00000000
0.42059615 -0.08181207 -0.00000024
-0.19111024 -0.34554854 0.00000000
-0.45396057 0.06863867 0.21406935
0.60591930 -0.52585715 -0.00000024
0.73120821 -0.04462345 -0.00000163
0.27924284 -0.56444079 0.00000000
0.61210954 -0.36834267 -0.00000055
0.43805206 0.07874164 0.00000364
0.62832183 -0.46844617 -0.00000044
-0.14396003 0.31267214 0.26497626
-0.15639596 0.13390493 0.39333341
0.16435254 -0.54395473 0.00000000
-0.12313238 -0.79865837 0.00000000
0.02780465 -0.07842316 0.00000000
0.10524933 0.62539274 0.00000090
-0.61934453 -0.08104020 -0.00000054
-0.03970161 -0.51041377 0.00000000
0.61563849 -0.52349061 -0.00000029
0.29023656 0.21085691 0.00000427
0.61639452 -0.23939811 -0.00000079
-0.10633195 -0.07970790 0.00000000
0.69294775 0.08855077 -0.00000142
-0.20095995 0.52997935 0.05329424
-0.52542472 -0.78551382 0.00000000
0.69345683 -0.78696847 -0.00000003
0.14594601 0.38355631 0.00000404
0.45622292 -0.70539451 0.00000000
0.34878400 -0.74018967 0.00000000
0.21714209 -0.64007503 0.00000000
0.16192634 0.58913118 0.00000041
-0.68229574 0.08960216 0.02168499
0.37115037 0.12687390 0.00000412
-0.03969903 0.62761343 0.10239520
-0.41143495 0.17839187 0.16219001
-0.19467971 -0.64314306 0.00000000
-0.45598048 -0.12780197 -0.00000015
-0.56590188 0.11321613 0.09328356
-0.04313257 -0.03252332 0.00000000
-0.30471510 0.41975096 0.05828931
0.63840789 -0.45666051 -0.00000050
0.12126771 -0.01994834 0.00000000
-0.52524805 -0.44486636 -0.00000002
-0.56270915 -0.66936314 0.00000000
-0.77627999 -0.74571544 -0.00000007
0.38091320 -0.47650245 0.00000000
0.14090481 0.63558704 0.00000004
-0.48817211 -0.71239835 0.00000000
-0.37297028 0.08440849 0.26440004
0.10842230 0.59830451 0.00000129
0.47673702 -0.12847416 -0.00000039
0.75825441 -0.65698296 -0.00000036
-0.14509597 0.43919399 0.16646326
0.09528968 -0.67717165 0.00000000
-0.02398473 -0.64318335 0.00000000
-0.04422959 -0.73497903 0.00000000
-0.03220991 -0.18729471 0.00000000
0.25049323 0.14240088 0.00000608
-0.42188510 0.25252301 0.09691864
-0.58953744 0.04234419 0.12973575
-0.21705244 -0.29764190 0.00000000
-0.48686129 -0.60417461 0.00000000
0.30507678 -0.50809532 0.00000000
0.70775968 -0.47987351 -0.00000076
0.18096095 -0.46215239 0.00000000
0.39468566 -0.26519966 0.00000000
0.24374738 0.35665476 0.00000272
-0.26393351 -0.26701739 0.00000000
0.64224553 -0.34740734 -0.00000071
-0.32657701 0.41818565 0.04262635
0.03967575 0.59405488 0.00000249
0.59044504 -0.38342524 -0.00000043
0.30427897 -0.53846580 0.00000000
-0.00030836 -0.08342758 0.00000000
-0.53255004 -0.66423333 0.00000000
-0.16852528 0.34326640 0.22240987
-0.14248055 0.35508788 0.23338592
-0.30281278 0.17929858 0.24531400
0.64312238 -0.38857374 -0.00000064
-0.12763911 -0.01347629 0.00000000
0.31345788 0.24350820 0.00000328
0.10304650 -0.36772794 0.00000000
0.38135383 0.17033049 0.00000319
-0.21360604 -0.36155865 0.00000000
-0.51326239 -0.09263066 -0.00000031
-0.20460799 -0.01614224 0.00000000
-0.28389296 -0.53289461 0.00000000
-0.16522951 -0.23370303 0.00000000
0.10927194 -0.75898975 0.00000000
0.19866383 0.00242557 0.00000897
-0.43629995 -0.37216529 0.00000000
-0.14807890 -0.22856505 0.00000000
0.78672606 -0.27555358 -0.00000131
-0.46934831 0.12572435 0.15814161
0.33480752 -0.64215213 0.00000000
0.76343447 -0.00724743 -0.00000183
-0.21079412 0.32820758 0.20141201
0.32662243 -0.05848646 0.00000000
-0.45030206 -0.60307729 0.00000000
-0.03576600 0.10277737 0.00000000
-0.58978450 -0.49600261 -0.00000011
0.10881805 0.54395497 0.00000219
0.47372684 -0.25136107 -0.00000016
-0.23679736 0.34889486 0.16538110
-0.37871993 0.29495355 0.09748568
-0.35851327 -0.25371665 0.00000000
-0.43577197 0.35053083 0.01056952
-0.50285453 -0.24740513 -0.00000015
0.21776199 0.58019471 -0.00000054
0.79170889 0.00640180 -0.00000195
0.01964313 -0.42980078 0.00000000
0.06269875 -0.19600460 0.00000000
-0.18670519 -0.49868417 0.00000000
-0.56988740 -0.11082914 -0.00000041
0.63413465 -0.73673034 0.00000000
0.57572567 -0.18613835 -0.00000071
0.37923786 -0.41189668 0.00000000
-0.21848810 0.29150587 0.22379716
-0.04601124 -0.46605465 0.00000000
-0.05960625 -0.19250582 0.00000000
-0.75230372 -0.75510353 -0.00000006
0.33072153 -0.61331517 0.00000000
0.09529392 0.16277362 0.00000812
-0.14386466 -0.12159060 0.00000000
-0.29909217 0.48663789 0.01101194
0.61556697 -0.54965281 -0.00000024
0.18827546 -0.70087636 0.00000000
0.05481139 -0.76474631 0.00000000
0.42860693 0.29987344 0.00000012
-0.33933046 -0.12035624 0.00000000
0.22942436 -0.74759948 0.00000000
0.79861712 -0.50551957 -0.00000074
0.04432078 0.20734063 0.00000822
-0.00468142 -0.21927585 0.00000000
0.24641731 -0.26367736 0.00000000
0.07351267 -0.79434621 0.00000000
0.05804833 0.66738713 0.00000110
-0.67149186 0.04326507 0.06578068
0.16845010 -0.04961031 0.00000000
0.68938911 -0.14281632 -0.00000128
-0.16110104 0.61151582 0.02113184
-0.22940624 -0.55583948 0.00000000
-0.37131619 -0.21987993 0.00000000
0.35092148 -0.31603310 0.00000000
0.60715681 0.14416537 -0.00000070
0.03561331 -0.60114664 0.00000000
-0.22094452 0.21049830 0.28441474
-0.33990002 -0.18799397 0.00000000
0.08727137 -0.55971652 0.00000000
-0.07175981 0.40679571 0.00000000
0.26431572 0.50979859 -0.00000023
-0.53941733 -0.38917649 -0.00000010
-0.23283014 0.53607422 0.02399653
-0.06372341 -0.37904969 0.00000000
0.18091753 0.22328770 0.00000592
0.04063294 -0.67450792 0.00000000
0.65680611 -0.30296955 -0.00000085
-0.15254168 -0.42102888 0.00000000
0.19416301 -0.26208219 0.00000000
0.45241046 0.14980903 0.00000217
0.25797829 -0.54817796 0.00000000
-0.47553995 0.24619649 0.06039521
-0.05952029 0.69791311 0.03284923
-0.24854134 0.13001382 0.32522792
0.07692213 0.07662680 0.00000969
-0.36852509 -0.08889079 -0.00000000
-0.30417541 -0.25668591 0.00000000
0.27028933 0.40328419 0.00000144
0.37801945 -0.19277169 0.00000000
0.01351236 -0.20095469 0.00000000
-0.44120875 -0.75171900 0.00000000
-0.56642675 0.20163435 0.02464619
0.11697512 -0.75470328 0.00000000
0.15265080 -0.29928735 0.00000000
-0.64132607 0.12576418 0.02539519
-0.38215879 -0.72558635 0.00000000
-0.34566444 0.09976911 0.27361813
-0.12267341 -0.55208921 0.00000000
0.24192876 0.49682373 0.00000042
-0.73126817 -0.15132470 -0.00000072
0.18251552 -0.79171681 0.00000000
-0.11572898 -0.76353198 0.00000000
0.56716889 -0.69714898 0.00000000
-0.41120407 -0.33947262 0.00000000
-0.40833539 -0.30984208 0.00000000
0.61483014 -0.65913892 -0.00000004
-0.21085320 -0.30337164 0.00000000
0.24305043 -0.61246175 0.00000000
-0.53161508 -0.53750187 0.00000000
-0.29582226 0.43616152 0.05248790
0.65396565 -0.69650650 -0.00000015
0.02851408 0.72792935 0.00000065
-0.63872278 0.11225632 0.03782815
-0.09008095 0.53698248 0.13345520
-0.18405510 0.26759666 0.26881960
-0.59808719 -0.59860134 -0.00000004
0.63688391 -0.10958102 -0.00000111
0.30949685 -0.09658513 0.00000000
0.28196564 0.44252369 0.00000056
-0.39964369 -0.76026934 0.00000000
-0.28829798 0.43543163 0.05885768
0.09393842 0.33755735 0.00000552
-0.14028069 -0.79215461 0.00000000
0.76746154 -0.70207113 -0.00000024
0.07113377 -0.35058585 0.00000000
0.29547635 0.49820772 -0.00000063
0.56758404 -0.76048154 0.00000000
0.42588896 0.08283130 0.00000380
-0.05953526 -0.10155099 0.00000000
0.62208062 0.11791689 -0.00000055
0.39273635 -0.52003974 0.00000000
-0.09880170 -0.38625020 0.00000000
-0.33374259 -0.09921794 0.00000000
-0.16975623 -0.15833183 0.00000000
0.66553944 -0.53742433 -0.00000048
0.26656997 -0.42643684 0.00000000
0.26091981 0.07186808 0.00000698
-0.75185966 -0.27051264 -0.00000066
-0.79825330 -0.39254111 -0.00000051
0.34432361 -0.65580684 0.00000000
-0.31459129 0.10931769 0.29022855
0.42031890 -0.55295730 0.00000000
0.45580792 0.23019938 0.00000076
0.39918092 -0.40757224 0.00000000
0.04091939 0.15056361 0.00000912
0.33895791 0.15873133 0.00000420
-0.06576357 0.54309005 0.00000000
0.63544112 -0.47995600 -0.00000045
-0.32039261 0.39489806 0.06536991
0.49416715 0.09896128 0.00000222
-0.46920601 0.21234798 0.09140402
-0.60680819 -0.41579148 -0.00000022
0.25187755 0.44982591 0.00000101
0.74221420 0.05706550 -0.00000185
0.07828637 -0.21810879 0.00000000
-0.20250712 0.26702565 0.25502089
0.57275039 -0.11633846 -0.00000082
-0.13464309 -0.01067393 0.00000000
0.02742540 -0.26690894 0.00000000
-0.28543055 0.25101522 0.20338438
0.62012607 -0.58746243 -0.00000019
0.31833434 -0.04055054 0.00000000
0.50815243 0.14860475 0.00000112
0.39950547 0.20501341 0.00000227
0.31888300 0.36645049 0.00000112
0.50878507 0.04162381 0.00000290
-0.09262534 0.44659111 0.20124631
0.71338081 0.04303533 -0.00000106
0.35554713 0.17584112 0.00000360
0.35262698 -0.01413713 -0.00000007
-0.25749764 0.16442610 0.29176056
-0.02277251 -0.63937354 0.00000000
-0.47324893 0.15975556 0.12886961
-0.68423307 -0.51244664 -0.00000030
-0.35255760 -0.55051732 0.00000000
0.05408965 -0.01476640 0.00000000
0.50870121 0.04793341 0.00000279
-0.43843541 0.21906707 0.10996464
-0.32125962 -0.54621971 0.00000000
-0.29747975 -0.39621320 0.00000000
0.38971919 0.27644962 0.00000126
-0.15158015 -0.73974329 0.00000000
0.69691610 0.06277666 -0.00000107
-0.44057193 0.09678724 0.20267916
0.10742019 0.62172681 0.00000092
-0.49214745 -0.31872904 -0.00000006
0.23873948 -0.63113105 0.00000000
0.29725751 0.47375628 -0.00000026
0.79630899 -0.46387428 -0.00000084
0.09614970 -0.09058304 0.00000000
0.68466616 -0.13743211 -0.00000126
-0.07448272 0.72277880 0.00211383
-0.07455545 -0.78853768 0.00000000
0.57720059 0.05670025 0.00000133
0.47738165 -0.39593157 0.00000000
0.35583186 0.10980225 0.00000470
0.73338825 -0.61440384 -0.00000046
0.25482506 0.11853844 0.00000638
0.45284060 0.11839162 0.00000269
-0.32066572 -0.54427719 0.00000000
-0.39190233 -0.28652242 0.00000000
-0.13184486 -0.30814695 0.00000000
-0.15068729 -0.34736618 0.00000000
-0.40275621 -0.19374344 0.00000000
0.67290592 -0.19003908 -0.00000112
-0.19073215 -0.76606363 0.00000000
0.12619959 0.30243248 0.00000556
0.04926346 -0.59747279 0.00000000
0.77144903 -0.24170060 -0.00000140
0.55117482 0.15656301 0.00000016
0.52495515 -0.49989039 0.00000000
0.16839501 -0.23434135 0.00000000
0.22023910 0.00586752 0.00000859
-0.00935346 0.07318446 0.00000000
-0.23725516 -0.63605833 0.00000000
0.64295983 -0.36584583 -0.00000068
0.15354748 -0.59632599 0.00000000
0.50739986 -0.18774469 -0.00000042
0.46360606 -0.66232735 0.00000000
-0.53919333 -0.67335296 0.00000000
-0.04994778 -0.61592084 0.00000000
0.01269514 0.67953181 0.00000162
-0.46459413 -0.18727987 -0.00000012
0.16942370 -0.00080738 0.00000000
0.24124140 -0.24134600 0.00000000
0.52363074 -0.67117572 0.00000000
-0.08638703 -0.21463688 0.00000000
0.59479457 -0.55782336 -0.00000014
-0.56948769 -0.60388398 0.00000000
-0.39598006 -0.41429600 0.00000000
0.74392164 -0.38226610 -0.00000104
-0.16457725 0.57969326 0.04300667
-0.29967541 0.46217242 0.02944185
0.02400508 -0.02639200 0.00000000
0.67071444 -0.73521709 -0.00000015
-0.01306139 0.40556973 0.00000000
-0.57698309 0.12382090 0.07654846
-0.32638147 -0.78698665 0.00000000
0.36682090 -0.65701538 0.00000000
0.10955390 -0.34945738 0.00000000
0.73384041 0.00378894 -0.00000079
-0.60970604 -0.23437680 -0.00000039
-0.56451595 -0.19774750 -0.00000032
-0.17607236 -0.61569512 0.00000000
0.27198222 -0.53510535 0.00000000
-0.08196046 0.58461332 0.10296523
0.49506378 -0.20047089 -0.00000034
-0.24173193 -0.71648079 0.00000000
-0.27176630 -0.08647551 0.00000000
-0.15427677 0.36724204 0.21490349
-0.05425941 0.68246835 0.04882769
0.50197697 0.11047630 0.00000188
0.20521963 -0.31756574 0.00000000
-0.17914905 0.15657762 0.35827851
0.48727021 -0.58491260 0.00000000
0.21107168 0.07079058 0.00000775
0.69840151 -0.43303114 -0.00000080
0.48336667 -0.76172453 0.00000000
-0.60150534 -0.26622680 -0.00000034
0.42196772 0.33339101 -0.00000031
-0.69848055 -0.71683812 -0.00000010
-0.07994756 0.37689343 0.00000000
-0.17109613 0.19163889 0.00000000
-0.54909563 -0.57502401 0.00000000
-0.23656383 -0.23959766 0.00000000
-0.78116739 -0.22039673 -0.00000072
0.05213544 0.19017278 0.00000836
0.02007779 -0.20343252 0.00000000
-0.77596396 -0.18887018 -0.00000076
0.77854180 -0.05039297 -0.00000182
0.51652330 -0.41987091 -0.00000005
-0.68407208 0.10752965 0.00647954
-0.29021159 -0.75664157 0.00000000
-0.03244390 -0.05968127 0.00000000
-0.01300591 0.24589989 0.00000000
-0.50681967 -0.77757418 0.00000000
-0.21268977 -0.08847950 0.00000000
-0.58067781 -0.75621605 0.00000000
0.74829930 -0.18602346 -0.00000145
-0.25707775 0.43590114 0.08258809
0.19917876 0.42685056 0.00000241
0.09697542 0.36798346 0.00000502
-0.05550679 0.61278015 0.10164318
-0.00134880 0.73572832 0.00000000
-0.20725711 0.42385495 0.13033083
-0.44230670 -0.51047349 0.00000000
-0.19930491 0.52287102 0.06005693
0.43861568 0.14658152 0.00000249
0.31159225 0.27175996 0.00000284
0.61477989 -0.54868835 -0.00000024
0.24924558 -0.65327424 0.00000000
0.23533975 -0.33646578 0.00000000
0.33503595 -0.04677602 0.00000000
0.75811076 -0.10914680 -0.00000163
-0.14019921 0.44797814 0.16346338
-0.69330806 -0.05989642 -0.00000072
-0.10859393 0.39269841 0.23051219
0.03253908 -0.43644422 0.00000000
-0.04467761 -0.77118111 0.00000000
0.02548667 -0.29315659 0.00000000
0.79305220 -0.71884131 -0.00000020
0.44695467 0.07684731 0.00000350
0.20375420 0.29886454 0.00000444
0.33315167 -0.03764089 0.00000000
0.23374455 -0.32578200 0.00000000
0.38404319 -0.57484186 0.00000000
-0.43255121 -0.70955324 0.00000000
-0.38754603 -0.55557609 0.00000000
0.02511382 0.23479517 0.00000810
0.50278759 -0.72516578 0.00000000
0.08611525 -0.69583124 0.00000000
-0.61322629 -0.75156868 0.00000000
0.13891134 -0.52264559 0.00000000
-0.19622473 0.18360075 0.00000000
-0.05911917 0.53549153 0.00000000
0.41363478 0.32345018 0.00000002
0.35422486 -0.52853388 0.00000000
-0.68668729 -0.51366258 -0.00000030
0.22641855 -0.56098127 0.00000000
-0.71974790 -0.60872662 -0.00000024
0.49628499 0.22028792 0.00000015
-0.29042882 -0.38506183 0.00000000
-0.57031310 -0.08915722 -0.00000043
-0.20936660 0.44718370 0.11070017
0.33408988 0.06788066 0.00000581
0.54190749 -0.21564482 -0.00000052
-0.17449863 0.46738270 0.12202023
0.09170476 -0.68755150 0.00000000
-0.77810979 -0.19338791 -0.00000076
-0.00950511 -0.49019957 0.00000000
0.02658662 0.11627556 0.00000985
0.09081051 -0.27450487 0.00000000
0.30803648 -0.57215399 0.00000000
0.07886618 0.28588814 0.00000652
0.60256451 -0.54080230 -0.00000020
-0.04927676 -0.71406174 0.00000000
-0.73356116 0.01315759 0.04111556
-0.21144547 0.43630105 0.11749405
0.26325551 -0.08860289 0.00000000
0.49935868 -0.62038803 0.00000000
-0.71131837 -0.43204156 -0.00000043
0.35382432 -0.28871393 0.00000000
-0.15922239 0.20388165 0.00000000
-0.25238708 0.38778281 0.12334081
0.69385141 -0.22799829 -0.00000114
0.10932048 0.17162573 0.00000778
-0.19257431 -0.04291100 0.00000000
-0.16172016 0.22169212 0.32147974
0.68350911 -0.04546509 -0.00000142
-0.78714794 -0.31043693 -0.00000061
0.16895077 0.22603223 0.00000606
-0.10935853 0.33440405 0.27490765
-0.40076593 -0.76818281 0.00000000
0.79738480 -0.36608735 -0.00000108
-0.73376310 -0.74176937 -0.00000007
0.54457647 -0.29469815 -0.00000039
0.03224056 -0.39034036 0.00000000
-0.73491913 -0.23421167 -0.00000065
0.72797769 -0.02424538 -0.00000165
0.27665734 -0.64813060 0.00000000
0.60639375 0.00717815 0.00000160
0.44143364 0.25508204 0.00000063
0.19457164 0.01665639 0.00000881
0.22075717 0.22881062 0.00000524
-0.19805442 -0.79699308 0.00000000
-0.18380316 0.50746405 0.08390924
0.22579439 -0.52096492 0.00000000
-0.36514083 -0.53091651 0.00000000
-0.17433630 0.35082212 0.21209483
-0.10717775 0.07598503 0.00000000
-0.72381634 -0.34981328 -0.00000053
-0.51145965 -0.25807729 -0.00000016
-0.43436530 0.24977154 0.08941094
0.04715270 -0.63141418 0.00000000
0.25263199 0.37930176 0.00000218
0.66382837 -0.10265092 -0.00000124
-0.57312506 -0.73482895 0.00000000
-0.21529236 0.03597326 0.00000000
-0.46425191 0.29191625 0.03382430
-0.70537579 -0.63968086 -0.00000020
-0.66595572 -0.20950036 -0.00000053
0.49904007 0.29058123 -0.00000107
0.62067783 0.15906082 -0.00000121
-0.51418167 -0.31814972 -0.00000011
-0.34428200 -0.63556612 0.00000000
-0.00604161 0.67663932 0.00000000
0.77007717 -0.12292221 -0.00000165
-0.69099295 0.10871963 0.00022040
-0.06622762 -0.22883275 0.00000000
0.41038698 -0.08112348 -0.00000019
0.25650358 -0.70742148 0.00000000
-0.44096720 -0.27546608 0.00000000
-0.54757452 0.05735231 0.15053692
0.04125988 -0.30036059 0.00000000
-0.46298626 -0.21905445 -0.00000009
-0.48360091 0.12539494 0.14739703
-0.02666418 0.37724698 0.00000000
-0.20008752 0.16932730 0.00000000
0.60799086 -0.73510855 0.00000000
0.33028668 0.10911909 0.00000520
-0.68130744 -0.55030799 -0.00000026
-0.17121427 0.48404768 0.11169448
-0.12847257 0.17902863 0.38006002
0.78197056 -0.17610446 -0.00000156
0.59373999 0.12944546 -0.00000020
-0.60288119 -0.31482756 -0.00000030
-0.29691660 -0.49985632 0.00000000
0.67280209 -0.72192138 -0.00000018
0.26165342 -0.22639859 0.00000000
-0.59318715 -0.27895230 -0.00000031
-0.01146303 0.29439443 0.00000000
0.06891392 -0.54787564 0.00000000
0.54566789 -0.47345993 -0.00000008
-0.47647667 -0.60027581 0.00000000
0.29656497 0.49694046 -0.00000063
-0.20317186 0.11735589 0.00000000
-0.68850499 -0.15869965 -0.00000062
0.00143844 -0.39945617 0.00000000
0.02489435 -0.76807332 0.00000000
-0.09381169 0.64328688 0.04854150
0.09589932 -0.04108247 0.00000000
0.43225652 -0.28358504 0.00000000
-0.63383353 0.03527506 0.10100761
0.16617043 -0.33994019 0.00000000
-0.60262614 -0.22710431 -0.00000038
0.65700215 -0.03047890 -0.00000134
-0.79895955 -0.21621765 -0.00000073
-0.17538051 0.26985258 0.00000000
0.29896575 0.09926123 0.00000596
0.39583531 -0.30461669 0.00000000
-0.47236711 -0.27202138 -0.00000006
0.05157240 0.43059692 0.00000476
-0.39170665 -0.38114393 0.00000000
-0.62620819 -0.19302455 -0.00000046
-0.11094976 -0.47848585 0.00000000
-0.58169812 -0.32783774 -0.00000024
-0.36443552 0.26770949 0.12953322
-0.17000514 0.56590128 0.04946121
-0.31133294 -0.53669351 0.00000000
-0.11241506 -0.79644370 0.00000000
0.50480282 -0.54966855 0.00000000
0.30281165 -0.71432227 0.00000000
0.09037917 0.02362109 0.00001028
-0.74502456 -0.56303847 -0.00000030
0.34897539 0.24000180 0.00000265
-0.77326006 -0.33192420 -0.00000059
-0.55027699 -0.19492000 -0.00000029
-0.62837207 -0.33943334 -0.00000033
0.07009526 -0.14467920 0.00000000
-0.12898801 0.31123826 0.00000000
0.07198629 -0.53141117 0.00000000
0.62527221 -0.53394407 -0.00000031
0.22183940 0.43309304 0.00000187
-0.77767873 -0.20827568 -0.00000074
0.53947902 -0.57581043 0.00000000
-0.06519858 0.70232868 0.02505978
0.06311888 -0.21189380 0.00000000
-0.59774578 -0.66042238 0.00000000
0.32715875 0.25282046 0.00000286
-0.24891856 -0.27632439 0.00000000
-0.69506907 -0.22001348 -0.00000058
-0.33287206 -0.16086455 0.00000000
-0.72134656 -0.38320637 -0.00000049
-0.22450387 0.30274671 0.21048029
-0.77320838 -0.02880729 -0.00000092
0.64662153 0.14472066 -0.00000147
0.47514045 0.25407112 -0.00000001
0.57115465 0.06219704 0.00000136
-0.10189846 0.33308971 0.28167886
0.08424178 0.48005697 0.00000353
0.67189211 -0.09290539 -0.00000129
0.25932372 -0.24243900 0.00000000
-0.70844185 -0.28183836 -0.00000056
-0.02916297 0.53193253 0.00000000
-0.04883499 -0.24455000 0.00000000
0.36798269 0.15600857 0.00000369
-0.02074828 -0.36943519 0.00000000
0.30798593 -0.25043276 0.00000000
-0.07371168 -0.37526646 0.00000000
-0.45169711 -0.21398228 -0.00000007
-0.26584232 0.34009737 0.14975616
-0.16995843 -0.05317907 0.00000000
-0.47329450 -0.29757079 -0.00000004
-0.16170759 -0.40268233 0.00000000
0.29395157 -0.32425255 0.00000000
-0.17970523 -0.11663860 0.00000000
-0.57396454 -0.67213005 0.00000000
-0.06199045 0.15354851 0.00000000
-0.08018399 0.46839467 0.19402155
0.78599668 -0.16731375 -0.00000158
-0.38712937 -0.54049951 0.00000000
-0.02908496 -0.13235179 0.00000000
0.27656955 0.03254379 0.00000734
-0.14151888 -0.16310291 0.00000000
0.32358518 -0.26709437 0.00000000
-0.43367442 -0.47299927 0.00000000
0.55729157 0.05891668 0.00000168
0.50371695 0.15839343 0.00000104
-0.21468888 -0.60783249 0.00000000
0.47087085 0.17927572 0.00000133
0.60898423 0.09645113 0.00000006
0.24744561 -0.65275496 0.00000000
0.73670828 -0.31103873 -0.00000118
-0.15910365 -0.62727976 0.00000000
-0.48877302 -0.74010825 0.00000000
0.10329866 -0.05122142 0.00000000
-0.41584355 -0.34429950 0.00000000
-0.37348923 -0.65786195 0.00000000
-0.59515053 -0.05963246 -0.00000051
0.74136579 -0.06693334 -0.00000163
0.17220511 -0.15119375 0.00000000
0.76832706 -0.68615955 -0.00000028
-0.11750174 -0.26140183 0.00000000
0.01629732 -0.44901764 0.00000000
0.28648070 -0.32878911 0.00000000
0.62373596 0.08501143 -0.00000003
0.51516980 -0.73259640 0.00000000
0.43499389 -0.07121651 -0.00000032
0.43841478 -0.05540527 -0.00000036
0.34326211 0.20694104 0.00000331
-0.16635336 0.19841383 0.33586806
0.39454174 0.36079833 -0.00000024
-0.16742522 -0.62346405 0.00000000
0.34000081 0.27637222 0.00000222
-0.51895481 -0.62515873 0.00000000
0.13773413 -0.46930099 0.00000000
-0.60154235 -0.28388831 -0.00000033
0.01238704 -0.20328078 0.00000000
-0.57918465 -0.58446068 -0.00000001
-0.03408862 0.04192612 0.00000000
0.00669104 0.23221949 0.00000842
0.50995553 -0.11413946 -0.00000056
-0.29430687 -0.13800924 0.00000000
0.31561571 -0.03413587 0.00000000
0.15769291 -0.53692675 0.00000000
0.29897851 -0.47940561 0.00000000
0.73834687 -0.53414893 -0.00000066
-0.17579132 0.09949325 0.00000000
0.07314329 0.30558097 0.00000631
-0.16941978 0.27514726 0.00000000
0.15656951 -0.58603764 0.00000000
-0.12031565 -0.37053993 0.00000000
0.78566211 -0.78394341 -0.00000004
0.68869662 -0.31790906 -0.00000096
-0.35718280 0.31381068 0.09955390
0.25080597 -0.55972457 0.00000000
-0.15226506 -0.28993636 0.00000000
-0.24487390 -0.19133416 0.00000000
0.32779321 -0.05249522 0.00000000
0.13733557 0.52411032 0.00000197
-0.64904219 -0.53427023 -0.00000021
0.08716521 -0.66760141 0.00000000
-0.63538605 0.15450083 0.00780304
0.40627918 -0.77273357 0.00000000
0.17096637 0.17570174 0.00000678
0.65469587 -0.06677633 -0.00000126
0.62020832 -0.35028374 -0.00000061
0.24840294 -0.29151157 0.00000000
0.71494186 -0.30881757 -0.00000109
0.34914085 0.10593632 0.00000489
0.38514885 0.18494156 0.00000288
-0.26834255 0.49252611 0.03019757
-0.57693589 -0.63469100 0.00000000
0.10580903 0.27711606 0.00000625
0.35986957 0.24888344 0.00000230
0.23772687 -0.13266224 0.00000000
-0.57341242 -0.15602316 -0.00000038
-0.37567323 -0.20839961 0.00000000
-0.39516905 -0.75222009 0.00000000
-0.43039235 -0.33154756 0.00000000
0.47975037 -0.63890576 0.00000000
0.28704610 0.18941912 0.00000469
0.10153971 0.23442309 0.00000695
-0.05914140 -0.64797157 0.00000000
0.58071214 0.12865056 0.00000006
0.06227167 0.13433395 0.00000905
0.09207985 0.46896183 0.00000358
-0.45179081 -0.39421031 0.00000000
0.20461197 0.59131485 -0.00000050
0.26386333 0.53084397 -0.00000065
-0.18328944 0.17320625 0.34225112
0.15809338 -0.30374166 0.00000000
-0.07605326 -0.73965102 0.00000000
-0.39344415 -0.68252200 0.00000000
-0.07718022 0.45753154 0.20472258
0.34685436 0.05205596 0.00000583
0.50656003 -0.30567664 -0.00000021
-0.23066194 0.24984613 0.24655129
0.30090925 0.16424496 0.00000484
-0.46644762 -0.17655410 -0.00000013
-0.11137746 0.20452508 0.00000000
0.12613408 -0.59659731 0.00000000
0.13555245 -0.64689100 0.00000000
0.39382347 0.17899428 0.00000281
0.39566857 -0.15497774 -0.00000000
-0.35026526 -0.33349040 0.00000000
-0.78178543 -0.53325582 -0.00000033
0.43800613 -0.46161065 0.00000000
0.50192130 -0.52264357 0.00000000
0.59125376 -0.21806891 -0.00000072
-0.31890875 -0.45525238 0.00000000
0.66692251 -0.12762392 -0.00000121
0.47909173 -0.16238485 -0.00000034
0.25547990 0.11233771 0.00000646
0.10955501 0.57850528 0.00000160
0.19602631 -0.70246691 0.00000000
0.10738468 0.58757472 0.00000149
-0.44515654 -0.76292998 0.00000000
-0.07666698 -0.11093276 0.00000000
0.23516314 -0.09699529 0.00000000
-0.44094351 0.33397120 0.01935769
0.17204665 -0.48033637 0.00000000
