ply
format ascii 1.0
element vertex 1405
property float x
property float y
property float z
end_header
0.49527043 -0.74939293 0.00000000
-0.57546818 -0.00571913 0.00000000
-0.03533073 -0.27513784 0.00000000
0.67871994 -0.34181467 0.00000000
0.55524379 -0.74860048 0.00000000
-0.61861908 0.21254513 0.00000000
0.15553601 -0.22817077 0.00000000
-0.39219424 0.15468067 0.00000000
0.18902104 0.18205240 0.00000000
0.05913590 0.67540801 0.00000000
0.54303569 -0.36850044 0.00000000
0.14541705 0.44969970 0.00000000
0.35595936 0.23709087 0.00000000
0.14641321 0.29231122 0.00000000
-0.59673405 -0.00479986 0.00000000
0.51101667 -0.56028652 0.00000000
-0.04426174 -0.74672002 0.00000000
-0.72771448 0.36255845 0.00000000
-0.37206095 -0.16596106 0.00000000
-0.10007345 -0.59723312 0.00000000
0.42023897 -0.68716544 0.00000000
0.05878965 0.52206820 0.00000000
-0.67564911 -0.79800636 0.00000000
0.12942512 -0.30857906 0.00000000
0.18122810 0.17664915 0.00000000
0.08401554 0.67642182 0.00000000
-0.60511601 0.21661516 0.00000000
-0.39093196 0.24519546 0.00000000
-0.06872607 -0.33684054 0.00000000
-0.56854373 -0.54984552 0.00000000
-0.29953218 -0.62771261 0.00000000
0.73362881 -0.76713806 0.00000000
-0.07695746 0.46844390 0.00000000
0.53419346 -0.16744773 0.00000000
0.41416588 0.15460780 0.00000000
0.02540930 -0.79192424 0.00000000
0.28131387 0.53889942 0.06190970
0.22784008 0.62560028 0.16367342
0.35408890 0.51295930 0.20534971
-0.73307884 0.21528025 0.00000000
0.29354247 0.22407171 0.00000000
-0.03440370 -0.06548457 0.00000000
-0.32043579 0.74451476 0.00000000
-0.17583697 -0.24308968 0.00000000
-0.38603964 -0.03626951 0.00000000
-0.19812880 0.63863665 0.00000000
0.00320258 0.60988986 0.00000000
-0.53984201 -0.46087122 0.00000000
-0.24301399 -0.30425173 0.00000000
0.09123763 -0.06993221 0.00000000
0.63615698 -0.14556286 0.00000000
-0.56495392 0.41094390 0.00000000
0.53918719 0.16123037 0.00000000
0.58773488 -0.24342266 0.00000000
-0.34930137 -0.34826615 0.00000000
-0.11007606 0.19414312 0.00000000
0.22535338 -0.44416752 0.00000000
-0.09492876 0.46853396 0.00000000
0.02710124 -0.01731475 0.00000000
-0.38130224 -0.50259793 0.00000000
0.54667175 -0.24489714 0.00000000
-0.40761879 0.46091327 0.00000000
-0.68893021 0.05171175 0.00000000
-0.00864937 -0.43875018 0.00000000
0.22346795 -0.23300347 0.00000000
-0.59716612 -0.66362631 0.00000000
0.05631143 0.75310969 0.02885679
0.28569135 -0.21738902 0.00000000
-0.53559011 0.78214085 0.00000000
-0.54354113 0.19988120 0.00000000
-0.48337501 0.26538020 0.00000000
-0.74531180 -0.18910047 0.00000000
-0.09681758 -0.75469255 0.00000000
-0.55871958 0.71905601 0.00000000
0.66664839 -0.36071241 0.00000000
-0.40592003 0.18147317 0.00000000
-0.35273123 -0.48483694 0.00000000
-0.77229160 0.74197990 0.00000000
0.59728205 -0.50941867 0.00000000
0.07171938 0.12158607 0.00000000
-0.48333022 0.79293966 0.00000000
0.23049194 0.64083570 0.21845645
0.79902130 -0.13804246 0.00000000
0.75798541 -0.31245792 0.00000000
0.00594009 0.49565554 0.00000000
-0.34277400 -0.21211579 0.00000000
0.37855819 0.42318928 0.00535494
0.34102178 0.54949689 0.27723232
-0.75058353 0.66391152 0.00000000
0.38965690 -0.36198044 0.00000000
0.00057822 0.01045932 0.00000000
-0.21611089 -0.52105248 0.00000000
0.69802839 -0.35361645 0.00000000
-0.37783092 0.69392765 0.00000000
0.75975609 0.06312110 0.07006831
-0.52190000 -0.46829802 0.00000000
-0.46014932 0.07496137 0.00000000
-0.30223283 -0.64984530 0.00000000
0.27533811 0.08809171 0.00000000
0.11954019 0.22589317 0.00000000
-0.25283223 -0.32865712 0.00000000
-0.59557539 0.03698237 0.00000000
-0.76231408 0.58441186 0.00000000
0.79804057 -0.47088307 0.00000000
-0.09044329 -0.34579322 0.00000000
0.38176236 -0.34766409 0.00000000
-0.73856556 -0.32229689 0.00000000
0.71121949 -0.49630365 0.00000000
-0.46532589 0.11152729 0.00000000
-0.27480534 -0.23815736 0.00000000
0.68184090 0.14573944 0.08447254
-0.41924629 -0.08039503 0.00000000
-0.38297212 -0.49069250 0.00000000
0.22719850 0.10784590 0.00000000
0.12852447 0.62532163 0.00000000
0.37840506 0.48105749 0.18211722
0.49685407 -0.65513718 0.00000000
-0.29353166 0.63574290 0.00000000
0.07499904 -0.65101749 0.00000000
-0.27431789 -0.62010229 0.00000000
0.05483558 -0.69503278 0.00000000
0.46490318 -0.66859925 0.00000000
-0.11815169 0.56020260 0.00000000
0.67472392 0.02915934 0.00000000
-0.19207314 0.70593667 0.00000000
-0.09933867 0.72216743 0.00000000
0.17411882 -0.39043838 0.00000000
-0.30812621 0.79462218 0.00000000
-0.60697979 -0.28467774 0.00000000
0.15942056 -0.20879811 0.00000000
-0.42672339 -0.36011258 0.00000000
-0.66714829 0.66434449 0.00000000
-0.11668817 -0.23777235 0.00000000
-0.39392692 -0.22489484 0.00000000
-0.48956072 0.41064420 0.00000000
-0.49598631 -0.54699713 0.00000000
0.02001257 0.29473814 0.00000000
-0.63831627 -0.24968888 0.00000000
-0.64173681 -0.40307426 0.00000000
0.76632708 -0.65317369 0.00000000
-0.04372929 -0.35267729 0.00000000
0.71682543 0.12460662 0.12689573
-0.14917944 -0.47394863 0.00000000
-0.27720848 -0.17532817 0.00000000
-0.52549148 0.28460956 0.00000000
-0.31485152 0.08421274 0.00000000
-0.05351982 0.15419129 0.00000000
0.60782450 0.21179613 0.06009457
-0.24981453 -0.65002060 0.00000000
-0.30454060 0.44037941 0.00000000
-0.16277117 -0.39551914 0.00000000
-0.54950923 -0.16248259 0.00000000
0.20953022 -0.66369969 0.00000000
0.30793604 -0.61595154 0.00000000
0.21760176 0.12417697 0.00000000
0.38290173 0.02111066 0.00000000
-0.27442133 0.04723551 0.00000000
0.55639195 0.28319228 0.12123648
0.05428950 -0.60982811 0.00000000
-0.22720571 -0.64532596 0.00000000
-0.73727989 -0.63402873 0.00000000
-0.02455931 -0.08574753 0.00000000
-0.48949188 0.57082343 0.00000000
0.26265788 -0.57253510 0.00000000
-0.05157070 0.59990972 0.00000000
0.26844722 -0.11972715 0.00000000
-0.44125989 0.27252829 0.00000000
0.55303228 -0.64602417 0.00000000
-0.44607148 -0.63013154 0.00000000
-0.17514358 0.68644500 0.00000000
-0.12503269 -0.31726429 0.00000000
0.68298179 -0.06410477 0.00000000
0.24547908 -0.02288636 0.00000000
0.24720584 0.08856669 0.00000000
0.74063265 -0.79369968 0.00000000
-0.20259386 0.25636581 0.00000000
0.64685565 0.17256536 0.05948317
0.70612377 -0.77885002 0.00000000
-0.60420531 -0.41656485 0.00000000
-0.64334989 -0.51293010 0.00000000
0.44590336 -0.61286062 0.00000000
0.16551709 -0.65731728 0.00000000
0.53928864 0.02275531 0.00000000
0.67664957 -0.67088926 0.00000000
0.53634429 -0.01282521 0.00000000
-0.16154735 0.33328825 0.00000000
-0.76921833 0.65933126 0.00000000
-0.76717049 -0.32361713 0.00000000
-0.17346191 -0.14204824 0.00000000
-0.29921886 0.14620398 0.00000000
-0.54739785 -0.79724967 0.00000000
-0.28905329 0.30475140 0.00000000
-0.13305184 -0.59619445 0.00000000
0.10208941 -0.52998596 0.00000000
-0.79443854 0.41579804 0.00000000
0.21390469 -0.06956725 0.00000000
0.41142488 -0.49223125 0.00000000
0.03288021 0.55371577 0.00000000
0.23814620 -0.46724445 0.00000000
-0.69260246 0.14576501 0.00000000
-0.46097836 0.69908565 0.00000000
-0.11355814 -0.36556658 0.00000000
0.26712796 -0.29875714 0.00000000
-0.10212965 0.63945347 0.00000000
-0.05609837 -0.24867857 0.00000000
-0.10652389 -0.22524913 0.00000000
-0.38735500 0.48712215 0.00000000
-0.02871860 0.73803127 0.00000000
0.77639794 -0.43212014 0.00000000
-0.04484510 -0.69107860 0.00000000
0.12063927 -0.02641403 0.00000000
-0.19035897 -0.79327595 0.00000000
0.38028237 0.49687049 0.23629698
-0.20118003 -0.64747918 0.00000000
0.16352487 -0.43282121 0.00000000
-0.73208219 0.04166791 0.00000000
-0.33672634 -0.07705620 0.00000000
-0.02822899 -0.40062004 0.00000000
-0.62779683 0.54048169 0.00000000
0.03278938 0.27893582 0.00000000
-0.14195269 -0.51478153 0.00000000
-0.39256641 0.39899522 0.00000000
-0.39663014 -0.07776010 0.00000000
0.52853167 -0.70478749 0.00000000
0.25953940 -0.32631996 0.00000000
0.23922440 -0.20279627 0.00000000
-0.51664752 -0.11798651 0.00000000
0.59251696 -0.26714557 0.00000000
-0.23214909 0.00139522 0.00000000
-0.39352450 0.54875147 0.00000000
0.47285873 -0.75438708 0.00000000
-0.01531386 0.43677717 0.00000000
-0.09614785 -0.63579202 0.00000000
-0.78433096 -0.49438608 0.00000000
-0.03895499 -0.71796364 0.00000000
0.24331293 -0.12891848 0.00000000
0.59122485 0.21097977 0.00675503
0.44020864 -0.56859195 0.00000000
0.53154600 -0.17372163 0.00000000
0.62480408 -0.76546472 0.00000000
-0.79465401 -0.02322302 0.00000000
-0.31948507 -0.52982318 0.00000000
0.48538575 -0.18290414 0.00000000
0.76506984 -0.44592413 0.00000000
-0.25964907 -0.49829358 0.00000000
0.00119289 -0.78619349 0.00000000
-0.43038601 0.15177692 0.00000000
0.19931686 -0.29246485 0.00000000
-0.14435917 0.28817171 0.00000000
0.04112705 -0.53308892 0.00000000
-0.32715020 -0.73244411 0.00000000
-0.39393643 0.39442679 0.00000000
0.19430032 0.52308184 0.00000000
-0.52528453 -0.61924607 0.00000000
-0.23216440 0.77136773 0.00000000
0.48475003 0.32078108 0.01694300
0.72476077 -0.37437284 0.00000000
-0.01870106 -0.59287715 0.00000000
-0.61539608 -0.21506038 0.00000000
-0.05909050 0.62968463 0.00000000
-0.00264551 0.29166967 0.00000000
-0.41447136 0.54945177 0.00000000
0.11009122 0.03647648 0.00000000
-0.61471051 -0.47121876 0.00000000
0.53828871 -0.15083970 0.00000000
-0.40119985 -0.53620601 0.00000000
-0.42035380 -0.07273711 0.00000000
-0.21328942 -0.68737262 0.00000000
-0.11391927 0.63603961 0.00000000
0.31200966 0.53513348 0.14438695
-0.29989257 0.39821848 0.00000000
-0.69719106 -0.54155916 0.00000000
0.22614253 0.07151581 0.00000000
0.07645518 0.31097171 0.00000000
-0.06304442 0.03637169 0.00000000
-0.55038297 -0.23674361 0.00000000
-0.33750582 -0.49738383 0.00000000
0.08849293 -0.32167315 0.00000000
0.46411270 0.46866226 0.40664971
-0.18057616 0.49666816 0.00000000
0.41906908 0.22164036 0.00000000
0.78413975 -0.05428674 0.00000000
-0.32166362 -0.53453201 0.00000000
0.38253275 -0.21783386 0.00000000
0.51495326 0.32722285 0.12917458
0.34566969 0.52119821 0.20479745
0.05396812 0.18835884 0.00000000
0.34638739 0.50576484 0.15972812
0.46941552 -0.08271560 0.00000000
-0.59555590 0.00774422 0.00000000
0.41639024 0.43345085 0.15264986
0.26643595 -0.04397180 0.00000000
-0.47974902 0.49830076 0.00000000
-0.24545658 0.59061664 0.00000000
-0.06690846 -0.46295968 0.00000000
-0.28882220 -0.26577628 0.00000000
0.05217147 -0.25159517 0.00000000
0.03142457 0.66898769 0.00000000
-0.78655082 0.25218859 0.00000000
-0.68049169 -0.67256004 0.00000000
0.00355787 0.69441581 0.00000000
0.13441683 -0.61420900 0.00000000
-0.35618517 -0.21733060 0.00000000
0.17865615 0.62418038 0.00869036
-0.72422945 0.51421219 0.00000000
-0.01319414 0.10543005 0.00000000
-0.72064966 0.00024126 0.00000000
-0.44607118 -0.66186786 0.00000000
-0.25135460 -0.73294926 0.00000000
-0.42263937 -0.19018228 0.00000000
-0.47679889 -0.42704162 0.00000000
0.06741278 -0.68304038 0.00000000
-0.73928332 -0.05240559 0.00000000
0.00266830 -0.00888958 0.00000000
-0.42235896 -0.63556331 0.00000000
-0.27905229 0.66077304 0.00000000
0.52280009 0.31948209 0.12949939
-0.05332944 0.35037106 0.00000000
0.01762030 -0.62364757 0.00000000
-0.58928496 0.27369329 0.00000000
0.22041623 0.41114572 0.00000000
-0.60287297 -0.28504935 0.00000000
0.27133486 0.58245134 0.16473252
-0.32355651 -0.22214618 0.00000000
0.32325771 0.59112173 0.35031036
0.46721578 -0.55038798 0.00000000
-0.26161250 -0.76183969 0.00000000
0.15341647 0.32922015 0.00000000
0.41238260 0.06556433 0.00000000
0.08992160 0.02337335 0.00000000
-0.29902685 0.28144217 0.00000000
-0.30486894 -0.19256677 0.00000000
-0.59371436 -0.44934231 0.00000000
-0.33542553 0.49799865 0.00000000
0.00128264 -0.17132765 0.00000000
0.10981236 -0.04071846 0.00000000
0.68413669 -0.76584280 0.00000000
-0.33571270 -0.16228494 0.00000000
-0.73661417 -0.65260500 0.00000000
0.15417720 -0.05607280 0.00000000
-0.04995054 0.04037528 0.00000000
0.51122385 -0.17523995 0.00000000
0.13672160 -0.65498418 0.00000000
0.15149559 0.58395034 0.00000000
0.00733677 0.17402348 0.00000000
0.29490224 0.58091730 0.23221359
-0.22267658 -0.30309126 0.00000000
0.35585013 -0.40864676 0.00000000
0.21580964 -0.52643275 0.00000000
-0.51020360 0.77303070 0.00000000
-0.67211145 0.75891930 0.00000000
-0.11315025 -0.26113522 0.00000000
-0.15336344 -0.45704168 0.00000000
-0.37267920 -0.44826952 0.00000000
-0.34539452 0.36239073 0.00000000
-0.74007016 0.02783820 0.00000000
-0.26229221 0.17006631 0.00000000
-0.32438073 0.77937031 0.00000000
0.79171270 -0.08587194 0.00000000
-0.45074633 -0.12353425 0.00000000
0.02554868 -0.38730565 0.00000000
-0.32937434 -0.14250156 0.00000000
-0.09054509 -0.64075083 0.00000000
-0.43774739 0.30964288 0.00000000
-0.74182647 -0.46107459 0.00000000
-0.10606108 0.57143438 0.00000000
-0.18259650 0.04488810 0.00000000
0.13959703 0.14600705 0.00000000
-0.31017816 -0.56183624 0.00000000
-0.36550087 0.02151142 0.00000000
0.54882020 0.10698347 0.00000000
-0.60362798 -0.39768788 0.00000000
0.12950055 -0.70874542 0.00000000
0.10961141 0.64602262 0.00000000
0.27494732 -0.44006842 0.00000000
-0.77040112 0.15873384 0.00000000
0.52897578 0.05395871 0.00000000
-0.31159985 -0.64406383 0.00000000
0.67025554 -0.34713683 0.00000000
-0.48186117 -0.21076559 0.00000000
-0.36882731 -0.39851534 0.00000000
-0.36020115 0.75457108 0.00000000
-0.15563607 0.64902365 0.00000000
-0.40148944 -0.61424911 0.00000000
-0.21648590 -0.48734862 0.00000000
-0.55127621 -0.66936857 0.00000000
-0.52728200 -0.56564897 0.00000000
-0.70164055 0.11026228 0.00000000
0.47542864 0.44263989 0.36160851
-0.64207667 -0.51809043 0.00000000
0.36441407 0.44591984 0.03165237
-0.77961856 -0.78982496 0.00000000
0.78384382 -0.76654762 0.00000000
0.62776446 0.24539725 0.22407322
-0.32785004 -0.73792338 0.00000000
-0.01832072 -0.22692002 0.00000000
0.25631922 0.57066655 0.08265153
-0.61351460 -0.77481908 0.00000000
0.43790561 -0.13853420 0.00000000
0.67153043 -0.02944331 0.00000000
0.78781259 -0.40265188 0.00000000
-0.56025171 0.23756474 0.00000000
-0.34469271 -0.69159317 0.00000000
-0.76468164 0.35812354 0.00000000
-0.19223848 -0.36876965 0.00000000
-0.04657773 0.37021974 0.00000000
0.72629064 -0.22181967 0.00000000
0.08647526 -0.33950287 0.00000000
-0.40359327 0.10286752 0.00000000
0.48143625 0.00833836 0.00000000
-0.64347178 0.14216577 0.00000000
0.79935920 -0.29225013 0.00000000
-0.22956103 0.64220107 0.00000000
-0.66908455 0.09907398 0.00000000
-0.69890833 -0.26197028 0.00000000
-0.40017238 0.46591219 0.00000000
-0.03894633 -0.21322098 0.00000000
-0.34931293 -0.33828750 0.00000000
-0.48227879 0.24838600 0.00000000
-0.38222796 -0.40266395 0.00000000
-0.50341648 -0.10438332 0.00000000
-0.18606661 -0.54028040 0.00000000
0.77077705 -0.72173488 0.00000000
0.30566457 0.20522299 0.00000000
0.65508962 -0.55064797 0.00000000
0.13918331 0.54756236 0.00000000
-0.39916286 -0.49579856 0.00000000
-0.01878519 -0.66881418 0.00000000
0.75699985 -0.60744756 0.00000000
-0.48143607 0.35947627 0.00000000
0.19512405 0.40332177 0.00000000
-0.58239317 0.53935975 0.00000000
-0.01869152 -0.49467188 0.00000000
-0.42509636 -0.51216221 0.00000000
-0.71873963 -0.27015328 0.00000000
0.27748656 -0.40058598 0.00000000
-0.23957580 0.04443301 0.00000000
-0.67617571 0.12440181 0.00000000
0.06720660 0.37586045 0.00000000
0.48535529 -0.73542649 0.00000000
0.52519983 -0.18286172 0.00000000
-0.34121588 -0.21584922 0.00000000
-0.59979266 -0.28660500 0.00000000
-0.51992285 0.69734877 0.00000000
-0.36650935 0.70019054 0.00000000
-0.79607016 -0.75656766 0.00000000
0.76740575 -0.38531798 0.00000000
-0.23868638 0.75236976 0.00000000
0.63390332 0.00901707 0.00000000
-0.50934136 0.44354439 0.00000000
0.04414036 -0.74456775 0.00000000
0.19552490 0.08889861 0.00000000
-0.10638625 0.11168036 0.00000000
-0.12971486 -0.32030103 0.00000000
0.59221894 -0.41716066 0.00000000
-0.42392403 -0.65314120 0.00000000
0.70826876 -0.55356961 0.00000000
-0.04737041 0.52183318 0.00000000
-0.45493963 -0.20392057 0.00000000
0.74967188 -0.19209801 0.00000000
-0.09220409 -0.69309503 0.00000000
0.33296919 0.08905293 0.00000000
-0.48167685 0.03472324 0.00000000
-0.70884216 0.17529212 0.00000000
-0.75860262 -0.34629360 0.00000000
-0.08346576 0.01032833 0.00000000
0.23922746 -0.70474130 0.00000000
0.75726110 -0.17226796 0.00000000
0.40709776 -0.37157020 0.00000000
0.52423811 0.37552559 0.30554655
-0.08919822 -0.19902934 0.00000000
-0.57262820 -0.02933476 0.00000000
0.77489167 -0.48630241 0.00000000
-0.64244491 -0.05312452 0.00000000
-0.15985738 -0.75980717 0.00000000
-0.05497976 0.00296317 0.00000000
0.33768389 0.00251272 0.00000000
0.24731737 -0.77114737 0.00000000
-0.51046252 -0.46909094 0.00000000
-0.15397334 -0.18953365 0.00000000
0.52105427 -0.35756180 0.00000000
-0.68212759 0.05377719 0.00000000
0.16520756 0.64879906 0.04290073
-0.01772884 0.43954232 0.00000000
-0.77735549 -0.73293960 0.00000000
-0.32527998 -0.32636231 0.00000000
-0.55895573 -0.64046568 0.00000000
-0.14534172 -0.25166804 0.00000000
-0.73117650 -0.78050113 0.00000000
0.06643183 -0.37142593 0.00000000
-0.60986990 0.73208177 0.00000000
-0.25233188 0.09695254 0.00000000
0.16706717 0.46778852 0.00000000
-0.32878670 0.55153048 0.00000000
-0.49770254 0.20964488 0.00000000
-0.17550503 0.21181621 0.00000000
0.73692805 -0.61531854 0.00000000
0.00524743 0.15806574 0.00000000
0.26415569 0.25005615 0.00000000
0.47513241 0.18618564 0.00000000
-0.77231437 -0.60014611 0.00000000
0.57573080 0.07510560 0.00000000
0.09338933 -0.63824254 0.00000000
-0.06706330 0.76555997 0.00000000
-0.69215834 -0.62195140 0.00000000
0.56445587 -0.07463109 0.00000000
-0.68296558 0.50389498 0.00000000
0.33315840 0.51466411 0.14646769
-0.75994694 -0.21579771 0.00000000
0.64653003 -0.78058320 0.00000000
-0.39991516 0.22107922 0.00000000
0.04131039 0.19774985 0.00000000
-0.75983381 -0.33257812 0.00000000
0.60838151 0.20903996 0.05335922
0.71452522 -0.36312166 0.00000000
-0.59734321 -0.75769579 0.00000000
-0.42334384 -0.28002381 0.00000000
0.03128574 -0.44775069 0.00000000
0.46346843 -0.11442459 0.00000000
0.75188529 -0.49803355 0.00000000
-0.25422025 -0.13449268 0.00000000
0.35684013 -0.46098793 0.00000000
-0.59931457 0.69056422 0.00000000
-0.49791476 -0.40754175 0.00000000
-0.20218854 -0.18838625 0.00000000
0.65580082 -0.68137103 0.00000000
0.11778058 -0.78257859 0.00000000
-0.47851932 -0.12366055 0.00000000
-0.24508081 -0.36777368 0.00000000
-0.55624229 -0.73495847 0.00000000
0.67502695 -0.45752770 0.00000000
-0.76259691 -0.52458131 0.00000000
-0.71985513 -0.11420868 0.00000000
0.18725871 0.32396135 0.00000000
-0.22639798 -0.27523708 0.00000000
0.42262530 0.49052283 0.34653899
0.76311457 -0.29947296 0.00000000
-0.24679860 -0.44678149 0.00000000
0.55343902 0.31565988 0.21163020
0.71842456 0.03075293 0.00000000
-0.17851368 0.74271065 0.00000000
0.03940179 0.58978325 0.00000000
0.56768930 0.34151769 0.33446819
0.62174070 0.10745114 0.00000000
0.57222146 -0.46973246 0.00000000
0.23542559 0.60577691 0.12619267
-0.40565744 0.13929908 0.00000000
-0.08827700 -0.78543615 0.00000000
-0.14584483 0.26978639 0.00000000
-0.67019480 0.35385579 0.00000000
0.04295563 -0.20211057 0.00000000
-0.10365083 -0.60548460 0.00000000
0.12300657 0.26269016 0.00000000
-0.34495655 -0.77512789 0.00000000
-0.26944554 -0.44438753 0.00000000
-0.02499663 0.39526242 0.00000000
0.09886223 0.73149055 0.09296376
-0.20289961 0.60876673 0.00000000
-0.15282135 -0.72122777 0.00000000
0.16225407 -0.64122915 0.00000000
-0.73778015 0.22080462 0.00000000
0.49793923 0.47305119 0.52369148
-0.37893197 -0.44480753 0.00000000
0.65553832 -0.65381497 0.00000000
0.55982232 0.31405830 0.22627506
-0.41184524 -0.55012393 0.00000000
-0.22336850 -0.66151947 0.00000000
-0.41186264 0.23522726 0.00000000
-0.09741667 -0.54226309 0.00000000
0.21672595 -0.33851677 0.00000000
-0.45342633 0.69261247 0.00000000
-0.53587979 -0.62291276 0.00000000
-0.31601754 -0.20675404 0.00000000
-0.71503347 -0.33232546 0.00000000
-0.74397373 -0.26551783 0.00000000
0.58762360 0.21502747 0.00812234
0.63873172 -0.62340605 0.00000000
0.31397346 -0.79687411 0.00000000
0.43964490 -0.51362926 0.00000000
-0.54792535 -0.38100758 0.00000000
-0.62713569 -0.55874729 0.00000000
0.40656102 0.46637213 0.22337328
-0.35646260 0.30710265 0.00000000
0.45448783 -0.12158621 0.00000000
-0.15868510 -0.23771422 0.00000000
0.43353865 -0.58065873 0.00000000
-0.12376116 0.74208939 0.00000000
-0.23568347 0.10454718 0.00000000
-0.22564092 0.15074795 0.00000000
-0.52967685 0.34857893 0.00000000
-0.35857329 -0.20542920 0.00000000
-0.11412257 -0.72031480 0.00000000
-0.26005489 -0.52442211 0.00000000
0.70945519 -0.29816702 0.00000000
0.25711668 -0.01186511 0.00000000
-0.40737098 -0.19997755 0.00000000
0.62748259 0.24568859 0.22410224
0.01004079 -0.37865511 0.00000000
-0.38195416 -0.03027632 0.00000000
0.43906918 0.02411318 0.00000000
0.15480527 -0.02372809 0.00000000
-0.49434102 -0.77833778 0.00000000
0.30215088 0.58420944 0.26449662
0.20133823 0.38137254 0.00000000
-0.18301903 0.09355698 0.00000000
-0.79242414 0.06655036 0.00000000
0.22837487 -0.08243492 0.00000000
0.51201677 0.44695145 0.48687121
0.09288482 0.56694078 0.00000000
-0.67640257 -0.37522790 0.00000000
-0.63150173 0.23484556 0.00000000
0.67777902 -0.47836930 0.00000000
-0.05180906 0.05897669 0.00000000
-0.02715233 0.65904295 0.00000000
-0.59621227 0.48121551 0.00000000
0.40929335 0.46693563 0.23346739
-0.29387274 -0.12002315 0.00000000
-0.11546667 0.27855888 0.00000000
-0.08240129 -0.79425091 0.00000000
0.03174824 0.40574870 0.00000000
0.43681732 -0.04399819 0.00000000
-0.43163279 0.76499498 0.00000000
-0.38814035 -0.06787376 0.00000000
0.29875284 0.60048354 0.30393201
0.70048070 -0.62385458 0.00000000
-0.58221918 0.09903409 0.00000000
0.51983982 -0.71130878 0.00000000
0.59080982 0.28298491 0.22601198
0.25878021 -0.10209218 0.00000000
0.15137425 -0.63702989 0.00000000
0.18423338 -0.63873577 0.00000000
0.24245645 -0.43222418 0.00000000
-0.40098408 -0.49794289 0.00000000
0.23138461 0.57699561 0.02566884
-0.66724068 -0.39278024 0.00000000
-0.31219289 -0.04682552 0.00000000
0.00806303 0.20729767 0.00000000
0.30344996 0.27913535 0.00000000
0.18379761 0.01866649 0.00000000
-0.56267935 0.45652345 0.00000000
-0.14428248 -0.12291338 0.00000000
-0.05800777 0.45220694 0.00000000
0.11547024 0.02051899 0.00000000
0.56728005 -0.41916043 0.00000000
0.75943106 -0.67611361 0.00000000
0.09161472 -0.62333208 0.00000000
0.01433548 -0.47324041 0.00000000
0.46370754 -0.33800209 0.00000000
-0.05730265 0.10890648 0.00000000
-0.76468444 0.53883070 0.00000000
0.05186383 -0.20348226 0.00000000
-0.02643953 -0.36698931 0.00000000
0.02061117 0.39221653 0.00000000
0.46828499 -0.34709242 0.00000000
0.32727805 0.07655991 0.00000000
0.06108681 -0.10492857 0.00000000
-0.42701375 0.59824765 0.00000000
-0.43101823 -0.10176858 0.00000000
-0.37228832 -0.33814591 0.00000000
0.24165574 0.58689660 0.08744943
-0.45149624 0.00406754 0.00000000
0.30795598 0.52717090 0.10758508
0.16108470 0.51071519 0.00000000
-0.15743977 0.38309187 0.00000000
0.42355564 0.41535839 0.11918393
-0.41259134 -0.29835373 0.00000000
-0.64004147 0.56837350 0.00000000
0.52880675 0.34190702 0.21657600
0.35094595 0.09885163 0.00000000
-0.63860440 -0.52673686 0.00000000
-0.56473964 -0.56034774 0.00000000
0.16605271 0.49754459 0.00000000
-0.64065105 0.50065196 0.00000000
0.35533106 0.30593583 0.00000000
-0.75321895 -0.58530968 0.00000000
0.28668371 0.42474970 0.00000000
0.43152764 -0.24452728 0.00000000
0.62534815 0.17594460 0.00396229
0.78255373 -0.66964740 0.00000000
0.63120890 -0.11675808 0.00000000
-0.76585370 -0.18334471 0.00000000
-0.22953635 -0.26284835 0.00000000
0.10471026 -0.75166678 0.00000000
-0.74060762 0.38276923 0.00000000
-0.19365565 0.33657980 0.00000000
-0.67868882 0.00235528 0.00000000
-0.55312347 0.63535422 0.00000000
-0.20498702 -0.56209111 0.00000000
-0.49756941 0.75463563 0.00000000
-0.20755063 0.20485088 0.00000000
0.59909916 -0.71427739 0.00000000
-0.61234456 -0.16913189 0.00000000
0.74257106 -0.54155135 0.00000000
0.26613128 -0.29764581 0.00000000
-0.27653581 -0.11749652 0.00000000
-0.20711295 0.14829408 0.00000000
-0.03792900 -0.38449284 0.00000000
-0.56994265 -0.60775048 0.00000000
0.43422705 -0.04226597 0.00000000
0.31925932 -0.71589881 0.00000000
-0.63945329 -0.26596060 0.00000000
0.24486765 -0.24321949 0.00000000
0.79426521 -0.28215018 0.00000000
-0.47304693 0.49228227 0.00000000
-0.41805086 0.44436964 0.00000000
0.19980143 -0.55696672 0.00000000
-0.13784100 -0.39087570 0.00000000
-0.79645044 0.01336749 0.00000000
0.16751233 -0.58861452 0.00000000
-0.21234319 -0.10512204 0.00000000
-0.78672397 -0.47894523 0.00000000
0.21537402 0.18549033 0.00000000
-0.63500142 -0.36922395 0.00000000
-0.47590464 -0.33441639 0.00000000
-0.51931965 0.62825429 0.00000000
-0.63938963 0.54313052 0.00000000
0.12581003 0.31295273 0.00000000
-0.75158423 -0.50417411 0.00000000
0.45917743 0.46806550 0.38970679
-0.57422692 0.28681150 0.00000000
-0.62815797 0.52012902 0.00000000
0.25410113 -0.15018342 0.00000000
-0.44493821 -0.57572436 0.00000000
0.35376737 0.57400101 0.39131638
0.76004142 -0.77971083 0.00000000
-0.71541637 -0.76217598 0.00000000
0.69496995 -0.43442801 0.00000000
-0.36145625 -0.66849148 0.00000000
0.27484995 0.55925632 0.10445930
0.59166890 -0.63215148 0.00000000
-0.56249052 -0.08543016 0.00000000
-0.15137418 0.15927373 0.00000000
-0.32166815 -0.01378289 0.00000000
-0.79860741 -0.74861163 0.00000000
-0.12199291 -0.65989906 0.00000000
-0.21955989 -0.30814439 0.00000000
0.53487474 -0.21349293 0.00000000
-0.02695898 0.05900681 0.00000000
0.16738749 -0.66990727 0.00000000
-0.56072134 0.59079206 0.00000000
0.70306855 -0.33091947 0.00000000
-0.40540710 0.33155215 0.00000000
0.14799386 0.18236704 0.00000000
0.44491407 -0.31390339 0.00000000
0.12534730 0.45497853 0.00000000
0.68650651 -0.27828848 0.00000000
0.60549057 -0.31976971 0.00000000
-0.76139510 -0.48558775 0.00000000
0.79529089 -0.40447956 0.00000000
-0.79511631 0.67334706 0.00000000
-0.04512181 0.73929632 0.00000000
0.65148157 0.21017364 0.18883257
0.51064795 0.10741404 0.00000000
0.27491975 0.40467408 0.00000000
0.76375097 -0.04253702 0.00000000
-0.15983993 0.59035039 0.00000000
-0.00304308 0.66562343 0.00000000
0.19978382 -0.20249665 0.00000000
-0.52050024 0.26606619 0.00000000
-0.63064194 -0.41078192 0.00000000
-0.51041502 -0.67981631 0.00000000
-0.19090946 -0.36952230 0.00000000
0.40409839 0.49863416 0.31463942
-0.60147732 -0.59299719 0.00000000
0.63375735 -0.10336348 0.00000000
-0.53025961 -0.54247665 0.00000000
0.03681797 0.52170843 0.00000000
0.17088930 -0.06769775 0.00000000
0.17266074 -0.11882387 0.00000000
-0.18298598 0.63703382 0.00000000
-0.64228433 -0.72413951 0.00000000
-0.66549629 -0.53343219 0.00000000
-0.02313537 0.04441229 0.00000000
0.02793659 0.53883547 0.00000000
0.19924802 0.60365003 0.00887883
-0.70853513 -0.71477461 0.00000000
-0.58111668 -0.31048203 0.00000000
-0.41323441 0.10798661 0.00000000
-0.55131000 -0.18101893 0.00000000
0.47801626 0.45035422 0.39316013
-0.49737599 0.13854294 0.00000000
0.49636644 -0.14473605 0.00000000
0.75266063 -0.41344053 0.00000000
0.48146188 -0.79007226 0.00000000
-0.32466224 -0.58943838 0.00000000
0.06366820 -0.11902622 0.00000000
0.25555256 -0.58389515 0.00000000
0.12173397 -0.75377339 0.00000000
-0.63399136 0.16074280 0.00000000
-0.76755369 0.39187133 0.00000000
0.51323634 0.44863927 0.49577564
-0.40154988 0.19989483 0.00000000
-0.37693053 -0.43790907 0.00000000
0.41396347 0.38930085 0.01000057
-0.13276984 -0.50856829 0.00000000
0.78046465 -0.49843702 0.00000000
0.38288748 0.52323467 0.32502067
-0.62566507 -0.03348842 0.00000000
-0.58372337 -0.16360007 0.00000000
0.11661776 0.11170470 0.00000000
-0.37487713 0.50001353 0.00000000
0.76980668 -0.21743992 0.00000000
-0.22888751 -0.60166508 0.00000000
-0.70846534 -0.50307721 0.00000000
-0.66029853 0.15725037 0.00000000
-0.79593962 -0.62115401 0.00000000
0.69821250 -0.64311564 0.00000000
0.25527120 0.08613973 0.00000000
-0.62870800 -0.74758703 0.00000000
-0.00102451 0.33954477 0.00000000
-0.52873474 0.52535260 0.00000000
-0.76031005 -0.54572821 0.00000000
0.76948351 -0.52812231 0.00000000
-0.62618935 -0.35931829 0.00000000
0.32234129 0.56699371 0.27360719
0.14796428 -0.48951226 0.00000000
0.48103386 -0.75235814 0.00000000
-0.58859736 -0.69040865 0.00000000
-0.66175097 0.58626378 0.00000000
0.18797056 0.07359378 0.00000000
0.52543056 -0.71891910 0.00000000
0.38852441 0.29279426 0.00000000
0.35416234 0.06478207 0.00000000
-0.54555357 -0.12366372 0.00000000
-0.61385363 0.45982644 0.00000000
0.32274339 -0.61742437 0.00000000
0.18620351 -0.44982880 0.00000000
-0.17909490 0.54335296 0.00000000
-0.19444279 -0.02974167 0.00000000
0.25376531 0.22121365 0.00000000
0.75372130 -0.48813263 0.00000000
0.79302204 -0.22492728 0.00000000
-0.43834347 0.43284738 0.00000000
0.19849591 -0.00883648 0.00000000
-0.60212922 0.07979305 0.00000000
0.77295381 -0.54554915 0.00000000
-0.46028405 0.57546014 0.00000000
-0.77844507 0.56980050 0.00000000
-0.48973531 -0.13290291 0.00000000
-0.65260249 -0.51725513 0.00000000
0.61165005 -0.53094018 0.00000000
0.68469268 -0.23424882 0.00000000
-0.00258505 -0.40670088 0.00000000
-0.13884626 -0.63504124 0.00000000
-0.55482048 -0.51983649 0.00000000
0.00930541 -0.27446344 0.00000000
-0.60696393 0.24841651 0.00000000
-0.54374474 0.75751257 0.00000000
0.38592488 -0.21318306 0.00000000
0.57982546 0.10692834 0.00000000
-0.38580522 -0.20134994 0.00000000
0.14046790 -0.04254410 0.00000000
0.77524495 -0.65579629 0.00000000
0.22835448 0.43753141 0.00000000
-0.55486155 -0.00800300 0.00000000
-0.17774905 0.19459032 0.00000000
0.02649547 0.09519857 0.00000000
0.38565758 0.54829305 0.41025057
-0.72062039 0.54893553 0.00000000
0.60312057 0.11568522 0.00000000
0.77421969 -0.56094092 0.00000000
-0.64983553 -0.50395197 0.00000000
0.34116539 -0.22151215 0.00000000
0.03878490 -0.61752427 0.00000000
-0.34537628 -0.50538403 0.00000000
0.15571111 -0.60316473 0.00000000
0.71140933 -0.69679391 0.00000000
0.18014739 0.28913748 0.00000000
-0.77475566 0.75121319 0.00000000
0.76812142 -0.67432654 0.00000000
-0.73011005 -0.14107257 0.00000000
0.42183417 0.43538308 0.17524062
0.24820010 0.36529729 0.00000000
0.33139428 -0.48365104 0.00000000
-0.73382080 -0.21424262 0.00000000
0.21115249 0.62100410 0.09848812
-0.06082298 0.75550282 0.00000000
-0.47630557 -0.56588215 0.00000000
-0.07862744 0.16349301 0.00000000
0.11140114 0.71552390 0.08246563
-0.52849072 -0.40373397 0.00000000
0.59026271 0.28830242 0.24062210
0.16004483 0.15889999 0.00000000
0.50877929 0.36774588 0.23437442
0.11222399 0.51481575 0.00000000
-0.07493029 0.44829804 0.00000000
-0.55816823 0.72621745 0.00000000
0.24659044 0.33403042 0.00000000
0.00028829 -0.34325603 0.00000000
-0.46083128 0.01032069 0.00000000
-0.37874478 -0.06375338 0.00000000
0.24322850 -0.37154603 0.00000000
0.61564440 -0.72946525 0.00000000
-0.42282075 -0.01884552 0.00000000
-0.52028811 -0.23371848 0.00000000
0.16082010 -0.39838195 0.00000000
0.01718456 0.14847770 0.00000000
0.68189311 -0.33045393 0.00000000
-0.48266768 0.77465284 0.00000000
-0.19890106 -0.51414895 0.00000000
-0.21243018 -0.31296411 0.00000000
0.29617047 -0.34058914 0.00000000
0.09838940 -0.40781748 0.00000000
0.31861171 0.39166531 0.00000000
-0.33976650 -0.51645827 0.00000000
0.61732399 -0.47787479 0.00000000
-0.76908875 -0.47101757 0.00000000
-0.14380942 0.27543721 0.00000000
0.35066116 0.47779214 0.08714610
0.54713541 -0.11510786 0.00000000
0.19970065 0.05204629 0.00000000
-0.19888678 -0.47746092 0.00000000
0.07348958 0.22356029 0.00000000
0.37199363 -0.13128111 0.00000000
0.35779592 0.46564016 0.07177998
0.25526705 -0.74143434 0.00000000
-0.33084035 -0.65149474 0.00000000
-0.34486607 -0.20264001 0.00000000
-0.23126180 -0.35065159 0.00000000
-0.25531191 0.64311498 0.00000000
0.17049600 -0.35320517 0.00000000
0.05980817 0.74387711 0.01128981
-0.72363287 0.35450971 0.00000000
0.36630973 -0.02905135 0.00000000
0.00920116 0.15841407 0.00000000
0.50663328 -0.12680119 0.00000000
0.69522494 -0.69643319 0.00000000
-0.58236563 -0.54404491 0.00000000
0.46609512 0.04538969 0.00000000
0.66735071 -0.21324727 0.00000000
0.45920610 -0.74259847 0.00000000
0.41127619 0.43768758 0.14996290
0.71797734 0.10459363 0.06913047
0.53629941 -0.41333854 0.00000000
-0.46072412 0.06489429 0.00000000
-0.53515291 0.02587439 0.00000000
0.79675674 -0.79460257 0.00000000
-0.31655845 -0.08491095 0.00000000
0.00402557 -0.76284039 0.00000000
0.56173050 -0.16979642 0.00000000
0.18200465 -0.14832328 0.00000000
0.72606105 -0.03691331 0.00000000
0.72738039 -0.52620131 0.00000000
-0.29918808 -0.38414115 0.00000000
-0.54636842 -0.06377344 0.00000000
0.03349243 -0.51616746 0.00000000
-0.67719531 0.63163471 0.00000000
-0.41587484 0.04016669 0.00000000
-0.48629433 0.67649931 0.00000000
-0.50127918 0.07050523 0.00000000
0.07016395 0.20244010 0.00000000
-0.63116241 -0.21077536 0.00000000
0.75442761 -0.37869734 0.00000000
-0.00475221 0.14098869 0.00000000
0.09933606 0.70091873 0.00078333
-0.04364210 0.57218820 0.00000000
0.28315556 0.32323229 0.00000000
-0.17856407 -0.55644870 0.00000000
0.09199516 -0.23544388 0.00000000
-0.27786481 0.66079581 0.00000000
-0.73723894 0.08542984 0.00000000
-0.24401861 0.49601099 0.00000000
0.19412415 -0.57495642 0.00000000
0.52239537 0.34486461 0.20599817
-0.58275241 -0.20224772 0.00000000
-0.22353111 -0.23231609 0.00000000
-0.67349821 0.14541537 0.00000000
-0.58391547 -0.76976025 0.00000000
0.14447176 -0.40628806 0.00000000
0.07387252 0.57394868 0.00000000
-0.33918932 -0.19237363 0.00000000
0.28786090 -0.68939281 0.00000000
0.11309234 -0.68726122 0.00000000
0.35959646 -0.19503078 0.00000000
-0.13944352 -0.55632210 0.00000000
0.22398700 0.30651781 0.00000000
0.32448491 0.47817200 0.00814028
-0.16673584 -0.54455197 0.00000000
-0.00979013 -0.55645722 0.00000000
0.19361611 0.63183397 0.07794823
-0.13854542 0.69052589 0.00000000
0.28617749 0.12354623 0.00000000
0.23662519 -0.30711257 0.00000000
0.72864485 -0.14110124 0.00000000
-0.60387880 -0.37904948 0.00000000
-0.78507096 -0.08007001 0.00000000
0.39239037 -0.36358312 0.00000000
-0.59469098 -0.27647090 0.00000000
-0.67261297 -0.22930835 0.00000000
-0.44953755 -0.62041092 0.00000000
0.47655252 0.05265050 0.00000000
0.66313249 -0.30392745 0.00000000
-0.48908329 0.17484647 0.00000000
0.04966266 -0.39847383 0.00000000
-0.62827867 -0.11466603 0.00000000
0.28523281 0.42371693 0.00000000
0.63949311 -0.69849205 0.00000000
-0.52002585 -0.71986210 0.00000000
0.38505495 -0.18667376 0.00000000
0.55418575 -0.56140983 0.00000000
-0.66396987 -0.77569956 0.00000000
-0.63812494 -0.51769191 0.00000000
-0.71313137 -0.57388330 0.00000000
0.20447341 0.11306208 0.00000000
0.47080633 0.05459738 0.00000000
-0.71174562 -0.40083998 0.00000000
0.54757875 0.33563444 0.25485763
0.41427863 0.12482160 0.00000000
-0.64050585 0.28570434 0.00000000
0.22382057 0.42897430 0.00000000
-0.72261494 -0.45136723 0.00000000
-0.17467612 -0.37418374 0.00000000
-0.12869515 0.46621969 0.00000000
0.68843448 -0.70071507 0.00000000
-0.73393154 -0.79824466 0.00000000
-0.17631237 0.13283131 0.00000000
-0.68277103 0.43716240 0.00000000
-0.71052480 0.57978094 0.00000000
-0.24977404 0.77298236 0.00000000
0.78884941 -0.71135014 0.00000000
-0.60617298 0.09847078 0.00000000
0.43557498 0.38570178 0.06516676
0.17066708 0.04058045 0.00000000
0.26924515 0.17524086 0.00000000
0.53347713 -0.18418388 0.00000000
-0.54382378 -0.04749814 0.00000000
0.64146930 -0.29120663 0.00000000
0.16680463 0.47994909 0.00000000
0.33965632 0.20506321 0.00000000
0.36869991 -0.51208520 0.00000000
0.02816452 -0.02006732 0.00000000
-0.03241061 -0.64717978 0.00000000
-0.02192741 0.16776212 0.00000000
0.26425278 -0.45741951 0.00000000
-0.37563688 0.04390467 0.00000000
0.51806074 -0.62954193 0.00000000
-0.71041662 -0.23311754 0.00000000
0.76389158 -0.48449492 0.00000000
0.10879596 -0.12178490 0.00000000
-0.38847870 0.59560168 0.00000000
-0.22587854 0.01714533 0.00000000
0.30838642 0.08702402 0.00000000
-0.36656934 -0.67119312 0.00000000
-0.10077634 0.37818161 0.00000000
0.16556542 -0.73573512 0.00000000
0.49614412 0.05591723 0.00000000
-0.64488488 0.15102848 0.00000000
0.13067605 0.41085893 0.00000000
-0.18702772 -0.50403178 0.00000000
-0.66357368 0.01254942 0.00000000
0.52403063 -0.06350866 0.00000000
0.60617620 -0.58032376 0.00000000
-0.43689203 -0.33944798 0.00000000
0.74386197 -0.05706305 0.00000000
-0.42585683 -0.70206040 0.00000000
0.51523179 -0.15290312 0.00000000
-0.78887182 -0.36003685 0.00000000
-0.19912246 0.05012847 0.00000000
0.18550864 -0.57033962 0.00000000
-0.05370186 -0.19366272 0.00000000
0.02514583 0.38914597 0.00000000
-0.17822412 0.28288552 0.00000000
-0.06794897 -0.11565358 0.00000000
0.60212582 0.05054826 0.00000000
-0.51356781 0.23413247 0.00000000
-0.64994264 -0.16910939 0.00000000
0.45387113 0.18200725 0.00000000
0.18773127 -0.41702673 0.00000000
0.24819246 0.30430591 0.00000000
0.13482764 -0.54978210 0.00000000
0.66799521 -0.33478290 0.00000000
0.51638156 0.05043137 0.00000000
0.19892088 -0.12165528 0.00000000
-0.48489055 0.53958678 0.00000000
-0.66506022 0.63728154 0.00000000
-0.42564657 -0.18941931 0.00000000
0.71807849 -0.66602486 0.00000000
-0.22437879 -0.48484418 0.00000000
-0.57050383 0.14320146 0.00000000
0.07272387 0.49310684 0.00000000
0.39021763 0.42100254 0.03436673
0.11399643 0.11253694 0.00000000
-0.54700929 0.77866232 0.00000000
0.14801896 0.45044062 0.00000000
-0.49518472 0.49592519 0.00000000
-0.36860549 0.55645865 0.00000000
0.22763824 0.33580953 0.00000000
0.65786886 -0.15574986 0.00000000
-0.45190331 0.55140084 0.00000000
-0.28773302 0.67636073 0.00000000
-0.18934526 0.42471179 0.00000000
-0.29985061 -0.40707737 0.00000000
0.26264879 0.01240164 0.00000000
-0.58799165 0.02981045 0.00000000
-0.28772470 0.48060861 0.00000000
0.76806259 -0.32650298 0.00000000
-0.52524179 -0.03890498 0.00000000
-0.27551675 -0.23042330 0.00000000
-0.51872969 -0.61899197 0.00000000
-0.11140984 -0.58357811 0.00000000
-0.42212749 -0.28771174 0.00000000
-0.13288084 -0.77362591 0.00000000
0.28681415 -0.41482174 0.00000000
-0.14991572 -0.13513108 0.00000000
0.46394604 -0.24220373 0.00000000
0.07219963 0.28600886 0.00000000
0.21175194 -0.21253949 0.00000000
0.11909206 -0.73943150 0.00000000
0.39955345 0.47629881 0.23231360
0.52400345 0.32561022 0.15195332
-0.58283430 -0.64626986 0.00000000
-0.36911759 -0.56731564 0.00000000
-0.35235602 0.42785648 0.00000000
-0.78177762 -0.35588437 0.00000000
-0.05874192 0.67453754 0.00000000
-0.30120665 -0.34460217 0.00000000
-0.09108047 -0.40146840 0.00000000
-0.11819663 0.68059540 0.00000000
0.03918611 -0.47455668 0.00000000
-0.36953044 -0.20243862 0.00000000
0.05531472 0.75739974 0.03894322
-0.68017805 -0.49592814 0.00000000
-0.76940852 0.38605160 0.00000000
0.11593001 0.09344238 0.00000000
-0.10643642 0.42488110 0.00000000
-0.23870274 -0.60909176 0.00000000
0.32685110 0.57866591 0.32316747
-0.24571729 0.16437112 0.00000000
0.11455620 0.61731017 0.00000000
-0.70248288 -0.28567064 0.00000000
-0.16478591 -0.51952416 0.00000000
0.37135532 0.44848695 0.06077341
0.72690332 -0.65604550 0.00000000
0.26834640 0.34029284 0.00000000
-0.71278822 0.55998248 0.00000000
-0.68689650 0.02125641 0.00000000
0.05668450 0.13211954 0.00000000
0.14655367 0.20294210 0.00000000
0.37084708 -0.78852093 0.00000000
0.37593293 0.03821522 0.00000000
-0.59209526 0.37847373 0.00000000
-0.02866759 -0.46622956 0.00000000
0.09353510 0.04599189 0.00000000
0.78699684 -0.74782455 0.00000000
-0.29253697 -0.39706379 0.00000000
-0.49468657 0.16979864 0.00000000
0.04265548 0.52614307 0.00000000
-0.61565292 -0.09571269 0.00000000
-0.14524812 0.22456343 0.00000000
-0.26616934 -0.59308177 0.00000000
-0.46418545 -0.11410001 0.00000000
0.70310128 -0.43338791 0.00000000
0.13275515 0.49706143 0.00000000
-0.56161803 0.65522909 0.00000000
0.15798464 -0.27482495 0.00000000
0.74199343 -0.72132093 0.00000000
0.70188570 -0.09100430 0.00000000
-0.77021271 0.39532518 0.00000000
0.64685488 -0.36507714 0.00000000
0.20975322 0.15932567 0.00000000
0.31565383 0.49686259 0.03833674
0.41680291 -0.28893241 0.00000000
0.39995044 -0.36280370 0.00000000
0.21284123 0.37358940 0.00000000
-0.17791487 0.64259917 0.00000000
-0.42906436 0.18912740 0.00000000
0.28694195 -0.78536248 0.00000000
0.66930395 -0.32077661 0.00000000
-0.69079036 0.29549971 0.00000000
-0.62371171 0.68217468 0.00000000
0.79612333 -0.18259627 0.00000000
-0.59337944 -0.24691688 0.00000000
0.45043296 0.42870003 0.24236134
-0.58532906 -0.66792995 0.00000000
0.18057303 0.64826393 0.08832119
0.46949077 -0.57953596 0.00000000
-0.74782234 0.18198177 0.00000000
-0.13315853 -0.72531384 0.00000000
0.22375065 0.03215598 0.00000000
0.45092842 0.47653818 0.39039186
0.39617962 -0.27589923 0.00000000
0.32348579 0.22429979 0.00000000
0.46954218 0.43913886 0.33285761
0.43082932 -0.79563904 0.00000000
-0.28582159 -0.69628888 0.00000000
-0.20158371 0.25061575 0.00000000
0.04584228 0.35556915 0.00000000
-0.01543399 -0.73871982 0.00000000
-0.71114135 -0.70256609 0.00000000
0.20287666 0.35925528 0.00000000
0.23963819 -0.01209231 0.00000000
-0.33996412 0.36899853 0.00000000
-0.59565628 -0.05005205 0.00000000
0.57948649 0.10850389 0.00000000
0.12821501 0.45871887 0.00000000
0.66909039 -0.66239977 0.00000000
0.62027609 0.07724914 0.00000000
-0.38372678 0.47529778 0.00000000
-0.73253286 0.61920524 0.00000000
0.17069525 0.65279257 0.07193846
0.27740172 -0.33319521 0.00000000
0.15100877 0.48567447 0.00000000
-0.24949770 -0.34260914 0.00000000
-0.21105891 -0.22479039 0.00000000
0.15197261 0.22058050 0.00000000
-0.05197077 0.54293311 0.00000000
0.63592726 -0.22914746 0.00000000
0.01788989 0.06386477 0.00000000
0.60131609 -0.45489946 0.00000000
-0.43447766 0.71626228 0.00000000
-0.27591980 -0.47728956 0.00000000
-0.48937896 0.28678754 0.00000000
0.10698979 0.72396171 0.09479742
0.19179662 -0.57291567 0.00000000
-0.32888782 -0.40941116 0.00000000
0.03546590 -0.45301273 0.00000000
-0.32589841 -0.64599431 0.00000000
0.36798620 -0.52012920 0.00000000
-0.72583818 -0.51438594 0.00000000
-0.54890901 0.78228742 0.00000000
-0.06674205 -0.34161535 0.00000000
0.34759116 -0.36693245 0.00000000
0.34643114 0.53207040 0.24042758
0.05847758 -0.47176561 0.00000000
-0.76599020 0.68883944 0.00000000
-0.03764096 -0.42877677 0.00000000
-0.43189630 -0.69275892 0.00000000
0.24062543 0.17987210 0.00000000
0.07981876 0.15502159 0.00000000
0.35033089 0.20149782 0.00000000
-0.74303192 -0.41542259 0.00000000
0.05873469 0.07522940 0.00000000
0.30005956 -0.15643780 0.00000000
-0.51809496 0.24612299 0.00000000
-0.10175575 0.49073067 0.00000000
0.09399016 -0.03811719 0.00000000
0.39467865 0.48760465 0.25200984
0.55776614 -0.12330165 0.00000000
0.04484927 0.76515174 0.03063285
-0.19410744 -0.18378721 0.00000000
-0.23388349 -0.18470939 0.00000000
-0.77640557 0.26597846 0.00000000
0.49303156 0.36339489 0.17281868
-0.39737400 0.54906577 0.00000000
-0.04632524 -0.33318287 0.00000000
-0.34679526 -0.20552677 0.00000000
-0.27745020 0.32735246 0.00000000
-0.37953869 -0.44910046 0.00000000
-0.20487592 -0.64430946 0.00000000
-0.12204471 -0.08671794 0.00000000
-0.26709238 -0.28037843 0.00000000
-0.30267301 0.15430789 0.00000000
-0.60430688 -0.77676368 0.00000000
-0.00185613 -0.42241967 0.00000000
0.04264174 0.28413641 0.00000000
0.40694988 0.46780524 0.22895341
-0.07317870 -0.39246610 0.00000000
0.00295038 -0.47563168 0.00000000
0.27788174 -0.04201258 0.00000000
-0.22599976 -0.67492831 0.00000000
-0.33149493 -0.51001453 0.00000000
-0.76139909 0.40485576 0.00000000
0.27512583 -0.63242191 0.00000000
-0.39303884 0.25945213 0.00000000
0.25703073 -0.79626536 0.00000000
-0.03214423 0.79310650 0.00000000
-0.01097568 0.17838959 0.00000000
0.14228716 -0.74219310 0.00000000
0.59940249 -0.01965582 0.00000000
0.72213358 -0.50447667 0.00000000
-0.70339918 -0.13006887 0.00000000
-0.49864459 0.41897929 0.00000000
0.44003561 0.40049821 0.12414480
-0.06906677 0.41457999 0.00000000
-0.46696731 -0.64428675 0.00000000
-0.27122355 -0.55200762 0.00000000
-0.58204901 -0.34457839 0.00000000
0.34170827 -0.34494865 0.00000000
0.44395247 -0.46167731 0.00000000
-0.71979278 -0.30694696 0.00000000
0.34796718 0.21560454 0.00000000
-0.01011192 0.36092114 0.00000000
0.16274671 -0.66779220 0.00000000
-0.44951367 -0.23199953 0.00000000
-0.48756334 0.30088142 0.00000000
-0.54175603 -0.68515408 0.00000000
0.56276143 -0.17740169 0.00000000
-0.13058379 -0.02018884 0.00000000
0.56681460 0.26222560 0.08894355
0.24147040 -0.50957698 0.00000000
-0.07260147 -0.02268853 0.00000000
-0.41976997 -0.40091020 0.00000000
-0.03144253 0.26825881 0.00000000
0.46754307 0.08998073 0.00000000
-0.23240557 -0.23955128 0.00000000
0.15511702 0.29039016 0.00000000
-0.43449077 -0.67523539 0.00000000
-0.67262602 0.57437408 0.00000000
0.31083944 0.57449353 0.26135024
0.11731342 0.62017894 0.00000000
0.07802795 0.46016839 0.00000000
-0.58074558 0.66813862 0.00000000
0.00699943 -0.53357953 0.00000000
-0.33551297 -0.22297283 0.00000000
-0.59397560 0.40871960 0.00000000
-0.13450254 0.49270463 0.00000000
0.15859126 -0.21486336 0.00000000
-0.57890475 0.04016350 0.00000000
0.78149325 -0.22016118 0.00000000
-0.47583324 0.73317116 0.00000000
-0.21780837 0.42547569 0.00000000
0.62976664 -0.65520030 0.00000000
-0.40930626 -0.07218964 0.00000000
0.30902126 0.14013244 0.00000000
0.07957023 0.07012617 0.00000000
0.28175426 -0.57972640 0.00000000
0.30571011 0.12438028 0.00000000
-0.65153724 -0.09260494 0.00000000
0.56013829 -0.34865871 0.00000000
-0.48190987 -0.78810102 0.00000000
-0.35319501 -0.73815078 0.00000000
0.50765669 0.16327819 0.00000000
-0.40000719 -0.16150111 0.00000000
0.67487299 -0.56803370 0.00000000
-0.55465847 -0.38355270 0.00000000
-0.21416622 0.58334970 0.00000000
-0.31317869 0.27653840 0.00000000
-0.49311328 0.38594520 0.00000000
0.01041835 0.19143264 0.00000000
-0.15059589 0.56178671 0.00000000
0.04591523 -0.04894984 0.00000000
-0.76274830 -0.58242232 0.00000000
0.03384893 0.71516258 0.00000000
-0.39759034 0.47498184 0.00000000
-0.45980823 -0.31743014 0.00000000
-0.61895478 -0.59115839 0.00000000
0.48524764 -0.37627003 0.00000000
0.52615362 -0.66053945 0.00000000
0.78915048 -0.44205603 0.00000000
-0.24223708 0.59474570 0.00000000
-0.03337151 0.76869625 0.00000000
0.77920842 -0.49684256 0.00000000
-0.78017765 -0.14622211 0.00000000
-0.37783527 0.30258778 0.00000000
0.69839394 0.12916905 0.08441934
0.05322136 0.65189284 0.00000000
0.51576781 -0.27113807 0.00000000
-0.12127117 -0.72660476 0.00000000
-0.21948437 -0.01074136 0.00000000
-0.75017929 -0.01374738 0.00000000
-0.76493937 -0.37392202 0.00000000
-0.55081666 -0.04546916 0.00000000
-0.75456649 0.28747559 0.00000000
-0.64516795 0.01039054 0.00000000
-0.32957715 0.69728690 0.00000000
0.66846138 -0.72749233 0.00000000
0.40514922 -0.57632595 0.00000000
0.41894424 -0.26569226 0.00000000
-0.63852537 -0.08434253 0.00000000
0.14624634 0.22365914 0.00000000
0.66829747 -0.61181682 0.00000000
0.69411945 0.12083665 0.04580862
-0.58103120 0.59003717 0.00000000
0.26120442 -0.70855218 0.00000000
-0.38147014 0.42528704 0.00000000
-0.13847107 0.71302891 0.00000000
-0.05606878 0.36175227 0.00000000
-0.05420290 0.10943858 0.00000000
0.14292130 -0.21653926 0.00000000
-0.33281088 0.65332931 0.00000000
-0.13421531 0.38058832 0.00000000
0.47360787 0.22608481 0.00000000
-0.39371616 0.53958398 0.00000000
-0.63425213 -0.19146924 0.00000000
0.43733102 -0.67957675 0.00000000
0.38526234 -0.70159054 0.00000000
-0.48028502 0.03703913 0.00000000
0.64093107 0.19284794 0.10345701
0.05029409 -0.01599009 0.00000000
-0.67412323 0.59187591 0.00000000
0.62305164 0.21578071 0.11893369
0.25592908 0.39623249 0.00000000
0.50419289 0.36596912 0.21488619
-0.12169473 0.48762155 0.00000000
-0.66145283 0.67834973 0.00000000
0.17271054 0.04642654 0.00000000
0.59591764 0.05492269 0.00000000
-0.27670762 0.03377307 0.00000000
0.04880214 0.28482103 0.00000000
-0.19789866 0.58537328 0.00000000
0.29824743 -0.54951388 0.00000000
0.54486394 0.04507266 0.00000000
-0.35766554 0.38505292 0.00000000
-0.39588296 0.57023811 0.00000000
0.59724629 -0.41289786 0.00000000
-0.52750230 -0.46372965 0.00000000
-0.21087430 -0.68089217 0.00000000
-0.65148330 0.53294784 0.00000000
-0.44431436 -0.12393870 0.00000000
0.49146560 0.35015836 0.12748347
-0.74111819 0.40821618 0.00000000
-0.01143855 -0.42025605 0.00000000
0.46975541 0.10607404 0.00000000
0.43596217 0.20026228 0.00000000
-0.74895734 0.65408546 0.00000000
