ply
format ascii 1.0
element vertex 1213
property float x
property float y
property float z
end_header
-0.69621170 -0.11879317 -0.00000081
-0.72560710 -0.56323314 -0.00000059
-0.00987715 0.04966160 -0.00001061
-0.44781074 -0.14591677 0.00000186
-0.35704505 -0.03024790 0.00000275
-0.12176605 0.02418009 -0.00000815
-0.42803380 -0.26117837 0.00000202
-0.06007553 0.59942782 0.00000312
-0.03054628 -0.39726055 0.00000156
-0.42772499 -0.12724072 0.00000206
-0.01134394 0.03620376 -0.00001088
-0.14526847 -0.52248567 0.00000104
-0.16484416 0.52131075 0.00000443
-0.55970657 -0.42683676 0.00000085
-0.38467675 0.21790196 0.00000229
-0.18355539 0.39611620 0.00000431
-0.06416943 -0.34341654 0.00000171
-0.34380931 -0.31092489 0.00000183
-0.07409492 0.36223432 -0.00000184
-0.02942505 0.28225663 -0.00000485
-0.74961269 -0.31019321 -0.00000122
-0.18498115 -0.02248800 0.00000292
-0.56632656 -0.40048948 0.00000076
-0.40238810 -0.75759912 0.00000016
-0.12530600 -0.49279535 0.00000115
-0.67732638 -0.25771385 -0.00000052
-0.40412459 -0.11750185 0.00000230
-0.37308291 -0.24747145 0.00000207
-0.51253617 0.04370930 0.00000104
-0.14108332 -0.54193199 0.00000097
-0.39403927 -0.29999056 0.00000188
-0.20036474 -0.75893766 0.00000015
-0.55658281 0.05494389 0.00000056
-0.40592140 0.30178243 0.00000200
-0.59994596 0.10161231 0.00000007
-0.05907667 0.13662621 -0.00000732
-0.75847208 -0.18751059 -0.00000143
-0.31017756 0.39514399 0.00000296
-0.35907388 0.14248137 0.00000261
-0.39767790 -0.06855527 0.00000234
-0.67144024 -0.13460550 -0.00000054
-0.02833929 -0.78629255 0.00000005
-0.52461594 -0.23726679 0.00000110
-0.45202619 0.30796811 0.00000151
-0.75341117 -0.19330098 -0.00000137
-0.53888100 -0.66483676 0.00000051
-0.65574849 -0.12851585 -0.00000037
-0.22534367 -0.69209963 0.00000040
-0.07505946 -0.62088186 0.00000067
-0.44495595 -0.40299150 0.00000149
-0.00615074 -0.68977916 0.00000042
-0.75645119 -0.01307095 -0.00000153
-0.72177386 -0.02258604 -0.00000115
-0.46564549 -0.32650420 0.00000178
-0.16579933 -0.66025102 0.00000052
-0.28898796 -0.78824311 0.00000004
-0.51132739 -0.56232351 0.00000089
-0.55385399 -0.42739576 0.00000091
-0.38133171 -0.61758053 0.00000068
-0.16454434 0.01028019 -0.00000730
-0.15388678 -0.70149708 0.00000037
-0.52156901 0.26837096 0.00000079
-0.52135223 0.24616954 0.00000081
-0.41543260 -0.11472051 0.00000218
-0.30955097 -0.62617993 0.00000065
-0.41265786 0.23987781 0.00000197
-0.23991632 -0.20041567 0.00000225
-0.50826544 0.20573471 0.00000097
-0.15643318 -0.32567471 0.00000178
-0.42774421 -0.49020356 0.00000116
-0.34377241 0.06364201 0.00000283
-0.68586606 -0.68619376 0.11021624
-0.79372740 -0.19462447 -0.00000151
-0.15356764 -0.71769142 0.00000031
-0.57272822 -0.62699610 0.00000065
-0.55993962 0.17877662 0.00000044
-0.58844560 -0.68500996 0.00000043
-0.65016294 0.14967634 -0.00000050
-0.62378085 -0.64327049 0.00000031
-0.20875634 -0.76859760 0.00000012
-0.67787737 -0.09687384 -0.00000063
-0.19789259 0.30505258 0.00000024
-0.11589617 0.51256269 0.00000268
-0.12552705 -0.12562355 0.00000253
-0.35757962 -0.06498387 0.00000276
-0.29837948 0.44037259 0.00000306
-0.47557956 0.31095275 0.00000125
-0.07829915 -0.06107082 0.00000277
-0.24893558 -0.71623242 0.00000031
-0.33300865 -0.09369857 0.00000265
-0.49814776 -0.61685044 0.00000069
-0.55317521 -0.77300793 0.00000010
-0.42464766 -0.60798019 0.00000072
-0.54959446 -0.13680898 0.00000076
-0.07585966 -0.06672133 0.00000275
-0.39365813 0.16969398 0.00000222
-0.21690761 -0.39335090 0.00000152
-0.14357103 -0.27305984 0.00000198
-0.46582332 0.03236283 0.00000154
-0.19308016 0.17467336 -0.00000283
-0.10000982 0.30025154 -0.00000253
-0.41228908 -0.03431071 0.00000216
-0.66708708 -0.75781047 -0.00000007
-0.41327000 0.30774763 0.00000192
-0.04456953 -0.49368733 0.00000115
-0.38293916 -0.06908534 0.00000250
-0.66763639 -0.20902182 -0.00000045
-0.66551161 -0.47801104 -0.00000025
-0.69149750 0.09754117 -0.00000091
-0.11435457 -0.47378352 0.00000122
-0.76517409 -0.47452411 -0.00000081
-0.79640937 -0.31336489 -0.00000122
-0.05883785 -0.69728404 0.00000039
-0.01291229 -0.54998684 0.00000094
-0.15647766 -0.04713689 0.00000282
-0.20011961 -0.04163214 0.00000284
-0.26024699 0.28593579 0.00000357
-0.22515404 0.56445283 0.00000376
-0.17534582 -0.44962102 0.00000131
-0.01376266 0.54996014 0.00000075
-0.76111513 -0.77384627 -0.00000007
-0.14963284 0.30892706 -0.00000099
-0.01917375 -0.60254443 0.00000077
-0.28757951 -0.26570040 0.00000200
-0.23745432 -0.76346368 0.00000014
-0.22732814 0.57189244 0.00000373
-0.34786561 -0.42490593 0.00000141
-0.48664433 -0.40720579 0.00000147
-0.24645838 -0.62757862 0.00000065
-0.50727087 0.17822319 0.00000100
-0.67909116 -0.22802234 -0.00000056
-0.68802273 -0.63507235 -0.00000038
-0.72138900 0.06850256 -0.00000121
-0.09684121 -0.15873702 0.00000240
-0.07073515 -0.49289605 0.00000115
-0.07085118 0.20615543 -0.00000544
-0.21832615 0.26372379 -0.00000014
-0.37000343 0.18148476 0.00000247
-0.07374878 -0.34154314 0.00000172
-0.34959188 -0.43597206 0.00000137
-0.26758587 -0.22300655 0.00000216
-0.61914885 -0.14987566 0.00000003
-0.00182215 -0.05715949 0.00000279
-0.53020060 -0.05303685 0.00000091
-0.47972372 0.15350971 0.00000131
-0.58284456 -0.29175004 0.00000051
-0.32510614 -0.35511541 0.00000167
-0.16879053 0.34218752 0.00000028
-0.05317018 0.39188156 -0.00000174
-0.13131264 0.63048351 0.00000471
-0.40029070 -0.70124555 0.00000037
-0.20619167 0.08537761 -0.00000448
-0.04164320 0.12774830 -0.00000799
-0.14131179 0.38878834 0.00000059
-0.75683087 -0.35656321 -0.00000111
-0.02224937 0.15091513 -0.00000800
-0.68354106 -0.66332781 0.12142540
-0.10685949 -0.47877631 0.00000120
-0.52361536 -0.06117850 0.00000099
-0.01226226 -0.56042516 0.00000092
-0.01844211 -0.00666409 0.00000298
-0.39871609 0.08157114 0.00000223
-0.29536793 -0.75440085 0.00000017
-0.51311618 -0.00286771 0.00000106
-0.09856332 -0.44651142 0.00000133
-0.07607254 -0.48951018 0.00000116
-0.51173741 0.15994911 0.00000097
-0.00811066 -0.44286934 0.00000134
-0.71288151 -0.44258165 -0.00000077
-0.34614775 -0.18594451 0.00000230
-0.16805761 0.18612336 -0.00000325
-0.02699300 0.25741288 -0.00000548
-0.29385561 -0.59865898 0.00000076
-0.13645251 0.22642165 -0.00000320
-0.01685838 -0.04915152 0.00000284
-0.41953388 -0.04202055 0.00000209
-0.05356385 0.39290506 -0.00000170
-0.62697440 -0.73021060 0.00000026
-0.58260810 -0.61432415 0.00000070
-0.73889947 -0.21930036 -0.00000120
-0.14473107 -0.26500013 0.00000201
-0.53363770 -0.13240267 0.00000093
-0.77401608 0.02206354 -0.00000170
-0.29080045 -0.19398500 0.00000227
-0.59968084 0.06996153 0.00000009
-0.74656558 -0.26090780 -0.00000126
-0.19942285 0.10360912 -0.00000425
-0.16305815 -0.27462435 0.00000197
-0.38020894 -0.72743183 0.00000027
-0.79808778 -0.50943911 -0.00000073
-0.43606406 -0.41069061 0.00000146
-0.75055885 -0.79641062 -0.00000001
-0.51907349 -0.20410669 0.00000113
-0.08938180 0.65456563 0.00000514
-0.29495621 0.12977076 0.00000330
-0.30998075 -0.35312653 0.00000168
-0.46915045 -0.70489746 0.00000036
-0.14162178 0.58420324 0.00000463
-0.21427244 0.22349736 -0.00000115
-0.00168561 -0.16954984 0.00000237
-0.63011384 -0.45826674 0.00000012
-0.54722309 0.01226608 0.00000069
-0.20522687 -0.47504291 0.00000122
-0.05989966 -0.31444070 0.00000182
-0.39333111 -0.13407679 0.00000243
-0.71947831 -0.38307592 -0.00000088
-0.01519175 -0.14395277 0.00000248
-0.03775649 0.75993687 0.00000564
-0.22097550 -0.74154580 0.00000022
-0.02021705 0.56718737 0.00000131
-0.11655461 0.30155179 -0.00000205
-0.30453447 0.48554629 0.00000296
-0.79647720 -0.75973243 -0.00000010
-0.20909443 0.20742926 -0.00000165
-0.45867446 -0.48736283 0.00000117
-0.07367058 -0.12326409 0.00000254
-0.73486984 -0.18259436 -0.00000118
-0.57465798 -0.00719519 0.00000041
-0.08773679 -0.23627990 0.00000211
-0.08955258 0.04169832 -0.00000863
-0.04431293 0.58651304 0.00000240
-0.05090102 -0.22525239 0.00000216
-0.57253212 0.08295114 0.00000037
-0.31824821 -0.69226944 0.00000040
-0.10695492 0.08812248 -0.00000711
-0.28129399 0.45551616 0.00000323
-0.30522412 -0.63967818 0.00000060
-0.44586107 -0.18889913 0.00000190
-0.09725604 -0.72367847 0.00000029
-0.61807132 -0.54701221 0.00000031
-0.27595505 0.32383758 0.00000337
-0.50890863 -0.39594564 0.00000137
-0.33030269 -0.46730906 0.00000125
-0.16645212 -0.48846269 0.00000117
-0.04289104 0.70072466 0.00000561
-0.41224146 -0.74514419 0.00000021
-0.01536492 -0.66254467 0.00000052
-0.33052573 -0.76208937 0.00000014
-0.64425951 -0.02738491 -0.00000032
-0.67088103 -0.66015828 -0.00000018
-0.01734628 0.50078642 -0.00000026
-0.18678004 0.50503200 0.00000420
-0.69138747 0.04049355 -0.00000087
-0.31985083 -0.47307464 0.00000123
-0.56883383 -0.44197899 0.00000076
-0.12965348 -0.42747852 0.00000140
-0.46457940 0.30985528 0.00000137
-0.26919898 0.09612761 -0.00000253
-0.01981819 -0.07438278 0.00000275
-0.34888214 0.11307369 0.00000274
-0.07465946 -0.62505925 0.00000066
-0.66563994 0.00838387 -0.00000057
-0.39096296 -0.38019839 0.00000157
-0.66031003 -0.51350611 -0.00000017
-0.63546300 -0.01593716 -0.00000023
-0.28276891 -0.10666680 0.00000260
-0.35149747 -0.21826991 0.00000218
-0.59291685 0.18664350 0.00000008
-0.64888728 0.11469526 -0.00000046
-0.03674887 -0.46535841 0.00000131
-0.35757247 -0.54309297 0.00000096
-0.04418179 0.09722479 -0.00000861
-0.11579601 -0.36203557 0.00000164
-0.44213721 -0.36955240 0.00000161
-0.20197684 -0.11441792 0.00000257
-0.73228896 -0.12600163 -0.00000119
-0.05203813 0.30620319 -0.00000370
-0.45001966 -0.65199471 0.00000056
-0.13657387 -0.62073058 0.00000067
-0.20752382 -0.42004243 0.00000142
-0.00991433 -0.42209539 0.00000143
-0.13735917 -0.64179856 0.00000059
-0.59700435 0.19883643 0.00000007
-0.23470023 0.30661783 0.00000383
-0.06104419 -0.16977648 0.00000236
-0.54880166 -0.73702353 0.00000024
-0.59123081 -0.11474405 0.00000030
-0.50760567 -0.26020950 0.00000129
-0.47593933 -0.44282103 0.00000134
-0.06740125 0.09868718 -0.00000795
-0.39775339 -0.71329570 0.00000033
-0.23252402 -0.14688183 0.00000245
-0.70537907 -0.34796625 -0.00000076
-0.20041676 -0.46109012 0.00000127
-0.16097325 0.20760824 -0.00000296
-0.20655532 -0.11206683 0.00000258
-0.35016048 0.35548735 0.00000256
-0.62794000 -0.62070251 0.00000025
-0.24554908 -0.27381656 0.00000197
-0.61273813 -0.01985510 0.00000001
-0.40403542 0.14558540 0.00000213
-0.29716140 0.15976225 0.00000326
-0.53906894 -0.09752551 0.00000085
-0.75928628 -0.49486411 -0.00000076
-0.68692523 -0.37700474 -0.00000054
-0.26983815 -0.28427076 0.00000193
-0.14409983 -0.26758713 0.00000200
-0.07406207 0.58832562 0.00000325
-0.45901388 0.28127801 0.00000145
-0.18727946 -0.31907076 0.00000180
-0.33217949 -0.38627663 0.00000155
-0.56372643 -0.66087443 0.00000052
-0.01671096 0.26615781 -0.00000556
-0.43773088 -0.07461937 0.00000192
-0.55419743 -0.41621310 0.00000090
-0.51112890 -0.62778515 0.00000065
-0.00495074 0.54092473 0.00000031
-0.46775764 -0.03472107 0.00000157
-0.60998482 -0.67128712 0.00000048
-0.42090231 -0.65400767 0.00000055
-0.13637768 0.20423426 -0.00000370
-0.23514280 0.07292908 -0.00000397
-0.39956862 -0.52650809 0.00000103
-0.66518819 -0.29523334 -0.00000036
-0.02325733 -0.39637598 0.00000155
-0.21270716 -0.36498845 0.00000163
-0.12502925 -0.57318783 0.00000085
-0.18533765 0.46340799 0.00000425
-0.21567176 -0.66495091 0.00000051
-0.14849710 0.16359650 -0.00000429
-0.44904959 0.16510554 0.00000163
-0.53891683 -0.14995436 0.00000089
-0.27248284 -0.75400275 0.00000017
-0.53243524 -0.47629726 0.00000117
-0.69436365 -0.05748783 -0.00000083
-0.19329114 0.60476422 0.00000408
-0.28153384 0.26606861 0.00000335
-0.44642928 -0.41050526 0.00000146
-0.15904228 0.46657035 0.00000453
-0.72069371 -0.79117292 0.09663882
-0.46913031 -0.16177124 0.00000164
-0.04046859 -0.70366132 0.00000042
-0.76195085 -0.23827760 -0.00000140
-0.27461231 0.35128278 0.00000337
-0.32664752 0.15892558 0.00000294
-0.09942239 0.37791720 -0.00000080
-0.01827191 0.13030627 -0.00000857
-0.00996009 0.32188103 -0.00000449
-0.64408326 0.06165962 -0.00000038
-0.64884895 -0.47849101 -0.00000007
-0.63153553 0.12766652 -0.00000029
-0.68112868 -0.09378367 -0.00000067
-0.71694165 -0.17784353 -0.00000099
-0.76184720 -0.75588042 -0.00000011
-0.01832867 -0.49706346 0.00000116
-0.56886256 -0.52072859 0.00000081
-0.36030152 -0.74186379 0.00000022
-0.11231782 -0.09774557 0.00000263
-0.01322342 -0.39528024 0.00000152
-0.44094214 0.35123003 0.00000160
-0.02152493 0.25101352 -0.00000577
-0.24341112 -0.34436446 0.00000171
-0.40553096 -0.54297137 0.00000096
-0.55235118 -0.64679283 0.00000057
-0.59978795 -0.01903273 0.00000015
-0.02314522 0.57802826 0.00000163
-0.34286231 0.39795974 0.00000261
-0.52567065 0.16989318 0.00000081
-0.61061156 -0.36782393 0.00000027
-0.04136565 0.32472402 -0.00000357
-0.48115140 -0.23880427 0.00000156
-0.03352386 -0.22368863 0.00000221
-0.10839863 -0.63928747 0.00000060
-0.09695765 -0.53717250 0.00000099
-0.23689999 -0.18435740 0.00000231
-0.76319450 -0.59523296 -0.00000051
-0.29528829 0.25145200 0.00000322
-0.47660562 -0.71372473 0.00000032
-0.79154962 -0.56213170 -0.00000059
-0.47652793 0.24461018 0.00000129
-0.78139633 -0.79601687 -0.00000001
-0.28818315 0.44164500 0.00000317
-0.23088804 -0.17646559 0.00000234
-0.35546723 -0.19743007 0.00000226
-0.05300597 -0.30883393 0.00000184
-0.34428090 -0.74675691 0.00000020
-0.73658675 -0.69827455 -0.00000025
-0.55341494 -0.09428947 0.00000069
-0.29157975 -0.45303506 0.00000130
-0.23045219 -0.73455423 0.00000025
-0.47601718 -0.79795164 0.00000001
-0.10694764 0.30398524 -0.00000226
-0.07071428 -0.54769826 0.00000095
-0.51286352 -0.34263882 0.00000129
-0.09552319 0.68244016 0.00000506
-0.10714175 0.07119564 -0.00000749
-0.40961576 -0.34360012 0.00000171
-0.13851845 -0.53113914 0.00000101
-0.06356623 0.21110870 -0.00000552
-0.03180794 0.30379578 -0.00000430
-0.70359141 -0.35666701 -0.00000073
-0.50746983 -0.16826963 0.00000123
-0.42629930 -0.24627253 0.00000208
-0.02396275 -0.42309934 0.00000141
-0.52358967 -0.44157034 0.00000124
-0.01245808 0.56151980 0.00000097
-0.76146322 -0.64523578 -0.00000039
-0.27482992 0.11501385 -0.00000195
-0.64514154 -0.63957942 0.00000008
-0.25762916 0.41101933 0.00000351
-0.77375329 -0.15680549 -0.00000161
-0.06228990 0.14977725 -0.00000694
-0.76102769 -0.07646936 -0.00000153
-0.79427147 -0.19007573 -0.00000152
-0.43225604 -0.22552580 0.00000207
-0.76891452 -0.53354776 -0.00000067
-0.27586961 -0.40822601 0.00000147
-0.13501993 -0.38024127 0.00000157
-0.68759143 0.08762143 -0.00000086
-0.20424794 -0.36387840 0.00000164
-0.24869785 0.31252545 0.00000367
-0.38426200 0.24811336 0.00000227
-0.57274681 -0.00931060 0.00000043
-0.43935287 0.18035311 0.00000173
-0.78673744 -0.26369846 -0.00000134
-0.65152007 -0.66176969 0.00000003
-0.44467050 0.28735456 0.00000160
-0.45810911 -0.77105743 0.00000011
-0.27934760 -0.43450537 0.00000137
-0.38229164 0.38410723 0.00000220
-0.02276961 -0.32437241 0.00000178
-0.49991879 -0.72990274 0.00000026
-0.26700023 0.21470900 0.00000354
-0.16729447 -0.01659143 0.00000294
-0.57817709 -0.25328618 0.00000054
-0.17845996 0.33480942 0.00000038
-0.51538354 0.13666891 0.00000095
-0.47610897 -0.43668112 0.00000136
-0.43489569 -0.67266119 0.00000048
-0.02983890 -0.12343428 0.00000258
-0.51848733 -0.70771223 0.00000035
-0.19839710 -0.52859068 0.00000102
-0.27773735 0.27635178 0.00000339
-0.06300822 0.37199980 -0.00000192
-0.70470738 -0.29858267 -0.00000078
-0.71377343 -0.70797390 -0.00000023
-0.16110416 -0.23471174 0.00000212
-0.29609019 -0.25920719 0.00000203
-0.25553393 -0.63477141 0.00000062
-0.69323009 -0.07345648 -0.00000081
-0.15190499 -0.19942188 0.00000225
-0.37194681 0.08814763 0.00000251
-0.04994791 0.13825999 -0.00000753
-0.37087506 -0.74282658 0.00000021
-0.70518470 -0.26864076 -0.00000081
-0.45447767 -0.76223296 0.00000014
-0.52712876 -0.32865798 0.00000113
-0.20416528 0.46545619 0.00000405
-0.12206345 -0.55460250 0.00000092
-0.60732353 -0.06868980 0.00000010
-0.23257384 -0.53087509 0.00000101
-0.34010848 -0.73525792 0.00000024
-0.62312639 -0.47485918 0.00000021
-0.52579063 0.08784412 0.00000087
-0.03209175 -0.36027300 0.00000165
-0.18576500 0.23214254 -0.00000173
-0.74712849 -0.20212966 -0.00000130
-0.77566797 -0.37121537 -0.00000107
-0.35429382 -0.42568561 0.00000140
-0.47414532 -0.69461626 0.00000040
-0.39284095 -0.74405593 0.00000021
-0.53261667 -0.55537540 0.00000092
-0.55211383 -0.42944738 0.00000093
-0.45284408 -0.08118952 0.00000176
-0.16370361 -0.78297007 0.00000006
-0.75232035 -0.43945467 -0.00000090
-0.19222321 0.13939603 -0.00000364
-0.28720179 -0.76972032 0.00000011
-0.30542320 -0.57809228 0.00000083
-0.36655208 0.00618646 0.00000262
-0.16793834 0.08351236 -0.00000556
-0.24908863 -0.11251180 0.00000258
-0.15624566 0.20554994 -0.00000313
-0.29479557 -0.15973124 0.00000240
-0.28545311 -0.15544136 0.00000242
-0.16576508 -0.68940288 0.00000041
-0.48340976 -0.07065394 0.00000143
-0.40567920 -0.06273768 0.00000225
-0.01888867 0.29953974 -0.00000475
-0.05102215 0.59101641 0.00000268
-0.79860771 -0.66414720 -0.00000034
-0.08546210 -0.16976514 0.00000236
-0.13783602 -0.68315816 0.00000044
-0.66483682 -0.67894042 -0.00000010
-0.60687244 -0.52647454 0.00000041
-0.19712213 0.29226944 -0.00000007
-0.33700392 -0.55549961 0.00000092
-0.71129256 -0.77821463 0.09031208
-0.05995709 0.54531789 0.00000190
-0.32716238 -0.18653961 0.00000230
-0.63443178 -0.28869668 -0.00000004
-0.13132387 -0.22565283 0.00000215
-0.63577968 -0.60540819 0.00000016
-0.18938915 -0.69177860 0.00000041
-0.15953536 0.26206437 -0.00000177
-0.41825923 -0.63717651 0.00000061
-0.12180571 0.44991627 0.00000143
-0.32153931 -0.71837956 0.00000031
-0.18148643 -0.78524238 0.00000006
-0.17229338 0.62618732 0.00000429
-0.23424962 0.18974358 -0.00000137
-0.34047452 -0.24768099 0.00000207
-0.14095621 0.42282286 0.00000134
-0.15866864 0.60830528 0.00000444
-0.15519729 0.50701904 0.00000454
-0.24973878 0.01282830 -0.00000493
-0.75303608 -0.30561829 -0.00000124
-0.66298866 -0.75471514 -0.00000003
-0.37268877 -0.57379782 0.00000085
-0.73010284 -0.76800412 0.12644961
-0.24346602 0.12981984 -0.00000247
-0.34061375 0.10468180 0.00000283
-0.07484520 0.67086953 0.00000529
-0.20070124 -0.75506163 0.00000017
-0.23790878 -0.55289406 0.00000093
-0.01338491 -0.58854043 0.00000079
-0.37210354 0.14673756 0.00000247
-0.46941581 -0.51821446 0.00000106
-0.32758346 0.19622587 0.00000291
-0.11059320 -0.40959278 0.00000146
-0.11542325 -0.25688410 0.00000204
-0.18952022 -0.55522788 0.00000092
-0.59974778 -0.69351208 0.00000040
-0.39730963 -0.75061232 0.00000019
-0.02926920 -0.03673097 0.00000286
-0.71362501 -0.73054343 -0.00000017
-0.57144523 -0.26443183 0.00000062
-0.65175754 -0.39643353 -0.00000015
-0.17633089 -0.15461393 0.00000242
-0.24236512 0.41219974 0.00000367
-0.61349332 -0.36425909 0.00000023
-0.48745191 0.19890960 0.00000120
-0.31064188 -0.14080507 0.00000247
-0.41583389 -0.45436895 0.00000130
-0.12377437 -0.32710367 0.00000177
-0.31995490 -0.21134131 0.00000221
-0.71917868 -0.62653321 -0.00000043
-0.78916508 0.00542567 -0.00000189
-0.63882518 -0.48444697 0.00000004
-0.01542994 -0.72950190 0.00000029
-0.10765058 -0.47241911 0.00000123
-0.00327425 -0.06571416 0.00000275
-0.12216427 -0.42256725 0.00000142
-0.09166285 -0.16075692 0.00000240
-0.15885957 -0.67034543 0.00000049
-0.04117210 -0.10926537 0.00000259
-0.04823458 0.22854707 -0.00000555
-0.38698074 0.06089366 0.00000237
-0.38617885 0.17954840 0.00000230
-0.73590559 -0.67475027 -0.00000031
-0.49653834 0.07644248 0.00000119
-0.26795158 -0.50565207 0.00000110
-0.58310461 -0.72730994 0.00000027
-0.01024268 0.60832793 0.00000197
-0.14255267 -0.52777326 0.00000102
-0.62480515 -0.62762362 0.00000029
-0.16537078 -0.01472347 0.00000294
-0.16563122 0.32736397 -0.00000014
-0.45406464 -0.18339720 0.00000181
-0.21227892 -0.78807855 0.00000004
-0.10159326 0.20048445 -0.00000473
-0.01425712 0.63617986 0.00000270
-0.01272478 -0.77451426 0.00000010
-0.67875987 -0.69358414 0.09426876
-0.03063234 0.47794729 -0.00000041
-0.17053860 -0.37495998 0.00000159
-0.07464566 -0.57115644 0.00000086
-0.69317991 -0.72088629 0.09914839
-0.45275635 -0.44075429 0.00000135
-0.29617408 0.32520902 0.00000316
-0.15420727 -0.70513701 0.00000036
-0.03658880 0.69596070 0.00000465
-0.62697297 0.07580029 -0.00000020
-0.41403937 -0.39090192 0.00000153
-0.65127391 -0.14031745 -0.00000032
-0.32177329 -0.70380163 0.00000036
-0.18510722 -0.24265283 0.00000209
-0.58937693 -0.31843585 0.00000046
-0.29063714 0.11253113 0.00000336
-0.02200647 -0.08334144 0.00000272
-0.00489318 -0.45460787 0.00000130
-0.43825752 -0.04842397 0.00000189
-0.70202321 -0.31225169 -0.00000075
-0.07462368 0.14360496 -0.00000674
-0.35046467 -0.39214346 0.00000153
-0.07916502 0.36616915 -0.00000161
-0.25768459 0.23272619 0.00000363
-0.29945585 -0.12690438 0.00000252
-0.03451207 -0.71854073 0.00000031
-0.71846569 -0.24781471 -0.00000096
-0.70630652 -0.08386349 -0.00000094
-0.56554401 -0.06534352 0.00000055
-0.11858307 0.63869113 0.00000484
-0.01668624 -0.13162327 0.00000253
-0.73138285 -0.68889123 -0.00000028
-0.66025126 -0.77073151 0.00000001
-0.73676085 -0.55091155 -0.00000062
-0.68156266 0.06738688 -0.00000078
-0.62185848 -0.19829102 0.00000003
-0.52754891 -0.62549472 0.00000065
-0.47135621 -0.67434502 0.00000047
-0.39569262 0.24135767 0.00000215
-0.05755537 0.30665493 -0.00000354
-0.33024395 -0.76933295 0.00000012
-0.02036505 -0.39583445 0.00000155
-0.00939022 -0.77025038 0.00000013
-0.64843762 -0.14817575 -0.00000028
-0.12687410 -0.00605142 0.00000298
-0.61287397 -0.65213555 0.00000043
-0.03787796 -0.24364746 0.00000209
-0.76911193 -0.26243752 -0.00000134
-0.53615516 -0.51370609 0.00000107
-0.33791217 -0.72362268 0.00000029
-0.68806684 -0.75409722 0.06955167
-0.53846359 -0.62906986 0.00000064
-0.19605455 0.03911597 -0.00000580
-0.48836082 -0.28257760 0.00000151
-0.39993551 -0.38024282 0.00000157
-0.75738925 -0.74614990 -0.00000013
-0.37050837 -0.63826722 0.00000061
-0.24505106 0.33740214 0.00000370
-0.35436687 -0.46294883 0.00000126
-0.74206305 -0.21763346 -0.00000124
-0.41269311 0.10662114 0.00000206
-0.21955533 0.24192709 -0.00000059
-0.47818446 0.27833101 0.00000125
-0.19502944 0.52107048 0.00000411
-0.07069419 -0.65130645 0.00000056
-0.22210853 -0.29833230 0.00000188
-0.04930405 -0.56670827 0.00000087
-0.00705100 -0.38976666 0.00000154
-0.03060322 -0.57154208 0.00000090
-0.70981526 -0.35158473 -0.00000080
-0.14897242 0.28928062 -0.00000145
-0.18691073 0.49686825 0.00000421
-0.03921101 0.16084081 -0.00000732
-0.09770921 0.64213240 0.00000506
-0.04359607 -0.01063927 0.00000296
-0.05927051 -0.00472079 0.00000298
-0.58713132 -0.27861145 0.00000046
-0.63841271 -0.72049886 0.00000021
-0.58841401 -0.13341412 0.00000035
-0.35499555 -0.15578045 0.00000242
-0.70918733 -0.33308357 -0.00000081
-0.69974303 -0.25168189 -0.00000076
-0.23957697 0.30333948 0.00000378
-0.44032431 -0.69747519 0.00000038
-0.54258418 -0.58599520 0.00000080
-0.74440008 -0.55312592 -0.00000062
-0.65461677 -0.41454718 -0.00000017
-0.30000731 0.38068846 0.00000308
-0.35819444 -0.42988288 0.00000139
-0.25844082 0.45870826 0.00000347
-0.18137456 -0.70198101 0.00000037
-0.60820419 -0.63837475 0.00000047
-0.68073869 0.00127064 -0.00000073
-0.79182893 -0.76617718 -0.00000008
-0.57840532 -0.56544334 0.00000074
-0.29141721 -0.44718960 0.00000132
-0.57469481 -0.19491369 0.00000053
-0.46299765 -0.17104678 0.00000171
-0.05335650 -0.49904743 0.00000113
-0.43682542 0.17754109 0.00000176
-0.48407194 -0.53200972 0.00000100
-0.70433897 -0.06260176 -0.00000094
-0.34540415 -0.10339719 0.00000261
-0.29691833 -0.12432454 0.00000253
-0.56350696 0.21402691 0.00000038
-0.31434956 -0.15441287 0.00000242
-0.62512130 -0.18549564 -0.00000001
-0.11481398 0.07245205 -0.00000725
-0.18933640 -0.05845079 0.00000278
-0.22807841 0.40758067 0.00000383
-0.57046509 -0.31287760 0.00000066
-0.16537389 0.14677024 -0.00000421
-0.15498029 0.22032236 -0.00000283
-0.10238990 0.39178661 -0.00000040
-0.00906356 -0.11733699 0.00000257
-0.50638407 0.26115134 0.00000096
-0.29603684 -0.10844677 0.00000259
-0.21519826 0.44028321 0.00000394
-0.30465183 -0.35221389 0.00000168
-0.03835663 0.54380113 0.00000128
-0.02711793 0.01673653 -0.00001089
-0.54928225 -0.45494932 0.00000098
-0.09335536 -0.63958728 0.00000060
-0.36217684 0.08273514 0.00000262
-0.58455837 -0.51384145 0.00000064
-0.78143668 -0.73349839 -0.00000017
-0.00496912 -0.17730939 0.00000234
-0.07856343 0.37660977 -0.00000139
-0.38044465 0.18899181 0.00000235
-0.74056500 -0.67083377 -0.00000032
-0.08083719 -0.13793328 0.00000248
-0.49999678 0.14423890 0.00000110
-0.69939339 -0.23376168 -0.00000077
-0.28616601 -0.55884635 0.00000090
-0.03927327 0.52937549 0.00000098
-0.35777247 -0.07937800 0.00000270
-0.54535973 0.17114255 0.00000060
-0.05509930 -0.60766977 0.00000072
-0.76153022 -0.11985285 -0.00000151
-0.74013019 -0.24823707 -0.00000120
-0.23522896 -0.53427547 0.00000100
-0.70211309 -0.63122958 0.17140953
-0.31269899 -0.03667441 0.00000286
-0.02298804 0.74639916 0.00000579
-0.70513713 -0.65563190 -0.00000036
-0.25669420 -0.28119573 0.00000195
-0.28812182 0.50143880 0.00000313
-0.34733304 -0.59340084 0.00000077
-0.41017523 -0.27640566 0.00000196
-0.39484006 -0.02721814 0.00000234
-0.38222587 0.35334417 0.00000222
-0.23655035 0.07284785 -0.00000394
-0.40805221 -0.52409405 0.00000103
-0.79819679 -0.12437742 -0.00000169
-0.38742748 0.23701572 0.00000224
-0.57372481 -0.34687731 0.00000065
-0.01362609 0.54293442 0.00000059
-0.21654344 0.31001842 0.00000402
-0.37621406 0.34513161 0.00000229
-0.75808531 -0.19429497 -0.00000142
-0.04884021 -0.02180270 0.00000292
-0.29926240 0.20164253 0.00000321
-0.77320546 -0.52971494 -0.00000068
-0.71442169 -0.48757702 -0.00000076
-0.20513408 -0.57848829 0.00000083
-0.13090551 0.28973594 -0.00000193
-0.75299847 0.00357827 -0.00000150
-0.14249235 0.26779950 -0.00000210
-0.50863075 -0.54621333 0.00000095
-0.71322709 -0.22198012 -0.00000093
-0.11684674 0.52302861 0.00000494
-0.06551969 0.13410789 -0.00000720
-0.34071484 0.14002264 0.00000281
-0.38440344 0.30618876 0.00000223
-0.20255437 -0.05070778 0.00000281
-0.56401509 -0.51789916 0.00000086
-0.14864998 0.17111687 -0.00000411
-0.31289026 -0.58922035 0.00000079
-0.44895843 -0.37972546 0.00000158
-0.52676898 -0.51552016 0.00000107
-0.22898863 -0.72595203 0.00000028
-0.29361558 -0.22726150 0.00000215
-0.66918832 -0.71336979 -0.00000013
-0.04992073 0.21097603 -0.00000590
-0.48921487 -0.65228164 0.00000055
-0.19803461 0.18708548 -0.00000241
-0.02710213 -0.06865875 0.00000274
-0.75200075 -0.42134410 -0.00000095
-0.25802636 -0.26783371 0.00000200
-0.64839113 -0.21211910 -0.00000024
-0.08604314 -0.23775984 0.00000211
-0.68230844 -0.20350964 -0.00000061
-0.11885475 -0.22013041 0.00000217
-0.00649752 0.55766749 0.00000072
-0.62435770 -0.15637441 -0.00000002
-0.54167372 -0.08211527 0.00000081
-0.19742794 -0.35297671 0.00000168
-0.08831152 0.60143363 0.00000519
-0.69041002 -0.21372934 -0.00000069
-0.05626147 -0.27516338 0.00000197
-0.61210430 -0.03958388 0.00000003
-0.56645727 -0.26670894 0.00000067
-0.72508937 -0.38552922 -0.00000094
-0.08505489 -0.30226392 0.00000187
-0.48854768 0.01524795 0.00000131
-0.05839972 -0.12855382 0.00000252
-0.16055971 -0.61718816 0.00000069
-0.69661444 -0.17896868 -0.00000078
-0.13808854 -0.65025270 0.00000056
-0.35405105 -0.00770157 0.00000276
-0.42037711 0.13097255 0.00000196
-0.32136399 -0.15266959 0.00000243
-0.54848921 -0.49742767 0.00000102
-0.16446456 0.52364004 0.00000443
-0.21734811 -0.31541410 0.00000182
-0.51890004 -0.05023007 0.00000103
-0.39085183 -0.17745963 0.00000233
-0.05773612 -0.37414435 0.00000160
-0.35332707 0.04773662 0.00000273
-0.49656290 -0.63626575 0.00000061
-0.22997347 -0.44894665 0.00000132
-0.44719413 0.34056661 0.00000154
-0.36880270 -0.65833527 0.00000053
-0.35068291 -0.18759181 0.00000230
-0.69975215 -0.59997237 -0.00000050
-0.24007650 -0.39917421 0.00000150
-0.12563722 -0.19028798 0.00000229
-0.29529983 0.42282122 0.00000310
-0.18213020 0.46437410 0.00000428
-0.70653546 -0.18466029 -0.00000088
-0.21723337 0.28444853 0.00000403
-0.62637520 -0.67976290 0.00000031
-0.45664266 0.11190463 0.00000159
-0.75712579 -0.11979290 -0.00000146
-0.62457561 -0.15696490 -0.00000002
-0.03607698 -0.44992179 0.00000131
-0.05408469 -0.25217679 0.00000205
-0.52655482 -0.36412010 0.00000116
-0.19628870 -0.49511766 0.00000114
-0.59606147 -0.58876300 0.00000057
-0.58340281 -0.41409230 0.00000059
-0.35575974 0.15472534 0.00000264
-0.33086464 -0.06731115 0.00000275
-0.70864773 -0.73272222 -0.00000017
-0.06607172 0.05426203 -0.00000898
-0.10536119 0.21598420 -0.00000428
-0.23384392 -0.06772790 0.00000275
-0.75028551 -0.78424293 -0.00000004
-0.20439509 -0.38394836 0.00000156
-0.76884919 -0.60257369 -0.00000049
-0.29636991 -0.43518758 0.00000137
-0.68538171 -0.44150856 -0.00000048
-0.56488425 -0.03838759 0.00000053
-0.34465432 0.11613107 0.00000278
-0.47107419 0.14347045 0.00000141
-0.77504140 -0.13825850 -0.00000164
-0.22200334 -0.09596389 0.00000264
-0.11869823 -0.40987289 0.00000146
-0.76787007 -0.64957172 -0.00000038
-0.30054173 -0.75102293 0.00000018
-0.07511574 -0.01028778 0.00000296
-0.64877021 0.08910437 -0.00000045
-0.41910106 -0.14070465 0.00000216
-0.29278311 0.16193394 0.00000330
-0.14652404 0.10054160 -0.00000576
-0.07451925 -0.01204450 0.00000295
-0.08460821 -0.77666193 0.00000009
-0.02155978 0.39987299 -0.00000242
-0.45663387 -0.30431491 0.00000186
-0.38306862 0.38391972 0.00000219
-0.01563811 0.63268924 0.00000266
-0.52039516 -0.05766554 0.00000102
-0.49532384 -0.60755908 0.00000072
-0.09400801 0.70272171 0.00000506
-0.42589954 -0.29435512 0.00000190
-0.05468523 -0.47166100 0.00000123
-0.70319343 -0.23079780 -0.00000081
-0.00715706 -0.17713234 0.00000235
-0.79791403 -0.53185177 -0.00000067
-0.38715780 0.17150453 0.00000229
-0.03098503 -0.55991268 0.00000090
-0.03485387 -0.10439049 0.00000261
-0.63491970 -0.68317968 0.00000022
-0.76623189 -0.18690854 -0.00000151
-0.00174845 -0.05556668 0.00000279
-0.08258368 -0.23490861 0.00000212
-0.54650283 -0.51841646 0.00000105
-0.61528575 -0.02285818 -0.00000001
-0.51692623 -0.42520460 0.00000130
-0.53897160 -0.07543915 0.00000084
-0.63413954 -0.33602348 -0.00000001
-0.77992481 -0.50111991 -0.00000075
-0.32823998 -0.62877709 0.00000064
-0.07777301 0.41596600 -0.00000053
-0.14786942 -0.40648180 0.00000148
-0.31368184 -0.04645688 0.00000283
-0.04459373 0.53034800 0.00000114
-0.23866311 -0.11507571 0.00000257
-0.26141664 0.19753663 0.00000361
-0.14234871 -0.74305981 0.00000021
-0.48961768 -0.29572526 0.00000151
-0.05772507 -0.52418858 0.00000103
-0.32325447 -0.51342058 0.00000107
-0.48022935 -0.25838214 0.00000158
-0.29123107 -0.05069987 0.00000281
-0.27246070 0.33703870 0.00000340
-0.70034426 -0.01684996 -0.00000093
-0.79826260 -0.54644442 -0.00000063
-0.22277451 -0.04053851 0.00000285
-0.63564587 -0.53425473 0.00000011
-0.44708794 -0.19219340 0.00000189
-0.71359849 -0.28218696 -0.00000089
-0.51795959 -0.05512417 0.00000105
-0.09043809 0.30730781 -0.00000263
-0.55049986 0.08036462 0.00000061
-0.52412736 -0.29722866 0.00000114
-0.23485363 -0.77117336 0.00000011
-0.47956872 -0.04282868 0.00000145
-0.44692555 0.03249479 0.00000175
-0.20505078 0.56677151 0.00000397
-0.56486064 -0.21643442 0.00000065
-0.01254126 0.43437639 -0.00000189
-0.74042898 -0.61354905 -0.00000047
-0.41614392 0.16044131 0.00000199
-0.05159946 0.59190601 0.00000272
-0.05236215 -0.59093153 0.00000078
-0.35856810 -0.72793287 0.00000027
-0.23342276 -0.04188580 0.00000284
-0.21678393 -0.44983003 0.00000131
-0.58864939 -0.73885638 0.00000023
-0.54972738 0.17908779 0.00000055
-0.48371398 -0.54302460 0.00000096
-0.51689869 -0.52501291 0.00000103
-0.31633288 0.47335532 0.00000284
-0.29717252 -0.03731716 0.00000286
-0.74380541 -0.35871455 -0.00000110
-0.64952618 -0.33426461 -0.00000017
-0.09870741 0.47961789 0.00000147
-0.77071679 -0.21354935 -0.00000147
-0.07892546 0.63035005 0.00000527
-0.36474112 -0.70031846 0.00000037
-0.10440191 -0.35840133 0.00000166
-0.52964407 -0.07706325 0.00000094
-0.04056431 -0.60005742 0.00000075
-0.50339448 -0.17660862 0.00000128
-0.22279073 -0.13227129 0.00000250
-0.39284477 -0.19026747 0.00000229
-0.61071455 -0.30286157 0.00000022
-0.41712245 0.02884599 0.00000207
-0.10569129 0.57896465 0.00000502
-0.55146044 -0.10960511 0.00000073
-0.68077308 -0.71200490 -0.00000022
-0.41760412 -0.68050694 0.00000045
-0.66549981 -0.12692127 -0.00000048
-0.29695597 -0.27876821 0.00000195
-0.39108363 -0.08721778 0.00000242
-0.24147587 0.35599577 0.00000372
-0.36800337 -0.57155097 0.00000086
-0.21944363 -0.39172336 0.00000153
-0.28881136 0.10535923 0.00000338
-0.33276683 -0.08559100 0.00000268
-0.61416125 -0.13291867 0.00000007
-0.37558466 0.05530397 0.00000249
-0.45038450 -0.50754422 0.00000110
-0.50513059 0.14659292 0.00000105
-0.00276617 -0.50724769 0.00000110
-0.56314957 0.08844319 0.00000047
-0.26714668 0.53005356 0.00000333
-0.02209395 0.53506732 0.00000064
-0.29052106 -0.22971748 0.00000214
-0.28220123 0.39381671 0.00000326
-0.05623982 -0.07965519 0.00000270
-0.23573293 0.43226543 0.00000373
-0.28826025 0.24485964 0.00000330
-0.07686594 -0.58386904 0.00000081
-0.31729200 -0.22878698 0.00000214
-0.00072609 -0.65081221 0.00000056
-0.41345719 -0.03114056 0.00000215
-0.27474755 0.11484807 -0.00000195
-0.50792950 -0.34426460 0.00000135
-0.08756127 -0.35583398 0.00000167
-0.42315874 0.17247495 0.00000191
-0.04038498 0.01795120 -0.00001050
-0.05762206 0.47483516 0.00000025
-0.02238348 -0.57903266 0.00000083
-0.75243247 -0.48263523 -0.00000079
-0.75005740 -0.66776365 -0.00000033
-0.17584594 -0.64726311 0.00000057
-0.22554061 -0.56856632 0.00000087
-0.57897431 -0.15517703 0.00000046
-0.35041258 0.00950367 0.00000279
-0.02918275 -0.58447182 0.00000085
-0.12193465 0.42833030 0.00000095
-0.20462555 -0.23416874 0.00000212
-0.09620807 -0.37791580 0.00000158
-0.06235055 0.53792560 0.00000180
-0.73585552 -0.55729109 -0.00000061
-0.24141556 -0.23687686 0.00000211
-0.70985329 -0.25421172 -0.00000087
-0.24769053 -0.37363422 0.00000160
-0.28445759 -0.34600499 0.00000170
-0.76425093 -0.42483312 -0.00000094
-0.45550847 0.10663166 0.00000160
-0.57169765 -0.76811486 0.00000012
-0.59241831 -0.73811889 0.00000023
-0.38803363 -0.39725488 0.00000151
-0.39002702 -0.54139197 0.00000097
-0.76874447 -0.64773202 -0.00000038
-0.13058111 -0.22038133 0.00000217
-0.23828399 0.05069726 -0.00000439
-0.28920600 0.25502998 0.00000328
-0.06289700 0.20339437 -0.00000572
-0.57924366 -0.37863001 0.00000061
-0.65849996 -0.11408051 -0.00000041
-0.49896508 -0.48741215 0.00000117
-0.55992931 -0.73836184 0.00000023
-0.69821495 -0.65617698 0.14908712
-0.42188248 -0.42441386 0.00000141
-0.24595313 -0.63139194 0.00000063
-0.12593685 -0.60060149 0.00000075
-0.01479385 0.38947392 -0.00000283
-0.46190795 -0.77293557 0.00000010
-0.58125466 -0.31004038 0.00000054
-0.01991745 -0.40675086 0.00000150
-0.05409487 -0.25776297 0.00000203
-0.18579467 0.19842029 -0.00000249
-0.56024575 -0.04397042 0.00000059
-0.67709672 -0.78399920 -0.00000004
-0.24185234 -0.74056792 0.00000022
-0.64834905 -0.72075862 0.00000010
-0.17848462 -0.51611108 0.00000106
-0.65949780 -0.09244084 -0.00000044
-0.24321081 -0.56072271 0.00000090
-0.18453583 0.49118266 0.00000424
-0.30647129 -0.18341026 0.00000231
-0.37232736 -0.58362985 0.00000081
-0.51860559 0.20704798 0.00000086
-0.01534873 -0.63228226 0.00000065
-0.54391164 -0.63950688 0.00000060
-0.59337264 -0.22795399 0.00000036
-0.76940149 -0.24354106 -0.00000139
-0.34668896 0.31638944 0.00000262
-0.59756029 -0.26815578 0.00000034
-0.11851010 0.58228725 0.00000488
-0.79115844 -0.25910687 -0.00000135
-0.00336367 -0.11957345 0.00000256
-0.55951917 0.11378769 0.00000049
-0.72453249 -0.30552611 -0.00000099
-0.28341368 0.49969068 0.00000318
-0.46952659 0.21177311 0.00000138
-0.55261308 -0.19517210 0.00000077
-0.68948972 -0.61697263 0.16087253
-0.20465404 0.54427260 0.00000399
-0.55291355 -0.76679903 0.00000012
-0.03697568 -0.20068033 0.00000225
-0.53485328 -0.01364194 0.00000084
-0.30624637 0.35755470 0.00000303
-0.66142547 -0.33578059 -0.00000030
-0.70681387 -0.01611687 -0.00000099
-0.09419090 0.37971559 -0.00000090
-0.11812212 0.14025122 -0.00000564
-0.14234588 -0.55327547 0.00000093
-0.37420511 -0.55248290 0.00000093
-0.45344359 -0.06129808 0.00000174
-0.46066821 -0.37548545 0.00000159
-0.59037852 -0.44167200 0.00000053
-0.46187916 -0.19395021 0.00000174
-0.66481501 0.10187362 -0.00000063
-0.35680813 0.19428243 0.00000260
-0.49320912 -0.16419986 0.00000138
-0.25015876 -0.61879599 0.00000068
-0.39420623 -0.11661910 0.00000241
-0.14787897 -0.31429246 0.00000182
-0.10060389 0.64470154 0.00000503
-0.12519135 0.41861314 0.00000082
-0.37543219 0.35762617 0.00000229
-0.24010684 -0.18817717 0.00000229
-0.44675711 0.20912489 0.00000163
-0.07567476 -0.65857285 0.00000053
-0.72262281 -0.50957280 -0.00000073
-0.35559532 -0.00350199 0.00000274
-0.22328337 0.47886527 0.00000383
-0.56976253 -0.34973615 0.00000069
-0.50137961 -0.39797544 0.00000145
-0.14905953 0.51940030 0.00000460
-0.04699719 0.49244916 0.00000036
-0.36526689 -0.24535587 0.00000208
-0.05085235 -0.30755869 0.00000185
-0.37293860 -0.18934457 0.00000229
-0.19748265 -0.17186989 0.00000236
-0.21866922 0.40710098 0.00000393
-0.14357547 -0.27168533 0.00000198
-0.68065351 -0.18380219 -0.00000060
-0.58518666 -0.41250044 0.00000057
-0.16551450 -0.18949248 0.00000229
-0.04389311 -0.04446348 0.00000283
-0.27057150 -0.19735390 0.00000226
-0.37017968 0.36204147 0.00000234
-0.56207514 -0.39720073 0.00000080
-0.26017264 -0.57661718 0.00000084
-0.18086490 -0.63723916 0.00000061
-0.38291255 -0.74588412 0.00000020
-0.12757345 0.15701833 -0.00000500
-0.42040962 -0.01348359 0.00000206
-0.28101552 0.08350757 -0.00000249
-0.79115695 -0.20600879 -0.00000148
-0.19815551 -0.49424890 0.00000115
-0.57402909 -0.61472780 0.00000069
-0.10616502 -0.27811748 0.00000196
-0.39198953 -0.65694702 0.00000054
-0.04769398 -0.75946534 0.00000015
-0.09272794 0.10619758 -0.00000709
-0.05750619 0.42406046 -0.00000090
-0.00539129 -0.71898746 0.00000030
-0.03714652 -0.52731061 0.00000108
-0.45722911 0.19937830 0.00000152
-0.66385961 -0.72519588 -0.00000006
-0.38792238 -0.49968153 0.00000113
-0.54275918 -0.08574981 0.00000080
-0.48120788 -0.33482710 0.00000163
-0.22243354 -0.73271257 0.00000025
-0.67884618 -0.28897342 -0.00000051
-0.55533510 -0.72113794 0.00000030
-0.73888332 -0.65439832 -0.00000036
-0.22077507 -0.02150138 0.00000292
-0.54815996 -0.38411480 0.00000094
-0.46556318 -0.66246700 0.00000052
-0.44497350 -0.16843425 0.00000190
-0.16579178 0.00789567 -0.00000732
-0.38042855 -0.24965671 0.00000206
-0.29957467 -0.05766365 0.00000278
-0.00862675 -0.10688105 0.00000261
-0.34360075 0.23417465 0.00000271
-0.49927729 -0.52420300 0.00000103
-0.29137689 -0.43532836 0.00000137
-0.23060893 -0.54637086 0.00000095
-0.16201867 0.31951267 -0.00000041
-0.14676800 0.65119976 0.00000453
-0.09813690 -0.75899887 0.00000015
-0.52721834 -0.57645160 0.00000084
-0.29361725 0.19839869 0.00000327
-0.47919568 -0.60116279 0.00000075
-0.09636680 -0.44235021 0.00000134
-0.34914714 0.25314280 0.00000264
-0.52215391 -0.01826742 0.00000098
-0.06831203 0.13528475 -0.00000710
-0.37131456 0.27478126 0.00000239
-0.75979012 -0.63141018 -0.00000042
-0.24868234 -0.47215226 0.00000123
-0.30786449 -0.41349995 0.00000145
-0.29870361 -0.64983183 0.00000056
-0.23656917 -0.43832883 0.00000136
-0.24479786 0.29453063 0.00000373
-0.08231636 0.23553862 -0.00000446
-0.12197926 -0.52596432 0.00000103
-0.30618536 -0.13803469 0.00000248
-0.66255414 -0.70614344 -0.00000006
-0.37815490 -0.12402225 0.00000253
-0.23689149 0.26290175 0.00000383
-0.01374677 0.25101075 -0.00000598
-0.76477337 -0.26299885 -0.00000134
-0.34512198 0.19914989 0.00000272
-0.06275348 0.34798622 -0.00000247
-0.15557332 -0.46495038 0.00000126
-0.61466557 -0.47093102 0.00000029
-0.32477996 -0.34614348 0.00000170
-0.28112555 0.28758708 0.00000334
-0.10096828 0.05143230 -0.00000810
-0.04331352 0.49739760 0.00000037
-0.45470929 -0.65173572 0.00000056
-0.28042990 -0.63995612 0.00000060
-0.64122939 -0.46912605 0.00000001
-0.37691638 0.07544971 0.00000246
-0.10770396 0.61620957 0.00000497
-0.18651730 0.23398884 -0.00000167
-0.36209381 0.02454233 0.00000266
-0.52705568 -0.64109588 0.00000060
-0.09985246 0.36338130 -0.00000111
-0.33141834 -0.58690113 0.00000080
-0.70130134 -0.01381845 -0.00000094
-0.00968946 0.41654250 -0.00000236
-0.01317366 -0.23182230 0.00000213
-0.22743464 -0.73127419 0.00000026
-0.34086895 -0.55346435 0.00000092
-0.13716179 0.07863012 -0.00000651
-0.50633556 -0.49755055 0.00000113
-0.13820782 -0.05345872 0.00000280
-0.15634139 0.13495357 -0.00000472
-0.48145801 -0.33449119 0.00000162
-0.19455019 -0.43015522 0.00000139
-0.20966209 0.12840046 -0.00000342
-0.52605426 -0.13211966 0.00000101
-0.13649657 0.37753153 0.00000020
-0.44879672 0.33665937 0.00000152
-0.79766017 -0.36292288 -0.00000109
-0.55643117 -0.59685934 0.00000076
-0.29188791 -0.34829876 0.00000169
-0.13833171 -0.61417556 0.00000070
-0.14422730 -0.64395195 0.00000059
-0.41175115 -0.56929588 0.00000087
-0.50096828 -0.16608948 0.00000130
-0.00012577 0.76021290 0.00000511
-0.01615477 -0.26853892 0.00000199
-0.66574192 -0.22962320 -0.00000041
-0.53835642 0.07947844 0.00000074
-0.60423994 -0.54528350 0.00000045
-0.54186797 -0.08900150 0.00000081
-0.24891201 -0.76881611 0.00000012
-0.25696507 -0.19520514 0.00000227
-0.03301660 -0.11455140 0.00000257
-0.54152894 -0.19554831 0.00000089
-0.25175074 0.26691812 0.00000367
-0.68199557 -0.22711387 -0.00000059
-0.10015145 0.19361556 -0.00000492
-0.10273433 0.01492841 -0.00000887
-0.47532687 -0.00422948 0.00000147
-0.19972515 0.15616181 -0.00000306
-0.29717368 0.18730415 0.00000324
-0.29200506 -0.78336847 0.00000006
-0.15075289 -0.04504348 0.00000283
-0.02736219 -0.73469651 0.00000029
-0.14311188 -0.65150917 0.00000056
-0.11673720 -0.56891674 0.00000087
-0.01902877 -0.13777006 0.00000251
-0.53464168 -0.18121652 0.00000095
-0.23393686 0.03044462 -0.00000496
-0.49236193 -0.79143405 0.00000003
-0.61510420 -0.74081177 0.00000022
-0.74141049 -0.34920043 -0.00000113
-0.00887193 0.63948148 0.00000263
-0.25636128 -0.47097981 0.00000123
-0.01286789 -0.32822540 0.00000177
-0.26253790 0.09584384 -0.00000271
-0.67963678 -0.47590208 -0.00000040
-0.18641606 0.18004046 -0.00000289
-0.46711296 -0.58779758 0.00000080
-0.53951299 -0.34525508 0.00000101
-0.52109182 -0.67282891 0.00000048
-0.32344714 0.30849871 0.00000288
-0.38196331 -0.54983979 0.00000094
-0.55846065 -0.46520162 0.00000089
-0.55501944 -0.48723179 0.00000094
-0.21858671 -0.77918518 0.00000008
-0.45069492 0.31766018 0.00000151
-0.72065866 -0.18284857 -0.00000103
-0.28236502 -0.26875871 0.00000199
-0.68950593 -0.14542793 -0.00000072
-0.04104060 -0.74706554 0.00000026
-0.61825562 -0.47691169 0.00000026
-0.66433334 -0.64233410 -0.00000012
