ply
format ascii 1.0
element vertex 1161
property float x
property float y
property float z
end_header
-0.22109008 -0.03865467 0.00000143
-0.20841192 -0.42998585 0.00000069
-0.00425554 -0.70437104 0.00000018
-0.07605576 -0.67944282 0.00000023
-0.76440436 -0.76471448 0.05357215
-0.64373350 -0.74155480 0.00000007
-0.29298019 -0.28647861 0.00000096
-0.17316931 -0.58208299 0.00000041
-0.41589627 0.14102639 0.00000070
-0.15600251 -0.32344651 0.00000089
-0.21198048 -0.08090963 0.00000135
-0.42264882 0.26640415 0.00000049
-0.34471607 -0.17266384 0.00000118
-0.72555149 -0.26213920 -0.00000112
-0.49897045 0.03155289 0.00000021
-0.54057944 0.21325262 -0.00000032
-0.42135438 -0.40968689 0.00000073
-0.43386227 -0.09739311 0.00000085
-0.27602330 -0.68971497 0.00000021
-0.55803496 0.04163431 -0.00000024
-0.69517291 -0.47792253 -0.00000063
-0.07197310 -0.73466498 0.00000012
-0.51048368 -0.58506531 0.00000040
-0.71162021 -0.53727752 -0.00000066
-0.09544489 0.27007955 -0.00000434
-0.06663811 0.06724803 -0.00000893
-0.18237919 0.54710895 0.00000195
-0.10694030 -0.76453382 0.00000007
-0.11113506 -0.44909993 0.00000066
-0.44269243 0.13790891 0.00000050
-0.39902249 -0.38897374 0.00000077
-0.48928747 -0.52840406 0.00000051
-0.25394663 0.17647444 -0.00000179
-0.17640662 0.17550372 -0.00000392
-0.26376981 0.27366409 0.00000167
-0.61352342 0.17881402 -0.00000083
-0.48155579 -0.49991658 0.00000056
-0.37282285 -0.73690820 0.00000012
-0.74990934 -0.24438184 -0.00000133
-0.12894315 -0.36805069 0.00000081
-0.78487009 -0.01885571 -0.00000186
-0.15755752 0.33910245 -0.00000136
-0.19742706 0.08862608 -0.00000498
-0.10256021 -0.30577222 0.00000093
-0.43435696 -0.41815770 0.00000072
-0.68469751 -0.38520882 -0.00000067
-0.67181337 -0.58199668 -0.00000033
-0.56410074 -0.57548505 0.00000042
-0.06929736 0.51088166 -0.00000054
-0.26481456 0.02019453 -0.00000443
-0.03331106 -0.50631976 0.00000055
-0.06273453 -0.64085913 0.00000030
-0.01981512 0.16114876 -0.00000844
-0.00412234 -0.11844364 0.00000132
-0.10752211 -0.36149174 0.00000082
-0.11187007 -0.60057443 0.00000037
-0.34999332 -0.19944257 0.00000113
-0.08017362 -0.04505039 0.00000142
-0.24216712 0.09340322 -0.00000367
-0.51160276 -0.77189499 0.00000005
-0.70797431 -0.63814199 -0.00000040
-0.36562607 -0.54878712 0.00000047
-0.39413181 -0.14670165 0.00000121
-0.32123429 -0.76803505 0.00000006
-0.08878708 0.64062345 0.00000253
-0.27223030 -0.61654884 0.00000034
-0.22757323 0.28842160 0.00000192
-0.36827815 0.26887453 0.00000090
-0.01769202 0.45264414 -0.00000303
-0.39622539 -0.22830389 0.00000107
-0.14188363 -0.75481123 0.00000008
-0.01974667 0.59993696 -0.00000021
-0.03747939 0.61838263 0.00000061
-0.19122884 0.37851474 0.00000209
-0.12453656 0.00825526 -0.00000846
-0.77541137 -0.37589169 -0.00000106
-0.42682275 0.28979322 0.00000043
-0.60867637 -0.10265108 -0.00000045
-0.62653780 -0.77727169 0.00000004
-0.05964496 -0.12982589 0.00000126
-0.27930960 -0.34004098 0.00000086
-0.08064212 0.50663245 -0.00000031
-0.76247829 -0.70773149 -0.00000023
-0.49519983 -0.04625788 0.00000033
-0.56005305 -0.79653734 0.00000001
-0.08526728 -0.65551645 0.00000027
-0.48044363 -0.36758274 0.00000081
-0.43106025 -0.16581199 0.00000096
-0.72088236 -0.72483528 -0.00000019
-0.47057712 -0.31292892 0.00000084
-0.68650913 -0.54228276 -0.00000049
-0.75882834 -0.07223667 -0.00000160
-0.57626611 0.00960273 -0.00000034
-0.27528340 0.13367940 -0.00000202
-0.08971356 0.14994608 -0.00000675
-0.54003274 -0.75029665 0.00000009
-0.55494940 -0.50088459 0.00000044
-0.27107462 0.30927354 0.00000157
-0.29470995 -0.57408243 0.00000042
-0.17550783 -0.47775832 0.00000060
-0.15107103 -0.66589761 0.00000025
-0.59483778 -0.12950045 -0.00000031
-0.40087730 -0.30553514 0.00000093
-0.50598675 -0.75749493 0.00000008
-0.01627181 -0.69484687 0.00000020
-0.27298620 -0.36635813 0.00000081
-0.09450614 0.06906257 -0.00000814
-0.70301962 -0.67046744 -0.00000032
-0.24289913 0.52367926 0.00000152
-0.78542972 -0.03980294 -0.00000184
-0.04230327 -0.06163232 0.00000138
-0.39113149 -0.75609672 0.00000008
-0.00047032 0.58528149 -0.00000101
-0.65620899 -0.70573127 -0.00000007
-0.14833072 -0.12423317 0.00000127
-0.03443223 -0.60700691 0.00000036
-0.79567844 -0.51882029 -0.00000070
-0.15247770 -0.23935504 0.00000105
-0.14767759 0.58024085 0.00000216
-0.45232442 -0.23806940 0.00000089
-0.05434059 -0.55292869 0.00000046
-0.39241469 -0.37396941 0.00000080
-0.27184111 -0.46081454 0.00000064
-0.66691959 -0.57809448 -0.00000030
-0.02085777 -0.21524946 0.00000110
-0.47533172 0.12848994 0.00000027
-0.15076295 -0.45105320 0.00000065
-0.31094444 0.44167995 0.00000111
-0.23101717 0.08331315 -0.00000416
-0.06617754 -0.39709803 0.00000076
-0.57588488 -0.46897560 0.00000025
-0.42915887 -0.09459872 0.00000088
-0.45022437 0.20929597 0.00000036
-0.21085055 -0.68637878 0.00000021
-0.23481022 -0.43547872 0.00000068
-0.14992422 -0.65724713 0.00000027
-0.31928864 -0.21869181 0.00000109
-0.15015271 -0.37665266 0.00000079
-0.47920910 -0.38021550 0.00000079
-0.23594879 -0.79188764 0.00000002
-0.31812686 0.00089813 -0.00000334
-0.09735158 -0.37166956 0.00000080
-0.55407876 -0.05012995 -0.00000010
-0.61421543 0.00928158 -0.00000062
-0.38402662 0.37921757 0.00000064
-0.20548528 0.56080312 0.00000176
-0.71679598 -0.35845384 -0.00000094
-0.06683083 0.15913376 -0.00000720
-0.15868147 0.55116540 0.00000212
-0.30331597 0.36594543 0.00000126
-0.29944018 0.14865887 0.00000156
-0.36688799 -0.44732791 0.00000066
-0.38265249 0.02239393 0.00000109
-0.63260901 0.16594028 -0.00000094
-0.59448189 -0.01384260 -0.00000045
-0.33065340 -0.61639726 0.00000034
-0.06171084 0.08170476 -0.00000879
-0.02227885 0.71551061 0.00000202
-0.62715006 0.17221148 -0.00000091
-0.48770615 0.00595315 0.00000033
-0.24247079 -0.76792085 0.00000006
-0.47950414 -0.50132948 0.00000056
-0.25415707 -0.78816569 0.00000002
-0.18495630 -0.48909530 0.00000058
-0.39651051 -0.04281844 0.00000107
-0.37082925 -0.69135690 0.00000020
-0.36606804 -0.46482995 0.00000063
-0.56564415 -0.73881090 0.00000011
-0.41931865 -0.36392179 0.00000082
-0.53129613 -0.37409872 0.00000046
-0.05744738 -0.19810267 0.00000113
-0.09291161 -0.43298110 0.00000069
-0.13119884 0.26585850 -0.00000345
-0.23588516 -0.63334084 0.00000031
-0.00936402 0.38219923 -0.00000458
-0.27409685 0.28304949 0.00000158
-0.16687815 0.26435971 -0.00000251
-0.02037709 -0.39094108 0.00000077
-0.27312666 0.18782052 0.00000171
-0.27693099 0.20320056 0.00000166
-0.38095421 -0.68412805 0.00000022
-0.60201395 -0.35795441 -0.00000009
-0.14072116 -0.13131380 0.00000125
-0.34922522 -0.64712822 0.00000029
-0.02537301 -0.53540981 0.00000050
-0.69483042 -0.27935046 -0.00000087
-0.26248604 0.40865904 0.00000152
-0.45001888 0.12308613 0.00000046
-0.65765554 -0.66009325 -0.00000013
-0.13445869 0.43804312 -0.00000013
-0.44628966 -0.70991111 0.00000017
-0.01345061 0.14901075 -0.00000884
-0.61449134 -0.57347065 0.00000008
-0.19609213 -0.49246588 0.00000058
-0.66005790 -0.11389111 -0.00000082
-0.76065671 -0.37005177 -0.00000107
-0.45808688 -0.02158227 0.00000058
-0.44769621 -0.58903265 0.00000040
-0.04519088 -0.69130188 0.00000020
-0.10790730 -0.34958607 0.00000084
-0.54749244 -0.06059722 -0.00000004
-0.63443506 -0.05312199 -0.00000070
-0.28490496 0.12266125 0.00000170
-0.78122354 -0.44958705 -0.00000088
-0.48982811 0.28414497 -0.00000003
-0.32169181 -0.01367694 0.00000147
-0.73998100 0.00716199 -0.00000156
-0.13688432 0.44062221 -0.00000002
-0.40528801 0.33903018 0.00000053
-0.55847895 -0.01633965 -0.00000018
-0.25780416 -0.08728541 0.00000134
-0.34815902 0.27156031 0.00000104
-0.60321748 -0.69370520 0.00000020
-0.69338644 -0.03380277 -0.00000116
-0.08240860 -0.41530985 0.00000072
-0.01703425 -0.13656032 0.00000124
-0.73311806 -0.79765922 -0.00000001
-0.14110510 0.20260964 -0.00000437
-0.58222997 0.09770717 -0.00000049
-0.02466161 -0.54043680 0.00000049
-0.73133844 -0.13885807 -0.00000132
-0.20177197 0.17609538 -0.00000322
-0.78436190 -0.65670389 -0.00000036
-0.44821936 0.24539600 0.00000033
-0.05598309 -0.78438455 0.00000003
-0.13471232 -0.49956727 0.00000056
-0.23805939 -0.62933111 0.00000032
-0.03561585 -0.52344304 0.00000052
-0.06183781 -0.11066755 0.00000129
-0.13226096 -0.32909107 0.00000088
-0.04787486 -0.02838006 0.00000145
-0.59243882 -0.05714494 -0.00000038
-0.09889624 0.41176042 -0.00000159
-0.51426768 0.23842342 -0.00000016
-0.49065220 0.28534508 -0.00000004
-0.11364326 0.05095465 -0.00000796
-0.69415230 -0.38668218 -0.00000074
-0.26470068 -0.48768541 0.00000059
-0.29589865 -0.58950478 0.00000039
-0.38845715 -0.24269146 0.00000104
-0.77348900 -0.16991326 -0.00000158
-0.33362287 -0.19289558 0.00000114
-0.46617365 -0.63204134 0.00000031
-0.57873833 -0.18508764 -0.00000012
-0.70034552 0.00332325 -0.00000126
-0.20293555 0.16462639 -0.00000340
-0.47151139 -0.50087386 0.00000056
-0.50251365 -0.34646559 0.00000064
-0.53900784 -0.65767473 0.00000027
-0.50240022 -0.47011623 0.00000062
-0.69499701 -0.34739456 -0.00000079
-0.31825683 -0.69288409 0.00000020
-0.09499908 -0.00071607 0.00000150
-0.46037191 -0.49731797 0.00000057
-0.13824771 -0.28632939 0.00000096
-0.07622147 -0.43701273 0.00000068
-0.18995643 -0.10513580 0.00000130
-0.31627524 -0.56770688 0.00000044
-0.56754708 0.21786574 -0.00000053
-0.02228164 -0.16454141 0.00000119
-0.77684140 -0.10081699 -0.00000170
-0.01633115 -0.39561200 0.00000076
-0.36514857 -0.17634824 0.00000117
-0.42555505 -0.43139791 0.00000069
-0.54317719 -0.38477227 0.00000039
-0.00607592 -0.55254817 0.00000046
-0.13287795 -0.44711331 0.00000066
-0.61966312 -0.31262863 -0.00000027
-0.00359648 -0.66691518 0.00000025
-0.49978241 0.13425139 0.00000008
-0.43859762 -0.47581461 0.00000061
-0.60744447 0.04068361 -0.00000061
-0.30435041 0.04986787 -0.00000280
-0.70742762 -0.29800621 -0.00000095
-0.50247389 -0.01338220 0.00000024
-0.26632360 -0.67726296 0.00000023
-0.00124051 0.38468176 -0.00000475
-0.32320586 0.47342134 0.00000098
-0.51301372 -0.54233193 0.00000048
-0.51404965 -0.02943750 0.00000017
-0.54818505 -0.30716285 0.00000026
-0.25736001 0.48112732 0.00000147
-0.54536009 -0.50249559 0.00000051
-0.29905036 -0.77050215 0.00000006
-0.44423974 -0.20401238 0.00000091
-0.51878834 -0.10228880 0.00000022
-0.62531888 -0.54811144 -0.00000003
-0.57195222 -0.63578498 0.00000031
-0.47586498 0.28520101 0.00000007
-0.46117613 -0.66613919 0.00000025
-0.23558193 0.52635241 0.00000157
-0.21187057 -0.71190399 0.00000017
-0.44636360 0.03923989 0.00000059
-0.03879081 -0.79522872 0.00000001
-0.24002521 -0.27181023 0.00000099
-0.13090824 -0.38843995 0.00000077
-0.24476206 -0.62425220 0.00000033
-0.55589807 -0.76854265 0.00000006
-0.41127646 -0.69466746 0.00000020
-0.32312259 0.06539919 0.00000148
-0.24642107 -0.19574887 0.00000113
-0.39602080 -0.34712964 0.00000085
-0.13412751 -0.15783826 0.00000120
-0.36747131 -0.45527402 0.00000065
-0.51126343 -0.76194769 0.00000007
-0.62572461 -0.19971956 -0.00000046
-0.00662645 -0.23067220 0.00000107
-0.10792653 -0.44515672 0.00000067
-0.58315223 -0.15377131 -0.00000019
-0.58870673 -0.40148327 0.00000007
-0.03542280 -0.12930559 0.00000126
-0.69378746 -0.70177138 -0.00000025
-0.39566046 -0.07098192 0.00000111
-0.51803887 0.09651419 -0.00000001
-0.58045626 -0.08308367 -0.00000026
-0.77619171 -0.33160475 -0.00000117
-0.23575453 0.27668440 0.00000188
-0.15002383 -0.49147266 0.00000058
-0.56375569 -0.45030606 0.00000031
-0.63664252 0.08892818 -0.00000089
-0.16869783 0.02240701 -0.00000700
-0.36149195 0.03766539 0.00000123
-0.56191516 -0.36225075 0.00000022
-0.35203195 -0.00218879 0.00000135
-0.00899863 0.62443000 -0.00000005
-0.27308241 0.43654618 0.00000140
-0.58568400 -0.15151177 -0.00000021
-0.39895231 0.02383197 0.00000097
-0.55446261 -0.24784000 0.00000014
-0.24738471 0.49786031 0.00000152
-0.72642839 -0.31157735 -0.00000107
-0.40441111 -0.39593443 0.00000076
-0.33153197 0.31623614 0.00000111
-0.03462430 0.40407571 -0.00000348
-0.22154120 0.36738294 0.00000187
-0.03234802 -0.02735795 0.00000145
-0.25602269 -0.14626832 0.00000123
-0.24505849 -0.04616082 0.00000141
-0.14936882 -0.14417414 0.00000123
-0.67797428 -0.25508258 -0.00000078
-0.30261964 0.00585711 -0.00000367
-0.40595415 -0.62112743 0.00000034
-0.20676941 0.49164024 0.00000183
-0.62315571 0.01239363 -0.00000069
-0.55153024 -0.55799598 0.00000045
-0.15182094 0.27588728 -0.00000270
-0.24871460 -0.54576075 0.00000048
-0.42178315 -0.64125222 0.00000030
-0.01849928 -0.04095259 0.00000142
-0.58534449 -0.74907166 0.00000010
-0.57170057 -0.60916752 0.00000036
-0.00054489 0.74616641 0.00000201
-0.14478032 0.31311160 -0.00000220
-0.64459562 -0.05476511 -0.00000077
-0.58706057 -0.43386224 0.00000012
-0.67535317 -0.15272368 -0.00000088
-0.54826474 0.04742311 -0.00000018
-0.74473137 -0.70923889 -0.00000023
-0.67083800 -0.20061152 -0.00000079
-0.73728442 -0.49173853 -0.00000077
-0.08476778 0.45190418 -0.00000122
-0.42999512 0.22977123 0.00000048
-0.06740541 -0.44476956 0.00000067
-0.32002810 0.30213428 0.00000122
-0.11593430 0.60403788 0.00000237
-0.04171712 0.21411362 -0.00000685
-0.26266682 0.37515426 0.00000156
-0.40364522 0.06838156 0.00000088
-0.16508310 -0.22541994 0.00000108
-0.03118048 0.44664693 -0.00000278
-0.10561953 -0.13007288 0.00000126
-0.48901072 0.08203730 0.00000022
-0.54749668 -0.22997089 0.00000017
-0.16795944 -0.68534666 0.00000021
-0.63183594 -0.46173406 -0.00000018
-0.35609519 0.34325191 0.00000090
-0.03177973 0.08244558 -0.00000959
-0.19730514 -0.00722592 0.00000149
-0.03208268 0.57052666 -0.00000043
-0.54959512 0.00077339 -0.00000013
-0.57294422 -0.62710208 0.00000032
-0.31934148 0.19905294 0.00000135
-0.45727319 -0.44523251 0.00000067
-0.53959829 0.05702379 -0.00000012
-0.62142104 -0.23201627 -0.00000038
-0.03605551 0.36027163 -0.00000427
-0.29182345 -0.40142724 0.00000075
-0.09054548 0.05954492 -0.00000842
-0.39111564 -0.62391615 0.00000033
-0.01696204 -0.40518132 0.00000074
-0.11437544 -0.04257667 0.00000142
-0.11661078 0.50239956 0.00000059
-0.09091084 0.66737646 0.00000248
-0.18659790 -0.79235679 0.00000001
-0.20334540 -0.74428517 0.00000010
-0.20754842 0.00483681 -0.00000627
-0.30250224 -0.77099013 0.00000005
-0.32805112 -0.39743140 0.00000075
-0.49902326 -0.14637682 0.00000043
-0.10007143 -0.08066928 0.00000135
-0.70476335 -0.76974267 -0.00000008
-0.72956675 -0.43359694 -0.00000092
-0.24135222 0.22534110 0.00000190
-0.27250430 -0.62489814 0.00000033
-0.48965126 -0.18183491 0.00000054
-0.57294542 0.16798662 -0.00000051
-0.21906026 0.16974606 -0.00000287
-0.69236380 -0.29956478 -0.00000083
-0.76825762 -0.35848972 -0.00000110
-0.03509772 -0.66712362 0.00000025
-0.34711289 -0.01894438 0.00000141
-0.02189052 -0.57163376 0.00000043
-0.02496555 0.17550565 -0.00000803
-0.17209172 0.10620810 -0.00000533
-0.20831001 0.52302402 0.00000178
-0.13052614 0.66936207 0.00000219
-0.09847342 -0.38066590 0.00000079
-0.74219269 -0.13281149 -0.00000141
-0.49663219 -0.62601656 0.00000033
-0.17313173 0.43724036 0.00000215
-0.02200210 0.35606983 -0.00000473
-0.01405820 0.32751730 -0.00000548
-0.25241718 -0.21022685 0.00000111
-0.35414699 -0.35979015 0.00000083
-0.56991571 -0.24059699 0.00000001
-0.15932420 -0.64136368 0.00000030
-0.14207231 0.02938637 -0.00000759
-0.33041158 -0.29697788 0.00000094
-0.00492921 -0.11181569 0.00000129
-0.08847576 -0.74774921 0.00000010
-0.07441663 0.69864267 0.00000257
-0.50210690 0.04305133 0.00000017
-0.38983226 -0.42572400 0.00000070
-0.48465055 -0.51972628 0.00000053
-0.18844184 -0.06239076 0.00000138
-0.56086558 -0.66182107 0.00000026
-0.42054015 -0.22091366 0.00000109
-0.06159128 0.59787774 0.00000088
-0.05694875 0.59924334 0.00000078
-0.47215942 -0.55709434 0.00000046
-0.71383208 -0.52786565 -0.00000068
-0.08846235 -0.53559291 0.00000050
-0.20390983 -0.62411767 0.00000033
-0.73032659 -0.10554131 -0.00000135
-0.58517390 0.00200436 -0.00000040
-0.09068850 -0.66713542 0.00000025
-0.40939027 -0.39091524 0.00000077
-0.10789186 -0.08638355 0.00000134
-0.55660909 -0.51916277 0.00000045
-0.31996056 0.21608283 0.00000132
-0.45112485 -0.37163004 0.00000080
-0.40010014 0.24175850 0.00000069
-0.49414414 -0.42070010 0.00000071
-0.12392719 0.32883126 -0.00000247
-0.76569253 -0.77635545 -0.00000006
-0.09694132 0.69488525 0.00000240
-0.11650593 0.10455139 -0.00000688
-0.27836046 0.38951075 0.00000142
-0.07733620 0.37153855 -0.00000293
-0.78882158 -0.73174578 -0.00000017
-0.56851453 -0.25601357 0.00000004
-0.20141941 0.27924171 -0.00000129
-0.32834604 0.34486148 0.00000110
-0.45956302 -0.46082267 0.00000064
-0.79650366 -0.24765714 -0.00000138
-0.46256721 0.30623266 0.00000015
-0.10715855 -0.49286377 0.00000058
-0.60650581 -0.01765120 -0.00000053
-0.65020794 -0.65399128 -0.00000008
-0.20043235 -0.07463764 0.00000136
-0.02162669 -0.16049582 0.00000120
-0.54442996 -0.53380346 0.00000050
-0.53794974 -0.10984228 0.00000009
-0.17590104 0.46687183 0.00000209
-0.20230462 -0.17383005 0.00000117
-0.50360245 -0.74634349 0.00000010
-0.02211836 -0.65887278 0.00000026
-0.00041836 -0.36319020 0.00000082
-0.09399424 0.07171350 -0.00000810
-0.39721987 -0.18679027 0.00000115
-0.52873755 -0.78694296 0.00000002
-0.45152876 -0.59075034 0.00000039
-0.76724786 -0.30053711 -0.00000125
-0.61012954 -0.74892277 0.00000010
-0.21860956 0.17748253 -0.00000273
-0.67423052 -0.50462312 -0.00000045
-0.57344371 -0.61038619 0.00000036
-0.77897501 -0.71956795 0.06889832
-0.30662757 -0.43843403 0.00000068
-0.29723501 -0.40742493 0.00000074
-0.12724416 -0.47724909 0.00000061
-0.21884458 -0.16094702 0.00000120
-0.38476816 0.35463047 0.00000067
-0.63221020 -0.12790507 -0.00000059
-0.73728442 -0.34701231 -0.00000111
-0.02994034 -0.32648876 0.00000089
-0.17230777 0.52481622 0.00000205
-0.05408462 -0.44812384 0.00000066
-0.73297626 0.02065231 -0.00000152
-0.20634092 0.13497522 -0.00000386
-0.55300802 -0.52373606 0.00000048
-0.59846914 -0.58774674 0.00000022
-0.49881142 -0.37646678 0.00000071
-0.74131197 -0.47206083 -0.00000082
-0.66559958 -0.09617460 -0.00000088
-0.13792340 0.51963586 0.00000231
-0.79370350 -0.38732880 -0.00000103
-0.44801942 -0.56574857 0.00000044
-0.59129870 -0.56242687 0.00000024
-0.11012410 -0.74448478 0.00000010
-0.14767078 -0.07345127 0.00000136
-0.28942940 0.33797279 0.00000140
-0.68817008 -0.38969514 -0.00000069
-0.14134461 -0.64453083 0.00000029
-0.62181669 -0.01764766 -0.00000065
-0.41540495 -0.34221190 0.00000086
-0.50591010 -0.58924901 0.00000040
-0.52850628 -0.14615493 0.00000021
-0.03836565 0.69627362 0.00000210
-0.11310189 -0.67072588 0.00000024
-0.20001706 -0.39847243 0.00000075
-0.13778122 0.23047379 -0.00000394
-0.42494470 0.31624004 0.00000042
-0.38573974 -0.35449192 0.00000084
-0.78988892 -0.54473919 -0.00000064
-0.03692121 0.27797645 -0.00000579
-0.57132208 -0.68484586 0.00000022
-0.22791074 0.11559785 -0.00000364
-0.16082869 -0.73898971 0.00000011
-0.39103523 -0.02557792 0.00000109
-0.74100709 -0.33936587 -0.00000115
-0.47914952 -0.04025990 0.00000045
-0.07477644 0.05448232 -0.00000895
-0.48767930 -0.32462409 0.00000073
-0.72160882 -0.67326277 -0.00000032
-0.19914091 -0.29908395 0.00000094
-0.57628179 -0.43608069 0.00000020
-0.34019494 -0.67650390 0.00000023
-0.04107218 -0.02131369 0.00000146
-0.15412126 -0.01103809 0.00000148
-0.06498061 0.04708000 -0.00000935
-0.76518202 -0.44729045 -0.00000088
-0.57620662 -0.15303874 -0.00000014
-0.25834993 -0.35489932 0.00000083
-0.02918719 0.44557321 -0.00000285
-0.73232627 -0.50160205 -0.00000075
-0.23903228 -0.68672252 0.00000021
-0.07139709 -0.66819704 0.00000025
-0.16561297 0.21607222 -0.00000345
-0.59416753 -0.28771508 -0.00000011
-0.53073090 -0.34996399 0.00000044
-0.32086849 -0.00968267 0.00000148
-0.44368151 -0.12599900 0.00000081
-0.28757837 0.39369524 0.00000135
-0.48947868 -0.23493882 0.00000061
-0.25819528 -0.72933125 0.00000013
-0.62002867 -0.22315499 -0.00000038
-0.02570378 -0.76045531 0.00000007
-0.67894280 0.05008884 -0.00000116
-0.38854218 0.40784293 0.00000062
-0.12862653 0.30133283 -0.00000286
-0.71672422 -0.19632277 -0.00000114
-0.04458921 0.08591497 -0.00000918
-0.72494143 -0.41868734 -0.00000093
-0.42302266 -0.08322034 0.00000092
-0.05609918 -0.36953691 0.00000081
-0.38409880 -0.10614491 0.00000124
-0.71956658 -0.03865867 -0.00000135
-0.70585096 -0.13132319 -0.00000114
-0.40729207 -0.67582589 0.00000023
-0.32942092 -0.40195727 0.00000075
-0.03509715 0.26599839 -0.00000606
-0.50514615 0.27131942 -0.00000013
-0.66430742 0.10435656 -0.00000111
-0.56292433 0.06786982 -0.00000031
-0.26392242 -0.20469750 0.00000112
-0.00560393 0.00208816 -0.00001181
-0.15111890 0.13696583 -0.00000533
-0.13483489 0.10806929 -0.00000631
-0.39941525 -0.60226560 0.00000037
-0.57353550 -0.55381429 0.00000037
-0.04307825 -0.64322490 0.00000029
-0.08697451 -0.77569675 0.00000005
-0.38121402 0.39282319 0.00000065
-0.07704616 -0.45207065 0.00000065
-0.01783771 -0.32183263 0.00000090
-0.39719731 -0.76539922 0.00000006
-0.28870538 -0.46525180 0.00000063
-0.57256079 0.03336165 -0.00000034
-0.06361595 0.56752104 0.00000037
-0.11490589 -0.28032786 0.00000097
-0.72521639 -0.58483708 -0.00000054
-0.73222125 -0.06302034 -0.00000142
-0.05288925 -0.32172906 0.00000090
-0.05387471 -0.61343914 0.00000035
-0.06155948 -0.01796123 0.00000147
-0.51931316 -0.72258329 0.00000015
-0.56784236 -0.58701307 0.00000040
-0.59034389 -0.35626230 -0.00000000
-0.11046077 -0.70373511 0.00000018
-0.38947830 -0.32036659 0.00000090
-0.46269563 -0.38422224 0.00000078
-0.22773297 0.48893487 0.00000168
-0.58716893 -0.54795247 0.00000026
-0.17606996 0.22788294 -0.00000295
-0.78960985 -0.18521531 -0.00000154
-0.75380749 -0.59899789 -0.00000050
-0.75178432 -0.20062643 -0.00000140
-0.31001633 0.14637306 0.00000148
-0.10180327 -0.77563488 0.00000005
-0.08064430 -0.09617224 0.00000132
-0.22352304 -0.51456511 0.00000054
-0.64275980 -0.78531164 0.00000003
-0.17924754 0.12985887 -0.00000470
-0.06785619 0.38573194 -0.00000292
-0.43437389 0.35606813 0.00000030
-0.45849553 0.08286218 0.00000045
-0.19894409 0.29777750 -0.00000101
-0.57094419 -0.13081060 -0.00000013
-0.36163518 0.24987254 0.00000097
-0.55822039 -0.77242273 0.00000005
-0.46712157 -0.42651388 0.00000070
-0.41642383 -0.53677744 0.00000049
-0.19019285 0.35516560 0.00000212
-0.28718051 0.01116572 -0.00000399
-0.58976227 -0.69806862 0.00000019
-0.02529378 0.04962813 -0.00001038
-0.34805429 -0.69756448 0.00000019
-0.33657035 -0.60235441 0.00000037
-0.25407299 0.25317934 0.00000177
-0.49913424 -0.59043169 0.00000039
-0.46073917 0.11659025 0.00000039
-0.70162076 -0.62391484 -0.00000044
-0.11858861 -0.79306602 0.00000001
-0.04846705 -0.51126701 0.00000054
-0.07602780 -0.05818949 0.00000139
-0.77039492 -0.74271965 -0.00000014
-0.12859672 0.55732298 0.00000234
-0.31061876 -0.00476997 0.00000149
-0.60784227 0.02484056 -0.00000060
-0.65243065 -0.69120711 -0.00000006
-0.62662530 -0.38185191 -0.00000024
-0.16469911 -0.01031650 0.00000148
-0.22277997 0.48330337 0.00000172
-0.62716442 0.08433700 -0.00000081
-0.37424085 -0.69182932 0.00000020
-0.22563095 -0.48751357 0.00000059
-0.34395784 -0.17573392 0.00000117
-0.69768214 -0.47237685 -0.00000066
-0.58019817 -0.52664113 0.00000028
-0.59963316 -0.75138497 0.00000009
-0.49739674 -0.45240137 0.00000065
-0.58348453 -0.58090585 0.00000032
-0.12854214 0.19727555 -0.00000481
-0.16592684 -0.33565617 0.00000087
-0.16474470 -0.05773063 0.00000139
-0.43035775 -0.00518526 0.00000077
-0.59526211 -0.38578087 -0.00000000
-0.62825841 -0.27457985 -0.00000038
-0.43907553 -0.19046491 0.00000093
-0.45319474 0.16217808 0.00000039
-0.59080559 0.16974981 -0.00000064
-0.49584341 -0.72172523 0.00000015
-0.12651913 -0.76520967 0.00000007
-0.68948525 -0.59092462 -0.00000045
-0.59832251 0.08302721 -0.00000059
-0.72543973 -0.37729681 -0.00000098
-0.58482367 -0.74157536 0.00000011
-0.15444610 0.31613997 -0.00000188
-0.75265640 -0.72407854 -0.00000019
-0.11148275 0.30637786 -0.00000323
-0.25249082 -0.65498096 0.00000027
-0.27738917 0.19438238 0.00000167
-0.27477500 0.04403171 -0.00000371
-0.39500442 -0.40071547 0.00000075
-0.14978185 0.63179356 0.00000209
-0.13548730 -0.26061720 0.00000101
-0.03775454 -0.18220481 0.00000116
-0.12634441 0.05219875 -0.00000759
-0.13107868 -0.57400870 0.00000042
-0.71666801 -0.28687283 -0.00000103
-0.15693048 0.45602721 0.00000225
-0.53971058 0.20309854 -0.00000030
-0.61215138 0.11420070 -0.00000074
-0.21278591 -0.64419240 0.00000029
-0.08247408 -0.00304046 0.00000149
-0.57023937 -0.78893387 0.00000002
-0.13396922 0.53129137 0.00000233
-0.58108008 -0.69858134 0.00000019
-0.12489017 -0.04496959 0.00000142
-0.68101853 -0.77092135 -0.00000007
-0.19738722 -0.06183747 0.00000138
-0.07317023 0.37263200 -0.00000303
-0.37765679 0.22002158 0.00000089
-0.00247148 0.13416295 -0.00000942
-0.13175713 0.11347274 -0.00000629
-0.64941335 0.11340380 -0.00000101
-0.48465255 -0.56742203 0.00000044
-0.16237883 0.39006361 -0.00000028
-0.61052024 -0.44129339 -0.00000005
-0.61622196 -0.02486758 -0.00000060
-0.38530341 -0.03675039 0.00000114
-0.71383119 -0.10134183 -0.00000123
-0.09141452 -0.56167686 0.00000045
-0.78265154 -0.09079059 -0.00000176
-0.14816488 -0.46660650 0.00000063
-0.39970154 -0.10019796 0.00000111
-0.45606840 0.03334228 0.00000053
-0.00371596 -0.65074390 0.00000032
-0.43134123 -0.39953166 0.00000075
-0.39334521 -0.16638984 0.00000119
-0.29492736 -0.36480433 0.00000082
-0.76431721 -0.45326278 -0.00000087
-0.68625844 -0.31963024 -0.00000076
-0.15573356 -0.75838816 0.00000008
-0.24257360 -0.50944197 0.00000054
-0.68016475 -0.46660560 -0.00000054
-0.41698077 -0.76805913 0.00000006
-0.01880123 -0.43906739 0.00000068
-0.31433678 -0.58970797 0.00000039
-0.18266962 0.05737554 -0.00000596
-0.79859859 -0.64919996 -0.00000038
-0.10591298 0.00640221 -0.00000900
-0.37273338 -0.66072124 0.00000026
-0.23268607 -0.34513059 0.00000085
-0.28215152 -0.17986646 0.00000116
-0.11088339 -0.16687199 0.00000119
-0.79860830 -0.35104659 -0.00000112
-0.72632247 -0.67111051 -0.00000032
-0.03816203 0.63288766 0.00000090
-0.68985879 -0.75676715 -0.00000011
-0.03906653 0.39853880 -0.00000347
-0.08401347 -0.42758998 0.00000070
-0.53763944 -0.77149761 0.00000005
-0.13852468 0.43053842 -0.00000017
-0.38118199 -0.63398910 0.00000031
-0.19900352 0.14442794 -0.00000389
-0.25682080 -0.11652495 0.00000128
-0.37071168 -0.72638506 0.00000014
-0.24309562 0.49096254 0.00000156
-0.00846912 -0.02429779 0.00000145
-0.59415174 -0.64130121 0.00000030
-0.60538465 -0.15386851 -0.00000036
-0.68543655 -0.18165171 -0.00000092
-0.79917866 -0.45356497 -0.00000087
-0.27752042 -0.62348139 0.00000033
-0.33780828 0.45745757 0.00000089
-0.60392582 -0.46946874 0.00000004
-0.07209824 -0.37264907 0.00000080
-0.29217753 -0.61404073 0.00000035
-0.68526632 0.08831501 -0.00000125
-0.08595913 0.15366919 -0.00000678
-0.59566861 -0.46467587 0.00000009
-0.14800180 0.29162195 -0.00000251
-0.15682384 0.18041162 -0.00000436
-0.61789399 -0.43435588 -0.00000011
-0.12443050 0.56932241 0.00000235
-0.02121283 0.22392686 -0.00000723
-0.72033960 -0.00869937 -0.00000139
-0.00834332 -0.02324408 0.00000146
-0.60268152 -0.68724775 0.00000021
-0.34748375 -0.67408729 0.00000024
-0.72361976 -0.69442016 -0.00000026
-0.22659171 0.03208541 -0.00000524
-0.44658720 0.04290445 0.00000059
-0.29684171 -0.50319630 0.00000056
-0.73195243 -0.28720090 -0.00000114
-0.05560009 -0.69137073 0.00000020
-0.48400682 -0.79434586 0.00000001
-0.55111152 -0.12273110 0.00000001
-0.28701940 -0.12744045 0.00000126
-0.04102835 0.41141033 -0.00000317
-0.29119658 -0.00096540 0.00000150
-0.36967596 -0.66192472 0.00000026
-0.26219940 -0.47753283 0.00000060
-0.15674658 -0.44979468 0.00000066
-0.66569251 -0.74723947 -0.00000009
-0.00626254 0.52842987 -0.00000192
-0.17391726 -0.01239358 0.00000148
-0.75934333 -0.73118109 -0.00000017
-0.01575464 -0.70760387 0.00000017
-0.49590653 0.16016048 0.00000008
-0.54391444 0.13756666 -0.00000026
-0.18652892 0.09452512 -0.00000516
-0.43552020 -0.39068919 0.00000077
-0.26313850 0.28969264 0.00000166
-0.75403887 -0.05625494 -0.00000159
-0.35179231 -0.67435580 0.00000024
-0.08891747 0.07395259 -0.00000820
-0.13358632 0.48590317 0.00000239
-0.24440397 -0.78348064 0.00000003
-0.43607703 -0.47359678 0.00000061
-0.19021866 -0.73496610 0.00000012
-0.46240896 0.28915060 0.00000017
-0.25646976 -0.09507657 0.00000132
-0.24159104 -0.53127396 0.00000050
-0.05571990 0.43638185 -0.00000230
-0.17784508 0.45506141 0.00000209
-0.78378916 -0.78270733 -0.00000004
-0.57381135 -0.48920926 0.00000029
-0.66201556 0.13148697 -0.00000113
-0.52035689 0.08587988 -0.00000002
-0.61792392 -0.29630831 -0.00000028
-0.69127423 -0.48074183 -0.00000060
-0.58748859 -0.07160322 -0.00000033
-0.50137347 0.07111675 0.00000014
-0.57874018 -0.67303014 0.00000024
-0.07936876 0.27672365 -0.00000466
-0.36242393 -0.37075493 0.00000080
-0.34602931 -0.77993476 0.00000004
-0.63794243 -0.42196369 -0.00000028
-0.45732689 -0.09665754 0.00000068
-0.06694830 -0.75342846 0.00000009
-0.56569844 -0.42295763 0.00000027
-0.07971397 0.24877509 -0.00000517
-0.34156424 0.08625902 0.00000132
-0.45555687 0.20189191 0.00000033
-0.00643793 -0.18321542 0.00000116
-0.60038018 -0.56379509 0.00000018
-0.21316172 0.42195126 0.00000187
-0.14578256 0.00893215 -0.00000787
-0.31092772 0.45138794 0.00000110
-0.24629682 -0.59500217 0.00000038
-0.46544296 -0.77563757 0.00000005
-0.44937244 -0.25593743 0.00000093
-0.56209481 -0.67491430 0.00000023
-0.38444015 0.26812100 0.00000078
-0.16654968 -0.18525089 0.00000115
-0.13402055 0.30927551 -0.00000256
-0.02781097 0.01347630 -0.00001099
-0.25037670 -0.49889168 0.00000056
-0.34749553 -0.51763695 0.00000053
-0.13255686 -0.09995340 0.00000131
-0.00592353 0.11499282 -0.00000968
-0.05714720 -0.10877417 0.00000130
-0.11700843 -0.77173227 0.00000005
-0.02423988 0.22159436 -0.00000719
-0.10323840 0.39862001 -0.00000172
-0.76587921 -0.05316316 -0.00000168
-0.29835707 -0.62507397 0.00000033
-0.06948463 0.67781031 0.00000263
-0.03983502 -0.28417444 0.00000097
-0.09659707 -0.33835611 0.00000087
-0.45092475 -0.09295166 0.00000072
-0.05765170 -0.61671537 0.00000034
-0.22345345 -0.78817415 0.00000002
-0.17428161 0.18090563 -0.00000387
-0.61297745 -0.70866966 0.00000017
-0.33845371 -0.45890349 0.00000064
-0.11412725 -0.33375883 0.00000087
-0.56021369 -0.36610359 0.00000024
-0.27909577 0.28337866 0.00000155
-0.46621373 -0.22970232 0.00000077
-0.07484377 0.07986186 -0.00000847
-0.28177407 0.16197076 0.00000167
-0.60013592 -0.13838699 -0.00000034
-0.08868597 -0.73428315 0.00000012
-0.03988266 0.27609882 -0.00000574
-0.74097168 -0.18758225 -0.00000133
-0.18240654 -0.51278543 0.00000054
-0.02125850 0.63991344 0.00000058
-0.74194843 -0.10346120 -0.00000144
-0.45527598 -0.47340557 0.00000061
-0.55168188 -0.40526524 0.00000035
-0.53376818 -0.56859732 0.00000043
-0.45617223 -0.28718573 0.00000092
-0.39585131 0.19127579 0.00000079
-0.41994700 -0.07942081 0.00000094
-0.08665636 0.34445870 -0.00000319
-0.15546308 0.18776812 -0.00000426
-0.19606137 -0.58531964 0.00000040
-0.64206022 -0.39799687 -0.00000034
-0.27376163 -0.59145516 0.00000039
-0.74786139 -0.55702835 -0.00000061
-0.10131040 -0.72365612 0.00000014
-0.35218713 -0.44410619 0.00000067
-0.15525588 -0.07714613 0.00000136
-0.03397889 -0.51762962 0.00000053
-0.17718863 0.19469117 -0.00000354
-0.16125894 -0.07059339 0.00000137
-0.17359383 -0.28663996 0.00000096
-0.00774818 0.22808623 -0.00000751
-0.34780684 -0.46672314 0.00000062
-0.58877712 -0.19386034 -0.00000019
-0.39998588 0.31852835 0.00000060
-0.55612522 -0.18848760 0.00000005
-0.55612010 0.10906580 -0.00000031
-0.13842060 0.62124765 0.00000218
-0.20517781 -0.33472505 0.00000087
-0.25505483 -0.34896693 0.00000085
-0.64874071 -0.04960297 -0.00000081
-0.26592639 0.11997550 -0.00000253
-0.07733095 0.25047353 -0.00000520
-0.15872213 0.35953304 -0.00000095
-0.21288386 -0.73865229 0.00000012
-0.31767565 -0.65231872 0.00000028
-0.76709092 -0.35719812 -0.00000111
-0.34972253 -0.03324854 0.00000140
-0.11170202 -0.07606327 0.00000136
-0.65920013 -0.58691019 -0.00000023
-0.23615472 -0.11224380 0.00000129
-0.55477405 -0.22069982 0.00000010
-0.50746936 0.25513554 -0.00000013
-0.28660372 -0.72707844 0.00000014
-0.22331282 0.14234345 -0.00000327
-0.25250551 -0.20707366 0.00000111
-0.73660541 -0.40672067 -0.00000098
-0.60027963 -0.76924884 0.00000006
-0.09296315 -0.63915455 0.00000030
-0.42670730 -0.55255377 0.00000046
-0.67363161 -0.39431387 -0.00000058
-0.00358090 0.54673785 -0.00000165
-0.06104026 -0.15228127 0.00000121
-0.08022948 -0.66956598 0.00000024
-0.11548040 -0.52859908 0.00000051
-0.14637773 0.59796208 0.00000215
-0.10859437 -0.52056372 0.00000052
-0.47917989 -0.13551278 0.00000056
-0.72022998 -0.07866835 -0.00000131
-0.00357961 -0.77327627 0.00000009
-0.59750539 -0.64276737 0.00000029
-0.38553745 -0.67111075 0.00000024
-0.13454112 0.57392293 0.00000227
-0.26184693 -0.51816547 0.00000053
-0.53313833 -0.20346116 0.00000024
-0.79932213 -0.46818560 -0.00000083
-0.11534547 -0.72787213 0.00000014
-0.28075781 -0.04252898 0.00000142
-0.16254136 0.52439725 0.00000212
-0.47100756 -0.67636275 0.00000023
-0.14027414 -0.53445607 0.00000050
-0.12384512 0.30732828 -0.00000287
-0.01129969 0.56886160 -0.00000103
-0.02562013 0.56315160 -0.00000075
-0.25322357 -0.09519237 0.00000132
-0.47573572 -0.09825552 0.00000054
-0.57504004 0.01738410 -0.00000034
-0.30919018 -0.08292700 0.00000134
-0.69343925 -0.11285080 -0.00000107
-0.10582610 0.13395058 -0.00000661
-0.51931775 -0.29018390 0.00000045
-0.32549828 -0.56114459 0.00000045
-0.34813082 0.02972990 0.00000134
-0.33783290 -0.50641435 0.00000055
-0.23048006 0.44874600 0.00000171
-0.04629977 0.38022807 -0.00000361
-0.00398482 0.59225988 -0.00000079
-0.45734850 -0.04159144 0.00000061
-0.00409359 -0.74950069 0.00000014
-0.09108668 -0.18301231 0.00000116
-0.61060160 -0.29993027 -0.00000022
-0.40476754 0.34069252 0.00000054
-0.76573914 -0.05634278 -0.00000168
-0.40573442 0.28338057 0.00000060
-0.57042003 -0.21852922 -0.00000002
-0.00071320 -0.29266095 0.00000095
-0.42937085 0.17410873 0.00000056
-0.08153750 -0.09726815 0.00000132
-0.22674242 0.57017142 0.00000162
-0.72896039 -0.31192350 -0.00000109
-0.31632575 -0.56934422 0.00000043
-0.59994107 -0.47557366 0.00000007
-0.56527686 -0.69841439 0.00000019
-0.79212016 -0.50721890 -0.00000073
-0.22185539 0.29906970 0.00000195
-0.01388707 -0.71150821 0.00000017
-0.06407818 0.44693264 -0.00000188
-0.41331506 -0.10519349 0.00000102
-0.01074047 -0.76218927 0.00000007
-0.73212975 -0.04210942 -0.00000144
-0.30333677 -0.39689812 0.00000076
-0.10946249 0.16942909 -0.00000585
-0.25841910 -0.23745604 0.00000105
-0.59040946 0.06759446 -0.00000052
-0.34401578 0.37773716 0.00000095
-0.00417775 -0.42206776 0.00000071
-0.23637576 -0.15446894 0.00000121
-0.02157821 -0.67364746 0.00000024
-0.13756852 -0.42869142 0.00000070
-0.55592161 -0.75628757 0.00000008
-0.58241183 0.16954923 -0.00000058
-0.06960589 0.26790932 -0.00000509
-0.68844491 -0.19345255 -0.00000093
-0.45891562 -0.32337826 0.00000089
-0.60085982 -0.74627882 0.00000010
-0.63358784 -0.11196569 -0.00000062
-0.54112041 -0.32910782 0.00000033
-0.35151568 -0.65479153 0.00000027
-0.59654784 0.19823676 -0.00000072
-0.50027955 0.16201280 0.00000004
-0.29737562 0.39599603 0.00000127
-0.11603248 -0.67271119 0.00000024
-0.28295493 -0.59320861 0.00000039
-0.35930824 0.28835067 0.00000094
-0.72546679 -0.08529566 -0.00000134
-0.30239773 -0.31355560 0.00000091
-0.07407236 -0.06482389 0.00000138
-0.08607830 -0.42407984 0.00000070
-0.41119581 -0.64256150 0.00000030
-0.70012951 -0.05058096 -0.00000119
-0.53480023 -0.45068866 0.00000053
-0.27563885 -0.32277048 0.00000089
-0.72232848 -0.01658892 -0.00000140
-0.36426547 0.40500343 0.00000076
-0.56113690 -0.10260377 -0.00000009
-0.72047049 -0.01038318 -0.00000139
-0.05832232 -0.78883541 0.00000002
-0.15124433 0.34101745 -0.00000150
-0.05192072 -0.23860718 0.00000105
-0.26113397 -0.64691085 0.00000029
-0.35154384 -0.66034907 0.00000026
-0.06892759 0.56510550 0.00000047
-0.43135944 -0.20395344 0.00000100
-0.35937709 0.33484858 0.00000088
-0.17900960 0.40244275 0.00000215
-0.75398695 -0.34462807 -0.00000114
-0.19020088 0.21660331 -0.00000277
-0.39243281 0.18681365 0.00000082
-0.18752067 0.61222470 0.00000183
-0.51048976 -0.35225984 0.00000059
-0.49525025 0.25674409 -0.00000004
-0.66296721 -0.56539273 -0.00000029
-0.19953282 -0.41212133 0.00000073
-0.07650047 0.19030762 -0.00000635
-0.47339240 -0.09599108 0.00000056
-0.11242569 -0.51612347 0.00000053
-0.44947028 0.00556314 0.00000061
-0.51596886 -0.16225095 0.00000032
-0.64455289 -0.78793091 0.00000002
-0.13124362 -0.75056934 0.00000009
-0.67117465 -0.36435145 -0.00000059
-0.21279995 0.12723728 -0.00000383
-0.36302003 -0.55306697 0.00000046
-0.12195878 -0.30025348 0.00000094
-0.47973546 -0.40285403 0.00000074
-0.00888389 0.59036118 -0.00000069
-0.31784561 -0.32462159 0.00000089
-0.04193396 -0.30954140 0.00000092
-0.63393313 -0.14909028 -0.00000058
-0.09564605 -0.07579903 0.00000136
-0.10962176 -0.02103716 0.00000146
-0.42593157 -0.45978633 0.00000064
-0.70266658 0.07957922 -0.00000137
-0.25988606 0.49320138 0.00000143
-0.00308824 -0.50356609 0.00000059
-0.16829020 -0.54635179 0.00000048
-0.39365304 -0.16850780 0.00000118
-0.69978201 -0.54221326 -0.00000059
-0.31206235 -0.77000082 0.00000006
-0.15518221 -0.72013676 0.00000015
-0.62823236 -0.69885343 0.00000013
-0.19413908 0.45399594 0.00000197
-0.03500268 0.38286489 -0.00000387
-0.78183711 -0.20845778 -0.00000148
-0.37548473 -0.64423132 0.00000029
-0.21708696 0.36905605 0.00000190
-0.51457781 -0.54866487 0.00000047
-0.14444029 -0.61698604 0.00000034
-0.18048374 0.08329562 -0.00000554
-0.43597317 0.20554081 0.00000047
-0.62174684 -0.70240498 0.00000018
-0.68671143 -0.56126416 -0.00000047
-0.23439886 0.05578308 -0.00000459
-0.22465241 -0.46465790 0.00000063
-0.62157106 0.07596452 -0.00000076
-0.07827588 0.69111544 0.00000255
-0.76294798 -0.27047756 -0.00000132
-0.34430945 -0.10370523 0.00000131
-0.20068187 -0.23403227 0.00000106
-0.12606110 0.07412414 -0.00000719
-0.14661978 -0.61326176 0.00000035
-0.42357641 -0.15042974 0.00000099
-0.58671403 -0.10947600 -0.00000027
-0.18291874 -0.11328841 0.00000129
-0.31026861 -0.34514371 0.00000085
-0.10117122 -0.38762781 0.00000077
-0.69272697 -0.18825741 -0.00000097
-0.54391950 -0.18279368 0.00000014
-0.39913347 -0.21027859 0.00000111
-0.77480018 -0.29198840 -0.00000127
-0.01881732 -0.37636328 0.00000079
-0.38462621 -0.54351306 0.00000048
-0.21292944 0.41135049 0.00000188
-0.19447461 0.10256549 -0.00000479
-0.78794909 -0.28259468 -0.00000129
-0.30955049 0.05960305 0.00000159
-0.56363821 -0.05397259 -0.00000017
-0.50461596 -0.75951433 0.00000008
-0.41076538 -0.30433464 0.00000093
-0.06507251 -0.14456843 0.00000123
-0.43656045 0.02559075 0.00000068
-0.58963317 0.10568989 -0.00000056
-0.42144504 -0.52748668 0.00000051
-0.59150720 -0.78542113 0.00000003
-0.08763601 -0.33745751 0.00000087
-0.24554203 -0.29341966 0.00000095
-0.42243281 0.22008616 0.00000055
-0.03327997 0.64957887 0.00000108
-0.16735962 -0.66106284 0.00000026
-0.06635980 0.23926066 -0.00000571
-0.46662664 -0.14546078 0.00000067
-0.03625213 -0.31856641 0.00000090
-0.50482160 0.11532815 0.00000006
-0.31425172 0.23634058 0.00000134
-0.05905013 -0.50416815 0.00000055
-0.69294095 -0.03760543 -0.00000115
-0.55798966 -0.31478962 0.00000019
-0.12947838 0.31160465 -0.00000264
-0.77001917 -0.09531803 -0.00000166
-0.61083198 -0.37857947 -0.00000013
-0.24869633 0.13743393 -0.00000267
-0.77517343 -0.36541408 -0.00000109
-0.14367522 -0.73442340 0.00000012
-0.02429973 0.68281186 0.00000146
-0.54095596 -0.42555735 0.00000045
-0.69551641 -0.45207420 -0.00000067
-0.10777166 0.10437576 -0.00000712
-0.52723587 -0.13200925 0.00000020
-0.01914227 0.00946354 -0.00001130
-0.38145137 0.04907648 0.00000107
-0.37700230 -0.58067685 0.00000041
-0.34868309 -0.49727583 0.00000057
-0.54889417 0.23753011 -0.00000041
-0.49486586 -0.34550416 0.00000070
-0.30907932 -0.10367634 0.00000131
-0.12647034 -0.61188161 0.00000035
-0.36376438 -0.30269626 0.00000093
-0.38648707 -0.56831533 0.00000043
-0.17958939 0.14572503 -0.00000439
-0.31502670 -0.21369702 0.00000110
-0.71248806 0.00361163 -0.00000135
-0.15456362 -0.01485756 0.00000147
-0.43649259 -0.48587769 0.00000059
-0.34167808 -0.76681799 0.00000006
-0.36634561 -0.19760008 0.00000113
-0.09809199 0.17447323 -0.00000606
-0.56353784 -0.57817239 0.00000042
-0.31407598 0.13898551 0.00000146
-0.52588564 0.15743993 -0.00000014
-0.56321114 -0.16817561 -0.00000003
-0.75879377 -0.77908701 -0.00000005
-0.72609246 0.02296994 -0.00000148
-0.62521249 -0.15058409 -0.00000051
-0.34082952 0.24154606 0.00000114
-0.05026607 0.45880324 -0.00000203
-0.76787341 -0.24911071 -0.00000138
-0.33386350 0.46469802 0.00000093
-0.66186392 -0.55965823 -0.00000029
-0.24678297 0.11775716 -0.00000309
-0.78661358 -0.14006598 -0.00000165
-0.71601814 0.06699060 -0.00000145
-0.16588540 -0.14787339 0.00000122
-0.33523831 -0.31777164 0.00000090
-0.37947467 -0.43366069 0.00000069
-0.10660803 0.13578039 -0.00000656
-0.26495698 -0.24711615 0.00000104
-0.20711818 -0.67614812 0.00000023
-0.27540201 -0.73263711 0.00000013
-0.22361638 -0.79698426 0.00000001
-0.40987965 -0.46982643 0.00000062
-0.11986414 0.43950975 -0.00000050
