ply
format ascii 1.0
element vertex 1402
property float x
property float y
property float z
end_header
0.29853269 0.30892315 -0.00000020
-0.67595497 -0.05997777 0.00000000
0.46168104 -0.12659301 -0.00000017
-0.55397437 0.13115730 0.00000000
-0.03228276 0.65260862 0.00000000
-0.59574804 0.76151173 0.00000000
0.03590368 -0.73405419 0.00000000
0.27792056 0.06771718 0.00000000
0.50058854 0.25341848 0.15301192
-0.54869952 0.46671131 0.00000000
-0.10039557 0.44660938 0.00000000
-0.32186694 0.72270244 0.00000000
-0.49203206 -0.63888206 0.00000000
-0.59391375 0.63437521 0.00000000
0.35276101 -0.15422511 0.00000000
0.23444580 -0.55303027 0.00000000
-0.27387749 0.17165837 0.00000000
0.56845791 0.21573458 0.05258665
0.39543127 -0.43759865 0.00000000
0.01374398 0.75485050 0.00000000
-0.61795584 -0.49345140 0.00000000
-0.21427733 -0.14418341 0.00000000
0.06660296 0.51737934 0.00000000
0.37796818 0.30769001 -0.00000037
-0.27034650 0.24771314 0.00000000
-0.71102255 0.61826502 0.00000000
-0.61204059 -0.14292645 0.00000000
0.04183076 0.53129507 0.00000000
-0.62764516 -0.13638026 0.00000000
0.66492569 0.11205029 0.07659539
-0.26289544 0.40305510 0.00000000
-0.62077956 -0.28976955 0.00000000
0.30954161 0.41970512 0.23538724
0.12184596 0.41663306 0.00000000
0.52644089 -0.70817988 0.00000000
-0.46656232 -0.09024050 0.00000000
0.05105932 0.25836779 0.00000000
0.09917962 -0.47888529 0.00000000
-0.48431673 0.38062522 0.00000000
0.11431066 -0.43716673 0.00000000
0.50898072 -0.25000581 -0.00000016
-0.32454943 -0.33198388 0.00000000
-0.57565260 0.30690185 0.00000000
0.49411191 0.20473489 0.33652601
0.55109854 -0.44644158 -0.00000007
-0.27103133 0.71883870 0.00000000
0.50494877 0.04559479 -0.00000041
0.00424898 0.43050676 0.00000000
-0.56659987 -0.19794452 0.00000000
-0.25653578 0.48818008 0.00000000
0.21026637 -0.29666660 0.00000000
0.04604270 -0.54531836 0.00000000
-0.00842379 -0.26113610 0.00000000
0.59178953 0.16362564 0.14832695
-0.34064049 -0.48714312 0.00000000
-0.79077024 -0.72392652 0.00000000
0.37570536 -0.27652617 0.00000000
-0.25339518 0.19071142 0.00000000
-0.13245915 0.45114762 0.00000000
-0.36200074 -0.21530315 0.00000000
-0.64321866 0.52587785 0.00000000
0.39042525 0.32775302 0.27221150
-0.04665282 -0.43239739 0.00000000
-0.63701476 0.52472620 0.00000000
0.63068978 0.16370407 0.01864726
-0.50874431 0.05971606 0.00000000
-0.18200846 -0.38824349 0.00000000
-0.23847622 -0.48943080 0.00000000
-0.03892307 -0.70493515 0.00000000
-0.64976522 0.51219090 0.00000000
0.78142793 -0.30648296 -0.00000062
-0.00591196 -0.43781374 0.00000000
0.34222358 -0.07900284 0.00000000
-0.08560413 0.09617322 0.00000000
0.63564629 -0.49174874 -0.00000021
-0.18478139 -0.52911366 0.00000000
0.60884286 0.15005208 0.13674996
0.31515201 -0.30818053 0.00000000
-0.28086408 0.16334619 0.00000000
0.13594065 0.65762079 0.02141723
-0.36628278 0.11636765 0.00000000
-0.05820560 -0.17137929 0.00000000
-0.75293050 0.22969328 0.00000000
0.21010824 0.20825107 0.00000000
0.05361034 -0.41185418 0.00000000
0.27437506 -0.01060952 0.00000000
0.33312024 -0.67881335 0.00000000
-0.49271227 -0.21837730 0.00000000
-0.43537075 0.21212191 0.00000000
0.62885944 -0.46020757 -0.00000023
0.33221831 -0.17286537 0.00000000
0.09236693 -0.15286229 0.00000000
-0.04842691 -0.10724578 0.00000000
0.01507910 0.52164461 0.00000000
-0.53129844 0.05572503 0.00000000
-0.18352533 0.05527430 0.00000000
0.47463350 -0.07855876 -0.00000024
-0.46886435 -0.09976210 0.00000000
0.27537874 -0.34759920 0.00000000
-0.50820669 0.77389142 0.00000000
-0.25339561 0.20829457 0.00000000
-0.08669371 0.37585801 0.00000000
0.27558220 0.51146539 0.04308825
0.24918801 -0.24280464 0.00000000
0.03071753 0.10452503 0.00000000
0.64296102 -0.31752366 -0.00000038
-0.69467408 0.34659497 0.00000000
0.29417777 0.39365470 0.37316669
0.78723647 -0.55008002 -0.00000031
0.39829662 0.15947248 -0.00000028
0.77534639 -0.68537757 -0.00000014
0.64525577 0.15233686 0.00800510
0.00098345 0.13404063 0.00000000
-0.25366421 0.54350774 0.00000000
0.45852692 -0.09963693 -0.00000018
-0.30190699 0.70477381 0.00000000
0.34459766 -0.29270894 0.00000000
-0.19940497 -0.63581258 0.00000000
0.24973045 -0.06386399 0.00000000
0.16625336 -0.46230300 0.00000000
0.26213767 -0.73344885 0.00000000
-0.47433087 0.52828458 0.00000000
0.74134044 -0.06616997 -0.00000082
-0.30143415 -0.36751438 0.00000000
0.72913414 -0.27850940 -0.00000060
0.19981453 0.03064135 0.00000000
0.08382100 -0.71269668 0.00000000
-0.68746699 0.05416472 0.00000000
-0.11631966 0.10982200 0.00000000
0.15901357 0.57119570 0.23218308
0.51827935 -0.39863843 -0.00000005
-0.01121145 -0.31248090 0.00000000
0.50214342 -0.13512735 -0.00000024
-0.51344780 -0.06362564 0.00000000
0.13053275 0.11366189 0.00000000
0.47258792 0.29798335 0.09790374
0.08898146 0.13864346 0.00000000
0.06365780 0.23739592 0.00000000
0.39465889 0.35705418 0.16064390
0.11194004 0.66956520 0.06152751
-0.09370977 0.57812276 0.00000000
-0.77322096 -0.51983316 0.00000000
0.43902755 -0.49825800 0.00000000
0.33975856 -0.58797065 0.00000000
0.17985554 0.54350953 -0.00000016
-0.79349471 -0.35673770 0.00000000
0.64745412 -0.69525725 -0.00000006
-0.39379718 0.63945870 0.00000000
0.49319198 0.30406178 0.00913268
0.51802037 -0.19766157 -0.00000022
0.50060397 -0.38214748 -0.00000002
-0.15397041 -0.71742181 0.00000000
0.35913796 -0.10344801 0.00000000
0.04748119 0.34880967 0.00000000
-0.00172430 -0.52389612 0.00000000
0.32960728 0.18896604 -0.00000016
0.00216506 -0.16725276 0.00000000
-0.48168343 0.24985121 0.00000000
0.02292950 -0.71656978 0.00000000
0.08366666 0.33996866 0.00000000
-0.26893891 0.50425406 0.00000000
-0.52556146 -0.16296023 0.00000000
-0.09786896 -0.21475867 0.00000000
0.23408772 -0.57014850 0.00000000
0.17280421 0.58788539 -0.00000018
-0.79169055 -0.42257120 0.00000000
-0.39915936 -0.71367624 0.00000000
-0.22540696 0.39687010 0.00000000
-0.03659481 -0.19361542 0.00000000
0.39366896 -0.63185603 0.00000000
-0.55151443 -0.57480735 0.00000000
-0.73793454 0.29686130 0.00000000
-0.06564235 -0.21646241 0.00000000
-0.08661638 0.03287345 0.00000000
-0.50667297 0.19415906 0.00000000
-0.69857469 -0.42430655 0.00000000
-0.16600824 0.46550786 0.00000000
0.52984966 -0.58850931 0.00000000
0.35622671 -0.26902965 0.00000000
0.16904852 0.33094388 0.00000000
0.33258058 -0.79742558 0.00000000
-0.07065910 0.12876548 0.00000000
0.45807292 -0.44143914 0.00000000
0.29222088 -0.74914533 0.00000000
0.78859863 0.00811211 0.01093889
0.21484772 -0.12988453 0.00000000
-0.50341780 0.22505931 0.00000000
0.53229647 -0.47302491 -0.00000001
-0.64362082 0.46779087 0.00000000
-0.73708275 -0.56947974 0.00000000
-0.24075286 -0.14285115 0.00000000
-0.05967399 -0.46423992 0.00000000
0.51317513 -0.11498304 -0.00000029
-0.45298776 -0.78081214 0.00000000
0.21437780 -0.05828330 0.00000000
0.66491534 -0.18270522 -0.00000055
0.39341483 -0.38428118 0.00000000
-0.55348958 0.14001316 0.00000000
-0.69259383 -0.04594663 0.00000000
0.26672669 -0.27661822 0.00000000
-0.28777013 0.03810558 0.00000000
0.57845150 -0.55554794 -0.00000004
-0.18223567 -0.65910288 0.00000000
0.51203610 0.19454440 0.31079703
0.20595823 0.36581768 -0.00000006
0.03283377 0.70209069 0.00000000
0.31580250 0.46817157 0.05331361
-0.26162160 0.20272834 0.00000000
-0.24344800 0.47510105 0.00000000
-0.04246782 -0.74956484 0.00000000
0.61955181 0.15393599 -0.00000075
-0.53655009 0.75971142 0.00000000
0.48922360 -0.37085453 -0.00000001
0.41247992 0.30027939 0.29023997
0.28861307 -0.76295439 0.00000000
0.79376072 -0.00506184 -0.00000098
-0.56048602 0.44815756 0.00000000
-0.43220238 -0.49936090 0.00000000
-0.26156891 0.41287632 0.00000000
0.00180887 0.52814744 0.00000000
-0.18599529 -0.11875153 0.00000000
-0.79630033 0.06980176 0.00000000
0.35590293 0.07070284 -0.00000011
0.49666449 0.13188202 -0.00000047
-0.27923563 -0.29242824 0.00000000
-0.72864288 0.70638362 0.00000000
-0.75749450 0.70964560 0.00000000
-0.62612491 0.76318957 0.00000000
-0.45631590 0.67028608 0.00000000
-0.22877788 0.74773891 0.00000000
0.51141159 0.21150961 0.25643255
-0.39151444 0.05750793 0.00000000
0.05898447 0.18356886 0.00000000
-0.01969625 0.56275156 0.00000000
0.31702808 -0.65371978 0.00000000
0.14480559 0.29448124 0.00000000
-0.36309427 -0.41417713 0.00000000
0.69911178 0.08377639 0.05692586
-0.38363667 0.00859981 0.00000000
0.34608199 -0.48164456 0.00000000
0.41429053 0.32728291 0.19437778
-0.05315561 0.51144878 0.00000000
0.21037058 -0.77804951 0.00000000
0.40937385 0.33339299 0.19040742
0.16437576 0.57349135 -0.00000015
0.04985656 0.72815971 0.07313425
-0.30331264 -0.00505923 0.00000000
0.11436279 -0.67049736 0.00000000
0.33155009 0.43198794 0.12130304
0.71603732 -0.75342006 -0.00000006
-0.06103277 -0.18363669 0.00000000
0.30663798 0.36943483 -0.00000027
-0.36877785 0.38803215 0.00000000
-0.71992258 -0.32252679 0.00000000
0.67527113 0.09155328 0.11036901
-0.65123246 -0.50083176 0.00000000
-0.13821752 -0.00727427 0.00000000
-0.17491949 -0.78855521 0.00000000
-0.49765409 -0.71108524 0.00000000
0.51418213 0.26325364 -0.00000062
0.46701795 0.11553063 -0.00000039
0.05742238 0.13344547 0.00000000
0.38281977 -0.64162546 0.00000000
0.42732678 0.28843070 0.28026564
-0.42009318 0.16482288 0.00000000
0.69146021 -0.45661232 -0.00000036
-0.40629491 0.26777521 0.00000000
-0.75900451 -0.45564865 0.00000000
0.68856153 -0.74307906 -0.00000007
-0.17414942 -0.49744078 0.00000000
-0.02969341 0.60150781 0.00000000
-0.72937998 -0.47928829 0.00000000
0.22961595 -0.36093336 0.00000000
0.60102557 -0.10489000 -0.00000048
0.17804699 0.56659010 0.18418391
0.59095650 0.19095981 0.06015932
0.52300899 -0.75587439 0.00000000
0.51203469 0.20449278 0.27770408
0.58543402 -0.12702829 -0.00000043
-0.66067639 0.41344651 0.00000000
0.30257409 0.37001371 0.42388377
0.32866738 0.19014304 -0.00000016
0.01310563 0.22914083 0.00000000
0.13892568 0.58898774 0.23982083
0.16412442 0.63089550 0.01656493
0.30966998 0.28504408 -0.00000021
0.64641616 0.14044967 0.04369249
-0.00016222 0.00548125 0.00000000
0.29160636 0.39178196 0.38795177
0.04056184 0.75280490 0.02206514
0.59389132 0.18433330 0.07244131
-0.15495851 -0.23811894 0.00000000
-0.52314440 -0.70412586 0.00000000
0.49862414 -0.10178776 -0.00000027
0.23332533 0.43373154 -0.00000017
0.28928557 0.46806481 -0.00000032
0.37305652 -0.76211212 0.00000000
-0.79186832 0.55677139 0.00000000
0.01096680 0.77176575 0.00000000
0.72365327 -0.53617813 -0.00000033
0.00096759 0.72777299 0.00000000
0.52517724 0.24170560 -0.00000063
0.27965763 -0.60344241 0.00000000
-0.70561707 0.50129940 0.00000000
-0.67396272 -0.71213941 0.00000000
0.51930429 -0.48674857 0.00000000
-0.69357590 -0.32777073 0.00000000
0.50779919 -0.70341958 0.00000000
0.61626025 -0.41389167 -0.00000024
-0.63410763 -0.10183762 0.00000000
-0.45391151 -0.49476131 0.00000000
-0.02576665 0.78701913 0.00000000
-0.49206541 -0.40601822 0.00000000
-0.55707234 0.38897219 0.00000000
-0.67038392 -0.59584645 0.00000000
0.06963902 0.69869919 -0.00000006
-0.34715926 0.60008136 0.00000000
-0.64442812 -0.10780996 0.00000000
-0.72335813 -0.73480229 0.00000000
0.10398637 0.65636947 0.13188881
0.68276732 0.05556748 -0.00000080
0.50842890 0.22873649 0.20904300
-0.70165494 -0.23966476 0.00000000
0.10127429 -0.61430473 0.00000000
-0.49973200 -0.67659929 0.00000000
-0.23134670 0.77370757 0.00000000
-0.59960460 0.75817035 0.00000000
-0.41375520 0.57880809 0.00000000
0.24169266 0.45152293 0.35525714
0.46073966 0.06177922 -0.00000033
-0.40212531 0.36649270 0.00000000
-0.46964166 -0.29415234 0.00000000
0.10826035 -0.44420481 0.00000000
-0.54181700 -0.32752666 0.00000000
-0.12646336 0.60513560 0.00000000
-0.43465117 0.28251207 0.00000000
0.32783506 0.45822481 0.04637426
-0.54427474 0.21933723 0.00000000
-0.34376720 -0.27384857 0.00000000
-0.51893603 -0.68927891 0.00000000
-0.16673572 0.22431490 0.00000000
-0.57768263 0.77861550 0.00000000
-0.70096358 0.12829915 0.00000000
-0.50148954 0.17090666 0.00000000
0.40422545 0.26205725 0.44486128
0.45760496 -0.24494689 -0.00000005
-0.07931585 0.53504453 0.00000000
0.76106052 0.03444988 0.01493241
-0.60125487 -0.76079732 0.00000000
0.54020597 -0.62796266 0.00000000
0.38566512 -0.43597798 0.00000000
0.49387184 0.00286726 -0.00000035
-0.03746360 0.33433597 0.00000000
0.51819022 0.08987798 -0.00000048
0.26246716 0.47073119 0.22224013
0.19815243 -0.79000945 0.00000000
0.19749467 0.29192032 0.00000000
0.18310774 0.53205208 0.28225087
0.31365938 -0.62721653 0.00000000
-0.71609470 0.79051614 0.00000000
-0.15388084 -0.75704791 0.00000000
-0.41640297 -0.77736540 0.00000000
0.51346364 -0.20796322 -0.00000020
-0.00898157 -0.18818400 0.00000000
0.05784876 0.41926972 0.00000000
-0.37971941 0.33134216 0.00000000
-0.67618628 -0.29087734 0.00000000
0.58068809 -0.64152315 0.00000000
0.51428327 0.26776888 0.05970746
0.16123978 0.20658938 0.00000000
-0.08811879 -0.30635492 0.00000000
0.62455657 -0.44623120 -0.00000023
-0.60146716 -0.15558793 0.00000000
0.15279523 -0.15857625 0.00000000
-0.72301030 0.15744487 0.00000000
0.77811354 -0.59503561 -0.00000026
0.71696070 -0.03757707 -0.00000079
-0.75542472 0.48997555 0.00000000
-0.03394564 0.63239937 0.00000000
-0.34076355 -0.32337329 0.00000000
-0.37626500 -0.36373656 0.00000000
0.59651055 -0.11039248 -0.00000047
0.50551547 -0.32535380 -0.00000008
0.56483087 -0.42065472 -0.00000013
0.06419279 0.36978260 0.00000000
0.55069856 0.12371790 -0.00000058
-0.68540986 -0.09140707 0.00000000
-0.66577113 0.29212973 0.00000000
0.10750369 -0.45259998 0.00000000
-0.04741447 -0.44856578 0.00000000
0.16904438 -0.30989001 0.00000000
0.53382183 0.20740417 0.19553354
-0.77551849 0.47682793 0.00000000
0.31214991 -0.60949747 0.00000000
-0.16772641 -0.24366624 0.00000000
-0.45515470 0.29396656 0.00000000
0.22122111 -0.16985927 0.00000000
0.01985350 -0.51764776 0.00000000
0.45962089 -0.74037349 0.00000000
-0.27252339 0.50616275 0.00000000
0.17801059 0.38301812 -0.00000001
0.38292333 0.39115208 0.08624576
-0.73171133 0.55142172 0.00000000
-0.01698576 0.09747734 0.00000000
0.14337792 0.59677883 0.19908897
-0.10998982 -0.49299882 0.00000000
-0.59009932 -0.33566191 0.00000000
0.64979704 -0.22685366 -0.00000048
-0.44121227 -0.33264377 0.00000000
-0.30165224 0.66815389 0.00000000
0.54585352 0.24400910 0.03372245
0.49613465 -0.38982245 -0.00000001
0.41584419 0.25709785 0.42270666
0.07726365 0.25387393 0.00000000
0.33698236 -0.74362478 0.00000000
-0.52254251 0.60709663 0.00000000
-0.19499428 -0.47444638 0.00000000
0.66126287 0.10919798 0.09827081
-0.59079673 0.63277551 0.00000000
0.20435657 -0.75128143 0.00000000
-0.76543875 0.24010308 0.00000000
-0.45468872 -0.48861418 0.00000000
0.32888208 -0.57316583 0.00000000
-0.62604753 -0.68056745 0.00000000
-0.47455983 -0.77088779 0.00000000
-0.11119089 0.76949346 0.00000000
-0.29694714 0.76000608 0.00000000
0.05154940 -0.65636579 0.00000000
-0.71997228 -0.39719268 0.00000000
0.34854392 0.34942462 0.33944604
0.21532579 -0.62963782 0.00000000
-0.70245080 -0.34615038 0.00000000
0.60146538 -0.22927483 -0.00000037
0.14173422 -0.03183902 0.00000000
-0.44726679 0.66214149 0.00000000
-0.65247119 0.55298009 0.00000000
-0.38789576 -0.49749664 0.00000000
0.52544057 -0.24119323 -0.00000020
0.01017171 -0.63824164 0.00000000
0.11836157 -0.57963655 0.00000000
-0.45078808 0.24410542 0.00000000
0.05269572 0.04397460 0.00000000
0.28119788 0.12769451 -0.00000001
-0.08724805 0.65425979 0.00000000
-0.53018028 -0.32843245 0.00000000
-0.26236758 0.36634202 0.00000000
0.60511831 0.18676099 0.02701306
-0.03307311 -0.60280197 0.00000000
0.01148229 0.21881795 0.00000000
0.43060749 -0.35487795 0.00000000
0.51277461 0.18656657 -0.00000055
-0.69828022 0.04117690 0.00000000
0.62326692 -0.59275746 -0.00000010
0.04199540 0.75463175 0.01121793
0.09954595 -0.75701197 0.00000000
0.20001331 0.30272747 0.00000000
-0.13018914 0.74255354 0.00000000
-0.35332073 0.42784878 0.00000000
-0.01790892 -0.50330777 0.00000000
0.11733072 -0.56998305 0.00000000
-0.59998942 0.21365735 0.00000000
-0.01065083 0.44931950 0.00000000
0.16846054 -0.38674409 0.00000000
-0.30708429 0.70607739 0.00000000
0.68810760 -0.57724269 -0.00000025
0.32191655 0.32582182 -0.00000027
0.04667522 -0.28672272 0.00000000
0.56060990 0.03559685 -0.00000052
-0.48164652 -0.45267160 0.00000000
-0.01014917 -0.27387342 0.00000000
-0.56661005 0.32428540 0.00000000
0.17782800 -0.53236860 0.00000000
0.22017135 -0.16538378 0.00000000
0.30500274 -0.59034845 0.00000000
0.35021226 0.33092659 0.39543618
0.32731678 0.44308121 0.09848038
0.13314810 0.63003031 0.12249887
0.12131063 0.63924406 0.13122748
-0.26302687 -0.64990291 0.00000000
0.44637035 -0.54390152 0.00000000
0.74309057 -0.53640031 -0.00000033
0.39579330 -0.46201519 0.00000000
0.45594635 -0.50930866 0.00000000
-0.71821582 0.21556906 0.00000000
0.10464217 0.44315442 0.00000000
0.17825556 -0.73315442 0.00000000
-0.59557023 0.75117408 0.00000000
-0.16216816 0.54119283 0.00000000
-0.11519751 0.34790794 0.00000000
-0.03844371 0.42510381 0.00000000
0.73281949 -0.10701524 -0.00000076
0.27802760 -0.20741634 0.00000000
0.74220620 -0.19922736 -0.00000070
-0.45440929 0.22711464 0.00000000
0.63182794 -0.14925273 -0.00000051
-0.79850959 -0.62579609 0.00000000
0.72495358 0.06206096 0.04319766
0.34919969 0.38747258 0.21068378
-0.24634027 0.31838708 0.00000000
-0.30835248 -0.44484010 0.00000000
0.30392052 0.49541567 0.00220478
-0.18564614 -0.19210070 0.00000000
0.57281049 0.11997595 -0.00000062
0.47196078 -0.78202976 0.00000000
-0.77693169 0.68412530 0.00000000
0.31321001 0.46949489 0.05753606
-0.35870770 0.12961408 0.00000000
0.03449269 0.63709224 0.00000000
-0.55261180 -0.23370146 0.00000000
-0.22517012 -0.45112002 0.00000000
0.38630146 -0.49031693 0.00000000
-0.77951096 0.55937447 0.00000000
-0.47313686 0.56990052 0.00000000
-0.15746887 0.33463477 0.00000000
0.04960599 -0.65592060 0.00000000
0.06478859 -0.63631415 0.00000000
-0.75045254 -0.11585086 0.00000000
-0.02339277 -0.24092194 0.00000000
-0.58501668 -0.58089750 0.00000000
0.47258322 0.32498017 0.00810255
0.45075716 -0.79881596 0.00000000
-0.06386185 -0.39588122 0.00000000
-0.35110571 0.62026166 0.00000000
0.13769925 0.64379767 -0.00000016
-0.37695982 -0.50833581 0.00000000
-0.23745950 -0.79824927 0.00000000
-0.61586843 -0.62278261 0.00000000
-0.14872922 0.28170818 0.00000000
0.01903713 -0.25714175 0.00000000
-0.46112827 0.18431057 0.00000000
0.52361162 -0.44237941 -0.00000002
0.49886146 0.28146231 0.06545768
0.18481137 0.15721542 0.00000000
0.00760415 0.09572328 0.00000000
0.44192549 -0.34038326 0.00000000
0.00211896 0.38127325 0.00000000
-0.20518194 0.14406520 0.00000000
0.52867754 -0.46014574 -0.00000001
0.31535354 0.43063746 0.17968098
0.47649885 0.04445603 -0.00000035
0.71312916 -0.70785391 -0.00000012
0.42993056 0.30820508 0.20581513
-0.57037549 -0.30293677 0.00000000
-0.04929554 0.15272955 0.00000000
0.70722939 -0.72441421 -0.00000009
-0.03718356 0.51595874 0.00000000
0.34055411 -0.58326369 0.00000000
-0.17538750 0.09446349 0.00000000
0.42029878 -0.53357140 0.00000000
-0.68363495 -0.20882062 0.00000000
-0.49744568 -0.15981100 0.00000000
-0.36392339 -0.28385715 0.00000000
0.64181256 -0.75541422 0.00000000
0.69696569 -0.59163315 -0.00000026
0.01708004 0.78264404 0.00091467
0.16542196 -0.35210356 0.00000000
-0.64087068 0.04772406 0.00000000
-0.56505054 0.68989514 0.00000000
-0.78400198 0.14510111 0.00000000
0.28730511 -0.60442697 0.00000000
-0.74895303 0.18746810 0.00000000
0.26793422 -0.69486041 0.00000000
-0.38556295 0.26397826 0.00000000
-0.23879535 -0.34455055 0.00000000
0.24996049 0.45873022 0.30377357
0.52488373 -0.42947179 -0.00000003
0.20752765 -0.60492312 0.00000000
-0.37431707 0.60010321 0.00000000
0.02670744 -0.74292155 0.00000000
-0.35420355 0.02342336 0.00000000
-0.37533388 -0.41634118 0.00000000
0.33669866 -0.79862116 0.00000000
-0.35973310 0.15418320 0.00000000
0.56018762 0.12183837 -0.00000060
-0.36979597 0.75245564 0.00000000
0.38325501 -0.40605651 0.00000000
0.28557968 0.47138249 0.14318059
-0.69802217 -0.73028254 0.00000000
-0.27115988 -0.00656995 0.00000000
0.20024288 -0.47042756 0.00000000
0.67221317 -0.64679634 -0.00000016
-0.09038601 0.46385650 0.00000000
0.26779527 0.51040288 0.07252980
0.16719304 -0.48486983 0.00000000
0.15226657 0.36386441 0.00000000
0.63373440 -0.41861152 -0.00000028
0.33186628 -0.28968779 0.00000000
0.55756646 0.17370401 0.22865496
0.07134948 0.37598575 0.00000000
0.27871536 -0.62359014 0.00000000
0.13437721 0.63676440 -0.00000014
-0.30194040 0.18426304 0.00000000
0.45787896 0.29967351 0.14121648
-0.71183434 -0.78727874 0.00000000
-0.44104539 0.57172291 0.00000000
-0.17663030 -0.64141928 0.00000000
-0.70786523 -0.77204981 0.00000000
0.52233506 0.10049442 -0.00000050
-0.67279522 0.31079622 0.00000000
-0.76367865 -0.00635016 0.00000000
0.34115455 0.25527709 -0.00000025
-0.43152791 0.35372130 0.00000000
0.78996215 -0.32183935 -0.00000060
0.44424168 0.04436232 -0.00000028
-0.40011980 -0.42635280 0.00000000
0.45091194 -0.16144129 -0.00000011
0.78443584 -0.47912475 -0.00000040
0.24802631 0.47623838 0.25196101
-0.48242504 0.64796094 0.00000000
0.06217432 -0.13012912 0.00000000
-0.44858049 -0.16233503 0.00000000
0.47443102 -0.17587348 -0.00000015
-0.50878506 -0.23249728 0.00000000
0.01936855 -0.15625599 0.00000000
-0.78286290 -0.02764752 0.00000000
-0.63685139 0.06452387 0.00000000
0.12597631 -0.12979953 0.00000000
-0.54274940 -0.08146781 0.00000000
-0.46003104 0.46524512 0.00000000
-0.44316478 0.27867891 0.00000000
-0.66668282 -0.32799767 0.00000000
0.03202825 0.38040766 0.00000000
-0.02197079 -0.24997764 0.00000000
-0.44215515 0.36789977 0.00000000
-0.64102977 0.44931330 0.00000000
0.00681537 0.54381037 0.00000000
-0.71002306 -0.05693925 0.00000000
-0.53768514 0.47494080 0.00000000
0.06762337 0.55273969 0.00000000
-0.40309350 0.19231238 0.00000000
-0.34448770 0.03127360 0.00000000
-0.20972408 -0.55634353 0.00000000
-0.73438485 0.70413919 0.00000000
-0.61886485 -0.36523988 0.00000000
0.27953996 0.26575054 -0.00000012
0.42588789 0.36208417 0.04001241
-0.20227453 0.05269101 0.00000000
0.59862537 0.16288257 0.12805671
0.17325270 -0.32351137 0.00000000
0.55043772 -0.55619174 0.00000000
0.24617149 -0.41397656 0.00000000
-0.60236966 -0.54467709 0.00000000
0.56167979 0.17907344 0.19710640
-0.17074860 0.45832193 0.00000000
0.59892948 -0.06005005 -0.00000052
-0.67714313 -0.26535922 0.00000000
-0.17884378 -0.59745775 0.00000000
0.07145115 0.33638017 0.00000000
-0.49617665 0.21007807 0.00000000
0.70155395 -0.52242089 -0.00000033
-0.24340841 0.26224404 0.00000000
-0.24515441 0.17115784 0.00000000
-0.23600479 0.44793810 0.00000000
-0.36115847 0.59566410 0.00000000
0.12495675 0.60118694 -0.00000009
0.34796260 -0.75539031 0.00000000
0.68801661 -0.07589502 -0.00000069
0.63389379 -0.07686444 -0.00000058
0.69555990 -0.68372903 -0.00000015
-0.63149889 0.66200824 0.00000000
-0.51903487 0.71596579 0.00000000
-0.02005991 -0.10523442 0.00000000
0.61942065 0.02702575 -0.00000064
0.32623668 0.41129611 -0.00000035
-0.03638550 0.71834403 0.00000000
-0.25086007 0.47545493 0.00000000
0.24861005 -0.01433228 0.00000000
0.13944026 -0.01136906 0.00000000
-0.77681595 0.66506582 0.00000000
0.51598780 -0.69919535 0.00000000
0.56033836 0.21360587 0.08668195
0.73574144 -0.49689671 -0.00000038
0.51162918 -0.07854379 -0.00000032
-0.70756351 -0.40499341 0.00000000
-0.68423947 -0.49860084 0.00000000
0.30604200 0.42743221 0.22132293
-0.18611640 0.68461646 0.00000000
0.58761441 0.20189031 -0.00000073
-0.16804831 -0.27010989 0.00000000
-0.04880501 0.17738733 0.00000000
-0.77589262 0.59770972 0.00000000
0.32468759 0.36199758 -0.00000031
0.55136920 0.20438650 0.14719409
-0.44617029 -0.52144882 0.00000000
0.64669244 -0.60410048 -0.00000014
-0.07352792 0.48296578 0.00000000
-0.20645527 -0.00152893 0.00000000
0.00734427 -0.65967590 0.00000000
-0.02224993 0.15498580 0.00000000
0.58856308 -0.43682122 -0.00000016
0.50210837 -0.19965853 -0.00000019
0.09781822 0.11895063 0.00000000
-0.16865537 -0.06060369 0.00000000
0.19204806 0.51269263 0.31691405
0.64272126 0.12444754 0.10922333
-0.49396597 0.06199485 0.00000000
0.22316906 -0.05449248 0.00000000
-0.09409531 0.31590354 0.00000000
-0.32894991 -0.50541782 0.00000000
-0.06856033 0.24938345 0.00000000
0.30861168 0.32572416 -0.00000024
0.30936970 0.25589249 -0.00000018
0.17852875 0.58907584 0.10777402
-0.41761198 0.26021557 0.00000000
-0.33160341 -0.45747262 0.00000000
-0.12289959 -0.79345376 0.00000000
-0.00616305 0.74164325 0.00000000
-0.19733875 0.46675098 0.00000000
0.52740166 -0.70736083 0.00000000
-0.49201826 -0.22899576 0.00000000
0.72427725 0.04365451 -0.00000088
-0.12181108 0.55796638 0.00000000
0.08130493 -0.16794850 0.00000000
-0.57793156 0.73595639 0.00000000
-0.34031103 -0.25705780 0.00000000
-0.17615749 0.37095554 0.00000000
-0.48334916 -0.49989833 0.00000000
0.12972944 0.00420627 0.00000000
-0.45107060 -0.56692214 0.00000000
0.56825071 -0.26990987 -0.00000027
0.43886425 0.24027689 0.40208342
0.52190688 -0.24757355 -0.00000019
-0.77717293 -0.73932576 0.00000000
-0.49052281 0.55245092 0.00000000
-0.55189790 -0.64642924 0.00000000
-0.66049902 -0.35241049 0.00000000
0.62774311 -0.61348021 -0.00000009
-0.47545583 0.37437344 0.00000000
0.38572146 -0.32039327 0.00000000
-0.36995815 0.39248227 0.00000000
-0.09084459 0.02820320 0.00000000
-0.51087401 0.67240857 0.00000000
-0.00130896 -0.34803143 0.00000000
0.47499502 -0.62619188 0.00000000
-0.20316549 0.22587955 0.00000000
-0.36536305 0.43253532 0.00000000
-0.68128781 0.78847566 0.00000000
0.03598481 0.20625754 0.00000000
-0.14403085 -0.06202233 0.00000000
0.28878267 -0.39373326 0.00000000
0.57377584 0.15400578 0.24026215
0.15321232 0.36288912 0.00000000
-0.62778260 0.43196809 0.00000000
0.32391958 -0.27506585 0.00000000
0.02797354 -0.52535929 0.00000000
0.44041473 -0.18495677 -0.00000007
-0.15352904 0.07049250 0.00000000
0.69881347 -0.67398167 -0.00000016
-0.61483442 -0.31584832 0.00000000
-0.33959159 0.35750503 0.00000000
-0.42700099 -0.09591223 0.00000000
-0.72224151 -0.16000425 0.00000000
0.53621866 -0.43216552 -0.00000006
0.19893219 -0.38470685 0.00000000
-0.27972159 0.15209346 0.00000000
-0.63210746 0.46631485 0.00000000
-0.74115874 0.09973094 0.00000000
-0.12135561 -0.33514826 0.00000000
0.44209526 -0.17694265 -0.00000008
-0.22271825 0.26903253 0.00000000
0.33832423 -0.62636764 0.00000000
-0.34536738 -0.74796187 0.00000000
-0.43513925 -0.73134650 0.00000000
0.19700998 0.54126061 0.20536466
0.40936251 -0.63555797 0.00000000
-0.23292858 -0.19403141 0.00000000
0.21064132 -0.51446144 0.00000000
0.73716775 0.04322172 0.06523884
0.21530757 0.54837914 0.12080854
0.69857218 -0.24486778 -0.00000057
-0.10895442 0.50083501 0.00000000
-0.24576357 0.35609798 0.00000000
0.46681838 -0.36829153 0.00000000
0.09441288 -0.12910272 0.00000000
-0.27347704 0.19896817 0.00000000
-0.48790891 0.53056159 0.00000000
0.43680767 -0.04651336 -0.00000018
0.06286252 -0.03645553 0.00000000
-0.73505327 0.09284392 0.00000000
0.70917750 -0.06580413 -0.00000075
-0.04285008 -0.71213727 0.00000000
0.28946898 0.36019242 0.50015664
-0.34505445 -0.30144339 0.00000000
0.20278325 0.58810734 0.03030289
0.76650562 -0.18544235 -0.00000076
-0.03071993 -0.36248868 0.00000000
-0.70389869 0.76656658 0.00000000
-0.23591147 -0.37305980 0.00000000
0.01932214 -0.71942990 0.00000000
-0.40137068 0.60829476 0.00000000
-0.78948278 0.60999703 0.00000000
0.64941159 -0.57443231 -0.00000017
-0.53793462 0.32612923 0.00000000
0.14500550 0.44115411 0.00000000
-0.13283982 -0.01156781 0.00000000
0.37011653 0.23503417 -0.00000029
-0.56780770 0.34436101 0.00000000
-0.50124005 -0.71520014 0.00000000
-0.52635278 -0.55389558 0.00000000
-0.10670413 0.03667220 0.00000000
-0.75532821 0.21690827 0.00000000
-0.04621011 0.44862979 0.00000000
0.51523371 -0.02544782 -0.00000037
0.28896200 0.13325688 -0.00000003
-0.49759710 -0.29955141 0.00000000
0.06184363 -0.60713344 0.00000000
-0.68591718 -0.63507476 0.00000000
0.73603003 -0.11070186 -0.00000077
-0.50652420 0.24800733 0.00000000
0.31690867 -0.35268195 0.00000000
0.54107712 -0.10672852 -0.00000035
-0.57350713 -0.78096856 0.00000000
0.77043699 -0.35003183 -0.00000056
-0.79415881 0.47586576 0.00000000
-0.53997232 -0.70858095 0.00000000
-0.55027930 -0.63084231 0.00000000
-0.46197104 -0.53853099 0.00000000
0.19851716 0.58467174 0.05592596
0.16405209 0.54607075 -0.00000013
0.46823796 0.26449041 0.22380471
-0.14985222 0.65393921 0.00000000
0.59527814 -0.24371549 -0.00000035
-0.62170954 0.71223265 0.00000000
0.20387193 0.47621584 -0.00000015
-0.51035367 0.13843090 0.00000000
0.77922188 -0.39734393 -0.00000050
0.45960045 0.29715505 0.14386796
0.50825497 -0.36171883 -0.00000006
-0.37579589 0.66093295 0.00000000
-0.42081740 -0.26428169 0.00000000
0.28506786 -0.61919786 0.00000000
0.58658886 -0.26571908 -0.00000031
-0.74298585 -0.38327764 0.00000000
-0.68563342 0.79498775 0.00000000
0.41236179 0.35252668 -0.00000048
-0.63075613 0.02602048 0.00000000
0.22795465 0.37892376 -0.00000011
0.36205235 0.34123419 0.32175394
-0.52299364 0.07157195 0.00000000
0.08364564 0.67388733 0.14127983
0.55131041 0.10778420 -0.00000056
-0.12527370 -0.31976494 0.00000000
0.29469820 0.48086613 0.08129232
-0.54906038 0.26790637 0.00000000
0.57992127 -0.33000762 -0.00000024
0.50498668 0.23496329 0.19977886
0.75573533 -0.79140917 -0.00000001
-0.36951686 -0.43576180 0.00000000
0.06441438 -0.30565966 0.00000000
0.12805193 -0.61547486 0.00000000
-0.49812467 0.05462515 0.00000000
0.14298155 -0.79010335 0.00000000
-0.20647421 -0.04760751 0.00000000
0.42037083 0.31361572 0.21961891
-0.06367871 0.57408933 0.00000000
-0.74075528 0.41288740 0.00000000
0.21142291 -0.18151533 0.00000000
0.01280362 -0.38233551 0.00000000
-0.13962464 0.78946070 0.00000000
-0.23808825 0.26122808 0.00000000
-0.01327641 0.08580527 0.00000000
-0.12619127 -0.78848787 0.00000000
-0.73732312 0.47493365 0.00000000
-0.04423568 0.39027706 0.00000000
-0.03725558 0.63325660 0.00000000
0.70373371 -0.44567411 -0.00000040
-0.46513618 -0.40558369 0.00000000
-0.17421696 0.31257573 0.00000000
-0.44941652 -0.52723711 0.00000000
-0.16411734 0.61541988 0.00000000
0.43429092 -0.18213459 -0.00000006
-0.76936365 0.59487320 0.00000000
-0.04526945 0.02967660 0.00000000
0.03170095 -0.77641211 0.00000000
0.44491384 0.30450227 -0.00000051
-0.41300759 -0.24941654 0.00000000
0.11466646 -0.79207791 0.00000000
-0.71855521 0.24559597 0.00000000
0.69212456 -0.22680546 -0.00000057
-0.62660427 -0.60759598 0.00000000
0.02955759 0.35795555 0.00000000
0.32990525 0.46973149 0.00120484
-0.68172775 0.76221662 0.00000000
0.14464268 -0.11143633 0.00000000
-0.69445620 0.16216620 0.00000000
0.58494383 0.16862121 -0.00000069
0.22114218 -0.30467688 0.00000000
-0.75669693 0.30931297 0.00000000
0.42288172 -0.10662771 -0.00000010
0.50551131 0.23311469 -0.00000058
-0.61674213 -0.27415006 0.00000000
0.76491548 -0.17167602 -0.00000077
-0.11108838 0.33385383 0.00000000
0.43677671 -0.19209631 -0.00000006
0.55194616 -0.67170544 0.00000000
0.59814624 0.14357437 0.19388794
0.64244677 0.10697308 0.16827297
0.40146177 0.35015944 0.16094951
-0.29932744 0.31334026 0.00000000
0.28143040 -0.01721416 0.00000000
0.07693424 -0.35955690 0.00000000
0.20657458 0.57304630 0.06779655
-0.79400429 0.53521918 0.00000000
-0.71910236 -0.74278624 0.00000000
0.43543104 0.29950466 0.21646111
0.51816255 -0.62399730 0.00000000
-0.77163385 -0.12722083 0.00000000
0.33824104 0.41701953 0.14884165
0.49693124 -0.65372891 0.00000000
0.11179449 0.65545992 0.10893830
0.57870514 -0.47933159 -0.00000010
-0.06448891 0.30330335 0.00000000
-0.12076377 -0.61722428 0.00000000
0.26841129 -0.52634019 0.00000000
-0.12199284 -0.34314245 0.00000000
0.49382918 0.09568333 -0.00000043
0.14531235 -0.35753949 0.00000000
-0.03699994 -0.40588907 0.00000000
-0.04202389 -0.15956231 0.00000000
-0.22534326 0.56126441 0.00000000
-0.19867827 -0.27405419 0.00000000
0.10565020 -0.17931746 0.00000000
-0.20642734 -0.25581628 0.00000000
-0.06839294 -0.34738303 0.00000000
-0.30250821 -0.51082873 0.00000000
-0.14588103 0.14337133 0.00000000
0.15291862 -0.17584384 0.00000000
0.58246348 -0.23367867 -0.00000033
-0.17760285 -0.24192552 0.00000000
-0.65389033 0.11494686 0.00000000
0.22972481 0.52009166 0.16695346
0.40043129 0.38850896 0.03679133
0.57990962 -0.05883774 -0.00000048
0.75074074 0.03553682 0.04564949
-0.63921235 -0.13226456 0.00000000
-0.41764587 -0.67644400 0.00000000
-0.45713740 0.72246640 0.00000000
0.16061810 -0.01108310 0.00000000
0.46090131 0.30046850 0.12851641
0.59693268 -0.59439418 -0.00000004
0.39299744 0.36334259 0.14525027
0.36715057 -0.26249574 0.00000000
0.14347364 0.54371292 -0.00000008
0.38839717 -0.65709606 0.00000000
0.14670191 0.63221530 0.07013768
0.10064923 -0.18262281 0.00000000
-0.19742162 0.24294497 0.00000000
-0.23373698 0.07005859 0.00000000
-0.45508932 0.51122859 0.00000000
-0.72956395 -0.54745641 0.00000000
-0.61581629 0.29261366 0.00000000
-0.52210612 0.24877997 0.00000000
0.64776156 -0.27890670 -0.00000043
-0.64727590 0.79772402 0.00000000
0.60326826 -0.23300187 -0.00000037
0.52793726 0.18060453 0.30427193
0.42334143 -0.22053922 -0.00000000
-0.04128793 0.53768635 0.00000000
0.76662306 -0.19006915 -0.00000076
0.15672747 0.23410414 0.00000000
0.02425213 0.76594689 0.03260357
0.22070246 0.55136732 0.09291859
0.20551172 -0.28923081 0.00000000
-0.06949529 0.59165646 0.00000000
0.22134912 0.53720758 0.13787577
-0.46192744 0.27943649 0.00000000
0.69727825 -0.11510363 -0.00000068
0.48933161 -0.15769964 -0.00000020
0.72966438 -0.78140546 -0.00000002
-0.13332240 0.15699391 0.00000000
0.38997385 -0.45870755 0.00000000
-0.55792645 -0.33353721 0.00000000
-0.03548616 -0.43394535 0.00000000
-0.09415125 -0.34369420 0.00000000
-0.01556412 0.53298884 0.00000000
0.07969510 0.71203136 0.02752220
0.61582111 -0.19422067 -0.00000044
0.08859569 0.70233563 0.03016753
0.33562630 -0.71929345 0.00000000
0.68944487 0.10307402 0.02488505
-0.10709594 -0.55161997 0.00000000
0.13896004 -0.57515496 0.00000000
0.47202330 0.29517003 -0.00000056
-0.29329448 0.31948377 0.00000000
0.57889812 0.16552838 0.18488564
0.33129474 -0.22315770 0.00000000
0.65355422 -0.30406683 -0.00000042
0.24606086 -0.20744595 0.00000000
0.53893265 -0.79996143 0.00000000
-0.76582563 0.72587690 0.00000000
0.48805005 -0.42862352 0.00000000
-0.37972031 0.78878229 0.00000000
-0.02106683 0.13862272 0.00000000
-0.70923475 0.15820208 0.00000000
0.61530007 -0.06566649 -0.00000055
-0.15072207 -0.30174321 0.00000000
0.54617847 0.21180785 0.13977296
0.27628076 -0.61915872 0.00000000
0.71145622 0.07924643 0.03092754
-0.71472190 -0.70753465 0.00000000
-0.05463609 0.74288462 0.00000000
0.15726658 -0.07748043 0.00000000
0.42334086 0.37604251 0.00204768
-0.23434591 -0.48261446 0.00000000
-0.79322344 0.28917908 0.00000000
-0.48480913 -0.09668891 0.00000000
0.26698276 -0.65590165 0.00000000
-0.34358264 -0.25899288 0.00000000
0.30620080 -0.32652079 0.00000000
0.31874046 -0.00968556 0.00000000
0.22491815 -0.38077609 0.00000000
0.57413032 -0.59425252 0.00000000
-0.76557570 -0.19457465 0.00000000
-0.31805182 0.16199376 0.00000000
-0.21808438 -0.50335147 0.00000000
-0.19713588 0.24604972 0.00000000
0.13211054 -0.02928248 0.00000000
0.28304379 0.06377941 0.00000000
0.74033238 -0.02856203 -0.00000085
-0.43530050 -0.67805461 0.00000000
-0.38620534 -0.44437346 0.00000000
0.38244586 -0.73827646 0.00000000
-0.14272530 0.26321128 0.00000000
0.46808278 0.26018523 0.23864408
-0.05919960 -0.77919748 0.00000000
0.53166527 0.19067934 0.25835080
0.26360863 -0.73353999 0.00000000
-0.53345258 0.73881341 0.00000000
0.39399577 0.34879881 -0.00000044
-0.23822387 0.12212958 0.00000000
0.38497099 0.37975134 0.11736291
0.13779146 -0.66076943 0.00000000
0.29482038 0.50406640 0.00369997
0.14815668 -0.42328316 0.00000000
0.21657238 -0.49975561 0.00000000
0.71769750 -0.69312191 -0.00000013
0.15677705 -0.66951132 0.00000000
0.00121274 0.73324008 0.00000000
0.42227585 -0.62774604 0.00000000
0.17228222 0.38308910 0.00000000
-0.17604396 0.42870788 0.00000000
-0.19791141 -0.52204500 0.00000000
-0.63287393 -0.54052066 0.00000000
0.40182324 0.28177810 0.38724445
0.62087376 -0.64268976 -0.00000005
-0.40106566 -0.55551894 0.00000000
0.41847909 -0.30446406 0.00000000
0.01814277 0.39758742 0.00000000
-0.54021382 -0.54982602 0.00000000
-0.43200788 0.36602913 0.00000000
-0.74305858 -0.28292056 0.00000000
-0.33930009 0.28353680 0.00000000
-0.24141007 -0.33400173 0.00000000
0.11167390 0.21984021 0.00000000
0.47588492 0.13587813 -0.00000043
-0.14360781 0.00848780 0.00000000
-0.67074918 0.00985514 0.00000000
0.16308977 0.55878517 0.25991031
-0.39527465 -0.00600066 0.00000000
0.75974011 -0.61475528 -0.00000023
0.38768161 0.30777772 0.34779434
-0.35190997 -0.56424347 0.00000000
-0.57891857 -0.67028844 0.00000000
0.50344568 -0.22732356 -0.00000017
-0.38022170 -0.75177642 0.00000000
-0.16184777 0.21233710 0.00000000
-0.59145024 0.41888594 0.00000000
0.47038221 -0.22307505 -0.00000010
0.43749445 0.20279634 -0.00000041
-0.46378198 0.40093232 0.00000000
0.28224317 -0.13373824 0.00000000
0.36811508 0.41276796 0.06359720
-0.04210710 0.38255200 0.00000000
-0.49622368 -0.39422557 0.00000000
0.74335536 -0.57325408 -0.00000028
0.30495676 0.43850769 0.18808664
-0.06624658 0.42215715 0.00000000
0.42500708 0.27193797 -0.00000044
-0.03504254 0.65280424 0.00000000
-0.32805136 -0.34356224 0.00000000
0.65499144 -0.39267282 -0.00000034
0.34255973 -0.42405746 0.00000000
-0.52881105 -0.55851378 0.00000000
0.49357934 -0.20432681 -0.00000017
-0.17466291 0.16026517 0.00000000
0.24723610 -0.38375361 0.00000000
0.27767798 0.05606922 0.00000000
0.17174451 0.06672452 0.00000000
0.59639336 0.12166900 -0.00000067
0.08170902 -0.39042936 0.00000000
0.23631483 -0.14366636 0.00000000
-0.55302821 0.24777082 0.00000000
0.40748816 0.13524987 -0.00000028
-0.78098689 0.13219359 0.00000000
0.57304186 0.20258263 0.08109182
0.28789564 0.40498664 0.35636657
-0.61771478 -0.45031982 0.00000000
-0.23185100 -0.41353311 0.00000000
-0.47039195 0.25771857 0.00000000
-0.16567539 0.41966736 0.00000000
-0.10087855 0.31436735 0.00000000
0.30367800 0.07864661 -0.00000001
0.50253165 0.14711606 -0.00000050
0.49399462 -0.30508511 -0.00000008
-0.18059539 -0.29420007 0.00000000
-0.67666982 0.34916017 0.00000000
-0.15744620 -0.34378727 0.00000000
-0.20874369 -0.50073299 0.00000000
0.34175847 -0.56490851 0.00000000
-0.20090467 0.46467922 0.00000000
0.33133764 -0.79274046 0.00000000
0.31134573 -0.54180437 0.00000000
-0.67281752 -0.31556772 0.00000000
0.52001185 -0.56208083 0.00000000
0.15591800 0.38363640 0.00000000
0.77164627 -0.47381510 -0.00000041
0.22112411 0.11070371 0.00000000
-0.26637032 -0.64918722 0.00000000
0.24083418 -0.70919583 0.00000000
0.59579077 -0.14076497 -0.00000044
0.38463836 0.33668745 0.26173999
0.15387395 -0.58821465 0.00000000
0.29755302 -0.36172573 0.00000000
0.38208525 0.35324035 0.21516402
-0.36022770 0.26782398 0.00000000
0.48267168 -0.36779323 0.00000000
-0.33708517 -0.23996237 0.00000000
0.25433322 0.47597126 0.23186754
-0.09987226 0.78554619 0.00000000
-0.64197694 -0.58919765 0.00000000
-0.38128061 0.51978390 0.00000000
0.37054737 0.26091839 -0.00000031
-0.44701587 -0.44406181 0.00000000
-0.73950468 -0.09647739 0.00000000
-0.68469059 -0.64761214 0.00000000
-0.58362264 0.05650197 0.00000000
-0.76320196 0.65776256 0.00000000
0.17657107 0.61386514 0.03181464
0.46266497 0.26912012 0.22694297
-0.79601306 -0.09513342 0.00000000
0.31907053 0.36287658 0.39274679
0.59470993 -0.03777965 -0.00000053
-0.21181363 0.48139622 0.00000000
0.36579147 0.39224793 0.13959658
0.74252343 -0.29320509 -0.00000062
-0.19741974 0.17473249 0.00000000
-0.50973483 -0.68751737 0.00000000
0.74349434 -0.44091590 -0.00000045
0.34890863 0.34645599 0.34810894
-0.53051452 -0.50254030 0.00000000
-0.49954923 -0.60129353 0.00000000
0.45161569 0.12908282 -0.00000037
-0.30275636 0.78985785 0.00000000
-0.54644099 -0.69268725 0.00000000
0.71804978 -0.47556015 -0.00000040
-0.22151476 -0.49414677 0.00000000
-0.18688521 0.07286238 0.00000000
-0.51830441 0.52299506 0.00000000
-0.46821587 0.57124231 0.00000000
0.22374480 0.29325929 -0.00000003
-0.04789958 0.32763542 0.00000000
0.15842088 0.56618630 0.25082048
-0.02979799 -0.18129941 0.00000000
0.15366181 -0.60651152 0.00000000
0.25178300 -0.41181716 0.00000000
0.32165564 -0.39102337 0.00000000
-0.69773994 -0.22009733 0.00000000
-0.61995533 -0.14125354 0.00000000
-0.75993020 0.08391663 0.00000000
-0.06812310 0.66835511 0.00000000
0.24749009 -0.69618851 0.00000000
0.54545625 -0.00163110 -0.00000046
0.44396279 0.31888253 0.12360749
-0.31006216 -0.46728096 0.00000000
-0.61426206 -0.05313567 0.00000000
0.23397464 -0.37900727 0.00000000
-0.61250904 0.42135941 0.00000000
-0.56028116 0.14050669 0.00000000
-0.09747746 -0.67550609 0.00000000
-0.33734180 0.46053701 0.00000000
-0.45318532 -0.67783220 0.00000000
-0.11928070 -0.08604031 0.00000000
-0.78074594 0.76935338 0.00000000
0.09677425 0.41035063 0.00000000
-0.15096692 -0.02664019 0.00000000
0.04723394 -0.05380437 0.00000000
0.04209641 0.39276741 0.00000000
0.14251719 0.65300513 0.01489350
0.43072454 -0.51108127 0.00000000
0.33550065 0.35604237 0.36082270
0.30580139 0.11833422 -0.00000005
0.03421830 -0.41219766 0.00000000
-0.34947860 0.37374327 0.00000000
0.01561576 0.45324874 0.00000000
0.27777676 -0.10483785 0.00000000
-0.07297305 0.76025432 0.00000000
-0.47451354 0.53918757 0.00000000
0.21186803 -0.43431088 0.00000000
-0.16208828 -0.27393891 0.00000000
-0.28262479 0.41407923 0.00000000
-0.67076293 0.49485967 0.00000000
0.54816979 0.19730890 0.18138509
-0.33672590 -0.02909653 0.00000000
-0.10885261 0.12445622 0.00000000
-0.01032033 -0.22096550 0.00000000
-0.10987263 0.22416896 0.00000000
0.52512882 -0.57394149 0.00000000
0.12159977 -0.42798269 0.00000000
0.64294883 -0.32584361 -0.00000038
-0.63215651 0.59428641 0.00000000
0.56919899 0.20296660 -0.00000069
0.74752194 -0.19534362 -0.00000072
0.22454842 0.50015898 -0.00000021
0.17528394 -0.31206811 0.00000000
0.68136761 -0.74175059 -0.00000007
-0.18209502 0.22804403 0.00000000
0.07420211 0.31041865 0.00000000
-0.50957606 0.55219600 0.00000000
0.66195573 -0.65190687 -0.00000013
-0.48728799 -0.22119743 0.00000000
0.18986620 -0.56996308 0.00000000
0.62738590 -0.30870048 -0.00000036
-0.22035880 0.73536784 0.00000000
0.74860694 -0.20666323 -0.00000071
0.29765343 -0.39255884 0.00000000
-0.48543893 0.25940463 0.00000000
-0.69201974 0.62781823 0.00000000
-0.15145100 0.77913277 0.00000000
-0.15864720 0.29631366 0.00000000
-0.18988356 0.18304062 0.00000000
0.25416331 -0.38095994 0.00000000
-0.36109188 -0.19536081 0.00000000
0.36275069 0.43462993 0.00871078
-0.77491258 -0.10206288 0.00000000
-0.48753417 -0.46763502 0.00000000
-0.26989644 -0.45310208 0.00000000
-0.15368985 -0.06347871 0.00000000
-0.59822936 -0.59632991 0.00000000
-0.22209351 -0.28882614 0.00000000
0.16836940 0.59862747 0.10979582
-0.43329949 -0.79956759 0.00000000
-0.74731274 -0.19768542 0.00000000
0.13729471 0.61616084 0.15484556
-0.57271040 0.31628582 0.00000000
0.49302397 0.22088088 0.28642940
-0.17724460 0.33826902 0.00000000
0.49045707 0.24568717 -0.00000056
0.18613990 -0.25441742 0.00000000
-0.42986391 -0.12185261 0.00000000
0.48553512 0.27633934 0.12683744
-0.07202582 0.20273543 0.00000000
-0.77256809 0.70083923 0.00000000
-0.15594783 0.45725664 0.00000000
-0.24237153 -0.39180289 0.00000000
-0.72471882 0.11410360 0.00000000
-0.07375727 0.40751053 0.00000000
0.34740484 0.36510176 0.29107983
0.32628528 0.16433116 -0.00000013
-0.75031828 0.18691873 0.00000000
-0.29043930 -0.35352860 0.00000000
0.49511307 -0.58169580 0.00000000
-0.27064141 0.52161090 0.00000000
0.06926523 -0.43472763 0.00000000
-0.34221539 -0.31286506 0.00000000
0.46894244 0.28908230 0.13964525
0.04159314 -0.17586207 0.00000000
-0.14557782 -0.09448514 0.00000000
-0.41904120 -0.33149124 0.00000000
0.58710578 0.16448184 -0.00000069
-0.50613896 0.15709824 0.00000000
0.19425123 0.13032683 0.00000000
0.41137932 -0.54086901 0.00000000
0.13657472 0.58453865 -0.00000010
-0.01555358 -0.79989520 0.00000000
0.04111354 0.74922496 0.03213974
0.06255893 0.19906146 0.00000000
0.37836601 0.37867743 0.14291008
0.25826510 -0.77940500 0.00000000
0.33613657 0.43343718 0.10122255
0.39560841 0.31418041 0.30012216
0.64591958 0.11187717 -0.00000077
-0.58046374 0.28149767 0.00000000
0.26997024 -0.17426171 0.00000000
0.34792357 0.45021800 0.00617916
-0.37044067 -0.23429998 0.00000000
0.31216581 0.26160265 -0.00000019
-0.06456505 -0.25029446 0.00000000
-0.34138380 -0.17010100 0.00000000
0.36316665 -0.46827929 0.00000000
0.30795823 -0.42949217 0.00000000
0.19179865 0.60371871 0.01490995
0.76004175 -0.45672360 -0.00000043
0.08853007 0.36485836 0.00000000
0.01827113 -0.61868932 0.00000000
-0.15774590 0.36071652 0.00000000
0.58976460 -0.35941738 -0.00000023
-0.18873395 0.30175195 0.00000000
-0.43525169 0.77651827 0.00000000
-0.27464696 -0.13997354 0.00000000
0.30960852 -0.70246854 0.00000000
-0.46030623 -0.36499585 0.00000000
-0.30945665 -0.20845898 0.00000000
0.14344838 0.58350396 0.24301826
-0.32373645 0.72373853 0.00000000
0.56875688 -0.68971399 0.00000000
0.41051997 0.31085343 0.26158200
-0.27694056 0.13172240 0.00000000
-0.79571836 0.29153671 0.00000000
-0.43676356 0.07916769 0.00000000
0.01401422 -0.78781337 0.00000000
-0.21133557 -0.69817929 0.00000000
-0.79234519 -0.24659156 0.00000000
-0.44955988 0.52357390 0.00000000
0.12968310 -0.75258898 0.00000000
0.78642695 -0.06634552 -0.00000091
0.44835529 0.25078685 0.33554288
-0.47238017 -0.28108026 0.00000000
-0.66580161 0.60444775 0.00000000
-0.73540564 0.42364557 0.00000000
-0.76490162 0.30277171 0.00000000
0.71777288 -0.65068363 -0.00000019
0.04261373 0.04209440 0.00000000
-0.23371825 0.60166881 0.00000000
-0.23743636 -0.43652664 0.00000000
-0.57551229 0.73421031 0.00000000
-0.69929057 0.17187840 0.00000000
-0.44373835 -0.67679087 0.00000000
-0.20001645 0.40852558 0.00000000
0.65713171 0.10001737 0.14255827
0.17345685 0.54388847 -0.00000014
0.31646516 0.32344994 -0.00000025
-0.31709856 -0.18875932 0.00000000
0.55240097 -0.50968230 -0.00000002
-0.73135181 -0.38323135 0.00000000
-0.31356372 0.44262184 0.00000000
-0.61929327 0.77487783 0.00000000
0.40356993 -0.17353592 -0.00000000
0.79854529 -0.54095254 -0.00000032
0.24773389 -0.78804774 0.00000000
-0.20760485 -0.55160041 0.00000000
0.36756589 -0.79533775 0.00000000
-0.21166664 -0.78890905 0.00000000
0.47443522 -0.44319794 0.00000000
0.73920758 0.05221600 0.02852898
-0.07288421 -0.16121509 0.00000000
-0.71267675 0.34607925 0.00000000
0.61409440 -0.69426766 0.00000000
-0.10483272 0.00494565 0.00000000
0.57146974 -0.39124133 -0.00000017
-0.01120698 0.64994998 0.00000000
0.50984348 0.21581007 0.24734217
0.52491699 0.18899196 0.28641572
-0.14199312 -0.45612238 0.00000000
0.44141540 -0.78833031 0.00000000
0.14198679 -0.37602875 0.00000000
-0.28891719 0.33090458 0.00000000
-0.61414183 -0.31910102 0.00000000
0.32463378 0.02170513 -0.00000000
0.21720402 0.26221633 0.00000000
-0.15342704 -0.23937967 0.00000000
-0.25515186 -0.25851155 0.00000000
-0.63989296 -0.68502276 0.00000000
0.12344068 -0.35608368 0.00000000
-0.68341658 -0.34543233 0.00000000
-0.32645044 -0.75700195 0.00000000
0.50898169 0.28059812 0.03466339
0.45629027 -0.79179402 0.00000000
0.08893953 -0.72475022 0.00000000
0.25981866 -0.48247415 0.00000000
0.57354062 0.21601132 0.03475606
0.21534587 -0.01663087 0.00000000
0.58502442 0.16706026 0.15940734
-0.79553669 -0.02375841 0.00000000
0.47874699 0.27306999 0.16029810
0.43714109 -0.32746355 0.00000000
0.28311960 0.44160982 0.25041535
0.51928496 -0.72105523 0.00000000
-0.42857084 -0.69643108 0.00000000
-0.40789837 -0.35432307 0.00000000
-0.44320090 -0.61686851 0.00000000
0.46112047 -0.07191923 -0.00000021
-0.42505052 -0.48137886 0.00000000
-0.61650373 -0.21673556 0.00000000
-0.74092779 -0.26279984 0.00000000
-0.53165287 -0.57160084 0.00000000
0.45046545 0.06287180 -0.00000031
-0.48656617 -0.13995037 0.00000000
-0.11939792 -0.24590447 0.00000000
0.53573807 0.22551853 0.12889296
-0.73107266 -0.20317347 0.00000000
0.67709901 -0.20951146 -0.00000055
0.20019547 0.56159494 0.12711739
-0.19335207 -0.04919074 0.00000000
0.63221232 -0.22225228 -0.00000045
0.16111003 0.63414960 0.01576743
-0.08394381 0.68850059 0.00000000
0.65790899 -0.11605834 -0.00000059
-0.71209531 0.58364998 0.00000000
-0.35476685 -0.05666257 0.00000000
0.16220275 0.57457436 0.21033278
0.33829111 -0.02926375 0.00000000
0.48443033 -0.48084847 0.00000000
