ply
format ascii 1.0
element vertex 1377
property float x
property float y
property float z
end_header
0.37567022 -0.13562721 -0.00000042
0.56198616 0.22564832 -0.00000168
-0.57468396 -0.08890382 -0.00000022
0.12052757 -0.47582280 -0.00000020
-0.18297320 -0.69712733 -0.00000006
0.00229731 0.79725286 -0.00000100
0.09134170 -0.19406413 -0.00000038
0.74898317 -0.18394658 -0.00000148
0.18797287 0.23227975 -0.00000065
-0.42637027 -0.68933741 -0.00000007
0.35900377 0.43424302 -0.00000144
0.16561136 0.07796192 -0.00000055
0.04175497 0.48904713 0.00000342
-0.13108681 0.40038794 -0.00000075
-0.62848935 0.20721582 0.03887720
-0.64790235 0.31394001 0.17621900
-0.47368928 -0.63816963 -0.00000010
-0.48356354 0.64184697 0.35431793
0.31328905 -0.42779659 -0.00000023
-0.31962323 0.60238034 0.13284016
0.09820284 0.52108993 -0.00000083
-0.49880393 -0.41292758 -0.00000024
0.25217609 0.40623913 0.00000123
-0.66120991 -0.44793634 -0.00000007
-0.15016761 -0.59848127 -0.00000013
0.18761406 0.60048958 -0.00000102
-0.75689737 -0.15346604 -0.00000002
-0.30144874 -0.41767717 -0.00000024
0.39076105 0.34148601 -0.00000136
0.26806231 0.16271174 0.00000529
0.50149167 -0.34826115 -0.00000037
-0.22612093 0.59618786 0.02428924
-0.58104232 0.08406620 -0.00000025
0.60257605 -0.72848095 -0.00000004
-0.04518538 -0.37422633 -0.00000027
0.38167333 0.21095321 0.00000225
0.21639432 0.17487651 -0.00000061
0.56960675 -0.63598336 -0.00000010
0.49118064 0.30307455 -0.00000160
-0.27793930 -0.34986896 -0.00000028
0.18546213 0.22156101 -0.00000064
-0.35606918 -0.50217754 -0.00000019
0.63520528 -0.01673386 -0.00000144
0.63876292 -0.57996023 -0.00000035
0.11742215 -0.68405838 -0.00000007
-0.47464652 -0.08692976 -0.00000033
-0.12716493 -0.11014659 -0.00000043
0.49427622 -0.02917239 -0.00000096
-0.49218333 0.53282119 0.24499172
0.26391453 0.34904659 0.00000203
0.56658804 0.06368743 -0.00000138
-0.48825633 0.61596356 0.33124471
0.28907288 0.22458879 0.00000378
0.35971300 -0.07001673 -0.00000046
0.34279927 -0.62693001 -0.00000011
0.25874567 0.46345769 0.00000007
0.68494225 -0.78151169 -0.00000005
0.52385201 0.02092924 -0.00000116
-0.12697009 0.45494260 -0.00000078
0.29546865 -0.32288041 -0.00000030
-0.63772641 -0.41052161 -0.00000010
-0.60400232 0.56083864 0.39725134
-0.14948072 0.22590472 -0.00000064
0.27161734 0.26461631 -0.00000082
-0.34155320 -0.75589998 -0.00000003
0.47647026 0.28527576 -0.00000152
0.01013255 0.54862560 -0.00000084
-0.41021406 0.57673216 0.20355233
-0.20038994 0.72867550 0.14052953
0.28198244 0.35063256 -0.00000103
0.34455706 0.05100795 0.00000583
-0.64914459 -0.77035246 -0.00000002
0.03056015 0.71229492 -0.00000004
-0.01335308 0.63270208 -0.00000090
0.11184409 -0.60400891 -0.00000012
-0.44490961 -0.61203191 -0.00000012
-0.74945544 0.05922748 0.00945509
0.63011423 -0.17606372 -0.00000111
0.59169396 -0.11243169 -0.00000111
0.01516488 0.32873210 -0.00000071
0.05661616 -0.78994942 -0.00000001
0.29307573 -0.59577116 -0.00000013
0.49394639 0.15827290 -0.00000133
0.69241097 -0.05692196 -0.00000154
0.40536066 0.20149841 0.00000196
0.30727877 0.32702663 0.00000159
0.14148007 -0.12231248 -0.00000042
-0.64520927 0.48530857 0.35987886
-0.01351308 0.01498541 -0.00000051
0.60050134 0.14684505 -0.00000081
-0.30895387 -0.47432628 -0.00000020
-0.77962195 -0.36740952 0.00000000
-0.04510137 -0.21450302 -0.00000037
-0.15316149 -0.42967826 -0.00000023
0.10847163 -0.60641216 -0.00000012
0.00794430 -0.45789772 -0.00000021
0.59653627 -0.02248962 -0.00000130
-0.22384803 -0.59476349 -0.00000013
-0.74267988 0.01522910 -0.00000006
-0.57679470 -0.13954288 -0.00000021
-0.71520704 -0.66514741 0.00000000
-0.26609196 0.15286360 -0.00000060
-0.27855434 0.65229837 0.14247551
-0.75582592 -0.53195834 0.00000000
-0.42584436 0.56695115 0.20992126
0.45397306 0.15161717 -0.00000119
-0.17644367 -0.31950693 -0.00000030
-0.15182790 -0.42768440 -0.00000023
-0.16222884 -0.53546026 -0.00000017
0.05628872 0.49533359 0.00000310
0.52444859 -0.44051675 -0.00000026
0.45013809 -0.34744531 -0.00000028
0.37170431 0.37188710 -0.00000045
-0.23867391 0.13057962 -0.00000058
0.46686537 -0.30240275 -0.00000034
0.53828177 0.22669662 -0.00000104
-0.47458728 0.35454052 0.03171495
-0.28933789 -0.09600831 -0.00000044
-0.35098410 -0.09600258 -0.00000044
-0.48373184 0.22204100 -0.00000038
0.09517398 -0.16384882 -0.00000040
-0.55962443 0.58216194 0.37214858
-0.56350092 -0.03230131 -0.00000025
-0.11229002 -0.62260022 -0.00000011
0.23518096 -0.10951937 -0.00000043
0.59695688 -0.02983836 -0.00000129
-0.26162497 0.44468296 -0.00000066
-0.36149845 -0.79888039 -0.00000000
0.08700711 -0.49210544 -0.00000019
0.14302980 -0.32085501 -0.00000030
-0.47772893 -0.71684309 -0.00000005
-0.00645829 0.18424554 -0.00000062
0.16446128 0.38879533 0.00000320
-0.57957667 0.37680659 0.17027472
-0.35817161 -0.37259882 -0.00000027
0.12287222 -0.32523221 -0.00000030
-0.12420037 0.34010969 -0.00000071
0.67141796 -0.76229439 -0.00000009
-0.77430220 -0.14977461 -0.00000000
-0.54112331 0.50712108 0.27029620
0.13071129 0.55226499 0.00000094
0.21965100 0.34390411 -0.00000081
0.13492667 0.17710964 -0.00000061
0.21795128 -0.75091801 -0.00000003
-0.21275862 -0.60802338 -0.00000012
0.11383963 0.42241544 0.00000342
-0.69904640 0.17982059 0.08587328
0.70602944 -0.54632730 -0.00000063
0.16881705 -0.03344208 -0.00000048
0.06649254 0.58516098 0.00000149
0.68375985 -0.40342978 -0.00000084
0.40702619 -0.36004630 -0.00000027
-0.41531002 0.66115435 0.30102341
0.30368536 -0.53249586 -0.00000017
0.07485560 0.37220657 0.00000482
-0.27811357 0.67208847 0.16354386
-0.60791911 -0.56098881 -0.00000010
-0.61290751 0.59897908 0.44847656
-0.27764831 0.51946254 -0.00000065
0.12790011 -0.76157754 -0.00000002
0.18194461 0.27159084 0.00000484
0.28551375 -0.68099789 -0.00000007
-0.27617189 -0.07465027 -0.00000045
-0.01950661 0.47619860 -0.00000080
-0.51857999 0.59699381 0.34360728
-0.45923452 0.58002069 0.26050849
0.07223662 -0.17484411 -0.00000039
-0.00783671 -0.56460833 -0.00000015
-0.31646571 0.52277780 0.04272859
0.32179833 -0.73667322 -0.00000004
-0.36577771 -0.29636866 -0.00000031
-0.38505550 0.12237089 -0.00000047
0.03337955 0.14744816 0.00000910
0.32422638 -0.12391830 -0.00000042
0.29844511 0.32854118 0.00000173
-0.53900947 0.50458056 0.26522835
-0.14596884 0.32334272 -0.00000070
-0.44263074 0.38856426 0.03396565
-0.79679495 -0.40702577 0.00000000
-0.20054123 -0.47717994 -0.00000020
0.08322126 0.03184138 0.00001023
-0.35121030 -0.53217695 -0.00000017
-0.41806907 -0.51214203 -0.00000018
0.00481879 0.36835733 0.00000594
-0.57861631 0.26493051 0.04741521
0.36265474 -0.32717530 -0.00000030
-0.19882707 -0.49416392 -0.00000019
-0.29308225 -0.24412183 -0.00000035
-0.40787811 0.07679950 -0.00000043
-0.39457238 -0.32192335 -0.00000030
-0.22383580 0.60620715 0.03271039
0.47718895 0.29165280 -0.00000104
-0.63508547 0.46775478 0.32974236
0.24611209 0.30064107 -0.00000081
-0.18868726 0.67333730 0.06753274
0.56432098 -0.72944411 -0.00000004
-0.62924846 -0.34425568 -0.00000012
-0.09936013 0.73724056 0.03985016
0.15097844 -0.30895084 -0.00000031
0.43817240 0.18664315 -0.00000121
-0.46490846 0.59358400 0.28145481
-0.17346797 -0.27861697 -0.00000033
0.42889085 0.09693982 -0.00000100
0.32977834 -0.13124456 -0.00000042
0.23772646 0.24201430 -0.00000067
0.23054894 0.33301853 -0.00000083
-0.28716263 0.16559416 -0.00000058
0.72077258 -0.25679144 -0.00000125
-0.30029229 -0.72202098 -0.00000005
-0.25245535 -0.43357175 -0.00000023
-0.40693339 -0.61870750 -0.00000011
-0.41321030 -0.11404656 -0.00000039
0.03904966 -0.73567900 -0.00000004
0.23816072 -0.75249779 -0.00000003
0.04997939 0.65358837 0.00000063
0.16205956 -0.65490410 -0.00000009
0.42368071 -0.69866428 -0.00000006
-0.63875314 -0.60804505 -0.00000006
0.67240119 -0.45071081 -0.00000071
0.63382724 -0.28255092 -0.00000092
-0.52474602 -0.62252307 -0.00000011
0.13342570 0.39635402 -0.00000075
0.17188067 0.05213952 -0.00000053
-0.64769326 -0.12331446 -0.00000014
0.24069324 0.10291176 0.00000670
-0.57219847 0.37814417 0.16369749
-0.13781488 -0.33295175 -0.00000029
0.39040775 -0.76121510 -0.00000002
-0.14191650 -0.26350432 -0.00000034
0.25343835 0.00284073 0.00000813
0.06789066 -0.72755794 -0.00000005
0.21287833 0.51872960 -0.00000004
-0.33632858 -0.49762728 -0.00000019
0.45968084 -0.09677917 -0.00000072
0.41890087 0.01968246 -0.00000082
-0.41445006 0.04930589 -0.00000042
-0.67531276 -0.44685192 -0.00000005
-0.10127588 -0.50583105 -0.00000018
-0.22165986 -0.73780523 -0.00000004
0.29465612 -0.10419087 -0.00000043
0.09951954 0.09220484 0.00000900
0.57449261 0.04091767 -0.00000136
-0.26359174 -0.07373247 -0.00000045
-0.28048287 -0.14306628 -0.00000041
-0.27737416 -0.40914272 -0.00000024
-0.46049130 -0.37358997 -0.00000027
-0.75170550 -0.08142930 -0.00000004
0.17396168 -0.46958151 -0.00000021
-0.64826508 -0.42337639 -0.00000008
-0.69510294 0.19374417 0.09673991
-0.02486023 -0.54213807 -0.00000016
0.74957384 -0.38344599 -0.00000104
-0.56925473 0.15619960 -0.00000027
-0.53289326 -0.27274770 -0.00000024
0.40784942 0.33864213 -0.00000141
-0.25173113 -0.32131930 -0.00000030
0.45197327 0.34526531 -0.00000152
0.71131896 -0.10773068 -0.00000151
0.33058449 -0.44539518 -0.00000022
0.68443695 -0.07645108 -0.00000148
0.15790894 0.19861235 0.00000639
-0.50839257 -0.07679541 -0.00000030
0.31780273 -0.55131975 -0.00000016
0.55308580 0.04808467 0.00000188
-0.65349984 0.44009108 0.31967128
0.12491597 0.36920470 0.00000412
-0.53344683 0.60775615 0.37151338
-0.55041000 -0.72493453 -0.00000005
0.18011458 0.35059850 -0.00000072
0.63974017 0.01135808 0.00000087
0.15693705 0.21466261 0.00000614
-0.53270312 -0.63226300 -0.00000010
0.14092458 0.12226957 -0.00000058
0.05824480 0.64755997 -0.00000090
0.70729739 -0.67983748 -0.00000030
-0.62070934 -0.74481317 -0.00000003
-0.43494769 0.42857224 0.06916192
-0.49530491 -0.73013439 -0.00000004
-0.55800812 -0.23355867 -0.00000022
0.06783954 -0.50113541 -0.00000019
0.11875885 0.20551181 -0.00000063
-0.60311164 -0.60551506 -0.00000010
-0.14347824 0.01527651 -0.00000051
-0.11217737 0.74246135 0.05949070
-0.63725625 0.45583654 0.31912892
-0.05113538 0.02413338 -0.00000052
0.48348530 0.00989744 0.00000390
-0.65927430 0.35815865 0.23674765
-0.56614971 0.31368038 0.08692141
-0.62898272 0.46243812 0.31730843
-0.51571302 0.54701145 0.28606275
0.21242581 0.12896037 -0.00000058
0.09794560 0.42264431 -0.00000076
0.36803174 -0.64997420 -0.00000009
0.12486809 0.44584033 0.00000287
-0.43331503 -0.35615464 -0.00000028
0.13431912 -0.57354419 -0.00000014
-0.41814628 0.05112147 -0.00000042
-0.70450130 -0.20512717 -0.00000006
-0.01560193 0.29531991 -0.00000068
0.12976631 -0.13621199 -0.00000041
-0.62266824 0.23966033 0.06786548
-0.77324912 -0.54923962 0.00000000
0.07275647 0.19451856 -0.00000062
0.05427152 0.33534524 -0.00000071
0.51233375 -0.48863204 -0.00000019
-0.09795280 0.21074042 -0.00000063
-0.11090676 0.70934047 0.02204410
-0.27923941 -0.69308027 -0.00000007
-0.08417552 0.26413075 -0.00000067
-0.12296703 -0.65086661 -0.00000009
0.03319698 -0.23915686 -0.00000035
0.11057164 0.06908751 -0.00000054
0.02644219 -0.46556951 -0.00000021
0.55245283 -0.14112404 -0.00000093
0.61934905 -0.51774796 -0.00000041
-0.41614164 0.06826381 -0.00000042
0.38589997 -0.08879332 -0.00000050
-0.19724741 -0.27134271 -0.00000033
-0.16950535 -0.58511008 -0.00000013
-0.33536388 0.56886878 0.11349070
-0.35115466 0.40430160 -0.00000055
0.05346084 -0.54181644 -0.00000016
-0.75591477 -0.18788079 -0.00000001
-0.69884096 -0.02938459 -0.00000010
-0.75909453 -0.18297986 -0.00000001
0.13450367 -0.31893467 -0.00000030
0.28278085 0.19712004 -0.00000073
0.33166256 -0.63186480 -0.00000011
-0.10992621 0.27047857 -0.00000067
-0.32468518 0.01024558 -0.00000051
-0.18069735 -0.25697329 -0.00000034
0.18414778 0.59337627 -0.00000119
-0.10345215 0.16997085 -0.00000061
-0.27621374 0.36082689 -0.00000062
-0.65525758 0.15615580 0.01242771
0.23417836 -0.24223594 -0.00000035
0.28725921 0.15690368 -0.00000066
0.63841206 0.04822363 -0.00000158
-0.35486352 -0.14749439 -0.00000041
-0.28747801 -0.18944683 -0.00000038
0.28514990 0.29639983 -0.00000093
0.41196639 0.01827032 -0.00000079
-0.03617671 0.25874227 -0.00000066
0.26204134 0.32315565 -0.00000091
0.22234905 -0.28882670 -0.00000032
-0.49513114 0.03415055 -0.00000033
-0.35763859 -0.17598746 -0.00000039
-0.77749658 -0.65788418 0.00000000
-0.54873647 0.45295725 0.21960991
-0.26552287 0.56882312 0.03739584
-0.16641001 0.19769766 -0.00000062
-0.52284880 -0.26859935 -0.00000025
-0.04928501 -0.03745100 -0.00000048
0.27317774 0.37975869 0.00000130
0.54547932 0.17862055 -0.00000032
-0.66669320 -0.66080055 -0.00000002
-0.47312869 -0.56909063 -0.00000014
-0.23332730 0.45388384 -0.00000069
0.32190074 -0.24270094 -0.00000035
-0.63985493 0.29077480 0.14223377
-0.38485806 -0.62218797 -0.00000011
-0.60819706 0.33990173 0.16125447
-0.20867671 0.69222674 0.10986558
0.03309000 -0.63911106 -0.00000010
-0.67323324 -0.10777087 -0.00000012
0.41738216 -0.48566105 -0.00000020
-0.54715562 -0.56160386 -0.00000015
0.29160856 -0.27829895 -0.00000033
0.54570514 -0.43215539 -0.00000034
-0.50437829 -0.76946835 -0.00000002
0.09555754 0.26479841 -0.00000067
-0.24964354 -0.23690041 -0.00000035
0.09481414 0.09340278 -0.00000056
0.22798001 -0.20357050 -0.00000037
-0.10173991 0.32682883 -0.00000070
-0.47417511 0.26214434 -0.00000040
0.09036654 0.05453904 -0.00000053
-0.34173145 0.43372794 -0.00000057
-0.34595773 0.51870497 0.07040584
0.18213691 0.23287697 0.00000547
0.02785768 0.06336290 0.00001055
0.05576285 0.63083874 -0.00000089
-0.51138764 -0.60385533 -0.00000012
-0.06730724 -0.78835499 -0.00000001
-0.49572123 -0.49074943 -0.00000019
0.49228077 0.15412593 -0.00000132
-0.60940238 0.47196354 0.30636024
-0.22750556 -0.72137721 -0.00000005
0.23783587 -0.76913105 -0.00000002
-0.11545958 0.43714954 -0.00000077
-0.27377649 -0.73508389 -0.00000004
0.30228326 0.08849930 0.00000597
-0.29754335 0.40072827 -0.00000061
-0.27111131 0.71744991 0.20531093
0.11672281 0.16038377 -0.00000060
-0.22799717 0.60291654 0.03365853
0.05669349 0.06924971 0.00001002
0.58438196 -0.54195943 -0.00000025
0.03499246 0.29268897 0.00000672
-0.00345323 -0.75666226 -0.00000003
0.42976455 0.26851752 -0.00000134
0.44017604 -0.60502086 -0.00000012
0.19650913 -0.43355355 -0.00000023
0.23813876 0.33777397 -0.00000086
-0.67180224 0.41823182 0.31579842
0.70851758 0.00689236 -0.00000172
0.08844600 0.05466097 0.00000978
0.44689119 -0.19868539 -0.00000048
-0.73003084 -0.35932287 -0.00000001
-0.51933500 0.24328312 -0.00000034
0.52284678 -0.69977577 -0.00000006
0.58967044 0.11735045 -0.00000156
0.21228923 0.43949632 -0.00000098
-0.26086070 0.38373283 -0.00000065
0.56000834 -0.67583724 -0.00000008
-0.70177901 -0.17605751 -0.00000007
0.13467964 -0.17116180 -0.00000039
0.61908823 -0.78400777 -0.00000001
-0.64095382 0.34792196 0.20565373
-0.71072966 -0.45096647 -0.00000001
-0.41462392 0.48724465 0.11091693
0.09920721 0.30923796 -0.00000069
0.15793273 -0.34546122 -0.00000028
-0.42442073 -0.06750582 -0.00000039
-0.54604801 0.29115446 0.04050716
-0.18619578 0.10867220 -0.00000057
0.20326008 -0.72387311 -0.00000005
-0.53767071 -0.10154090 -0.00000026
0.15003032 0.39639247 0.00000329
-0.11116467 -0.13269785 -0.00000042
-0.68776410 0.27054322 0.17237011
-0.59754003 -0.47794296 -0.00000013
0.56816243 -0.60530335 -0.00000012
0.16191946 0.61007982 -0.00000070
0.09647091 -0.54073901 -0.00000016
-0.22211912 0.50333567 -0.00000071
-0.45307230 0.46753652 0.13132198
-0.63986756 0.24408049 0.09140545
-0.59498918 -0.27113913 -0.00000017
-0.56936537 0.25110522 0.02228912
-0.22967828 0.14502567 -0.00000059
-0.37848177 0.05695023 -0.00000046
0.01838262 0.22005523 0.00000815
-0.61193678 -0.75579957 -0.00000003
0.33256923 0.17550238 -0.00000085
-0.40342395 -0.77185381 -0.00000002
-0.06060753 -0.34168947 -0.00000029
-0.30132104 -0.03331985 -0.00000048
0.02022988 -0.55645730 -0.00000015
-0.23541912 -0.20330164 -0.00000037
0.12652704 -0.32084929 -0.00000030
-0.61697338 -0.45063982 -0.00000011
-0.15136298 -0.78219032 -0.00000001
0.34533057 0.11866291 -0.00000078
-0.24676514 -0.20653584 -0.00000037
-0.32464321 -0.01534982 -0.00000049
0.49062495 -0.69007674 -0.00000007
0.13462387 0.05649694 0.00000905
0.38032018 -0.68748412 -0.00000007
0.69496417 -0.09759362 -0.00000147
-0.75486966 -0.02396755 -0.00000004
-0.48540876 0.48557379 0.18617045
-0.78340033 -0.13633662 0.00000000
0.04624260 0.52381754 0.00000279
-0.25590582 -0.36473492 -0.00000027
0.36921041 -0.75994021 -0.00000003
-0.64453128 0.41613301 0.28381941
-0.65473956 0.36098630 0.23488891
-0.17696115 -0.30253534 -0.00000031
0.03503999 0.35280674 0.00000574
-0.23820521 0.35277130 -0.00000066
0.63093737 0.09353577 -0.00000043
-0.33792032 0.43757999 -0.00000057
0.03556818 0.59142162 0.00000185
0.63119040 0.12309739 -0.00000170
-0.67158472 -0.04864460 -0.00000013
-0.41457399 0.59718929 0.23057417
-0.40957365 -0.77160440 -0.00000002
0.08402080 0.55385790 0.00000173
0.07815353 -0.07658728 -0.00000045
-0.75016965 -0.30563327 0.00000000
-0.28519600 -0.70967812 -0.00000006
0.17339232 -0.03007692 -0.00000048
-0.21663200 -0.21888007 -0.00000036
-0.07420077 0.69149838 -0.00000090
0.44231884 0.22692584 -0.00000130
-0.49883117 -0.56306022 -0.00000015
0.05762922 -0.50668836 -0.00000018
0.10351654 0.21660174 -0.00000064
-0.27986336 0.67075559 0.16399781
0.06062528 0.19053295 -0.00000062
0.52029458 -0.31959652 -0.00000048
-0.79213824 -0.35044643 0.00000000
-0.14251597 -0.52590164 -0.00000017
0.14446919 0.50437158 0.00000153
-0.37777739 -0.05047198 -0.00000044
-0.06518425 0.32381029 -0.00000070
0.11160681 0.50365085 0.00000213
-0.36829465 -0.61090478 -0.00000012
0.75816224 -0.39827795 -0.00000100
-0.67954999 0.27589603 0.16925462
0.21932086 0.33578792 -0.00000080
0.42761355 0.27428134 0.00000023
-0.71469608 0.25341362 0.18304333
-0.72445754 -0.77283482 0.00000000
0.51731451 -0.26217762 -0.00000058
-0.08573202 -0.68774741 -0.00000007
-0.03013405 -0.36990413 -0.00000027
0.06116518 0.44492685 0.00000385
-0.13121405 0.51347492 -0.00000081
0.50105264 -0.07267190 -0.00000090
-0.52083867 -0.20186252 -0.00000026
0.62217212 -0.76781081 -0.00000002
0.38540418 0.21672238 0.00000207
0.29940754 0.23429591 -0.00000085
-0.08595496 -0.11967002 -0.00000043
-0.11240548 0.25039954 -0.00000066
0.55236605 -0.21182013 -0.00000079
0.54167227 -0.38972858 -0.00000041
0.50142027 0.27773363 -0.00000159
-0.04981118 0.40423062 -0.00000075
0.19214384 0.48359217 -0.00000100
0.58046986 -0.28555655 -0.00000074
0.21921233 0.47564143 0.00000061
0.73356363 -0.69631621 -0.00000026
-0.18544120 0.71075991 0.10474550
-0.27408773 0.42258726 -0.00000064
-0.39077282 -0.46223365 -0.00000021
0.19347572 -0.00065046 -0.00000050
0.64381091 0.06506369 -0.00000163
0.23635130 -0.29811996 -0.00000031
0.69348601 0.05811328 -0.00000177
0.42308911 0.30271983 -0.00000020
0.11132159 -0.18193087 -0.00000039
0.10589574 -0.76173318 -0.00000002
-0.67223284 -0.34761341 -0.00000007
-0.65302187 -0.30987331 -0.00000010
-0.60078546 0.24410416 0.04887737
-0.08697588 -0.01132045 -0.00000049
0.56021013 0.08808314 0.00000102
-0.71850998 -0.42657393 -0.00000001
-0.48776688 0.64328231 0.36045757
-0.18758378 0.57582464 -0.00000076
-0.43915502 -0.55649807 -0.00000015
-0.10670809 0.48680364 -0.00000080
-0.75147551 -0.30033306 0.00000000
0.58558093 0.14215108 -0.00000159
0.13831346 0.64463047 -0.00000114
0.33302493 0.21535088 -0.00000093
0.17971529 0.28122919 0.00000472
0.14981412 0.26987389 -0.00000067
-0.71484807 -0.05196428 -0.00000008
0.19706202 -0.04584282 -0.00000047
-0.12130606 -0.52185698 -0.00000017
0.23560445 -0.73449703 -0.00000004
0.45746903 -0.34184343 -0.00000029
-0.25067433 -0.02744227 -0.00000048
-0.35881248 0.38418542 -0.00000054
0.46728366 -0.07591923 -0.00000079
-0.07330658 -0.29225467 -0.00000032
-0.41370793 -0.04981197 -0.00000040
-0.10421217 -0.00894630 -0.00000049
0.63293004 -0.34054762 -0.00000080
-0.75268151 -0.09896899 -0.00000003
-0.48549401 -0.46637767 -0.00000021
0.34628189 -0.45133544 -0.00000022
-0.25845412 0.28973359 -0.00000063
0.08501768 0.69778757 -0.00000080
0.44117033 -0.33028554 -0.00000029
0.17162484 -0.65858340 -0.00000009
0.14287798 0.24983422 -0.00000066
0.33495841 0.06739272 0.00000572
0.47178848 0.08208655 0.00000283
0.30417629 0.07999847 -0.00000057
0.58696494 0.19539553 -0.00000142
-0.44225393 -0.71023048 -0.00000006
0.02245552 0.09341736 -0.00000056
0.04306998 -0.68647092 -0.00000007
0.11035620 0.22654360 0.00000665
0.67189063 -0.23716507 -0.00000113
-0.46032232 -0.24127517 -0.00000032
0.74043219 -0.63643280 -0.00000041
-0.01865247 -0.13904672 -0.00000041
0.52360794 -0.16213802 -0.00000080
-0.00252439 -0.66472453 -0.00000008
-0.38337863 0.65576776 0.26039007
0.12960477 0.14803405 0.00000764
0.63425861 -0.67453651 -0.00000015
-0.01202862 -0.69601980 -0.00000006
0.36349165 0.20900323 -0.00000101
-0.44333528 -0.16337851 -0.00000035
-0.76175135 -0.39384357 0.00000000
-0.02393334 0.51725586 -0.00000082
-0.13648850 -0.41105090 -0.00000024
0.34568418 -0.47877320 -0.00000020
-0.45768054 -0.31242932 -0.00000030
0.41142619 -0.25011830 -0.00000034
-0.42345499 0.59350521 0.23623279
-0.01387010 -0.04324823 -0.00000047
-0.20131781 -0.01925663 -0.00000049
0.28543044 -0.72872479 -0.00000004
0.26433611 0.18806320 0.00000491
-0.39546602 0.23485276 -0.00000047
0.70467080 -0.65357426 -0.00000037
-0.20413503 0.04013371 -0.00000053
-0.08993120 -0.61420429 -0.00000012
0.22059570 -0.05152395 -0.00000047
0.06069509 0.00761800 -0.00000050
0.06869759 0.53716656 -0.00000084
-0.31948374 0.61263323 0.14385205
0.24900019 0.29863472 0.00000322
0.48375081 -0.67789267 -0.00000008
-0.15349187 -0.67609243 -0.00000008
-0.24294671 0.30160370 -0.00000065
0.30084837 0.49290745 -0.00000136
-0.29344052 -0.46778714 -0.00000021
-0.59425841 0.45965830 0.27647242
-0.61511501 -0.16427158 -0.00000017
0.73996822 -0.51029555 -0.00000072
0.07284711 -0.60668380 -0.00000012
-0.29370709 -0.41865864 -0.00000024
-0.59288526 0.18217131 -0.00000025
0.74942276 -0.22876025 -0.00000139
0.55268075 0.22336674 -0.00000164
0.62113840 0.16754802 -0.00000157
0.43606619 -0.23948273 -0.00000037
0.34582022 0.01815204 0.00000640
-0.18556673 -0.01646024 -0.00000049
0.20560042 -0.60163252 -0.00000012
0.62963579 0.00870641 -0.00000147
-0.60416852 0.00923142 -0.00000021
0.18908045 -0.76777107 -0.00000002
-0.45913611 -0.20274311 -0.00000033
0.40105873 0.38104114 -0.00000147
0.26235201 0.02037240 0.00000771
-0.20153047 0.47947195 -0.00000073
0.37026248 0.08405045 -0.00000079
-0.40013215 0.34190416 -0.00000049
-0.04442244 -0.18629052 -0.00000038
-0.16273139 0.41470246 -0.00000076
0.16467001 0.21732543 0.00000598
0.40605627 -0.73623733 -0.00000004
0.38011846 0.11728527 0.00000396
0.11674275 0.24953481 -0.00000066
0.14718107 0.61837459 -0.00000057
0.39460126 -0.21453986 -0.00000037
0.66025266 -0.54094038 -0.00000050
0.01333484 -0.21200972 -0.00000037
0.02403879 0.31034009 -0.00000069
0.38774764 -0.01805995 -0.00000065
0.41577647 -0.09385749 -0.00000059
-0.27322752 -0.31570127 -0.00000030
0.23151939 0.31738041 0.00000322
0.04024019 0.65464474 0.00000075
0.42294901 0.00215066 0.00000520
-0.10680628 -0.28261152 -0.00000032
0.02491092 -0.12551839 -0.00000042
0.24368218 -0.21907635 -0.00000036
-0.57044199 0.13293351 -0.00000027
0.42438298 0.25600405 -0.00000130
-0.26883189 -0.55158805 -0.00000016
0.22910996 0.17194054 0.00000575
-0.09711834 -0.76021297 -0.00000002
-0.71173016 0.28836564 0.21787069
0.70679271 0.03966769 -0.00000178
-0.58027531 -0.59630339 -0.00000013
-0.47392832 0.29300149 -0.00000040
-0.57300976 -0.70343220 -0.00000006
-0.77367596 0.06495489 0.04206333
0.10879651 0.11136930 0.00000855
-0.06931486 -0.02287520 -0.00000049
0.52300168 0.22699678 -0.00000076
-0.28045110 -0.28139944 -0.00000032
-0.65574280 0.46879726 0.35336998
-0.46712269 0.43352742 0.10959043
-0.36994834 0.48901584 0.06420123
-0.57781808 -0.17586747 -0.00000020
-0.62757133 0.28254211 0.11989501
-0.11022245 0.10066429 -0.00000056
-0.12620094 0.02999843 -0.00000052
-0.05060028 -0.68573724 -0.00000007
0.44038964 -0.79426347 -0.00000000
-0.47646385 -0.10820322 -0.00000033
0.78165572 0.00399394 -0.00000172
-0.08668414 -0.14097891 -0.00000041
0.10312215 0.50419067 -0.00000082
-0.44885393 -0.55184739 -0.00000016
-0.39584951 0.51771536 0.12365211
-0.23762020 -0.07460653 -0.00000045
0.33943807 0.18380453 0.00000354
0.24713680 0.41590875 -0.00000104
-0.48620269 0.48722745 0.18883547
0.24607459 -0.67552565 -0.00000008
-0.44901302 0.37477825 0.02590429
-0.43801033 -0.49476068 -0.00000019
-0.10848846 -0.73587958 -0.00000004
-0.39951840 -0.26275530 -0.00000034
-0.21964552 -0.52031258 -0.00000017
0.39572265 0.22431933 -0.00000114
0.46472323 -0.50220324 -0.00000019
-0.28715522 0.66339672 0.16392483
0.34481525 -0.30961794 -0.00000031
-0.25260992 -0.02483347 -0.00000048
-0.20852867 0.10360555 -0.00000056
0.25422953 0.11727720 -0.00000057
-0.45132164 -0.28436591 -0.00000032
0.60678419 0.14223807 -0.00000084
-0.46777521 0.23722649 -0.00000040
0.48765443 0.02157528 -0.00000104
-0.04125798 -0.36213161 -0.00000027
-0.54310951 0.27617556 0.02099818
-0.25475793 -0.56063155 -0.00000015
0.78530587 -0.06649897 -0.00000182
0.30300557 -0.34789398 -0.00000028
0.39669621 -0.18624642 -0.00000038
-0.31997970 0.00142987 -0.00000050
0.21742168 0.43724062 0.00000134
-0.48709744 0.43387596 0.13171909
-0.58494975 -0.25885385 -0.00000018
-0.18298019 -0.75750725 -0.00000003
-0.01290703 0.36234759 -0.00000073
0.09800833 -0.06132895 -0.00000046
-0.07906425 0.75572934 0.03788253
0.21423397 0.41580082 -0.00000094
-0.41456219 -0.48037791 -0.00000020
0.63014564 -0.78499149 -0.00000001
0.17788445 0.27943954 0.00000477
0.46624219 -0.06784153 -0.00000080
0.08291180 0.21459949 -0.00000063
-0.64473232 0.10649338 -0.00000019
-0.25390600 0.20809712 -0.00000062
0.18286308 -0.46721467 -0.00000021
-0.23465086 0.61949413 0.05895343
0.72429961 -0.38338923 -0.00000101
0.52699318 -0.64743773 -0.00000010
0.75247689 -0.36118090 -0.00000110
-0.30645313 -0.70361104 -0.00000006
-0.37336439 -0.58009009 -0.00000014
-0.77109581 0.04790572 0.02069037
-0.10553617 -0.41637423 -0.00000024
0.14078806 -0.53280594 -0.00000017
-0.50513200 0.00189621 -0.00000031
0.74405294 -0.23628426 -0.00000136
-0.74966044 0.03372329 -0.00000006
0.00839174 -0.49638838 -0.00000019
-0.28618273 -0.76151797 -0.00000002
0.07023165 0.16206910 0.00000831
0.31653890 -0.27557139 -0.00000033
-0.21735464 0.18057691 -0.00000061
0.44076491 -0.46728640 -0.00000021
0.50504224 -0.58309860 -0.00000014
-0.39985816 0.46942122 0.07543283
0.05809375 -0.09326264 -0.00000044
0.06513437 0.35958511 0.00000517
-0.54646378 -0.61397665 -0.00000012
0.33808132 -0.62081168 -0.00000011
-0.32016038 0.27879585 -0.00000056
-0.73082002 0.19995119 0.14238819
0.33225257 0.39975347 -0.00000019
-0.69468551 -0.65768680 0.00000000
0.78099319 -0.41348674 -0.00000097
-0.54489365 0.00850948 -0.00000027
0.42683584 -0.46115823 -0.00000021
0.37147104 0.04128308 0.00000549
0.09124695 0.14144987 -0.00000059
0.22323662 0.11970327 -0.00000057
0.26598217 0.02223925 -0.00000051
0.15567570 -0.26323174 -0.00000034
-0.67036054 -0.03946825 -0.00000013
0.29066553 -0.06808473 -0.00000046
-0.68338504 0.14245168 0.02813236
-0.67945146 0.29772480 0.19291511
0.22371591 0.33196526 -0.00000080
-0.79440060 -0.35322508 0.00000000
-0.45555676 -0.38857110 -0.00000026
0.42345421 -0.46442962 -0.00000021
-0.11912230 0.29766029 -0.00000069
0.20334204 0.30592257 -0.00000069
-0.30829164 0.64968098 0.17200477
-0.75414573 0.04176394 -0.00000006
-0.35084610 0.20902606 -0.00000052
0.17583647 -0.08504434 -0.00000045
0.45949916 -0.66955901 -0.00000008
0.71804631 -0.79953383 -0.00000000
0.35050624 0.02440444 -0.00000061
-0.30914513 -0.28375725 -0.00000032
0.25648003 -0.03572298 -0.00000048
-0.00892622 -0.29112009 -0.00000032
0.63608695 -0.28339677 -0.00000092
-0.29326444 0.55300203 0.05037530
-0.06257348 -0.65976623 -0.00000009
-0.58817425 0.11877927 -0.00000025
-0.57928201 0.47830399 0.28046770
-0.63616924 -0.57674068 -0.00000007
-0.70389152 0.16012404 0.06970264
-0.78690797 -0.70858688 0.00000000
-0.58047945 -0.20670259 -0.00000020
0.74159615 -0.29062271 -0.00000125
-0.77795498 -0.61936319 0.00000000
0.25387104 0.40267436 0.00000126
-0.77157198 -0.35039775 0.00000000
0.46939714 0.24811422 -0.00000143
-0.55962626 -0.65869851 -0.00000009
0.43243648 -0.38480845 -0.00000026
-0.22523633 -0.06848905 -0.00000046
0.11925982 0.26116593 0.00000596
0.11793642 0.04792712 0.00000944
0.70865808 -0.36566659 -0.00000099
-0.20054609 0.63283291 0.03634270
-0.70432731 -0.21084726 -0.00000006
-0.40350654 -0.34163220 -0.00000029
-0.00924308 -0.34744594 -0.00000028
-0.61654476 -0.57339007 -0.00000009
0.58227662 -0.43307948 -0.00000046
-0.62284856 0.18839540 0.01224311
0.15252363 -0.08014796 -0.00000045
-0.69018624 -0.10872733 -0.00000010
0.17129603 0.51019548 -0.00000098
-0.32856026 -0.09544014 -0.00000044
0.39288246 0.31056279 -0.00000130
0.69458517 -0.28753811 -0.00000110
0.32447221 0.06705147 0.00000593
0.49231397 0.07081228 -0.00000115
0.15081779 0.09822063 -0.00000056
0.22046161 0.37122988 0.00000246
-0.42095986 0.18574885 -0.00000044
-0.68981169 0.10835056 -0.00000014
-0.38710462 0.33887262 -0.00000050
-0.64757735 -0.00117080 -0.00000016
-0.43931597 0.53964971 0.19486275
0.57289677 -0.58471286 -0.00000013
0.45012554 0.31243051 -0.00000089
-0.42987899 -0.38054738 -0.00000026
-0.36243462 0.49413069 0.06158924
0.41971036 0.30428184 -0.00000016
0.37008634 0.12217857 0.00000406
0.75920321 -0.78758810 -0.00000003
-0.53170128 -0.59177828 -0.00000013
-0.52546145 -0.56338389 -0.00000015
0.34205321 0.12978586 0.00000446
-0.32230957 -0.65185840 -0.00000009
-0.51102973 -0.45852093 -0.00000021
-0.45872494 0.11137941 -0.00000038
-0.06500426 -0.78957500 -0.00000001
-0.61509220 -0.67672859 -0.00000007
0.02907911 0.09306850 -0.00000056
0.51026841 -0.47670855 -0.00000020
0.57818872 -0.67289269 -0.00000008
-0.35239298 -0.54233229 -0.00000016
-0.64911762 -0.62472744 -0.00000005
-0.31520182 -0.49370494 -0.00000019
-0.79874316 -0.14290411 0.00000000
0.13113242 -0.01124102 -0.00000049
-0.12030757 -0.58893259 -0.00000013
-0.21573459 -0.47171823 -0.00000021
-0.39280843 0.09909753 -0.00000045
0.09770145 0.64242467 -0.00000101
0.73092379 -0.74928068 -0.00000013
0.00994438 0.23861750 -0.00000065
0.30201979 -0.60989674 -0.00000012
0.15669212 0.21049457 -0.00000063
0.34038425 0.06617885 -0.00000066
-0.07626478 0.03702020 -0.00000052
-0.54627475 -0.13403930 -0.00000025
0.13878467 0.29646135 0.00000509
-0.63470726 -0.62880537 -0.00000006
-0.51014248 -0.30010462 -0.00000025
-0.69282288 -0.41698312 -0.00000004
0.10885047 -0.04570698 -0.00000047
0.20527043 0.08133987 -0.00000055
-0.52683279 0.29926181 0.02841253
0.02008025 0.64794189 -0.00000090
0.25402447 0.44671015 -0.00000112
-0.02396133 -0.15583203 -0.00000040
0.35702626 0.20226333 0.00000288
-0.70513532 -0.19981092 -0.00000006
0.25268473 0.20845838 -0.00000065
0.19997178 -0.56831464 -0.00000014
-0.49937583 -0.32993789 -0.00000026
-0.68576665 -0.73999511 0.00000000
-0.72787952 -0.34389184 -0.00000001
-0.33408935 -0.33120266 -0.00000029
0.02409223 -0.58613234 -0.00000013
-0.25430171 -0.24611640 -0.00000035
-0.05329759 0.30942760 -0.00000069
0.24592955 0.06979187 0.00000716
0.07220803 -0.44628097 -0.00000022
0.21970969 0.31978347 -0.00000077
-0.66119589 0.45621570 0.34560822
0.01910769 -0.42063928 -0.00000024
0.31822173 0.06616149 -0.00000059
0.68669936 -0.75247320 -0.00000012
-0.27756366 -0.45588575 -0.00000022
0.74113074 -0.32312625 -0.00000118
0.69267237 -0.34584905 -0.00000098
0.25356060 0.08672982 -0.00000055
-0.52460003 0.38480245 0.11912049
0.02621681 -0.35450472 -0.00000028
0.12466466 0.04086342 0.00000945
0.39144423 -0.28075924 -0.00000032
-0.06220128 0.24327422 -0.00000065
0.48958731 0.06557539 0.00000278
-0.56993523 -0.28869221 -0.00000019
0.75118989 -0.76930582 -0.00000008
0.09226125 0.68261316 -0.00000107
-0.18599099 0.17073951 -0.00000061
-0.47140233 -0.63639841 -0.00000010
0.00678536 -0.41440537 -0.00000024
-0.76856230 0.04512073 0.01489942
0.22158497 -0.21723026 -0.00000036
-0.22232406 -0.16156118 -0.00000040
-0.26429581 0.56679670 0.03385335
0.65576740 -0.70214523 -0.00000017
0.27369617 0.24444201 0.00000372
-0.14815493 0.11437843 -0.00000057
-0.07210416 -0.55673599 -0.00000015
-0.19124948 -0.77987077 -0.00000001
0.01642519 -0.22086444 -0.00000036
0.08176172 0.26963035 -0.00000067
-0.65654686 -0.12149994 -0.00000013
0.06301952 0.02422854 -0.00000052
-0.21782306 0.58664430 0.00486296
0.31147975 -0.67286342 -0.00000008
0.41734494 0.16835085 -0.00000110
0.44271004 0.34164888 -0.00000127
0.05484500 -0.55273198 -0.00000015
0.34567366 0.38499835 -0.00000130
-0.28591284 0.28751326 -0.00000060
0.59181019 0.07344095 0.00000068
0.61349370 -0.32370046 -0.00000077
-0.07916793 0.41720772 -0.00000076
0.04055377 0.63661079 -0.00000090
-0.51336847 0.07128939 -0.00000032
-0.27227504 0.58361183 0.06085018
0.08460374 0.67615716 -0.00000040
0.72173266 -0.59501763 -0.00000051
-0.34335454 -0.20635310 -0.00000037
0.00901716 0.01334750 -0.00000051
0.14410926 0.47393745 0.00000209
-0.48497225 0.50363141 0.20535695
0.30471739 0.26932376 0.00000268
-0.52430507 -0.44327175 -0.00000021
-0.73426562 -0.07972022 -0.00000006
0.60053198 -0.74215755 -0.00000004
0.14438235 0.07742812 -0.00000055
0.37524036 0.00538647 -0.00000065
-0.17753225 0.30117060 -0.00000069
0.02084653 0.19544897 0.00000851
-0.53047327 0.11861920 -0.00000031
0.53880406 0.00959744 -0.00000118
0.17206438 0.52034517 0.00000072
-0.55146412 0.46922715 0.24029521
0.27704330 -0.69197151 -0.00000007
0.55313679 0.05290745 0.00000179
0.46945022 -0.72125791 -0.00000005
-0.42384527 -0.07413256 -0.00000039
-0.69024563 0.19188286 0.08942445
0.72788073 0.07156265 -0.00000191
-0.07176498 0.59984532 -0.00000087
0.36669415 -0.34588392 -0.00000028
-0.08094773 -0.59355599 -0.00000013
-0.24584363 -0.62446647 -0.00000011
-0.65197669 -0.11066349 -0.00000014
0.04256580 0.46303410 0.00000383
0.30124500 -0.28728709 -0.00000032
0.67676064 -0.49800173 -0.00000063
0.19633974 0.30257507 -0.00000069
-0.24934418 0.19454212 -0.00000062
0.04152751 0.53673523 -0.00000084
-0.22876242 -0.07133460 -0.00000046
-0.51603846 -0.06860692 -0.00000029
0.03470886 0.24870932 0.00000743
0.05590907 0.32811152 0.00000582
0.55665152 -0.61941499 -0.00000011
0.48521588 0.22218937 0.00000006
-0.67190586 0.39740645 0.29323571
0.13496477 0.43355700 0.00000292
-0.55265450 -0.19301030 -0.00000023
-0.69647129 -0.11972665 -0.00000009
0.16315295 -0.35387591 -0.00000028
0.38234699 0.25130675 -0.00000115
0.54647978 -0.60118032 -0.00000012
-0.46913884 0.39166269 0.06620219
0.11290988 -0.41666741 -0.00000024
-0.08161420 -0.62358986 -0.00000011
-0.51168460 0.29993606 0.01265284
0.14854624 -0.12329754 -0.00000042
-0.72169857 -0.72573882 0.00000000
-0.47799835 0.55929129 0.25836828
0.59429326 -0.40201430 -0.00000056
-0.32893614 -0.24295921 -0.00000035
0.39599826 0.28581464 0.00000063
-0.42637672 0.02564572 -0.00000040
0.66482817 -0.10407703 -0.00000136
-0.38147044 0.38116574 -0.00000052
-0.02498488 -0.02294035 -0.00000049
-0.62974964 0.48526382 0.34299706
-0.53881755 -0.26617271 -0.00000023
-0.01506350 -0.34296366 -0.00000029
0.79016277 -0.02345927 -0.00000192
0.39474831 -0.52432642 -0.00000017
-0.46744354 0.44104691 0.11812723
-0.46241389 0.42209067 0.09201068
0.21666278 0.28635786 -0.00000069
0.32936620 0.00076811 -0.00000050
-0.31312971 0.51623877 0.03197638
0.51928028 -0.62087629 -0.00000011
0.47725779 0.09942817 -0.00000116
0.12176475 -0.58890659 -0.00000013
-0.21511055 0.44243632 -0.00000071
0.75499578 -0.05803757 -0.00000174
0.77429613 -0.18713363 -0.00000153
-0.43201913 0.45112175 0.09052575
-0.53325738 -0.74727028 -0.00000003
0.36162702 0.01775948 -0.00000063
0.08902449 -0.28010855 -0.00000032
-0.44892690 0.63673878 0.31104214
-0.55969165 -0.43536174 -0.00000018
-0.11422631 0.72839357 0.04640410
0.38051019 0.07877233 -0.00000081
0.21508364 -0.31876274 -0.00000030
-0.72666191 -0.17882949 -0.00000005
-0.79950667 -0.75350012 0.00000000
0.76562090 -0.04277642 -0.00000181
0.70347864 -0.61503275 -0.00000046
-0.37251782 -0.31195083 -0.00000031
-0.24602466 -0.25566807 -0.00000034
0.32718107 0.45169988 -0.00000103
0.03834993 -0.38633650 -0.00000026
0.56099744 -0.50157493 -0.00000026
-0.27444380 -0.06472045 -0.00000046
-0.79635103 -0.27116807 0.00000000
0.24571645 0.06258573 0.00000728
-0.48288513 0.48051423 0.17791365
-0.23770964 -0.62906426 -0.00000011
-0.59479306 -0.29757506 -0.00000016
0.24758799 0.12145383 0.00000629
0.41895722 -0.76660033 -0.00000002
0.10580184 0.10947592 -0.00000057
0.25071779 0.03346696 0.00000767
-0.53014188 0.51385892 0.26567562
-0.37533255 0.34181681 -0.00000052
0.55002385 0.01997987 0.00000244
-0.67917328 -0.52264468 -0.00000003
-0.65062227 -0.21350088 -0.00000012
0.71939441 -0.23544594 -0.00000128
0.09528019 0.68179759 -0.00000107
0.36681888 -0.73592829 -0.00000004
-0.64956554 -0.43716809 -0.00000008
-0.43231114 -0.27856919 -0.00000033
0.43012338 0.26671369 0.00000031
-0.49553609 -0.62192497 -0.00000011
0.12961728 0.53329349 -0.00000089
0.57873859 -0.64909851 -0.00000009
-0.45248848 0.29814607 -0.00000043
-0.59311106 -0.54562887 -0.00000012
0.30624525 0.46353462 -0.00000084
0.31046537 0.34854238 -0.00000111
0.27571354 0.18009359 0.00000484
-0.12074868 0.10045315 -0.00000056
-0.26596652 0.16789260 -0.00000060
0.26633518 -0.12129722 -0.00000042
0.16339832 0.30716372 -0.00000069
-0.38092548 -0.74001961 -0.00000004
-0.09099432 0.33703089 -0.00000071
0.49495777 -0.39400014 -0.00000025
-0.57030868 0.53975954 0.33761252
0.47422991 -0.14510179 -0.00000067
0.01367236 0.69109591 -0.00000093
0.31448899 -0.52077438 -0.00000017
0.67866408 -0.47368388 -0.00000069
-0.17836070 -0.38643401 -0.00000026
0.06954499 -0.72019040 -0.00000005
-0.29345453 0.63930300 0.14454954
-0.34832490 -0.46834091 -0.00000021
0.74610778 -0.31561902 -0.00000121
0.72544770 0.03842108 -0.00000184
0.25606160 0.24738810 -0.00000074
-0.58119591 -0.61802465 -0.00000011
0.39492264 -0.54053148 -0.00000016
0.01959257 -0.38313300 -0.00000026
0.17396442 0.59498946 -0.00000116
-0.02382763 -0.38839043 -0.00000026
0.07646500 0.06817266 -0.00000054
-0.16553634 0.45032979 -0.00000076
0.65770120 0.00881732 -0.00000156
-0.02185796 -0.35027358 -0.00000028
-0.46778235 -0.17446103 -0.00000032
-0.74489937 -0.68590285 0.00000000
-0.42553645 -0.73331559 -0.00000004
-0.75683860 -0.72388296 0.00000000
-0.73155424 0.17091567 0.11157294
-0.59363954 -0.23006955 -0.00000018
-0.58123102 -0.49969957 -0.00000014
-0.68141106 -0.73383420 0.00000000
0.08840165 0.21283429 0.00000721
0.79942374 -0.70478069 -0.00000024
-0.33130260 -0.44408810 -0.00000022
-0.78055296 -0.78497278 0.00000000
0.59379793 0.03718069 -0.00000141
-0.21201633 -0.08693833 -0.00000045
-0.19080977 0.12798619 -0.00000058
0.10275413 -0.18908672 -0.00000038
0.35453769 -0.53720279 -0.00000016
0.43787044 -0.71431678 -0.00000005
-0.12901540 0.72199448 0.05553946
0.30995758 0.46268883 -0.00000133
0.15401101 -0.24848230 -0.00000034
0.29681941 0.36341324 -0.00000110
-0.35588921 0.24639364 -0.00000052
-0.13312397 -0.59860111 -0.00000013
-0.41787414 -0.53781417 -0.00000016
-0.12849504 0.67899771 0.00815673
-0.30831574 0.49703382 0.00582387
0.03286692 -0.44888313 -0.00000022
-0.28972708 0.44081414 -0.00000063
0.11957322 0.16434426 -0.00000060
-0.48281387 0.40758160 0.09842496
0.56519719 -0.03005723 -0.00000119
-0.65794456 0.32183867 0.19575356
0.32241575 0.22169972 0.00000319
0.57671785 -0.25956103 -0.00000078
0.02915369 0.06008568 -0.00000054
-0.77415924 -0.37880463 0.00000000
0.67352149 -0.22150410 -0.00000116
0.26955321 0.12021263 -0.00000058
-0.36870040 0.13384952 -0.00000048
-0.54371938 -0.10123982 -0.00000025
0.08171984 -0.65183869 -0.00000009
-0.42894759 0.39020862 0.02085742
0.46794384 0.03101813 0.00000382
-0.08800651 -0.65046650 -0.00000009
0.78487673 -0.57815558 -0.00000055
-0.55882974 -0.27781856 -0.00000021
-0.10281729 0.02186991 -0.00000051
-0.19266291 -0.46310805 -0.00000021
0.43096491 0.06160307 0.00000398
-0.73705548 -0.79180437 0.00000000
-0.25668409 0.19111776 -0.00000061
-0.03716780 0.24187686 -0.00000065
-0.67715992 -0.06665768 -0.00000012
0.06541516 0.46037472 -0.00000079
0.10166410 0.46996092 -0.00000079
0.77814025 -0.22835265 -0.00000143
0.22407148 -0.71801969 -0.00000005
0.62465513 0.07728029 -0.00000002
0.11403321 -0.62116599 -0.00000011
-0.37498830 0.09995720 -0.00000047
0.14177448 0.46530295 0.00000229
0.00389683 0.13266761 0.00000979
-0.78053078 -0.58632408 0.00000000
-0.34480521 0.27226119 -0.00000054
-0.10226487 -0.27161576 -0.00000033
-0.67485365 -0.11578401 -0.00000011
-0.43182057 0.13971733 -0.00000042
0.04057506 0.46479607 -0.00000079
-0.42254584 -0.53644625 -0.00000016
0.46782790 -0.64278483 -0.00000010
0.12194765 0.24824229 0.00000613
0.71965871 0.07150477 -0.00000188
0.36166755 -0.12299072 -0.00000042
-0.27221038 -0.34660625 -0.00000028
0.65139662 0.00118755 0.00000083
0.74834908 -0.62992755 -0.00000043
0.54035382 -0.20444767 -0.00000077
0.77341164 -0.46311932 -0.00000084
-0.29852321 0.53432214 0.03576203
-0.57995903 0.24820668 0.03066782
0.33343665 -0.62508025 -0.00000011
-0.77781091 0.03963317 0.01899460
0.01430998 0.70245820 -0.00000094
0.28909794 0.41400751 -0.00000117
0.01730174 0.35066640 0.00000604
0.02172955 -0.65884445 -0.00000009
0.75495279 -0.72186608 -0.00000020
0.02820014 0.66383828 -0.00000091
-0.06138573 0.45834022 -0.00000079
0.05103327 0.62395763 0.00000109
-0.63503335 0.21470831 0.05416055
-0.66143174 0.45390809 0.34335240
0.46004308 0.19076143 0.00000110
-0.08303694 0.51038315 -0.00000082
0.50164027 -0.35565846 -0.00000035
0.08077711 -0.13819540 -0.00000041
-0.37624219 0.17784864 -0.00000048
-0.36037026 -0.37072093 -0.00000027
-0.33585691 -0.25934844 -0.00000034
-0.18850727 -0.77453628 -0.00000002
0.76526726 -0.78133984 -0.00000005
-0.47263253 0.44149555 0.12426565
-0.08092473 -0.02936126 -0.00000048
-0.29472619 -0.55323979 -0.00000015
0.57735180 -0.27574828 -0.00000075
0.65322126 -0.00701218 -0.00000152
-0.07779442 0.03498040 -0.00000052
-0.24069915 0.58822309 0.03149020
0.08143793 0.22034730 -0.00000064
0.65365960 -0.62051512 -0.00000032
-0.36422672 0.16269227 -0.00000049
-0.12019920 -0.79243355 -0.00000000
0.28340703 -0.60129611 -0.00000012
-0.36592842 0.67662908 0.26410423
0.08728538 0.50368264 0.00000250
0.63611826 0.08736218 -0.00000165
0.43331053 -0.03826258 -0.00000075
-0.15658187 0.59564402 -0.00000080
-0.69460291 -0.40497506 -0.00000004
0.01300401 -0.36144972 -0.00000027
-0.20351352 0.25079105 -0.00000066
0.11634616 -0.50047689 -0.00000019
-0.08866888 -0.62769707 -0.00000011
0.31778858 -0.26427142 -0.00000033
0.28620407 0.04837552 0.00000690
0.78521231 -0.28175281 -0.00000130
-0.46992483 0.54597771 0.23508112
-0.04692043 0.58990341 -0.00000087
0.68794990 -0.10299353 -0.00000144
0.08831762 0.03790130 -0.00000052
0.28519636 0.07703979 0.00000644
0.00771596 0.56143523 -0.00000085
0.42723183 -0.22414905 -0.00000037
0.27721344 0.48189879 -0.00000127
0.50629569 0.07404811 -0.00000120
0.33328930 0.27861838 -0.00000105
-0.52461154 -0.58668768 -0.00000013
0.19837138 0.05885610 0.00000805
0.28120325 0.29324012 0.00000270
-0.58602134 -0.79646589 -0.00000000
0.72824839 -0.01463310 -0.00000174
0.66107517 -0.50395328 -0.00000057
-0.18298099 0.53984462 -0.00000076
0.11756527 0.21980800 -0.00000064
-0.45362843 -0.35198625 -0.00000028
0.58255319 0.10521651 -0.00000151
0.11950635 -0.07532810 -0.00000045
-0.72186532 0.22197530 0.15661849
-0.06316000 0.35685975 -0.00000072
-0.58603637 0.30738283 0.10171768
0.53931735 -0.16175743 -0.00000085
0.63285137 0.01133741 0.00000101
0.51572272 0.22286723 -0.00000152
-0.51840924 -0.32230025 -0.00000024
0.75109713 -0.35417017 -0.00000111
0.46030634 -0.59550576 -0.00000013
-0.17458834 0.68269841 0.06237402
-0.46983848 0.41353726 0.09078162
0.13881343 0.11343913 0.00000806
-0.42810272 0.63013074 0.28117283
0.31270215 0.25577347 0.00000277
0.38789597 0.29729251 0.00000058
-0.30943414 0.12090366 -0.00000055
-0.64632679 -0.04716481 -0.00000016
-0.03124968 0.19626659 -0.00000062
-0.50554852 0.55828076 0.28726571
-0.29899016 0.05789735 -0.00000054
-0.35268795 0.31777172 -0.00000054
-0.53533472 0.09912680 -0.00000030
-0.61823167 0.03222596 -0.00000020
0.16649269 0.49459765 -0.00000094
0.64472806 0.14972741 -0.00000180
0.22059352 0.10687796 -0.00000057
-0.17465568 0.71320842 0.09566781
0.20379235 0.05341349 -0.00000053
0.01411755 0.14150653 0.00000949
0.38407967 0.29928843 -0.00000125
0.35089780 -0.10733915 -0.00000043
-0.12594187 0.74459626 0.07680263
0.58241087 0.03206976 -0.00000137
0.66424155 -0.04500695 -0.00000148
-0.00034228 0.58004968 -0.00000086
-0.40583433 0.50672739 0.12255989
0.71605839 0.04939856 -0.00000183
-0.42911238 -0.26424539 -0.00000033
-0.03558030 -0.36250417 -0.00000027
-0.16824571 -0.28175002 -0.00000032
0.16679555 -0.76314371 -0.00000002
0.65203477 0.05882776 -0.00000164
0.10040387 0.33090405 0.00000511
0.52603318 -0.53471476 -0.00000017
-0.47417765 0.45264111 0.13808362
-0.20425088 -0.40470915 -0.00000025
-0.47252660 -0.59730047 -0.00000013
-0.20809641 -0.64015535 -0.00000010
0.74300268 -0.05027641 -0.00000172
-0.32256008 -0.04260182 -0.00000047
-0.57311790 -0.37966558 -0.00000017
0.21732261 -0.52834073 -0.00000017
-0.71856242 -0.78133374 0.00000000
0.54456196 0.18809070 -0.00000155
0.45808575 -0.13045477 -0.00000065
-0.28441043 0.61030700 0.10313004
0.26040793 0.35479401 -0.00000097
0.34623305 -0.02721344 -0.00000049
0.53988368 0.16576264 0.00000002
-0.55417220 0.15969631 -0.00000029
0.31749591 0.40072975 0.00000007
-0.35856074 -0.31557762 -0.00000030
0.64735316 -0.31149534 -0.00000090
-0.57735948 0.57814055 0.38708057
-0.73583223 -0.70621451 0.00000000
-0.55483086 0.42307901 0.19371339
-0.15098747 -0.40182875 -0.00000025
-0.62852419 -0.64871440 -0.00000006
-0.66265881 -0.56382406 -0.00000004
0.18905760 0.26947424 -0.00000067
0.35512916 -0.34821331 -0.00000028
0.14227072 -0.78220093 -0.00000001
-0.19109256 -0.09004900 -0.00000044
0.69299428 -0.45166194 -0.00000078
0.31963542 -0.37050391 -0.00000027
-0.32734779 -0.66910573 -0.00000008
0.17089146 -0.36219593 -0.00000027
-0.41686202 -0.47732048 -0.00000020
-0.07906557 0.45348696 -0.00000078
0.35385648 0.34548623 -0.00000125
0.33955080 0.41545987 -0.00000062
-0.62018930 -0.33466024 -0.00000013
0.33503531 -0.08746512 -0.00000045
0.61068284 -0.70885930 -0.00000006
-0.39787225 0.61401949 0.23071406
-0.34060789 0.32016456 -0.00000055
-0.63842029 0.24366415 0.08937629
0.35966848 0.18623477 -0.00000095
-0.55560754 -0.20940303 -0.00000022
0.05575695 -0.08907033 -0.00000044
-0.49216951 -0.72091617 -0.00000005
-0.29397237 -0.63518888 -0.00000010
-0.25953934 0.01350392 -0.00000051
-0.27100460 0.31347564 -0.00000062
0.33097150 0.20346649 -0.00000090
0.62873375 -0.43283907 -0.00000061
0.52449623 -0.67956421 -0.00000008
-0.49010650 0.45304297 0.15586503
-0.35842717 -0.76268677 -0.00000002
0.47185262 -0.11935718 -0.00000072
-0.27009320 0.19497745 -0.00000060
0.43502957 -0.38416987 -0.00000026
-0.04682262 -0.68566698 -0.00000007
0.26248420 0.47706376 -0.00000024
-0.15092429 0.54918583 -0.00000079
0.25805978 0.28459828 -0.00000082
-0.22233142 0.47448045 -0.00000070
-0.07212869 -0.57308756 -0.00000014
-0.26816218 0.12681544 -0.00000058
-0.02252710 -0.29623320 -0.00000031
0.05832025 0.38510460 0.00000486
0.74906442 -0.53011088 -0.00000067
0.18342797 0.05098961 -0.00000053
-0.33184745 -0.19179801 -0.00000038
-0.62072808 -0.60717242 -0.00000008
-0.08624047 -0.37482912 -0.00000027
-0.47842609 0.40652757 0.09249974
-0.40268301 0.65767917 0.28349069
-0.46093063 -0.18725950 -0.00000033
0.58081612 0.21305405 -0.00000162
0.22664644 0.50392998 -0.00000004
-0.41441609 -0.20541357 -0.00000037
0.22294752 0.55610963 -0.00000090
0.26637856 0.52875827 -0.00000132
0.35803857 -0.47973258 -0.00000020
-0.50208253 0.53957245 0.26312141
0.09460165 0.11447942 -0.00000057
0.44744061 0.18927962 0.00000137
-0.45103679 0.24059900 -0.00000042
0.14269332 -0.44713502 -0.00000022
-0.56802430 -0.11816870 -0.00000023
-0.25345718 -0.49094154 -0.00000019
0.10751569 0.26490560 0.00000607
0.27902623 0.23144147 -0.00000078
0.34079355 0.09241690 -0.00000071
0.39825836 -0.55298653 -0.00000015
-0.13401145 -0.32205840 -0.00000030
-0.68972945 -0.53294426 -0.00000002
0.11100120 0.59558871 0.00000054
-0.65967622 0.07181968 -0.00000016
-0.14610283 0.48295938 -0.00000079
