ply
format ascii 1.0
element vertex 1373
property float x
property float y
property float z
end_header
0.07768120 0.64271624 -0.00000092
0.23169933 -0.02841085 -0.00000048
0.39735127 0.25295566 0.22700304
0.19123595 0.34668773 0.39742556
-0.61184674 0.46640597 -0.00000024
0.09269505 0.64230242 0.09857159
0.24548468 0.53699071 0.02657311
-0.66030226 -0.58580355 -0.00000004
0.69549601 -0.70496052 -0.00000012
0.24340719 -0.64161704 -0.00000010
0.15416395 0.59085647 -0.00000094
0.64974052 0.11571451 0.05238404
-0.40344442 -0.00612609 -0.00000042
0.19642446 -0.32070551 -0.00000030
-0.61617573 0.62262303 -0.00000023
0.66151768 0.08878303 0.07536514
0.29454270 -0.25792413 -0.00000034
0.17145936 0.48240469 0.22160727
-0.04047656 -0.14142628 -0.00000041
0.16774109 0.01139250 -0.00000051
0.45620757 0.33641751 0.01118138
-0.21420857 -0.76186088 -0.00000002
0.24138607 0.39446153 -0.00000082
-0.14849730 -0.28597473 -0.00000032
0.18363946 0.50478873 0.16919249
0.75581962 -0.18409397 -0.00000076
0.23266799 0.47790675 -0.00000090
-0.59156807 -0.43884497 -0.00000014
0.68735606 -0.75919293 -0.00000005
-0.12095689 0.75254311 -0.00000085
-0.58239288 0.26554286 -0.00000027
0.29846396 0.06992008 -0.00000054
0.02663009 0.32344000 -0.00000070
0.71556162 -0.12923054 -0.00000077
-0.32121510 0.40899522 -0.00000059
0.68092131 0.11060257 0.01285132
0.17759418 -0.34841566 -0.00000028
0.02420549 0.30860758 -0.00000069
-0.75512812 -0.02437479 -0.00000004
-0.16236613 -0.59445410 -0.00000013
0.38794406 0.37527597 0.05577336
-0.42974812 -0.54246751 -0.00000016
-0.42449888 0.00383445 -0.00000040
0.76913626 -0.34719638 -0.00000057
0.13177216 -0.68792300 -0.00000007
-0.64843616 -0.28908276 -0.00000011
-0.13528795 0.75043831 -0.00000083
0.45124465 0.27954533 0.10495265
0.62369170 -0.71265048 -0.00000005
-0.12261998 -0.11139748 -0.00000043
-0.49269208 -0.47947905 -0.00000020
0.41674053 -0.64315679 -0.00000010
0.32918152 0.20275821 0.40650114
0.31382899 0.47549405 0.01618882
0.34546729 -0.53197052 -0.00000017
-0.49250910 -0.67624209 -0.00000008
-0.01009339 0.42802960 -0.00000077
-0.48438214 -0.54790746 -0.00000016
-0.24734868 -0.43557225 -0.00000023
0.43299974 -0.66470988 -0.00000008
0.60346458 -0.32209628 -0.00000045
-0.03599647 0.12223704 -0.00000058
0.15128895 -0.62533954 -0.00000011
-0.64688944 0.20585458 -0.00000019
-0.31741773 0.76154951 -0.00000060
-0.29786745 -0.10988200 -0.00000043
0.32692539 0.27985410 -0.00000079
-0.08820192 -0.74310626 -0.00000004
-0.69568340 0.49600873 -0.00000013
0.19046555 0.34046194 0.40803496
-0.75273340 0.33599990 -0.00000006
-0.48658208 0.58236736 -0.00000039
-0.20829761 -0.27044317 -0.00000033
-0.18605918 -0.49250585 -0.00000019
-0.36128330 -0.07429327 -0.00000045
-0.60668817 0.72644335 -0.00000024
0.36014529 0.04037290 -0.00000057
0.07711612 0.01713680 -0.00000051
0.23099561 0.31383199 -0.00000073
-0.54523409 -0.19372270 -0.00000024
0.04844452 0.72074905 0.04671443
-0.44012827 0.50572545 -0.00000045
-0.57601712 -0.37063690 -0.00000017
-0.26616631 -0.74408970 -0.00000003
0.04424119 0.51820191 -0.00000082
-0.35037581 -0.57619806 -0.00000014
0.09829711 0.07975325 -0.00000055
-0.62015361 -0.76720631 -0.00000002
-0.48570400 -0.64777027 -0.00000010
0.49549374 0.21882898 0.12992482
-0.36230912 0.67375315 -0.00000055
0.42079892 -0.54931857 -0.00000016
-0.17199788 0.45074413 -0.00000075
0.29469187 -0.24963976 -0.00000034
-0.71484879 -0.30886429 -0.00000003
0.31368198 0.36343411 0.18634767
-0.62138726 0.44591684 -0.00000022
0.51859490 -0.08696576 -0.00000061
0.05617455 0.72152972 0.03380838
0.08450375 0.62136070 -0.00000090
0.28899791 -0.54661987 -0.00000016
-0.67068857 -0.62573283 -0.00000002
0.75520982 0.04419335 -0.00000100
-0.06356181 -0.42078466 -0.00000024
-0.60877530 0.22903632 -0.00000024
-0.11465787 -0.19049400 -0.00000038
-0.46078085 -0.74119826 -0.00000004
0.55148326 -0.53159703 -0.00000017
0.34532359 0.19350090 0.39606087
0.12761536 0.51785208 -0.00000084
0.07606138 0.23069375 -0.00000064
0.54124468 -0.49148597 -0.00000020
-0.11362265 0.44430160 -0.00000078
-0.23897186 0.11666397 -0.00000057
0.29830666 -0.49779253 -0.00000019
0.55388772 0.06784947 -0.00000081
0.19313774 0.20366603 -0.00000063
-0.25210680 0.73676682 -0.00000068
0.56649077 -0.07659375 -0.00000067
0.45269227 -0.40295002 -0.00000025
-0.35194372 0.69657665 -0.00000056
-0.54904412 0.12839514 -0.00000029
0.31521964 -0.56710514 -0.00000015
0.31073952 0.46783404 0.03249013
-0.37589757 0.56390026 -0.00000053
-0.42534673 0.32553810 -0.00000046
-0.22693804 0.05954703 -0.00000054
-0.17780252 0.24195756 -0.00000065
-0.17171068 -0.66029337 -0.00000009
0.45980565 0.23148118 0.16485813
0.59175963 -0.33105844 -0.00000042
0.36782559 0.33888763 -0.00000090
-0.48619457 0.33554026 -0.00000039
0.17795797 -0.44929524 -0.00000022
0.20465541 -0.49681718 -0.00000019
-0.43353069 -0.62271343 -0.00000011
0.49728262 -0.28025877 -0.00000038
0.32681963 0.33171528 -0.00000085
0.16618564 -0.56983381 -0.00000014
0.30572756 -0.68740734 -0.00000007
-0.29136144 0.15767481 -0.00000057
-0.24566175 0.56918377 -0.00000069
-0.12407733 0.45600387 -0.00000079
-0.05800718 0.01732586 -0.00000051
-0.56174457 -0.17996403 -0.00000022
-0.17494066 0.33358016 -0.00000071
0.17027764 0.60736583 0.03390059
-0.61106815 -0.31887430 -0.00000014
-0.44252442 0.57703109 -0.00000045
-0.60090947 0.52349351 -0.00000025
0.25000387 0.37400723 -0.00000081
0.43579344 0.31478020 0.07495125
0.33455626 -0.39522396 -0.00000025
-0.33326662 -0.46588451 -0.00000021
-0.01084397 0.59796595 -0.00000087
0.38688182 -0.22032108 -0.00000036
0.09018911 0.38718409 -0.00000074
-0.65358975 -0.71794396 -0.00000002
-0.20683048 -0.44895526 -0.00000022
-0.23530162 -0.18209979 -0.00000039
0.74588712 -0.41225016 -0.00000048
-0.78981691 -0.64632740 0.00000000
0.24282760 0.50386702 0.08083368
-0.23031120 0.05508791 -0.00000053
0.12998164 -0.44602384 -0.00000022
0.48615491 0.14954762 -0.00000082
-0.26477962 -0.09063852 -0.00000044
0.35923992 -0.06932690 -0.00000046
-0.37445891 -0.24211912 -0.00000035
0.14423755 0.27137376 -0.00000067
0.62520403 -0.47621977 -0.00000031
-0.55278157 0.16844998 -0.00000029
-0.68441137 0.22202240 -0.00000014
0.58338418 -0.74685882 -0.00000003
0.14945636 0.60109899 0.07497899
-0.18218498 -0.51700438 -0.00000018
-0.77254576 -0.00298269 -0.00000003
0.26687723 -0.34706864 -0.00000028
-0.60365906 0.21996150 -0.00000025
-0.68482230 -0.21039299 -0.00000008
0.12182409 -0.61853893 -0.00000011
0.00194943 -0.64225726 -0.00000010
-0.63898809 0.14102169 -0.00000020
0.50600312 0.14196865 0.23054425
0.44102902 0.07513150 -0.00000070
0.45457740 -0.19704915 -0.00000042
0.58403344 -0.31842766 -0.00000043
0.29882820 0.24146066 0.39383981
-0.45791588 0.66052800 -0.00000043
-0.43964026 -0.31545001 -0.00000030
0.02786782 0.36667941 -0.00000073
0.56952676 -0.52747815 -0.00000019
0.34443549 0.24861794 0.31382523
0.65923196 -0.77550864 -0.00000002
0.44707610 0.23701072 0.17577674
-0.37856793 -0.59149976 -0.00000013
0.66739214 -0.65587175 -0.00000016
0.59567338 -0.60114245 -0.00000014
-0.03003521 0.21969788 -0.00000064
-0.38164810 0.04297992 -0.00000045
0.34425309 -0.61908861 -0.00000011
-0.21400631 -0.53302167 -0.00000017
0.48334175 0.20971669 -0.00000089
0.64068478 -0.23996287 -0.00000057
-0.22520895 0.09885042 -0.00000056
-0.53808661 0.69978953 -0.00000033
0.37274874 -0.79502401 -0.00000000
0.19995370 0.54094107 0.08962901
0.45126016 -0.40119705 -0.00000025
-0.03113981 0.02381899 -0.00000051
0.47283770 -0.13519976 -0.00000051
-0.24250409 0.33418144 -0.00000066
0.03778377 -0.31030276 -0.00000031
-0.10479106 0.13462044 -0.00000058
0.58049822 -0.38601336 -0.00000035
0.28659660 0.20939848 0.46100915
-0.70890178 -0.43164143 -0.00000002
-0.03277256 0.59551517 -0.00000087
0.27211021 0.25622514 0.41196651
-0.48431390 -0.74869350 -0.00000003
0.22842613 0.01302940 -0.00000051
0.46520704 0.21070360 -0.00000087
-0.25563720 -0.00839815 -0.00000049
-0.72979927 0.54314750 -0.00000009
-0.36480548 -0.57739472 -0.00000014
0.60762648 -0.01401723 -0.00000078
0.06628526 0.73207028 -0.00000100
0.18009521 0.25965923 -0.00000066
-0.54757124 0.48067059 -0.00000032
-0.49041464 0.01379226 -0.00000033
-0.09136473 -0.64622836 -0.00000010
0.76953451 -0.63595767 -0.00000021
-0.64857431 0.38679835 -0.00000019
-0.33035693 -0.08282877 -0.00000045
-0.14591153 0.23743100 -0.00000065
-0.76900465 0.05126022 -0.00000004
0.26133005 0.17514948 -0.00000061
-0.26234848 -0.27399617 -0.00000033
0.55729230 -0.62821314 -0.00000011
-0.15545765 -0.68967921 -0.00000007
-0.66002337 -0.60678841 -0.00000004
0.15063117 0.63115497 0.02761834
0.79614932 0.00350573 0.00052062
-0.10208025 0.22162066 -0.00000064
-0.02912599 -0.08623658 -0.00000045
0.18134516 0.22310930 -0.00000064
-0.77569432 -0.66938878 0.00000000
0.11687374 0.32325304 -0.00000070
0.47678093 0.08180276 -0.00000074
-0.20164999 -0.25665990 -0.00000034
-0.18621405 0.08160749 -0.00000055
0.20644409 0.31745882 -0.00000071
0.40538994 0.37496803 0.02978411
-0.62986780 -0.36580548 -0.00000011
0.44320687 0.23529697 -0.00000087
0.47285114 -0.14758814 -0.00000049
-0.60813632 -0.62588504 -0.00000009
-0.31175150 -0.23973209 -0.00000035
0.61965001 0.16222501 -0.00000098
0.78768791 -0.11974444 -0.00000085
-0.19193567 -0.61154088 -0.00000012
0.29500664 0.21158819 0.44493518
0.16626880 0.57108710 0.09499560
-0.72407299 -0.16128212 -0.00000005
-0.41500536 0.49403409 -0.00000048
-0.36907493 -0.06448825 -0.00000045
0.76803048 -0.46643126 -0.00000042
-0.56161937 -0.24667718 -0.00000021
-0.72796840 0.11114243 -0.00000009
-0.05080828 0.39223755 -0.00000075
0.55359789 -0.20867043 -0.00000051
-0.08504212 0.63260502 -0.00000088
-0.07576461 -0.42359675 -0.00000024
0.21393702 -0.00836905 -0.00000049
-0.66834118 0.45454845 -0.00000016
0.04165780 -0.10559255 -0.00000043
0.10147055 -0.51270415 -0.00000018
-0.63935031 0.75081614 -0.00000020
-0.40435785 -0.38457538 -0.00000026
-0.76255174 -0.06363580 -0.00000003
0.39998658 0.30103952 0.15008878
-0.15281656 -0.60532022 -0.00000012
-0.11195161 0.41332316 -0.00000076
-0.09937487 -0.18635145 -0.00000038
0.21386590 0.05168376 -0.00000053
0.02304131 0.32192375 -0.00000070
-0.60425977 0.37466753 -0.00000024
-0.37179875 0.35733908 -0.00000052
-0.25517616 -0.42554961 -0.00000023
0.11815076 0.66517443 0.02528440
0.34244992 0.23450318 -0.00000076
-0.64342925 -0.26644833 -0.00000012
-0.76993509 -0.36107332 0.00000000
-0.42936561 0.19807232 -0.00000043
-0.77023632 0.49679680 -0.00000004
-0.30595432 0.27581016 -0.00000058
0.34652383 -0.43454268 -0.00000023
0.42858680 -0.22756231 -0.00000036
0.31078654 0.37598257 0.17170913
0.40604758 0.16423431 0.34835772
-0.53256487 -0.77753814 -0.00000001
-0.43340719 0.52547389 -0.00000046
-0.75862201 0.41830388 -0.00000005
-0.20329639 0.03650081 -0.00000052
-0.18332413 0.54651120 -0.00000076
-0.22090935 0.28945996 -0.00000067
0.65424762 -0.55879771 -0.00000025
0.10941084 0.16587094 -0.00000060
-0.73645160 0.77039326 -0.00000008
-0.43543361 0.52998877 -0.00000046
0.07563503 0.31807987 -0.00000070
0.73282037 -0.44015230 -0.00000045
0.55294040 -0.34766480 -0.00000037
0.65467471 -0.18764711 -0.00000064
0.49196522 0.25568398 0.07938608
-0.17236613 -0.06697440 -0.00000046
-0.30567250 -0.22573776 -0.00000036
0.57537411 -0.72058308 -0.00000005
0.24319334 -0.06999590 -0.00000046
0.24468284 -0.69180162 -0.00000007
0.01189015 -0.39098542 -0.00000026
0.45281220 0.28401942 0.09579066
0.21781935 -0.36417371 -0.00000027
0.47380718 0.21000355 0.17619543
-0.72984107 -0.28906253 -0.00000002
0.49198193 -0.59532773 -0.00000013
-0.18844836 -0.21411739 -0.00000037
-0.41888958 0.66192986 -0.00000048
0.19857918 0.08856782 -0.00000056
-0.65638580 -0.34292796 -0.00000009
0.39132680 -0.15543148 -0.00000040
-0.43093333 -0.26647031 -0.00000033
0.04473245 0.64864420 -0.00000091
-0.08200021 -0.32802874 -0.00000029
-0.41389900 -0.75033363 -0.00000003
0.49577519 0.16594630 0.20969317
-0.40266091 -0.28220185 -0.00000032
0.21649481 -0.57300185 -0.00000014
-0.72930386 -0.70703712 0.00000000
0.12039544 -0.67054995 -0.00000008
-0.76639385 -0.50638185 0.00000000
0.39875383 0.34811545 -0.00000094
-0.39582962 0.00119679 -0.00000043
-0.32701848 -0.09529556 -0.00000044
0.48404732 -0.58957276 -0.00000013
-0.20419776 -0.21170624 -0.00000037
-0.78563336 -0.20981566 0.00000000
0.01453601 -0.50294543 -0.00000019
-0.73490713 -0.26097077 -0.00000002
-0.49841737 0.72072138 -0.00000038
-0.36045277 -0.70014492 -0.00000006
-0.55399960 0.43917550 -0.00000031
0.14997884 0.57534401 0.11324319
-0.28485484 0.72182765 -0.00000064
0.72682378 -0.57399719 -0.00000028
0.42522212 -0.75949818 -0.00000003
-0.56324310 0.20955985 -0.00000029
-0.76516346 0.04220958 -0.00000004
0.69794801 -0.20613705 -0.00000067
-0.58215248 -0.36267174 -0.00000017
-0.59116718 0.52085724 -0.00000026
0.18179339 0.01155433 -0.00000051
0.09152962 0.28316278 -0.00000068
0.42688474 0.31603570 0.08655712
0.25039635 -0.41059976 -0.00000024
0.26033816 0.47502881 -0.00000093
-0.78398025 -0.41835795 0.00000000
0.09558310 0.64758994 0.08617374
0.29406038 0.38652148 0.18109192
0.37110062 0.30596107 -0.00000087
0.15900850 0.42270374 0.33102200
0.66747244 0.10166769 -0.00000097
-0.35139005 -0.19873680 -0.00000038
-0.01143287 0.71757863 -0.00000095
0.57995110 0.17198389 -0.00000095
-0.43237208 -0.35603576 -0.00000028
0.63418306 0.07030600 0.14483728
0.13197747 0.66366014 0.00661295
-0.51876204 -0.66567894 -0.00000008
0.64204773 -0.32074672 -0.00000049
-0.05235840 -0.00382913 -0.00000050
-0.78550926 0.59654545 -0.00000002
0.71067330 -0.63509850 -0.00000021
-0.59323404 0.60359601 -0.00000026
-0.64069470 0.69129008 -0.00000020
-0.48741628 0.02099531 -0.00000034
0.40220890 0.07724966 -0.00000066
0.22182439 0.43850359 -0.00000085
-0.75356467 -0.09100145 -0.00000003
-0.25545497 0.67966840 -0.00000068
-0.30926019 -0.79357304 -0.00000000
-0.39155692 0.75043279 -0.00000051
-0.46751518 -0.36301536 -0.00000027
0.28976106 0.42756913 0.12536406
0.28224816 0.34621989 0.26012006
0.44052475 0.33093978 0.04327078
-0.07987928 0.62166458 -0.00000088
0.16476859 0.56655439 0.10414436
0.30944249 -0.56135523 -0.00000015
0.34077089 0.33016710 -0.00000086
0.03542023 -0.57244044 -0.00000014
-0.37830780 0.78553676 -0.00000053
0.17096017 -0.06808282 -0.00000046
-0.02136617 0.56736911 -0.00000085
0.09063275 -0.50194883 -0.00000019
-0.76074965 0.68734511 -0.00000005
0.61810925 -0.13303152 -0.00000066
0.70995533 0.08789350 0.00325969
0.50891214 0.15792560 0.20193452
-0.78289878 0.53072182 -0.00000002
-0.16766205 0.69401426 -0.00000079
0.59245243 0.10489112 0.15567327
-0.09066368 -0.09717273 -0.00000044
0.47451200 0.29613247 0.04451439
0.71049997 -0.06298926 -0.00000084
-0.49087773 0.03848329 -0.00000034
-0.15346594 -0.77874442 -0.00000001
0.25682311 -0.49707350 -0.00000019
0.51475462 0.18217041 -0.00000089
-0.20576843 0.75776209 -0.00000074
-0.07633540 -0.71685200 -0.00000005
0.59983630 0.11872372 0.12349906
-0.27264136 -0.54729261 -0.00000016
-0.21907012 -0.61851573 -0.00000011
-0.64715390 0.46043128 -0.00000019
0.45659327 -0.53412713 -0.00000017
-0.41972798 0.28118280 -0.00000046
-0.19728080 0.67598700 -0.00000075
-0.25759071 0.77857696 -0.00000068
-0.17083477 0.19834155 -0.00000062
0.11537006 -0.70436540 -0.00000006
0.69541016 -0.55676776 -0.00000029
-0.70981773 -0.15652747 -0.00000007
0.35838653 0.39700789 0.06764068
0.02859031 -0.64669067 -0.00000010
-0.31783827 0.66429413 -0.00000060
-0.37105034 0.00969135 -0.00000046
-0.36518395 -0.67201373 -0.00000008
-0.66618352 0.78770831 -0.00000017
-0.69242638 0.23881014 -0.00000013
-0.24058009 0.21714509 -0.00000064
0.20728367 -0.52358769 -0.00000017
-0.06644281 0.45719279 -0.00000079
0.30997507 0.20635484 0.43017251
-0.75681277 -0.00376793 -0.00000005
-0.13517378 -0.31642005 -0.00000030
-0.29825748 0.26942897 -0.00000058
0.72650445 0.01509772 -0.00000094
-0.65849101 0.36833439 -0.00000018
0.39371323 0.14143117 -0.00000072
0.07804840 -0.66487490 -0.00000008
0.61142856 -0.74029367 -0.00000004
-0.72888534 0.10768452 -0.00000009
0.07246771 -0.19075660 -0.00000038
-0.38376478 0.43514170 -0.00000052
0.04997111 0.72849981 0.03264578
0.22613553 0.05939958 -0.00000054
-0.68809677 -0.20620534 -0.00000008
0.00340935 -0.63106819 -0.00000011
-0.78469150 0.29391832 -0.00000002
-0.45290859 -0.44904010 -0.00000022
0.21353710 -0.44629805 -0.00000022
-0.74003785 -0.46604654 0.00000000
0.48100893 0.29119700 -0.00000097
-0.31133044 0.56442186 -0.00000061
-0.07340407 0.07607589 -0.00000055
-0.37822546 -0.15434872 -0.00000040
-0.18235875 -0.67219295 -0.00000008
-0.51282737 0.12310781 -0.00000033
0.07938338 -0.12783375 -0.00000042
-0.60026665 0.56976685 -0.00000025
0.31179448 -0.72183731 -0.00000005
0.71515974 -0.78541873 -0.00000002
-0.16583714 0.76218947 -0.00000079
0.70232800 0.08086995 0.02547736
-0.29521418 -0.13042723 -0.00000042
-0.24690513 -0.48709951 -0.00000020
-0.42271977 0.06091173 -0.00000041
-0.45912033 0.00539896 -0.00000036
-0.34538292 0.07939797 -0.00000050
0.43239866 -0.24746072 -0.00000035
0.25654975 0.35778029 0.28155948
-0.61493615 0.03486759 -0.00000020
0.16537482 0.39985434 0.35601787
-0.20444852 0.54798788 -0.00000074
0.17305031 0.53582499 -0.00000090
0.37899053 0.00216623 -0.00000055
0.45742727 -0.50951975 -0.00000018
0.30496498 0.42560268 0.10528979
-0.01016732 -0.40093441 -0.00000025
-0.22652392 0.27194177 -0.00000066
-0.07957399 -0.44817298 -0.00000022
-0.46881963 0.64584781 -0.00000041
0.31240813 -0.21554922 -0.00000037
0.05980767 0.65595275 0.12774338
0.52969093 0.12486095 0.22056570
-0.04726763 0.26351865 -0.00000066
-0.67428749 -0.61542581 -0.00000002
-0.52037750 0.51088365 -0.00000035
0.48009226 -0.07355886 -0.00000058
0.27804294 0.32017188 0.30599764
0.76532761 -0.21292140 -0.00000073
0.14274879 0.51068236 0.22226350
-0.79383297 -0.23676800 0.00000000
0.58934219 -0.05085195 -0.00000072
0.61679422 -0.27812197 -0.00000051
0.45794742 0.31769169 -0.00000097
-0.59025647 -0.45678025 -0.00000014
-0.05906836 -0.73050453 -0.00000004
-0.74577699 0.55412526 -0.00000007
-0.27719086 -0.19113645 -0.00000038
-0.24476632 0.01162494 -0.00000051
-0.72021815 0.62701018 -0.00000010
-0.14978286 -0.33242781 -0.00000029
0.24504727 0.00486371 -0.00000050
-0.23935857 -0.45893684 -0.00000021
-0.18666613 -0.64338759 -0.00000010
0.33067813 0.31696163 0.23104749
-0.61198912 -0.36110557 -0.00000013
-0.45788418 0.27909936 -0.00000042
0.56747608 0.04351861 -0.00000080
-0.55683223 -0.15842749 -0.00000023
-0.06610591 -0.19501582 -0.00000038
-0.48724263 -0.28417340 -0.00000028
0.18979250 0.42223173 0.28505555
-0.43410105 0.61236075 -0.00000046
0.57521565 -0.42854813 -0.00000030
-0.29344414 -0.06082486 -0.00000046
0.01095105 0.08125986 -0.00000055
0.07260497 -0.26565030 -0.00000033
0.60784154 0.10835335 0.12708572
-0.72937130 0.52881987 -0.00000009
0.41145182 0.36992565 0.02823807
0.37182566 0.30727171 -0.00000087
0.31827314 -0.47089325 -0.00000021
0.15998101 -0.00983036 -0.00000049
-0.30042716 0.60339391 -0.00000062
-0.24809499 -0.46056278 -0.00000021
0.00395317 0.76855488 -0.00000098
-0.30750147 -0.45425806 -0.00000022
-0.13971325 -0.65642863 -0.00000009
0.18626918 0.31806471 -0.00000070
-0.77443999 0.34069225 -0.00000003
-0.32146785 -0.45861369 -0.00000021
-0.50430940 0.35660235 -0.00000037
-0.46223901 0.09329626 -0.00000038
0.60277027 0.14258829 0.08285978
0.19529037 0.41107629 0.29363503
-0.28882806 -0.78682588 -0.00000001
-0.11509436 -0.22525063 -0.00000036
0.29351497 -0.17316344 -0.00000039
-0.10063914 -0.76703448 -0.00000002
0.51963094 0.18320512 0.14734403
0.46103063 0.18195059 0.23811229
-0.71155926 -0.79540769 0.00000000
-0.67905980 0.55567948 -0.00000015
-0.48877341 0.63465451 -0.00000039
-0.18441276 0.61858649 -0.00000077
-0.36110237 -0.42500580 -0.00000023
0.33040211 0.34177322 -0.00000086
-0.37970885 0.70184205 -0.00000053
-0.60720263 -0.28767173 -0.00000015
-0.48517026 -0.12938905 -0.00000031
0.13026121 0.24333332 -0.00000065
0.73729117 -0.17660031 -0.00000074
-0.33282166 -0.07322305 -0.00000045
-0.43955861 0.50524705 -0.00000045
0.60006389 -0.06395819 -0.00000072
-0.00591833 -0.05127531 -0.00000047
0.30447240 0.40509005 -0.00000090
0.44443519 -0.76597258 -0.00000002
-0.48505798 -0.53662776 -0.00000016
0.65714390 -0.78400017 -0.00000001
0.15360775 0.05972088 -0.00000054
0.04839431 -0.11375850 -0.00000043
0.35016191 0.31365880 -0.00000085
-0.01543147 -0.40470525 -0.00000025
-0.58423282 -0.33861288 -0.00000017
0.61210438 -0.08929176 -0.00000070
-0.35738678 -0.66334251 -0.00000009
-0.38045011 -0.37470367 -0.00000027
-0.54217180 -0.61104486 -0.00000012
-0.67507208 0.59376808 -0.00000016
-0.28270475 0.13158145 -0.00000058
-0.30461492 -0.52964931 -0.00000017
0.18198647 0.51540506 0.15560000
-0.02183085 -0.74434203 -0.00000003
0.49493228 -0.22540323 -0.00000043
0.56182564 0.16489027 0.11113086
-0.24225005 0.00036712 -0.00000050
0.52243726 -0.70914547 -0.00000006
-0.52843971 0.05162994 -0.00000030
0.69213069 -0.38939056 -0.00000047
-0.09999794 0.66034827 -0.00000087
-0.31762934 -0.31319681 -0.00000030
-0.32623304 0.13228861 -0.00000053
-0.56972371 0.59747554 -0.00000029
0.13976761 0.07276959 -0.00000055
-0.37807897 0.08849568 -0.00000047
0.25559036 0.25082048 0.44521386
0.36176796 -0.27929909 -0.00000033
0.55555819 0.13146144 -0.00000088
0.56205835 -0.15514026 -0.00000058
-0.73397720 -0.39226274 0.00000000
-0.55035892 0.19243307 -0.00000030
0.68575660 -0.45318622 -0.00000039
0.11878540 0.21988557 -0.00000064
0.00463866 -0.00554454 -0.00000050
0.41353340 -0.33387501 -0.00000029
0.08376916 -0.41742424 -0.00000024
-0.45534404 -0.23516569 -0.00000032
-0.50411395 -0.23172840 -0.00000027
0.51882971 -0.67025133 -0.00000008
-0.40304149 -0.61517109 -0.00000012
0.17761065 -0.50342476 -0.00000019
0.31539422 0.30282666 0.27565971
0.40712740 0.32444255 -0.00000093
0.04988503 0.03315358 -0.00000052
0.68962237 -0.76157920 -0.00000005
0.65725703 0.04352998 -0.00000089
0.16053785 0.49945662 0.21231069
0.69557025 -0.64580399 -0.00000019
-0.13827965 0.47528966 -0.00000079
0.47024634 -0.68091623 -0.00000007
-0.41591542 -0.45298069 -0.00000022
0.73767513 -0.08647971 -0.00000084
0.10447206 0.56404672 0.19938349
-0.38833049 -0.28690591 -0.00000032
0.43766649 0.07611393 -0.00000069
-0.71619564 -0.42335231 -0.00000001
0.10167692 0.57169113 0.19202978
-0.22070132 0.79350146 -0.00000072
0.70895657 -0.09845763 -0.00000080
0.06939413 -0.54190489 -0.00000016
-0.37162819 -0.30143863 -0.00000031
-0.28896987 -0.54523455 -0.00000016
0.23849593 -0.62982498 -0.00000011
0.55421842 -0.25845893 -0.00000046
-0.37285092 -0.06719505 -0.00000044
-0.76946963 -0.63698183 0.00000000
-0.58075640 -0.12318277 -0.00000021
0.36860795 0.05359899 -0.00000060
0.16056184 0.15601917 -0.00000060
0.70919928 -0.40737144 -0.00000047
-0.31565987 0.72387820 -0.00000061
-0.65786616 -0.22012792 -0.00000011
-0.03253080 -0.02798743 -0.00000048
0.60607324 0.07384737 -0.00000087
-0.44260945 0.77404175 -0.00000045
-0.01900659 -0.71874065 -0.00000005
-0.09405259 -0.71531805 -0.00000005
0.74874600 -0.13999846 -0.00000080
-0.12736752 0.07862937 -0.00000055
0.61167986 0.18732204 -0.00000100
0.11344586 0.38142947 -0.00000074
-0.44066488 0.27398857 -0.00000043
-0.13609790 0.64985014 -0.00000083
0.56483009 -0.47998237 -0.00000024
0.27191280 0.47621956 0.07865339
0.34896470 0.22017805 0.35008468
0.32105801 -0.70838059 -0.00000006
0.37848073 0.30419692 -0.00000087
-0.15360304 0.64772733 -0.00000081
-0.37701483 0.10894327 -0.00000047
-0.30386958 0.59735509 -0.00000062
0.47476147 0.22085874 0.15828666
-0.63060190 0.45401508 -0.00000021
-0.64396511 -0.43532567 -0.00000009
0.25227911 0.25179745 0.44875366
0.15480488 0.53823659 0.16219642
0.19377439 0.30680203 -0.00000069
0.27354537 -0.41271317 -0.00000024
0.23046385 0.00642175 -0.00000050
0.41085025 -0.34705854 -0.00000028
-0.35177591 -0.10600694 -0.00000043
-0.36689899 -0.54293603 -0.00000016
-0.69959835 0.19123849 -0.00000013
0.34888402 0.32252764 0.19499828
0.23377108 0.28066186 0.43304854
-0.67865542 0.53840232 -0.00000015
0.25458716 -0.34051447 -0.00000029
0.12161056 0.60909239 0.10508428
0.09791272 -0.35903090 -0.00000028
-0.23435887 0.17340741 -0.00000061
-0.16850470 0.61657108 -0.00000079
-0.08709314 0.10232462 -0.00000056
0.45432066 -0.02661008 -0.00000060
-0.06510842 0.42773134 -0.00000077
-0.11045729 0.25470429 -0.00000066
0.54559924 0.12662618 -0.00000086
0.50847136 -0.66605801 -0.00000008
0.60893324 -0.44898570 -0.00000032
0.75197164 -0.72423192 -0.00000009
-0.73636461 0.55293097 -0.00000008
-0.25396788 0.26873777 -0.00000063
-0.20939611 -0.40878363 -0.00000024
0.17353469 0.06911404 -0.00000054
0.56840841 -0.14553593 -0.00000060
0.54855236 -0.31947447 -0.00000039
0.37841541 0.21121403 -0.00000078
-0.13455113 -0.76267299 -0.00000002
-0.54888151 0.49874202 -0.00000031
-0.57430172 -0.16585775 -0.00000021
0.48059391 -0.04715097 -0.00000061
-0.76426238 0.76789380 -0.00000004
-0.72904624 0.63065221 -0.00000009
-0.16476676 -0.44701079 -0.00000022
-0.40389361 0.17886274 -0.00000046
-0.49624701 0.17365559 -0.00000036
-0.65465021 0.60556032 -0.00000018
-0.65115090 0.17886658 -0.00000019
-0.16588236 0.00333326 -0.00000050
-0.61403341 -0.54560126 -0.00000010
-0.05960665 0.58134849 -0.00000086
-0.51390535 -0.40018231 -0.00000023
-0.63954133 -0.74184752 -0.00000004
-0.68660614 -0.35438680 -0.00000006
0.21902007 0.26744887 0.47545449
0.03871698 -0.79246668 -0.00000000
0.58423298 0.09517679 0.18286936
0.14099143 0.62646275 0.04935237
0.31204588 -0.42025332 -0.00000024
-0.47620849 0.59532754 -0.00000040
-0.27649276 0.30562219 -0.00000061
0.67087695 0.10477774 0.03691650
0.53403440 -0.73586837 -0.00000004
-0.23134209 0.75793108 -0.00000071
0.68658934 -0.31946661 -0.00000054
-0.01261963 -0.78723632 -0.00000001
-0.78389365 0.50158167 -0.00000002
-0.69233476 -0.55129409 -0.00000001
-0.17206431 0.28763126 -0.00000068
-0.22399977 -0.75059037 -0.00000003
0.55907962 -0.64350592 -0.00000010
0.22446051 0.33429069 0.36584191
0.20403386 -0.03289683 -0.00000048
-0.16499637 -0.06740599 -0.00000046
0.79490853 -0.47114867 -0.00000041
-0.70705820 0.49935478 -0.00000012
-0.12936047 -0.41270439 -0.00000024
-0.60430992 0.64507647 -0.00000024
-0.61218824 -0.69175622 -0.00000007
-0.25806456 0.62221072 -0.00000068
-0.31585087 -0.70079607 -0.00000006
-0.65074031 -0.03361255 -0.00000015
0.24591874 -0.77400221 -0.00000002
0.17034546 -0.60118156 -0.00000012
-0.04850645 0.23671943 -0.00000065
-0.31320411 -0.61061547 -0.00000012
0.34940111 -0.76782699 -0.00000002
0.50524082 0.09777085 -0.00000079
-0.47093755 -0.45560509 -0.00000022
-0.32704926 -0.47953294 -0.00000020
-0.23614795 -0.58969219 -0.00000013
-0.25493745 0.23372935 -0.00000062
0.19414789 0.05120656 -0.00000053
0.60288820 -0.62070365 -0.00000013
-0.32457639 0.72927170 -0.00000059
-0.59536965 0.53189125 -0.00000026
-0.70692347 -0.27953129 -0.00000005
0.19277536 0.54655027 0.09200856
0.55538092 -0.07592035 -0.00000066
0.06945776 0.49270581 -0.00000081
0.52765870 -0.11330724 -0.00000059
-0.17751490 0.10180017 -0.00000056
0.34629738 0.36877616 -0.00000091
0.09521752 0.01890195 -0.00000051
0.24074196 0.31598595 0.36891026
0.56329939 -0.27706278 -0.00000045
0.53438119 -0.01915112 -0.00000070
-0.09723495 -0.73501961 -0.00000004
-0.23701860 0.45405109 -0.00000068
-0.55652472 0.38664261 -0.00000030
-0.69883824 0.63851784 -0.00000013
-0.29696428 -0.31822033 -0.00000030
0.06335699 -0.71347333 -0.00000005
0.58623943 -0.13399449 -0.00000063
-0.05862045 -0.35595521 -0.00000028
0.50203736 -0.54252843 -0.00000016
0.72810860 -0.13346168 -0.00000078
-0.03688842 0.30205202 -0.00000069
-0.15404477 0.70380687 -0.00000081
0.62945521 -0.38367753 -0.00000041
0.69128912 -0.62940918 -0.00000021
0.52447824 0.25638296 0.02902097
-0.07488742 -0.11717490 -0.00000043
-0.49967415 -0.23247847 -0.00000028
0.55414864 0.07755686 -0.00000082
-0.54691104 0.24506377 -0.00000031
-0.44941689 0.72989600 -0.00000044
-0.71041122 0.49567292 -0.00000011
-0.43789844 0.09093444 -0.00000040
-0.06018896 -0.69864892 -0.00000006
0.72181897 0.01277935 -0.00000093
0.29145630 0.41686450 0.13902656
0.63963014 -0.45143678 -0.00000035
-0.63231308 -0.51437583 -0.00000008
-0.68900981 0.08144791 -0.00000013
-0.17894025 0.08927176 -0.00000056
0.60242486 -0.20920109 -0.00000057
-0.27665895 -0.41431417 -0.00000024
-0.63697846 -0.77487929 -0.00000002
-0.27662563 -0.63308263 -0.00000010
0.46947269 0.18947797 0.21389506
-0.49323631 0.50459875 -0.00000038
-0.22287957 -0.47412718 -0.00000020
0.35875256 -0.34572967 -0.00000028
-0.48771268 -0.42199253 -0.00000024
-0.58239721 0.41887842 -0.00000027
-0.72942698 -0.25437920 -0.00000003
0.55975323 0.04206443 -0.00000079
0.22701811 0.49117413 0.12405678
0.25819298 -0.07795097 -0.00000045
0.38146503 0.39068167 0.04223630
0.17711598 -0.71704827 -0.00000005
-0.50705762 -0.39518531 -0.00000024
0.03073064 0.12924835 -0.00000058
-0.28613391 -0.61913984 -0.00000011
-0.63620567 0.10665582 -0.00000019
0.27854173 0.14119727 -0.00000059
-0.01893208 -0.69689380 -0.00000006
-0.45551060 0.24460606 -0.00000041
0.60247583 -0.19359237 -0.00000058
-0.58102391 0.56284512 -0.00000027
0.00439775 0.64909295 -0.00000091
-0.57018901 -0.34432637 -0.00000018
-0.21738425 0.47131980 -0.00000071
-0.60091099 -0.78962737 -0.00000001
0.30661877 0.34177087 -0.00000084
-0.22232468 -0.07109058 -0.00000046
-0.37885050 -0.66748402 -0.00000008
0.10494886 -0.75547413 -0.00000003
0.63640007 -0.05473343 -0.00000077
0.52650500 -0.08926240 -0.00000061
0.58567112 -0.32723824 -0.00000042
0.14451421 -0.16306008 -0.00000040
-0.18707011 -0.26037696 -0.00000034
0.74016657 0.02565117 0.05183397
-0.79823102 -0.00880176 -0.00000000
-0.70211659 -0.28430603 -0.00000005
-0.23789005 0.26146363 -0.00000065
0.43721776 0.07354438 -0.00000069
-0.41665306 0.31460529 -0.00000047
0.63488561 -0.21191750 -0.00000060
0.66210892 -0.64505345 -0.00000016
0.51636271 -0.46052569 -0.00000021
-0.76384675 0.37977061 -0.00000005
0.41081220 0.34342301 0.06939858
0.56654566 0.10216105 -0.00000086
-0.45170840 -0.78931116 -0.00000001
-0.14975854 -0.58012508 -0.00000014
-0.38566148 0.45601064 -0.00000052
-0.38115443 -0.21495697 -0.00000037
0.55593865 -0.45037179 -0.00000026
-0.00121269 -0.60113578 -0.00000012
-0.52498550 0.69308465 -0.00000034
0.72549134 -0.05527884 -0.00000086
0.29956432 0.40417858 0.14596882
-0.64453678 -0.02674160 -0.00000016
0.14621661 -0.79305390 -0.00000000
0.73233546 -0.22998278 -0.00000068
0.14658213 -0.76397633 -0.00000002
0.74593600 0.05032964 0.00566056
0.11337619 -0.07543913 -0.00000045
0.28434303 -0.76193017 -0.00000002
0.21272490 0.58089690 0.00966987
0.11450966 -0.63796855 -0.00000010
-0.46985857 0.61006804 -0.00000041
-0.02266660 -0.71263194 -0.00000005
0.32269449 0.09715290 -0.00000059
0.65103994 -0.56833457 -0.00000023
-0.20952958 -0.61258962 -0.00000012
0.28178822 -0.73489118 -0.00000004
-0.44908480 -0.72726471 -0.00000005
-0.70384053 -0.19683394 -0.00000007
-0.50555767 -0.32232330 -0.00000026
0.32299450 0.05678234 -0.00000055
-0.68993998 0.10643804 -0.00000014
0.50386695 -0.54546403 -0.00000016
0.40749010 0.26136989 -0.00000086
-0.44283714 0.05851289 -0.00000039
0.43064786 0.05466714 -0.00000066
0.04451308 0.47878327 -0.00000080
0.67028906 -0.41081289 -0.00000042
0.21205824 0.50174181 0.13071743
-0.04534404 -0.28821685 -0.00000032
-0.45210394 0.45894764 -0.00000043
-0.54022053 -0.31980470 -0.00000022
0.70302023 -0.57580468 -0.00000028
-0.28500180 -0.72231607 -0.00000005
0.39084639 0.25185462 0.23853723
-0.54691464 -0.01432176 -0.00000027
0.05603165 0.20576927 -0.00000063
-0.56522885 -0.77961253 -0.00000001
0.06035074 -0.04788161 -0.00000047
-0.58192075 0.55548086 -0.00000027
-0.72105864 -0.08829944 -0.00000007
-0.11692851 0.40293152 -0.00000075
0.54308432 -0.06699549 -0.00000065
0.24075528 0.38666773 -0.00000082
-0.58704258 0.04128844 -0.00000023
0.32462566 0.29052639 0.28031352
-0.73752066 0.21470911 -0.00000008
-0.12063448 -0.51353021 -0.00000018
0.16328107 -0.42687673 -0.00000023
-0.69834531 0.36102582 -0.00000013
-0.30679144 -0.41611284 -0.00000024
-0.11501167 -0.13215636 -0.00000042
0.14396056 -0.41455612 -0.00000024
-0.54460143 -0.52885150 -0.00000017
0.19967966 0.35718300 0.36870557
0.27186240 0.39465289 -0.00000086
-0.11638742 -0.25526379 -0.00000034
-0.29731710 -0.01078339 -0.00000049
0.30608966 0.27725565 0.32854679
0.59870834 -0.34667439 -0.00000042
-0.76012891 -0.59830853 0.00000000
0.06616351 -0.13523202 -0.00000042
-0.18162582 -0.00545832 -0.00000050
-0.54598552 0.18727851 -0.00000031
0.06681505 -0.10878497 -0.00000043
-0.77979845 -0.35888018 0.00000000
-0.49211281 -0.59755757 -0.00000013
-0.62414545 -0.32338014 -0.00000013
-0.45334036 0.76707419 -0.00000043
-0.61366590 -0.52766882 -0.00000010
-0.74612783 0.55216542 -0.00000007
0.03421462 -0.33747056 -0.00000029
0.12654678 0.43566077 -0.00000077
-0.70656274 -0.55915793 0.00000000
0.70132186 -0.65415805 -0.00000018
-0.53004381 -0.04063235 -0.00000028
-0.04416476 -0.44562007 -0.00000022
0.45991816 0.05037269 -0.00000069
-0.11192202 -0.25504952 -0.00000034
0.23500208 0.40203628 -0.00000083
0.04132948 -0.72263412 -0.00000005
0.18620182 0.41959463 0.29449966
0.39627937 -0.78013236 -0.00000001
0.29938064 0.28911605 0.32073491
0.39985339 -0.12059104 -0.00000044
0.18709014 0.52662363 -0.00000091
-0.42968067 -0.08486060 -0.00000038
0.75058778 -0.41614872 -0.00000048
0.69483905 -0.31360153 -0.00000055
0.65245795 -0.21608793 -0.00000061
-0.01704344 -0.25196790 -0.00000034
-0.68641030 -0.62766547 -0.00000001
0.56061140 -0.21362697 -0.00000052
0.11828627 0.48713719 -0.00000080
0.02442910 0.25381567 -0.00000066
-0.40525305 -0.58789584 -0.00000013
-0.44117471 -0.68263341 -0.00000007
-0.67884558 0.14060369 -0.00000015
-0.60431261 0.39595802 -0.00000024
0.25119744 0.46624603 0.12519228
-0.37628156 0.78003572 -0.00000053
-0.64366148 0.53053044 -0.00000020
-0.59512088 0.77395145 -0.00000026
0.07593543 0.07653331 -0.00000055
0.00192679 -0.16724042 -0.00000040
0.61736012 -0.20200961 -0.00000059
-0.32484401 -0.29684346 -0.00000031
-0.06576463 0.11344787 -0.00000057
-0.26828982 -0.26136348 -0.00000034
0.50247719 -0.25358585 -0.00000041
0.24917177 -0.49266337 -0.00000019
0.22894101 -0.77376984 -0.00000002
0.48681286 0.14922529 -0.00000083
0.23758864 0.13368525 -0.00000058
0.06889850 -0.11347268 -0.00000043
-0.62279909 -0.10252243 -0.00000017
-0.51109170 0.63450162 -0.00000036
0.57168323 0.18766744 0.06164112
0.07946713 -0.10367794 -0.00000044
0.17349288 -0.63277857 -0.00000010
-0.02662656 0.08768825 -0.00000055
-0.78950065 -0.43239336 0.00000000
-0.37164894 0.15321718 -0.00000049
0.22210189 -0.46010488 -0.00000021
-0.15284584 -0.57912716 -0.00000014
-0.16089826 -0.54379929 -0.00000016
0.63658924 0.10436680 -0.00000094
-0.29896189 -0.26194151 -0.00000034
0.20987731 0.31718942 0.41388978
-0.79232329 0.48667924 -0.00000001
-0.23787574 -0.77564973 -0.00000002
0.61295491 -0.07075400 -0.00000072
0.06618319 0.72511825 -0.00000099
0.10689525 -0.61945075 -0.00000011
-0.58060207 -0.71446601 -0.00000005
-0.53386448 -0.30429670 -0.00000023
-0.76377597 0.08916305 -0.00000005
0.30939465 0.41148910 0.11997517
-0.29761527 -0.19050831 -0.00000038
0.68475380 0.03747046 -0.00000092
-0.33037951 -0.33470332 -0.00000029
0.42404778 -0.35396835 -0.00000028
-0.70045509 -0.77543956 0.00000000
-0.66781754 -0.06001848 -0.00000013
-0.50292821 -0.42858243 -0.00000023
-0.19973312 -0.02737986 -0.00000048
0.06891608 0.67024513 0.09225726
0.60586050 0.15999926 -0.00000096
0.39850377 -0.08308533 -0.00000048
-0.68837078 -0.10863959 -0.00000010
0.26302882 0.22798191 -0.00000067
-0.57385175 -0.44299831 -0.00000016
-0.54738316 -0.77707671 -0.00000001
0.20815267 0.38832386 0.30863307
-0.55203126 -0.49444526 -0.00000017
-0.70093868 -0.12088358 -0.00000008
0.66510399 -0.45721828 -0.00000037
-0.41069304 0.17435058 -0.00000045
0.46679141 0.16062196 0.26172051
-0.41076976 0.58385178 -0.00000049
-0.51128231 -0.09914531 -0.00000029
0.52737911 -0.61131474 -0.00000012
0.59502332 0.13915843 0.09980912
0.43635831 0.14269960 -0.00000076
-0.31265195 -0.04970261 -0.00000047
-0.75534892 -0.29186523 0.00000000
-0.67378530 0.64841739 -0.00000016
-0.55474204 0.15444433 -0.00000029
0.58991245 0.20926280 -0.00000100
0.21119694 0.30943438 -0.00000070
-0.58065848 -0.02554250 -0.00000023
-0.73571171 0.28047240 -0.00000008
-0.70394895 -0.74151007 0.00000000
-0.41050690 0.76043773 -0.00000049
0.06158944 0.67444466 -0.00000093
-0.43379082 -0.77639886 -0.00000001
-0.58977919 0.54745629 -0.00000026
-0.33569849 -0.71485810 -0.00000005
0.40366766 0.38981717 -0.00000099
-0.21205387 -0.75805435 -0.00000003
0.29586586 0.39677779 0.16280054
0.11319310 -0.35793103 -0.00000028
-0.79627620 0.04675342 -0.00000000
-0.05122067 -0.26060725 -0.00000034
0.42714058 -0.62449960 -0.00000011
0.41557719 0.24605943 0.20982188
0.06042347 0.26200953 -0.00000066
-0.60805005 0.56894474 -0.00000024
-0.33821236 0.30888321 -0.00000055
-0.43931122 -0.64438317 -0.00000010
-0.63451381 0.59643635 -0.00000021
0.21887578 0.55903443 0.03349607
-0.72758447 -0.75812499 0.00000000
0.20569694 0.21716551 -0.00000064
-0.45547585 -0.44425768 -0.00000022
0.44253973 -0.23020006 -0.00000037
0.34477766 -0.08734938 -0.00000045
0.23583787 -0.12201642 -0.00000042
0.38616075 -0.03133317 -0.00000053
-0.62381482 0.38532781 -0.00000022
0.00373145 -0.32883347 -0.00000029
0.02591893 0.33321273 -0.00000071
-0.14423140 -0.71487254 -0.00000005
-0.20498016 -0.71828946 -0.00000005
-0.39991464 0.23698549 -0.00000047
0.25428654 -0.79269960 -0.00000000
-0.41935206 0.64740083 -0.00000048
-0.34993779 -0.58286626 -0.00000014
0.66750767 -0.64182547 -0.00000017
-0.18627224 -0.16428379 -0.00000040
-0.26631985 0.28096535 -0.00000062
-0.27413824 0.16917536 -0.00000059
0.10465110 -0.55029094 -0.00000016
0.29620027 -0.59721446 -0.00000013
0.42745260 -0.36886613 -0.00000027
0.61273633 0.16420184 -0.00000098
0.05192448 0.40026229 -0.00000075
-0.44390950 0.21294989 -0.00000042
0.14545952 0.42944305 -0.00000077
-0.77971603 -0.35953543 0.00000000
-0.11617834 -0.65113870 -0.00000009
0.68654769 -0.55331112 -0.00000029
-0.51281594 -0.43742540 -0.00000023
-0.49488227 -0.36701407 -0.00000026
0.14305806 0.57756300 -0.00000092
0.13398095 -0.07602877 -0.00000045
0.20748612 0.27053315 -0.00000067
-0.04592624 -0.42899476 -0.00000023
-0.05158445 0.39933110 -0.00000075
-0.72923320 0.34872562 -0.00000009
-0.60543440 0.02882079 -0.00000021
0.20029643 -0.66176459 -0.00000009
-0.49416825 0.05969197 -0.00000034
0.29782306 0.48346579 0.02837247
-0.57190944 -0.35738310 -0.00000018
0.42331851 0.18002309 0.29822437
-0.23523879 -0.30135242 -0.00000031
-0.31535722 0.13937487 -0.00000054
0.37220032 -0.13042814 -0.00000042
0.38875630 0.19498504 -0.00000077
0.14214114 0.65714299 0.00108311
-0.73754970 0.27581721 -0.00000008
0.19893658 0.52061415 -0.00000091
-0.69445886 0.66680931 -0.00000013
0.41601227 0.05583796 -0.00000065
-0.06789756 -0.28603633 -0.00000032
-0.68432646 0.49177090 -0.00000014
-0.75176754 -0.48281650 0.00000000
-0.69089402 0.19658845 -0.00000014
-0.07750975 0.31602459 -0.00000070
-0.53289182 -0.79635340 -0.00000000
-0.30790132 -0.57113831 -0.00000014
0.40034045 0.21421484 0.28121913
0.34146016 0.24601624 0.32228249
0.11891171 0.65151592 0.04484321
0.35634035 0.27040721 0.26272976
-0.43318133 -0.60121446 -0.00000012
-0.29814120 0.34246410 -0.00000060
0.73960642 -0.12717079 -0.00000080
0.15575450 -0.02885359 -0.00000048
0.08236681 0.64739653 0.10650880
-0.67403801 0.73303459 -0.00000016
0.31789649 -0.05719706 -0.00000046
-0.32411725 0.05485035 -0.00000052
0.52155703 0.24020070 -0.00000096
-0.04350497 0.50928464 -0.00000082
0.59875814 -0.39477499 -0.00000036
0.24660595 0.25555701 0.45165549
0.51426996 -0.65113504 -0.00000009
-0.27133830 0.40880209 -0.00000064
0.79806303 -0.38844391 -0.00000051
0.51254258 -0.06920387 -0.00000062
0.72079693 0.00203123 -0.00000092
0.36721404 0.27460405 0.23987610
-0.68642694 0.57366278 -0.00000014
-0.62582130 -0.12056366 -0.00000016
0.57909662 -0.35080246 -0.00000039
-0.47415116 -0.57089662 -0.00000014
0.26392028 0.22637632 0.46965042
0.53256572 0.09024473 -0.00000081
0.38926156 0.31682110 -0.00000090
0.37679783 0.17662851 0.37391811
0.16587903 0.53357110 -0.00000089
-0.69992325 -0.45810320 -0.00000002
-0.62925354 -0.38661027 -0.00000011
0.14535817 0.63435480 0.03076224
-0.34889377 -0.69990704 -0.00000006
0.10078902 -0.00676487 -0.00000050
0.03109587 -0.67054249 -0.00000008
-0.29412867 0.73145653 -0.00000063
-0.72650349 0.13203291 -0.00000009
0.45907694 -0.36010295 -0.00000027
-0.23426868 0.22331064 -0.00000064
-0.17714871 0.44429192 -0.00000075
-0.17073995 -0.01381828 -0.00000049
0.43954183 0.23820412 -0.00000087
0.33174206 0.44380276 0.03708312
0.42919900 0.29425632 0.11607546
-0.08423065 -0.76107002 -0.00000002
-0.53240232 0.47086342 -0.00000033
0.02352356 -0.62570736 -0.00000011
-0.36112285 -0.33378306 -0.00000029
0.77353234 -0.00270081 -0.00000097
0.18473563 0.59801141 0.02616115
0.15309388 -0.46014508 -0.00000021
0.25456560 -0.30996504 -0.00000031
-0.43057821 -0.38936856 -0.00000026
-0.05376949 0.68743724 -0.00000092
0.27380854 -0.02720153 -0.00000048
-0.36762234 0.08787264 -0.00000048
-0.46375396 0.41559777 -0.00000042
-0.73521252 0.08550677 -0.00000008
-0.00429690 0.10587454 -0.00000057
0.29858503 -0.06054481 -0.00000046
-0.43449148 0.43209068 -0.00000046
-0.54778751 0.07498782 -0.00000028
0.17075253 0.62874675 -0.00000100
-0.25343984 -0.19964614 -0.00000038
-0.41085104 -0.23557801 -0.00000035
0.55343776 -0.51502195 -0.00000019
0.08134827 -0.52542547 -0.00000017
0.42315097 0.25844885 0.17954821
-0.42776448 0.02768201 -0.00000040
-0.58533859 -0.30524051 -0.00000017
-0.00850325 0.45941482 -0.00000079
-0.59861087 0.43585314 -0.00000025
-0.26959428 0.10772796 -0.00000057
-0.49859536 -0.40041053 -0.00000025
0.08824314 0.26648384 -0.00000067
0.48699366 -0.60831927 -0.00000012
0.78544649 -0.37111295 -0.00000054
0.26039380 0.30467856 0.35625646
0.09754351 -0.65644335 -0.00000009
0.16385031 -0.53893963 -0.00000016
0.42198851 0.36790432 0.01532476
-0.76174786 -0.31553612 0.00000000
0.34225854 0.29508191 0.24666602
0.20305212 -0.37769425 -0.00000026
0.01297819 0.54170139 -0.00000084
-0.13909212 -0.19220744 -0.00000038
0.44945672 -0.66339850 -0.00000009
-0.57527151 0.46526735 -0.00000028
0.02074548 0.36340512 -0.00000073
-0.33190756 -0.47171004 -0.00000021
-0.23803139 -0.51959586 -0.00000018
0.02884937 0.76674253 0.00668228
0.14846925 -0.09517640 -0.00000044
-0.70825882 0.79927713 -0.00000011
-0.46031494 0.40736221 -0.00000042
0.32371469 0.05117774 -0.00000055
0.10732091 -0.26801966 -0.00000033
0.48122684 0.15598472 0.24686182
0.03157635 0.15659251 -0.00000060
-0.24844030 -0.52910301 -0.00000017
-0.40248891 -0.17867298 -0.00000039
0.07613472 -0.57365902 -0.00000014
-0.01912407 0.12880476 -0.00000058
-0.58683210 0.37500219 -0.00000027
0.26781890 0.49041711 0.06333148
-0.47291136 -0.55152698 -0.00000016
0.50691113 -0.33708546 -0.00000033
0.61158963 -0.54475422 -0.00000022
-0.01631630 -0.03246563 -0.00000048
-0.72616887 -0.60600321 0.00000000
0.29440517 0.30715164 -0.00000079
0.19388451 0.49563735 0.16753409
-0.05200532 0.02125479 -0.00000051
0.62854629 -0.32656689 -0.00000047
-0.28898522 0.71284758 -0.00000064
-0.60015001 -0.70532592 -0.00000006
-0.16292485 -0.13402170 -0.00000042
-0.14398089 -0.40380099 -0.00000025
-0.46705161 0.02017929 -0.00000036
-0.22130082 0.59606172 -0.00000072
0.51243278 -0.56891725 -0.00000014
0.52576980 -0.76968078 -0.00000002
0.79408146 -0.04813840 -0.00000094
-0.56450060 -0.46428141 -0.00000017
-0.12836927 0.22099924 -0.00000064
-0.08922561 -0.15408898 -0.00000040
-0.36013465 -0.66419971 -0.00000008
-0.63012505 0.66491310 -0.00000021
0.69614766 -0.79203353 -0.00000001
-0.46552369 0.60754344 -0.00000042
-0.47604534 0.51284320 -0.00000040
0.69571369 0.05858069 0.06930885
0.72952252 -0.11391035 -0.00000080
0.07058081 -0.10304939 -0.00000044
-0.16140771 0.20714513 -0.00000063
-0.46727858 -0.65012114 -0.00000009
0.17636107 0.26657965 -0.00000067
0.05369330 -0.52356916 -0.00000017
-0.25987140 -0.49539963 -0.00000019
-0.19988438 0.52877369 -0.00000074
-0.64363524 0.57471147 -0.00000020
0.44951156 -0.06408082 -0.00000056
-0.45798939 0.52968760 -0.00000043
0.39706925 0.24760369 0.23554685
0.23235775 0.24468292 -0.00000066
0.10102491 -0.28302250 -0.00000032
-0.36382905 0.22115501 -0.00000051
-0.14529994 -0.36401385 -0.00000027
0.45592574 -0.02102923 -0.00000061
-0.06468445 -0.18625330 -0.00000038
-0.55099145 0.52840278 -0.00000031
-0.78337811 0.07539035 -0.00000002
-0.24855421 0.33381237 -0.00000065
0.30859359 0.15533223 -0.00000064
0.10032068 -0.62848978 -0.00000011
-0.58708700 0.30930390 -0.00000027
0.23326278 -0.14429066 -0.00000041
0.18265328 -0.29801737 -0.00000031
0.08554144 0.68740263 0.04102709
-0.40906219 -0.01462132 -0.00000041
0.11609294 0.20746796 -0.00000063
-0.00846430 -0.70223658 -0.00000006
-0.77241879 0.08460875 -0.00000003
-0.63446908 0.20571594 -0.00000021
-0.24530382 0.19072239 -0.00000062
0.38216322 -0.44667767 -0.00000022
-0.20173924 0.30981956 -0.00000069
0.47593781 -0.76144425 -0.00000002
0.47403711 -0.55417689 -0.00000015
-0.62712732 -0.67053222 -0.00000006
-0.70627176 -0.57759827 0.00000000
0.07324643 -0.30776787 -0.00000031
0.50634238 -0.32706272 -0.00000034
-0.77729220 -0.66977683 0.00000000
-0.48619119 0.60497818 -0.00000039
0.44001170 -0.71379880 -0.00000005
0.59770915 -0.08589239 -0.00000069
0.01716710 -0.15195362 -0.00000041
-0.73133396 -0.15940686 -0.00000004
-0.69353971 0.10793215 -0.00000013
0.09939171 -0.75522316 -0.00000003
0.24784826 0.01358860 -0.00000051
0.43347661 -0.49167060 -0.00000019
-0.37655061 0.12522669 -0.00000047
-0.34319101 -0.00730294 -0.00000049
-0.53010297 0.35578482 -0.00000034
0.71281532 -0.68845233 -0.00000014
0.53864652 -0.53427801 -0.00000017
-0.66109926 0.67359881 -0.00000017
-0.46915046 0.45510270 -0.00000041
0.25152781 0.50212468 0.07028226
-0.71114353 -0.38229567 -0.00000002
0.13298764 -0.58351134 -0.00000014
0.01194032 0.75528570 -0.00000097
-0.50168482 -0.50623992 -0.00000018
-0.17265298 0.35378468 -0.00000072
0.48139605 0.03342892 -0.00000070
0.17475201 -0.01130848 -0.00000049
-0.37641733 -0.14272911 -0.00000041
0.66262269 -0.67058112 -0.00000014
0.41648537 -0.59039148 -0.00000013
0.02458217 -0.11970271 -0.00000043
-0.09952853 -0.17762775 -0.00000039
0.18791630 0.14101270 -0.00000059
0.19970946 -0.35222102 -0.00000028
0.14862352 -0.41522036 -0.00000024
-0.57198962 -0.58714803 -0.00000013
-0.51722379 -0.79881195 -0.00000000
0.61130237 0.08328225 -0.00000089
-0.27886896 0.61229267 -0.00000065
-0.33104719 0.47261518 -0.00000059
0.64335437 -0.48170308 -0.00000032
0.13512718 0.08474026 -0.00000055
-0.56945464 0.20359495 -0.00000028
0.31049096 0.14405733 -0.00000063
-0.50877787 0.24236184 -0.00000036
0.01614064 0.53872291 -0.00000084
0.14549240 0.54975244 0.15885503
-0.56896824 -0.79921218 -0.00000000
0.44602670 -0.74881429 -0.00000003
0.64776489 0.07161784 0.12225144
0.54056839 -0.36343758 -0.00000034
0.32621598 -0.51925646 -0.00000018
-0.03909506 -0.11033786 -0.00000043
0.10627581 -0.78642150 -0.00000001
0.62617679 -0.54529364 -0.00000023
0.59678009 -0.13026891 -0.00000064
0.71642081 -0.49239079 -0.00000038
-0.54910866 0.70652671 -0.00000031
-0.25278252 -0.14969738 -0.00000041
0.19906234 0.23996525 -0.00000065
0.03432232 0.29618501 -0.00000069
0.25732956 0.50251815 0.06088737
0.51399476 -0.61698382 -0.00000011
0.09987151 -0.64881750 -0.00000009
0.08021691 -0.70762292 -0.00000006
-0.38109723 0.06322079 -0.00000046
0.16062552 -0.65857500 -0.00000009
-0.62928714 0.14446070 -0.00000021
-0.43123481 -0.29300172 -0.00000032
-0.45706020 -0.40027335 -0.00000025
-0.24126163 0.46155780 -0.00000068
-0.43471666 -0.28712757 -0.00000032
0.45057049 -0.37571518 -0.00000027
-0.63654934 0.79688635 -0.00000020
-0.36085458 0.52892765 -0.00000055
0.26787394 -0.49427426 -0.00000019
-0.12281057 0.74333043 -0.00000085
0.64021229 0.13520514 -0.00000097
-0.69275539 -0.48874506 -0.00000002
0.48558124 -0.68632302 -0.00000007
-0.42097879 -0.74223360 -0.00000004
-0.41175735 -0.68074848 -0.00000007
-0.66531545 0.69148392 -0.00000017
0.49827716 0.13530931 0.25235918
0.18897396 -0.39109373 -0.00000026
0.15599405 0.06461298 -0.00000054
-0.17910630 0.24169408 -0.00000065
-0.02722051 -0.24167179 -0.00000035
0.67832835 0.08188583 -0.00000096
0.53325850 0.02750916 -0.00000074
0.22257262 0.11570311 -0.00000057
0.04958648 0.70167930 0.07390109
