ply
format ascii 1.0
element vertex 1409
property float x
property float y
property float z
end_header
0.60455963 -0.16443909 0.00000000
0.51199347 0.47367084 0.08525636
0.08167544 0.42736039 0.00000000
0.35528921 0.57244759 0.05865626
0.57212090 -0.76631103 0.00000000
0.52478046 -0.51995007 0.00000000
-0.55595894 0.51688955 0.00000000
-0.18005552 0.15235853 0.00000000
-0.26139558 0.17400823 0.00000000
-0.33828413 -0.48739595 0.00000000
-0.74776191 -0.35355824 0.00000000
-0.18912920 -0.08061608 0.00000000
0.17339720 -0.52791212 0.00000000
0.07384882 -0.79948098 0.00000000
-0.18773469 -0.44144848 0.00000000
0.12484177 -0.14346366 0.00000000
-0.12348164 -0.31905877 0.00000000
0.60452459 0.63256639 0.20071069
-0.47868366 0.09426533 0.00000000
0.76587718 0.36793410 0.15328489
-0.26387083 -0.00094017 0.00000000
0.41237500 -0.59284799 0.00000000
-0.42647770 0.58284404 0.00000000
0.60733939 0.28081608 0.04048066
0.74247936 -0.52117636 0.00000000
0.56998023 0.43767666 0.09535527
-0.50131752 0.19366658 0.00000000
-0.18477406 0.74150684 0.00000000
0.66928341 0.60258792 0.21668170
-0.75514677 0.30224593 0.00000000
0.21602977 -0.67370901 0.00000000
0.61679024 -0.67857547 0.00000000
-0.48066617 0.71979184 0.00000000
0.03196549 -0.14898106 0.00000000
-0.65582675 0.20155064 0.00000000
0.33522412 0.29471111 0.00000000
-0.54550208 -0.64741366 0.00000000
0.23130162 -0.28450482 0.00000000
0.02226633 0.39163850 0.00000000
0.45919113 0.48459990 0.06602830
-0.19755841 0.25129592 0.00000000
0.12796936 -0.05573916 0.00000000
-0.52392390 -0.55546155 0.00000000
0.15148820 0.44469336 0.00000000
0.36086497 -0.63131383 0.00000000
-0.19268322 0.63304922 0.00000000
-0.46386997 0.14726064 0.00000000
0.57794473 0.29091219 0.03161884
-0.02647252 0.77018457 0.00000000
-0.38313825 -0.18414159 0.00000000
0.50031700 -0.01948799 0.00000000
-0.13776027 0.12551253 0.00000000
-0.39677114 0.56972176 0.00000000
0.43536001 0.35863619 0.00000000
0.73916352 -0.25153586 0.00000000
-0.74281686 -0.03165306 0.00000000
0.70552002 0.65087332 0.25549397
0.42133854 0.13086408 0.00000000
-0.28288943 0.10357999 0.00000000
0.50577665 -0.70509477 0.00000000
0.78264713 -0.16948276 0.00000000
-0.24109568 0.04198512 0.00000000
-0.67106718 -0.24797954 0.00000000
0.68866841 0.65612834 0.25016885
0.34015699 0.62702068 0.07676736
0.11563014 0.17080686 0.00000000
0.46521825 0.33689657 0.00097112
-0.12214745 -0.42932881 0.00000000
-0.44463584 0.58166805 0.00000000
-0.47081408 0.57827434 0.00000000
-0.59462913 0.65953088 0.00000000
-0.36691068 -0.35131810 0.00000000
-0.51848330 -0.07437022 0.00000000
-0.24594190 0.00689101 0.00000000
-0.34359893 -0.08006375 0.00000000
-0.30274936 -0.72944268 0.00000000
-0.10863570 -0.02565295 0.00000000
-0.49857313 -0.38574125 0.00000000
-0.06165623 -0.31616160 0.00000000
0.14857077 -0.31890152 0.00000000
0.23297589 -0.27518246 0.00000000
-0.79143126 -0.09115144 0.00000000
-0.61464666 0.51910152 0.00000000
-0.78478513 0.33157934 0.00000000
-0.33183054 -0.76150624 0.00000000
0.20980739 0.13191524 0.00000000
-0.67142837 -0.15417224 0.00000000
0.58308566 -0.49917589 0.00000000
-0.69097784 -0.03468174 0.00000000
-0.75065982 0.25014078 0.00000000
-0.51628799 0.61451719 0.00000000
-0.73770521 -0.56491637 0.00000000
0.26800738 0.37327566 0.00000000
0.70798834 -0.76329483 0.00000000
-0.37278552 -0.69054817 0.00000000
0.47723926 0.05536945 0.00000000
0.23989140 -0.24327083 0.00000000
0.51642883 -0.05593160 0.00000000
-0.72491920 -0.00182686 0.00000000
0.28576101 0.35578154 0.00000000
0.70994755 -0.05459153 0.00000000
-0.05098521 -0.63189246 0.00000000
-0.10073634 0.12620203 0.00000000
0.54395645 0.00428167 0.00000000
0.54940566 0.12283501 0.00000000
0.60858165 0.28128734 0.04126750
0.31897088 0.24166172 0.00000000
0.49484375 0.48065021 0.08058617
-0.37312506 -0.40036021 0.00000000
-0.15721624 0.22356017 0.00000000
0.67563391 0.41136561 0.13178910
0.13160317 -0.09406237 0.00000000
-0.71751817 -0.17827883 0.00000000
0.28594477 -0.11692028 0.00000000
0.72133637 0.06969744 0.00000000
0.35566964 -0.57366423 0.00000000
0.46158459 -0.16550040 0.00000000
0.22145882 0.11555180 0.00000000
0.77327335 0.03193888 0.00239343
-0.75969950 0.38292468 0.00000000
-0.68163043 -0.20753724 0.00000000
0.00811309 0.33974742 0.00000000
-0.19825638 -0.34792555 0.00000000
0.24582862 0.69139086 0.06301068
-0.26278286 0.26375454 0.00000000
0.16218601 0.26713254 0.00000000
0.20590487 -0.17957205 0.00000000
-0.30163022 -0.58232308 0.00000000
0.43982768 -0.58400496 0.00000000
-0.17162118 0.79530290 0.00000000
-0.24558443 0.72872070 0.00000000
0.37715539 -0.63010363 0.00000000
0.30951401 -0.09613045 0.00000000
0.64696081 -0.09584789 0.00000000
0.06331010 -0.55873278 0.00000000
0.03291265 0.60209907 0.00000000
-0.34088438 0.25854674 0.00000000
-0.70618901 0.01205712 0.00000000
-0.52299627 0.35374026 0.00000000
-0.46843100 0.01090720 0.00000000
0.10757670 0.04494099 0.00000000
-0.50619809 0.40396245 0.00000000
0.13090421 0.23025804 0.00000000
0.55847166 -0.21892360 0.00000000
0.54740315 -0.17689210 0.00000000
0.27242536 -0.53164165 0.00000000
-0.06013140 -0.02152439 0.00000000
0.63633073 -0.65324231 0.00000000
-0.66842462 -0.11780723 0.00000000
-0.10305394 -0.27795149 0.00000000
-0.65935822 -0.11380126 0.00000000
0.48401136 -0.22520258 0.00000000
-0.39582284 0.33455043 0.00000000
-0.58846233 -0.42688927 0.00000000
-0.51971977 0.76292364 0.00000000
-0.29709236 -0.78339782 0.00000000
-0.29262841 0.03709839 0.00000000
0.76598925 -0.76806423 0.00000000
-0.15995924 0.15101510 0.00000000
-0.31245074 0.19261735 0.00000000
0.77245743 0.24388143 0.09934200
0.11444304 -0.48353596 0.00000000
-0.24957077 -0.32028007 0.00000000
-0.27382584 0.07198487 0.00000000
0.36935149 0.35399912 0.00000000
-0.41557959 -0.16185692 0.00000000
0.79842161 -0.54974270 0.00000000
-0.21542713 0.10034938 0.00000000
0.73255965 0.31549352 0.11390509
-0.19009743 -0.47952195 0.00000000
-0.19045126 -0.31742769 0.00000000
0.31831532 -0.28767148 0.00000000
-0.79583755 -0.71494698 0.00000000
-0.65899746 0.12881694 0.00000000
-0.03590142 -0.20133014 0.00000000
0.01555903 0.27817330 0.00000000
-0.01993092 -0.67918746 0.00000000
0.22200951 0.46401893 0.00000000
0.10493903 -0.43561798 0.00000000
0.44438901 -0.31746072 0.00000000
-0.22603942 -0.52062518 0.00000000
0.22884640 -0.16171387 0.00000000
0.67384766 0.29615376 0.07806401
-0.42341040 -0.69954435 0.00000000
-0.55648694 -0.59191386 0.00000000
-0.13864528 0.67997913 0.00000000
0.67483264 -0.63884379 0.00000000
-0.52054285 -0.19013386 0.00000000
-0.71729541 0.49722235 0.00000000
0.04971461 0.02592262 0.00000000
0.51357349 0.15515864 0.00000000
0.23061296 -0.68144022 0.00000000
0.32347344 -0.48642611 0.00000000
0.21732682 0.51172182 0.00000000
-0.11830666 0.36324575 0.00000000
0.01625974 0.06951432 0.00000000
0.28639829 -0.15775526 0.00000000
0.16147513 -0.33051024 0.00000000
-0.62151127 0.69522284 0.00000000
-0.33077601 0.64712071 0.00000000
0.46070346 -0.05340310 0.00000000
0.25616721 0.58496147 0.01888613
-0.08272534 0.67213462 0.00000000
-0.13653103 0.47615701 0.00000000
0.48650668 -0.25695594 0.00000000
-0.10364930 -0.79411002 0.00000000
-0.64710659 0.16580864 0.00000000
0.42270332 0.21567046 0.00000000
-0.69985226 -0.49583115 0.00000000
0.30930892 -0.14412620 0.00000000
0.71545490 0.23909783 0.07097003
-0.37546104 -0.78922973 0.00000000
-0.54290872 -0.28001489 0.00000000
-0.52034497 -0.28741873 0.00000000
-0.13978183 -0.42042281 0.00000000
-0.00237815 -0.31508449 0.00000000
0.03127674 0.44093128 0.00000000
0.49752744 0.66443092 0.16621005
-0.03670375 -0.79501312 0.00000000
0.32391641 -0.43639737 0.00000000
0.09265093 0.40284174 0.00000000
0.57539812 -0.21343631 0.00000000
-0.49223339 0.58323395 0.00000000
-0.71790872 0.25480269 0.00000000
-0.21528887 0.49176841 0.00000000
0.56594421 -0.78844731 0.00000000
0.18639870 -0.13508304 0.00000000
0.60609697 -0.13189115 0.00000000
0.43887920 0.63777365 0.12703801
0.31924004 -0.14362666 0.00000000
0.59879255 0.40126874 0.09186740
-0.12269890 0.60407918 0.00000000
-0.59122818 -0.30567981 0.00000000
0.36984741 0.30425859 0.00000000
-0.48008432 -0.70138523 0.00000000
0.55826981 0.50213160 0.11957536
0.16584046 0.43572783 0.00000000
-0.46808129 0.76749378 0.00000000
0.74497543 -0.41906657 0.00000000
-0.38728599 0.21815215 0.00000000
0.64042431 -0.29388189 0.00000000
-0.04568583 0.12995980 0.00000000
-0.00151653 0.61706935 0.00000000
0.00617842 0.67259682 0.00000000
-0.63379172 -0.47654263 0.00000000
0.16579236 -0.02392158 0.00000000
-0.16119979 0.73896687 0.00000000
0.41564551 -0.26616656 0.00000000
-0.00996124 -0.44853273 0.00000000
0.54967511 0.26200215 0.00536215
0.64961912 -0.45694560 0.00000000
-0.13758060 -0.12976335 0.00000000
0.60210003 -0.71006029 0.00000000
-0.64735460 0.61595936 0.00000000
0.31323305 0.32398811 0.00000000
-0.17968260 -0.40078330 0.00000000
0.68229853 -0.47807284 0.00000000
-0.70368857 -0.33183696 0.00000000
-0.09637116 -0.15065167 0.00000000
-0.68846722 -0.06165233 0.00000000
0.22135968 -0.49018741 0.00000000
0.68649027 0.32641746 0.09776643
-0.64238639 0.77572690 0.00000000
-0.60109335 0.43232757 0.00000000
0.25946481 -0.62504376 0.00000000
0.00569723 0.16402634 0.00000000
-0.62291967 -0.02102619 0.00000000
0.67641689 0.34734823 0.10275211
-0.67805018 -0.70654792 0.00000000
0.54641346 -0.20912024 0.00000000
0.37763255 0.52993374 0.04939403
0.41444065 0.35365283 0.00000000
0.22397599 -0.13687937 0.00000000
-0.06056034 -0.64691204 0.00000000
-0.63795883 -0.19366294 0.00000000
0.15729396 -0.56626534 0.00000000
-0.62949687 -0.37559054 0.00000000
0.67094255 -0.64552261 0.00000000
-0.16069054 0.37797933 0.00000000
0.76793821 -0.16251230 0.00000000
-0.24038200 -0.36962384 0.00000000
-0.68649852 0.43717429 0.00000000
0.22156070 -0.58454325 0.00000000
-0.65838315 0.64128462 0.00000000
0.27510774 -0.04918856 0.00000000
-0.65912013 -0.63345781 0.00000000
0.32875862 -0.47838337 0.00000000
-0.58283736 -0.44582439 0.00000000
-0.18461615 -0.03007566 0.00000000
0.29207880 -0.45538162 0.00000000
-0.13034232 -0.72587718 0.00000000
-0.11926009 0.62665383 0.00000000
0.55027609 -0.50076692 0.00000000
-0.23109978 0.35861428 0.00000000
-0.06555807 -0.56706204 0.00000000
-0.69232302 0.38875467 0.00000000
-0.18113342 -0.77367153 0.00000000
-0.62475114 0.00722226 0.00000000
-0.16190215 0.79999296 0.00000000
-0.43156833 -0.30422999 0.00000000
-0.37944516 -0.78559964 0.00000000
-0.28697873 -0.67187896 0.00000000
-0.69764998 0.35827964 0.00000000
0.16030938 0.15390419 0.00000000
-0.63969152 0.27807864 0.00000000
0.53112632 0.64436524 0.17242444
0.33332841 -0.26714876 0.00000000
-0.65383767 -0.07604744 0.00000000
-0.30653118 0.34886069 0.00000000
0.00694240 0.79154474 0.00000000
0.56252355 -0.69508084 0.00000000
0.13818701 0.45777513 0.00000000
-0.57430160 0.22889765 0.00000000
-0.17549800 0.03542800 0.00000000
0.35327061 -0.68001115 0.00000000
-0.26750620 -0.22764879 0.00000000
-0.28106920 -0.55591072 0.00000000
-0.11190664 -0.56201259 0.00000000
0.68283582 0.01353766 0.00000000
0.45400523 0.68419270 0.15529935
0.59561313 -0.36320128 0.00000000
0.29594491 -0.14821243 0.00000000
0.49303402 0.68219810 0.17230533
-0.11767874 -0.00956792 0.00000000
-0.03671358 -0.74078056 0.00000000
0.71116146 -0.22372417 0.00000000
-0.00911229 0.33401065 0.00000000
-0.47609994 0.56513314 0.00000000
0.04519682 -0.03473304 0.00000000
-0.54496908 0.12372798 0.00000000
0.60636199 0.30689893 0.05200899
-0.71799073 -0.20663826 0.00000000
0.64120939 0.06441190 0.00000000
-0.07670028 0.56746428 0.00000000
-0.79029203 0.41862185 0.00000000
-0.25932639 0.24677580 0.00000000
-0.53997806 0.38558083 0.00000000
0.28891398 0.24486868 0.00000000
-0.69294594 0.57752425 0.00000000
-0.66153660 -0.62218096 0.00000000
-0.56281456 -0.49159733 0.00000000
0.09887035 -0.17649370 0.00000000
-0.34230648 -0.61546672 0.00000000
-0.71988062 -0.57256357 0.00000000
-0.56192731 0.11682104 0.00000000
-0.57983391 0.23289734 0.00000000
0.44014353 -0.28742881 0.00000000
-0.23596989 0.77521718 0.00000000
0.13490072 0.67355067 0.00388084
0.19026852 0.06985911 0.00000000
-0.32470279 -0.28803285 0.00000000
-0.66757879 0.25934956 0.00000000
-0.53672240 -0.24322873 0.00000000
-0.04531295 0.58592118 0.00000000
0.65540060 0.07833444 0.00000000
0.20718913 -0.09058806 0.00000000
-0.17915686 0.30395052 0.00000000
0.36871911 0.23651862 0.00000000
-0.14228027 -0.67601590 0.00000000
0.34479874 -0.71617581 0.00000000
0.38440294 0.48329782 0.03108793
-0.15611073 0.69980211 0.00000000
0.20377223 0.65143919 0.02535287
-0.38183504 0.71462110 0.00000000
-0.17108803 0.31334898 0.00000000
0.15140461 -0.67157626 0.00000000
0.21231033 -0.78564136 0.00000000
0.02246313 -0.69048502 0.00000000
-0.01280847 -0.50779761 0.00000000
0.19690519 -0.64308160 0.00000000
0.21341938 -0.46350719 0.00000000
-0.65832504 0.77320700 0.00000000
0.74966355 0.41563321 0.16774291
-0.29825821 0.49569482 0.00000000
0.68801220 0.42899279 0.14556751
-0.49548015 0.31540867 0.00000000
-0.58359566 -0.33371759 0.00000000
0.78464229 -0.02045876 0.00000000
0.53365822 0.32284060 0.02594404
-0.46581837 0.24247065 0.00000000
-0.10264333 0.36001159 0.00000000
0.73231508 0.67466887 0.27872503
0.00778251 0.02003935 0.00000000
0.09325742 -0.62259640 0.00000000
-0.28859932 0.15797257 0.00000000
0.61907799 0.01906982 0.00000000
0.46776483 -0.02168494 0.00000000
0.03220526 0.37812503 0.00000000
-0.77736548 -0.28381730 0.00000000
0.62824927 -0.30191663 0.00000000
0.27060863 0.71288059 0.08425761
0.52139723 -0.20760213 0.00000000
0.40600390 -0.65893600 0.00000000
0.63281553 0.38215412 0.09871326
-0.58851761 -0.53243624 0.00000000
-0.34947605 0.15045644 0.00000000
-0.44669593 0.58354094 0.00000000
0.24779673 -0.38046412 0.00000000
0.63817221 -0.03694783 0.00000000
-0.63255449 -0.74935263 0.00000000
-0.40168809 -0.52813705 0.00000000
0.72402090 0.33478769 0.11884394
0.35227877 -0.55698062 0.00000000
0.36714307 0.13467184 0.00000000
0.06000701 -0.78825897 0.00000000
0.79147655 -0.16153493 0.00000000
0.66973806 0.34130646 0.09691086
-0.73874597 -0.33688067 0.00000000
-0.62444294 -0.07949567 0.00000000
-0.51330378 -0.39451732 0.00000000
-0.53452501 -0.61505939 0.00000000
0.30621377 0.62754793 0.06142287
0.44926945 -0.74485636 0.00000000
0.03100096 -0.54739025 0.00000000
-0.76911561 0.41948986 0.00000000
0.68200014 -0.08806654 0.00000000
-0.38441298 -0.50275096 0.00000000
0.16133403 -0.37060526 0.00000000
0.05669515 0.30281381 0.00000000
0.22840206 0.27624753 0.00000000
-0.50001022 0.34702609 0.00000000
0.48397474 -0.12062318 0.00000000
-0.59914247 0.76285548 0.00000000
-0.66923706 -0.28717831 0.00000000
0.01254390 -0.40468197 0.00000000
0.10091647 -0.07211994 0.00000000
-0.11688106 0.65302415 0.00000000
-0.63263904 -0.43006070 0.00000000
-0.29392771 0.03468504 0.00000000
0.62337480 0.56560846 0.17861974
0.02546472 0.64317210 0.00000000
-0.47536865 0.79704628 0.00000000
-0.76007846 -0.55749318 0.00000000
-0.31666743 -0.59006619 0.00000000
-0.76501443 -0.63415032 0.00000000
-0.48777755 0.24783992 0.00000000
-0.78490345 0.69442326 0.00000000
0.02373720 -0.76905318 0.00000000
-0.22612077 -0.78714318 0.00000000
-0.74638075 0.53161004 0.00000000
0.04964314 0.25393958 0.00000000
0.49286772 0.69725240 0.17914186
-0.38464805 0.16663167 0.00000000
0.55779988 -0.03372623 0.00000000
0.56293617 0.34139497 0.04790847
-0.31871176 0.22147071 0.00000000
0.22585199 -0.53920289 0.00000000
-0.25052085 -0.53059058 0.00000000
-0.20532965 -0.16169591 0.00000000
0.69151430 0.05751766 0.00000000
0.21521373 -0.71732728 0.00000000
-0.67714725 0.06109975 0.00000000
0.19528385 0.26663034 0.00000000
-0.01532693 0.60972384 0.00000000
-0.18065438 -0.65878022 0.00000000
-0.56818506 -0.49879259 0.00000000
0.08598059 -0.14991891 0.00000000
-0.77166705 0.35728081 0.00000000
0.07211525 0.45464342 0.00000000
-0.27484440 0.35024348 0.00000000
-0.25824844 0.66678605 0.00000000
0.00340027 0.74000194 0.00000000
0.41905768 -0.64352261 0.00000000
0.17532091 -0.07902363 0.00000000
0.08580379 0.56921118 0.00000000
-0.41321130 0.35050198 0.00000000
-0.11968456 -0.26718618 0.00000000
-0.73969990 0.29208062 0.00000000
-0.49872667 0.32607892 0.00000000
0.76245858 -0.25314896 0.00000000
-0.49176135 0.05519252 0.00000000
-0.27940798 0.71012862 0.00000000
0.41469621 0.42326238 0.01743044
-0.01814112 0.59864874 0.00000000
0.12294049 0.14231151 0.00000000
0.28285215 -0.43415172 0.00000000
0.62960604 0.57305156 0.18489895
-0.23762167 -0.22012400 0.00000000
0.09243461 -0.00255819 0.00000000
-0.22549224 0.65899033 0.00000000
0.69537486 0.60248117 0.22861379
-0.58507425 0.43677884 0.00000000
0.49776649 -0.56809963 0.00000000
0.47202503 0.60926068 0.12916539
-0.67241371 -0.40550645 0.00000000
-0.63834502 -0.72003028 0.00000000
-0.64509262 0.42405676 0.00000000
0.35654027 0.75135819 0.14138597
-0.66982539 -0.47255994 0.00000000
0.34448942 -0.21077078 0.00000000
-0.64648681 0.37329970 0.00000000
0.49221087 -0.57686522 0.00000000
0.67166352 -0.55439056 0.00000000
0.21120260 -0.32612591 0.00000000
-0.67860044 -0.12073210 0.00000000
0.78960049 -0.70272838 0.00000000
0.64894400 0.43232313 0.12915681
0.52801801 -0.50915933 0.00000000
0.22540391 0.38518090 0.00000000
-0.08131811 -0.55277854 0.00000000
0.53826608 -0.03390960 0.00000000
-0.36321730 0.59074206 0.00000000
0.05574465 0.04893398 0.00000000
-0.26980578 0.29901405 0.00000000
-0.11006373 0.05853311 0.00000000
0.49307330 0.67584306 0.16940515
-0.64899928 -0.11946647 0.00000000
-0.04931513 -0.46915067 0.00000000
-0.40078383 -0.09322702 0.00000000
0.68820931 -0.48194654 0.00000000
-0.04359109 -0.73633820 0.00000000
-0.72550137 0.26574818 0.00000000
-0.44323398 0.74748918 0.00000000
0.65426970 -0.58954843 0.00000000
0.39357305 -0.36958893 0.00000000
-0.38080338 -0.72876339 0.00000000
-0.70510463 0.58734874 0.00000000
-0.74915718 -0.06658796 0.00000000
-0.53705075 0.70085598 0.00000000
-0.79136781 0.04000816 0.00000000
0.19452028 -0.74095787 0.00000000
-0.12335031 -0.12982810 0.00000000
0.12614105 -0.76350419 0.00000000
0.14491622 -0.59842552 0.00000000
-0.20721206 -0.57627028 0.00000000
-0.13875832 -0.34525705 0.00000000
-0.58497003 -0.48925605 0.00000000
0.29934380 0.46977594 0.00000000
-0.59424980 0.20275452 0.00000000
0.76040619 0.39530109 0.16333946
0.48862728 -0.66976678 0.00000000
-0.34929404 -0.19150977 0.00000000
-0.42793537 0.11530591 0.00000000
0.25646373 0.02651643 0.00000000
-0.58058610 0.03080762 0.00000000
-0.18165576 -0.23139537 0.00000000
0.26540807 0.73192108 0.09061287
-0.49486394 0.09899652 0.00000000
0.05790316 0.62760009 0.00000000
0.29470461 0.31556726 0.00000000
-0.00161527 0.77298291 0.00000000
0.69535135 0.66741711 0.25842141
0.27805797 0.66996229 0.06797035
0.73124139 -0.51832310 0.00000000
-0.75299843 -0.43351033 0.00000000
-0.42016366 0.03855976 0.00000000
-0.43034967 0.50229323 0.00000000
0.41012674 -0.69153826 0.00000000
0.14199159 -0.77611899 0.00000000
-0.05881656 -0.10045348 0.00000000
-0.32478236 0.54347173 0.00000000
0.02751622 0.40713939 0.00000000
0.64217531 -0.79307424 0.00000000
-0.15050559 0.40448323 0.00000000
-0.34068214 0.15061171 0.00000000
0.33720004 -0.76881975 0.00000000
0.20918309 0.14170195 0.00000000
0.77496202 0.21182778 0.08577318
0.60038823 0.59568494 0.18187542
0.04326057 0.59720165 0.00000000
-0.29780852 -0.51532518 0.00000000
-0.17124424 -0.33999356 0.00000000
0.55817720 0.65367145 0.18911950
-0.22448639 0.16383652 0.00000000
-0.78717140 -0.74530937 0.00000000
0.19099132 0.73827275 0.05935761
0.45321275 0.03628288 0.00000000
-0.01904456 0.44233024 0.00000000
-0.79372871 -0.16526183 0.00000000
0.34822613 -0.42597510 0.00000000
-0.04593582 -0.22669826 0.00000000
0.72247790 -0.35510113 0.00000000
0.08229495 0.38070613 0.00000000
-0.60994546 0.57461680 0.00000000
-0.09615210 0.12981908 0.00000000
0.66527795 0.43534740 0.13804604
-0.46113129 -0.37471134 0.00000000
-0.72393332 0.52992256 0.00000000
0.52835368 -0.17680541 0.00000000
-0.30851588 -0.50532180 0.00000000
0.50037740 -0.21536172 0.00000000
-0.04084197 0.52255469 0.00000000
-0.51994729 -0.28037235 0.00000000
0.47164489 0.24800141 0.00000000
-0.09373069 0.30845897 0.00000000
-0.43453803 -0.31061570 0.00000000
-0.62069613 0.30279429 0.00000000
-0.23522171 -0.31004674 0.00000000
-0.20491331 -0.22567026 0.00000000
0.12943230 0.17027648 0.00000000
0.37868186 -0.22521600 0.00000000
0.28822499 -0.31713008 0.00000000
0.46235770 0.71407092 0.17285478
-0.38693696 -0.79722757 0.00000000
-0.29279701 0.31210095 0.00000000
0.27980383 -0.75114030 0.00000000
-0.15285298 0.15338116 0.00000000
0.33271260 0.22188221 0.00000000
0.24969352 -0.23440974 0.00000000
0.15418326 0.67472127 0.01327285
-0.19119608 -0.34883692 0.00000000
-0.34356245 0.63492327 0.00000000
0.25993450 0.01300873 0.00000000
0.53654811 -0.29856488 0.00000000
0.45787694 -0.07611321 0.00000000
-0.03521719 0.01670419 0.00000000
-0.37109356 0.50299266 0.00000000
0.23903025 0.42258382 0.00000000
0.50063633 0.42525458 0.05780864
-0.19026288 0.38895747 0.00000000
-0.32138977 0.60047916 0.00000000
-0.07899324 -0.37749254 0.00000000
0.53900074 0.52854633 0.12285662
-0.09624311 0.12090125 0.00000000
0.78261480 -0.72867139 0.00000000
-0.67202922 0.38956965 0.00000000
0.58307000 -0.05524898 0.00000000
0.53662036 0.46288507 0.09161215
-0.30544913 0.61144876 0.00000000
0.14800913 -0.63713538 0.00000000
-0.19014166 -0.59815407 0.00000000
-0.25676102 0.54061365 0.00000000
-0.08078427 -0.74785426 0.00000000
0.51039596 -0.39996691 0.00000000
-0.38551246 0.72322833 0.00000000
-0.57844484 -0.74889231 0.00000000
-0.23236791 -0.75814080 0.00000000
-0.18657052 0.13669455 0.00000000
0.04451746 0.71195792 0.00000000
-0.31189480 -0.66659033 0.00000000
0.37461417 -0.40750596 0.00000000
-0.12781649 0.42994294 0.00000000
-0.00386490 -0.78319354 0.00000000
-0.54477407 0.13084755 0.00000000
0.53403200 0.28670845 0.00952393
0.57993880 -0.65524640 0.00000000
0.42658043 -0.79413999 0.00000000
-0.22813006 -0.05972180 0.00000000
-0.76646112 0.75789823 0.00000000
0.76938901 0.26130738 0.10593492
-0.13891202 0.65847622 0.00000000
-0.43238252 0.45056322 0.00000000
-0.27154507 -0.55365855 0.00000000
0.38135785 -0.68876476 0.00000000
-0.01536978 0.58613450 0.00000000
0.13456941 0.61260814 0.00000000
-0.15584621 -0.14660504 0.00000000
0.69330376 -0.05514310 0.00000000
0.11630768 0.41377812 0.00000000
0.24336276 0.29007458 0.00000000
-0.32907867 -0.77648217 0.00000000
0.66448156 -0.37000509 0.00000000
-0.58677423 0.41302619 0.00000000
-0.27481334 -0.69135021 0.00000000
-0.03226693 0.59629195 0.00000000
0.06216145 -0.40018451 0.00000000
0.02936824 0.61173244 0.00000000
-0.12549039 0.62983619 0.00000000
-0.22782523 0.27261148 0.00000000
-0.71115445 -0.50453145 0.00000000
-0.29329219 -0.64579986 0.00000000
0.71554726 0.34098969 0.11780081
0.50660903 -0.69679406 0.00000000
0.57360794 0.60551560 0.17409221
0.50417421 0.56322982 0.12279094
-0.16683269 -0.38753506 0.00000000
-0.25759483 -0.73680851 0.00000000
0.40667990 -0.00978836 0.00000000
0.26349704 -0.32517543 0.00000000
-0.54610873 -0.66730789 0.00000000
0.47789116 -0.37158903 0.00000000
0.71628398 -0.12109447 0.00000000
-0.43988209 -0.40607721 0.00000000
0.74878093 -0.48014231 0.00000000
0.23716828 0.76481073 0.09274810
0.44110276 0.02562597 0.00000000
-0.59875241 -0.35159376 0.00000000
-0.67877670 -0.55015937 0.00000000
-0.28172794 0.76981726 0.00000000
0.38424774 -0.40936685 0.00000000
0.64034773 -0.57807779 0.00000000
0.41510795 0.37761871 0.00000000
-0.35582593 0.52914176 0.00000000
-0.34349377 -0.51990010 0.00000000
-0.37606542 -0.36448738 0.00000000
0.18249048 -0.08179400 0.00000000
0.06668759 -0.38709072 0.00000000
0.54364467 -0.11105824 0.00000000
0.44361931 -0.51823779 0.00000000
-0.06283766 0.64576055 0.00000000
0.52257192 -0.07400117 0.00000000
0.39829828 -0.21347344 0.00000000
0.70693624 -0.09575023 0.00000000
0.11090026 0.58359454 0.00000000
0.65104487 0.10293638 0.00000000
-0.49361098 0.42965033 0.00000000
0.33053538 -0.58061175 0.00000000
-0.32915836 -0.05356020 0.00000000
-0.66576884 0.77279061 0.00000000
-0.35704534 -0.26867727 0.00000000
0.77314404 -0.47972720 0.00000000
-0.03545582 -0.15369560 0.00000000
0.77581193 -0.58473905 0.00000000
0.77446987 -0.76567770 0.00000000
0.05164162 0.22683061 0.00000000
-0.27756242 0.73011127 0.00000000
-0.78377271 0.72990619 0.00000000
0.77310236 -0.67619024 0.00000000
-0.46919773 -0.14790725 0.00000000
-0.19156455 -0.48142731 0.00000000
0.09599190 0.39544378 0.00000000
0.73237325 -0.66902429 0.00000000
-0.41144613 -0.58354541 0.00000000
0.11866849 -0.48633605 0.00000000
-0.70520454 0.43519541 0.00000000
-0.06947049 -0.31133700 0.00000000
0.05890850 -0.01116310 0.00000000
-0.06205796 -0.79837594 0.00000000
0.61081806 0.13713375 0.00000000
-0.71597341 0.33650557 0.00000000
0.52315690 0.37754545 0.04624214
0.68624427 -0.56207759 0.00000000
0.52822504 -0.61805818 0.00000000
-0.59393803 -0.55545079 0.00000000
-0.31626720 -0.16606395 0.00000000
-0.32017433 0.16211024 0.00000000
0.47087178 0.30934886 0.00000000
-0.34463548 0.29472994 0.00000000
-0.13792354 0.67480215 0.00000000
-0.31257636 -0.50318140 0.00000000
0.34326585 -0.58900651 0.00000000
-0.11926150 0.52774292 0.00000000
-0.49827413 0.05578283 0.00000000
-0.45474215 -0.72253880 0.00000000
0.33250261 -0.21573696 0.00000000
0.53700592 0.34873790 0.03937324
-0.40051872 0.56289004 0.00000000
0.29102878 -0.12200016 0.00000000
0.19385009 0.21297257 0.00000000
-0.44209967 0.33423574 0.00000000
0.47241987 0.49857367 0.07851960
0.50192695 0.02970830 0.00000000
0.54616675 0.34937075 0.04387046
0.12987123 -0.38943975 0.00000000
0.21711819 0.50153123 0.00000000
0.15827972 0.13827503 0.00000000
0.03492824 0.02227024 0.00000000
-0.05105778 -0.32755883 0.00000000
0.25866848 -0.22565787 0.00000000
-0.66247074 -0.15878641 0.00000000
-0.13011563 -0.59416058 0.00000000
0.33630852 -0.22760494 0.00000000
0.10243327 -0.56795733 0.00000000
-0.28960048 0.71266326 0.00000000
-0.70480150 -0.09292702 0.00000000
0.34781374 0.63859999 0.08560049
-0.53353898 -0.55637149 0.00000000
0.56265628 0.39090907 0.07051664
0.03045276 -0.20684385 0.00000000
-0.79720197 0.79446571 0.00000000
-0.58206867 -0.16395167 0.00000000
-0.29739869 -0.39547782 0.00000000
-0.62294507 0.71428612 0.00000000
0.38267130 -0.65371288 0.00000000
-0.19896673 0.45185152 0.00000000
-0.45959319 -0.68799677 0.00000000
0.75606382 0.40408406 0.16537856
0.35286111 0.72091419 0.12571670
0.12322436 0.46058248 0.00000000
-0.66361973 -0.07033540 0.00000000
-0.73113616 0.74100155 0.00000000
-0.76389193 0.36946676 0.00000000
0.17140859 0.65371306 0.01153576
-0.03148053 0.51498879 0.00000000
-0.57663948 0.62818632 0.00000000
0.74776780 0.53417302 0.22130554
-0.37879105 -0.29719414 0.00000000
-0.24429597 0.52714056 0.00000000
0.04671609 0.58554359 0.00000000
-0.31748026 0.33446571 0.00000000
-0.40282761 -0.47538617 0.00000000
0.65106345 0.14949576 0.00025678
-0.19437925 0.42339921 0.00000000
0.48538764 -0.13207448 0.00000000
-0.33398676 0.78636390 0.00000000
-0.41510847 -0.02493686 0.00000000
0.05824961 0.22826984 0.00000000
0.14114340 -0.45565246 0.00000000
0.20247742 -0.01954227 0.00000000
0.42111155 -0.01806017 0.00000000
-0.18152567 0.49313244 0.00000000
0.10338356 -0.02637081 0.00000000
0.36154218 -0.00597874 0.00000000
0.00544747 -0.54639825 0.00000000
-0.06389697 0.34752538 0.00000000
0.19337385 0.00984215 0.00000000
0.51856861 0.41222484 0.06005986
-0.61919849 -0.20922002 0.00000000
-0.26219976 -0.38346234 0.00000000
0.48374720 -0.38182305 0.00000000
0.13460820 -0.43586914 0.00000000
0.38835123 0.34017787 0.00000000
-0.38582483 0.03922363 0.00000000
0.22075695 0.66954037 0.04146419
0.52512461 -0.28441115 0.00000000
0.38653726 -0.28425058 0.00000000
0.48904875 0.15656173 0.00000000
-0.48997940 -0.66547255 0.00000000
0.39628467 -0.57379083 0.00000000
-0.74448783 -0.25797915 0.00000000
0.73830852 -0.55073848 0.00000000
0.54797484 -0.39218346 0.00000000
0.49157983 -0.54285558 0.00000000
-0.67102964 0.74861588 0.00000000
0.38793583 -0.23527422 0.00000000
-0.79377575 0.57745725 0.00000000
0.42049587 0.67645167 0.13635729
0.38521649 -0.41365110 0.00000000
0.29682832 -0.65042972 0.00000000
-0.08046991 -0.04146963 0.00000000
0.23251933 0.20436102 0.00000000
-0.62578645 0.31058692 0.00000000
0.18594367 -0.74563770 0.00000000
0.05324047 -0.50928400 0.00000000
-0.79119487 -0.41326219 0.00000000
-0.34866962 -0.62504667 0.00000000
0.49339497 -0.66971996 0.00000000
-0.37778768 0.54561635 0.00000000
-0.63083158 -0.72604367 0.00000000
0.77109259 -0.00013978 0.00000000
0.73691684 0.66028159 0.27423154
0.35596504 0.75427889 0.14246300
-0.03823423 -0.27312642 0.00000000
-0.14257813 0.47498594 0.00000000
0.48758130 -0.50502547 0.00000000
-0.29504051 0.65692520 0.00000000
0.36417604 -0.16662794 0.00000000
0.01113837 -0.23066643 0.00000000
0.40738350 -0.75333764 0.00000000
-0.32095466 0.61789637 0.00000000
-0.69684618 0.33669366 0.00000000
0.27660488 0.59359187 0.03223408
-0.33823098 0.60287832 0.00000000
-0.69435245 0.37465506 0.00000000
-0.51641329 0.74389565 0.00000000
0.40269585 -0.30368841 0.00000000
0.34252081 -0.27118074 0.00000000
0.60789439 0.48185952 0.13305392
-0.14746298 0.63498770 0.00000000
-0.67687751 -0.25614912 0.00000000
-0.39380397 -0.43628395 0.00000000
0.19051853 0.46333886 0.00000000
-0.72699563 -0.59158245 0.00000000
0.20912885 0.25741870 0.00000000
-0.48117761 0.19269337 0.00000000
-0.00072855 0.41679446 0.00000000
0.75217100 0.43369226 0.17718697
0.00199704 -0.70346340 0.00000000
0.15423000 0.52262528 0.00000000
0.75509116 -0.44033540 0.00000000
0.30241376 0.77113967 0.12561485
0.16568919 0.15636301 0.00000000
-0.18420175 0.60804767 0.00000000
0.00484085 0.00598720 0.00000000
-0.73601427 0.00559445 0.00000000
0.59247092 0.19156103 0.00000000
0.75900187 -0.17616085 0.00000000
0.72302451 0.37940310 0.13887363
-0.34759837 -0.44428900 0.00000000
-0.52445419 0.25039884 0.00000000
-0.34647867 -0.05541726 0.00000000
0.50423231 -0.26049403 0.00000000
-0.20784047 -0.27413863 0.00000000
0.42490585 -0.76677459 0.00000000
0.50347525 0.75264581 0.20944932
0.73294255 -0.12179280 0.00000000
0.73754674 0.41841148 0.16345469
-0.24776052 0.08075914 0.00000000
-0.77989491 -0.30633981 0.00000000
0.64033069 -0.61088399 0.00000000
-0.35007362 0.29381263 0.00000000
-0.09247983 0.59228175 0.00000000
0.28323511 0.74833695 0.10633712
0.54030557 0.38083895 0.05562911
-0.33445021 -0.44214098 0.00000000
-0.26350679 -0.51567204 0.00000000
0.15592761 -0.39286132 0.00000000
-0.14689601 0.40255356 0.00000000
0.57796778 -0.43611654 0.00000000
0.27964535 0.30987274 0.00000000
0.07157830 -0.15168571 0.00000000
0.06806090 -0.42701940 0.00000000
0.40742630 0.58088248 0.08647069
0.23277406 0.19912230 0.00000000
-0.59082225 0.35263928 0.00000000
0.23852190 0.06798658 0.00000000
-0.17139548 -0.29027389 0.00000000
0.48303973 -0.27699656 0.00000000
-0.03516769 -0.21232951 0.00000000
0.61914159 0.62297430 0.20301811
0.02912826 0.78760969 0.00768600
0.34007348 -0.48576372 0.00000000
0.08989205 0.30609485 0.00000000
-0.14700930 0.04046363 0.00000000
0.12544970 -0.30416102 0.00000000
0.06599674 0.68121012 0.00000000
0.64396827 -0.70261972 0.00000000
0.42419662 -0.28908773 0.00000000
0.52423238 0.24827482 0.00000000
-0.71058363 -0.02687983 0.00000000
-0.17520062 -0.47582491 0.00000000
-0.76292717 -0.34142615 0.00000000
0.08674430 -0.09290215 0.00000000
-0.31225773 0.31860621 0.00000000
0.51575370 -0.55556282 0.00000000
0.04268716 -0.24112447 0.00000000
-0.44445104 0.33564972 0.00000000
0.69216102 -0.74746226 0.00000000
-0.01248172 -0.44619063 0.00000000
-0.76404722 0.30184303 0.00000000
0.00666475 -0.66275018 0.00000000
0.47238688 -0.70294982 0.00000000
-0.62070968 0.62561629 0.00000000
-0.44557728 0.65914780 0.00000000
-0.21835419 -0.67235003 0.00000000
0.71808913 -0.13482370 0.00000000
0.41826415 -0.69370239 0.00000000
0.54706979 -0.31328955 0.00000000
0.31914871 -0.19689720 0.00000000
-0.23477239 -0.34048616 0.00000000
-0.53091361 0.22304388 0.00000000
0.41648027 0.75150091 0.16897576
0.10533608 0.75390794 0.02720464
0.49281341 0.35594005 0.02238740
-0.76096982 0.61914821 0.00000000
0.41596454 0.60521350 0.10156414
-0.26763237 0.03873297 0.00000000
-0.52120127 0.00174105 0.00000000
0.44006210 0.04341453 0.00000000
-0.18790259 -0.52609862 0.00000000
-0.64003262 -0.19869602 0.00000000
0.42891426 -0.50263442 0.00000000
0.04054359 0.44465695 0.00000000
0.01767488 -0.61765727 0.00000000
-0.76739165 -0.28005976 0.00000000
-0.36432527 0.17426528 0.00000000
0.51617887 0.13162796 0.00000000
0.05878582 0.19146805 0.00000000
0.77812017 0.01387809 0.00000000
-0.77736802 0.42158740 0.00000000
0.16296490 0.57657434 0.00000000
0.71346987 0.33414045 0.11370173
0.36101786 -0.45551413 0.00000000
0.35504749 0.53164828 0.03981037
-0.30575253 0.58990645 0.00000000
0.45071386 -0.45351203 0.00000000
-0.13223956 -0.46102795 0.00000000
0.09097159 -0.56299531 0.00000000
-0.11044442 0.56996046 0.00000000
-0.62726078 0.62530492 0.00000000
-0.59212769 -0.22510586 0.00000000
0.76943317 0.11320487 0.03794708
-0.46484863 -0.00186300 0.00000000
0.38452966 -0.28782553 0.00000000
0.40635916 -0.74317734 0.00000000
-0.27260896 0.34319126 0.00000000
0.34327080 -0.35250628 0.00000000
0.54349546 -0.36790117 0.00000000
0.32160800 0.24847892 0.00000000
0.17572537 -0.29177906 0.00000000
-0.68623877 0.72297922 0.00000000
0.50694270 0.54961390 0.11780983
-0.42016793 -0.27798124 0.00000000
0.15380713 0.05787124 0.00000000
0.18995486 0.17249277 0.00000000
0.51329736 -0.23468454 0.00000000
0.40323231 -0.33734552 0.00000000
0.30154327 -0.62278415 0.00000000
-0.44485133 -0.50942426 0.00000000
-0.76145944 -0.12005613 0.00000000
-0.61520511 0.34809536 0.00000000
0.22220569 -0.40810127 0.00000000
0.13988717 0.71459004 0.02501573
0.79800132 -0.59828825 0.00000000
-0.64142079 0.00628677 0.00000000
-0.32850558 -0.38049186 0.00000000
0.48418411 0.07016891 0.00000000
0.43939967 -0.67212656 0.00000000
-0.29110869 0.09512464 0.00000000
-0.36532386 0.35169929 0.00000000
-0.56534924 -0.44226073 0.00000000
0.49126229 0.51305528 0.09382186
0.65115108 -0.36646632 0.00000000
-0.51474600 0.60062872 0.00000000
0.46477402 -0.39434278 0.00000000
-0.56537719 0.14620507 0.00000000
0.56012867 0.15555800 0.00000000
0.58678901 0.27141461 0.02672688
0.41023612 -0.00048468 0.00000000
0.65617194 0.11556808 0.00000000
-0.16478092 -0.40654860 0.00000000
0.13972137 0.71326962 0.02433326
0.32669980 0.02149359 0.00000000
-0.52753101 -0.14884443 0.00000000
0.46884063 -0.25809161 0.00000000
-0.67822707 0.04426786 0.00000000
-0.18546119 -0.77269405 0.00000000
0.36075250 0.76707586 0.15053772
-0.44092178 0.39216168 0.00000000
-0.40968302 0.25392961 0.00000000
0.34502446 0.76015138 0.14013575
0.68799248 -0.34045842 0.00000000
-0.12701092 0.64309391 0.00000000
0.61698845 -0.55457951 0.00000000
-0.19769135 0.79461433 0.00000000
0.65219995 -0.39960681 0.00000000
-0.29143729 0.13548039 0.00000000
-0.57289735 0.72272515 0.00000000
0.03994795 -0.24886499 0.00000000
0.65085325 0.31374662 0.07558364
0.36366551 0.69282020 0.11777736
0.40090933 -0.71884773 0.00000000
0.11892792 -0.68137969 0.00000000
-0.76896966 -0.26513338 0.00000000
-0.18780792 0.62955281 0.00000000
-0.50034843 -0.18687882 0.00000000
-0.09249906 -0.56991078 0.00000000
-0.24259111 -0.26434743 0.00000000
-0.48640132 0.32019805 0.00000000
0.51695290 -0.33538034 0.00000000
-0.25199144 -0.20360326 0.00000000
0.04400549 -0.18154198 0.00000000
-0.79356022 0.59923651 0.00000000
0.01258079 -0.23115044 0.00000000
-0.37154235 -0.51553747 0.00000000
-0.31189683 -0.10380924 0.00000000
0.53874678 0.19108062 0.00000000
0.40213633 0.32489217 0.00000000
-0.10482522 -0.27936885 0.00000000
-0.52301317 -0.28780706 0.00000000
-0.20640615 0.04449342 0.00000000
-0.77423560 -0.74539592 0.00000000
-0.47118494 0.41241810 0.00000000
0.16449602 0.62582921 0.00000000
-0.48072883 -0.64563815 0.00000000
-0.20694422 0.09342074 0.00000000
0.19761293 -0.12211883 0.00000000
-0.79399329 0.76183792 0.00000000
-0.79134605 0.67616704 0.00000000
-0.61380602 0.19093021 0.00000000
-0.49557861 -0.31067785 0.00000000
0.01003135 -0.30839196 0.00000000
-0.46627569 0.53524235 0.00000000
0.45401460 -0.60242765 0.00000000
0.52140491 -0.23070720 0.00000000
0.39043470 -0.16313687 0.00000000
-0.30503346 0.22266955 0.00000000
-0.69934841 0.07524760 0.00000000
0.32727181 -0.20184044 0.00000000
-0.75492448 -0.22328029 0.00000000
0.58454840 0.21434279 0.00000000
0.31839687 0.58824802 0.04897093
-0.09274626 -0.59274360 0.00000000
0.24282574 -0.04802564 0.00000000
0.63637669 -0.30796508 0.00000000
0.53804441 0.44110128 0.08226303
-0.45620973 0.02523934 0.00000000
0.20810443 -0.27464168 0.00000000
-0.26992537 -0.17866272 0.00000000
0.15154958 0.40154682 0.00000000
-0.64795320 0.24229446 0.00000000
-0.12421823 0.54314255 0.00000000
0.54930003 0.65721685 0.18667118
0.65434219 0.19138596 0.02099819
0.19286007 -0.16566186 0.00000000
0.41402654 -0.02595827 0.00000000
0.13396065 -0.22309652 0.00000000
-0.01537601 0.78357872 0.00000000
0.68449861 0.13595925 0.00939417
-0.12650154 0.74063660 0.00000000
0.59999417 0.66492991 0.21349158
0.14408170 0.70391435 0.02203960
0.24181790 0.56586669 0.00352873
-0.21916152 -0.67464890 0.00000000
-0.01814990 -0.75697277 0.00000000
0.33301362 -0.68995036 0.00000000
-0.00951561 0.48822453 0.00000000
0.15697243 -0.25049153 0.00000000
-0.66700701 -0.35500057 0.00000000
0.71814729 0.45525149 0.17146333
0.42436613 0.50453216 0.05918961
0.30587025 -0.19480525 0.00000000
0.46789900 0.26310278 0.00000000
0.07566977 -0.19180073 0.00000000
0.14288486 -0.24537463 0.00000000
-0.67187228 0.38770593 0.00000000
-0.50674668 0.72385450 0.00000000
0.28659025 0.15874803 0.00000000
-0.58490248 0.73144063 0.00000000
0.07733444 -0.47695987 0.00000000
-0.22233318 0.78866777 0.00000000
0.05985648 -0.06147640 0.00000000
-0.05095201 -0.72929846 0.00000000
0.36989071 -0.33738381 0.00000000
0.15647648 0.56612897 0.00000000
-0.44976786 0.08430307 0.00000000
-0.32628581 -0.75010755 0.00000000
-0.66371130 0.05063770 0.00000000
-0.23234144 -0.39963839 0.00000000
0.04669739 -0.28574775 0.00000000
0.03508992 0.06109200 0.00000000
-0.14999759 0.55859327 0.00000000
0.35024392 -0.68292691 0.00000000
0.18139311 0.69134121 0.03339933
0.38295418 0.59730624 0.08277491
-0.48623029 -0.58953054 0.00000000
0.53322381 -0.64536675 0.00000000
0.04388633 0.74232089 0.00000000
0.20728484 -0.67061087 0.00000000
-0.76301853 -0.64538629 0.00000000
0.50215426 -0.63370273 0.00000000
0.22841879 0.05121538 0.00000000
-0.79411348 -0.59586953 0.00000000
0.27331768 0.72158803 0.08950003
-0.51286009 -0.08968061 0.00000000
-0.77460229 -0.63051884 0.00000000
0.62491348 0.72934560 0.25451397
-0.22159819 -0.05069180 0.00000000
0.45568863 0.66326909 0.14646429
0.61567728 0.24966906 0.03000679
0.65748833 -0.57116802 0.00000000
0.42123503 0.23234583 0.00000000
0.40524319 -0.68552394 0.00000000
0.52099308 0.11886374 0.00000000
0.59336087 -0.67142993 0.00000000
-0.21456509 0.70509640 0.00000000
-0.45803523 -0.15831830 0.00000000
-0.71887474 0.22125501 0.00000000
-0.51112855 0.43500011 0.00000000
0.54537735 -0.25269065 0.00000000
-0.67190991 0.66202583 0.00000000
0.69131044 0.33670988 0.10470608
-0.47632997 0.62626801 0.00000000
-0.73655233 -0.56496015 0.00000000
0.11236458 0.37285686 0.00000000
-0.25453730 -0.47960124 0.00000000
0.06919836 0.53990006 0.00000000
-0.08787935 -0.02304876 0.00000000
0.38183441 0.45665311 0.01767332
0.62508365 0.45557517 0.12887748
-0.18846453 0.25701359 0.00000000
-0.30484938 -0.38925579 0.00000000
0.35447474 -0.18227085 0.00000000
0.62711615 0.48748418 0.14446330
0.53311656 -0.41971097 0.00000000
-0.06906314 0.56465119 0.00000000
0.13313397 0.08101941 0.00000000
0.67845549 0.29948214 0.08170829
-0.09727895 0.22381548 0.00000000
-0.26438616 -0.24160596 0.00000000
0.66211808 0.20716271 0.03181348
-0.73912892 -0.75256130 0.00000000
-0.56105994 -0.18968535 0.00000000
0.42358477 0.72805258 0.16147071
-0.05434891 -0.38126956 0.00000000
-0.14091033 -0.45842410 0.00000000
0.44493635 -0.49432851 0.00000000
-0.02600466 -0.66676127 0.00000000
0.68709706 0.72550177 0.28130340
0.23522278 -0.27634849 0.00000000
0.75487285 -0.50746477 0.00000000
-0.07902107 0.78203202 0.00000000
0.04669406 -0.71153136 0.00000000
-0.51591474 -0.78259995 0.00000000
-0.63293639 0.76067083 0.00000000
0.18488148 0.40303877 0.00000000
-0.51492641 0.10005201 0.00000000
0.08868647 0.36085698 0.00000000
-0.01776770 0.56827194 0.00000000
0.40030530 0.12903179 0.00000000
0.07683383 0.70146544 0.00000000
0.17718963 0.49448366 0.00000000
0.12058800 0.47278821 0.00000000
-0.12186641 0.50432896 0.00000000
-0.63192840 -0.70604341 0.00000000
0.12878532 -0.57138802 0.00000000
0.06924091 -0.70401886 0.00000000
-0.66336374 -0.23624484 0.00000000
0.63964879 0.12599837 0.00000000
-0.23522258 -0.35365824 0.00000000
0.26040624 -0.77984714 0.00000000
0.21373611 0.10421172 0.00000000
-0.09797346 0.17951615 0.00000000
-0.10249800 0.23328966 0.00000000
0.14304270 -0.57193746 0.00000000
-0.68686664 0.15083243 0.00000000
0.73660247 -0.40025325 0.00000000
-0.65558088 -0.01506472 0.00000000
-0.62100411 -0.48470492 0.00000000
-0.66175606 0.54700402 0.00000000
-0.13109977 0.36000448 0.00000000
-0.49836422 -0.43984432 0.00000000
0.48891784 -0.48071598 0.00000000
-0.75721972 0.44788231 0.00000000
0.20187541 0.41466089 0.00000000
0.70781424 0.49653703 0.18567664
0.58700167 0.69303152 0.22042965
0.16935816 -0.45884667 0.00000000
-0.47694141 -0.79372721 0.00000000
-0.69592313 0.66769509 0.00000000
0.12403098 0.29714992 0.00000000
-0.60896010 -0.31877758 0.00000000
-0.30794079 -0.41826421 0.00000000
-0.62408001 0.47548501 0.00000000
0.24293322 0.72811832 0.07854628
-0.70603457 -0.57961201 0.00000000
0.13613846 -0.57080642 0.00000000
0.45758820 0.54292292 0.09207395
0.55836286 0.46692523 0.10345145
-0.05390274 -0.63695422 0.00000000
-0.69293302 0.64485228 0.00000000
-0.30400688 0.49243858 0.00000000
0.66767705 -0.24737712 0.00000000
-0.55551064 -0.40580348 0.00000000
-0.51739647 0.63189825 0.00000000
0.70896037 -0.70586711 0.00000000
-0.65843542 0.53366316 0.00000000
0.38380896 -0.71077546 0.00000000
-0.58278482 0.34496677 0.00000000
-0.31814570 0.24782148 0.00000000
-0.42359214 -0.16497826 0.00000000
-0.56980845 -0.79565029 0.00000000
0.24581446 0.18774274 0.00000000
-0.53045823 0.60847531 0.00000000
-0.17836771 0.23206351 0.00000000
-0.78538267 0.68345334 0.00000000
-0.21594940 -0.38511634 0.00000000
0.01440836 0.42800186 0.00000000
0.40417406 0.04178818 0.00000000
0.20596411 -0.22563614 0.00000000
0.35514455 -0.19544155 0.00000000
-0.38084253 -0.45190320 0.00000000
-0.12440732 0.06929222 0.00000000
-0.27582090 -0.20483879 0.00000000
0.72331551 -0.54605067 0.00000000
-0.19048058 -0.74808501 0.00000000
0.77195109 -0.48444962 0.00000000
0.68228652 -0.24170814 0.00000000
0.30446447 0.48161005 0.00000000
-0.54000695 -0.13229358 0.00000000
-0.57190350 0.05302964 0.00000000
-0.35595942 -0.48522266 0.00000000
0.66656441 0.00863890 0.00000000
-0.48975429 -0.46756018 0.00000000
0.25888163 0.23564341 0.00000000
-0.34876281 0.22402430 0.00000000
0.32535936 0.33652333 0.00000000
0.42212823 0.28838128 0.00000000
0.47024803 -0.56826483 0.00000000
0.25467245 -0.17123932 0.00000000
-0.32480670 -0.67024727 0.00000000
-0.47039512 0.29905381 0.00000000
0.17283876 -0.33342179 0.00000000
0.44959969 0.45512627 0.04808976
-0.77863028 0.62523216 0.00000000
0.46056119 -0.69255463 0.00000000
-0.46689925 -0.11557786 0.00000000
-0.40412735 0.41828275 0.00000000
0.28769824 -0.08941899 0.00000000
-0.70918132 -0.72911318 0.00000000
-0.03344708 -0.01708257 0.00000000
-0.63663015 -0.12332335 0.00000000
-0.04201615 0.31348294 0.00000000
0.46569208 0.39260217 0.02676850
-0.22791051 -0.57390190 0.00000000
-0.53533294 -0.06686803 0.00000000
0.57758721 -0.16246310 0.00000000
-0.09110260 -0.11184801 0.00000000
0.46258544 0.55038523 0.09779533
0.04469729 -0.56468370 0.00000000
-0.70763836 -0.52334590 0.00000000
0.08117195 -0.08641326 0.00000000
0.70414938 -0.03464903 0.00000000
-0.49221281 0.03730306 0.00000000
0.02939694 0.05715124 0.00000000
0.78952634 -0.00030835 0.00000000
-0.76448652 -0.11911518 0.00000000
0.62107198 -0.31543647 0.00000000
0.01447067 0.26319760 0.00000000
0.02091917 0.24536108 0.00000000
-0.71940843 -0.39735198 0.00000000
0.51632859 0.68987349 0.18652664
-0.45154836 0.54876620 0.00000000
0.62149001 -0.55468949 0.00000000
0.16665593 -0.02196876 0.00000000
0.41107790 -0.40048861 0.00000000
0.53441917 0.68986800 0.19483126
-0.08802108 -0.49309090 0.00000000
0.29313790 -0.75938327 0.00000000
-0.27143565 0.12282727 0.00000000
-0.35255821 0.08152339 0.00000000
0.32152089 0.01288124 0.00000000
-0.74526969 0.78573099 0.00000000
-0.20665296 -0.29787059 0.00000000
-0.13168074 0.13933136 0.00000000
-0.44869398 0.23409656 0.00000000
-0.62841005 0.25748185 0.00000000
0.26382909 0.62706465 0.04173806
0.72473120 0.50484474 0.19725973
-0.56401962 0.49723121 0.00000000
-0.35875591 -0.36675104 0.00000000
-0.17884612 0.64867990 0.00000000
-0.68899833 -0.13985099 0.00000000
-0.39502641 0.08123816 0.00000000
0.32989229 -0.36417736 0.00000000
-0.19532421 0.31702390 0.00000000
0.19965718 0.65836836 0.02664511
-0.10308453 0.27772742 0.00000000
-0.76815504 -0.61826233 0.00000000
0.70259313 -0.39026812 0.00000000
-0.20005497 0.31833652 0.00000000
0.46264180 0.20826699 0.00000000
0.08618102 0.44707807 0.00000000
0.33776441 -0.73058851 0.00000000
-0.60470901 -0.30624072 0.00000000
-0.51335233 0.48128425 0.00000000
0.09444355 0.19011328 0.00000000
0.11837837 -0.20889039 0.00000000
-0.24235249 -0.18715168 0.00000000
-0.16986244 0.21290680 0.00000000
-0.14330641 -0.37836354 0.00000000
-0.59540576 -0.17033556 0.00000000
-0.11173097 -0.20728983 0.00000000
0.37498580 -0.59802089 0.00000000
0.50771019 0.48542646 0.08868763
-0.42109660 0.37044553 0.00000000
0.54868182 -0.73549888 0.00000000
-0.77108341 -0.15588326 0.00000000
0.61890690 0.60468914 0.19451384
0.59264277 0.25527965 0.02200579
0.62240628 -0.44701192 0.00000000
-0.76280330 0.57932305 0.00000000
-0.08866483 -0.14695666 0.00000000
0.70164655 -0.44787156 0.00000000
0.58890856 0.46229180 0.11535027
0.22445105 0.03252070 0.00000000
0.39976216 0.28959362 0.00000000
-0.68983077 -0.19842256 0.00000000
-0.39089630 -0.20077434 0.00000000
-0.48488856 0.21078403 0.00000000
-0.58268502 0.38334873 0.00000000
0.61433295 0.09196574 0.00000000
-0.22092154 0.79567516 0.00000000
0.58343702 0.28215846 0.03012119
0.55271649 -0.66144961 0.00000000
0.49687054 -0.27700923 0.00000000
0.51562589 -0.32508808 0.00000000
0.73281724 0.01946374 0.00000000
0.58020798 -0.66063535 0.00000000
0.20843896 -0.50053821 0.00000000
-0.64455457 -0.51602074 0.00000000
0.73107959 -0.71172654 0.00000000
0.13755287 0.13477559 0.00000000
-0.27760211 0.72548798 0.00000000
-0.72065963 -0.76855919 0.00000000
-0.23296367 0.05709961 0.00000000
0.22432126 -0.12068067 0.00000000
0.27427285 0.76272382 0.10882810
0.01470861 -0.72541221 0.00000000
-0.35875032 -0.10320343 0.00000000
0.55372304 0.65893769 0.18949241
0.28583635 0.59159677 0.03555700
0.23758813 -0.23160660 0.00000000
0.60721092 0.19305951 0.00012417
-0.63192111 0.78589121 0.00000000
0.71170503 -0.14918174 0.00000000
-0.03929906 0.64414231 0.00000000
0.04497966 -0.03908510 0.00000000
-0.13896356 -0.60847051 0.00000000
-0.62113729 0.08109844 0.00000000
-0.64525340 0.37557486 0.00000000
-0.44526404 -0.23238124 0.00000000
0.53165733 -0.52587675 0.00000000
-0.35133763 0.40609278 0.00000000
0.53630103 -0.26507371 0.00000000
0.59325151 0.48858276 0.12941724
-0.22048029 0.42656510 0.00000000
0.39534359 0.74188995 0.15485653
-0.77387265 -0.77637481 0.00000000
0.00669227 -0.66639299 0.00000000
0.14483809 -0.41069075 0.00000000
-0.08348191 -0.78393967 0.00000000
-0.16682011 -0.21522887 0.00000000
0.46243439 0.45142495 0.05228378
0.64102904 -0.63048291 0.00000000
-0.14920769 -0.74771167 0.00000000
0.63416765 0.72286743 0.25578869
-0.49028804 0.50911706 0.00000000
0.34281104 -0.01177077 0.00000000
0.01515768 0.45960626 0.00000000
-0.32975396 -0.47027294 0.00000000
-0.68556479 0.03961989 0.00000000
0.35574133 0.74575649 0.13844681
-0.57301190 0.30464524 0.00000000
-0.17393277 -0.54209480 0.00000000
0.30354643 0.30774439 0.00000000
-0.11213595 0.54597159 0.00000000
0.01923177 0.10575085 0.00000000
0.60693846 0.67968180 0.22345441
