ply
format ascii 1.0
element vertex 1407
property float x
property float y
property float z
end_header
0.76157104 -0.29240376 0.00000000
-0.20095663 0.56152875 0.00000000
-0.29898137 -0.41674833 0.00000000
0.13631635 0.40217925 0.00000000
-0.72400337 -0.78368286 0.00000000
-0.59263595 -0.19602491 0.00000000
-0.43655499 0.52424858 0.00000000
0.48558208 -0.02402819 0.00000000
-0.54758233 -0.30611067 0.00000000
0.59245666 -0.69692889 0.00000000
-0.03394476 -0.78459248 0.00000000
0.55385674 0.09867513 0.00000000
0.54617636 -0.28633917 0.00000000
-0.27778755 0.37625527 0.00000000
-0.22846659 -0.71009738 0.00000000
0.45528200 -0.40736532 0.00000000
0.31086201 -0.23836525 0.00000000
-0.36492682 -0.35160935 0.00000000
-0.06367557 -0.44515509 0.00000000
-0.48845178 0.17481906 0.00000000
-0.49594474 -0.62690018 0.00000000
-0.25715817 0.72624766 0.00000000
0.50275802 0.38664943 0.08543703
0.36387476 -0.51314266 0.00000000
-0.28481004 -0.61703830 0.00000000
0.27978256 0.52413062 0.00374030
0.69475303 0.25384352 0.14199702
-0.47731247 0.27608313 0.00000000
-0.57855596 0.74373202 0.00000000
0.08118258 -0.27043390 0.00000000
0.60839761 0.24311627 0.04922664
0.32412052 0.55729149 0.07779673
0.65293219 -0.76715896 0.00000000
-0.64060819 0.11778170 0.00000000
-0.52041538 -0.25050591 0.00000000
-0.31519279 -0.06568807 0.00000000
0.49539199 -0.13009435 0.00000000
-0.00423978 -0.51340500 0.00000000
0.33260304 -0.31576216 0.00000000
-0.31727983 -0.05610683 0.00000000
-0.76304254 0.30711863 0.00000000
0.44414454 0.47396733 0.11286643
0.41511442 0.68503783 0.28682162
-0.25406395 0.75114299 0.00000000
0.36750191 0.49794769 0.06254335
0.13756755 -0.28529936 0.00000000
0.78865861 -0.44650861 0.00000000
0.36769411 0.31780152 0.00000000
-0.64803561 0.35233931 0.00000000
0.57615680 -0.44840830 0.00000000
-0.16731252 0.39969698 0.00000000
0.41679350 -0.57535647 0.00000000
0.53838873 0.46593001 0.19524410
0.40735197 0.54311203 0.14378152
0.25851541 0.34535982 0.00000000
-0.17019714 -0.01501048 0.00000000
0.03618208 0.59513891 0.00000000
-0.16356559 0.05779707 0.00000000
-0.66826450 -0.53941783 0.00000000
-0.28833546 -0.26184388 0.00000000
0.41575998 -0.35669249 0.00000000
-0.11658151 0.06286508 0.00000000
0.78813340 -0.36010843 0.00000000
0.65687802 0.24171990 0.09421927
-0.17945434 -0.11578265 0.00000000
0.17721041 0.33332623 0.00000000
-0.44061731 -0.56199302 0.00000000
0.29402476 -0.70023884 0.00000000
0.35986269 -0.08018781 0.00000000
-0.42442266 -0.06028146 0.00000000
0.44839590 -0.21429841 0.00000000
0.43227637 0.67866589 0.29713237
-0.70669878 -0.41826083 0.00000000
0.72317244 -0.51453716 0.00000000
0.36966676 -0.15679924 0.00000000
0.24714515 -0.19252061 0.00000000
-0.28856624 -0.39931036 0.00000000
0.77753232 0.06913973 0.04459988
0.00986914 0.64396606 0.00000000
-0.23314038 0.44769203 0.00000000
-0.14679035 -0.64567195 0.00000000
-0.26988880 0.71514950 0.00000000
-0.76590425 0.39304225 0.00000000
0.54489161 -0.23946815 0.00000000
0.34121394 0.41808613 0.00000000
0.04989253 0.15301030 0.00000000
0.52971805 -0.32325424 0.00000000
-0.43198827 -0.70163139 0.00000000
0.55033437 -0.43160442 0.00000000
0.18758301 0.37592314 0.00000000
-0.55222109 0.03683870 0.00000000
-0.45975816 0.31500496 0.00000000
0.17768052 0.46023451 0.00000000
-0.43996080 0.64708364 0.00000000
0.69271921 -0.19646984 0.00000000
0.45536546 0.48788264 0.13688615
-0.66448204 -0.64020755 0.00000000
0.47108588 -0.62646577 0.00000000
0.16368405 0.74004513 0.09912284
-0.07734191 -0.20904462 0.00000000
0.51312714 -0.06718986 0.00000000
0.14055517 -0.77741049 0.00000000
-0.13520840 0.68404790 0.00000000
-0.48286762 0.41156326 0.00000000
-0.17159201 -0.11278274 0.00000000
0.01536423 -0.71259530 0.00000000
0.17133501 -0.20247386 0.00000000
0.29907599 -0.16478269 0.00000000
-0.18568184 0.00987451 0.00000000
-0.49692104 -0.74951738 0.00000000
0.68436602 0.16413920 0.04635163
-0.65915632 -0.04008899 0.00000000
-0.56551755 0.32912558 0.00000000
-0.70185029 0.60223476 0.00000000
-0.35287547 -0.32559874 0.00000000
0.29166907 0.13741208 0.00000000
-0.70270614 -0.73663958 0.00000000
0.03324168 0.09171471 0.00000000
-0.64163303 0.75695641 0.00000000
-0.75345897 -0.32079736 0.00000000
-0.35191422 0.33762951 0.00000000
0.37795491 -0.77944200 0.00000000
0.13206031 -0.21006906 0.00000000
0.17984472 -0.70938674 0.00000000
-0.22942484 -0.41670359 0.00000000
0.33517921 0.58709631 0.11684514
-0.02194814 0.14855787 0.00000000
0.38993046 0.57689637 0.15941762
-0.00304189 -0.48096101 0.00000000
0.21641028 0.67837604 0.09057703
-0.32705562 0.43519966 0.00000000
-0.66570155 0.55570943 0.00000000
0.69014040 -0.48984497 0.00000000
0.41863822 -0.73671357 0.00000000
0.22897265 -0.25673424 0.00000000
0.13438991 0.75622855 0.08659447
-0.14570544 0.45085496 0.00000000
-0.45825577 0.68985529 0.00000000
0.24074354 -0.04057927 0.00000000
0.04590780 0.47738574 0.00000000
-0.30469446 -0.00513560 0.00000000
0.25286432 0.18293414 0.00000000
0.49504290 -0.55410818 0.00000000
0.61047559 -0.27393028 0.00000000
-0.35973305 0.70270603 0.00000000
-0.62476860 0.45665722 0.00000000
0.57563340 -0.36632051 0.00000000
-0.79751547 -0.20361888 0.00000000
-0.14359774 0.69833062 0.00000000
0.74130304 -0.07335366 0.00000000
0.23083418 0.69324631 0.11857013
0.64366428 -0.40877385 0.00000000
0.33604961 0.60796987 0.13762333
0.44130211 0.62701979 0.25640487
-0.43287405 -0.60538767 0.00000000
-0.55712265 -0.51527374 0.00000000
0.68885959 -0.58084112 0.00000000
0.16093240 0.02245167 0.00000000
0.53396485 -0.29997382 0.00000000
0.09121186 0.72867084 0.01900048
-0.17006542 0.58510719 0.00000000
-0.17445305 -0.02817037 0.00000000
-0.76698107 -0.18170809 0.00000000
0.23355983 -0.18402769 0.00000000
0.44635964 0.63696962 0.27074571
0.63114301 0.08520933 0.00000000
-0.42458596 0.52144310 0.00000000
-0.47845701 -0.16288213 0.00000000
-0.77440002 0.53697568 0.00000000
-0.77133632 -0.71372150 0.00000000
0.30419656 0.65961881 0.15654010
-0.51227899 -0.14831741 0.00000000
-0.76845008 0.70794896 0.00000000
0.56966809 -0.06768294 0.00000000
0.63084974 0.57808398 0.39077129
-0.58781682 0.37962672 0.00000000
0.70533537 0.28874322 0.18545881
-0.69774915 -0.09575640 0.00000000
0.04623776 -0.60130201 0.00000000
-0.60569382 0.49110677 0.00000000
0.69087824 -0.11640761 0.00000000
0.75487813 -0.28547098 0.00000000
0.68463253 -0.30073825 0.00000000
-0.09599883 -0.10066458 0.00000000
0.33416110 0.26617475 0.00000000
0.73408629 -0.01039535 0.00000000
-0.60365672 0.58929358 0.00000000
-0.19602306 0.10883123 0.00000000
0.35521971 -0.12297800 0.00000000
0.20438339 0.72287025 0.12160241
-0.38355382 -0.63919565 0.00000000
-0.50064510 -0.14363651 0.00000000
-0.12577013 -0.62754472 0.00000000
0.39641504 -0.54546271 0.00000000
-0.58232845 0.71178537 0.00000000
0.16477416 0.37498562 0.00000000
0.25325871 -0.00324088 0.00000000
-0.43947196 -0.22274462 0.00000000
-0.11867413 -0.21249457 0.00000000
-0.49963050 -0.16703236 0.00000000
0.30816029 0.15142748 0.00000000
-0.62880988 -0.06874474 0.00000000
0.43486110 -0.78061910 0.00000000
-0.19432919 -0.59938643 0.00000000
-0.78414662 -0.43871595 0.00000000
0.45907177 -0.66089316 0.00000000
0.64516795 0.25438921 0.09513590
0.79954509 -0.53770992 0.00000000
0.66898152 -0.43744842 0.00000000
0.70675763 -0.76800422 0.00000000
-0.73955315 -0.37276684 0.00000000
0.37945764 0.51723478 0.09239841
0.48778743 -0.34748622 0.00000000
-0.21226064 0.45229656 0.00000000
0.25185065 0.00830156 0.00000000
-0.02029617 0.40193144 0.00000000
-0.50264684 -0.50030481 0.00000000
-0.10791949 0.59147070 0.00000000
0.71733459 -0.42313227 0.00000000
0.03591574 -0.44389046 0.00000000
0.21133498 0.40299686 0.00000000
0.50325039 -0.37732955 0.00000000
-0.03999072 0.28257714 0.00000000
0.21734701 -0.75966905 0.00000000
0.33999817 -0.64176444 0.00000000
0.23852968 -0.09628291 0.00000000
-0.05360760 -0.21773144 0.00000000
0.79077603 -0.03194332 0.00000000
-0.57909566 0.54377816 0.00000000
0.19495261 0.33692927 0.00000000
-0.44042190 0.27424854 0.00000000
0.11318010 -0.65309670 0.00000000
-0.73935168 0.13959263 0.00000000
-0.20858758 0.61535614 0.00000000
-0.35774729 -0.32848662 0.00000000
-0.31469108 -0.46155287 0.00000000
0.30042948 -0.33691619 0.00000000
0.69926853 -0.31353477 0.00000000
0.43966642 -0.66414758 0.00000000
0.73694372 -0.54865929 0.00000000
-0.03930415 -0.02363793 0.00000000
0.22927716 -0.48687835 0.00000000
0.06837240 -0.48655727 0.00000000
0.07638067 -0.00082594 0.00000000
0.31765834 -0.66989291 0.00000000
-0.54457024 0.07572740 0.00000000
0.70402059 0.29378164 0.18901705
0.07448280 -0.21276433 0.00000000
0.51180953 -0.56094721 0.00000000
0.59023376 0.48481624 0.26283381
0.44971246 0.65804231 0.29408641
0.62015595 0.60041323 0.40189001
0.05318257 0.34954376 0.00000000
-0.67192389 -0.14499144 0.00000000
0.35449320 -0.24582717 0.00000000
-0.17159979 0.40176451 0.00000000
-0.70635245 -0.46208262 0.00000000
-0.60671116 0.70676542 0.00000000
0.24754375 0.59995813 0.04539286
-0.51598174 -0.62284906 0.00000000
0.73809932 0.22723732 0.15799354
0.74737476 0.01726727 0.00000000
-0.64608134 0.05251786 0.00000000
0.30176423 0.44325672 0.00000000
-0.48154125 -0.47171117 0.00000000
-0.11518398 -0.00600950 0.00000000
0.30878942 0.18623682 0.00000000
0.21635241 0.38451360 0.00000000
0.52675564 -0.30937308 0.00000000
0.19606233 -0.48606427 0.00000000
-0.42446511 0.33888972 0.00000000
-0.25403959 -0.77967421 0.00000000
0.25889652 -0.24815165 0.00000000
0.46213478 0.01437301 0.00000000
0.60184681 0.22730839 0.02786111
-0.03147982 -0.11505077 0.00000000
0.79317215 -0.32378601 0.00000000
0.33497531 0.49275340 0.02649798
-0.10314211 0.11210550 0.00000000
0.37990212 -0.48849926 0.00000000
-0.31068585 0.03730270 0.00000000
-0.36954243 -0.17976441 0.00000000
0.21574415 0.39677643 0.00000000
-0.44101423 -0.02545661 0.00000000
-0.02451524 0.39805635 0.00000000
0.61898636 0.24129210 0.05760191
0.71344624 0.28204677 0.18681041
-0.42119458 0.34216280 0.00000000
0.03494935 -0.34439845 0.00000000
-0.05839631 0.37739471 0.00000000
0.41416469 0.17877884 0.00000000
0.27633242 0.30785201 0.00000000
0.23548222 0.25411789 0.00000000
-0.61304590 0.06865066 0.00000000
0.50533291 0.15078073 0.00000000
0.08705943 0.13900551 0.00000000
0.19398782 -0.23332954 0.00000000
0.66201279 0.48435848 0.33098734
0.65092293 0.39794611 0.23781553
0.03830411 0.22449817 0.00000000
0.16765929 -0.53688638 0.00000000
-0.17255580 0.63323757 0.00000000
-0.14706163 0.02116845 0.00000000
-0.75342524 -0.35792135 0.00000000
0.02851108 0.35724739 0.00000000
-0.01917298 -0.64586179 0.00000000
0.51427096 0.24811177 0.00000000
0.78807403 -0.20926427 0.00000000
-0.03987120 0.22265051 0.00000000
-0.64625948 -0.12213090 0.00000000
0.00306793 0.69454999 0.00000000
0.06929409 -0.69397798 0.00000000
0.65893666 0.17360700 0.03109905
-0.04166911 -0.78457884 0.00000000
0.53644090 -0.28299845 0.00000000
-0.04468831 -0.04328562 0.00000000
-0.28315836 -0.07302373 0.00000000
0.48908732 0.12724136 0.00000000
-0.05652392 -0.66841231 0.00000000
0.02349035 0.07253936 0.00000000
0.20894749 -0.43430057 0.00000000
-0.43733226 -0.34428135 0.00000000
-0.00574311 -0.15274038 0.00000000
0.68308977 0.45708083 0.32506200
-0.19520934 0.57934079 0.00000000
0.14246660 -0.77510952 0.00000000
0.19103799 0.65301809 0.04210011
0.56576470 0.12438852 0.00000000
-0.64111485 -0.57924759 0.00000000
0.41854982 0.16286884 0.00000000
-0.66651220 0.37517107 0.00000000
0.72091367 0.04975441 0.00000000
-0.29903335 -0.03099862 0.00000000
-0.27188639 -0.78032796 0.00000000
-0.36908043 0.75409417 0.00000000
-0.59345647 -0.61969245 0.00000000
-0.10905831 -0.24564948 0.00000000
0.53082966 -0.29512260 0.00000000
-0.26165338 0.52591904 0.00000000
-0.55366252 0.03579763 0.00000000
0.62436955 0.45671007 0.26859556
0.63848483 0.31158138 0.14340140
-0.45156830 0.67920536 0.00000000
0.74972209 -0.56592844 0.00000000
-0.52541984 0.37186570 0.00000000
0.73478040 0.20015579 0.12894343
0.40753143 0.66780677 0.26310964
-0.76362194 0.63892855 0.00000000
0.31153287 0.43242056 0.00000000
0.29052689 0.38929629 0.00000000
0.18944867 0.30095863 0.00000000
0.16761319 -0.34688216 0.00000000
-0.76004226 0.46458906 0.00000000
-0.65050688 0.03585678 0.00000000
-0.39764707 -0.55603164 0.00000000
0.15784374 0.26182159 0.00000000
-0.70903790 0.14339013 0.00000000
0.11282414 -0.33307635 0.00000000
0.39026475 -0.58805856 0.00000000
0.46738211 0.25951735 0.00000000
-0.79756381 -0.41760203 0.00000000
-0.40754469 -0.40055858 0.00000000
-0.40141025 0.72397413 0.00000000
0.00324945 -0.54046043 0.00000000
0.77834796 -0.51888917 0.00000000
-0.10154846 -0.05887737 0.00000000
-0.30159587 -0.65022139 0.00000000
0.01871652 0.20766165 0.00000000
0.59073146 -0.71476122 0.00000000
-0.52943349 -0.67938451 0.00000000
0.06757077 0.33376479 0.00000000
0.48327848 0.12211212 0.00000000
0.23267041 -0.30313236 0.00000000
-0.49130793 -0.61183331 0.00000000
-0.46409737 0.31701768 0.00000000
-0.77768338 -0.48243656 0.00000000
0.58116426 0.21807192 0.00000000
-0.14742658 -0.43190720 0.00000000
0.53009913 -0.42025415 0.00000000
-0.37081506 -0.74975428 0.00000000
0.70485658 -0.36997615 0.00000000
-0.76027329 0.26073748 0.00000000
-0.60829562 -0.77760985 0.00000000
-0.28871097 0.36287454 0.00000000
-0.63206931 0.46479980 0.00000000
0.66613538 0.18933914 0.05301135
0.05170447 0.12480414 0.00000000
0.24040595 0.57902331 0.01856718
0.15389941 0.52284714 0.00000000
-0.62894413 0.41909969 0.00000000
-0.27050958 -0.74164933 0.00000000
-0.23342741 -0.26251507 0.00000000
0.64873949 -0.19916840 0.00000000
-0.10221094 -0.14564585 0.00000000
-0.75047206 -0.43994452 0.00000000
0.06893767 -0.05890480 0.00000000
0.51249725 -0.16546645 0.00000000
-0.08736824 -0.72499189 0.00000000
0.67781759 -0.18835043 0.00000000
-0.23301077 0.69832764 0.00000000
-0.61802112 0.63594457 0.00000000
-0.45625926 -0.02804675 0.00000000
-0.03065601 0.45718223 0.00000000
0.31834887 -0.30325941 0.00000000
-0.40056516 0.17903865 0.00000000
-0.50235944 -0.21092030 0.00000000
0.12154951 0.58488587 0.00000000
-0.27201464 -0.27557826 0.00000000
0.59596957 -0.44479430 0.00000000
-0.05100741 0.50351659 0.00000000
0.28237516 0.57343709 0.05333409
0.02967295 0.56601896 0.00000000
-0.08818648 0.00462663 0.00000000
-0.08201631 -0.62894947 0.00000000
0.44687340 0.47322879 0.11476835
-0.17351746 -0.63289210 0.00000000
0.26228970 -0.27385031 0.00000000
-0.77318636 -0.43058755 0.00000000
0.32979142 0.00046754 0.00000000
-0.35576571 -0.40851680 0.00000000
-0.76358590 -0.38294514 0.00000000
-0.30635542 0.42031712 0.00000000
-0.13375293 0.59586955 0.00000000
0.06512366 -0.04208139 0.00000000
0.53940371 0.06473395 0.00000000
-0.35096370 -0.36696493 0.00000000
-0.04982921 -0.05198738 0.00000000
-0.36397341 -0.12620788 0.00000000
0.47850974 -0.42996791 0.00000000
-0.19579781 -0.21981824 0.00000000
-0.56337747 -0.10755979 0.00000000
-0.65436178 0.64445152 0.00000000
-0.15315978 -0.73403708 0.00000000
0.18876393 -0.61230693 0.00000000
0.68001819 0.43427607 0.30033492
-0.76221222 0.09980607 0.00000000
0.60139270 0.34196236 0.13698835
0.56911649 -0.74911538 0.00000000
-0.65749971 -0.30372401 0.00000000
-0.40581438 0.59440150 0.00000000
0.30654193 -0.34155960 0.00000000
-0.69347638 0.16827312 0.00000000
0.57339262 0.43361006 0.19780883
-0.01850549 0.74772956 0.00000000
-0.64782550 0.29038633 0.00000000
-0.35851754 0.52579511 0.00000000
0.42298995 0.52680045 0.14313785
0.65137374 0.40448983 0.24449938
0.69057629 -0.65666862 0.00000000
-0.00063244 -0.71470208 0.00000000
-0.56204005 -0.72861503 0.00000000
0.17095160 0.48874639 0.00000000
-0.19488581 0.38709206 0.00000000
-0.45175131 0.13086531 0.00000000
-0.22045517 -0.65426040 0.00000000
-0.31187766 0.76349098 0.00000000
0.04260613 0.77071008 0.01272567
0.46122151 -0.59576821 0.00000000
0.09964809 -0.16393336 0.00000000
-0.34558985 -0.29587201 0.00000000
0.66222889 0.47747346 0.32461460
-0.28350778 0.54827544 0.00000000
-0.60337882 -0.50716658 0.00000000
-0.16052030 -0.00584132 0.00000000
-0.32003460 0.70977062 0.00000000
0.33860024 -0.75636408 0.00000000
-0.73362299 -0.38609021 0.00000000
-0.78404820 0.02934581 0.00000000
-0.36331669 -0.47791120 0.00000000
-0.28818586 0.70584503 0.00000000
-0.51872728 -0.71927437 0.00000000
0.44105017 -0.26890827 0.00000000
-0.07655456 -0.79480943 0.00000000
0.13763865 0.68127925 0.01807854
0.35305607 -0.54505444 0.00000000
-0.06130355 0.39705854 0.00000000
-0.79219170 0.50446528 0.00000000
-0.01873147 -0.76083223 0.00000000
0.29979474 -0.62804187 0.00000000
0.51707604 0.14105907 0.00000000
0.27144310 -0.75574072 0.00000000
-0.41881515 -0.07724201 0.00000000
-0.19903479 -0.02823298 0.00000000
0.19661855 0.11905763 0.00000000
-0.44332650 -0.73891223 0.00000000
-0.10381571 -0.52277245 0.00000000
0.34529747 0.04639714 0.00000000
0.12575241 0.21395275 0.00000000
-0.35454551 -0.01028415 0.00000000
-0.37164981 0.13285885 0.00000000
-0.47923534 -0.23949557 0.00000000
-0.63667668 0.38028315 0.00000000
-0.11383177 -0.21813625 0.00000000
-0.52338265 0.38217544 0.00000000
0.15829753 0.60017039 0.00000000
-0.59731730 -0.66527603 0.00000000
-0.27008421 -0.41987017 0.00000000
0.07277505 0.41101447 0.00000000
-0.46053825 -0.19851561 0.00000000
0.23769791 0.56912001 0.00651601
-0.57994405 -0.64971502 0.00000000
-0.08003796 -0.48199695 0.00000000
0.30378151 -0.29565701 0.00000000
0.00601268 -0.07843612 0.00000000
0.20656790 0.59587446 0.00233483
0.03942510 0.50275431 0.00000000
0.21835682 0.36300831 0.00000000
-0.34150685 -0.28810009 0.00000000
-0.30235856 0.14757674 0.00000000
-0.26344183 -0.56374579 0.00000000
-0.19838438 -0.09570210 0.00000000
0.01003960 -0.36403382 0.00000000
-0.75269803 0.11076297 0.00000000
-0.29059058 0.52709955 0.00000000
0.18007864 0.38735595 0.00000000
-0.53209948 0.01353939 0.00000000
0.59297705 -0.79234005 0.00000000
-0.43650403 0.34318525 0.00000000
-0.04721690 -0.20252518 0.00000000
0.30939931 -0.54681284 0.00000000
0.69447358 -0.33018311 0.00000000
-0.45089563 -0.33467952 0.00000000
-0.68488987 -0.04034950 0.00000000
-0.69607380 0.22040044 0.00000000
0.54035767 0.12827377 0.00000000
0.29349099 -0.26160801 0.00000000
-0.61892446 -0.69560222 0.00000000
-0.30294086 0.72851881 0.00000000
-0.40517581 0.33298938 0.00000000
0.60602880 -0.20719380 0.00000000
0.77043389 0.05442220 0.02375295
0.09261593 -0.16433118 0.00000000
-0.46588560 0.41131524 0.00000000
-0.15112454 -0.44234767 0.00000000
-0.02684536 0.31000190 0.00000000
-0.11171681 0.51073589 0.00000000
-0.23108454 -0.52421573 0.00000000
0.73660097 -0.18948208 0.00000000
0.15659333 -0.29408850 0.00000000
0.56126495 -0.50730093 0.00000000
0.51811793 -0.14530925 0.00000000
-0.57194277 0.69867689 0.00000000
-0.34331093 -0.08441204 0.00000000
0.26647675 0.41484737 0.00000000
-0.37419480 0.10797402 0.00000000
0.11029568 -0.45424792 0.00000000
0.02306578 -0.06438066 0.00000000
-0.51891410 -0.74088755 0.00000000
-0.73054209 0.49326742 0.00000000
-0.75582881 -0.72600323 0.00000000
0.57572019 0.38499371 0.15357614
-0.59133349 -0.43996312 0.00000000
0.59139525 0.61396991 0.38736131
0.25605651 0.00272108 0.00000000
-0.40123871 0.32002707 0.00000000
0.50535566 -0.62331521 0.00000000
0.07095387 -0.01862699 0.00000000
-0.00278006 0.33824910 0.00000000
-0.64036169 -0.23487692 0.00000000
0.58104152 0.47572935 0.24536654
0.07506162 0.23513031 0.00000000
-0.58158761 0.55267218 0.00000000
0.59252078 -0.32729838 0.00000000
0.45477614 0.15028848 0.00000000
0.49204251 0.43769922 0.12397972
0.32145765 0.65744039 0.17095286
0.12524448 -0.66090260 0.00000000
-0.55567683 -0.07911012 0.00000000
-0.35475594 0.35309581 0.00000000
0.17106564 -0.73111757 0.00000000
-0.01059331 -0.48764800 0.00000000
0.55195168 -0.31069115 0.00000000
-0.13557451 -0.08649545 0.00000000
0.31299949 -0.75729758 0.00000000
-0.32614788 0.35389900 0.00000000
0.26772703 -0.40736435 0.00000000
0.40154268 -0.35741407 0.00000000
-0.69841432 -0.66271267 0.00000000
-0.35606051 -0.03797832 0.00000000
0.21022921 0.11884024 0.00000000
0.49715553 0.34874417 0.04386184
-0.78115801 -0.18859826 0.00000000
-0.13597730 -0.65795380 0.00000000
0.58384281 0.31070327 0.09034740
-0.39614522 -0.58910967 0.00000000
-0.39056999 -0.79273977 0.00000000
0.18720389 -0.17776983 0.00000000
0.59882049 -0.66052982 0.00000000
0.35345533 0.52124849 0.07138652
0.24414303 0.26739450 0.00000000
-0.40104968 -0.01332496 0.00000000
0.39894702 -0.23260479 0.00000000
0.31412520 -0.18073566 0.00000000
0.59523266 0.06485597 0.00000000
0.61979575 -0.03476484 0.00000000
0.12294323 0.52497555 0.00000000
0.40006305 -0.33310929 0.00000000
0.48359373 0.53752348 0.21129658
-0.29566421 0.60397459 0.00000000
-0.49095120 -0.12844784 0.00000000
0.09471051 -0.68592911 0.00000000
0.31993313 -0.19716097 0.00000000
0.52457264 -0.03085293 0.00000000
0.42361405 -0.50079060 0.00000000
-0.05712302 0.25184027 0.00000000
-0.18236567 -0.54672388 0.00000000
0.60318633 -0.31978968 0.00000000
-0.18026292 -0.23352139 0.00000000
0.35297356 -0.46231416 0.00000000
-0.15279372 -0.29025647 0.00000000
0.25580570 0.67202845 0.12215702
-0.03731847 -0.40722772 0.00000000
0.44561460 -0.00973504 0.00000000
0.13355700 -0.06536461 0.00000000
0.61881902 -0.74149500 0.00000000
0.03095709 -0.11683023 0.00000000
-0.58204667 0.44934481 0.00000000
0.06588919 -0.35389205 0.00000000
0.27306283 0.36529014 0.00000000
-0.42300056 -0.32759496 0.00000000
-0.14007334 0.13318969 0.00000000
0.24683883 0.33301583 0.00000000
-0.00242167 -0.35602442 0.00000000
0.12792551 0.35154109 0.00000000
-0.69412857 0.06868207 0.00000000
-0.38370061 0.32399359 0.00000000
-0.22439125 0.15888572 0.00000000
-0.32806143 0.54338518 0.00000000
-0.24476543 0.59324279 0.00000000
0.08088590 -0.63384895 0.00000000
0.08150776 0.37693447 0.00000000
0.05814758 -0.47750480 0.00000000
-0.57265581 -0.79696837 0.00000000
0.09824324 0.75205175 0.04806196
-0.20143503 -0.59062163 0.00000000
0.03111954 0.06734591 0.00000000
-0.18092304 0.61717196 0.00000000
-0.23662718 -0.50440291 0.00000000
0.31249207 -0.42003433 0.00000000
-0.46912826 0.48508439 0.00000000
-0.10573913 -0.77569981 0.00000000
0.07629933 0.37554146 0.00000000
-0.53711231 -0.11124485 0.00000000
0.53265979 -0.39868758 0.00000000
-0.24925246 -0.52082578 0.00000000
0.08227565 0.62070341 0.00000000
-0.24423388 0.47138025 0.00000000
0.44579146 -0.48350210 0.00000000
0.64836517 -0.44833526 0.00000000
0.64872622 0.02660227 0.00000000
-0.26974972 -0.64175217 0.00000000
0.02395723 0.42016513 0.00000000
-0.69299521 0.30126259 0.00000000
-0.37463245 0.10836583 0.00000000
-0.62052589 0.69139168 0.00000000
0.47713339 0.01848613 0.00000000
0.26891497 -0.49163408 0.00000000
0.46168215 0.51805207 0.17175159
0.04828354 0.75449832 0.00265924
-0.79121924 -0.36051044 0.00000000
-0.42010720 -0.45314441 0.00000000
0.17855181 0.40887181 0.00000000
0.33327229 0.52678434 0.05738993
0.46846536 -0.40115025 0.00000000
0.66109430 0.41525234 0.26407271
0.13569134 -0.65018274 0.00000000
-0.13863652 0.66883876 0.00000000
0.43043478 0.35062535 0.00000000
-0.21536617 -0.72522486 0.00000000
0.52130999 0.49202948 0.20386419
-0.08110795 -0.48654188 0.00000000
0.53087882 0.01210433 0.00000000
-0.29028092 0.69531712 0.00000000
-0.60806796 -0.62021478 0.00000000
-0.37145519 -0.45120892 0.00000000
-0.36091009 -0.42316863 0.00000000
-0.61403975 -0.40205728 0.00000000
0.36068784 -0.49138872 0.00000000
0.34351156 0.63557702 0.17113489
0.28243961 0.33786686 0.00000000
-0.04898024 0.37326030 0.00000000
-0.16830123 0.02332149 0.00000000
-0.00240790 0.14640282 0.00000000
0.15714182 -0.58830727 0.00000000
0.33693212 0.57284878 0.10490552
-0.45431263 -0.56562091 0.00000000
0.01440874 -0.15143927 0.00000000
-0.07783603 0.21316422 0.00000000
-0.56203910 -0.30141172 0.00000000
-0.15155684 0.35358691 0.00000000
0.03133125 0.17756623 0.00000000
-0.27467296 -0.09624763 0.00000000
-0.50669081 0.75462102 0.00000000
0.69022409 -0.31715101 0.00000000
-0.70613770 0.18644256 0.00000000
-0.78732440 0.14477223 0.00000000
-0.70460026 -0.18142193 0.00000000
0.57035161 0.07217109 0.00000000
-0.17144465 0.26919651 0.00000000
-0.03747361 -0.26025553 0.00000000
0.64355054 -0.42252933 0.00000000
0.33466377 -0.04043929 0.00000000
0.66601946 -0.64293307 0.00000000
-0.77115780 0.36933789 0.00000000
-0.28984540 -0.79677611 0.00000000
-0.65031852 -0.19608789 0.00000000
0.63184764 0.45207032 0.27130783
-0.18314392 0.01850017 0.00000000
-0.67031862 0.49858086 0.00000000
-0.52205018 0.03286647 0.00000000
0.33463265 -0.51672222 0.00000000
0.06690570 -0.75842029 0.00000000
-0.42479109 0.24599022 0.00000000
-0.12317321 0.79198375 0.00000000
0.09931270 0.71050350 0.00938112
0.52899761 -0.53964391 0.00000000
-0.58193920 0.61232614 0.00000000
0.37555198 -0.49526426 0.00000000
0.71151026 -0.50175722 0.00000000
-0.06461562 0.02359527 0.00000000
-0.11499876 -0.29307902 0.00000000
0.25354360 -0.07561360 0.00000000
0.66285538 0.19149583 0.05193794
-0.61798840 -0.61722240 0.00000000
-0.51867091 -0.66831384 0.00000000
0.18871485 -0.61752325 0.00000000
-0.39809036 -0.21101045 0.00000000
0.30833160 -0.46356210 0.00000000
0.15174754 -0.17846052 0.00000000
-0.29832230 0.26889583 0.00000000
-0.12940816 0.65856989 0.00000000
-0.42317532 -0.10484077 0.00000000
0.56168801 0.50792128 0.25763482
0.09744224 -0.75374412 0.00000000
-0.01121239 0.65184271 0.00000000
-0.32391461 -0.37549620 0.00000000
-0.05953156 0.34036431 0.00000000
0.36767014 0.36603220 0.00000000
-0.01766592 -0.65253075 0.00000000
0.63909705 -0.08261573 0.00000000
0.49679073 0.04148101 0.00000000
-0.53846214 -0.75880492 0.00000000
-0.33602544 -0.02028820 0.00000000
-0.34645766 -0.78501527 0.00000000
-0.01928309 -0.04170491 0.00000000
0.42719056 0.68257807 0.29601087
0.16158318 0.54796692 0.00000000
0.42382688 0.35831123 0.00000000
0.44029786 0.25728345 0.00000000
-0.49272221 0.42887043 0.00000000
-0.43248691 -0.32871448 0.00000000
0.11137825 -0.72805273 0.00000000
-0.57504742 -0.34466072 0.00000000
-0.33604090 0.32142626 0.00000000
0.32079078 -0.53865532 0.00000000
-0.05151928 0.61021003 0.00000000
0.74667357 -0.14943387 0.00000000
0.17389793 0.42819136 0.00000000
0.71972881 -0.52805821 0.00000000
-0.55921940 0.43474483 0.00000000
-0.74200992 0.02167800 0.00000000
-0.28662968 -0.10169743 0.00000000
-0.73542555 -0.53920470 0.00000000
0.55068051 0.30333492 0.05161708
0.21299427 0.53257281 0.00000000
-0.29289229 0.03043987 0.00000000
-0.65893769 -0.56244659 0.00000000
0.32840612 -0.75520711 0.00000000
0.38886963 -0.28069667 0.00000000
0.15203699 0.11656888 0.00000000
-0.60279800 0.39816423 0.00000000
0.40665543 0.49054047 0.09287953
-0.51471776 -0.60632011 0.00000000
0.60099812 0.24631213 0.04520974
-0.15507304 -0.51656608 0.00000000
0.35770038 -0.63468258 0.00000000
-0.54609949 -0.69178734 0.00000000
0.15944747 0.12010340 0.00000000
-0.29303248 -0.71161005 0.00000000
-0.60753918 -0.08360544 0.00000000
0.29122317 0.68233266 0.16584798
0.47219722 -0.55736273 0.00000000
0.38516926 0.65141621 0.22607808
0.00806062 0.41069460 0.00000000
-0.56790642 -0.72153654 0.00000000
-0.30061990 0.02196607 0.00000000
-0.72789056 -0.54252658 0.00000000
0.51294192 -0.06929744 0.00000000
0.72188367 -0.57513743 0.00000000
0.03373086 0.03989817 0.00000000
-0.41883892 -0.26114191 0.00000000
0.64734843 0.39486404 0.23145464
0.72209790 0.28247966 0.19549143
0.14248701 0.69705138 0.03778308
-0.14179331 -0.29087491 0.00000000
0.78026113 -0.39807559 0.00000000
0.14924792 -0.23402958 0.00000000
0.40660890 0.33586716 0.00000000
-0.65033883 -0.40146297 0.00000000
0.44324225 0.49271137 0.12991568
-0.68573469 -0.29365447 0.00000000
0.60729020 0.21092697 0.01740893
0.37747420 -0.11315266 0.00000000
0.79150073 -0.23217430 0.00000000
-0.60266217 -0.34728926 0.00000000
0.44527438 -0.26859773 0.00000000
0.70414659 -0.14136552 0.00000000
0.75686421 -0.49866951 0.00000000
-0.06823672 -0.35216439 0.00000000
0.60700999 -0.44255441 0.00000000
-0.19984886 -0.39504032 0.00000000
0.62808844 0.23340436 0.05876231
-0.37037369 -0.57902849 0.00000000
-0.69293685 0.02396619 0.00000000
-0.64619919 0.29686654 0.00000000
-0.30944127 0.63088312 0.00000000
0.65081886 -0.79344250 0.00000000
-0.43652754 0.42147776 0.00000000
-0.51662010 -0.08584186 0.00000000
0.61664992 -0.46396759 0.00000000
-0.52998580 0.41810687 0.00000000
0.76298536 -0.38475219 0.00000000
0.14915761 0.33019226 0.00000000
0.01075398 0.03322145 0.00000000
0.50202728 -0.39604249 0.00000000
-0.57607431 -0.39291320 0.00000000
0.15327000 0.67560954 0.02759769
-0.16573848 -0.79078127 0.00000000
0.24510637 0.18980613 0.00000000
-0.44338703 -0.73573393 0.00000000
0.32056361 0.28088547 0.00000000
0.44645480 -0.41411646 0.00000000
0.23470736 -0.35064740 0.00000000
0.47399228 0.33246749 0.00617378
0.57186068 -0.20999929 0.00000000
0.27264603 0.70934735 0.17391085
-0.12251082 0.29171866 0.00000000
0.17960139 0.70337611 0.07929277
-0.31062400 -0.56758830 0.00000000
0.74348294 -0.11091915 0.00000000
-0.02494665 0.25491870 0.00000000
-0.07979365 -0.46713838 0.00000000
0.18646503 -0.67852997 0.00000000
0.57600948 -0.39755579 0.00000000
-0.54141344 0.44489109 0.00000000
0.17980132 0.20712475 0.00000000
-0.30922777 0.16977564 0.00000000
0.06839541 -0.14615093 0.00000000
0.71918813 0.18385193 0.09846410
0.61636658 -0.04951316 0.00000000
-0.41017414 0.30823832 0.00000000
-0.27837011 0.74322776 0.00000000
0.43432061 0.12148709 0.00000000
0.39500906 -0.68556052 0.00000000
-0.57931272 0.26511868 0.00000000
-0.05875159 -0.08703506 0.00000000
0.43301921 -0.54852222 0.00000000
-0.11698299 0.22366643 0.00000000
-0.53179807 -0.62294651 0.00000000
0.32407801 0.51117234 0.03368551
-0.37268683 -0.65071598 0.00000000
0.56829601 -0.57264521 0.00000000
0.76661114 -0.24338080 0.00000000
-0.16355975 -0.32129173 0.00000000
-0.38354410 -0.06912571 0.00000000
0.62358928 -0.48393485 0.00000000
0.58587371 0.53533399 0.30694153
-0.43070336 0.32775453 0.00000000
0.00259950 -0.78043966 0.00000000
0.58089865 -0.70761318 0.00000000
0.46465128 0.64214309 0.29316862
-0.31701781 -0.69420087 0.00000000
0.50169759 -0.10000026 0.00000000
0.76205700 -0.34703773 0.00000000
0.10414528 0.08458871 0.00000000
-0.42203121 -0.11958259 0.00000000
0.06728425 -0.52619579 0.00000000
0.31475419 0.53416633 0.04674848
0.41407413 0.36097631 0.00000000
-0.12441828 0.02813997 0.00000000
-0.14854763 -0.59068360 0.00000000
-0.11430999 -0.17185398 0.00000000
0.15933005 0.45796445 0.00000000
0.23295075 0.16408294 0.00000000
0.45476547 -0.72597647 0.00000000
0.33246388 0.56803371 0.09603456
-0.68263333 0.76089231 0.00000000
-0.41242479 0.72755794 0.00000000
-0.19517916 0.30240015 0.00000000
-0.35518577 -0.12774925 0.00000000
-0.40643076 0.47543387 0.00000000
-0.57440170 0.12322182 0.00000000
-0.29747953 0.49068426 0.00000000
-0.58525512 -0.31583461 0.00000000
-0.47449045 0.32684154 0.00000000
-0.40533599 0.72729591 0.00000000
-0.67411906 -0.56236676 0.00000000
-0.42440226 -0.56904313 0.00000000
0.21567867 -0.08761909 0.00000000
-0.52302049 -0.78855876 0.00000000
-0.29585448 0.11046648 0.00000000
-0.50117811 -0.73884284 0.00000000
0.45661900 -0.77352269 0.00000000
-0.03358122 -0.61793110 0.00000000
0.30362297 -0.70785144 0.00000000
0.10160755 -0.21875571 0.00000000
-0.28808533 -0.07458056 0.00000000
-0.09467053 -0.42539860 0.00000000
0.69213106 0.34977293 0.23115986
-0.01161234 -0.52634033 0.00000000
-0.48665042 -0.16743953 0.00000000
-0.59042234 0.00642620 0.00000000
-0.63102050 -0.58575858 0.00000000
0.74171718 -0.15842976 0.00000000
-0.56220105 -0.26108199 0.00000000
-0.26883322 0.01306034 0.00000000
-0.76414837 0.66067547 0.00000000
0.09289165 0.62807805 0.00000000
0.34117259 -0.67209951 0.00000000
0.34680041 0.25419890 0.00000000
-0.24411356 0.09946953 0.00000000
0.51237224 0.66063981 0.35644527
0.12386616 0.24383970 0.00000000
-0.23959953 -0.51724614 0.00000000
-0.38521642 0.45199790 0.00000000
0.08973270 -0.30223607 0.00000000
0.14106838 0.24553910 0.00000000
-0.03482506 -0.29317235 0.00000000
-0.72925648 -0.31971379 0.00000000
-0.11413726 0.00341423 0.00000000
0.10725605 0.74410264 0.04907840
0.43674280 0.50087072 0.13150184
-0.10369842 0.13850264 0.00000000
0.19228341 0.69275045 0.08125776
0.59630120 -0.36103074 0.00000000
0.69855339 0.31355403 0.20268682
0.70416917 -0.72159967 0.00000000
0.67796801 -0.68364840 0.00000000
0.55358078 0.53406014 0.27486563
0.35355944 0.25213115 0.00000000
-0.15027190 -0.00968843 0.00000000
0.27094337 -0.12140288 0.00000000
0.75359703 -0.69669925 0.00000000
-0.67994632 0.49702799 0.00000000
0.22725992 -0.45305676 0.00000000
0.37473050 0.31458320 0.00000000
-0.69614291 -0.17026871 0.00000000
-0.57979050 0.41950880 0.00000000
0.23592777 -0.63798462 0.00000000
0.59805730 0.35852051 0.14962377
-0.52911607 -0.41198350 0.00000000
0.49760883 0.07032206 0.00000000
0.39207639 0.32822721 0.00000000
-0.17105137 -0.18378868 0.00000000
0.50684985 0.66604220 0.35633062
-0.79378768 -0.64706367 0.00000000
0.55744006 0.28545046 0.04098632
0.59931323 0.28459673 0.08018373
0.37281566 0.55534076 0.12246481
-0.74615218 0.66027312 0.00000000
0.11901206 0.49423539 0.00000000
0.07191558 -0.25028907 0.00000000
0.01642476 0.28327995 0.00000000
-0.38346920 0.45562885 0.00000000
-0.66155066 -0.61021146 0.00000000
0.55064879 -0.29375287 0.00000000
0.71279765 -0.70720077 0.00000000
-0.65605252 -0.14442519 0.00000000
-0.61475235 -0.33103977 0.00000000
-0.43628137 -0.63207992 0.00000000
-0.09282719 -0.38449666 0.00000000
0.45663685 0.12122596 0.00000000
-0.27388131 0.31829694 0.00000000
-0.76291986 0.66167643 0.00000000
-0.54168307 -0.70752269 0.00000000
-0.16094892 -0.17048438 0.00000000
-0.40271021 -0.44980857 0.00000000
0.74567032 -0.79712704 0.00000000
0.59944729 -0.53824921 0.00000000
0.50987145 -0.22248361 0.00000000
0.47341754 0.17486574 0.00000000
-0.12843698 0.02469374 0.00000000
0.01099241 -0.30059583 0.00000000
0.67630588 0.21235919 0.08472762
-0.49480660 0.55234034 0.00000000
-0.72251491 0.61506312 0.00000000
0.49199448 0.10999533 0.00000000
-0.34414716 -0.06502279 0.00000000
-0.74097653 0.67074101 0.00000000
-0.56875060 -0.58427134 0.00000000
0.41218892 0.39551095 0.00735880
-0.76156347 -0.55873258 0.00000000
0.02175499 0.05299551 0.00000000
-0.21475013 -0.35688808 0.00000000
-0.57372690 -0.15824182 0.00000000
-0.19367444 -0.11464750 0.00000000
-0.33256485 -0.63425360 0.00000000
0.50297123 0.11927618 0.00000000
0.24549467 -0.17721637 0.00000000
-0.09224489 -0.61744124 0.00000000
-0.70680346 0.50409236 0.00000000
-0.62487555 0.09012621 0.00000000
0.48422888 -0.15552624 0.00000000
-0.67579713 -0.63352377 0.00000000
-0.59073071 0.40433502 0.00000000
0.51822836 0.54990561 0.25622511
-0.62100706 0.73032788 0.00000000
-0.41615066 -0.56910084 0.00000000
0.35811293 -0.50357193 0.00000000
-0.53339860 -0.72037851 0.00000000
0.39366585 0.46151747 0.05273309
0.27380212 -0.39667978 0.00000000
-0.48527077 -0.29106100 0.00000000
0.03668382 -0.58779966 0.00000000
0.18358546 0.43413030 0.00000000
-0.21597763 0.63326782 0.00000000
-0.49806657 0.08044997 0.00000000
-0.60300867 -0.52555364 0.00000000
0.18075088 0.49928031 0.00000000
-0.19609457 -0.40561793 0.00000000
-0.40293916 -0.22566683 0.00000000
0.08001263 0.50366425 0.00000000
-0.35568975 -0.45139800 0.00000000
0.05384558 0.26727845 0.00000000
0.14159927 -0.77585419 0.00000000
-0.36492478 -0.76371908 0.00000000
0.33571861 0.41074255 0.00000000
0.75371998 -0.02157034 0.00000000
-0.39713072 0.71769061 0.00000000
-0.75378058 0.17833163 0.00000000
-0.40996925 -0.21680130 0.00000000
0.08631973 -0.69977514 0.00000000
0.69336866 -0.74681145 0.00000000
0.00126270 -0.67323190 0.00000000
-0.50931665 0.22534278 0.00000000
-0.14419326 -0.53220324 0.00000000
0.61199800 0.48034597 0.27935966
-0.14083565 -0.18731361 0.00000000
0.35544019 -0.01602804 0.00000000
0.56697080 -0.79676220 0.00000000
-0.19466446 0.05772109 0.00000000
0.15686777 -0.19722003 0.00000000
-0.15659589 0.08508997 0.00000000
-0.28445244 -0.54795255 0.00000000
0.13799728 0.16433142 0.00000000
0.49313917 -0.32216192 0.00000000
-0.41430391 0.29010689 0.00000000
0.47721985 0.24699054 0.00000000
-0.63496236 0.30053990 0.00000000
-0.01462003 -0.63653169 0.00000000
0.04311432 0.06899784 0.00000000
-0.01673198 -0.78528388 0.00000000
-0.33027427 -0.02127800 0.00000000
0.04238437 0.67262045 0.00000000
-0.15453189 0.60908963 0.00000000
0.77614797 -0.16265664 0.00000000
0.57016761 -0.48890260 0.00000000
0.32982833 0.32775423 0.00000000
-0.72309741 -0.24871061 0.00000000
0.11649235 -0.76133405 0.00000000
-0.69332599 0.20010790 0.00000000
-0.55175010 -0.77848826 0.00000000
-0.65667966 0.25085926 0.00000000
0.22020838 -0.16047093 0.00000000
0.24927651 0.49980538 0.00000000
-0.31855142 -0.21598702 0.00000000
0.26924832 0.44660605 0.00000000
-0.12183971 -0.59868473 0.00000000
0.73792311 -0.48151081 0.00000000
0.61933653 0.27128180 0.08659412
-0.34150366 -0.78386183 0.00000000
-0.01394564 0.28672198 0.00000000
0.35629801 0.14937111 0.00000000
-0.55334103 -0.53699475 0.00000000
0.05766451 -0.10148626 0.00000000
0.60358915 0.61078090 0.39596624
0.25035442 -0.35145120 0.00000000
-0.59975859 -0.32409440 0.00000000
0.79653809 -0.35727811 0.00000000
0.51847388 0.18996203 0.00000000
0.20003631 -0.64300648 0.00000000
-0.56312499 0.44278737 0.00000000
-0.37822672 -0.26621266 0.00000000
-0.11164461 0.61064441 0.00000000
-0.21406198 0.42759098 0.00000000
-0.02702237 0.73363062 0.00000000
0.00682884 -0.04766638 0.00000000
0.04344277 0.23506382 0.00000000
-0.01231228 0.16275146 0.00000000
0.61766147 0.21781404 0.03390068
-0.32038272 -0.30775085 0.00000000
-0.51414359 -0.01271341 0.00000000
-0.01475013 -0.10241501 0.00000000
0.24347065 -0.30864377 0.00000000
-0.06012826 0.20219964 0.00000000
-0.64166514 -0.41640917 0.00000000
0.57033812 -0.79270218 0.00000000
-0.63959345 -0.21616564 0.00000000
-0.09389739 -0.06040609 0.00000000
-0.48762555 -0.13601884 0.00000000
0.42697692 0.28015741 0.00000000
0.29335686 -0.45713259 0.00000000
-0.66916399 -0.68283471 0.00000000
0.08978432 0.69916199 0.00000000
-0.42059517 0.12313805 0.00000000
-0.35587619 -0.18794084 0.00000000
0.72072585 0.14574680 0.06352096
0.31249849 0.29575578 0.00000000
0.20283508 -0.77169592 0.00000000
-0.08997079 0.04743435 0.00000000
-0.64827975 0.01525600 0.00000000
0.00086634 -0.42571098 0.00000000
0.67035652 0.34840908 0.20904925
0.67842113 0.14375333 0.02119044
0.74457495 -0.63033310 0.00000000
0.48126205 0.46794997 0.14258516
-0.66691975 -0.44615961 0.00000000
-0.18179355 -0.30859105 0.00000000
-0.23372166 0.51755078 0.00000000
-0.61682920 -0.26676145 0.00000000
-0.68828882 -0.65013348 0.00000000
-0.20476327 -0.34791347 0.00000000
-0.49191811 -0.43049155 0.00000000
0.25509383 -0.10802170 0.00000000
-0.12505895 0.18338048 0.00000000
-0.16587961 -0.14799212 0.00000000
0.19949660 0.10918786 0.00000000
-0.05606548 -0.60446399 0.00000000
0.58473133 0.59765006 0.36539833
0.33188246 -0.30618186 0.00000000
-0.52304888 0.10082122 0.00000000
0.33184507 -0.40166891 0.00000000
0.14100642 0.55662594 0.00000000
0.62234660 0.34559736 0.16048505
0.67891739 -0.43616292 0.00000000
-0.24070639 -0.23895987 0.00000000
-0.48385140 -0.34852203 0.00000000
0.55830414 -0.08286619 0.00000000
-0.15131857 -0.31280192 0.00000000
-0.23150428 -0.12914945 0.00000000
0.52186864 0.49899788 0.21105694
-0.25932322 -0.62899128 0.00000000
0.26693827 0.04167347 0.00000000
0.23674664 -0.58224816 0.00000000
0.05809463 0.67854137 0.00000000
-0.22342059 -0.62223228 0.00000000
-0.50861982 -0.09888349 0.00000000
0.76130488 -0.71672247 0.00000000
0.54128338 -0.58969344 0.00000000
-0.30114132 0.22740580 0.00000000
-0.58517033 0.36243238 0.00000000
0.08063984 0.72395980 0.00439627
-0.59888945 -0.58108790 0.00000000
0.74278662 0.16376317 0.10181793
-0.42222477 0.54413644 0.00000000
-0.17038180 0.40959637 0.00000000
0.71900925 0.11525798 0.03274607
0.10935863 0.18827760 0.00000000
0.14581465 0.32856647 0.00000000
-0.31029756 0.30762899 0.00000000
-0.24729317 -0.39975256 0.00000000
-0.32075917 -0.37583507 0.00000000
0.17150682 0.74665492 0.11291438
-0.66867470 0.45255192 0.00000000
0.18640464 -0.18375822 0.00000000
0.16185860 0.10113765 0.00000000
-0.74926237 -0.32234575 0.00000000
-0.66031683 -0.29860942 0.00000000
0.01240515 -0.07176540 0.00000000
-0.68596762 0.66685208 0.00000000
0.18118900 0.67896075 0.05747892
-0.04303603 0.35037566 0.00000000
0.75546219 0.06300123 0.01764424
0.72592446 0.25360025 0.17155139
0.47349296 -0.78431606 0.00000000
-0.47701329 -0.17880829 0.00000000
-0.23512147 0.20346693 0.00000000
0.55565866 0.39381909 0.14283908
0.30501384 0.28239106 0.00000000
-0.28173724 -0.02212604 0.00000000
0.42933141 0.08996843 0.00000000
0.03968797 0.28127946 0.00000000
-0.17384149 -0.69828635 0.00000000
0.57084609 0.56634849 0.32221843
-0.75974004 0.54148755 0.00000000
-0.08604110 -0.51476229 0.00000000
-0.08409494 0.44743643 0.00000000
-0.53972912 0.59003953 0.00000000
-0.64842526 0.53747682 0.00000000
0.68073196 0.42522437 0.29236729
0.62838513 0.46630520 0.28160177
-0.59262206 -0.24252468 0.00000000
0.14315026 -0.16945199 0.00000000
-0.56469415 0.22966253 0.00000000
0.51182283 0.40136933 0.10816525
-0.00463498 -0.68147418 0.00000000
-0.20207735 -0.63950948 0.00000000
-0.01875558 0.61079535 0.00000000
-0.06305101 -0.68913773 0.00000000
-0.44989945 -0.62641851 0.00000000
-0.11399722 -0.49587735 0.00000000
0.64971137 -0.35862284 0.00000000
-0.63279344 -0.11601389 0.00000000
-0.50421025 0.26266795 0.00000000
0.73516391 0.16020474 0.09113343
-0.21580547 0.13297596 0.00000000
-0.02881616 -0.07482050 0.00000000
-0.79943325 0.50850900 0.00000000
0.01503773 -0.03549672 0.00000000
-0.09758308 0.77511409 0.00000000
0.27816776 -0.72873432 0.00000000
-0.72764013 0.24147172 0.00000000
0.34359934 0.27850906 0.00000000
0.01983284 0.60180330 0.00000000
-0.14462919 0.00712462 0.00000000
-0.02711568 -0.21459873 0.00000000
-0.53032728 -0.10045264 0.00000000
0.62589630 -0.26958971 0.00000000
0.00368418 0.59402452 0.00000000
-0.34538641 0.34481343 0.00000000
-0.28434530 -0.78349012 0.00000000
-0.56442269 -0.27579053 0.00000000
0.18623789 0.20926568 0.00000000
-0.67267720 0.33722916 0.00000000
0.51696765 0.00572544 0.00000000
0.04419689 -0.48397821 0.00000000
-0.11486849 0.48300696 0.00000000
-0.77953224 -0.18562749 0.00000000
-0.38267017 -0.61640865 0.00000000
-0.40858618 0.54927012 0.00000000
0.48203087 -0.61383661 0.00000000
0.70101773 0.15914408 0.05749044
-0.05282114 0.06103529 0.00000000
0.56155478 0.42301908 0.17637627
-0.69728152 -0.64814950 0.00000000
-0.29306090 0.30042068 0.00000000
-0.41136273 0.28986957 0.00000000
0.04506983 0.68944467 0.00000000
0.50875984 0.46504986 0.16609024
-0.02679698 0.62447647 0.00000000
0.78935400 -0.07459012 0.00000000
-0.45203809 -0.71459177 0.00000000
-0.47444475 0.06089624 0.00000000
0.13433761 -0.52245998 0.00000000
0.03857015 0.32344868 0.00000000
-0.40330741 0.57010155 0.00000000
0.32644971 -0.36779164 0.00000000
0.11801274 0.55010272 0.00000000
0.57045966 0.47252637 0.23219395
-0.19896603 -0.40706548 0.00000000
0.62352351 -0.15046784 0.00000000
0.09496358 -0.20970133 0.00000000
0.59198574 0.52687268 0.30469658
-0.22342494 0.16674706 0.00000000
0.75613360 0.13272353 0.08491115
-0.79197596 0.03556974 0.00000000
-0.28932709 -0.70824712 0.00000000
-0.35287980 -0.38362744 0.00000000
-0.23450395 -0.62620808 0.00000000
-0.73314824 -0.51590825 0.00000000
0.63416553 0.40338283 0.22699770
0.42234253 -0.24930419 0.00000000
0.35711563 -0.73797718 0.00000000
0.31024590 -0.26139277 0.00000000
0.64417112 -0.76611090 0.00000000
0.07424986 0.06023895 0.00000000
-0.03332885 0.10095451 0.00000000
0.58375995 0.13578672 0.00000000
-0.16421703 -0.25197402 0.00000000
0.14697849 0.11781896 0.00000000
-0.50993151 0.01890972 0.00000000
0.60944308 0.64063392 0.43008733
-0.27620766 -0.76118972 0.00000000
-0.21809393 0.43215711 0.00000000
-0.48373922 -0.26299392 0.00000000
-0.50001589 0.68039043 0.00000000
-0.38510653 0.58103042 0.00000000
0.73464395 -0.02959047 0.00000000
0.32826140 0.13621654 0.00000000
-0.02542473 0.60428680 0.00000000
0.12837447 0.73698958 0.06246169
0.74051641 0.17192932 0.10745198
0.06414698 -0.23224314 0.00000000
0.07602302 -0.47668253 0.00000000
-0.01125831 0.55224727 0.00000000
0.72376486 -0.12073096 0.00000000
0.35145204 -0.58566366 0.00000000
0.41640588 0.51940843 0.12978255
0.69727419 -0.41801038 0.00000000
0.35115020 -0.22419036 0.00000000
0.17633772 -0.33869231 0.00000000
0.32394379 0.07232640 0.00000000
0.53617596 0.12816648 0.00000000
0.16589591 -0.66458937 0.00000000
0.79410451 -0.43846966 0.00000000
0.71394061 0.11904267 0.03151915
0.64895737 0.40365987 0.24139725
-0.08284615 0.43402842 0.00000000
-0.44864837 0.61073323 0.00000000
0.56521549 -0.08456255 0.00000000
-0.65979521 -0.29531760 0.00000000
-0.39270251 -0.51972397 0.00000000
-0.34207349 -0.19291685 0.00000000
-0.24938885 0.39236544 0.00000000
-0.08025987 0.63485210 0.00000000
-0.35750100 -0.29096683 0.00000000
-0.77657643 0.33863506 0.00000000
-0.67409478 0.77469668 0.00000000
0.56259334 -0.40672730 0.00000000
0.75984462 -0.44225157 0.00000000
0.67839640 0.29008458 0.16099821
-0.00783131 -0.35545723 0.00000000
0.04434703 0.45277034 0.00000000
-0.25956409 -0.55720070 0.00000000
-0.73947809 0.19400627 0.00000000
-0.47848908 -0.00568463 0.00000000
-0.44102364 0.72045055 0.00000000
-0.06552411 -0.70742783 0.00000000
0.42646609 0.67881503 0.29172267
0.20052109 0.23172034 0.00000000
-0.08346537 -0.46317242 0.00000000
0.13062518 0.70607103 0.03506716
-0.41645775 0.76929968 0.00000000
-0.52921249 -0.73294075 0.00000000
0.59617615 -0.73359487 0.00000000
0.35366629 0.53230948 0.08215778
-0.67140608 -0.38350371 0.00000000
-0.00456570 0.53313759 0.00000000
0.15324852 -0.17141146 0.00000000
-0.69701112 0.73605716 0.00000000
-0.65004007 -0.70995376 0.00000000
-0.55388341 -0.31893445 0.00000000
0.28425285 0.49328353 0.00000000
-0.29391238 -0.72367452 0.00000000
-0.10801464 -0.75497464 0.00000000
-0.61418000 0.63986001 0.00000000
0.56510052 -0.64336328 0.00000000
-0.76563144 0.71956398 0.00000000
0.47455062 0.47931670 0.14703367
0.78550377 -0.03586005 0.00000000
0.61339968 0.47467954 0.27528432
-0.41717092 -0.71618156 0.00000000
-0.14077359 0.76360076 0.00000000
-0.10301761 0.24586038 0.00000000
0.13454275 0.19492081 0.00000000
0.64371598 -0.03580862 0.00000000
-0.32035128 0.39776286 0.00000000
-0.49701358 -0.54696443 0.00000000
-0.49747439 0.31827972 0.00000000
-0.72146823 -0.05318456 0.00000000
0.13377222 0.29633441 0.00000000
0.53697883 0.32717609 0.06130619
-0.53601708 0.52783719 0.00000000
0.26945246 0.22539352 0.00000000
0.32106716 -0.48347460 0.00000000
0.62299909 -0.48958487 0.00000000
-0.19377505 -0.30120540 0.00000000
0.05430053 -0.72367742 0.00000000
-0.42280772 0.29721331 0.00000000
-0.52794047 -0.23042962 0.00000000
-0.09412313 -0.16961960 0.00000000
-0.53218219 -0.62546096 0.00000000
0.28994581 -0.37765565 0.00000000
0.58269251 -0.31421133 0.00000000
0.74875845 0.18524414 0.12805131
0.57829754 -0.24466078 0.00000000
0.68311210 0.33551433 0.20891627
0.20126710 0.61916874 0.01952906
0.65142440 0.03390317 0.00000000
0.23245411 -0.03620128 0.00000000
0.48346103 -0.19753114 0.00000000
0.64225680 -0.54700547 0.00000000
0.10961220 -0.42508814 0.00000000
0.65843425 0.48540777 0.32857043
-0.76225232 -0.29178955 0.00000000
-0.41672004 0.27234049 0.00000000
-0.04940621 0.34735711 0.00000000
0.52845508 0.45067441 0.17117373
-0.25957769 -0.35506687 0.00000000
0.51122072 -0.23909883 0.00000000
-0.69691178 -0.44856463 0.00000000
-0.41395380 -0.64500161 0.00000000
-0.25827656 0.70267294 0.00000000
-0.45700155 0.69092412 0.00000000
-0.38057796 -0.61423939 0.00000000
0.01908029 0.14851581 0.00000000
0.28956037 -0.74103449 0.00000000
-0.00606478 -0.12578522 0.00000000
0.17857089 0.26368528 0.00000000
-0.78915914 0.60182083 0.00000000
-0.12360686 0.72022769 0.00000000
-0.35995218 -0.67541023 0.00000000
0.40521064 0.49653507 0.09722723
-0.36595083 -0.23326318 0.00000000
0.56080776 -0.11599117 0.00000000
0.11830186 -0.12867590 0.00000000
0.36452909 -0.45952241 0.00000000
0.25333965 -0.46195455 0.00000000
-0.41590697 0.01947363 0.00000000
-0.39863469 -0.79291605 0.00000000
-0.68634244 -0.20957767 0.00000000
-0.62597520 -0.73256130 0.00000000
-0.64267488 -0.26104880 0.00000000
-0.46042033 -0.77527304 0.00000000
-0.63548899 0.04712103 0.00000000
0.53160083 0.20443320 0.00000000
-0.70696080 0.26934713 0.00000000
