ply
format ascii 1.0
element vertex 1380
property float x
property float y
property float z
end_header
-0.26767102 0.33146314 -0.00000031
-0.32297349 -0.64134910 0.00000000
-0.05276467 -0.15121218 0.04751077
-0.73106375 -0.79797258 -0.00000001
-0.21697442 0.25561215 0.00000000
-0.19377298 -0.38434760 0.00000000
-0.21838477 -0.59369166 0.19663968
-0.02440779 0.60460583 0.00000256
-0.17183457 0.50116742 0.15472537
-0.27297150 0.34777543 0.24579237
-0.17100066 -0.52151207 0.15397372
-0.60456966 -0.72250947 0.00000000
-0.21212725 -0.41118524 0.00000000
-0.65368637 -0.08664862 -0.00000122
-0.17578070 0.17309787 0.00000675
-0.54959013 0.11292577 -0.00000113
-0.44571283 0.34084941 -0.00000089
-0.11525704 0.19592831 0.10377152
-0.16079539 -0.45952145 0.00000000
-0.27129643 0.46942664 -0.00000057
-0.26860076 0.39037912 0.00000168
-0.00996305 -0.72702802 0.00897101
-0.37613897 -0.16312412 0.33868669
-0.08274912 0.05266592 0.00000996
-0.26056149 0.37234752 0.23461801
-0.10838846 -0.45574628 0.00000000
-0.71380815 0.06966769 -0.00000151
-0.08662390 -0.59480993 0.07799855
-0.34007048 0.44805409 -0.00000083
-0.32823757 0.00668040 0.29554785
-0.03513110 -0.32890024 0.00000000
-0.55566717 -0.34693559 -0.00000034
-0.17473343 0.25843403 0.00000549
-0.41883403 0.15484606 0.37713020
-0.22788314 0.09125579 0.20518421
-0.22603970 0.21492019 0.20353283
-0.61362751 -0.79572093 0.00000000
-0.15282303 -0.12235348 0.13760608
-0.09956608 0.46054868 0.08965205
-0.08507792 0.01397675 0.00001051
-0.13669401 0.26472823 0.12308306
-0.15097859 -0.30179835 0.00000000
-0.40222272 -0.22210335 0.36217329
-0.47172414 -0.59987793 0.00000000
-0.76828568 -0.21024807 -0.00000147
-0.17895464 0.57225116 0.00000037
-0.42111780 -0.78086049 0.00000000
-0.12712681 0.05876628 0.11445693
-0.09279062 0.51694356 0.08355129
-0.09024111 0.56609767 0.08125577
-0.23590304 0.32511013 -0.00000017
-0.10328714 0.15479847 0.00000812
-0.04338476 -0.13702009 0.03906484
-0.33165567 0.32076688 0.00000164
-0.02979673 0.13356387 0.02681711
-0.32117935 0.20782711 0.28919685
-0.15105462 0.20292796 0.00000000
-0.20189012 0.47925076 0.00000148
-0.11157418 -0.19959717 0.00000000
-0.00889845 -0.29593243 0.00801241
-0.03176717 -0.57129123 0.02860404
-0.63392387 0.13764370 -0.00000153
-0.28198541 -0.52607732 0.25390746
-0.48020392 0.04418859 0.43239127
-0.54075124 -0.15359062 0.48690974
-0.22524808 -0.69555522 0.00000000
-0.45673620 -0.15537300 0.41125947
-0.33902305 0.25661537 -0.00000049
-0.54320247 -0.18030096 -0.00000059
-0.34437676 0.09431517 0.31008757
-0.12388847 0.41570903 0.00000390
-0.06984853 0.25499780 0.06288440
-0.41738480 -0.26367003 0.00000000
-0.59277014 -0.27007928 0.53374931
-0.00625393 0.27664404 0.00000776
-0.09713144 0.46219274 0.08745563
-0.13740131 0.20361027 0.00000000
-0.24792006 -0.41434126 0.00000000
-0.09744789 -0.32743000 0.08774477
-0.22109458 -0.62400602 0.00000000
-0.03884840 0.74229384 0.00000022
-0.05687150 0.37781399 0.05120867
-0.40303369 0.03532350 0.00000503
-0.51993045 -0.52629753 0.46816082
-0.04509169 0.16569271 0.00000000
-0.38169478 0.27524054 0.00000144
-0.15060591 0.31262929 0.13560973
-0.03929098 -0.42063070 0.00000000
-0.48913120 0.17333193 0.00000107
-0.53563982 -0.12995490 -0.00000064
-0.62979483 -0.51981528 -0.00000035
-0.25865851 -0.76813024 0.23290327
-0.49381011 -0.51134576 0.00000000
-0.04000042 0.02793281 0.03601748
-0.24877230 0.37804649 0.22400259
-0.22845373 0.23435639 0.00000504
-0.42249582 0.00792770 0.38042409
-0.67610091 0.07766561 -0.00000092
-0.31060171 0.15215962 -0.00000018
-0.28322159 0.50272350 -0.00000068
-0.60043330 -0.16531137 -0.00000086
-0.00619975 0.21353127 0.00000000
-0.30538827 0.08389387 -0.00000004
-0.42226209 -0.44586452 0.38021683
-0.30696737 -0.62239896 0.27640190
-0.30275356 0.03908423 0.27260833
-0.13929170 0.20394300 0.00000000
-0.61666680 0.11219980 -0.00000035
-0.07476566 0.01121274 0.00000000
-0.32408593 0.41782110 -0.00000071
-0.15333026 0.46540035 -0.00000006
-0.28359721 -0.71260979 0.25535876
-0.15705275 -0.47965589 0.14141464
-0.49497055 -0.15320607 0.44568711
-0.02518026 0.30087431 0.02266357
-0.11633090 0.05178433 0.10474755
-0.10323079 -0.04079817 0.00000000
-0.49601926 0.08222623 0.44663210
-0.26485298 -0.68680695 0.23848094
-0.13956173 0.45189455 0.12566230
-0.20212406 0.33793006 0.18199867
-0.47438546 -0.29910383 -0.00000008
-0.50116189 -0.68862055 0.45126042
-0.05083238 -0.58745292 0.04577088
-0.25994882 0.10969379 0.00000000
-0.30441619 0.21233776 -0.00000026
-0.23996121 -0.06641558 0.21606770
-0.57485305 -0.15821315 0.51761627
-0.35665621 0.16138733 0.00000382
-0.41371991 0.04828341 0.37252264
-0.29329249 -0.31901471 0.00000000
-0.48777565 0.06918709 0.43920921
-0.06750985 0.20331783 0.00000793
-0.71422603 -0.11748501 -0.00000143
-0.48317722 0.06591579 0.00000298
-0.12529171 0.41506747 0.00000388
-0.44963891 -0.62213223 0.40486741
-0.06594664 0.41529415 0.00000000
-0.09505526 0.16409800 0.08558009
-0.70074809 -0.17412898 -0.00000127
-0.14871510 -0.79314350 0.13390718
-0.18441104 -0.29309084 0.16604880
-0.25436814 -0.33214643 0.00000000
-0.66301420 -0.11487645 -0.00000121
-0.24105666 0.01548377 0.00000000
-0.51973766 -0.21194786 -0.00000043
-0.64019521 0.15122794 -0.00000159
-0.12885190 0.26014512 0.00000000
-0.07200949 -0.35292738 0.06483934
-0.33733600 -0.40704077 0.30374666
-0.16248836 0.44771991 0.14630682
-0.11266108 -0.22416726 0.00000000
-0.15276404 0.17400006 0.00000000
-0.49481285 -0.51419909 0.44554404
-0.34540500 -0.46575695 0.00000000
-0.58844950 -0.66332419 0.00000000
-0.24380911 -0.67065596 0.21953246
-0.33731686 0.20536046 0.00000346
-0.03283469 -0.64364821 0.02956526
-0.55546936 -0.56739647 0.50016142
-0.41821352 -0.55131967 0.37657103
-0.79765757 -0.34386018 -0.00000114
-0.22222603 -0.61310205 0.20009845
-0.12688918 0.61675923 -0.00000022
-0.37529470 0.18403372 0.33792526
-0.08563643 0.57313144 0.00000211
-0.26191255 -0.49392385 0.23583330
-0.11706626 0.19092140 0.00000000
-0.14216245 -0.61385015 0.12800700
-0.13976923 0.47828998 0.00000269
-0.14043267 0.04844568 0.12643805
-0.09924957 0.40295083 0.08936705
-0.21403839 -0.71167526 0.00000000
-0.22099558 0.28001108 0.19899111
-0.58815069 -0.01080036 0.52959040
-0.34351146 -0.49741236 0.30930721
-0.37539319 0.09600961 0.33801189
-0.36168526 -0.44043386 0.32567140
-0.56293001 -0.70874951 0.50687897
-0.15242150 -0.72445473 0.13724453
-0.64463000 -0.33485608 -0.00000074
-0.07025664 0.69721840 0.06326139
-0.21554988 0.52740422 -0.00000044
-0.35379592 0.12571626 0.31856903
-0.41663394 0.18425604 0.00000228
-0.78245495 -0.66626212 -0.00000033
-0.74766601 -0.70743437 -0.00000023
-0.76406317 -0.56902400 -0.00000058
-0.08460578 0.22827446 0.00000000
-0.35370486 0.29376328 0.00000166
-0.29118590 -0.13882684 0.00000000
-0.28898097 -0.31038605 0.26020645
-0.22810702 0.23036069 0.20539437
-0.04623422 0.63104104 0.04162841
-0.22433926 0.26598231 0.20199713
-0.07422353 -0.27798734 0.00000000
-0.11076328 -0.21238045 0.00000000
-0.09974946 0.37526306 0.08981127
-0.00302361 0.36000443 0.00000655
-0.00151004 0.46995368 0.00000000
-0.20554077 0.04393310 0.18506486
-0.01053040 0.07462587 0.00948186
-0.34281891 -0.71364289 0.00000000
-0.04552990 0.15469793 0.04098455
-0.10467219 0.03139940 0.09424973
-0.37148777 -0.61103280 0.33449786
-0.34887546 -0.42832025 0.00000000
-0.64704689 -0.54100756 -0.00000039
-0.34238714 -0.21411800 0.30829513
-0.19437647 0.49079358 0.00000143
-0.07933730 0.32690029 0.07143750
-0.28378623 -0.40254289 0.25552896
-0.20954246 0.03575199 0.18866803
-0.27733919 -0.66973156 0.00000000
-0.11314296 -0.15411771 0.10187705
-0.26863490 0.11537026 0.00000622
-0.09516488 0.46109009 0.00000000
-0.79500394 -0.62777713 -0.00000043
-0.21435607 0.03199205 0.00000829
-0.54946714 0.04223630 0.00000211
-0.39992207 -0.31297892 0.00000000
-0.03951508 0.01980248 0.03556574
-0.13782859 -0.69759875 0.12410467
-0.12840687 0.32125284 0.00000000
-0.14030518 0.04953699 0.12632327
-0.10774900 -0.34805711 0.09702017
-0.60905388 -0.68980221 0.00000000
-0.41828589 0.13066626 -0.00000060
-0.55995878 -0.67280700 0.50420364
-0.28403175 0.15525315 -0.00000007
-0.07112319 0.17777599 0.06403061
-0.26042577 0.16413882 0.00000000
-0.22169415 0.16209537 0.00000000
-0.47741103 0.04553779 -0.00000070
-0.47261920 -0.56227509 0.00000000
-0.27683642 0.41007518 -0.00000049
-0.01242171 0.77278435 -0.00000000
-0.52753326 0.04062500 0.47500735
-0.46487189 -0.38368358 0.41858446
-0.04935635 -0.54887919 0.04444182
-0.59040792 -0.62207360 0.53162145
-0.06947694 -0.43436583 0.00000000
-0.22407781 -0.06993247 0.00000000
-0.00356610 0.03272624 0.00001146
-0.68172122 -0.61922774 -0.00000040
-0.44604956 -0.10555360 0.40163696
-0.04499472 0.39408972 0.00000000
-0.10389612 0.44253138 0.09355093
-0.11157134 0.45938791 0.00000343
-0.45888112 -0.22105103 0.41319064
-0.30461354 -0.55814759 0.00000000
-0.07578481 0.11667564 0.06823874
-0.43043908 -0.36041252 0.00000000
-0.48840172 0.00214018 0.00000395
-0.21041652 0.47737040 0.18946592
-0.34318867 0.13851639 0.30901385
-0.04441145 0.29776006 0.03998929
-0.32050454 0.43348444 -0.00000003
-0.34836432 0.32234583 0.31367862
-0.79441460 -0.22800618 -0.00000143
-0.25385724 0.38909574 0.00000199
-0.25457023 0.24973399 -0.00000011
-0.14354635 0.04874712 0.12924178
-0.49432177 0.06694603 0.44510357
-0.12265937 0.18967852 0.00000000
-0.22793558 -0.37901836 0.20523949
-0.07307594 -0.69466918 0.06579960
-0.06297316 -0.49192857 0.05670277
-0.02580510 0.13828854 0.02322292
-0.10307059 -0.46734186 0.00000000
-0.07123054 -0.09730896 0.06413795
-0.02949616 -0.09325937 0.02655916
-0.31270616 -0.38529744 0.28156927
-0.29224266 -0.50116142 0.26314336
-0.19960042 -0.10738751 0.17972573
-0.14880829 0.32359261 0.13399112
-0.27088470 -0.45017486 0.00000000
-0.48220848 -0.00160640 0.43419611
-0.03853830 0.74740035 -0.00000007
-0.07469472 0.01213249 0.06724326
-0.23738612 -0.75509578 0.21374902
-0.14106876 0.23885823 0.12702221
-0.07830224 0.45790705 0.00000000
-0.34973450 -0.23928678 0.00000000
-0.50943842 0.10586351 0.00000181
-0.26511829 -0.39209278 0.00000000
-0.08218833 -0.14974573 0.07400465
-0.61192682 0.04451041 0.00000087
-0.18604065 -0.16539243 0.00000000
-0.25876731 0.11699010 0.00000634
-0.53321408 -0.79614232 0.48012129
-0.27590937 -0.57684792 0.00000000
-0.75134174 -0.44356647 -0.00000089
-0.26586940 0.50928083 -0.00000025
-0.03441383 -0.44976170 0.03098716
-0.58161856 -0.76163499 0.52370681
-0.41708901 -0.15589397 -0.00000009
-0.33874357 -0.13019763 0.30501457
-0.32832048 0.31988211 0.29562980
-0.70778373 -0.65244572 -0.00000037
-0.56795668 -0.01230832 0.51140695
-0.72885977 -0.70321781 -0.00000024
-0.03087606 -0.73956733 0.02780166
-0.43719300 -0.08855676 -0.00000030
-0.56385662 0.03582757 -0.00000106
-0.04541899 0.51275635 0.00000362
-0.01645649 0.57589801 0.01481788
-0.09698390 0.05625939 0.08731455
-0.34124741 0.10914260 0.30726983
-0.36202965 0.17603714 0.00000347
-0.16682188 0.44377851 -0.00000008
-0.48675411 -0.40521651 0.00000000
-0.08426718 0.32840643 0.07586924
-0.22478197 0.18477114 0.00000584
-0.16366835 0.17873575 0.14736337
-0.14164569 -0.46674305 0.12754169
-0.01609684 -0.02236694 0.01449404
-0.07362330 0.31502314 0.06628463
-0.66148373 -0.27332165 -0.00000093
-0.39541606 -0.31487807 0.35604405
-0.44041105 -0.57925085 0.00000000
-0.04201421 -0.06625780 0.03783076
-0.05237089 -0.28241819 0.00000000
-0.61416219 0.10668899 -0.00000140
-0.41449552 0.10306077 0.37322514
-0.68640140 -0.38881472 -0.00000083
-0.50076274 -0.18670667 0.45090250
-0.32411984 -0.64216250 0.29184646
-0.41058510 -0.73008159 0.00000000
-0.33225848 -0.39203222 0.29917472
-0.06406790 -0.35088556 0.05768850
-0.42949310 0.19019395 0.38672914
-0.02991707 0.36632452 0.02693018
-0.36574776 -0.32621022 0.00000000
-0.01328129 0.03475777 0.00001128
-0.22262442 0.16309351 0.00000619
-0.39930803 0.18043392 0.35954833
-0.23025423 -0.23369492 0.20732727
-0.04244798 0.70273604 0.03822145
-0.04262460 0.33603972 0.00000632
-0.57425811 -0.15621634 0.51708057
-0.05563887 0.49743675 0.05009416
-0.23059852 0.12152273 0.00000670
-0.29469032 -0.31646196 0.26534731
-0.27018825 -0.75292654 0.24328497
-0.41411302 0.17583707 0.37288094
-0.36673743 -0.30201720 0.00000000
-0.68300582 -0.04796411 -0.00000142
-0.05633325 0.04824306 0.05072401
-0.19132517 -0.02059328 0.17227447
-0.29215850 -0.58591440 0.26306758
-0.05507818 0.33241250 0.04958594
-0.40930407 0.14189415 -0.00000058
-0.04837348 0.21182129 0.00000000
-0.22045795 0.22528233 0.00000529
-0.02361853 0.45138656 0.02126678
-0.48917824 0.11868636 -0.00000088
-0.10076574 -0.17286184 0.00000000
-0.50384539 -0.43951100 0.00000000
-0.04900391 0.34359023 0.00000611
-0.04213362 -0.38071220 0.00000000
-0.26745787 -0.74284996 0.00000000
-0.40789862 0.22459163 0.36728488
-0.11455702 0.52221262 0.10314808
-0.63668597 -0.44453174 -0.00000052
-0.01153011 0.77449787 0.00000020
-0.47514541 -0.68977990 0.42783421
-0.36495923 -0.43115428 0.32861938
-0.43647779 -0.54312835 0.39301689
-0.61485538 0.02195462 -0.00000125
-0.34333552 -0.77484267 0.00000000
-0.27977038 0.02341858 0.25191337
-0.33306939 0.03929782 0.29989949
-0.01409827 -0.32658760 0.01269447
-0.13690774 0.19072970 0.00000000
-0.21605414 0.00645252 0.19454111
-0.12107738 0.54665592 0.10902183
-0.47650830 0.15238363 -0.00000089
-0.03576226 0.54020481 0.03220132
-0.46896768 0.01540221 0.00000410
-0.25822358 0.33414193 0.00000282
-0.15056753 0.46260110 0.13557288
-0.25567581 0.40967874 0.00000161
-0.16528513 -0.53304218 0.00000000
-0.11128426 -0.27521296 0.10020342
-0.15873331 -0.41072679 0.00000000
-0.41320323 0.18547403 0.37206058
-0.11658978 0.10266136 0.00000870
-0.26784316 0.05783587 0.00000000
-0.10965550 0.54806141 0.09873503
-0.43546205 -0.13719613 0.39210347
-0.08849991 0.34972768 0.00000542
-0.33518203 0.09793774 -0.00000019
-0.34910097 0.02410319 0.31434122
-0.18198274 0.17016023 0.00000670
-0.02910496 0.38911951 0.00000572
-0.58968577 -0.45991501 0.53097158
-0.34139201 0.04836092 0.00000600
-0.45281099 0.11780662 -0.00000073
-0.55118686 -0.28235663 0.49630598
-0.02165092 0.49093241 0.00000431
-0.06554584 0.23435279 0.05900961
-0.49993616 -0.26976367 0.45015798
-0.28892727 0.07314191 0.26015186
-0.27313388 -0.01302568 0.24593752
-0.59448131 0.03756476 0.00000132
-0.37051357 -0.36809207 0.33362077
-0.11974131 0.44224738 0.10781848
-0.21832796 -0.69613526 0.19658853
-0.05817658 0.24256119 0.00000748
-0.37719875 0.39066524 -0.00000089
-0.17074631 0.47260839 0.15374537
-0.78852009 -0.50691289 -0.00000073
-0.46755269 0.11071915 0.00000254
-0.72211199 -0.31906239 -0.00000110
-0.73462001 0.03669092 -0.00000136
-0.47254723 -0.59643674 0.42549499
-0.22710627 0.18074839 0.20448674
-0.17202905 -0.44116667 0.15489971
-0.26434789 0.21031107 0.23802219
-0.13245817 -0.60711594 0.11926900
-0.51938919 -0.26650664 0.46767422
-0.40394823 -0.06501035 -0.00000019
-0.21862968 -0.52229775 0.19686020
-0.75933062 -0.78448595 -0.00000004
-0.34042057 0.23277109 -0.00000045
-0.14647893 -0.46928294 0.00000000
-0.57180754 0.00492044 0.51487395
-0.38708540 -0.14811596 0.34854331
-0.29126524 -0.33954182 0.26226327
-0.13575282 0.10206234 0.12223559
-0.23829134 0.41971718 0.21456406
-0.44537985 -0.28081677 0.00000000
-0.28323548 -0.51519389 0.25503305
-0.32362950 0.45484623 -0.00000045
-0.77472080 -0.15116210 -0.00000162
-0.09939631 -0.31672930 0.00000000
-0.39093726 -0.48090330 0.35201071
-0.50314497 0.08736975 0.45304765
-0.03278692 0.67082448 0.02952052
-0.29541664 -0.39931997 0.26600130
-0.52569361 0.24362072 -0.00000126
-0.72628595 -0.65095161 -0.00000037
-0.43619791 -0.73490300 0.39276465
-0.03403238 -0.38226220 0.00000000
-0.19510214 0.07291832 0.17566593
-0.33774846 0.20615714 0.30411671
-0.32652658 0.34278088 0.29401534
-0.68671887 -0.60459492 -0.00000045
-0.26164143 -0.25286631 0.23558918
-0.21821491 -0.30081155 0.19648674
-0.04066689 -0.69649944 0.00000000
-0.11655447 -0.37930613 0.00000000
-0.34730448 0.05926473 -0.00000017
-0.27124427 0.31659330 0.24423461
-0.24966281 -0.14813782 0.22480329
-0.14544951 0.47602050 0.13096460
-0.43750309 0.01772380 0.39393784
-0.13656924 -0.12634673 0.12297072
-0.54152714 -0.35624747 -0.00000027
-0.39477941 0.17765245 -0.00000058
-0.24356328 0.23545025 0.00000475
-0.31939178 -0.58032915 0.28758919
-0.21330746 -0.52891402 0.19206793
-0.13881161 0.41386604 0.00000000
-0.14881078 -0.62169345 0.00000000
-0.09987721 -0.20908142 0.08993220
-0.04697577 -0.68622982 0.00000000
-0.24248955 0.30856192 0.21834517
-0.17393326 0.02898266 0.00000000
-0.38329655 -0.39339597 0.00000000
-0.36016704 -0.39043140 0.32430436
-0.40945024 -0.47126800 0.00000000
-0.25168629 -0.75151485 0.00000000
-0.17376738 0.18297912 0.00000000
-0.02094236 -0.09983958 0.01885708
-0.18069056 -0.06003927 0.16269877
-0.25622826 0.05282527 0.23070709
-0.59340026 -0.45896577 -0.00000031
-0.43161642 -0.26055399 0.00000000
-0.10841713 0.23037402 0.00000000
-0.26594574 -0.13267345 0.23946489
-0.26572961 -0.70180412 0.23927028
-0.73354160 -0.50027813 -0.00000075
-0.70684751 -0.07244221 -0.00000147
-0.25227482 -0.54986138 0.00000000
-0.10210761 -0.66813613 0.09194051
-0.00878123 0.25981686 0.00790687
-0.00303805 0.05302677 0.00272049
-0.10177849 0.34654384 0.00000000
-0.29021150 0.13228265 0.00000558
-0.19669237 -0.13948956 0.00000000
-0.51352594 -0.61773161 0.46239369
-0.49658406 -0.00499454 0.44714040
-0.25227952 0.38789226 -0.00000035
-0.10404224 0.31163397 0.09367544
-0.33448352 -0.07887252 0.30117882
-0.05113938 -0.77313510 0.04604731
-0.51213518 -0.19299807 0.46114266
-0.41699916 -0.62377741 0.00000000
-0.21557454 -0.52865093 0.00000000
-0.16924108 0.34863479 0.15238510
-0.23764350 -0.38085604 0.21398078
-0.77365632 -0.18412471 -0.00000154
-0.02798960 -0.69386189 0.02520261
-0.11291381 0.44107172 0.10167074
-0.02472474 -0.33520107 0.02226284
-0.02201413 0.54350457 0.00000352
-0.59172878 -0.65611399 0.53281073
-0.75016928 -0.24711478 -0.00000135
-0.19983364 -0.55916264 0.00000000
-0.41238773 -0.15959404 0.37132644
-0.03124005 0.26640535 0.02812940
-0.29143928 0.20871920 0.00000428
-0.02311433 -0.30075800 0.00000000
-0.33847671 0.11954048 0.30477503
-0.42581766 0.25318560 0.00000096
-0.15416363 -0.50715136 0.00000000
-0.74788024 -0.62137109 -0.00000045
-0.24098496 0.02821941 0.21698047
-0.26998475 0.35677886 0.24310301
-0.03599803 0.09209497 0.00001008
-0.24909290 -0.23199154 0.22429013
-0.10505426 -0.19687169 0.00000000
-0.36269228 -0.59633706 0.32657815
-0.59435760 -0.28603262 0.53517869
-0.07226932 0.05338550 0.06506014
-0.44934307 0.17581114 -0.00000081
-0.26152071 -0.47525658 0.23548047
-0.08029834 -0.31997814 0.07230284
-0.58118259 -0.57068967 0.52331469
-0.53402292 -0.50680236 0.48085028
-0.55037865 0.05239061 0.00000192
-0.51082249 -0.28450512 -0.00000026
-0.05539917 0.40384462 0.00000511
-0.37084564 0.23558037 -0.00000058
-0.32559986 -0.19082952 0.29317931
-0.00457640 -0.57130385 0.00412072
-0.07905021 0.21440366 0.07117899
-0.56026298 -0.03071950 -0.00000092
-0.13967944 0.33035262 0.12576551
-0.21348298 -0.72010824 0.00000000
-0.02696777 -0.55666155 0.02428253
-0.10366036 0.14881295 0.09332828
-0.68144115 -0.46423560 -0.00000067
-0.26960576 -0.23600030 0.24276047
-0.39678750 -0.14136117 0.35727946
-0.18208416 0.51135300 0.16395451
-0.36593324 0.11928625 0.32949790
-0.77223192 -0.68405753 -0.00000029
-0.47866816 -0.04560821 -0.00000055
-0.08876399 -0.46948669 0.07992555
-0.20875063 0.19760891 0.00000000
-0.28831524 0.11429168 0.25960775
-0.49869219 -0.46056736 0.44903729
-0.23668288 0.19401340 0.21311629
-0.09155944 0.63884543 -0.00000011
-0.24647325 0.27196690 0.22192815
-0.17038553 0.09491125 0.15341018
-0.11739035 -0.12286228 0.00000000
-0.31284233 -0.57651541 0.28169188
-0.18835087 -0.22232350 0.16959632
-0.32906724 0.14983396 -0.00000026
-0.07265774 0.41436988 0.06541720
-0.07072580 0.52529663 0.06367982
-0.02178758 0.51761808 0.00000391
-0.32363512 0.19610326 0.29140791
-0.44208651 -0.22621406 0.39806812
-0.08390110 -0.08253123 0.07554687
-0.05307562 -0.74343020 0.04779076
-0.08935720 0.28636509 0.08045969
-0.02344826 0.75604223 0.00000028
-0.33391882 0.37923429 -0.00000068
-0.29706325 0.32444855 -0.00000043
-0.07243825 0.35020570 0.06521826
-0.47136906 -0.67905012 0.00000000
-0.05098439 -0.14462767 0.04590775
-0.47327281 -0.32412154 -0.00000003
-0.14989879 0.43819434 0.13497339
-0.13819939 0.46716539 0.12443591
-0.57702745 -0.31622855 -0.00000049
-0.78232467 -0.03080562 -0.00000187
-0.32249811 0.05316797 0.00000628
-0.56923393 -0.29423835 0.51255626
-0.18415588 -0.73872630 0.00000000
-0.32263361 -0.25774083 0.00000000
-0.18482433 -0.06129875 0.00000000
-0.16310300 -0.36522427 0.00000000
-0.08476426 0.64138806 0.07632443
-0.45705607 0.05688616 0.41154811
-0.27427473 0.46818055 0.00000028
-0.52175227 -0.07532816 -0.00000068
-0.72368935 -0.66592696 -0.00000034
-0.12512681 -0.36833917 0.00000000
-0.02625342 0.22464585 0.00000000
-0.03331172 0.36636890 0.02998691
-0.33350215 0.29887393 0.30029522
-0.58774013 -0.55696042 -0.00000011
-0.47333751 0.19165227 -0.00000094
-0.54760954 -0.13379903 0.49308527
-0.20679544 0.08818429 0.18619553
-0.24108564 -0.18587813 0.00000000
-0.58491379 -0.06178956 0.52667562
-0.10453982 0.25752876 0.00000000
-0.37716192 0.05139553 0.33960843
-0.42168098 -0.41418633 0.37969367
-0.57396231 -0.17581861 0.51681417
-0.21688061 0.48133707 0.00000116
-0.06062758 -0.45614876 0.05459075
-0.49172509 -0.10065466 0.44276493
-0.25854695 0.05422825 0.23279502
-0.55181632 -0.57258219 0.49687206
-0.20054643 -0.59240136 0.18057755
-0.51216287 -0.64598612 0.00000000
-0.34854255 -0.52285669 0.00000000
-0.03924603 0.28180858 0.03532878
-0.19853619 -0.35534325 0.00000000
-0.39233402 0.03647936 0.35326991
-0.43037234 -0.78037158 0.38751914
-0.57799825 0.18552268 -0.00000084
-0.12060907 0.63351489 0.00000046
-0.04600072 0.62152591 0.04142032
-0.32415380 -0.35757742 0.29187703
-0.09827189 -0.78660479 0.08848673
-0.39217908 0.11580303 0.00000390
-0.59293764 -0.54077480 0.53389951
-0.28382138 0.48804428 -0.00000024
-0.41707284 -0.14729499 -0.00000011
-0.10634470 -0.35835706 0.09575570
-0.26852935 0.42090539 -0.00000048
-0.20832055 0.01380336 0.18756731
-0.75654153 -0.48855533 -0.00000078
-0.13339861 -0.19246677 0.00000000
-0.45703513 -0.39240471 0.41152793
-0.32989560 0.27463309 0.29704873
-0.07409272 0.28439868 0.00000662
-0.14172183 0.25634220 0.12761025
-0.42891052 0.35141028 -0.00000104
-0.40645165 -0.34911530 0.00000000
-0.46108355 0.12112617 0.41517480
-0.34145516 0.07867042 0.30745150
-0.15135447 -0.69261058 0.00000000
-0.39539649 0.01684336 -0.00000030
-0.23706499 0.26743712 0.21345624
-0.00969086 0.75504413 0.00872527
-0.39028512 0.33067240 0.00000034
-0.15273757 0.16259200 0.00000000
-0.21312309 -0.68070741 0.00000000
-0.36464968 0.17966554 0.32833969
-0.38761893 -0.67367091 0.00000000
-0.45027076 0.10319167 -0.00000069
-0.08145026 -0.69342954 0.07334006
-0.03134555 0.67377902 0.00000142
-0.39093592 0.00126737 0.35201090
-0.27728019 0.15949439 0.24966609
-0.21314547 -0.72187874 0.19192207
-0.36329620 0.00033947 -0.00000014
-0.73867512 -0.61524266 -0.00000046
-0.65436943 -0.05707250 -0.00000128
-0.03579299 -0.31318399 0.03222900
-0.02255252 0.17876277 0.00000000
-0.58876790 -0.01851337 -0.00000107
-0.18586400 0.49028580 0.00000160
-0.64045566 -0.75405950 0.00000000
-0.52664007 0.00051529 0.47420213
-0.63935850 -0.65556674 -0.00000016
-0.29721037 -0.42296444 0.00000000
-0.01290009 0.05168516 0.00001103
-0.37571840 0.10487367 0.00000440
-0.32937318 0.25006168 0.29657826
-0.07134836 0.20396167 0.00000786
-0.07982146 0.56501850 0.07187093
-0.30958464 0.00317964 0.00000000
-0.02821302 -0.07266331 0.02540378
-0.21225260 0.47727797 0.00000131
-0.26298577 0.40948805 0.23680103
-0.25263006 0.08834771 0.22747541
-0.62913266 0.01706694 0.00000100
-0.15176433 0.16687435 0.00000721
-0.01992796 -0.78529739 0.01794369
-0.44322721 -0.63214299 0.00000000
-0.09245426 -0.52170465 0.00000000
-0.09610321 0.35281962 0.08652754
-0.74540798 -0.76690040 -0.00000008
-0.02150119 0.74862401 0.01936032
-0.09005706 0.21143958 0.00000747
-0.51218277 -0.57379362 0.00000000
-0.73730960 -0.29479272 -0.00000121
-0.28534641 -0.55787245 0.00000000
-0.38747249 -0.40654865 0.00000000
-0.29082018 -0.30897195 0.00000000
-0.08195901 0.00872127 0.07378435
-0.01207340 0.14246886 0.01087122
-0.07941919 -0.48044893 0.00000000
-0.32779413 -0.21320695 0.29515504
-0.01427488 -0.69153262 0.01285349
-0.33768911 -0.34998275 0.00000000
-0.32267913 -0.22319951 0.29054927
-0.47852949 -0.54691019 0.43088180
-0.10955856 0.14143227 0.00000000
-0.08461890 0.38963864 0.00000000
-0.20331101 0.49004418 0.18306789
-0.74037466 -0.15840705 -0.00000147
-0.25055025 0.15420407 0.22560286
-0.07184972 0.65961032 -0.00000006
-0.74528504 -0.22466054 -0.00000137
-0.06634719 0.30698500 0.05974084
-0.14891728 0.03971828 0.13408923
-0.09735322 -0.24140635 0.08765953
-0.43972991 -0.35716545 0.00000000
-0.24934884 0.17988513 0.00000554
-0.30092801 0.18286961 0.27096065
-0.00896577 0.32336773 0.00806361
-0.12994889 -0.12976858 0.00000000
-0.39213193 -0.26620578 0.35308704
-0.56238071 0.19450834 -0.00000069
-0.37038967 -0.01932069 0.33351023
-0.54683397 -0.04813943 0.49238717
-0.53388853 -0.44427693 0.48072943
-0.50107566 -0.60661881 0.00000000
-0.44642254 -0.14806896 -0.00000023
-0.74529045 -0.78743728 -0.00000003
-0.05970033 -0.33435921 0.00000000
-0.20996779 0.06614779 0.18906080
-0.06189690 0.61294881 0.00000187
-0.17116678 -0.51425186 0.00000000
-0.53533814 -0.47152225 0.48203464
-0.22037064 0.26785451 0.19842358
-0.06511621 -0.47567381 0.00000000
-0.09938312 0.24416943 0.08947875
-0.40829128 -0.61945810 0.36763675
-0.06733206 0.45723693 0.06062764
-0.25656595 0.30824276 0.23102009
-0.17439592 -0.29647438 0.15703090
-0.12793781 0.55957431 0.00000156
-0.24277683 0.51045210 0.00000017
-0.37517953 -0.12870305 0.33782287
-0.39583710 0.05217403 0.35642426
-0.24272160 0.01825505 0.00000806
-0.32952950 -0.42658845 0.00000000
-0.17659150 -0.03666168 0.15900787
-0.30102299 0.06003505 0.27104333
-0.51336195 0.06679339 0.46224806
-0.28322345 -0.08675053 0.25502232
-0.15228967 -0.79045683 0.13712583
-0.25028631 -0.63983932 0.22536471
-0.48584882 -0.11293871 -0.00000046
-0.10702626 0.55939470 0.09636776
-0.33090072 -0.23681807 0.29795227
-0.09505246 -0.14431119 0.08558786
-0.49240442 0.19608765 0.00000063
-0.29112981 0.35867487 0.26214282
-0.42136038 -0.26811333 0.37940542
-0.65416463 0.14297588 -0.00000159
-0.22150875 -0.10853127 0.00000000
-0.26085768 -0.05803438 0.23488346
-0.11039176 0.35503785 0.00000501
-0.01235505 0.01302141 0.00000000
-0.18395228 -0.30182006 0.00000000
-0.57475199 -0.34156572 0.51752484
-0.10210393 0.10896455 0.00000000
-0.17863440 -0.28140943 0.00000000
-0.07911150 -0.66595420 0.00000000
-0.57556207 -0.64089991 0.51825357
-0.05070868 0.71391551 0.04565936
-0.02340215 0.31245170 0.02107194
-0.16104634 -0.66546615 0.14501057
-0.50638192 -0.62911094 0.45596091
-0.65115002 -0.72793687 -0.00000008
-0.12224636 0.00088311 0.11007400
-0.27054981 0.39263779 -0.00000043
-0.12818464 0.40427917 0.11541652
-0.24958614 -0.34689125 0.22473425
-0.12046606 0.07526603 0.00000000
-0.48615892 -0.06153078 -0.00000055
-0.38072242 0.14986456 0.34281473
-0.27364538 0.13295736 0.24639246
-0.58990951 -0.23828214 0.53117356
-0.15098810 -0.66897195 0.00000000
-0.09404832 -0.02878165 0.00000000
-0.38460259 -0.11280558 0.34630779
-0.15179361 -0.39641166 0.00000000
-0.31928092 0.03762389 -0.00000001
-0.44528674 -0.07527244 0.40095018
-0.32405631 0.27227172 0.29178895
-0.26009680 0.22535483 0.23419459
-0.24075242 0.09045293 0.00000701
-0.52911320 -0.71522856 0.00000000
-0.11281289 0.54215116 0.10157801
-0.42366743 -0.49920122 0.00000000
-0.54235569 0.02834540 0.48835499
-0.17453317 -0.61724964 0.15715449
-0.76628741 -0.03563088 -0.00000179
-0.13857053 0.35058043 0.12477274
-0.29511869 -0.34122580 0.26573302
-0.11032663 -0.64612954 0.09934115
-0.37691355 0.11166114 0.33938496
-0.61348578 0.06876489 0.00000043
-0.43100897 -0.18714121 -0.00000009
-0.22760194 -0.02044721 0.20493907
-0.25245148 0.41709570 0.22731471
-0.12517749 0.19844776 0.00000000
-0.17150063 -0.09577237 0.15442390
-0.10698177 0.60644644 0.09632879
-0.42554530 0.24254734 -0.00000083
-0.40175353 0.01324326 0.36174652
-0.05389119 -0.32095465 0.00000000
-0.14649215 -0.65422027 0.13190558
-0.59454104 -0.46146765 -0.00000031
-0.17719249 0.08760977 0.15954901
-0.53105446 -0.07979553 -0.00000071
-0.58767051 -0.54863708 0.52915674
-0.15403363 -0.69588154 0.00000000
-0.15390393 0.28669312 0.13857935
-0.43416170 -0.63468956 0.39093119
-0.16002830 0.29227254 0.14408801
-0.00666145 -0.13871665 0.00599815
-0.13302778 0.39013460 0.00000000
-0.02722911 0.36359075 0.02451784
-0.08994203 -0.63782469 0.08098629
-0.59012962 -0.78618901 0.00000000
-0.29749345 -0.24536623 0.26787133
-0.24843050 0.27379633 -0.00000013
-0.22412223 0.09456527 0.00000000
-0.07274816 0.34103407 0.00000579
-0.45362545 0.13895338 0.00000233
-0.52801702 -0.14503585 -0.00000058
-0.31527688 -0.17724770 0.00000000
-0.25396832 -0.01543775 0.00000000
-0.28334589 -0.52900658 0.25513246
-0.48209843 -0.70909860 0.00000000
-0.20225161 0.40517974 0.18211371
-0.53957374 0.01720984 -0.00000092
-0.18978839 -0.76724372 0.00000000
-0.53618546 -0.58315701 0.00000000
-0.49934636 0.22789733 -0.00000112
-0.20385055 0.07940458 0.18354361
-0.61374487 -0.32307723 -0.00000063
-0.67409866 -0.35415666 -0.00000084
-0.21511996 0.24930409 0.19369509
-0.26814915 0.35323203 0.24144842
-0.52226009 -0.52439103 0.47025852
-0.02516382 -0.71447798 0.00000000
-0.04725585 0.22642605 0.04254014
-0.39822993 0.37041499 -0.00000094
-0.01988512 0.07400412 0.01789094
-0.39260422 -0.01355855 0.35351306
-0.25991270 0.35216611 0.23403376
-0.76495317 -0.16425916 -0.00000156
-0.10883732 0.11412714 0.00000000
-0.09923704 -0.31701700 0.00000000
-0.19528807 -0.01434377 0.00000000
-0.16414075 0.42303883 0.14779733
-0.00193931 0.75059837 0.00000071
-0.18758060 -0.13158051 0.00000000
-0.11039749 -0.36796743 0.09940495
-0.24313473 -0.17427834 0.21892522
-0.31119925 0.07660868 0.00000611
-0.46704092 -0.30075287 -0.00000005
-0.05388203 -0.33740751 0.04851687
-0.16255564 0.22616751 0.14636959
-0.76464158 -0.10315931 -0.00000167
-0.10008930 0.44648696 0.09011873
-0.25807328 -0.21770171 0.00000000
-0.26432674 0.33774352 0.23800612
-0.36436690 -0.25797919 0.00000000
-0.05239130 0.30983286 0.04716607
-0.58963226 0.16736601 -0.00000076
-0.46005923 -0.13087848 -0.00000032
-0.19622617 -0.57853198 0.00000000
-0.47189150 -0.33135726 0.42490534
-0.15648913 0.45341572 0.14090762
-0.33280070 -0.19142687 0.29966322
-0.09522898 -0.28423215 0.08574680
-0.24009070 0.37222814 0.00000253
-0.13941552 -0.54870084 0.00000000
-0.24393455 0.31749704 0.00000338
-0.04898455 -0.05363026 0.04410705
-0.31153101 0.14185677 0.00000501
-0.07379072 0.05019726 0.06643002
-0.35818743 -0.47085988 0.00000000
-0.08611995 0.02857342 0.00001027
-0.73614403 -0.36719987 -0.00000108
-0.09332436 0.47861408 0.08402786
-0.77436150 -0.16910245 -0.00000158
-0.42831484 -0.15399169 0.38566781
-0.05451576 -0.77145766 0.04908750
-0.49676349 0.16077132 -0.00000099
-0.24801506 -0.29994194 0.00000000
-0.41921893 -0.03994674 0.37747785
-0.30813912 -0.38951051 0.00000000
-0.20967038 0.26687078 0.18878834
-0.20891900 0.42578038 0.00000224
-0.06616831 0.63590217 0.00000146
-0.42118408 -0.74871147 0.00000000
-0.22031997 0.10631909 0.19838225
-0.65782753 -0.08970414 -0.00000123
-0.53123122 -0.27928243 -0.00000036
-0.54029221 -0.35453562 -0.00000026
-0.26878388 0.43801111 0.00000089
-0.05982205 -0.51769972 0.05386543
-0.31721981 0.00861729 0.28562679
-0.25625964 0.33541846 0.23074435
-0.23135023 -0.27289096 0.20831414
-0.07386675 -0.30100809 0.00000000
-0.69984419 -0.53441442 -0.00000063
-0.24661256 0.06948694 0.00000000
-0.18787557 -0.08417388 0.16916835
-0.58200533 -0.65788838 0.52405532
-0.42562410 0.00298326 0.00000514
-0.21296327 -0.13799847 0.19175801
-0.39667433 0.21814633 0.35717765
-0.43536977 -0.19910772 0.39202021
-0.45912476 -0.29295612 -0.00000003
-0.53246052 -0.62145023 0.47944317
-0.24925549 0.21046484 -0.00000002
-0.08989309 -0.56787727 0.08094222
-0.05599262 0.10547016 0.00000957
-0.34863431 -0.66055261 0.00000000
-0.57961235 -0.31073052 -0.00000051
-0.25228353 -0.72199728 0.00000000
-0.35576770 -0.07448709 0.32034390
-0.30146979 0.17856600 -0.00000019
-0.00170546 0.31108144 0.00000000
-0.51498015 0.07263745 -0.00000091
-0.35766317 0.00695083 0.32204456
-0.36278683 0.16488932 0.32666490
-0.41644124 -0.61133977 0.00000000
-0.24576725 -0.62273447 0.00000000
-0.19637624 -0.73499703 0.00000000
-0.30936855 0.17675962 0.27856092
-0.02508105 0.58369623 0.02257997
-0.20150957 -0.14832387 0.18144478
-0.44679599 -0.27666613 -0.00000000
-0.06114487 0.27593265 0.05505653
-0.21137893 -0.59175215 0.00000000
-0.16261133 -0.28103564 0.00000000
-0.13569439 0.52544649 -0.00000009
-0.53688036 -0.61319662 0.48342299
-0.57588130 0.21879987 -0.00000135
-0.23726069 -0.79622079 0.21363608
-0.56852391 -0.10443196 0.51191743
-0.03359046 0.10906070 0.03024578
-0.38822862 -0.42964886 0.34957187
-0.41829407 -0.51027892 0.37664368
-0.05251012 0.05830929 0.00000000
-0.24755374 -0.40300229 0.22290423
-0.15594416 0.27670993 0.00000550
-0.04019998 0.33692487 0.03619717
-0.18436778 0.17432412 0.00000660
-0.40253161 0.18262045 0.36245110
-0.19016289 0.32546673 0.17122390
-0.20932730 -0.65699492 0.00000000
-0.08719048 0.17657484 0.00000804
-0.01378130 0.25867770 0.01239848
-0.57030456 -0.45912175 0.51351992
-0.46257786 0.10669649 -0.00000075
-0.41785989 0.06717385 0.37625445
-0.03942835 0.56588088 0.03550238
-0.33653954 -0.55251697 0.00000000
-0.43691805 0.06531400 0.39341511
-0.04432862 0.03638735 0.00001079
-0.50631394 -0.50737855 0.00000000
-0.28641741 0.30825690 0.25789729
-0.55413575 -0.26889764 -0.00000048
-0.79033857 -0.44209772 -0.00000089
-0.58354560 -0.15317274 0.52544342
-0.40227558 -0.57005936 0.00000000
-0.32413528 -0.38169630 0.00000000
-0.07561374 -0.11906859 0.00000000
-0.03388718 -0.18838299 0.03051295
-0.37333511 0.16933998 0.00000337
-0.53870651 -0.77168476 0.00000000
-0.37930535 0.09687611 0.00000446
-0.13616913 0.07949028 0.00000875
-0.53330373 0.04756808 0.00000233
-0.62913414 -0.35083305 -0.00000065
-0.21555067 0.03153590 0.19407807
-0.08148067 0.55043302 0.07336465
-0.36809091 -0.75222611 0.00000000
-0.57648020 0.02295951 0.51908193
-0.10252016 0.50305530 0.00000291
-0.39733210 0.16842911 0.35777076
-0.06988131 0.29655230 0.00000650
-0.15812439 -0.65446013 0.00000000
-0.59309099 0.00482768 0.00000189
-0.08707844 0.15643969 0.00000000
-0.39159500 0.25427961 0.35260473
-0.47360842 -0.47426527 0.00000000
-0.10270167 -0.49314824 0.09247542
-0.20890819 0.47551685 0.18810776
-0.22132829 -0.46639792 0.19929011
-0.06411712 0.35441719 0.05773282
-0.16256253 0.63037023 -0.00000039
-0.28841906 -0.28927154 0.25970049
-0.63090921 -0.35842647 -0.00000064
-0.08743817 0.32853012 0.00000575
-0.00298232 0.27460020 0.00000784
-0.27869108 -0.77765628 0.00000000
-0.07873806 0.11321275 0.00000000
-0.09409506 -0.22695874 0.00000000
-0.02340168 -0.39660571 0.02107152
-0.08966547 -0.48741096 0.08073726
-0.49887588 -0.47833752 0.00000000
-0.64549501 -0.26947791 -0.00000086
-0.53685038 -0.58998304 0.48339605
-0.03025024 -0.72677965 0.02723815
-0.23095658 0.06210919 0.20795972
-0.44487823 0.19093667 0.40058292
-0.33160626 -0.07543837 0.00000000
-0.33860974 0.09784770 0.30488974
-0.67564655 0.02591092 -0.00000152
-0.43500892 -0.68097035 0.39169405
-0.35319790 -0.66107951 0.31802915
-0.25991074 -0.68363595 0.00000000
-0.11619215 -0.32260219 0.00000000
-0.31435257 -0.79083996 0.00000000
-0.11148760 0.04982260 0.10038652
-0.34361292 0.06304196 0.30939412
-0.01683340 0.51004820 0.01515726
-0.04486600 -0.54242980 0.04039858
-0.51227122 -0.54181815 0.46126412
-0.67985233 -0.75800936 -0.00000010
-0.23854845 -0.74486076 0.21479561
-0.52247183 -0.55893942 0.47044908
-0.23810785 0.21038310 0.21439397
-0.29051705 -0.76540945 0.00000000
-0.41441975 -0.33258324 0.37315563
-0.33856048 0.21749503 -0.00000042
-0.30315386 0.27928572 0.27296720
-0.79144998 -0.03781553 -0.00000190
-0.52743214 -0.47592751 0.47491577
-0.52928872 -0.69602589 0.00000000
-0.06434191 0.25442066 0.05793523
-0.73832853 0.02200677 -0.00000178
-0.30839641 0.30018989 0.27768841
-0.75744795 0.02776037 -0.00000187
-0.69858772 -0.13863066 -0.00000132
-0.38851672 -0.09239194 0.34983229
-0.15980006 0.36407831 0.14388415
-0.02507211 0.19441813 0.00000000
-0.70989530 -0.11832615 -0.00000141
-0.37926228 -0.59109276 0.34149824
-0.18543139 -0.65040443 0.16696755
-0.39067071 0.30964529 -0.00000080
-0.19533276 -0.02444435 0.17588302
-0.22663887 0.08019698 0.20407195
-0.23023931 0.48021753 0.00000092
-0.00055364 0.56849758 0.00000000
-0.07484337 -0.40487109 0.00000000
-0.07537689 0.02677925 0.06787144
-0.63377689 0.07132815 0.00000000
-0.07370407 -0.05091178 0.00000000
-0.00147104 0.29240060 0.00000000
-0.06692725 -0.01029842 0.00000000
-0.20459019 0.06098814 0.18421866
-0.32695911 -0.47173833 0.29440302
-0.05229588 0.64751675 0.04708704
-0.31081762 -0.17057218 0.27986889
-0.22333586 0.30829945 0.00000392
-0.64776807 -0.78693751 0.00000000
-0.02341602 -0.47592654 0.02108443
-0.00067969 -0.08566898 0.00061201
-0.18803990 -0.24326423 0.16931632
-0.12081045 0.40328026 0.00000413
-0.21971690 0.31923198 0.00000381
-0.04750491 -0.28764708 0.00000000
-0.38255981 -0.22717802 0.00000000
-0.19561441 -0.62633248 0.00000000
-0.29838546 -0.15989487 0.00000000
-0.28444288 -0.32650864 0.25612023
-0.24940235 0.24048638 0.22456951
-0.10224802 0.54643202 0.00000000
-0.16900367 0.59816336 -0.00000036
-0.04693667 0.57424677 0.00000000
-0.39212224 0.14254246 0.00000345
-0.12122491 -0.48112517 0.00000000
-0.44541220 -0.31379704 0.40106244
-0.25170870 -0.11758145 0.22664547
-0.22129810 -0.45844044 0.19926292
-0.05285574 -0.50801895 0.04759277
-0.19822863 0.07344958 0.17849054
-0.14388738 -0.37420277 0.00000000
-0.33461721 0.25369822 0.00000270
-0.24250623 0.08062815 0.21835153
-0.39711572 -0.09097281 0.35757515
-0.19217427 0.08489761 0.17303902
-0.52821881 -0.47795495 0.00000000
-0.46204551 -0.75997848 0.41603855
-0.04285219 -0.48110315 0.00000000
-0.43448702 -0.35515697 0.00000000
-0.04174685 0.29917620 0.03759001
-0.62974538 0.00397792 -0.00000128
-0.11758785 0.56019336 -0.00000008
-0.11621576 0.62579498 0.00000068
-0.19626897 0.16159002 0.17671840
-0.50503464 -0.23518881 -0.00000033
-0.16489289 0.55574996 -0.00000027
-0.65840059 -0.74038140 -0.00000009
-0.40207069 -0.00632751 0.36203705
-0.59888035 -0.38824992 -0.00000046
-0.41247078 0.02524834 0.37140176
-0.03693976 0.12907481 0.03326158
-0.37342102 -0.65151178 0.33623860
-0.00876034 -0.75884301 0.00000000
-0.66193474 -0.67175149 -0.00000022
-0.63352039 -0.56236715 -0.00000030
-0.06892038 0.08757260 0.06205781
-0.01982178 0.17199881 0.01784807
-0.09149302 0.19433306 0.00000000
-0.41414258 0.32288663 -0.00000092
-0.43416156 0.25832038 -0.00000090
-0.13650452 -0.54763005 0.00000000
-0.57750624 -0.48266006 -0.00000020
-0.49930646 0.04726480 0.44959191
-0.15940509 0.57245904 0.14353361
-0.52184016 -0.27527078 0.46988114
-0.27123150 -0.70564311 0.24422433
-0.44027442 0.20986708 0.00000140
-0.13350290 0.38216870 0.00000000
-0.35678101 -0.23637664 0.32125585
-0.00503679 0.02747891 0.00453527
-0.37118788 0.15144674 0.00000371
-0.57569590 0.09621729 0.00000070
-0.65674988 -0.31492019 -0.00000083
-0.68443434 0.01330468 -0.00000153
-0.42835186 -0.18594775 -0.00000009
-0.06249869 -0.29382963 0.05627555
-0.69711622 -0.01432133 -0.00000154
-0.65856129 -0.76088498 -0.00000005
-0.42231262 0.33897543 -0.00000099
-0.27388744 0.35588179 0.24661561
-0.67407558 -0.11856470 -0.00000125
-0.75627736 -0.73065776 -0.00000017
-0.73003490 -0.47171332 -0.00000082
-0.21463331 0.37985162 -0.00000017
-0.73528184 -0.01162054 -0.00000170
-0.23373505 -0.04271465 0.00000000
-0.27431156 0.33739025 0.24699708
-0.03258207 -0.73135309 0.00000000
-0.55822532 0.16525514 -0.00000126
-0.53375491 -0.53166737 0.00000000
-0.19197576 0.53642309 0.00000072
-0.01808071 -0.30271241 0.00000000
-0.11405801 0.28317779 0.00000603
-0.27956667 -0.51166101 0.00000000
-0.24058178 -0.72183887 0.00000000
-0.03472285 0.72716817 0.03126500
-0.02610746 0.34371347 0.00000000
-0.17179889 0.53806647 -0.00000027
-0.71295297 -0.53996372 -0.00000065
-0.69895402 -0.16760799 -0.00000127
-0.49809041 0.05636613 -0.00000081
-0.11874359 -0.37541027 0.10692001
-0.42580598 -0.18323697 0.38340865
-0.63562247 -0.27268946 -0.00000082
-0.57735323 -0.46836341 -0.00000022
-0.19147566 -0.27328538 0.17240997
-0.00385440 0.14887202 0.00345752
-0.17227197 0.19247106 0.15511082
-0.37405321 -0.53292908 0.00000000
-0.00285406 0.12057504 0.00255619
-0.39496469 0.13067289 0.35563894
-0.12104257 0.60281092 0.10898996
-0.22009900 0.13560173 0.00000664
-0.03967074 0.54945700 0.03572063
-0.45416714 0.11223800 0.00000277
-0.09539089 -0.62452056 0.00000000
-0.25179485 0.19056279 0.22671817
-0.04069441 -0.10156440 0.00000000
-0.19653471 -0.64726819 0.17696529
-0.13612709 -0.39501781 0.12257259
-0.20687456 -0.79698791 0.00000000
-0.08461096 -0.13181051 0.07618605
-0.78862799 -0.33706876 -0.00000116
-0.14433381 -0.41382756 0.12996215
-0.32252008 -0.59212558 0.29040599
-0.54112303 -0.50286739 -0.00000001
-0.60542426 0.14493216 -0.00000068
-0.42923366 0.13364639 0.38649601
-0.05158911 0.04503211 0.04643837
-0.06341547 -0.48469266 0.00000000
-0.12233168 0.04717047 0.11013890
-0.13574930 0.02063895 0.00000964
-0.30575319 0.23863788 0.27530686
-0.22303880 0.48062859 0.00000105
-0.53595701 -0.44788058 -0.00000008
-0.25185202 0.14285278 0.22677499
-0.05960689 0.09280481 0.05365899
-0.52477611 -0.42164712 0.47252435
-0.26893813 -0.07731145 0.00000000
-0.40703258 0.19192405 0.36650428
-0.27731182 0.07390712 0.00000000
-0.74978136 -0.65833839 -0.00000035
-0.64659718 0.10024550 -0.00000073
-0.55636335 -0.23847091 0.50096721
-0.32876526 0.30315476 -0.00000052
-0.07557560 0.51643413 0.00000000
-0.42385828 -0.31134578 0.38165449
-0.56355671 -0.05407797 -0.00000090
-0.11349931 -0.78731739 0.00000000
-0.47354037 -0.04050760 0.42639091
-0.38578654 0.14690641 0.34737464
-0.39920124 0.05082474 0.35945345
-0.38163425 -0.41430842 0.34363410
-0.30052095 -0.09666731 0.00000000
-0.66899742 -0.32804608 -0.00000086
-0.45180758 0.17719066 0.40682253
-0.50824720 0.22398026 -0.00000115
-0.25780252 -0.62923800 0.00000000
-0.09629926 -0.46357169 0.08671051
-0.06851946 0.25921607 0.06169681
-0.10700038 -0.55712628 0.09634609
-0.74550688 -0.74751474 -0.00000013
-0.03690609 -0.09683344 0.03323126
-0.40173362 -0.21815528 0.36173290
-0.18045311 -0.25245194 0.00000000
-0.50569894 -0.51209221 0.45534628
-0.22053915 0.38327107 0.00000273
-0.48176939 0.14813770 -0.00000090
-0.18484378 -0.77761770 0.16643845
-0.17295821 0.39228245 0.15573681
-0.42220088 -0.35445875 0.38016198
-0.08834381 0.05079847 0.07953443
-0.39894128 -0.79941988 0.35921775
-0.05891761 0.31556461 0.00000000
-0.02817574 0.17471870 0.02537021
-0.31118215 0.27627732 0.28019632
-0.35215423 -0.51658833 0.31708940
-0.25005685 0.16241886 0.22515861
-0.09775438 -0.11781733 0.00000000
-0.39992799 -0.29872808 0.36010681
-0.25799881 0.22714616 0.00000461
-0.06313618 -0.28397853 0.00000000
-0.13435879 0.07963693 0.12096942
-0.15536547 -0.31336424 0.13989536
-0.19527752 -0.29944958 0.00000000
-0.24316361 0.16986926 0.21894556
-0.23148231 0.11850324 0.00000000
-0.24290434 0.22507493 0.21871338
-0.14148477 -0.41576448 0.00000000
-0.51897621 -0.25785370 0.46730238
-0.22614156 0.22275173 0.00000000
-0.07294138 0.64800305 0.06567868
-0.55172267 -0.36527781 0.49678821
-0.15912085 0.12216945 0.00000777
-0.45540566 0.02776633 0.00000415
-0.21988976 0.20787412 0.19799518
-0.38099947 -0.02529488 -0.00000017
-0.55639733 -0.70241798 0.50099669
-0.32213656 -0.23695210 0.29006069
-0.08042743 0.28297475 0.00000000
-0.72940742 -0.33581979 -0.00000111
-0.06013079 0.29450503 0.00000000
-0.19330136 -0.15294510 0.17405389
-0.23197534 -0.39085120 0.00000000
-0.63078077 -0.03002374 -0.00000122
-0.31755812 -0.64593329 0.00000000
-0.37460672 -0.56498541 0.33730625
-0.49336821 0.05589758 0.44424492
-0.33440270 -0.60278421 0.30110543
-0.12561017 0.31734736 0.00000534
-0.51012579 -0.18250678 0.45933336
-0.57724401 -0.35172385 0.51976874
-0.56042586 0.01695785 0.50462601
-0.36247606 -0.18413202 0.32638404
-0.04929835 0.28917825 0.04438960
-0.10674090 -0.51792781 0.00000000
-0.45685082 -0.63574190 0.41136124
-0.25346732 -0.58836219 0.22822898
-0.13263547 -0.79899739 0.11942864
-0.32336404 -0.68814615 0.29116592
-0.29512855 0.37929060 0.26574302
-0.56502313 -0.53559713 -0.00000005
-0.00586375 0.44049661 0.00000530
-0.37124349 -0.54337161 0.33427790
-0.18480446 0.33159782 0.00000424
-0.01176791 0.05926856 0.00001093
-0.42874894 -0.61988887 0.00000000
-0.28274854 0.07676817 0.00000658
-0.02013342 0.16196670 0.00000927
-0.47424977 -0.46281731 0.42702842
-0.47869151 -0.31988734 -0.00000006
-0.36875536 -0.48833069 0.33203751
-0.21815379 -0.05716478 0.00000000
-0.59571566 -0.60903255 -0.00000005
-0.28679662 0.16248609 0.25824048
-0.10963916 0.41010892 0.00000000
-0.29375419 0.32373174 -0.00000041
-0.36484522 -0.22733666 0.32851718
-0.15397546 0.46671214 0.13864426
-0.44890964 -0.31911971 0.40421165
-0.16669354 0.28394441 0.00000523
-0.02539122 -0.59608577 0.02286295
-0.03385953 0.22178846 0.03047727
-0.02867880 -0.78279030 0.02582318
-0.32727752 -0.32228587 0.29468972
-0.63378992 0.16370218 -0.00000154
-0.34059920 0.27993123 -0.00000053
-0.12465543 0.12695273 0.00000821
-0.34897862 -0.23190054 0.31423030
-0.02471675 0.62811374 0.02225564
-0.48178505 -0.78980836 0.00000000
-0.59196983 0.10297389 0.00000028
-0.29370595 -0.25402375 0.00000000
-0.09694017 0.25517820 0.00000671
-0.38072141 -0.54223241 0.00000000
-0.21833925 -0.18076255 0.19659869
-0.22884930 -0.13287112 0.20606223
-0.43999141 -0.14922889 -0.00000020
-0.49040479 0.10903591 0.44157607
-0.01589194 0.74543152 0.00000058
-0.25760599 0.05542437 0.23194774
-0.00994717 -0.25849195 0.00895671
-0.29601885 0.18418787 0.26654016
-0.39579836 0.09132215 0.35638592
-0.44503602 0.33614948 -0.00000080
-0.20529747 0.23481210 0.00000538
-0.61460154 -0.74710057 0.00000000
-0.00364494 0.53085869 0.00327665
-0.69821541 -0.03020536 -0.00000151
-0.32352841 -0.72893038 0.00000000
-0.04152911 -0.20356652 0.00000000
-0.46232732 -0.16763741 0.41629388
-0.09535493 0.65553458 -0.00000015
-0.53552933 -0.77215323 0.48220610
-0.08427894 0.39608482 0.00000000
-0.13065730 0.32178867 0.11764131
-0.59894579 -0.12187300 -0.00000093
-0.40201881 -0.48202941 0.36198892
-0.37364220 -0.09173409 -0.00000002
-0.52973663 0.04007895 0.47699139
-0.22731046 0.02856666 0.20466716
-0.11671765 0.16058838 0.00000783
-0.07744812 0.71161112 -0.00000017
-0.00440842 0.54398724 0.00000377
-0.03202491 0.31245822 0.00000000
-0.03657805 -0.28572463 0.00000000
-0.33007094 0.36357459 0.00000095
-0.23938881 0.00831267 0.21555230
-0.04428307 -0.74768493 0.00000000
-0.29140212 -0.07853825 0.26238672
-0.44001043 -0.01558888 -0.00000044
-0.37737805 -0.76904233 0.33980162
-0.35704952 -0.24082209 0.00000000
-0.32146544 -0.50857221 0.00000000
-0.52716098 -0.28551898 -0.00000033
-0.63209848 0.06487014 -0.00000140
-0.34382373 -0.70383081 0.00000000
-0.38479090 0.39550757 -0.00000093
-0.45642065 -0.61340698 0.41097397
-0.51717711 -0.53144982 0.00000000
-0.24107174 0.26012277 0.21706401
-0.38006839 -0.09468523 0.34222509
-0.24150808 -0.74977220 0.00000000
-0.20239962 -0.54564487 0.00000000
-0.20277423 0.23505047 0.00000541
-0.25541217 -0.06778409 0.00000000
-0.70635629 0.06673765 -0.00000132
-0.16904123 -0.10474427 0.15220939
-0.33275942 0.18201887 0.29962369
-0.36487498 0.24984949 0.32854540
-0.24076181 -0.53654004 0.21678859
-0.01966152 0.76863467 0.00000015
-0.54081302 -0.03810142 0.48696571
-0.43251476 -0.67684467 0.00000000
-0.09393321 -0.11822086 0.00000000
-0.11775712 0.05421357 0.10601985
-0.41110317 -0.02924835 -0.00000029
-0.35485632 0.07030929 0.31951857
-0.21220299 0.23812755 0.00000523
-0.33618676 0.44577770 -0.00000081
-0.16176083 -0.49655422 0.14565392
-0.60295275 -0.05639515 -0.00000106
-0.68309617 0.03205564 -0.00000029
-0.32368249 0.26902620 0.29145421
-0.11998788 0.36080311 0.10803476
-0.19031272 -0.76268939 0.00000000
-0.04128850 -0.09704509 0.00000000
-0.14834653 0.18936084 0.13356698
