ply
format ascii 1.0
element vertex 1384
property float x
property float y
property float z
end_header
-0.56335084 -0.36852297 0.07724498
-0.32923743 0.20029308 0.00000235
-0.17516792 0.53911042 0.06533924
-0.09191579 0.28351483 0.00000380
-0.26843699 -0.07897496 0.00000225
-0.22587338 0.46089782 0.08316324
-0.01628906 0.21473336 0.00000317
-0.31987381 0.45045996 0.00000223
-0.61783430 -0.00463328 0.27703903
-0.15399136 0.01401908 0.00000955
-0.67978389 -0.50656178 0.13493627
-0.19792396 -0.12641685 0.00000300
-0.49443681 0.01280727 0.16392852
-0.29963107 -0.50361091 0.00000228
-0.41864223 0.22657559 0.17634722
-0.62611986 -0.44140981 0.00000005
-0.34896277 -0.63781856 0.00000209
-0.64700644 -0.31519121 -0.00000026
-0.04198118 0.71812751 0.00000505
-0.54932208 -0.22117926 0.00000060
-0.61101334 -0.33374327 0.00000010
-0.11022236 0.18239548 0.00000874
-0.06370717 0.30363054 -0.00000382
-0.35656903 -0.22812150 0.00000340
-0.48639180 0.25101042 0.00000140
-0.67721137 0.04534452 -0.00000086
-0.32593665 0.12011196 0.04314779
-0.19798824 0.52591244 0.08223464
-0.30447913 0.35091285 0.11533895
-0.01659470 -0.06402668 0.00000230
-0.54735367 0.02210483 0.21919979
-0.72573248 -0.52718426 -0.00000068
-0.21881389 0.21023784 -0.00000159
-0.41310061 -0.63947622 0.00000050
-0.14250507 0.46058791 0.00000581
-0.32174877 -0.02208790 0.00000243
-0.40390766 -0.24076801 0.00000358
-0.35171204 0.19808891 0.09969591
-0.63705904 -0.68986537 0.01941675
-0.06566651 -0.02464305 0.00000272
-0.27234144 0.39196808 0.00000273
-0.25690071 0.48994214 0.00000331
-0.24041636 0.24360874 0.00969560
-0.40592573 0.09025864 0.00000462
-0.04132654 0.17680251 0.00000305
-0.30067926 0.08769478 0.00549080
-0.20560732 0.33091018 0.00000343
-0.74362753 -0.51519231 -0.00000071
-0.11107526 -0.60649302 0.00000111
-0.24157993 0.26604048 0.01987470
-0.48678885 0.16019504 0.00000087
-0.28104246 -0.51881916 0.00000088
-0.26958100 0.47981924 0.00000268
-0.13823031 0.28745208 0.00000402
-0.53869845 -0.06615878 0.00000057
-0.23528109 0.52887819 0.00000297
-0.46608118 0.05655764 0.00000382
-0.28502718 0.00916022 0.00000762
-0.38729823 0.30476121 0.00000274
-0.74369623 -0.46103871 -0.00000085
-0.04667356 0.56267577 0.00000447
-0.56099296 -0.02756545 0.21245024
-0.10535501 0.23230182 0.00000370
-0.09512736 0.44317267 0.00000000
-0.06235517 0.71576040 0.00000447
-0.12914592 0.14991539 0.00000355
-0.13451945 -0.50336491 0.00000154
-0.44358440 -0.21279248 0.00000160
-0.65089704 -0.79076654 0.00000298
-0.17832902 0.52374635 0.06221960
-0.62685514 0.00211058 0.28854138
-0.42718521 -0.29269755 0.00000159
-0.43176296 -0.45030387 0.00000109
-0.52797829 0.07947495 0.22347427
-0.59859749 0.04478491 0.27823938
-0.43332969 0.00270531 0.10036483
-0.02852546 -0.03120263 0.00000253
-0.08860982 0.02818607 0.00001042
-0.79712282 -0.43127454 -0.00000092
-0.31773667 -0.46116574 0.00000106
-0.41790291 -0.13907576 0.02816803
-0.19013218 0.14424718 0.00000787
-0.15168866 -0.78057484 0.00000006
-0.26382772 0.05143150 -0.00000374
-0.46228365 -0.08112630 0.00000131
-0.41826508 -0.57722089 0.00000070
-0.32413736 0.38599350 0.00000310
-0.46768171 0.03307538 0.00000116
-0.49098888 -0.40971881 0.00000344
-0.08462241 0.08956274 -0.00000780
-0.19940688 -0.30000254 0.00000156
-0.52286318 0.11785539 0.00000209
-0.47910785 0.08840201 0.17949410
-0.28684666 0.45249515 0.00000254
-0.19772202 0.56104344 0.00000370
-0.25557362 -0.42324785 0.00000233
-0.16074399 0.49941492 0.03528775
-0.05651042 -0.45109455 0.00000109
-0.07356861 0.44215217 0.00000702
-0.17963810 -0.06577064 0.00000311
-0.09415584 -0.28703541 0.00000203
-0.22090801 -0.44136899 0.00000212
-0.13632170 0.27210933 0.00000397
-0.77656674 -0.09206184 -0.00000170
-0.11676379 0.52287776 0.00192743
-0.12739678 0.35204640 0.00000700
-0.31395399 0.39314645 0.14159694
-0.11854996 0.35048322 0.00000360
-0.34990380 0.20954205 0.10255046
-0.00593044 0.26959110 0.00000334
-0.23644760 0.32467253 0.03852292
-0.34961606 0.10361229 0.05955486
-0.08745581 0.07901467 0.00000275
-0.76192817 0.00923574 -0.00000137
-0.63438300 -0.63307085 0.03971538
-0.00070874 0.48856074 0.00000403
-0.01483319 -0.43466279 0.00000121
-0.17765865 -0.48335533 0.00000099
-0.23224316 -0.30588491 0.00000260
-0.15202924 0.63545371 0.00000368
-0.25568042 -0.38624228 0.00000129
-0.09574125 0.45150224 0.00000391
-0.52384038 -0.28978454 0.07053112
-0.45731558 -0.63524884 0.00000258
-0.40126772 0.18913576 0.14433008
-0.59162003 -0.09155988 0.21646117
-0.37203251 -0.29563867 0.00000158
-0.44236061 -0.31722635 0.00000351
-0.64322019 -0.09494771 0.26533286
-0.46506851 0.21112845 0.00000104
-0.33602223 0.01416462 0.01023847
-0.14274921 -0.34014501 0.00000144
-0.58091841 0.04277851 0.26021788
-0.04199419 -0.12624977 0.00000211
-0.22667979 0.20483789 0.00000679
-0.37230434 -0.21591134 0.00000351
-0.09806411 0.68710462 0.00000430
-0.24514813 0.19124143 0.00000421
-0.74625984 -0.18710368 -0.00000132
-0.68273606 -0.44285483 -0.00000050
-0.37077394 0.30816656 0.00000302
-0.67382143 0.10064087 -0.00000063
-0.08416906 -0.55170394 0.00000116
-0.02535605 0.49048851 0.00000415
-0.31296969 0.08066222 0.01461252
-0.02333060 0.25718486 0.00000940
-0.43229182 0.03780778 0.11350498
-0.56988680 -0.66946237 0.00000041
-0.19722778 0.33265822 0.00000610
-0.20218660 0.50043602 0.07604695
-0.26340640 0.32332513 0.06422663
-0.42038327 -0.19881402 0.00649174
-0.55607331 -0.67565845 0.00000291
-0.41852697 -0.08185570 0.05185125
-0.55462138 -0.36710674 0.06931711
-0.00868971 0.23710495 0.00000328
-0.42774547 0.21688886 0.00000139
-0.10810466 -0.67895253 0.00000038
-0.41251758 0.16325894 0.14484708
-0.35388058 -0.38534595 0.00000130
-0.52455594 0.11739055 0.23543229
-0.23611565 0.30373433 0.00000316
-0.11695848 0.55442090 0.01484092
-0.19021528 -0.79521977 0.00000088
-0.18541121 0.56581596 0.00000342
-0.41661128 -0.62426641 0.00000055
-0.05025784 0.54793754 0.00000444
-0.24614021 -0.70451983 0.00000030
-0.02720968 0.65402160 0.00000454
-0.64818588 -0.01923431 0.30070105
-0.03576664 0.74848792 0.01405563
-0.37512795 0.05876101 0.06630567
-0.56459975 -0.63375776 0.00000308
-0.37684081 -0.01119512 0.03976150
-0.16698107 0.17702709 0.00000381
-0.06558930 0.58669424 0.00000225
-0.66932900 -0.66304503 -0.00000018
-0.47155675 -0.07352258 0.10684161
-0.32318161 0.34720521 0.00000353
-0.42785353 -0.72200129 0.00000024
-0.51200754 -0.09101731 0.13916925
-0.18050267 0.51844488 0.00000351
-0.67378799 -0.62633353 0.08079721
-0.60741853 -0.03492235 0.25468156
-0.09346592 0.65640071 0.03309484
-0.06845537 0.39155035 0.00000372
-0.50951668 0.17162293 0.00000064
-0.53525016 0.04540401 0.21681208
-0.10034215 -0.34772525 0.00000187
-0.02288088 0.36125822 0.00000849
-0.27112161 0.24275995 0.03924794
-0.70541319 -0.53126262 -0.00000064
-0.20029297 0.05740499 0.00000848
-0.66397401 -0.42054515 0.15423227
-0.01024366 0.37272933 0.00000371
-0.06819247 0.19492463 0.00000342
-0.19323529 0.54549311 0.00000395
-0.35215146 -0.79047681 0.00000003
-0.11054010 -0.35131096 0.00000140
-0.28589355 -0.03138831 0.00000240
-0.16774238 -0.09579902 0.00000220
-0.29181518 0.49499416 0.00000258
-0.59658828 -0.00519649 0.25612677
-0.33790519 0.05724463 0.02944611
-0.14836719 -0.01339254 0.00000313
-0.10696285 0.10478293 0.00000331
-0.16339787 0.13979946 0.00000831
-0.11444038 0.16536833 0.00000302
-0.22589031 0.41769988 0.06576028
-0.15553106 -0.24271405 0.00000245
-0.06660396 0.25279088 0.00000329
-0.13542678 -0.49598513 0.00000095
-0.27856853 -0.60303903 0.00000062
-0.40364195 0.11250132 0.00000444
-0.17988343 -0.57452649 0.00000152
-0.67836481 -0.08302465 0.30435802
-0.37049533 -0.22281476 0.00000180
-0.05521612 -0.12081362 0.00000212
-0.07541133 0.60795985 0.00000554
-0.02257369 0.28097818 0.00000920
-0.62827557 -0.43884341 0.00000002
-0.34738306 -0.36135524 0.00000294
-0.24393617 -0.16458979 0.00000309
-0.07123713 0.26465132 0.00000861
-0.76281169 -0.14577039 -0.00000152
-0.58129784 0.21572025 -0.00000008
-0.54151749 -0.74569557 0.00000017
-0.12647699 0.49029935 0.00000580
-0.59093121 -0.78112852 0.00000006
-0.76472800 -0.09045331 -0.00000158
-0.04512451 0.60375549 0.00000439
-0.23861619 0.27507596 0.02062739
-0.59734032 -0.35194608 0.00000025
-0.35594735 0.08145107 0.00000568
-0.73963140 -0.14832754 -0.00000129
-0.51060373 -0.50658133 0.00000323
-0.06578836 0.71663182 0.00000444
-0.25446599 -0.34177347 0.00000143
-0.55991154 -0.28330440 0.10826331
-0.58148651 -0.62445067 0.00000318
-0.18600233 0.40526491 0.00000555
-0.29691379 0.20197941 0.04791329
-0.00908577 -0.67259045 0.00000044
-0.72476388 -0.15942207 -0.00000114
-0.44030216 0.31088266 0.00000119
-0.26608380 -0.40077763 0.00000125
-0.75402756 0.04394054 -0.00000160
-0.13608861 -0.42541895 0.00000179
-0.38344609 0.01896056 0.05834607
-0.12538686 -0.69131105 0.00000091
-0.17559912 0.11965246 0.00000287
-0.47722193 -0.37048930 0.00000350
-0.24998664 -0.58926573 0.00000066
-0.19874906 0.01544192 -0.00000627
-0.79299236 -0.12338570 -0.00000169
-0.00886275 0.04986898 0.00000270
-0.16919815 0.21792264 0.00000318
-0.69304578 -0.44307764 -0.00000060
-0.60185105 -0.79727854 0.00000001
-0.10202930 0.25780127 0.00000331
-0.68184961 -0.10787886 -0.00000077
-0.23696939 0.12128359 0.00000736
-0.47675428 -0.07283183 0.11218049
-0.42567557 0.24252490 0.18962690
-0.22472092 0.07725530 -0.00000425
-0.33567083 0.41426558 0.00000211
-0.47336898 0.05377580 0.15994271
-0.43115928 0.19525085 0.00000138
-0.24216237 0.10573750 0.00000283
-0.36939360 -0.17911073 0.00000361
-0.46187375 0.02069032 0.13540829
-0.00822109 0.46154369 -0.00000197
-0.02181917 0.10438158 0.00000283
-0.34817123 -0.71165880 0.00000028
-0.33430792 -0.07537104 0.00000226
-0.04525635 -0.41593902 0.00000141
-0.01851315 -0.65882800 0.00000052
-0.03032848 -0.60758333 0.00000060
-0.26736028 0.48756266 0.00000313
-0.33312680 0.00060737 0.00195170
-0.31989704 0.26276176 0.00000239
-0.00669935 0.61002514 0.00000656
-0.09324109 -0.73598440 0.00000062
-0.49921544 0.17000669 0.23198027
-0.01394885 -0.41233775 0.00000121
-0.44222579 0.14949436 0.16822296
-0.06810217 -0.28900776 0.00000191
-0.38252695 0.13946415 0.10605073
-0.51360739 -0.79092353 0.00000235
-0.77652539 -0.68714604 -0.00000028
-0.10017198 -0.10987503 0.00000216
-0.17256009 0.51384260 0.00000359
-0.31793834 0.42032305 0.00000227
-0.42661413 0.12821085 0.00000383
-0.14424993 0.01576516 0.00000320
-0.40961963 -0.13243723 0.02278061
-0.71962878 -0.13039826 -0.00000112
-0.26386766 0.30949949 0.00000506
-0.19556143 0.40049113 0.02928833
-0.15185886 0.53125298 0.03947680
-0.68596029 -0.35678271 -0.00000060
-0.25323791 -0.53187253 0.00000084
-0.32993273 0.41676139 0.00000267
-0.17165443 0.35851990 0.00000028
-0.28349326 -0.25919874 0.00000169
-0.30177641 0.32948336 0.10406716
-0.42303630 -0.64697931 0.00000048
-0.63868330 -0.34557944 0.15984130
-0.34594058 0.35820480 0.15864800
-0.21624771 -0.17004602 0.00000295
-0.27566213 -0.34091146 0.00000143
-0.19232869 0.09183872 0.00000366
-0.01162646 -0.21431551 0.00000183
-0.06164424 -0.09530097 0.00000248
-0.53656177 0.04454334 0.00000259
-0.53873198 -0.70463533 0.00000030
-0.74171300 -0.70146827 0.11662973
-0.19556475 -0.29479461 0.00000158
-0.67776444 -0.04388951 -0.00000079
-0.53620161 0.02128080 0.00000284
-0.09390536 -0.58742226 0.00000066
-0.49834699 0.11819454 0.00000256
-0.41351271 -0.48264280 0.00000099
-0.32775116 0.13128828 0.04942191
-0.45448794 0.18752429 0.19549805
-0.60263212 -0.33783798 0.00000018
-0.60574972 -0.49794700 0.06633059
-0.62504965 -0.00575758 0.28361006
-0.67375357 -0.13712163 0.27805231
-0.06282761 0.42037227 0.00000381
-0.18638994 -0.40470733 0.00000124
-0.20588006 0.33634539 0.01346978
-0.64793092 -0.47368519 -0.00000014
-0.30081950 0.24740750 0.07003171
-0.54800268 -0.23211916 0.00000062
-0.22978987 -0.69457580 0.00000033
-0.33166391 -0.51403430 0.00000089
-0.07722528 0.31202351 0.00000810
-0.19441258 -0.12776932 0.00000210
-0.63147516 0.14263691 -0.00000025
-0.00072101 0.51791607 0.00000412
-0.44358128 -0.00476088 0.00000143
-0.36434309 0.41984659 0.00000183
-0.52956936 -0.41918600 0.02392401
-0.39791987 0.01696439 0.00000185
-0.44551205 0.16942630 0.00000304
-0.47932501 -0.57971935 0.00000286
-0.50926840 0.02305859 0.18250681
-0.20344947 -0.66311020 0.00000043
-0.12258037 0.64633118 0.00000395
-0.58309619 -0.52797242 0.00000053
-0.66215536 -0.27521435 0.21107045
-0.05383401 -0.76446332 0.00000011
-0.48637711 -0.38597459 0.00000350
-0.07944032 -0.12249445 0.00000248
-0.73872522 -0.14844866 -0.00000129
-0.05403853 0.14513287 0.00000320
-0.12983480 0.46854962 0.00000396
-0.68074411 -0.20592302 0.25711228
-0.64142668 -0.48004163 -0.00000007
-0.35380311 0.33124052 0.15542841
-0.38110630 0.39694846 0.00000168
-0.69407425 -0.22058565 -0.00000079
-0.11678364 -0.53272943 0.00000136
-0.15756809 0.43236386 0.00000582
-0.31874992 0.16183178 0.05297633
-0.07672155 -0.62490173 0.00000055
-0.29180934 -0.13802771 0.00000339
-0.37547843 0.24619771 0.00000358
-0.31735727 -0.67382415 0.00000183
-0.32391552 0.02442146 0.00259683
-0.52117394 -0.20971046 0.10022724
-0.34392555 0.05650945 0.03501122
-0.00939829 0.09076371 0.00000278
-0.20283921 -0.43051198 0.00000115
-0.35732666 -0.77766993 0.00000169
-0.08599778 -0.50872263 0.00000130
-0.27538001 0.38535472 0.10089935
-0.68704291 -0.51137958 0.14006084
-0.17371206 -0.00869980 0.00000247
-0.16525787 -0.74863511 0.00000091
-0.06519216 0.11491103 0.00000315
-0.70401460 -0.35784962 -0.00000077
-0.15725864 0.19892680 -0.00000350
-0.39461693 0.23747880 0.00000169
-0.18928664 0.34831808 0.00214275
-0.43239592 0.05608180 0.12098131
-0.25802230 0.53286517 0.00000275
-0.45820906 0.12281536 0.17302271
-0.06051726 0.41607195 -0.00000151
-0.04254825 0.15134362 -0.00000763
-0.06829098 0.69724101 0.00000443
-0.37303390 0.24259774 0.00000189
-0.32681228 0.15212710 0.05691216
-0.62896259 -0.75895828 0.00000298
-0.52384494 -0.39431641 0.02838009
-0.36659402 -0.23326009 0.00000343
-0.23517726 0.18992733 -0.00000158
-0.01546604 -0.26736322 0.00000166
-0.59751883 0.17081883 0.00000010
-0.45621354 -0.07790620 0.09013564
-0.28400380 -0.07927010 0.00000225
-0.06707986 0.48175773 0.00000401
-0.03068938 -0.54017113 0.00000081
-0.48157868 0.03175513 0.15905118
-0.65528004 -0.66405018 0.04756744
-0.17041615 0.05019073 -0.00000630
-0.05800667 -0.28822408 0.00000186
-0.46238900 0.17800964 0.19935250
-0.48781481 -0.32302795 0.00000127
-0.37009803 -0.33330469 0.00000313
-0.52804831 0.10712603 0.23469286
-0.15997643 0.19973832 -0.00000341
-0.52636407 -0.39967350 0.02867231
-0.56661430 -0.58372369 0.00000068
-0.09877240 0.48687032 0.00000625
-0.40405864 -0.54809914 0.00000262
-0.59661323 -0.42866753 0.08537423
-0.41071338 0.09496513 0.11554730
-0.27847836 -0.57845346 0.00000069
-0.68039937 -0.00108198 -0.00000085
-0.61030887 -0.35556896 0.12818740
-0.34383081 0.22260260 0.10190498
-0.18324673 0.21132900 0.00000399
-0.33965085 -0.64722979 0.00000201
-0.61152226 -0.48299873 0.07797904
-0.16033464 -0.16176264 0.00000272
-0.03731037 -0.67782335 0.00000038
-0.01283921 -0.74695401 0.00000022
-0.16913866 -0.28834198 0.00000236
-0.43702967 0.29386844 0.00000190
-0.29464733 -0.42176604 0.00000118
-0.40624301 0.13302977 0.12655030
-0.61816641 0.16002100 -0.00000039
-0.01535864 -0.70196768 0.00000031
-0.07701897 0.50010059 0.00000072
-0.24665445 0.22905744 0.00000312
-0.29570942 -0.70067300 0.00000031
-0.21619088 0.51424186 0.00000317
-0.69407452 -0.70094000 0.07046128
-0.45506092 -0.69377897 0.00000239
-0.05593657 0.58690572 0.00000459
-0.03752420 -0.50882645 0.00000091
-0.12029408 -0.16532418 0.00000198
-0.03471617 -0.04870585 0.00000235
-0.28895118 0.16752152 0.02626476
-0.04163871 0.02018310 0.00000275
-0.49560607 -0.70974253 0.00000028
-0.18956608 0.09444960 0.00000280
-0.58429628 -0.61756234 0.00000322
-0.05291468 -0.42037224 0.00000119
-0.25649182 0.05620109 0.00000384
-0.32918515 0.03048997 0.00000672
-0.27978109 -0.19602905 0.00000315
-0.29606156 0.01448282 0.00000389
-0.46249807 0.16375059 0.00000110
-0.18545272 -0.53709548 0.00000082
-0.02822866 0.70971196 0.00000485
-0.07715691 -0.77677924 0.00000007
-0.05125182 0.69649252 0.00816336
-0.32543512 0.28611969 0.00000231
-0.72835402 -0.74238767 -0.00000014
-0.10010973 0.48155800 0.00000628
-0.53274351 0.25244747 0.00000049
-0.60575003 0.10966840 -0.00000023
-0.46701282 -0.04742691 0.00000124
-0.39170406 0.07233170 0.00000186
-0.39623051 -0.20318354 0.00000366
-0.38293829 0.28679145 0.16586963
-0.52741354 -0.10477873 0.14861885
-0.04900125 0.10896219 0.00000284
-0.22585387 -0.01732437 0.00000347
-0.23842622 -0.19617475 0.00000189
-0.23773908 0.00465207 -0.00000544
-0.26984854 -0.20238018 0.00000309
-0.63086327 -0.01935849 0.28378567
-0.47652339 -0.23768293 0.04547476
-0.28875990 -0.13682879 0.00000207
-0.57086775 -0.58376345 0.00000068
-0.06343291 0.38303373 0.00000398
-0.30483357 -0.09514153 0.00000358
-0.43065072 0.22242476 0.18636475
-0.20142901 0.53465536 0.08911012
-0.44226154 -0.03187292 0.09511621
-0.10678370 0.48399273 0.00000401
-0.25875237 0.25053864 0.03034222
-0.68872864 -0.79296752 0.02814375
-0.11689453 -0.76161703 0.00000012
-0.07293732 0.62427909 0.00015212
-0.04830344 0.12794830 -0.00000797
-0.11976726 0.28203344 0.00000773
-0.44028426 -0.18313657 0.03218972
-0.55337817 0.10916150 0.00000160
-0.03266418 0.43061242 0.00000399
-0.09387493 0.16251352 0.00000301
-0.44504227 -0.19939980 0.00000158
-0.42045801 0.11843021 0.13449854
-0.03114915 -0.78563154 0.00000019
-0.63274905 0.06765519 0.00000050
-0.00169726 -0.00389760 0.00000250
-0.50520053 -0.09506060 0.00000091
-0.67519280 -0.15837932 0.27088080
-0.37388749 0.32290083 0.17161992
-0.68189532 -0.59775067 0.10021747
-0.22610144 0.15774995 0.00000721
-0.04259194 -0.39226137 0.00000147
-0.24324421 -0.74415105 0.00000128
-0.15475521 -0.56428489 0.00000144
-0.17225234 0.43375840 0.00000552
-0.02251851 0.63347506 0.00000612
-0.29983861 -0.10384171 0.00000218
-0.05186719 0.03442730 0.00001092
-0.33933475 0.02618756 0.00000657
-0.13472970 -0.79442241 0.00000002
-0.38267356 0.23691661 0.00000181
-0.14618822 0.43713188 0.00000387
-0.32802036 -0.74566266 0.00000017
-0.65980164 -0.41802280 -0.00000030
-0.61570374 0.05044386 -0.00000027
-0.27730883 -0.08593465 0.00000349
-0.04883626 0.51857649 0.00000673
-0.21605251 0.01110230 0.00000864
-0.12608868 -0.11642272 0.00000214
-0.55079386 0.03948124 0.22955724
-0.30773237 0.43039422 0.00000236
-0.50894716 -0.47443618 0.00000102
-0.07578992 0.40737247 0.00000377
-0.11869531 0.19760475 0.00000312
-0.48381966 -0.65092436 0.00000047
-0.52253729 0.00199895 0.18692900
-0.03027292 0.50293925 0.00000407
-0.05164268 0.43023692 0.00000746
-0.62114514 -0.62690789 0.00000025
-0.32175296 -0.37013406 0.00000134
-0.09983936 0.37548694 0.00000413
-0.51263459 -0.57622956 0.00000070
-0.14565563 0.13224900 0.00000865
-0.25233040 0.31154009 0.04869037
-0.00155176 0.29966386 0.00000344
-0.69567942 -0.62759210 -0.00000043
-0.29624825 -0.34559596 0.00000276
-0.26287897 0.38581961 0.00000283
-0.17091799 0.25386928 0.00000407
-0.04383678 0.20868722 0.00000315
-0.20481558 0.14129490 0.00000294
-0.47880504 0.31002410 0.00000082
-0.55059117 0.23254031 0.00000036
-0.59779059 -0.21209374 0.00000012
-0.69038927 -0.38427414 -0.00000062
-0.02889884 0.07551913 0.00001090
-0.29308959 0.22251978 0.05247354
-0.36935575 -0.01709460 0.03009491
-0.68877735 -0.51553115 0.14007528
-0.05936037 -0.33007714 0.00000174
-0.58774451 -0.02618182 0.00000006
-0.43866651 0.04633492 0.12315564
-0.13426176 0.05709587 0.00000947
-0.49801775 0.02952959 0.17416279
-0.34977116 0.04648306 0.00000228
-0.42748213 0.10840534 0.13729438
-0.03326954 0.50704762 0.00000424
-0.15097714 0.17110738 0.00000822
-0.47019084 0.13716019 0.19047563
-0.51280787 -0.70225537 0.00000263
-0.32902585 -0.10750189 0.00000216
-0.31548257 0.15203316 0.04584331
-0.74300771 -0.42447700 -0.00000094
-0.38271001 -0.78523784 0.00000005
-0.20747214 0.21797572 -0.00000173
-0.49825153 -0.25679719 0.05892091
-0.13136534 -0.52801788 0.00000144
-0.36978887 -0.70404376 0.00000030
-0.24558164 0.05670408 0.00000379
-0.11119245 -0.11719935 0.00000213
-0.57376633 -0.54187192 0.00000063
-0.28023804 0.41319661 0.11685716
-0.14933364 0.07037713 0.00000913
-0.41072937 -0.36271591 0.00000137
-0.21022948 0.26896193 0.00000647
-0.08016688 0.02513706 0.00000258
-0.12286408 0.28253954 0.00000394
-0.72167231 -0.03925741 -0.00000121
-0.32309839 0.31832589 0.12032667
-0.42373545 -0.40481811 0.00000315
-0.41098487 -0.33548220 0.00000331
-0.19960777 0.42618095 0.00000340
-0.23955150 0.37517487 0.06191139
-0.76795593 -0.64552175 -0.00000039
-0.48497537 0.01533953 0.00000389
-0.56225858 0.13158361 0.00000119
-0.61527639 -0.21965011 0.18783695
-0.27236237 0.08977993 -0.00000269
-0.68127032 -0.16590974 -0.00000072
-0.29556985 0.02885887 0.00000729
-0.11097828 -0.35505788 0.00000189
-0.32883764 -0.75629829 0.00000014
-0.50836503 -0.69122839 0.00000264
-0.38965195 0.18849314 0.13276142
-0.70280362 -0.64470182 0.10163970
-0.32260108 0.28941807 0.10818458
-0.07749661 0.64923345 0.01465672
-0.42317856 0.07266139 0.11868861
-0.52463740 0.10479402 0.00000219
-0.01811874 -0.52480193 0.00000094
-0.63441560 -0.19101871 -0.00000025
-0.64713547 0.06548061 0.00000025
-0.24298917 0.40735663 0.07823436
-0.12787872 0.29677141 0.00000747
-0.35530092 -0.39022341 0.00000128
-0.09670687 0.58271125 0.00653284
-0.18787008 0.27569413 0.00000336
-0.06554254 0.60549922 0.00000439
-0.55332129 -0.29090305 0.09878267
-0.03393791 0.28208950 -0.00000508
-0.03668011 0.39724667 0.00000391
-0.67533102 -0.21077706 0.24988450
-0.77499042 -0.45167185 -0.00000087
-0.25080227 -0.08914413 0.00000222
-0.66164833 -0.58014753 -0.00000018
-0.31337434 0.04769603 0.00172008
-0.45647199 0.11276791 0.16728207
-0.54326875 -0.00161754 0.20565819
-0.07686038 -0.17358394 0.00000196
-0.13729985 -0.28711047 0.00000222
-0.55919090 -0.43840621 0.04501244
-0.21408815 -0.15704911 0.00000298
-0.46704916 -0.00522727 0.00000120
-0.12122534 -0.63042245 0.00000053
-0.49946936 -0.26391338 0.05723678
-0.55304218 -0.54244164 0.00000331
-0.36264431 -0.30509372 0.00000155
-0.53371047 -0.45379842 0.00000094
-0.55799910 -0.00433829 0.21889992
-0.11806844 -0.78154275 0.00000006
-0.40781859 -0.70256962 0.00000030
-0.46737179 0.13601420 0.18726697
-0.19353708 0.55424540 0.08932708
-0.02361926 -0.65656457 0.00000045
-0.23367529 0.43212944 0.07915888
-0.62202456 0.02556527 -0.00000031
-0.00629856 0.51104675 0.00000413
-0.78401713 -0.37484326 -0.00000106
-0.10580742 0.35891987 0.00000362
-0.06950803 0.38661063 0.00000371
-0.55299021 -0.23168314 0.12234246
-0.48715153 -0.41793937 0.00000340
-0.68314641 -0.43279256 -0.00000051
-0.13347657 -0.12150801 0.00000272
-0.18382728 -0.68717656 0.00000035
-0.01215946 0.35893906 0.00000362
-0.13693895 0.22385314 -0.00000352
-0.32085305 0.41969059 0.00000224
-0.01728446 0.63483270 0.00000448
-0.60519254 -0.29238767 0.14868580
-0.41693930 -0.08133734 0.05051453
-0.19986072 -0.65690443 0.00000135
-0.46281156 0.10165065 0.16897092
-0.44717106 -0.71618896 0.00000026
-0.02098911 0.50840408 0.00000418
-0.27147344 0.26805843 0.04978806
-0.21274356 0.44022083 0.06204053
-0.40703638 -0.76325819 0.00000196
-0.03609842 -0.38492974 0.00000146
-0.10426414 0.54292137 0.00000568
-0.13824417 -0.49855786 0.00000094
-0.16420883 0.38507956 0.00000370
-0.37472488 -0.23551198 0.00000176
-0.27593087 0.17119639 0.01506312
-0.29659534 0.19455578 0.00000267
-0.42933779 -0.63571749 0.00000051
-0.74306877 0.03375440 -0.00000148
-0.14975952 -0.41060010 0.00000189
-0.31862509 0.05815811 0.00000664
-0.02567265 -0.25052738 0.00000183
-0.06166298 -0.70613795 0.00000029
-0.56512458 -0.02295521 0.00000027
-0.22667977 -0.79169097 0.00000003
-0.13573375 0.42385124 0.00000624
-0.67257757 0.04595011 -0.00000082
-0.04774534 0.69640311 0.00471230
-0.58225520 0.21335576 -0.00000005
-0.62245097 0.04473582 -0.00000033
-0.46908926 0.11511356 0.18050984
-0.22171744 0.27444663 0.00392042
-0.64435203 -0.00158906 -0.00000050
-0.12097466 -0.51916916 0.00000088
-0.02434540 0.75636859 0.00611401
-0.75542227 -0.80285484 0.08909025
-0.28282500 -0.46999466 0.00000103
-0.39826888 0.20146391 0.14638472
-0.23019994 0.42143603 0.00000311
-0.45893143 0.11884535 0.00000117
-0.34138196 0.05465045 0.00000624
-0.40143857 0.08023481 0.10057626
-0.45603470 0.34161167 0.00000103
-0.55795566 -0.36828210 0.07208936
-0.11422449 -0.47393259 0.00000154
-0.13394073 -0.36443909 0.00000136
-0.08492761 -0.04057952 0.00000237
-0.01765409 -0.26680685 0.00000167
-0.03131079 0.49106560 -0.00000071
-0.49303035 -0.07933055 0.12540608
-0.45336586 -0.55551656 0.00000076
-0.01767631 0.31314056 0.00000899
-0.18569535 0.59121492 0.00000362
-0.00147587 0.31908302 -0.00000518
-0.02558956 -0.36205015 0.00000137
-0.31644258 -0.74940149 0.00000016
-0.23837155 0.34548288 0.00000310
-0.49556152 -0.03395575 0.14616912
-0.65188429 -0.71745632 0.02272378
-0.12084838 -0.10532579 0.00000272
-0.04493763 0.61355696 0.00000226
-0.11514824 0.37715331 -0.00000086
-0.50997637 -0.69294937 0.00000264
-0.16214970 -0.51406756 0.00000163
-0.55171862 -0.57868988 0.00000069
-0.06542915 0.01579063 0.00000255
-0.27272420 -0.18020649 0.00000194
-0.09725635 -0.40138636 0.00000169
-0.10362016 0.56937780 0.00788402
-0.40004386 0.29350188 0.18522979
-0.25143610 -0.32235455 0.00000149
-0.10287664 0.27580309 0.00000336
-0.03993031 0.33461185 -0.00000380
-0.49072961 -0.75511903 0.00000014
-0.02340385 0.49207339 0.00000734
-0.16325865 0.55069742 0.00000447
-0.49524897 -0.48932982 0.00000097
-0.40854533 0.15418196 0.00000391
-0.54563003 -0.42637128 0.03666301
-0.25253893 0.13792330 0.00000698
-0.03568863 -0.16285448 0.00000199
-0.29070275 -0.56883652 0.00000072
-0.26122005 0.35926765 0.00000459
-0.58100521 -0.12386452 0.00000021
-0.61468163 -0.16107716 -0.00000008
-0.34739507 -0.13974509 0.00000364
-0.40018503 0.31988866 0.00000157
-0.53218441 0.06116539 0.22018550
-0.23728167 -0.30780179 0.00000261
-0.15272701 -0.42981331 0.00000185
-0.71665433 -0.28333640 -0.00000096
-0.35652892 0.18446200 0.09889018
-0.52892435 -0.65091007 0.00000286
-0.48341095 -0.47423798 0.00000321
-0.04844555 0.39640457 0.00000374
-0.34338949 0.23465593 0.00000218
-0.40935007 -0.74970418 0.00000016
-0.26740532 -0.12526791 0.00000211
-0.41070537 0.21025756 0.00000328
-0.22077455 -0.76893912 0.00000110
-0.68183352 -0.53331605 -0.00000041
-0.32679839 0.31747558 0.00000227
-0.07750328 0.68686395 0.02983879
-0.06497760 -0.54804526 0.00000079
-0.12377167 -0.35186779 0.00000140
-0.45610184 -0.26724693 0.00000153
-0.01644691 -0.68278637 0.00000044
-0.15685081 -0.34611504 0.00000142
-0.44413954 -0.50923750 0.00000091
-0.02015994 0.03943434 0.00000271
-0.39609766 0.19768752 0.00000369
-0.51900502 -0.09348834 0.00000078
-0.43320711 0.12588560 0.14991825
-0.47856803 0.22037697 0.00000090
-0.49723139 -0.37360443 0.00000123
-0.73443150 -0.74964299 0.09011253
-0.25275649 -0.74998439 0.00000130
-0.25112174 -0.72799553 0.00000136
-0.39252941 0.07477701 0.00000185
-0.51518450 -0.33595050 0.00000102
-0.11782095 0.15348266 0.00000888
-0.09158322 0.33806994 0.00000766
-0.21822667 0.36100966 0.03543701
-0.27199207 0.14153088 0.00000417
-0.06853077 -0.29956583 0.00000187
-0.59005410 -0.04659231 0.00000006
-0.05103448 0.48308503 0.00000401
-0.70963251 -0.05008035 -0.00000109
-0.48506350 -0.29772301 0.00000128
-0.40992067 -0.78909395 0.00000189
-0.75390510 -0.70530493 -0.00000024
-0.34036010 0.34238138 0.14683374
-0.24954265 -0.77157678 0.00000122
-0.14126002 -0.13010580 0.00000209
-0.41640419 -0.04090728 0.06629813
-0.49350501 0.30219743 0.00000069
-0.59709864 -0.31371136 0.13220619
-0.58292410 -0.72554259 0.00000287
-0.55727320 -0.63250661 0.00000305
-0.07895042 0.29403471 -0.00000361
-0.01635791 -0.57829840 0.00000077
-0.18445874 -0.54286072 0.00000080
-0.45912237 -0.71246280 0.00000235
-0.04023699 -0.14255153 0.00000224
-0.08222206 -0.61432688 0.00000095
-0.61417188 -0.78501999 0.00000283
-0.52747079 -0.31787856 0.06273597
-0.42679703 0.18676107 0.00000142
-0.50410841 0.07009902 0.19645344
-0.12475834 -0.24026045 0.00000175
-0.23488619 0.54030854 0.00000297
-0.08520840 0.05131573 0.00000266
-0.40849084 -0.37525836 0.00000133
-0.10865726 0.60168307 0.02581713
-0.56239371 0.02547921 0.23520579
-0.15384833 0.53932775 0.00000374
-0.59202012 -0.26986289 0.14494491
-0.08605622 0.25025779 0.00000328
-0.63791055 -0.18148675 -0.00000029
-0.70415331 -0.79314830 0.04308851
-0.68067070 -0.28499097 0.22515441
-0.19015298 -0.71541433 0.00000026
-0.10108110 0.02174686 0.00001028
-0.37384396 0.22300721 0.00000385
-0.03258906 0.63526774 0.00000463
-0.13738020 0.32967803 -0.00000126
-0.27459015 0.10903874 0.00000284
-0.58509088 -0.34718579 0.10701591
-0.29355997 0.40375007 0.00000252
-0.38406511 0.16554342 0.11806619
-0.48553407 -0.20441470 0.06766393
-0.51179553 -0.05300042 0.00000081
-0.41852770 0.15318529 0.00000372
-0.13387260 -0.33834543 0.00000144
-0.16021606 0.03103849 -0.00000699
-0.59857569 -0.30089579 0.13881250
-0.23166219 -0.11255466 0.00000320
-0.16349647 -0.57193389 0.00000145
-0.08197002 0.34552443 0.00000358
-0.55298026 -0.22168580 0.00000056
-0.10047930 0.16944994 -0.00000567
-0.47745108 0.13537706 0.19682353
-0.10852507 0.19776892 0.00000312
-0.33331894 0.03749100 0.00000657
-0.37465091 -0.08364388 0.00841237
-0.33656255 0.14772735 0.06463090
-0.56099610 -0.69477344 0.00000287
-0.13000088 0.22505615 0.00000379
-0.25491824 -0.19124636 0.00000190
-0.62671193 -0.12496329 -0.00000023
-0.34225880 0.11661444 0.00000557
-0.05989865 0.13223297 -0.00000756
-0.37987840 0.25843409 0.15145461
-0.22443666 0.33611287 0.00000324
-0.51456901 -0.70020883 0.00000264
-0.28765905 0.25357570 0.05971055
-0.61083911 0.12096122 0.00000037
-0.16187483 0.24918099 -0.00000231
-0.16802790 0.04186941 0.00000910
-0.50236711 0.12439535 0.00000075
-0.52985144 -0.27903501 0.00000083
-0.03721016 0.11062515 -0.00000864
-0.30160472 0.39490318 0.13028180
-0.40462692 0.15297791 0.13302154
-0.25038162 -0.67188205 0.00000040
-0.39123868 -0.38331406 0.00000130
-0.17033070 -0.65446983 0.00000123
-0.10535135 -0.49329819 0.00000096
-0.42825332 0.12593418 0.00000146
-0.25229155 0.13956715 0.00000408
-0.17585405 0.36166627 0.00000046
-0.48434074 -0.71581823 0.00000026
-0.28112510 0.25135012 0.00000534
-0.06948475 0.31103995 -0.00000350
-0.24214648 0.21958194 0.00000642
-0.21649299 0.02711390 -0.00000554
-0.58675110 0.00069050 0.24892190
-0.39503111 0.32400782 0.00000239
-0.08946583 0.45315250 0.00000392
-0.37036232 -0.62056294 0.00000224
-0.57351020 -0.37180589 0.00000049
-0.66462793 0.12763179 -0.00000073
-0.16228652 0.47061195 0.00000533
-0.59268412 -0.62172107 0.00369448
-0.08837618 0.61327961 0.01074776
-0.34088936 0.05597823 0.03184874
-0.11417588 0.40845169 0.00000378
-0.11742004 0.11451289 -0.00000638
-0.62260917 -0.44068811 0.00000008
-0.43348107 -0.00903691 0.09577683
-0.78778146 -0.24529949 -0.00000139
-0.68808929 0.00332285 -0.00000093
-0.34371487 -0.62482588 0.00000055
-0.14085064 -0.67242496 0.00000104
-0.19972639 0.21868310 0.00000707
-0.10614323 0.13788255 -0.00000619
-0.66242694 -0.69243937 0.04307690
-0.71062886 -0.76397638 0.06115760
-0.14606726 0.33344685 0.00000354
-0.05041970 -0.55067245 0.00000101
-0.35159929 0.03964267 0.03568018
-0.34815727 0.01186848 0.00000233
-0.63352604 -0.21301437 0.20828087
-0.52913209 0.25916452 0.00000049
-0.44111746 0.20437598 0.18927648
-0.37317567 0.37541131 0.00000178
-0.03581868 0.33959959 0.00000372
-0.35475581 0.42144118 0.00000214
-0.21330591 0.36965548 0.00000332
-0.70233727 0.06060872 -0.00000076
-0.48529684 -0.52535680 0.00000306
-0.04663883 0.69631202 0.00359936
-0.09461172 0.41454065 0.00000422
-0.11270904 0.49586524 0.00000160
-0.51263621 -0.45733922 0.00000339
-0.12369995 0.05668373 0.00000324
-0.03207138 0.10883580 0.00001056
-0.14907334 0.08011089 -0.00000625
-0.66892758 -0.75007814 0.02616151
-0.64441946 -0.54211106 -0.00000004
-0.13482580 -0.76524997 0.00000072
-0.08902174 0.54740510 0.00000205
-0.63099834 -0.67276298 0.00000020
-0.25973225 0.18205591 0.00000303
-0.34759556 -0.41219084 0.00000121
-0.49229065 -0.31019587 0.00000122
-0.55276781 -0.42235694 0.00000073
-0.58301788 -0.03607711 0.23045861
-0.26039863 0.30640513 0.05447479
-0.04965035 -0.48915276 0.00000097
-0.34961526 -0.00600915 0.01534610
-0.41732220 -0.48803381 0.00000286
-0.51360435 -0.49361416 0.00000328
-0.53815607 0.09089600 0.23798845
-0.00154541 -0.66903900 0.00000041
-0.10811773 0.31851823 0.00000350
-0.29307289 -0.46611905 0.00000104
-0.09043066 0.63263086 0.00000501
-0.68155826 -0.01279609 -0.00000085
-0.05737061 -0.00436505 0.00000249
-0.20551007 -0.19475204 0.00000282
-0.44030068 -0.05195844 0.08510706
-0.25968181 0.21994716 0.00000608
-0.49835380 0.16809371 0.23036992
-0.52968889 0.26565010 0.00000041
-0.55338813 -0.59083106 0.00000065
-0.23306820 0.26922408 0.01286561
-0.28643997 0.42347725 0.12704094
-0.33765767 -0.67382864 0.00000192
-0.49235543 -0.05101450 0.00000100
-0.25872886 -0.06785358 0.00000229
-0.12628809 0.45536054 0.00000111
-0.48050747 0.06042397 0.00000350
-0.38673644 -0.37825532 0.00000132
-0.29054025 0.36982488 0.00000258
-0.01815321 -0.74291564 0.00000018
-0.14408968 0.15293805 0.00000298
-0.16057851 0.18997422 0.00000791
-0.45557988 0.04467216 0.13894740
-0.20287620 -0.54234615 0.00000172
-0.57615821 0.00359939 0.00000015
-0.44825618 0.16821456 0.18164361
-0.39566657 0.22394341 0.15291468
-0.17807395 -0.79794847 0.00000001
-0.42098286 0.37638032 0.00000132
-0.06422764 0.17656736 0.00000334
-0.15128747 0.46214904 0.01104866
-0.54721550 -0.34211725 0.07218447
-0.08950235 0.59244934 0.00344331
-0.49960582 -0.77870801 0.00000233
-0.49287001 -0.22012245 0.06847160
-0.09434728 0.52340163 0.00000168
-0.34868053 -0.06123521 0.00000389
-0.16356848 -0.18491805 0.00000266
-0.01935676 0.58391290 0.00000660
-0.21182034 -0.56899275 0.00000168
-0.64438973 -0.79644885 0.00000001
-0.77562714 -0.27847114 -0.00000130
-0.45683760 -0.66762385 0.00000041
-0.25075339 0.33425129 0.00000299
-0.65890974 -0.69376259 0.03911894
-0.21590320 0.28424030 0.00221543
-0.58698028 0.17768584 0.00000023
-0.26833645 0.40760824 0.10301475
-0.68335413 -0.39654869 0.18277820
-0.46864396 -0.12596777 0.08285569
-0.12364613 0.16741200 0.00000302
-0.33490661 -0.34759582 0.00000293
-0.34866725 0.16870098 0.08487516
-0.52096528 -0.43756511 0.00813518
-0.41903776 -0.00041625 0.08519134
-0.43450445 -0.41091765 0.00000122
-0.01809362 0.45827103 0.00000772
-0.00186948 -0.62164505 0.00000056
-0.40014275 0.09682828 0.10601180
-0.54577326 0.25079384 0.00000023
-0.43971631 -0.02213657 0.09656464
-0.48023280 -0.79801464 0.00000218
-0.20549350 0.16745355 0.00000302
-0.53083778 -0.24230519 0.00000079
-0.54117876 -0.11544579 0.15771887
-0.23676009 -0.45464705 0.00000215
-0.63983146 -0.11550470 -0.00000036
-0.04883841 -0.15006780 0.00000203
-0.32079801 0.02913977 0.00146442
-0.44296092 -0.35920049 0.00000338
-0.02517343 0.17198604 -0.00000766
-0.23758783 -0.52540619 0.00000086
-0.18833918 0.44609541 0.00000508
-0.09821487 -0.54164131 0.00000081
-0.16369981 -0.14384025 0.00000279
-0.33952266 -0.07888789 0.00000379
-0.05986856 -0.35361844 0.00000167
-0.66386466 0.02712508 0.00000033
-0.00239192 -0.03187821 0.00000240
-0.07691766 0.19022919 0.00000344
-0.38637481 -0.09865585 0.00000206
-0.09649758 -0.12486177 0.00000211
-0.00803775 0.18038645 -0.00000795
-0.06441665 -0.36911497 0.00000164
-0.17858360 0.55062348 0.00000350
-0.22452155 0.04095222 -0.00000503
-0.33040250 0.03601512 0.01358803
-0.56916935 -0.78957392 0.00000261
-0.05162093 0.45071318 0.00000391
-0.41956310 0.33525652 0.00000180
-0.66559656 -0.69694081 0.04434752
-0.52355169 -0.63533701 0.00000288
-0.38789080 -0.47458571 0.00000277
-0.61351061 -0.21108428 -0.00000003
-0.63080528 0.15709591 -0.00000051
-0.37461177 0.09915236 0.00000200
-0.54066307 -0.01736577 0.19676696
-0.11206914 0.46393018 0.00000090
-0.33915427 0.16651215 0.07473026
-0.67178165 0.09598402 -0.00000054
-0.27560330 0.00375297 -0.00000443
-0.04799943 0.68278377 0.00000530
-0.35154585 0.11327052 0.06532866
-0.57603460 0.12800081 0.00000004
-0.48354672 -0.75554623 0.00000014
-0.21993674 -0.09401086 0.00000221
-0.60660962 -0.03242731 -0.00000012
-0.28894696 -0.39189230 0.00000128
-0.68510829 -0.49100643 0.14639331
-0.37014650 -0.59018434 0.00000066
-0.20973367 -0.51415100 0.00000184
-0.61552720 -0.72991323 0.00000301
-0.71747454 -0.62147047 0.12529221
-0.47668569 -0.76433591 0.00000227
-0.38952800 0.40795254 0.00000162
-0.38474708 -0.76503623 0.00000185
-0.04159224 0.51285822 0.00000688
-0.03581668 0.13904653 0.00000293
-0.64412587 -0.03556035 0.29016428
-0.64783185 0.11519013 -0.00000064
-0.31489361 0.19335427 0.06194010
-0.32407435 0.05186690 0.01381964
-0.21648164 -0.66319549 0.00000141
-0.17775949 0.32635206 0.00000352
-0.05842422 0.60056711 0.00000438
-0.38531325 -0.17848194 0.00000194
-0.16457874 0.40939704 0.00271898
-0.36725583 -0.28157632 0.00000162
-0.49373183 -0.63462502 0.00000275
-0.66288189 -0.29517639 0.20372753
-0.21720417 -0.68991360 0.00000034
-0.37108819 -0.05328754 0.01718577
-0.08859519 0.52184823 0.00000453
-0.43101481 -0.41198755 0.00000121
-0.41585935 -0.47434137 0.00000102
-0.32686929 0.11893318 0.00000244
-0.44352158 -0.42836733 0.00000317
-0.22482142 0.37261412 0.04653749
-0.25946500 -0.11622220 0.00000331
-0.34926633 -0.33799898 0.00000302
-0.12583859 -0.10178478 0.00000218
-0.08067673 0.11135214 -0.00000744
-0.52688763 -0.60777981 0.00000060
-0.01490748 -0.70806041 0.00000035
-0.06193479 0.36029757 0.00000363
-0.03539044 0.75765305 0.00000476
-0.37749799 0.06811344 0.00000540
-0.42020782 -0.70719724 0.00000219
-0.22002445 0.27802983 0.00372334
-0.03251405 -0.03466166 0.00000239
-0.32801206 -0.64532594 0.00000048
-0.36970729 -0.31984325 0.00000317
-0.52695569 -0.53435938 0.00000083
-0.07282480 -0.16096861 0.00000233
-0.44238695 -0.07258640 0.07881943
-0.22977100 0.10907074 0.00000758
-0.50602520 -0.03876465 0.15441723
-0.61598861 -0.41097450 0.11137332
-0.70994251 -0.44373654 0.18963519
-0.02640010 -0.11757787 0.00000213
-0.33754777 -0.04504152 0.00000236
-0.71740047 -0.31177432 -0.00000094
-0.30933019 -0.67193217 0.00000040
-0.22825634 0.08557807 0.00000277
-0.07652984 0.71633623 0.00000434
-0.20284988 -0.47612879 0.00000101
-0.23490367 0.53019855 0.00000331
-0.40754669 0.18688207 0.14953457
-0.68564091 -0.29399047 -0.00000065
-0.66737394 -0.20168249 0.24580509
-0.41322139 -0.78277946 0.00000005
-0.43224793 -0.64617313 0.00000048
-0.12027615 0.17473503 0.00000359
-0.18619644 0.47486534 0.05016793
-0.11077678 0.61371451 0.03273309
-0.04126183 -0.70924680 0.00000028
-0.26862815 0.26071063 0.04405943
-0.19269247 -0.65774201 0.00000132
-0.06851824 -0.40817418 0.00000153
-0.25814762 0.21874639 0.00000612
-0.13195386 0.02683622 0.00000318
-0.06786236 -0.46504598 0.00000105
-0.05254441 0.21049062 -0.00000610
-0.20058983 0.54190524 0.00000329
-0.41054687 -0.30777474 0.00000340
-0.69825746 0.02624483 -0.00000032
-0.24321158 -0.11576882 0.00000324
-0.49773512 -0.65873039 0.00000044
-0.15271877 -0.29144444 0.00000228
-0.59372890 -0.03466412 0.24145706
-0.21084919 0.01647655 0.00000255
-0.58828176 -0.15443642 0.00000016
-0.49176189 0.03269273 0.00000358
-0.47875283 0.17288672 0.21321933
-0.71644398 -0.71495154 0.08658994
-0.21170304 0.40175267 0.00000331
-0.05927387 0.14044744 0.00000294
-0.35129903 -0.13095170 0.00000209
-0.53190587 -0.43145310 0.02125177
-0.36538311 0.12319173 0.00000506
-0.18867848 0.17489332 0.00000305
-0.43917885 -0.20401664 0.02269302
-0.28494623 -0.18174343 0.00000193
-0.51043160 -0.45718979 0.00000107
-0.47140474 -0.18841780 0.06035882
-0.12147343 -0.53269234 0.00000084
-0.55261384 -0.55812798 0.00000076
-0.65597164 -0.75279825 0.01245058
-0.23116589 0.24654663 0.00000635
-0.68342908 -0.12852480 0.29093944
-0.06588795 -0.72184763 0.00000054
-0.32405185 0.17378812 0.00000242
-0.17598319 -0.11313221 0.00000215
-0.12534945 0.58293451 0.00000398
-0.19562173 0.48134501 0.00000339
-0.08492802 0.55692377 0.00000585
-0.43250594 -0.13860117 0.04257693
-0.25848584 0.22361136 0.00000301
-0.75974202 -0.65873039 -0.00000035
-0.22019849 0.18845515 0.00000409
-0.29624361 -0.67951651 0.00000172
-0.04203507 0.39611984 0.00000790
-0.78403858 -0.09894460 -0.00000175
-0.72490743 -0.44394692 -0.00000089
-0.37359896 0.06598048 0.00000204
-0.65063753 -0.20952313 0.22634856
-0.20118287 -0.21220225 0.00000184
-0.46872933 -0.79319553 0.00000214
-0.04404367 -0.10415612 0.00000217
-0.58033778 0.03522637 0.25660697
-0.07564341 0.29175080 0.00000375
-0.28433492 0.04978022 -0.00000322
-0.23814751 0.07010459 0.00000380
-0.21178947 0.43925460 0.00000470
-0.76641719 -0.05043791 -0.00000163
-0.02860156 0.32331253 -0.00000435
-0.38478856 0.23467650 0.14665219
-0.04904292 0.38101559 0.00000793
-0.62970754 -0.16699930 0.22312006
-0.20316533 0.33168772 0.00000599
-0.01178585 0.38305772 -0.00000354
-0.10752479 -0.08969912 0.00000271
-0.06830321 0.47190164 0.00000397
-0.47832015 0.02572449 0.00000391
-0.35999024 0.12984027 0.00000509
-0.60778885 -0.34574493 0.12969573
-0.02317395 0.21082484 -0.00000689
-0.10703356 -0.62641325 0.00000103
-0.32440227 -0.08510241 0.00000223
-0.00365628 0.68316233 0.00000597
-0.30042164 0.13793031 0.02549178
-0.00617193 -0.01687080 0.00000245
-0.32246257 0.24281739 0.08925289
-0.03483877 0.27783024 0.00000353
-0.40967187 -0.12081683 0.00000185
-0.07276390 0.25585700 0.00000363
-0.32981151 -0.50265698 0.00000242
-0.13383940 -0.63151310 0.00000053
-0.42997958 -0.39072581 0.00000128
-0.46459801 0.15630713 0.19275200
-0.48962279 -0.16512372 0.08748992
-0.11022184 0.36354907 0.00000414
-0.33555609 0.17776078 0.07576357
-0.11183043 -0.77227093 0.00000059
-0.00704827 0.66917018 0.00000459
-0.09546949 0.62565344 0.00000499
-0.28201943 -0.20436593 0.00000314
-0.55679856 -0.21314690 0.13352553
-0.29286551 -0.57169352 0.00000204
-0.07742088 0.62121242 0.00000441
-0.50317467 -0.08255427 0.00000092
-0.01312129 0.60209867 0.00000438
-0.23624277 -0.13402120 0.00000208
-0.10239753 0.57788218 0.01012580
-0.32127107 -0.00652553 0.00000393
-0.08808509 0.13784343 -0.00000668
-0.64502132 0.12506341 -0.00000033
-0.61360907 0.00890693 0.00000149
-0.53482732 0.01365536 0.20359885
-0.68968479 -0.65417943 -0.00000036
-0.45169993 0.21478829 0.20377863
-0.28366418 0.26830309 0.06176039
-0.24956305 -0.76794139 0.00000123
-0.38275641 0.26141220 0.15545764
-0.45278137 0.21726711 0.00000115
-0.31815071 0.42384577 0.00000227
-0.31659543 0.28350930 0.09995165
-0.03552665 0.39343047 -0.00000267
-0.71394495 -0.76236664 0.06503537
-0.60074378 -0.38172686 0.00000024
-0.66676629 -0.08172844 -0.00000065
-0.23390778 0.23745363 0.00000639
-0.01988452 0.66034585 0.00000465
-0.68753859 -0.24082945 0.24965047
-0.07939116 0.69275202 0.03405136
-0.31330148 0.40817563 0.00000233
-0.78951411 -0.49015619 -0.00000077
-0.33661258 -0.46437767 0.00000257
-0.35980365 -0.52047568 0.00000087
-0.06738999 0.56120149 0.00000607
-0.11108441 -0.73780652 0.00000070
-0.32624564 -0.78108883 0.00000006
-0.15417313 0.57025036 0.05745679
-0.50900494 -0.15573624 0.00000093
-0.57088044 0.03166668 0.00000017
-0.14609534 -0.20747120 0.00000185
-0.43351658 -0.39467888 0.00000323
-0.51094473 0.09493826 0.21312489
-0.29623797 -0.30124211 0.00000290
-0.71720755 -0.77376812 0.06361391
-0.24701105 -0.23543192 0.00000176
-0.45179851 -0.68405054 0.00000036
-0.38201868 0.03751239 0.00000198
-0.25502358 0.32069810 0.00000296
-0.54571131 -0.62723760 0.00000301
-0.54114541 -0.48115007 0.00000090
-0.42239074 0.18165987 0.16188322
-0.37970295 0.20002691 0.12772637
-0.27785329 0.21366127 0.03406703
-0.73585949 -0.60023556 0.15175564
-0.15741064 -0.74975674 0.00000016
-0.10317887 0.15426886 -0.00000592
-0.52019373 -0.61414168 0.00000294
-0.62686635 -0.14416627 0.22956196
-0.20296742 0.47352140 0.06595419
-0.39559076 -0.48425837 0.00000278
-0.44112799 0.13249442 0.00000133
-0.62693681 -0.03790111 0.27248503
-0.33861365 0.08388543 0.04088749
-0.30853358 -0.74482314 0.00000017
-0.07467329 0.07856873 0.00001019
-0.49836525 0.13423405 0.00000239
-0.04695862 0.25654199 0.00000905
-0.42023419 0.23228489 0.18019959
-0.33191966 -0.50982001 0.00000241
-0.18695791 0.25488820 0.00000330
-0.12077379 -0.19445084 0.00000244
-0.36029453 0.05213498 0.00000218
-0.25347933 0.22977727 0.00000305
-0.48377181 -0.09047706 0.11189681
-0.41823834 -0.63411075 0.00000052
-0.28309986 0.29026026 0.00000489
-0.74667263 -0.60403651 -0.00000049
-0.13042390 0.18343849 0.00000843
-0.48347503 -0.15900102 0.00000117
-0.48634920 0.06739112 0.00000332
-0.28388264 -0.10911700 0.00000344
-0.03284124 0.17385393 0.00000998
-0.34219619 0.27785142 0.12259780
-0.31812272 0.08238464 0.00000639
-0.20445506 -0.45428994 0.00000108
-0.18292354 0.55396530 0.07888077
-0.09458647 0.58265594 0.00000546
-0.27099364 -0.40635759 0.00000123
-0.01075219 0.38733370 0.00000845
-0.64335583 -0.71507029 0.01538271
-0.47845784 -0.11360921 0.09739443
-0.57963532 -0.39674834 0.08171686
-0.55664183 -0.76252637 0.00000264
-0.26527333 0.34576320 0.00000284
-0.09008441 0.60850094 0.01048564
-0.18605014 -0.46404614 0.00000105
-0.20719326 0.43645812 0.05512163
-0.14840821 0.51406690 0.02918399
-0.01545197 -0.35816765 0.00000138
-0.33330621 0.16368290 0.06790079
-0.48075783 0.26461312 0.00000136
-0.31200294 0.31363338 0.10762942
-0.06655297 0.71518158 0.03059744
-0.26238550 0.24335761 0.03098348
-0.12241286 0.09615100 0.00000335
-0.42927949 -0.43466229 0.00000308
-0.26126344 -0.04107231 0.00000355
-0.33981236 0.17731249 0.07973170
-0.12811641 -0.55818308 0.00000076
-0.01298437 -0.06751876 0.00000235
-0.25113644 -0.75769045 0.00000127
-0.69576047 -0.24228958 0.25706657
-0.49960678 -0.62636423 0.00000054
-0.51146287 -0.45385235 0.00000340
-0.49318729 0.25091414 0.00000127
-0.60149176 -0.65809148 0.00000044
-0.01140452 0.20512700 0.00001003
-0.19594732 -0.33235301 0.00000235
-0.39977435 -0.55262406 0.00000258
-0.63137251 -0.23063479 -0.00000018
-0.27563664 -0.68962876 0.00000159
-0.20540134 0.42147818 0.04733593
-0.58365240 0.06058679 0.27006139
-0.11562971 0.18430398 0.00000864
-0.42573302 -0.52820085 0.00000278
-0.66668899 -0.59111816 -0.00000022
-0.31293457 -0.50917706 0.00000233
-0.45623041 0.12053746 0.17017755
-0.22678102 0.49166026 0.00000387
-0.66069924 0.10901625 -0.00000046
-0.45744145 0.10805787 0.16632359
-0.25416458 0.29794061 0.04498719
-0.67645833 -0.58421101 0.10038419
-0.09596451 0.43181053 0.00000428
-0.18857874 -0.58832592 0.00000066
-0.49134358 -0.03914857 0.13996838
-0.02548891 -0.01281253 0.00000246
-0.67059988 -0.12288582 0.28072288
-0.24726868 0.03105276 -0.00000462
-0.19225638 -0.58760567 0.00000153
-0.55136923 -0.35069826 0.00000069
-0.05556201 0.36279978 0.00000799
-0.21485076 -0.39486777 0.00000224
-0.25622576 -0.62126192 0.00000056
-0.01674965 0.45054410 -0.00000197
-0.63537328 0.08293123 -0.00000049
-0.10939020 -0.35580764 0.00000139
-0.64338800 -0.12305280 0.25416205
-0.63365992 -0.51518989 0.08655027
-0.52480533 -0.04965396 0.00000068
-0.23539057 0.37780982 0.05891978
-0.35051406 0.05712906 0.04167591
-0.28141801 -0.72898158 0.00000022
-0.60914129 0.01368045 -0.00000018
-0.54758875 0.23240148 0.00000023
-0.30929039 -0.13577201 0.00000208
-0.43882821 0.21171546 0.00000272
-0.60083629 -0.25009265 0.16150123
-0.13418045 0.64794556 0.00000384
-0.67865307 -0.55916498 0.11262155
-0.16201236 0.08815580 0.00000878
-0.71061541 -0.55745020 0.14443206
-0.31518643 -0.49198271 0.00000239
-0.49210715 0.03365998 0.17007392
-0.16004965 -0.61230866 0.00000059
-0.05870223 0.32515053 0.00000378
-0.00839082 0.04130390 0.00000267
-0.68771065 -0.42361966 0.17610264
-0.65865287 -0.38947008 -0.00000031
-0.67011600 -0.00173324 -0.00000075
-0.77932715 -0.34920357 -0.00000113
-0.22974254 0.33860360 0.00000319
-0.15369257 0.05702902 0.00000337
-0.16600729 0.24620065 -0.00000226
-0.08356269 0.39138803 0.00000731
-0.03364087 -0.50418293 0.00000108
-0.60987597 -0.72637996 0.00000299
-0.19003816 -0.17753517 0.00000281
-0.16789638 -0.16750559 0.00000198
-0.05927403 0.69900958 0.01698820
-0.04697035 0.46999112 0.00000718
-0.32479807 0.23133830 0.00000471
-0.74594323 -0.78277868 0.08795761
-0.21992866 0.48432416 0.08682417
-0.37821991 -0.15102858 0.00000374
-0.40426619 0.08325875 0.00000173
-0.04988373 0.38099764 0.00000369
-0.34532563 -0.49628369 0.00000251
-0.26725108 0.43946816 0.00000364
-0.47488502 0.02672185 0.15050408
