ply
format ascii 1.0
element vertex 1377
property float x
property float y
property float z
end_header
0.26932604 -0.49797488 -0.00000019
-0.06709983 -0.54015018 -0.00000016
-0.23632183 0.64953050 0.05760690
0.58654813 -0.13746565 -0.00000105
-0.53620731 -0.61073111 -0.00000012
-0.59608992 0.66599166 0.31006212
0.21929694 0.26265377 -0.00000066
-0.77668203 0.02960509 0.00421932
0.47701253 0.11321789 -0.00000119
0.29356621 -0.58452050 -0.00000013
0.22915044 -0.25624046 -0.00000034
-0.18593400 -0.38795440 -0.00000026
0.26696307 0.16724388 -0.00000062
0.46540602 0.06417819 0.00000327
0.04211088 0.67187290 0.00000045
-0.70925209 -0.18825504 -0.00000006
0.28981560 -0.23538749 -0.00000035
0.72074772 -0.50144735 -0.00000075
-0.09666543 -0.45689222 -0.00000021
-0.61552429 0.43503890 0.16813085
0.43200582 0.11792231 0.00000295
-0.45552781 0.00772833 -0.00000037
-0.56134995 -0.22743561 -0.00000021
0.02813351 0.46566235 0.00000401
0.33228260 0.19442124 0.00000349
0.69840627 0.00257333 -0.00000168
0.23403718 0.19491894 0.00000530
-0.08878449 -0.78483409 -0.00000001
0.41602279 -0.52137137 -0.00000017
-0.30638300 0.65472686 0.10810576
-0.49582197 0.40926654 0.07051535
-0.49992936 0.17924026 -0.00000035
0.07658954 -0.12151128 -0.00000042
0.03266138 -0.57113589 -0.00000014
0.27219820 -0.25613711 -0.00000034
0.13130417 0.38352975 0.00000379
0.70291910 -0.10222408 -0.00000149
-0.19109621 0.18324979 -0.00000061
-0.62710655 0.52620766 0.23707801
0.12654122 -0.75384969 -0.00000003
-0.64337465 -0.24356938 -0.00000012
-0.57212663 -0.08073167 -0.00000023
-0.58435412 -0.30945039 -0.00000017
-0.51579778 0.57973503 0.19830571
-0.07261213 -0.05781740 -0.00000046
0.49763958 -0.38487680 -0.00000028
0.51561174 0.12534431 0.00000121
-0.14664539 0.24995443 -0.00000066
0.20934090 0.13282907 -0.00000058
-0.29616714 -0.22593103 -0.00000036
-0.70137694 0.18406009 0.05732958
-0.46169640 -0.79271878 -0.00000000
0.33731448 0.26438709 -0.00000103
-0.54559744 0.16484053 -0.00000030
-0.37146105 0.67514427 0.16547440
-0.75009631 -0.45670547 0.00000000
-0.09431366 -0.44804753 -0.00000022
-0.33072008 0.55755136 0.05923042
0.08383677 0.03706898 0.00001013
-0.57590867 -0.06138021 -0.00000023
0.14562422 -0.04232911 -0.00000047
0.51262637 -0.33424363 -0.00000043
-0.68658038 0.58910015 0.31918742
-0.09877221 -0.41802163 -0.00000024
-0.59901091 -0.39478313 -0.00000014
-0.05606597 0.08046956 -0.00000055
0.34568160 -0.02427178 -0.00000050
-0.67612754 0.66222687 0.36124231
0.16236586 0.52595033 0.00000080
0.79505740 -0.77807638 -0.00000005
0.43411831 -0.31590363 -0.00000030
0.24865540 0.09685360 -0.00000056
-0.64126475 0.11643082 -0.00000019
0.52266198 -0.24618975 -0.00000063
0.34698669 0.14715591 -0.00000084
-0.56580901 -0.10909376 -0.00000023
-0.55207916 0.69009707 0.29670528
-0.13981207 0.66956017 0.00628761
-0.60949032 0.60963681 0.28123921
-0.18803827 -0.14960406 -0.00000041
0.25481164 -0.08320804 -0.00000045
0.27275538 -0.70975661 -0.00000006
0.34336740 -0.58608045 -0.00000013
0.50027213 0.24187263 -0.00000059
-0.61690173 0.66712048 0.32478460
0.40653709 0.07151829 -0.00000088
0.40365164 -0.66250179 -0.00000009
-0.70010132 -0.18531814 -0.00000007
0.19075071 0.14344876 0.00000679
0.59353970 0.19255241 -0.00000149
-0.00427419 -0.12075621 -0.00000042
0.31457021 -0.28739361 -0.00000032
-0.47860919 -0.03821631 -0.00000034
-0.50828626 0.57120329 0.18754048
-0.01834399 0.45844561 -0.00000079
0.06595326 0.19277133 -0.00000062
0.12823731 0.15608416 -0.00000060
-0.22737459 -0.48859904 -0.00000019
-0.05869366 0.64128556 -0.00000090
-0.20002033 -0.49530626 -0.00000019
0.10035133 0.26682518 -0.00000067
-0.76647329 0.12182319 0.05924850
0.05091112 -0.26379011 -0.00000034
-0.70823943 0.02506120 -0.00000010
-0.18432520 -0.54807899 -0.00000016
0.29374270 -0.22393153 -0.00000036
-0.25890653 -0.76184860 -0.00000002
-0.13886251 0.31045200 -0.00000069
-0.64884765 -0.27481986 -0.00000011
-0.15570105 -0.33476467 -0.00000029
0.30852773 -0.09096809 -0.00000044
0.03530326 0.65283922 0.00000086
0.35061021 -0.26777372 -0.00000033
-0.03968140 -0.37546231 -0.00000027
0.45250613 0.20057580 -0.00000128
0.04158880 -0.18742974 -0.00000038
-0.21518778 -0.24447860 -0.00000035
0.25857258 -0.72391511 -0.00000005
0.35534901 -0.44461074 -0.00000022
-0.10161390 0.30169158 -0.00000069
0.62089347 0.03723136 0.00000077
-0.65088896 -0.52973624 -0.00000006
0.14701832 0.32538819 -0.00000070
-0.51102479 -0.25064784 -0.00000026
0.03310071 0.09037704 0.00001003
-0.64541910 -0.55895146 -0.00000006
-0.00993715 -0.57535368 -0.00000014
-0.09098317 -0.74007333 -0.00000004
-0.54325988 0.70336170 0.29968814
0.10331216 -0.54381890 -0.00000016
-0.25780461 -0.05152307 -0.00000047
-0.20763138 -0.77708985 -0.00000001
0.52477291 -0.57799650 -0.00000014
0.34929018 0.36445355 -0.00000127
0.09086903 0.40433327 -0.00000075
-0.45646086 0.36039742 0.01131175
-0.55747232 0.29106056 0.03256606
-0.32809260 -0.48150807 -0.00000020
0.33228673 -0.67605588 -0.00000008
-0.25917781 0.66137224 0.08088952
-0.37839166 0.18210289 -0.00000048
-0.66089547 -0.27066026 -0.00000010
-0.04386142 0.49549969 -0.00000081
0.68520799 -0.51410150 -0.00000063
0.31072989 0.04153030 0.00000664
0.46360320 -0.25531438 -0.00000043
0.49166080 -0.76924337 -0.00000002
0.26380160 -0.51917412 -0.00000018
-0.30914547 -0.00466213 -0.00000050
-0.11032686 0.46549436 -0.00000079
-0.16659010 -0.08427331 -0.00000045
-0.59066875 -0.53031591 -0.00000013
-0.20090299 -0.66707060 -0.00000008
-0.49576983 -0.34129104 -0.00000026
0.61055953 0.13300607 -0.00000165
0.29902601 0.43815649 -0.00000025
-0.57924066 0.48066559 0.17440004
-0.54084854 -0.27014945 -0.00000023
-0.28652357 -0.71821116 -0.00000005
-0.31057957 -0.76238327 -0.00000002
0.26690103 0.06380678 0.00000694
0.53665828 0.09648173 0.00000133
-0.25708121 0.63135625 0.05934161
0.57934792 -0.08911142 -0.00000112
0.04860127 0.54237216 -0.00000084
0.27696133 0.41946272 -0.00000114
-0.70658079 0.01072619 -0.00000010
0.48307180 0.10590692 0.00000218
-0.56678885 0.44443685 0.14173480
-0.57448492 0.51015296 0.19099523
-0.27082011 -0.64097041 -0.00000010
-0.09834370 -0.46028805 -0.00000021
-0.22588262 0.39537682 -0.00000068
-0.62580277 0.24806918 0.04956907
0.35378586 0.19454162 -0.00000095
-0.41415909 0.64206241 0.17192709
-0.38017979 0.42772197 0.00530160
0.16062129 0.04513655 0.00000884
-0.66980235 0.11456861 -0.00000016
-0.04938140 -0.68848224 -0.00000007
-0.32276493 -0.79301011 -0.00000000
-0.28502200 0.73044944 0.14458297
0.17011422 0.19978334 -0.00000062
-0.67489105 0.21317700 0.05909495
0.03594960 0.02419748 0.00001106
0.36237488 0.40781879 -0.00000092
-0.01346304 -0.09127685 -0.00000044
-0.72583861 -0.06125813 -0.00000007
-0.44804027 0.45481434 0.06901623
-0.10797166 -0.78350001 -0.00000001
0.20791191 0.51280090 0.00000016
-0.65933171 0.17134852 0.02058703
-0.15181348 0.73295781 0.05688126
0.23709432 -0.29914031 -0.00000031
-0.22134064 0.64022307 0.04130891
0.43817962 0.20592225 0.00000125
-0.16460951 -0.32321460 -0.00000030
0.05911657 0.40380043 0.00000455
-0.01734160 -0.53337793 -0.00000017
0.04658639 -0.27329680 -0.00000033
0.04889369 -0.48511458 -0.00000020
0.43767865 0.20218970 0.00000133
-0.55991866 0.28737596 0.03173518
0.08325909 0.63188062 0.00000042
-0.73624778 -0.57627249 0.00000000
0.77259473 -0.30425789 -0.00000124
0.71033125 -0.45041791 -0.00000083
-0.10808340 0.15005622 -0.00000059
0.40258476 -0.09662223 -0.00000054
-0.52793265 0.36090143 0.05960853
0.08814419 -0.72362762 -0.00000005
0.21707302 -0.48124994 -0.00000020
-0.03428007 -0.31454936 -0.00000030
-0.57718465 -0.68260092 -0.00000007
0.14432377 0.30310152 0.00000490
0.36380415 0.09610163 -0.00000079
-0.08343610 0.51087200 -0.00000082
0.60662772 -0.24270470 -0.00000091
0.56537403 0.03989839 0.00000179
-0.38751630 -0.71290655 -0.00000005
0.13793748 0.57747065 0.00000035
-0.34717241 -0.58766536 -0.00000013
0.16705422 0.26104011 -0.00000066
-0.46949912 0.39479257 0.04314014
0.30258767 0.22746295 0.00000347
0.51637628 -0.70340347 -0.00000006
-0.78776982 -0.45738268 0.00000000
-0.20152933 -0.69203841 -0.00000007
-0.64716062 0.56242416 0.27483628
0.06889309 0.59534107 -0.00000087
-0.58162905 0.49502627 0.18563886
-0.17239210 0.76910946 0.09494801
-0.44014345 0.23767794 -0.00000043
-0.19143719 0.27072288 -0.00000067
-0.53023017 -0.67320234 -0.00000008
-0.38361113 0.49852706 0.05511509
0.62614298 -0.41404587 -0.00000064
-0.03201656 -0.49273650 -0.00000019
-0.65204564 -0.47864048 -0.00000007
0.11412804 -0.35700925 -0.00000028
0.44957586 -0.11382814 -0.00000066
-0.65754776 -0.70641481 -0.00000002
-0.34612156 0.52209320 0.04577221
-0.62920437 -0.45967840 -0.00000010
-0.04950158 -0.19306008 -0.00000038
0.08535433 0.04284036 0.00001002
-0.18241335 -0.11354022 -0.00000043
0.01853164 0.53930921 0.00000296
-0.16490195 0.33360776 -0.00000071
-0.28651469 0.10474330 -0.00000057
-0.37670782 -0.42773656 -0.00000023
0.75426487 -0.15149940 -0.00000156
0.69381539 -0.69274094 -0.00000027
-0.56475607 -0.38682039 -0.00000018
-0.50730432 0.61047399 0.21323268
0.00188228 0.17190457 0.00000918
0.65555271 0.10396700 -0.00000174
-0.19386137 -0.07045663 -0.00000046
-0.77930565 -0.44184847 0.00000000
-0.24225813 0.11494072 -0.00000057
-0.26243782 0.34763463 -0.00000064
0.72900324 -0.11063113 -0.00000156
-0.15009886 -0.48416617 -0.00000020
0.29906021 -0.21326462 -0.00000037
-0.44508200 0.61229126 0.17270001
0.23341513 -0.26031341 -0.00000034
0.47678253 -0.57542432 -0.00000014
-0.01915361 0.42299111 -0.00000076
0.03816958 -0.25930026 -0.00000034
0.51225291 0.22133448 -0.00000151
0.04834436 0.14209921 -0.00000059
-0.00057145 -0.42031698 -0.00000024
-0.08060788 -0.18463801 -0.00000038
0.37224626 -0.09126831 -0.00000045
-0.18274618 -0.43680424 -0.00000023
0.23473617 0.23351160 0.00000466
0.23686659 0.41806015 0.00000131
0.05773689 0.69555667 -0.00000023
0.17492512 0.21664476 -0.00000064
0.16834725 -0.00628002 -0.00000050
-0.35545294 -0.52796559 -0.00000017
-0.36211109 0.49558728 0.03871564
0.65993512 -0.36523787 -0.00000084
-0.70746374 0.12667255 0.02290623
0.06980632 0.26311365 0.00000667
0.66336670 0.12317341 -0.00000159
-0.78441534 -0.78558673 0.00000000
0.72598416 -0.35480989 -0.00000107
-0.47525269 -0.68087401 -0.00000007
0.11642384 0.24160588 -0.00000065
-0.55970680 -0.46041836 -0.00000017
-0.08100223 0.11571291 -0.00000057
0.25433445 0.28443794 -0.00000081
-0.54273594 -0.14214918 -0.00000025
-0.04584114 -0.41693249 -0.00000024
0.78908000 -0.22621207 -0.00000143
0.47032987 0.25471825 -0.00000144
0.48454214 0.08130246 -0.00000115
-0.50071098 0.65966984 0.24181945
-0.60030526 -0.05495366 -0.00000020
0.26994413 0.18478611 0.00000486
0.20693509 0.23362190 -0.00000065
-0.70236505 0.60229585 0.33863363
-0.37987882 0.51678095 0.06485923
-0.60588023 0.64097090 0.29984234
-0.06778296 0.53655014 -0.00000084
-0.65071002 0.53779013 0.26068826
0.46431612 0.09083131 -0.00000110
0.57180414 -0.28737875 -0.00000071
0.38112906 0.13302019 0.00000366
0.03160500 0.13391814 -0.00000058
0.44499517 -0.12924907 -0.00000061
0.24737011 0.00830308 -0.00000051
-0.69918815 -0.29218514 -0.00000005
-0.47833061 0.65513919 0.22376178
0.25977497 0.30283881 0.00000294
-0.55777229 0.15297767 -0.00000029
-0.26739985 -0.28752617 -0.00000032
0.04053330 -0.66877383 -0.00000008
0.14691235 0.46861169 0.00000213
-0.51306602 -0.68438563 -0.00000007
0.11323783 0.44318195 -0.00000078
-0.46972924 0.71307580 0.25686629
0.60391662 0.11167609 -0.00000024
-0.39435150 0.40287436 -0.00000051
-0.77122018 -0.23213829 0.00000000
0.00849445 0.76800737 -0.00000098
-0.43505837 0.25013114 -0.00000044
0.39741361 -0.74024203 -0.00000004
0.79364087 -0.72122494 -0.00000020
0.12265958 -0.20167088 -0.00000037
-0.49433847 0.49564724 0.12748232
-0.29307054 -0.13630801 -0.00000041
0.08200884 -0.18991099 -0.00000038
0.23415339 -0.29047735 -0.00000032
0.03386524 -0.72728554 -0.00000005
-0.57327366 0.20252648 -0.00000028
0.12408255 0.11957870 0.00000818
-0.07468381 -0.37592690 -0.00000027
0.29204511 -0.37713753 -0.00000026
-0.64741391 -0.77384498 -0.00000002
0.49039962 0.21560564 0.00000007
0.54119180 0.21412946 -0.00000159
0.24552868 -0.28365884 -0.00000032
0.11534558 0.20479277 -0.00000063
-0.30535706 -0.09969482 -0.00000044
-0.45113953 -0.05632123 -0.00000036
-0.36565439 0.68050438 0.16517475
0.43840387 0.33615343 -0.00000150
0.55225370 0.20655943 -0.00000095
0.61753077 0.09809925 -0.00000026
-0.17508928 0.64849504 0.01582418
0.16873761 -0.65921903 -0.00000009
0.26896287 0.03099512 0.00000744
-0.29832271 0.63359872 0.08851996
-0.44611384 -0.25883459 -0.00000033
-0.68030809 0.19611720 0.05128254
0.25198368 -0.74927583 -0.00000003
0.02738505 0.67560003 0.00000061
-0.75573681 -0.37102947 0.00000000
0.70406764 -0.29940344 -0.00000111
0.48159897 -0.46801827 -0.00000021
-0.05675227 0.12948422 -0.00000058
-0.38147884 0.71544542 0.19923903
0.39393672 -0.33452611 -0.00000029
0.32201276 0.09442736 0.00000548
0.70556769 -0.36901251 -0.00000098
-0.25990688 0.60727491 0.04507882
-0.63739187 0.65414596 0.32982773
0.40466230 -0.44381838 -0.00000022
-0.72386455 -0.11681358 -0.00000006
-0.13030619 -0.58366514 -0.00000014
0.14376798 -0.65901432 -0.00000009
-0.28790679 -0.28608581 -0.00000032
-0.29595343 0.07613956 -0.00000055
0.28475256 -0.64858446 -0.00000009
-0.15385437 0.04505573 -0.00000053
-0.26120651 0.73020773 0.12844024
-0.33335919 -0.44317754 -0.00000022
-0.66775270 -0.24869158 -0.00000010
0.54060099 0.22770862 -0.00000161
-0.25979361 0.31182336 -0.00000063
-0.18413957 0.18506248 -0.00000062
-0.52619891 -0.33270415 -0.00000023
-0.35852314 0.58140055 0.09388974
-0.40465967 -0.50737651 -0.00000018
0.30756701 0.12472671 -0.00000067
-0.48176194 -0.48784251 -0.00000020
0.25430950 -0.40529749 -0.00000025
-0.37085909 -0.23802531 -0.00000035
0.13795645 0.21314067 -0.00000063
-0.15313403 -0.41112928 -0.00000024
0.76367422 -0.27615531 -0.00000131
0.23574820 0.20895955 0.00000505
0.72886241 -0.77853206 -0.00000005
-0.50912169 -0.77340146 -0.00000002
-0.21571763 -0.70704026 -0.00000006
0.41105380 -0.54545063 -0.00000016
0.55793866 0.03179552 0.00000208
0.50180549 -0.49371042 -0.00000019
-0.58883684 0.56064418 0.23450579
0.26713464 0.11593344 0.00000609
-0.06389244 -0.43871809 -0.00000023
-0.39950138 -0.75766308 -0.00000003
-0.07623028 -0.51112706 -0.00000018
0.75346192 -0.75506379 -0.00000011
0.28189677 0.07730731 0.00000649
-0.60652012 0.26884223 0.05056908
0.34981290 0.18368951 0.00000335
-0.30481936 -0.35586872 -0.00000028
0.60880138 -0.53502625 -0.00000034
-0.47147506 0.37735829 0.03276743
0.23075059 0.09476625 -0.00000056
0.43311213 0.33084094 -0.00000147
-0.64423039 0.34453200 0.12666190
0.34138365 0.36428922 -0.00000124
-0.60954130 -0.04815153 -0.00000019
0.79922604 -0.54175210 -0.00000065
-0.17643659 0.67176997 0.03234598
0.16470293 0.54775025 -0.00000104
-0.50317972 0.52789058 0.15505057
0.15375119 0.10228730 0.00000802
-0.63943928 -0.01421059 -0.00000017
-0.00000426 -0.76346457 -0.00000002
0.06903527 0.16356168 -0.00000060
-0.49250829 -0.46550159 -0.00000021
-0.22550503 0.08099472 -0.00000055
0.08640395 -0.35748428 -0.00000028
-0.03602168 0.70837959 -0.00000094
-0.20535199 0.20341858 -0.00000063
0.00430148 -0.45224207 -0.00000022
-0.28906098 -0.35279361 -0.00000028
-0.16103441 0.11947851 -0.00000057
-0.16800258 0.06106799 -0.00000054
-0.79889134 -0.13668009 0.00000000
0.36955891 -0.68500061 -0.00000007
0.00162860 0.52289852 0.00000348
0.02677060 0.40193285 0.00000506
0.44090755 -0.11314228 -0.00000063
-0.59498453 -0.01983012 -0.00000022
0.57875063 0.16915863 -0.00000162
-0.52697290 -0.06197940 -0.00000028
-0.14077161 0.14591767 -0.00000059
0.01565104 0.10480253 -0.00000057
0.14974122 0.19995062 0.00000649
0.24569846 -0.35460898 -0.00000028
0.10296850 -0.25562694 -0.00000034
-0.47077936 -0.49174345 -0.00000019
-0.69876405 0.14351119 0.02836753
0.46824117 -0.60614480 -0.00000012
0.05210694 0.04459794 -0.00000053
-0.54807751 -0.38786358 -0.00000020
-0.11898056 0.47207542 -0.00000080
0.03956754 0.32030694 -0.00000070
0.11923369 0.14016473 -0.00000059
0.69780405 -0.08307800 -0.00000151
0.12838478 -0.62784502 -0.00000011
-0.46840361 -0.62846534 -0.00000011
0.06870256 0.41888165 0.00000416
0.65528290 0.08397569 -0.00000170
-0.52539786 -0.00927701 -0.00000029
0.03790362 0.61519389 0.00000143
0.17059552 -0.18751639 -0.00000038
-0.35594353 -0.08453412 -0.00000045
-0.17512649 0.10752365 -0.00000057
-0.41340531 0.47152641 0.05698968
0.18919667 -0.46716523 -0.00000021
0.46258751 -0.39434486 -0.00000025
-0.46403746 -0.10551690 -0.00000034
-0.56160302 0.69458696 0.30610870
0.40997587 -0.63810559 -0.00000010
-0.12796182 0.03031824 -0.00000052
0.51117007 0.22283724 -0.00000045
0.25262131 0.42504675 -0.00000108
0.09517008 -0.65240106 -0.00000009
0.07988734 0.05561905 0.00000989
-0.52823492 0.39067970 0.07979292
-0.54676381 -0.62168747 -0.00000011
-0.25465073 0.22000794 -0.00000062
0.18166945 -0.24237362 -0.00000035
-0.55598458 -0.34601914 -0.00000020
-0.22435714 0.40114458 -0.00000069
-0.12777883 -0.29512228 -0.00000032
-0.08946518 -0.77846750 -0.00000001
-0.56632135 0.64873640 0.27850850
0.21833411 -0.14406755 -0.00000041
0.22266481 0.46110196 -0.00000105
-0.52666468 -0.43758833 -0.00000021
0.52381512 0.24699419 -0.00000113
0.19274263 -0.02948127 -0.00000048
0.45587481 -0.06411120 -0.00000077
0.25284671 0.49783811 -0.00000122
0.28410636 0.14447937 -0.00000063
0.20436955 -0.39764039 -0.00000025
0.16632393 -0.66268511 -0.00000009
-0.52917285 0.64382601 0.25028638
0.55414615 -0.03331486 -0.00000115
0.60712833 0.18783881 -0.00000167
-0.29256991 -0.09083700 -0.00000044
0.18270184 -0.29718882 -0.00000031
0.64648928 -0.77496375 -0.00000002
0.46949346 0.00643658 0.00000423
-0.14430180 -0.02147797 -0.00000049
0.46037387 -0.29423933 -0.00000034
-0.43834391 -0.01602544 -0.00000038
-0.09180569 0.63023672 -0.00000087
0.34654824 -0.55698553 -0.00000015
-0.27699438 0.06860096 -0.00000054
-0.30669727 0.45159636 -0.00000061
-0.17421393 0.53823445 -0.00000077
0.08576849 0.58812547 0.00000115
-0.50298592 -0.18597168 -0.00000028
-0.71764624 0.51569261 0.29077574
0.68933754 0.03322294 -0.00000171
0.25368624 0.08444164 0.00000680
0.32273849 0.44327851 -0.00000079
0.21732696 -0.01404219 -0.00000049
0.20548511 -0.58723221 -0.00000013
-0.17293959 -0.08032709 -0.00000045
0.41173250 -0.22446757 -0.00000036
0.01292835 -0.40397745 -0.00000025
0.55567062 0.05339044 -0.00000132
-0.07169783 0.29972675 -0.00000069
0.49522737 0.24420070 -0.00000053
-0.47482939 0.40685309 0.05480957
0.21601418 0.14074507 0.00000645
0.33511019 0.36023546 0.00000046
-0.55323305 0.58366114 0.22605979
0.06286767 0.63182209 -0.00000089
0.17487368 0.61721870 -0.00000120
0.00493449 0.03956389 -0.00000052
-0.16754053 0.46545929 -0.00000076
0.01342213 0.05447303 0.00001091
0.63298875 -0.01548513 -0.00000144
-0.44259350 -0.18614227 -0.00000035
-0.16112445 0.66547986 0.01785058
0.11246197 -0.31962049 -0.00000030
-0.26214143 0.12064720 -0.00000058
-0.40296706 -0.18837758 -0.00000038
0.50303835 0.20820806 -0.00000004
-0.44359148 0.69086079 0.22442094
-0.11592019 0.70522091 0.01418458
-0.01814365 -0.19845756 -0.00000038
-0.04964211 -0.66266174 -0.00000009
-0.25556246 0.35278151 -0.00000065
0.03421262 -0.02073514 -0.00000049
-0.60760591 -0.13267140 -0.00000018
0.59606112 -0.04462859 -0.00000126
-0.57778649 -0.26787700 -0.00000019
-0.22161896 -0.56964004 -0.00000014
-0.06586217 0.49896681 -0.00000081
0.43265722 -0.26195849 -0.00000034
-0.41622282 -0.50194064 -0.00000019
-0.52304461 0.46689088 0.12744871
-0.51618051 0.43498760 0.10143534
-0.78998874 -0.57712067 0.00000000
0.29692282 0.36221299 -0.00000110
0.21808429 0.24380173 -0.00000065
0.08775036 -0.06324142 -0.00000046
0.63317214 -0.77968303 -0.00000001
0.75818576 -0.63396971 -0.00000042
-0.50727706 -0.25258233 -0.00000027
0.45204348 0.25669082 -0.00000139
-0.29293712 -0.46966079 -0.00000021
0.48578473 -0.22297738 -0.00000056
0.42727774 -0.12382381 -0.00000057
0.23792494 -0.36684874 -0.00000027
-0.43536930 0.20770265 -0.00000043
-0.23387660 -0.29757162 -0.00000031
-0.13948576 -0.29325605 -0.00000032
-0.40546785 0.47880930 0.05655043
0.15429513 -0.04933841 -0.00000047
0.65536125 -0.57935103 -0.00000041
0.32477607 -0.72528781 -0.00000005
0.35629437 0.19712103 -0.00000096
-0.05928991 -0.21338275 -0.00000037
-0.21193896 -0.12323093 -0.00000042
0.41007733 -0.32191515 -0.00000030
-0.49383820 -0.34153400 -0.00000026
0.15538486 0.06108531 0.00000866
0.43302240 0.28037471 0.00000001
0.54690061 -0.74895129 -0.00000003
0.07053186 0.03673554 0.00001034
0.01814579 0.56801614 -0.00000086
-0.73752749 0.08732170 0.01667456
-0.28501954 -0.61870946 -0.00000011
-0.10444975 -0.64399353 -0.00000010
0.61391890 -0.30996380 -0.00000080
-0.08039222 0.24243416 -0.00000065
0.10328225 0.19652345 -0.00000062
-0.46531412 -0.49521756 -0.00000019
-0.70352198 -0.66321656 0.00000000
-0.60701488 0.45439089 0.17540631
0.06423975 -0.53227995 -0.00000017
0.43151084 0.11446114 -0.00000104
0.12233134 -0.73386494 -0.00000004
0.04511900 0.22616159 -0.00000064
0.19682595 -0.50718081 -0.00000018
0.28583358 -0.51682812 -0.00000018
-0.51549500 -0.35144810 -0.00000024
0.04726635 -0.66023728 -0.00000009
0.31288540 0.20407476 -0.00000084
0.59117200 -0.57515602 -0.00000021
-0.02103822 -0.06165120 -0.00000046
-0.43333549 0.43369979 0.04498101
-0.11351908 -0.56988077 -0.00000014
0.23651309 0.49721713 -0.00000117
0.02983561 -0.31171809 -0.00000031
-0.73774059 -0.74764060 0.00000000
0.02515640 0.57162229 0.00000233
0.37855320 -0.61843350 -0.00000011
0.03887841 0.40045541 -0.00000075
0.30098166 -0.56521200 -0.00000015
0.37369943 -0.56982110 -0.00000014
-0.42032730 0.12037734 -0.00000043
0.12441825 0.14778627 -0.00000059
0.02250638 0.53438870 -0.00000083
0.48585100 0.11871531 -0.00000123
-0.39408473 -0.72854321 -0.00000004
0.70224132 -0.15352281 -0.00000139
0.05259934 -0.67037279 -0.00000008
-0.75332466 -0.61702313 0.00000000
-0.50247939 0.03319469 -0.00000032
0.34778839 -0.62573344 -0.00000011
-0.42290559 -0.03246327 -0.00000040
0.60462205 -0.68730304 -0.00000007
-0.61465757 -0.62318351 -0.00000008
0.67862766 -0.09757601 -0.00000142
-0.25309764 0.35449267 -0.00000065
-0.20369670 0.31704580 -0.00000069
-0.23138690 0.13040256 -0.00000058
-0.66041826 0.01021652 -0.00000015
-0.22271552 -0.65255112 -0.00000009
-0.66384184 0.68911135 0.37103823
0.45531106 0.07051508 0.00000335
0.27736274 -0.43152150 -0.00000023
-0.65351385 0.42311432 0.18562085
0.47896628 0.21317880 0.00000034
-0.17423211 0.38984456 -0.00000074
0.39151955 0.17991445 -0.00000104
-0.12564496 0.30212545 -0.00000069
-0.43903055 -0.16544441 -0.00000035
0.32319360 0.19754700 -0.00000086
-0.23936070 0.55793472 -0.00000070
-0.56725101 -0.34904333 -0.00000018
-0.44397256 -0.44009389 -0.00000022
0.13284121 0.29350833 -0.00000068
-0.38013596 -0.31598058 -0.00000030
-0.56248097 -0.36406853 -0.00000019
-0.18359330 0.52261113 -0.00000075
-0.30200274 0.32358906 -0.00000059
0.52542438 -0.16649070 -0.00000080
-0.01168028 0.08389477 -0.00000055
-0.34538849 0.15975029 -0.00000051
-0.41579951 -0.69109216 -0.00000007
0.61058606 -0.23568501 -0.00000093
-0.34290938 0.68424457 0.15242222
0.31671161 -0.39407012 -0.00000025
0.58935565 0.12221208 -0.00000015
0.51540198 -0.40614941 -0.00000030
0.59098124 -0.18093374 -0.00000098
-0.45808037 0.54794969 0.13824815
-0.38678524 -0.79810890 -0.00000000
0.67967253 -0.06900318 -0.00000148
-0.64745593 -0.23591601 -0.00000012
0.26261971 0.49387075 -0.00000055
-0.54697474 -0.20683042 -0.00000023
-0.66753515 -0.04848247 -0.00000013
-0.02031707 -0.52065610 -0.00000017
-0.34955942 -0.01211154 -0.00000048
0.42393522 -0.07275240 -0.00000065
0.44706411 -0.72951564 -0.00000004
0.15283710 0.42213956 -0.00000076
-0.12514047 -0.73360996 -0.00000004
-0.27681642 0.24566000 -0.00000060
-0.67099517 -0.25756346 -0.00000009
-0.68264370 0.29749695 0.12087672
0.39692327 -0.13008991 -0.00000046
0.14426358 0.30992789 0.00000479
-0.52903282 0.38802579 0.07854752
-0.12420624 -0.35461457 -0.00000028
0.36131263 0.38887671 -0.00000056
-0.67676956 0.23982311 0.07823529
0.07773658 -0.48283741 -0.00000020
0.11939043 0.64578633 -0.00000108
0.12236179 0.50449459 -0.00000082
0.39807508 0.38592242 -0.00000147
0.65780331 -0.42595531 -0.00000071
-0.31412989 0.02917848 -0.00000052
-0.04370580 0.76696048 0.00715564
-0.54868065 0.31877717 0.04526488
0.46525167 -0.08126284 -0.00000077
0.02449875 -0.20671885 -0.00000037
0.44522712 -0.59520705 -0.00000013
-0.22966000 -0.16575311 -0.00000040
0.36054172 -0.57765648 -0.00000014
-0.72095486 -0.03150521 -0.00000008
0.20142903 -0.62699383 -0.00000011
0.44793766 0.32555495 -0.00000151
0.14798591 0.42121999 0.00000292
0.24023965 -0.69023584 -0.00000007
-0.29044839 -0.32350928 -0.00000030
0.41326925 -0.43208950 -0.00000023
-0.36990384 0.42979215 -0.00000054
-0.79866931 -0.01942678 0.00000000
-0.53510472 -0.64940404 -0.00000009
-0.21623160 0.59966382 0.01066496
0.78486447 -0.04759479 -0.00000186
-0.03343135 -0.60645034 -0.00000012
-0.68670150 -0.13421603 -0.00000010
0.71341330 -0.10064703 -0.00000153
-0.46673469 -0.74837026 -0.00000003
0.43369669 -0.77276985 -0.00000002
-0.66815992 0.05249163 -0.00000015
0.07631121 0.00049290 -0.00000050
0.69703816 -0.10247524 -0.00000147
0.54447510 0.19859958 -0.00000157
-0.25212799 -0.50949891 -0.00000018
-0.11155911 -0.58593601 -0.00000013
-0.43228836 -0.23983657 -0.00000035
-0.66519787 -0.61437602 -0.00000003
0.60933604 0.11576896 -0.00000162
-0.01728487 -0.59685695 -0.00000013
0.16045290 0.28979290 -0.00000068
0.19725301 0.47680620 -0.00000100
-0.17034831 -0.57557202 -0.00000014
-0.23248272 0.35223511 -0.00000067
0.59620626 -0.24004914 -0.00000088
0.78249532 -0.75609521 -0.00000011
0.27414271 -0.30840868 -0.00000031
0.27236549 -0.09927496 -0.00000044
-0.68588091 -0.57925170 -0.00000002
-0.38480032 0.10908179 -0.00000046
0.01807276 -0.33924307 -0.00000029
0.08931340 -0.32416215 -0.00000030
0.07817515 -0.40170454 -0.00000025
0.17200615 -0.77213257 -0.00000002
-0.50667962 0.33894944 0.03061741
-0.56756176 -0.39686798 -0.00000018
-0.52615850 -0.38172016 -0.00000022
0.31920758 -0.27031627 -0.00000033
0.26866389 0.05689885 0.00000702
0.21861195 0.05075255 -0.00000053
-0.17783970 0.67581136 0.03599931
-0.37980215 -0.65937189 -0.00000009
0.60391120 -0.49134633 -0.00000041
0.45361099 0.33471506 -0.00000154
0.12977007 -0.30470373 -0.00000031
0.54872236 -0.09232127 -0.00000102
0.18678388 0.58162478 -0.00000117
-0.55757533 0.27150132 0.01951071
0.62597525 -0.08241511 -0.00000128
0.24432273 0.36549106 -0.00000093
-0.31520806 -0.59411873 -0.00000013
0.50819634 0.09852870 0.00000183
-0.29112764 0.51680420 0.00532153
-0.11000761 0.72167851 0.02126039
-0.41958474 -0.47733057 -0.00000020
-0.54882834 -0.41075563 -0.00000019
0.17447547 0.46828516 -0.00000091
-0.41925553 -0.07490419 -0.00000039
-0.17484311 0.54036319 -0.00000077
-0.70147194 0.57006717 0.31640852
-0.28489006 0.52386128 0.00587140
0.31128036 0.43644195 -0.00000129
0.12291674 0.01849486 -0.00000051
0.24286568 0.38036525 0.00000187
-0.77230288 -0.54055977 0.00000000
0.05779868 -0.52101959 -0.00000017
0.17814592 -0.75391907 -0.00000003
0.01705623 0.52668078 0.00000318
0.47730912 0.27055588 -0.00000066
0.37841070 0.07326918 0.00000478
-0.00308100 -0.64716696 -0.00000010
0.51591563 0.21920861 -0.00000152
-0.03921414 0.49162801 -0.00000081
0.45347505 0.28361688 -0.00000044
0.32611080 0.44779190 -0.00000136
-0.10846941 0.01596959 -0.00000051
-0.10963898 -0.10473242 -0.00000043
0.26387624 0.32198511 -0.00000091
0.75582094 -0.34472936 -0.00000114
-0.78499987 -0.59374045 0.00000000
0.73523269 -0.21898209 -0.00000137
-0.53128644 -0.00607502 -0.00000029
0.78717759 -0.75045666 -0.00000012
-0.03998676 -0.27628691 -0.00000033
0.06515526 -0.53359693 -0.00000017
-0.64401129 0.34094382 0.12410717
0.28357289 0.38543195 0.00000100
0.13730069 0.56118510 0.00000065
0.19597116 -0.18301364 -0.00000039
0.54769119 0.20756514 -0.00000088
-0.70242393 -0.35880019 -0.00000004
0.13072460 -0.45651499 -0.00000021
-0.38777618 -0.62945290 -0.00000011
-0.45842105 0.40047425 0.03951908
-0.23008708 -0.77963435 -0.00000001
0.14584801 -0.50721126 -0.00000018
-0.78138801 -0.30668714 0.00000000
0.00244435 0.13288501 0.00000980
0.27574309 -0.60542102 -0.00000012
0.52615409 -0.03561823 -0.00000105
0.45243298 -0.73144246 -0.00000004
0.06987538 0.44796516 0.00000367
0.79707599 -0.75657779 -0.00000011
0.25809506 0.31512655 -0.00000088
0.15710267 -0.32579831 -0.00000030
0.58385664 0.15045869 -0.00000160
-0.54762748 0.26106868 0.00583514
0.43433665 0.18401018 -0.00000119
0.64291329 0.15602107 -0.00000178
0.19442647 -0.03791081 -0.00000048
0.30722531 -0.52167794 -0.00000017
0.02813797 -0.39746038 -0.00000025
0.43877793 0.04623950 -0.00000093
-0.70952267 0.24701632 0.10503983
-0.63694672 0.23017147 0.04503725
0.67313389 -0.78283625 -0.00000004
0.40347963 0.01491858 0.00000535
0.32157972 0.43982727 -0.00000071
0.75081016 -0.70579172 -0.00000024
0.78571568 -0.35723002 -0.00000111
0.31116700 0.17866622 0.00000418
-0.24166582 -0.07587150 -0.00000045
0.55034103 0.23484251 -0.00000142
0.77794831 -0.05369006 -0.00000182
-0.34197193 -0.42104198 -0.00000024
0.63698511 -0.36793265 -0.00000076
-0.62821197 0.11224524 -0.00000020
-0.18174183 -0.62345647 -0.00000011
-0.26323954 -0.30454120 -0.00000031
-0.76384134 -0.48353023 0.00000000
-0.49196496 0.27959112 -0.00000038
-0.22335852 0.35198028 -0.00000068
0.16303586 0.11217158 0.00000772
0.34618383 0.23108542 -0.00000100
-0.18142836 0.70084989 0.05520849
-0.30917936 0.53320014 0.02843635
0.26521618 -0.04831352 -0.00000047
0.52704901 0.13054633 -0.00000138
0.39373368 -0.65954034 -0.00000009
-0.54092375 0.43158633 0.11575611
-0.57205449 -0.01274310 -0.00000024
-0.53584643 0.70273769 0.29429489
0.19209007 -0.31722833 -0.00000030
0.43513839 -0.32573739 -0.00000030
-0.41626673 0.46899902 0.05721382
0.57491716 -0.00810047 -0.00000126
0.16027335 0.47779350 -0.00000088
0.43593944 0.24982963 0.00000051
-0.71482631 0.45803391 0.25019385
-0.34022749 -0.02877865 -0.00000048
0.51407104 -0.11866275 -0.00000085
-0.24431986 -0.63809075 -0.00000010
0.06112966 0.65219235 -0.00000091
-0.14646959 -0.29981104 -0.00000031
-0.44462502 0.07664525 -0.00000039
-0.02868129 0.26143532 -0.00000066
-0.46601900 -0.31032582 -0.00000030
-0.08958595 0.26434594 -0.00000067
0.30151651 -0.43831476 -0.00000023
-0.79790396 -0.22475724 0.00000000
0.79582798 -0.42240814 -0.00000094
-0.23946964 -0.70217863 -0.00000006
-0.14539813 -0.01505753 -0.00000049
-0.73095554 -0.75769370 0.00000000
-0.42635583 0.43908985 0.04391436
-0.74078325 -0.39182474 0.00000000
0.19006428 0.34059664 -0.00000071
-0.47699904 -0.78074676 -0.00000001
0.32100546 0.27972171 -0.00000101
-0.10734433 -0.29160370 -0.00000032
0.12293299 0.56347412 -0.00000093
0.13398606 0.29247769 0.00000523
-0.51953090 -0.75486971 -0.00000003
-0.35387780 -0.75210877 -0.00000003
-0.15587847 0.48934716 -0.00000078
0.19712000 -0.71383298 -0.00000005
-0.39826228 -0.56843110 -0.00000014
-0.02919236 -0.54249743 -0.00000016
0.05508855 0.70667640 -0.00000038
0.29385481 -0.45421886 -0.00000022
0.12881840 0.48709462 0.00000214
-0.33160088 -0.43853239 -0.00000023
0.00022931 0.29072970 0.00000727
0.17136911 -0.68907272 -0.00000007
0.66880165 -0.19999076 -0.00000119
-0.40224465 0.69447668 0.19910292
0.27073313 -0.19381861 -0.00000038
0.28812450 0.39193438 -0.00000113
0.01546413 0.74955933 -0.00000041
0.02459418 0.32393870 0.00000636
0.33784729 0.21741513 0.00000297
-0.64598384 -0.36951800 -0.00000010
0.77601785 0.00840695 -0.00000194
0.11153024 0.14870889 -0.00000059
0.69257250 -0.28314158 -0.00000110
0.37389909 -0.55237054 -0.00000015
0.50895872 -0.51319656 -0.00000018
-0.59745989 -0.31397851 -0.00000016
0.37470549 -0.78164065 -0.00000001
0.22473656 0.45560601 -0.00000105
-0.46358473 -0.08516595 -0.00000034
0.63949814 0.12278876 -0.00000173
0.66582393 -0.25005158 -0.00000108
0.00435705 -0.20620037 -0.00000037
0.75727514 -0.54574353 -0.00000064
0.46470601 -0.12952853 -0.00000067
-0.10366138 -0.42357705 -0.00000024
0.56086899 -0.43232674 -0.00000039
-0.40910937 -0.66463059 -0.00000008
-0.75337175 0.20944776 0.10925425
-0.14998974 0.39335767 -0.00000075
-0.79984860 -0.60419113 0.00000000
-0.26516615 0.01573745 -0.00000051
-0.46747295 0.12849389 -0.00000038
-0.48463977 -0.62894853 -0.00000011
-0.53334685 -0.66850600 -0.00000008
0.44081033 0.14139662 0.00000236
-0.69771315 0.04993790 -0.00000012
-0.13986200 0.31104099 -0.00000069
-0.21001502 -0.46594157 -0.00000021
0.44319557 -0.38046638 -0.00000026
0.09662435 -0.62456182 -0.00000011
-0.45324472 0.57711613 0.15457439
0.45331635 -0.08928861 -0.00000072
0.06723720 0.34915119 -0.00000072
0.59051233 -0.02408819 -0.00000128
-0.60111578 -0.49622657 -0.00000012
0.43701438 -0.11706503 -0.00000061
0.67153891 -0.52750161 -0.00000056
0.25584736 0.34216448 -0.00000093
0.16257596 0.57227722 -0.00000108
0.30152285 -0.28367363 -0.00000032
-0.45829057 0.59817854 0.17209335
-0.00082585 0.03445661 -0.00000052
0.10594065 -0.55903514 -0.00000015
-0.09619409 0.70953610 0.00384362
0.11414896 -0.45684467 -0.00000021
-0.67326790 -0.34258055 -0.00000007
-0.55452144 0.53823008 0.19643954
0.73424454 -0.62257475 -0.00000044
0.06878607 0.17928462 -0.00000061
0.05920542 -0.35406547 -0.00000028
0.50743938 0.10984257 0.00000165
0.53628232 0.24123103 -0.00000163
-0.66475208 0.26879562 0.08961228
0.07103446 0.39593813 -0.00000075
0.30189303 0.45466410 -0.00000129
0.16312322 -0.60497939 -0.00000012
-0.65029193 -0.79887166 -0.00000000
-0.43649424 0.04013061 -0.00000040
-0.00591442 0.00862142 -0.00000051
-0.24788473 -0.41904496 -0.00000024
0.75206117 -0.05641530 -0.00000174
-0.75554619 -0.28590030 0.00000000
-0.63735017 0.30276351 0.09401805
-0.39522145 -0.13196580 -0.00000041
0.27734745 0.30188017 0.00000262
0.77493719 -0.00779571 -0.00000190
-0.57125154 -0.13919608 -0.00000022
0.33489215 0.02499690 -0.00000056
-0.05501269 0.19544346 -0.00000062
-0.79260824 0.03564000 0.01895553
0.49783703 0.14119453 -0.00000131
-0.34017203 -0.28100331 -0.00000032
0.52857490 -0.43224064 -0.00000029
0.40765983 -0.50176111 -0.00000019
0.52961440 -0.38339231 -0.00000039
-0.15590676 -0.66701927 -0.00000008
-0.47343295 0.71694177 0.26194565
0.66649020 0.01333072 0.00000032
0.73704259 -0.65362985 -0.00000037
-0.59591342 -0.55876226 -0.00000012
0.32745463 0.27952557 -0.00000103
-0.50910275 -0.34249726 -0.00000025
0.31309004 0.00178689 -0.00000050
0.14764989 0.43538690 -0.00000077
-0.25331950 0.28283492 -0.00000064
0.73568609 -0.06099348 -0.00000168
0.19837332 -0.48695001 -0.00000020
-0.23544775 -0.05771201 -0.00000046
-0.20370365 0.34515003 -0.00000070
-0.42927007 0.51286131 0.09537134
0.34704653 -0.28408774 -0.00000032
-0.22029561 -0.42460720 -0.00000023
-0.64501815 -0.60450364 -0.00000005
-0.01930500 0.67145873 -0.00000092
-0.13534024 0.41474728 -0.00000076
0.06861669 0.15962666 -0.00000060
-0.14645500 0.75838617 0.07034838
-0.25989782 0.67138273 0.08808981
0.61228199 -0.14287647 -0.00000112
0.71563290 -0.67238370 -0.00000032
-0.46380824 0.67054581 0.22435509
-0.66471309 0.65122940 0.34620362
-0.59355271 0.60690647 0.26871275
0.16833291 0.31395514 -0.00000070
0.67747066 0.05028722 -0.00000055
-0.18674515 0.39738017 -0.00000073
-0.20497477 0.11718111 -0.00000057
0.19859330 0.32947955 -0.00000072
-0.13888561 -0.69893002 -0.00000006
-0.62453249 0.14363249 -0.00000021
0.15922055 -0.59460182 -0.00000013
0.23647225 -0.28385822 -0.00000032
-0.25749661 0.67311333 0.08763983
0.02342554 0.51741227 -0.00000082
0.19438154 -0.74798022 -0.00000003
-0.16784905 0.52404699 -0.00000077
-0.33773662 0.44743699 -0.00000058
0.75881307 -0.76942611 -0.00000008
-0.52747439 0.13503228 -0.00000032
0.20529260 -0.03651179 -0.00000048
-0.60759357 0.23916280 0.03137415
-0.47140227 -0.39277423 -0.00000025
-0.49276152 0.03891508 -0.00000033
0.18997468 0.03890198 -0.00000052
0.34498018 0.09426840 0.00000505
0.28343978 -0.63291662 -0.00000010
0.59792437 0.01593510 0.00000159
0.09772047 0.18357476 0.00000754
0.57588191 0.13765335 -0.00000017
-0.75882586 0.12695768 0.05756227
0.67295713 -0.17746419 -0.00000125
-0.29704321 0.17454379 -0.00000057
0.49797991 0.17057581 -0.00000137
0.23179273 -0.67656815 -0.00000008
0.20663776 -0.00276081 -0.00000050
0.08648349 0.33904596 0.00000519
-0.03415048 -0.06579986 -0.00000046
-0.58758662 -0.71352276 -0.00000005
-0.15492715 -0.55647521 -0.00000015
0.78327033 -0.10256566 -0.00000174
0.70728896 -0.15809980 -0.00000139
-0.11412763 -0.07724413 -0.00000045
-0.18807500 -0.32262144 -0.00000030
0.13185356 -0.28204574 -0.00000032
0.36955468 0.05426690 0.00000529
-0.21334070 -0.08915860 -0.00000044
-0.66967433 0.18320965 0.03548603
-0.40280931 0.64358748 0.16533455
0.27266675 0.05913872 -0.00000054
-0.29895810 0.60354812 0.06878203
0.02457829 0.48887999 0.00000368
0.01526059 0.17886490 -0.00000061
0.39074677 -0.66841076 -0.00000008
-0.45633760 0.58624797 0.16277733
-0.19279748 -0.55169499 -0.00000016
-0.43496208 0.07936832 -0.00000040
0.15365797 -0.10790617 -0.00000043
-0.49780365 -0.58498496 -0.00000013
0.20677663 0.49182718 0.00000056
-0.11052398 -0.31825378 -0.00000030
0.63196806 0.02551570 0.00000077
0.53661384 -0.05544603 -0.00000105
0.62399572 0.15883070 -0.00000147
0.06085682 -0.71657629 -0.00000005
0.29403822 0.03451600 -0.00000052
0.61275635 -0.40339707 -0.00000061
-0.79337094 -0.67706172 0.00000000
-0.30333495 -0.68625760 -0.00000007
0.03190387 -0.17088670 -0.00000039
0.16452061 0.30181714 0.00000461
0.40354520 0.28332010 0.00000053
-0.34342852 0.25373106 -0.00000053
0.62984119 -0.43342212 -0.00000061
-0.26844271 0.35850881 -0.00000063
-0.47015336 -0.55309483 -0.00000015
-0.55615251 -0.13036938 -0.00000024
0.64399855 0.12989554 -0.00000175
-0.00310956 -0.29689108 -0.00000031
-0.45163032 -0.69361414 -0.00000007
0.23614360 0.40482399 0.00000156
-0.41647820 -0.53137070 -0.00000017
-0.54306566 0.67229594 0.27871232
0.08560894 0.25082842 0.00000663
-0.64611559 0.45172703 0.19985596
-0.58673488 -0.56402114 -0.00000012
0.20859304 -0.53549998 -0.00000017
-0.24886444 -0.15211695 -0.00000040
-0.15403746 0.71835348 0.04857391
0.15260052 0.64644993 -0.00000117
0.11440235 -0.05922021 -0.00000046
0.09911966 -0.59967258 -0.00000013
0.27501371 -0.64330469 -0.00000010
0.30806129 0.46748169 -0.00000134
-0.48388635 -0.10212982 -0.00000032
-0.16960872 0.41850574 -0.00000075
0.30391413 0.36060772 0.00000105
-0.49722165 0.15684181 -0.00000035
-0.08382562 0.55145376 -0.00000084
0.19912028 0.12796030 -0.00000058
-0.27697040 0.40656432 -0.00000063
0.71392376 -0.13012601 -0.00000147
0.77324188 -0.11184556 -0.00000170
0.78762606 -0.52639716 -0.00000068
0.33345579 0.20063416 0.00000336
0.24696330 0.00652761 0.00000817
-0.74744276 -0.15749685 -0.00000003
0.48980208 -0.75699255 -0.00000003
0.07287928 0.08144381 0.00000958
0.36786544 -0.45560786 -0.00000022
-0.57460203 0.32423840 0.06632304
-0.29794552 0.16532999 -0.00000057
-0.78862205 -0.09827239 0.00000000
0.16211805 0.46644867 -0.00000087
-0.31143621 -0.79543612 -0.00000000
-0.48705341 0.31755487 0.00309196
0.06047057 0.02604865 0.00001066
-0.60240108 0.19298918 -0.00000025
-0.48029693 0.68078022 0.24228665
-0.37470436 -0.00862543 -0.00000045
0.14346779 -0.70091738 -0.00000006
0.43179260 0.17866413 -0.00000117
-0.53146715 -0.43755373 -0.00000021
-0.65761410 0.62067645 0.32093870
-0.63782583 -0.03451033 -0.00000017
0.34851686 0.39216444 -0.00000132
-0.37507549 -0.45176066 -0.00000022
-0.05332742 0.72161095 -0.00000093
0.23007690 0.00280933 0.00000848
0.14130301 -0.67303129 -0.00000008
0.14562043 0.17241509 -0.00000061
-0.03120307 -0.26022358 -0.00000034
0.69779362 0.09918093 -0.00000187
-0.27407614 -0.16250981 -0.00000040
0.62467530 -0.24897331 -0.00000095
0.34677893 0.26877480 -0.00000107
-0.19601654 0.57504455 -0.00000075
0.77108178 -0.14621086 -0.00000162
-0.32833205 -0.17542982 -0.00000039
-0.32005128 0.54109855 0.04103148
-0.01384141 0.53213938 -0.00000083
0.24289120 0.08150751 -0.00000055
-0.62676466 -0.05166095 -0.00000018
0.14903370 0.18740365 -0.00000062
0.19946175 -0.07931030 -0.00000045
0.56064004 0.18167485 -0.00000159
0.13196858 0.18996519 -0.00000062
0.02342389 0.10465719 -0.00000057
0.34109690 0.19784429 -0.00000092
-0.46354141 -0.17791074 -0.00000033
0.52597718 -0.17188621 -0.00000079
-0.75540787 -0.01029247 -0.00000005
0.24811824 0.04087057 0.00000759
-0.17908016 0.33567073 -0.00000071
0.51677154 0.01196346 -0.00000112
0.23629461 -0.50071455 -0.00000019
-0.34181241 0.50688213 0.03267391
-0.56655149 -0.23114071 -0.00000021
-0.49405768 0.66243326 0.23920928
-0.01104518 0.63219740 -0.00000090
0.07486173 -0.75179326 -0.00000003
-0.17071756 -0.78096348 -0.00000001
0.05181495 0.32509370 0.00000594
0.36569212 0.10548557 0.00000445
-0.53991283 0.51122956 0.16851927
0.73023954 -0.15240627 -0.00000148
0.14730397 0.10616367 -0.00000057
-0.24197310 -0.10211009 -0.00000044
-0.55813109 0.63985742 0.26705482
-0.29787936 -0.16340062 -0.00000040
-0.14541014 0.32082119 -0.00000070
0.16973640 -0.14487478 -0.00000041
0.38078899 -0.42822380 -0.00000023
0.70861346 -0.04562148 -0.00000162
-0.34685674 -0.14678250 -0.00000041
0.40169702 0.10368896 0.00000379
-0.13274171 -0.71033769 -0.00000006
-0.22417824 0.49310320 -0.00000070
-0.60336517 0.48796719 0.19548739
-0.62700927 0.17150823 -0.00000022
-0.03336160 -0.05549521 -0.00000047
-0.08915530 -0.41838873 -0.00000024
-0.22188533 0.02147062 -0.00000051
0.54252714 -0.18406516 -0.00000082
0.00375480 -0.57424544 -0.00000014
-0.46410262 -0.57167640 -0.00000014
0.17547852 -0.21507682 -0.00000037
-0.18689272 -0.17223498 -0.00000039
-0.51379245 -0.27697828 -0.00000025
0.68348737 -0.36356147 -0.00000092
0.64185719 -0.78390110 -0.00000001
0.08085981 0.63932590 0.00000033
-0.31413331 -0.35963141 -0.00000028
0.04159197 0.08810454 0.00000994
-0.07686488 0.63296898 -0.00000089
0.40565908 -0.34007801 -0.00000029
-0.09631764 -0.65691165 -0.00000009
0.41589304 0.21552345 0.00000151
0.10731941 0.40482962 -0.00000075
-0.35376377 0.32534177 -0.00000054
-0.02643329 -0.60389342 -0.00000012
0.00628142 -0.77803685 -0.00000001
0.07349590 0.71798316 -0.00000094
0.53019674 -0.53505836 -0.00000017
0.37051370 -0.11935551 -0.00000043
0.33945626 0.31820146 -0.00000115
-0.18021030 0.59053808 -0.00000077
-0.53498933 -0.13181411 -0.00000026
-0.65619780 0.34539918 0.13527409
0.14264627 0.26392625 0.00000556
-0.23998380 -0.68803640 -0.00000007
-0.65141221 0.39478037 0.16519822
0.08683562 0.12145260 0.00000872
0.30570453 0.14245195 -0.00000070
-0.54526563 0.65324740 0.26740674
0.15294579 -0.27735726 -0.00000033
0.66993558 -0.56643588 -0.00000048
-0.71691510 -0.15705604 -0.00000006
-0.69609295 -0.26260447 -0.00000006
-0.16791118 -0.74255804 -0.00000004
-0.20377593 -0.17084965 -0.00000039
0.67809566 -0.22356372 -0.00000117
0.54366374 -0.42558227 -0.00000035
-0.70715693 -0.51711567 -0.00000000
-0.02630715 -0.76342676 -0.00000002
-0.26048457 -0.51737941 -0.00000018
-0.54513986 0.28286832 0.01879372
-0.05820710 0.75783328 0.01076176
-0.79764447 -0.12020454 0.00000000
-0.57523606 -0.11535177 -0.00000022
-0.29362201 0.05564445 -0.00000053
0.51058005 0.13334023 -0.00000133
-0.22312028 -0.64835807 -0.00000009
0.51403577 0.04957572 -0.00000118
0.07634776 0.41365775 0.00000413
0.33033258 0.24718989 0.00000258
0.34020968 -0.35569708 -0.00000028
-0.40241817 -0.69553203 -0.00000007
0.03522881 0.48954367 0.00000351
-0.66337666 0.53201002 0.26530923
-0.40253798 -0.22486453 -0.00000036
-0.27345732 -0.70927932 -0.00000006
-0.21080201 0.64357290 0.03648512
0.22772492 0.48025928 0.00000037
0.45991855 0.10190561 0.00000270
-0.17439017 -0.63805535 -0.00000010
0.15928675 0.33516918 0.00000415
-0.59507944 -0.75925468 -0.00000003
-0.63318499 -0.73692468 -0.00000004
0.32589563 0.33818679 -0.00000114
0.40982188 -0.69666575 -0.00000006
0.17444798 0.10314071 -0.00000056
-0.27950142 0.62329371 0.06897583
-0.45708589 0.67504540 0.22286356
-0.77192024 -0.00960524 -0.00000003
-0.03035729 -0.35048727 -0.00000028
0.54143897 -0.58063390 -0.00000014
-0.03543642 0.55835724 -0.00000085
0.59633608 -0.30617403 -0.00000075
0.08039393 -0.39411222 -0.00000025
0.19989909 -0.05597495 -0.00000047
0.00127459 -0.74858029 -0.00000003
0.13125884 -0.52639201 -0.00000017
-0.00749146 -0.65960126 -0.00000009
-0.19299414 0.42336473 -0.00000073
-0.05044264 -0.15441452 -0.00000040
-0.43245494 -0.70902994 -0.00000006
-0.33980783 0.30066991 -0.00000055
-0.37416502 0.55618738 0.08746735
0.04100801 -0.40732180 -0.00000025
0.30640797 -0.19154587 -0.00000038
0.04818643 -0.28551296 -0.00000032
0.26303818 0.42644671 0.00000066
-0.48866571 -0.36692556 -0.00000027
0.13125601 0.17313797 0.00000721
-0.62876038 -0.76945380 -0.00000002
0.57893811 -0.23402171 -0.00000084
0.52409202 0.07919543 0.00000188
0.07061029 0.53079071 -0.00000083
-0.66415626 0.33643697 0.13460058
0.14102667 -0.51420214 -0.00000018
0.23899332 -0.72328917 -0.00000005
0.40850927 -0.79080641 -0.00000001
0.40213759 0.08447577 -0.00000089
-0.66499745 0.16302826 0.01880583
-0.57800872 -0.36683251 -0.00000017
-0.05782249 0.66033733 -0.00000091
0.29395731 -0.43059799 -0.00000023
-0.37835049 -0.26086781 -0.00000034
-0.38985003 -0.59485500 -0.00000013
0.16219472 -0.05627674 -0.00000046
-0.33497872 -0.10900805 -0.00000043
-0.22439671 0.51660151 -0.00000071
0.58309602 -0.53007214 -0.00000027
-0.60642536 0.49960107 0.20534730
0.19121308 -0.31374630 -0.00000030
0.13369509 -0.46775373 -0.00000021
-0.63887290 -0.36485601 -0.00000011
0.29645393 -0.71547433 -0.00000005
-0.26334057 -0.08857522 -0.00000044
-0.12683434 -0.64167986 -0.00000010
-0.27654530 0.69215404 0.11319831
-0.57839655 -0.13777846 -0.00000021
-0.51394712 -0.19562493 -0.00000027
-0.44727446 0.31714378 -0.00000043
-0.26440387 -0.57232937 -0.00000014
-0.69723999 0.35414135 0.16868008
0.22798709 0.07203090 0.00000739
-0.66264975 -0.57344933 -0.00000004
0.19508025 0.58689913 -0.00000092
-0.37900295 0.49824581 0.05183422
0.29924748 0.05622391 0.00000657
0.00843803 0.20628956 -0.00000063
0.05936133 -0.03273457 -0.00000048
0.12583051 -0.21102142 -0.00000037
0.17278665 0.10751445 0.00000765
0.78269227 -0.23813310 -0.00000140
-0.55074239 -0.38337624 -0.00000020
0.27369915 -0.33466105 -0.00000029
0.12190706 0.04299673 0.00000946
0.54748388 0.02160707 -0.00000123
-0.61557047 0.35010943 0.11117320
0.70063013 0.08128784 -0.00000155
-0.58363816 0.58672979 0.24852116
-0.24333058 -0.61007028 -0.00000012
-0.28884271 0.27164019 -0.00000060
-0.68502249 -0.58867001 -0.00000001
0.13651085 -0.31398790 -0.00000030
-0.10967866 0.15726026 -0.00000060
-0.74335301 0.17772116 0.08124263
0.56119557 -0.29612521 -0.00000066
0.69827940 -0.57015144 -0.00000056
-0.12512616 -0.32620240 -0.00000030
-0.05458080 -0.35290988 -0.00000028
0.13725705 0.50947103 0.00000158
0.20667246 -0.59429691 -0.00000013
-0.67055851 -0.34930040 -0.00000007
-0.33251982 -0.58934681 -0.00000013
0.33741119 0.31213308 -0.00000113
-0.78855971 -0.35616987 0.00000000
0.05408068 -0.17476128 -0.00000039
0.33537955 0.09850470 0.00000515
0.35984604 -0.70027559 -0.00000006
0.65630981 -0.58961628 -0.00000039
-0.29304101 -0.62013743 -0.00000011
-0.51970133 0.06283272 -0.00000031
-0.77872873 0.13277644 0.07482183
-0.23360552 -0.74405912 -0.00000003
-0.14473289 -0.75354439 -0.00000003
0.66715086 -0.67928619 -0.00000025
-0.33133891 -0.58084825 -0.00000014
0.35538825 0.34037342 -0.00000124
0.23558447 0.16264407 -0.00000060
0.55570044 0.02612078 -0.00000127
-0.60566374 -0.43276863 -0.00000013
0.11921643 -0.02436587 -0.00000048
0.03249649 -0.35785113 -0.00000028
-0.20791350 0.19976221 -0.00000062
0.38114080 -0.78046266 -0.00000001
0.69484835 0.05701325 -0.00000100
0.19822155 0.39392460 -0.00000084
-0.45335781 -0.41198186 -0.00000024
-0.33617174 0.21794755 -0.00000053
0.38781043 0.23500452 -0.00000114
-0.62363335 0.69916847 0.35080620
-0.62193826 0.29915769 0.08125689
-0.37312139 -0.56976879 -0.00000014
-0.05614145 -0.20881848 -0.00000037
-0.70892733 -0.75067951 0.00000000
0.44632515 0.16695955 -0.00000119
-0.41104023 0.45219746 0.04243273
0.00542409 -0.53055187 -0.00000017
-0.24266813 0.67486030 0.07886194
-0.76691115 -0.32717015 0.00000000
-0.05322556 -0.21473540 -0.00000037
-0.47191770 0.08344961 -0.00000037
0.33089485 0.16411747 -0.00000082
0.59011037 -0.13416000 -0.00000107
0.15189909 0.17444721 0.00000687
-0.11707989 0.05549791 -0.00000053
-0.29145515 0.73879272 0.15449815
0.35131674 -0.43515802 -0.00000023
0.35371159 -0.63060454 -0.00000011
