ply
format ascii 1.0
element vertex 1400
property float x
property float y
property float z
end_header
-0.35824718 -0.04007945 -0.00000004
0.26844758 0.45406158 0.16774351
-0.63349622 -0.29172513 -0.00000077
-0.38082133 -0.05922082 -0.00000011
-0.60185858 0.15219027 -0.00000074
0.05598320 -0.13336438 0.03498186
0.49055957 0.10174538 0.30653482
-0.11791242 0.09967106 0.00000000
-0.34927429 0.14362121 0.00000426
-0.44044737 -0.49793173 0.00000000
0.08117038 0.59452453 0.05072250
-0.22389452 0.30392212 -0.00000008
0.02349002 -0.23815487 0.01467805
-0.74732623 -0.33019638 -0.00000117
0.19070469 0.47574991 0.11916432
-0.22770544 -0.76589305 0.00000000
0.24337434 -0.14184461 0.15207573
0.06663300 0.09065123 0.04164759
0.12617979 0.32589759 0.07885115
0.06302406 -0.67873940 0.03938143
0.30522152 0.16583379 0.19072696
0.01775491 -0.18333022 0.01109439
-0.12247726 -0.54907021 0.00000000
0.25965249 -0.11943963 0.16224735
0.44358739 -0.28415843 0.27718149
-0.20412210 -0.04262184 0.00000000
-0.61705178 -0.20108913 -0.00000086
-0.27986408 0.07781530 0.00000661
0.18445731 0.26969362 0.11526662
-0.79793618 -0.21643634 -0.00000146
0.16298097 0.21960166 0.10184085
-0.05769989 0.29810921 0.00000000
-0.11759197 -0.63489119 0.00000000
-0.10320075 -0.11666644 0.00000000
-0.30984453 -0.60613789 0.00000000
0.33212677 -0.24211035 0.20753388
0.34763931 -0.39636001 0.21722710
-0.31791043 0.13390799 0.00000502
-0.11381784 -0.50736181 0.00000000
-0.25475690 0.42039601 0.00000145
-0.02206782 -0.50436278 0.00000000
0.38045296 -0.73601590 0.23773115
-0.26415512 0.45460249 -0.00000052
0.27666301 -0.51107878 0.17287660
-0.38221533 -0.27323642 0.00000000
0.03087841 0.67314178 0.01929479
-0.22809490 0.18837771 0.00000000
-0.51486103 0.28417248 -0.00000127
-0.24869448 -0.09737509 0.00000000
-0.45691711 -0.03167886 -0.00000048
0.16479747 0.16427449 0.10298405
-0.67138326 -0.02858000 -0.00000140
-0.01507644 0.47804812 0.00000460
-0.48044243 -0.71170802 0.00000000
0.28610542 0.45070010 0.17877668
0.43286907 -0.73083269 0.27048406
-0.60535856 -0.12844835 -0.00000094
0.11875558 -0.35748611 0.07420602
0.45358691 0.07142205 0.28343342
0.06712927 0.60560703 0.04194883
0.08774518 0.21356566 0.05482876
-0.47382530 0.10311087 0.00000254
0.43919414 0.02808327 0.27443621
-0.20498720 0.45181295 0.00000188
-0.49254597 -0.53871695 0.00000000
0.44920907 0.03185762 0.28069874
-0.65433808 -0.56752294 -0.00000038
0.18897806 -0.13218054 0.11808548
0.10970856 0.00495758 0.06856468
0.62091119 0.03031266 0.38798511
-0.47651216 0.15244771 -0.00000089
0.24705969 0.25945200 0.15437852
-0.50711270 -0.19644421 -0.00000040
0.31410021 0.16189683 0.19626966
0.23987987 -0.37755360 0.14989216
0.64597468 -0.35245828 0.40364587
-0.31706278 -0.40205368 0.00000000
0.04638806 -0.71588491 0.02898620
0.59336727 0.02810187 0.37077323
0.30971081 0.38592438 0.19352775
-0.57722512 0.19518921 -0.00000098
-0.41161047 0.20824360 -0.00000071
-0.00863398 -0.14634017 0.00000000
-0.24023568 -0.06991906 0.00000000
0.38735441 0.06171000 0.24204350
0.39792580 0.12919067 0.24864914
0.41963765 -0.69440645 0.26221623
-0.15239987 0.42783955 0.00000000
0.46520902 -0.53421717 0.29069211
0.42800273 0.23970651 0.26744412
-0.19112432 0.01803552 0.00000885
0.30965940 -0.38503974 0.19349484
0.62258270 -0.09180777 0.38902890
0.30196081 0.43802207 0.18868412
0.03606527 -0.27649191 0.02253587
0.06025300 -0.36877624 0.03764990
0.15705531 -0.00459455 0.09813812
0.41360238 -0.50584839 0.25844501
0.10097895 -0.76041884 0.06309805
0.49461182 -0.33916214 0.30906476
0.31378338 -0.65413786 0.19607176
-0.01867583 0.65941881 0.00000000
-0.22226013 0.36751184 -0.00000018
0.40657828 0.04626904 0.25405578
-0.24669630 0.45802952 0.00000097
0.18539250 -0.06842800 0.11584500
0.31830024 0.35968013 0.19889529
0.54026756 -0.36150153 0.33759333
-0.34482313 0.41689985 -0.00000079
0.50621324 -0.01317552 0.31631396
-0.73646678 -0.55615749 -0.00000061
-0.45873198 -0.67129984 0.00000000
-0.49030869 0.11450466 -0.00000088
0.60505722 -0.62737136 0.37807816
0.61449744 -0.23203603 0.38397676
0.22636674 0.39348534 0.14145091
-0.22577564 -0.48243940 0.00000000
-0.64383901 -0.28039229 -0.00000084
-0.46989103 -0.34772240 0.00000000
-0.15432254 -0.41264017 0.00000000
-0.48152233 0.14846302 0.00000164
-0.16993627 -0.77066602 0.00000000
0.14543230 0.50996634 0.09087756
0.38515141 0.02842354 0.24066693
0.16674911 -0.03254020 0.10419543
0.64935989 -0.69680735 0.40576162
0.04802144 0.35555176 0.03001367
0.23387746 0.25859140 0.14614144
-0.27235386 -0.53932313 0.00000000
0.37173367 -0.09450232 0.23228273
-0.01903157 0.37994246 0.00000000
0.28510457 -0.02009595 0.17815143
-0.34397123 -0.43436978 0.00000000
-0.32602319 -0.71389952 0.00000000
0.10298594 -0.30050973 0.06435215
0.54919553 -0.63842169 0.34317217
0.48213620 0.10784057 0.30126907
0.03729768 -0.07288148 0.02330596
0.32273004 -0.58393507 0.20166221
0.04741009 0.19764167 0.02962483
-0.02365433 -0.00976780 0.00000000
-0.69577573 -0.70000562 -0.00000025
-0.71362026 -0.76100230 -0.00000010
-0.39169833 -0.33831980 0.00000000
0.01076782 0.26654386 0.00673740
-0.32676545 -0.58001987 0.00000000
0.53668598 -0.08784205 0.33535525
0.59624083 0.07036208 0.37256931
0.02026009 0.29064834 0.01266820
-0.46078545 -0.18120929 -0.00000023
-0.71629073 -0.65129236 -0.00000037
-0.75760271 -0.28269018 -0.00000129
-0.02705327 0.63000132 0.00000214
-0.50855405 -0.28987651 -0.00000024
0.07401923 -0.19319150 0.04625191
0.13637311 0.45366567 0.08521812
-0.30457905 -0.06023352 0.00000000
0.46379539 -0.48433494 0.28980877
0.33893749 0.38719789 0.21178947
-0.43964707 -0.36784830 0.00000000
0.27240947 -0.26065126 0.17021872
-0.30468496 0.05715866 0.00000655
0.18111762 0.01690989 0.11317378
0.29254082 -0.01885435 0.18279806
0.32810362 0.05903944 0.20501990
-0.22111104 -0.21099696 0.00000000
0.32758527 0.03583134 0.20469600
0.07612424 -0.08739970 0.04756726
-0.07017078 0.04352869 0.00000000
0.14725102 -0.13028097 0.09201178
0.13576904 0.55196910 0.08483875
0.40007250 -0.21234779 0.24999064
-0.13756748 0.66011655 -0.00000031
0.08708148 -0.56761455 0.05441404
-0.53512659 -0.73776749 0.00000000
0.20521212 0.39772403 0.12823257
-0.06413388 0.26008500 0.00000000
-0.23458504 0.02132312 0.00000814
0.41268338 -0.79020499 0.25787076
0.12798117 0.16609021 0.07997076
0.05062811 0.52167538 0.03163566
0.64522326 0.02174295 0.40317643
0.06817499 -0.18256964 0.04260006
-0.07232084 0.54025430 0.00000000
-0.60357561 -0.12769191 -0.00000094
0.11402145 0.26731395 0.07124784
-0.73544964 0.00906938 -0.00000174
0.06779304 0.35093486 0.04236796
-0.34177127 -0.34715158 0.00000000
-0.18171918 -0.49284401 0.00000000
-0.16194801 0.02454459 0.00000000
0.28001304 -0.52457299 0.17496991
-0.73087206 -0.41616797 -0.00000096
0.13404904 0.04004144 0.08377314
-0.14335909 0.37314814 0.00000424
0.34522199 -0.00678212 0.21571655
-0.21613484 -0.13858479 0.00000000
-0.20792137 0.36387470 -0.00000012
-0.12234162 -0.45991933 0.00000000
-0.68316089 -0.72630335 -0.00000018
-0.00201888 0.31637397 0.00000000
-0.52561475 -0.22421419 -0.00000043
0.21217216 0.08346799 0.13257863
0.32784426 -0.38285998 0.20485790
-0.39087293 0.36494547 -0.00000024
0.16716301 0.16855828 0.10446208
-0.47079986 -0.43721567 0.00000000
0.18768799 0.30931400 0.11728452
-0.42945913 0.34641481 -0.00000067
0.31720200 0.15843957 0.19821299
-0.03638967 0.11781925 0.00000000
0.14699265 0.06740344 0.09186043
0.28026306 -0.44267179 0.17512614
-0.23319950 -0.49584431 0.00000000
0.13928233 0.54610807 0.08703411
-0.09838960 0.56850085 -0.00000001
-0.48371533 0.09702472 -0.00000082
-0.61858563 -0.33263865 -0.00000064
0.18091722 0.55817407 0.11304847
0.28291498 -0.35240460 0.17678323
-0.42748348 -0.34719803 0.00000000
-0.17320492 -0.26513918 0.00000000
-0.08245408 0.15291758 0.00000846
0.33230611 -0.54575632 0.20764594
0.02724884 -0.49375146 0.01702680
-0.02015551 0.31193621 0.00000702
0.17640700 0.28549199 0.11023614
0.63249656 -0.32155402 0.39522377
-0.10656476 0.13747702 0.00000833
0.04108745 0.33820192 0.02568129
0.02539691 -0.57404556 0.01586960
0.01081545 0.20238363 0.00676827
-0.64977292 0.06803182 -0.00000148
0.03648120 0.51447245 0.02280006
-0.59028782 -0.39280068 -0.00000041
-0.00026611 0.79503411 0.00000007
-0.55199696 -0.08134426 -0.00000080
-0.56368990 -0.67959469 0.00000000
0.33361059 0.10296068 0.20846681
0.08660581 0.61449810 0.05411838
-0.69904419 -0.07089737 -0.00000144
-0.29013787 0.27806533 -0.00000032
-0.73561014 0.06361559 -0.00000183
0.22621185 0.08023657 0.14135152
0.12793612 0.37502572 0.07994774
0.60137369 0.00128738 0.37577615
-0.21212795 0.43281382 0.00000206
-0.02107204 0.18984969 0.00000883
-0.63501511 0.06214078 0.00000013
-0.23564152 -0.72722054 0.00000000
-0.39733740 0.21236381 -0.00000066
-0.46469326 -0.24932705 -0.00000013
-0.11597338 0.48977941 0.00000290
0.42032615 0.06545195 0.26265089
-0.12288166 0.42615529 0.00000375
-0.00707211 0.78480328 -0.00000000
-0.07044379 -0.72499479 0.00000000
0.09285193 0.29796388 0.05801978
-0.05385982 0.64032631 0.00000158
0.29110288 -0.63394622 0.18189955
0.04654868 0.17219810 0.02909657
-0.74843076 -0.48522228 -0.00000079
0.10529064 -0.77712102 0.06579227
0.58593791 -0.38872937 0.36613103
-0.37329843 -0.27166302 0.00000000
-0.40524338 -0.72155978 0.00000000
-0.69290526 -0.15924162 -0.00000126
0.02930915 0.49465037 0.01831897
0.28889859 0.22010312 0.18052209
0.37919662 -0.71416628 0.23694611
0.20497883 -0.32985231 0.12808378
0.08139066 -0.20341382 0.05085805
-0.21122412 0.46249230 0.00000158
-0.16689801 0.07337511 0.00000838
-0.64625466 0.10130552 -0.00000152
-0.22269588 -0.17813157 0.00000000
0.33045213 -0.15919024 0.20648745
-0.18792467 -0.74625163 0.00000000
-0.45333523 0.11046244 -0.00000072
0.57352127 -0.20253005 0.35837228
0.04857870 0.40789021 0.03035505
0.41953109 0.06867606 0.26214950
-0.10008916 0.18487273 0.00000000
-0.03303987 -0.21190992 0.00000000
-0.37425182 -0.41883273 0.00000000
-0.31456176 -0.58726142 0.00000000
-0.27133621 0.43160445 -0.00000051
0.66234084 0.01647585 0.41387228
-0.50556864 0.13850894 0.00000134
-0.43088415 -0.05533080 -0.00000033
-0.00230125 0.48746402 0.00000000
0.22018197 -0.74847292 0.13758366
-0.39169301 0.05408891 0.00000494
0.28333072 0.06549015 0.17705067
0.04098509 -0.40053715 0.02561009
-0.71547255 0.02417708 -0.00000168
-0.23266362 0.12065330 0.00000000
-0.23624460 0.23901209 -0.00000002
0.14147105 0.11818988 0.08840941
0.67162184 -0.30272033 0.41967193
0.26709780 -0.32032991 0.16689965
-0.58923871 -0.42777015 -0.00000034
0.66840524 -0.01570791 0.41766166
0.32933405 -0.17010602 0.20578881
-0.71629740 -0.67055750 -0.00000032
-0.20810049 -0.12992652 0.00000000
-0.35945402 -0.32661980 0.00000000
-0.15738096 -0.03023723 0.00000000
-0.10277471 0.04311928 0.00000980
-0.72827894 -0.19701194 -0.00000135
-0.00894542 0.42231250 0.00000553
0.33615812 0.20660333 0.21005659
0.21152618 0.12173407 0.13218305
-0.73359671 -0.46434468 -0.00000084
0.00487482 0.57405583 0.00304990
0.05214760 0.23454458 0.03258513
-0.51911502 0.02695301 -0.00000085
0.05970686 -0.12674812 0.03730863
-0.28617176 0.35800370 0.00000189
0.15072817 0.47213953 0.09418450
-0.09494484 0.68779818 0.00000005
-0.18387172 0.05191872 0.00000000
-0.22958776 0.11702811 0.00000000
0.41707135 0.28874360 0.26061243
-0.49120360 0.30576233 -0.00000118
0.06375507 -0.18449065 0.03983821
0.40970300 -0.64026545 0.25600843
-0.30746380 -0.25646912 0.00000000
-0.00781692 0.67995179 0.00000168
0.25326278 0.18332247 0.15826072
-0.55291603 0.04682687 -0.00000103
-0.35270158 -0.28156326 0.00000000
0.12896188 0.63520486 0.08058350
0.25883497 -0.46554910 0.16173651
0.03383851 -0.02514034 0.02114445
0.37559084 -0.12445686 0.23469294
-0.28088699 0.17305473 -0.00000009
0.42175362 0.25520943 0.26353822
0.08094077 -0.62657337 0.05057693
0.25552540 -0.61762496 0.15966848
0.62295935 -0.51103609 0.38926450
-0.17353344 -0.23320432 0.00000000
-0.59759750 -0.24656783 -0.00000070
-0.77492370 0.01946805 -0.00000184
0.16793694 -0.73218549 0.10493765
-0.51121016 -0.10492643 -0.00000058
0.30069450 0.32296894 0.18789288
-0.13483665 0.27860167 0.00000579
-0.12198170 0.63051778 0.00000049
-0.35208423 -0.51535192 0.00000000
-0.02357676 0.46484449 0.00000467
-0.60149872 -0.42423948 -0.00000040
-0.79809574 -0.49217991 -0.00000077
-0.66652647 -0.34998445 -0.00000081
-0.02726342 0.63465979 0.00000000
-0.10124803 -0.00748024 0.00000000
-0.17208268 0.34155457 0.00000428
-0.62475583 0.10329324 -0.00000036
0.10265301 0.37471325 0.06414969
-0.69320692 -0.45760422 -0.00000074
0.54622178 0.10718886 0.34131375
-0.05194392 0.36998351 0.00000567
0.22679154 -0.57978220 0.14171375
0.06570849 0.31005913 0.04106614
-0.31651860 -0.44983024 0.00000000
0.58230535 -0.18079366 0.36386111
0.31578051 -0.32000395 0.19731970
-0.40896549 -0.32699815 0.00000000
0.30682724 0.19506354 0.19172504
-0.11317539 -0.52026053 0.00000000
-0.05512264 0.23033356 0.00000000
0.13237969 -0.39096907 0.08271923
0.20448129 0.16248049 0.12778038
0.47901827 0.22794244 0.29932090
0.34797353 0.01676045 0.21744303
0.64234938 -0.20205674 0.40138039
0.08354731 0.65305707 0.05220563
-0.04555524 0.47611863 0.00000000
-0.04438747 -0.09203705 0.00000000
-0.69482589 -0.07249810 -0.00000142
0.03774023 0.21889841 0.02359184
-0.11859220 0.39842325 0.00000000
-0.14763261 -0.39194910 0.00000000
0.10615741 0.13766958 0.06634347
-0.25184082 0.27500534 0.00000393
0.65222752 0.00395782 0.40755281
-0.01785617 -0.04688560 0.00000000
-0.52936035 -0.54903824 0.00000000
0.32391630 -0.08607900 0.20240344
0.08099385 -0.23891259 0.05061010
-0.69116621 -0.20163757 -0.00000118
-0.75437020 -0.30967834 -0.00000123
-0.54606228 0.06842482 -0.00000104
-0.29163851 0.07432395 0.00000000
0.00803640 0.56479012 0.00502165
-0.22928469 0.22903731 0.00000000
0.19439102 0.13696987 0.12146784
0.38859474 -0.19782721 0.24281861
0.16639787 -0.68139413 0.10397595
0.04025115 -0.69133191 0.02515147
-0.15293222 0.00878822 0.00000000
0.25992636 -0.02253677 0.16241848
-0.05152165 0.32919284 0.00000628
0.26147035 -0.11236390 0.16338326
-0.25300278 -0.36161136 0.00000000
0.00994288 0.66770798 0.00621505
0.01676694 0.47233041 0.01048240
-0.13966731 0.18582589 0.00000711
-0.73169431 -0.59042150 -0.00000052
0.10717430 0.06651089 0.06698009
0.33522433 -0.35667236 0.20946943
0.39640863 -0.48039265 0.24770126
0.03100243 0.61363177 0.01937229
0.23092534 0.01214457 0.14429681
-0.35604682 0.19796274 0.00000322
-0.07358978 0.32128476 0.00000607
-0.23663358 -0.18946108 0.00000000
-0.56816098 0.16025884 -0.00000129
-0.17698496 -0.28063962 0.00000000
-0.72926465 -0.66158878 -0.00000035
0.00213167 -0.03607342 0.00133200
0.02462960 -0.25931260 0.01539014
-0.33846193 0.34529949 0.00000110
0.19785515 -0.03153551 0.12363245
-0.23035481 -0.74691831 0.00000000
0.23618231 0.13517417 0.14758169
-0.39861683 -0.31170833 0.00000000
0.03225216 0.60745212 0.02015596
-0.55573740 -0.55807313 0.00000000
0.36346986 0.35000072 0.22711926
-0.62512614 0.00529583 0.00000127
-0.20296757 -0.38211906 0.00000000
0.40766701 -0.04080933 0.25473612
-0.40227136 0.00973026 -0.00000032
-0.36662366 -0.57830805 0.00000000
0.38538517 -0.07612771 0.24081303
-0.53644257 -0.26848135 -0.00000040
0.44733437 -0.35493916 0.27952286
-0.46769692 0.32555920 -0.00000106
0.08011188 0.22524552 0.05006751
0.47188545 -0.33135631 0.29486390
0.24186210 -0.28184021 0.15113079
0.62986770 -0.41481470 0.39358120
0.16576235 0.32461786 0.10358420
0.35972576 0.29819732 0.22477931
0.28468157 0.45238975 0.17788696
-0.65068054 0.00138178 -0.00000137
0.06000523 0.37737696 0.03749508
-0.06071870 -0.05972670 0.00000000
-0.70960028 -0.66154819 -0.00000035
-0.01833176 0.69476245 0.00000130
0.26263259 0.14187604 0.16411616
0.01993154 -0.28992468 0.01245449
0.51931696 0.18728809 0.32450191
0.01272068 0.44715702 0.00794868
-0.59221465 -0.55091230 -0.00000014
-0.14600510 0.01675504 0.00000955
-0.04711654 -0.53405640 0.00000000
0.23523510 -0.32981405 0.14698981
0.53318824 0.03961641 0.33316960
-0.59378853 -0.79728661 0.00000000
0.57969201 -0.03129277 0.36222809
-0.23849573 0.18612056 0.00000000
-0.02558880 -0.28773069 0.00000000
0.33844939 -0.45815357 0.21148465
-0.35820901 -0.10316456 0.00000000
0.06249280 -0.24698082 0.03904947
0.46842516 0.23301730 0.29270152
-0.13339020 -0.70337499 0.00000000
0.30792737 -0.54429146 0.19241256
-0.01820078 -0.75324303 0.00000000
-0.11495129 -0.06734853 0.00000000
0.15822976 0.47947504 0.09887196
-0.68508152 -0.45212233 -0.00000071
-0.30924063 0.37882770 0.00000110
-0.02208536 -0.75671809 0.00000000
-0.28324607 -0.66658258 0.00000000
-0.08645747 0.07848837 0.00000000
-0.55141539 0.15206033 -0.00000121
-0.46528538 -0.30895656 -0.00000003
0.05640522 -0.14146806 0.03524556
-0.58510902 0.20062933 -0.00000122
-0.37080981 -0.50981196 0.00000000
0.30245249 0.31371071 0.18899139
-0.07755050 0.20146813 0.00000781
0.03682981 0.62415224 0.02301360
-0.37731040 0.37695206 -0.00000086
-0.68399102 -0.05270688 -0.00000141
-0.42799100 -0.05307788 -0.00000032
0.47878408 -0.05851658 0.29917451
-0.42752772 0.31033739 -0.00000096
0.03891697 0.17177148 0.02431779
-0.59085831 0.14106246 -0.00000034
0.05164391 0.44389262 0.03227564
0.19604117 0.29520046 0.12250419
0.33980401 -0.66840479 0.21233110
-0.61695892 -0.32258569 -0.00000065
0.24008372 0.07650982 0.15001954
0.22851503 0.10181074 0.14279882
-0.50152988 -0.65831680 0.00000000
-0.55468012 -0.56504914 0.00000000
-0.07516176 0.23001770 0.00000742
0.46122498 -0.26575242 0.28820255
0.44707986 -0.37143127 0.27936383
0.47584402 -0.63889249 0.29733753
0.12742486 0.63457789 0.07962337
0.64000371 0.00734986 0.39991460
-0.08959146 0.11526924 0.00000000
-0.34253371 -0.03718673 0.00000000
0.46620405 0.01069440 0.29131830
0.07591290 0.28369737 0.04744278
-0.02171702 0.39342250 0.00000577
-0.46434757 0.04334728 0.00000372
-0.38195383 -0.37931029 0.00000000
0.37305984 -0.27011616 0.23311146
-0.10817138 0.55279376 0.00000205
0.64366581 -0.19296055 0.40220297
-0.62990381 -0.31433113 -0.00000072
0.11367218 0.05397138 0.07102959
-0.02329957 -0.48205562 0.00000000
-0.08741975 -0.75866821 0.00000000
0.08276603 0.29031746 0.05171746
-0.78124819 -0.12636358 -0.00000168
-0.06293145 -0.15532880 0.00000000
-0.74521486 -0.26733032 -0.00000129
0.29634015 0.03427664 0.18517211
0.03031643 0.30393209 0.01894363
-0.04860433 -0.47148941 0.00000000
0.05175697 -0.28463565 0.03234104
0.15283540 0.06201488 0.09550125
-0.28546320 -0.21617677 0.00000000
0.07586639 -0.54297213 0.04740613
0.13551402 -0.64550037 0.08467776
0.38047288 0.24453527 0.23774548
0.31872893 0.00100865 0.19916202
-0.50896872 -0.04260953 -0.00000068
-0.47760627 -0.09705997 -0.00000045
0.54480804 -0.67729877 0.34043061
0.34265947 0.12402106 0.21411529
0.31202155 0.37146539 0.19497072
-0.40133094 -0.26775664 0.00000000
0.20815990 0.42781371 0.13007144
0.22446821 0.36926099 0.14026191
0.25495368 0.44558795 0.15931215
0.49860722 0.07109340 0.31156121
-0.37210464 -0.18930257 0.00000000
0.15850649 0.16235972 0.09905319
-0.79745393 -0.79663403 -0.00000001
-0.28428109 0.45687473 -0.00000061
0.45825523 0.19305545 0.28634800
0.01180734 -0.21219830 0.00737798
-0.43435470 0.01995499 0.00000469
0.05998657 0.20517584 0.03748342
0.03205232 -0.78131073 0.02002832
-0.71746161 -0.26622712 -0.00000118
0.04311284 -0.26601518 0.02693964
0.62997975 -0.29450393 0.39365110
0.38311157 -0.28454971 0.23939242
-0.62428634 -0.01379773 -0.00000123
0.07960164 0.51779388 0.04974366
0.54565558 0.05777167 0.34095997
0.08386482 0.03579278 0.05240406
-0.00299680 0.68150944 0.00000000
-0.06197856 -0.60225938 0.00000000
-0.59101425 -0.21297166 -0.00000073
0.06717360 -0.08001684 0.04197433
0.01811357 0.03254489 0.01133139
0.22456480 0.14027482 0.14032987
0.18432603 0.34598583 0.11517858
0.58623883 -0.52238136 0.36631911
0.36938460 0.08430759 0.23082020
0.30868233 0.02263480 0.19289221
0.36475307 -0.67076086 0.22792086
0.32780287 0.03036337 0.20483198
-0.44336696 -0.36112879 0.00000000
-0.32300586 -0.20508583 0.00000000
-0.25245282 0.01276440 0.00000000
0.11930592 -0.36891873 0.07454991
-0.04341986 -0.19238862 0.00000000
0.65725980 -0.06573475 0.41069731
0.25283215 -0.26450124 0.15798557
0.25851834 -0.33859854 0.16153866
-0.58505845 0.00255089 0.00000209
0.48267301 -0.68731074 0.30160472
-0.62129968 -0.79554286 0.00000000
-0.61862502 -0.43559496 -0.00000046
-0.04281739 -0.29910616 0.00000000
-0.14602853 0.42530302 0.00000000
0.09350330 0.36693559 0.05843266
-0.71999679 -0.44624498 -0.00000087
-0.71123253 -0.33651910 -0.00000103
-0.57119036 -0.16280200 -0.00000074
0.20403326 -0.41370207 0.12749293
-0.33859877 0.07067782 0.00000568
0.18458387 0.22813922 0.11533971
0.46389051 -0.71866932 0.28986822
0.28414245 0.25195606 0.17755423
0.17844969 0.11137684 0.11150669
-0.05173097 0.39327109 0.00000000
-0.39889528 0.28365987 0.00000096
-0.01719572 0.73914947 0.00000000
-0.71236584 -0.36784718 -0.00000098
-0.25393080 -0.28489341 0.00000000
0.39357248 0.26373120 0.24592887
-0.74960821 -0.46637912 -0.00000083
0.59967948 0.03315353 0.37471864
0.02914349 0.28666882 0.01821070
0.35913446 -0.11562495 0.22440997
-0.28025984 0.21287690 -0.00000016
0.46455167 -0.19713733 0.29028126
0.42167570 0.22978747 0.26349094
0.24793862 -0.49009815 0.15492778
-0.27913103 0.26220077 0.00000362
0.34952030 0.12618806 0.21840236
0.29300211 -0.78629384 0.18308631
0.36818494 -0.19960814 0.23006530
-0.02015003 0.44615030 0.00000000
0.12401579 0.39401208 0.07749781
-0.26632686 0.46288882 0.00000052
0.15241592 0.61211875 0.09523906
0.16253061 0.58226885 0.10155986
-0.03958952 -0.50147718 0.00000000
0.65671638 -0.46642713 0.41035817
-0.61190440 0.04469517 -0.00000128
-0.60969959 0.06291198 0.00000060
-0.64695058 -0.55068691 -0.00000037
-0.29952543 0.10100549 0.00000592
0.01767585 0.51842125 0.01104499
-0.06273014 0.36944086 0.00000000
0.20250157 -0.10245476 0.12653583
0.15708514 -0.54484084 0.09815676
-0.16459378 0.58450901 0.00000044
-0.52448721 -0.32345987 -0.00000025
0.09339307 0.64143626 0.05835881
-0.39765401 0.13841829 -0.00000053
-0.34558625 -0.47340153 0.00000000
-0.18143930 -0.08373201 0.00000000
0.62687384 -0.18411375 0.39171030
0.03516632 0.39660224 0.02198049
-0.42889625 -0.19041141 -0.00000008
0.66854122 -0.73567870 0.41774749
0.66816897 -0.17514331 0.41751417
0.63999301 -0.73546735 0.39990860
0.28858452 -0.51932896 0.18032592
-0.10204626 0.34717870 0.00000525
-0.17807157 -0.62101751 0.00000000
-0.59168116 -0.69151351 0.00000000
0.03584304 -0.73388448 0.02239700
0.10101419 -0.78950653 0.06312007
0.13996592 0.56574082 0.08746086
0.16745085 -0.40008019 0.10463392
0.28628277 -0.56052778 0.17888764
-0.05798503 0.55043101 0.00000287
0.10197290 0.08638899 0.06372967
0.03264826 0.67706679 0.02040226
-0.55584588 0.15767240 0.00000006
-0.19500093 0.09205050 0.00000000
-0.67951904 -0.26834726 -0.00000101
0.41085898 -0.00727072 0.25673064
0.03729006 0.27765452 0.02330119
0.20413255 0.25466105 0.12755496
-0.48073403 0.28338486 -0.00000114
0.12903504 0.14226743 0.08062928
-0.05108819 0.41651087 0.00000498
0.48476907 -0.54958058 0.30291446
0.56152255 -0.05518370 0.35087468
0.15926560 0.17727631 0.09952726
-0.50759851 -0.75911474 0.00000000
-0.00753848 0.37402498 0.00000628
-0.33982051 0.40979475 -0.00000001
0.35844688 0.18263144 0.22398022
0.21617578 0.47759866 0.13508154
-0.04609714 0.09449382 0.00000000
-0.63878562 -0.18491924 -0.00000099
-0.29561399 -0.51703594 0.00000000
0.42311372 0.27573348 0.26438857
0.22880703 -0.08892993 0.14297315
-0.09962416 0.40893740 0.00000436
-0.53536351 -0.30254577 -0.00000034
-0.02563215 0.54314714 0.00000347
0.00586329 0.34291664 0.00367151
0.16308549 0.49748032 0.10190822
-0.54640046 -0.49290206 -0.00000005
0.04001835 0.62769992 0.02500601
-0.40340869 -0.70219703 0.00000000
0.26261279 -0.03046552 0.16409713
0.43193966 0.13762256 0.26990606
-0.40408709 -0.77984022 0.00000000
-0.56501989 -0.12248711 -0.00000078
-0.40847086 0.15877501 -0.00000061
0.14218029 0.28341833 0.08884974
0.34732117 -0.45650302 0.21702830
-0.50364193 -0.06044535 -0.00000063
0.28635531 0.04285861 0.17894100
0.58255819 -0.54829449 0.36401922
0.13534045 -0.17575300 0.08456930
-0.32123594 -0.56966936 0.00000000
0.59017245 -0.61340954 0.36877711
0.06795018 -0.70469848 0.04245959
0.03326303 -0.74268073 0.02078485
0.34632280 0.28340772 0.21640431
-0.51998587 -0.06766231 -0.00000069
-0.64117818 -0.01436716 -0.00000130
-0.58161209 -0.15687830 -0.00000079
-0.43249577 0.11392179 -0.00000063
-0.59255642 0.10942559 -0.00000131
0.31317427 -0.15415787 0.19569116
-0.37270509 0.33499135 -0.00000077
-0.24299593 0.30195011 0.00000365
-0.11099537 0.34052726 0.00000000
-0.28441913 -0.75845039 0.00000000
-0.78895623 -0.44073025 -0.00000090
0.47269361 0.07270635 0.29536876
-0.54539422 0.16773824 -0.00000121
0.15345333 0.04475129 0.09588738
-0.03868458 -0.16792945 0.00000000
-0.27811940 0.16132629 -0.00000006
0.56521864 -0.49318185 0.35318437
-0.08325208 0.48104719 0.00000000
-0.31053758 -0.62543668 0.00000000
-0.07653344 0.23768054 0.00000000
0.63130848 -0.58646381 0.39448172
0.63376584 -0.66987129 0.39601735
0.29881619 -0.55027219 0.18671931
0.60557775 -0.71989854 0.37840354
0.15627185 0.40264951 0.09764855
-0.06306929 -0.50660854 0.00000000
0.15963201 0.04905879 0.09974821
0.30338123 0.26450392 0.18957174
-0.00030104 -0.46266394 0.00000000
-0.07977939 0.01962513 0.00001050
-0.15382498 0.63724840 -0.00000037
-0.06252914 0.57715315 0.00000000
0.00904996 0.66697263 0.00565499
-0.23529967 0.45509193 0.00000124
-0.53231269 -0.51099566 0.00000000
-0.19701264 0.51463283 0.00000098
-0.39717288 -0.08120756 -0.00000014
0.56010576 -0.46773751 0.34998951
0.05318051 0.12166331 0.03324131
0.01597696 0.22408080 0.00999304
0.02892121 0.57930448 0.01807511
0.29682648 0.06135416 0.18547598
-0.35154406 -0.11076746 0.00000000
-0.38723796 -0.48630278 0.00000000
0.11544657 -0.27167866 0.07213834
0.46052974 -0.68158598 0.28776820
0.26945420 -0.25294100 0.16837208
-0.21677083 -0.40673404 0.00000000
0.29787883 0.23363861 0.18613763
-0.04466215 -0.00797097 0.00000000
0.20596429 -0.60141560 0.12869956
-0.26792601 0.42104834 0.00000118
-0.71238647 -0.35655904 -0.00000100
0.61721391 -0.61544493 0.38567449
-0.06889982 -0.62633781 0.00000000
-0.37597064 -0.23238305 0.00000000
-0.49550626 0.11487370 0.00000193
-0.35766510 0.26144860 -0.00000057
-0.75030402 -0.76733201 -0.00000008
-0.08727368 -0.07363039 0.00000000
-0.79793621 -0.57829291 -0.00000055
0.21063820 0.47653440 0.13162147
0.53050393 0.10464222 0.33149360
-0.01052476 0.26177546 0.00000000
0.10132548 0.34716240 0.06331459
0.14649266 -0.38397529 0.09153791
0.23193719 0.44266753 0.14493058
0.23155442 -0.62648381 0.14468989
-0.04901448 -0.03889858 0.00000000
-0.74412818 -0.60482934 -0.00000049
-0.38826989 -0.06498509 -0.00000013
0.19596583 -0.07689425 0.12245188
0.64785727 -0.17763305 0.40482205
-0.11854203 -0.41428784 0.00000000
-0.40464936 0.13428268 0.00000335
-0.71871809 -0.13588399 -0.00000141
-0.42876605 0.35884886 -0.00000105
-0.47881653 0.08567767 0.00000274
0.10843395 -0.77877692 0.06775641
0.57729738 -0.06554453 0.36073179
0.48593394 -0.59635906 0.30364236
0.36545337 -0.66436430 0.22835845
0.36237293 0.34716578 0.22643341
0.26110400 -0.54931304 0.16315434
0.06878465 -0.39308422 0.04298102
-0.59823610 -0.49733306 -0.00000026
0.32290778 -0.61709452 0.20177327
0.06921642 -0.77276841 0.04325081
-0.26285582 0.14596841 0.00000000
0.24567637 0.07268309 0.15351418
-0.47735622 -0.13493227 -0.00000038
0.12246892 -0.40505996 0.07652635
-0.71794413 0.01576933 -0.00000168
0.34077600 0.35147767 0.21293920
-0.33511925 0.06388949 -0.00000013
0.00145879 -0.13940674 0.00091155
-0.44275690 -0.09085354 -0.00000031
0.38939450 -0.59286043 0.24331839
-0.48661665 0.13977812 0.00000168
0.07804449 -0.43224587 0.04876715
0.48264428 -0.18331855 0.30158664
0.19955115 0.24984824 0.12469825
-0.33414074 0.03284419 -0.00000007
0.08499774 -0.19364761 0.05311198
-0.25450942 0.25009595 0.00000430
0.38938155 0.04404443 0.24331019
-0.44611784 0.25853886 -0.00000095
0.32080700 0.31289663 0.20046252
-0.10795067 0.37609266 0.00000473
-0.18439956 0.49680974 -0.00000025
0.22697504 0.29062137 0.14182836
-0.07437482 -0.68079304 0.00000000
0.33549947 0.07273136 0.20964128
-0.04327314 0.38021597 0.00000000
0.21808986 -0.06980685 0.13627638
-0.02737177 0.58832638 0.00000276
-0.14979346 0.06264696 0.00000880
0.54779444 0.00374619 0.34229648
0.22573170 0.48053521 0.14105138
0.07989067 0.65974564 0.04992162
-0.00321738 -0.34057946 0.00000000
-0.33903249 0.25766101 0.00000255
0.63546848 0.01702824 0.39708135
0.29298155 0.30823227 0.18307336
-0.34856425 0.38989352 0.00000016
-0.01990898 0.40952099 0.00000556
-0.07243137 0.10148137 0.00000938
-0.52798103 -0.70877948 0.00000000
-0.05645386 -0.01590116 0.00000000
-0.09669357 0.04189346 0.00000000
0.55023344 -0.01610464 0.34382053
0.32589196 0.26503615 0.20364074
0.45449933 -0.65816152 0.28400002
0.23499599 -0.17545362 0.14684040
-0.51699197 0.02678137 0.00000299
-0.78402114 0.00655450 -0.00000180
0.65391462 -0.05971685 0.40860703
-0.53131656 0.20677633 -0.00000029
-0.42772252 -0.09315390 -0.00000025
0.50808606 -0.16230298 0.31748426
-0.08991804 0.21110757 0.00000000
-0.78643847 -0.40400215 -0.00000099
0.22807985 -0.14328970 0.14251876
-0.33561198 0.32048470 -0.00000058
0.37575070 -0.69600853 0.23479288
-0.66509952 -0.43700410 -0.00000065
0.35592170 0.24499084 0.22240232
0.18549564 0.55337984 0.11590936
-0.20008826 0.34741158 0.00000372
-0.53766265 -0.17681025 -0.00000057
0.22306261 -0.56356950 0.13938367
-0.48779680 -0.56453666 0.00000000
-0.26444739 -0.12711174 0.00000000
-0.29029646 -0.54494167 0.00000000
-0.73821047 -0.03061469 -0.00000168
0.61391541 -0.08602357 0.38361303
0.14642581 0.12452554 0.09149614
-0.39283901 -0.60036456 0.00000000
-0.66355809 0.06566397 -0.00000048
0.22887641 0.13768044 0.14302401
-0.65101723 0.09849949 -0.00000154
0.23641829 0.15348014 0.14772914
-0.28721153 -0.16666684 0.00000000
-0.34960264 -0.72235085 0.00000000
-0.53427634 -0.68324494 0.00000000
-0.49312123 -0.04772600 -0.00000061
0.02164437 0.63144573 0.01352731
0.46818295 -0.26810731 0.29255033
0.59974203 -0.46053539 0.37475673
0.06999033 0.56403050 0.04373440
-0.12865042 0.65912946 -0.00000012
0.38553849 -0.12428547 0.24090886
-0.17171090 0.40978072 -0.00000004
0.35264896 -0.14522040 0.22035743
0.11783860 -0.55636248 0.07363303
-0.56571047 0.09608851 -0.00000117
-0.77463038 -0.44597463 -0.00000089
0.23630669 -0.48812794 0.14765941
-0.30700486 -0.22707151 0.00000000
0.05820862 0.12004963 0.03637244
0.26671331 -0.78238585 0.16665940
-0.67538355 -0.36709990 -0.00000082
0.00399863 0.75290853 0.00249934
-0.45536636 0.11561973 -0.00000073
-0.43204461 -0.70211135 0.00000000
-0.14782020 0.40804464 0.00000000
-0.16344729 0.31450312 0.00000000
-0.14715237 0.39908966 0.00000000
-0.21865953 -0.00072265 0.00000000
0.13110210 0.54099755 0.08192288
0.54100255 -0.65303633 0.33805269
-0.27657738 -0.21767300 0.00000000
-0.75106786 -0.55207930 -0.00000062
-0.37802665 0.02707861 0.00000565
0.25856733 0.06475824 0.16157753
-0.58003816 -0.39222007 -0.00000037
-0.06498563 -0.78744739 0.00000000
-0.00049210 0.45101768 0.00000523
-0.55526486 -0.75746366 0.00000000
0.58787340 -0.21622374 0.36734039
-0.61773522 -0.13854184 -0.00000098
0.38717767 -0.70482264 0.24193317
0.11118842 0.29391440 0.06947758
-0.10293087 -0.39469684 0.00000000
0.26123841 0.19278163 0.16324403
-0.05673594 -0.04128147 0.00000000
-0.16751074 -0.09505851 0.00000000
-0.10312137 0.67266357 -0.00000021
-0.21847789 0.20092856 0.00000569
-0.22420500 0.43227482 -0.00000031
0.19738735 0.22060748 0.12334676
0.11067281 0.45970000 0.06915539
-0.70641690 -0.41319235 -0.00000087
-0.30255709 -0.23951742 0.00000000
0.27325022 0.38517605 0.17074396
0.09972447 0.31494428 0.06231418
0.08686156 0.45791254 0.05428102
0.06554599 0.17243047 0.04095729
0.16229802 0.32182616 0.10141957
0.10591704 -0.42506350 0.06618369
-0.37844108 0.28201087 0.00000139
-0.75620945 -0.60887071 -0.00000048
-0.76579428 -0.21677141 -0.00000146
0.16103561 0.20686188 0.10063273
-0.78732095 -0.10613161 -0.00000173
-0.49937832 0.11904184 -0.00000093
0.11504827 0.08273181 0.07188946
0.23036014 0.41416829 0.14394574
-0.49679853 0.20440616 0.00000041
-0.26245564 0.28737362 -0.00000021
-0.74962745 -0.41533638 -0.00000096
-0.23023734 0.45322154 0.00000137
0.40773024 -0.74328840 0.25477572
-0.02866197 0.05981304 0.00000000
-0.02765687 -0.28973618 0.00000000
-0.46199300 -0.26382712 -0.00000009
0.07844060 -0.18380169 0.04901466
0.20237568 -0.73999570 0.12645716
-0.67200745 -0.02893383 -0.00000140
0.15566103 -0.30906031 0.09726689
0.06984546 0.27620428 0.04365170
0.43791096 -0.06273546 0.27363443
0.19813900 -0.76671075 0.12380982
-0.28890481 -0.06001891 0.00000000
-0.24613200 -0.47972545 0.00000000
0.22675839 0.26071108 0.14169299
-0.24376867 0.14845273 0.00000000
0.14691022 0.51104283 0.09180101
-0.03600387 0.29390046 0.00000000
-0.44427770 -0.68125592 0.00000000
-0.28945688 0.46562690 -0.00000064
-0.52829991 -0.40724463 -0.00000012
-0.06373622 0.31606473 0.00000630
0.16202340 -0.18671525 0.10124250
-0.08308377 0.15182958 0.00000847
-0.36481888 0.28209362 -0.00000064
-0.33421089 0.06793219 -0.00000013
0.51150898 0.14124856 0.31962301
-0.01100973 0.63731970 0.00000227
-0.38265823 0.34059934 -0.00000082
-0.35358441 0.33358748 -0.00000068
-0.08926014 0.01441132 0.00000000
-0.19654227 0.41123452 -0.00000015
0.05596957 -0.07662832 0.03497334
-0.19010078 -0.23473432 0.00000000
-0.33809813 0.27190104 0.00000233
-0.11478086 0.03580580 0.00000973
0.08762255 0.07729855 0.05475213
0.11637917 0.43296749 0.07272543
0.53586683 -0.68203786 0.33484358
0.24290636 -0.21362985 0.15178330
0.21815300 0.30434598 0.13632037
-0.61140668 -0.38739121 -0.00000051
-0.12902999 -0.50745986 0.00000000
-0.05910225 0.10110704 0.00000959
0.27095775 0.19860307 0.16931154
0.00101914 0.64713490 0.00063682
-0.79708317 -0.06590692 -0.00000184
-0.03089665 -0.65285915 0.00000000
0.00431448 0.58688665 0.00269955
-0.16525316 -0.29578389 0.00000000
-0.19787784 0.03319314 0.00000000
0.05380090 -0.40856798 0.03361822
0.05590059 0.07637570 0.03494173
-0.22817925 0.07982824 0.00000000
-0.60318089 0.09955295 0.00000012
0.01515869 0.70007086 0.00947211
0.32938785 0.14831327 0.20582739
0.05354655 0.12043349 0.03347006
0.23472589 -0.61114979 0.14667163
-0.30489720 0.06183421 0.00000647
0.09240649 0.49431170 0.05774144
0.47752499 0.15816679 0.29838769
-0.05038436 0.56620335 0.00000000
0.40057272 -0.48000486 0.25030325
0.09747559 0.65791057 0.06090941
-0.12464874 -0.58212955 0.00000000
0.19562503 0.40745403 0.12224198
-0.69636486 -0.29443527 -0.00000104
0.20673335 -0.00063048 0.12918011
0.04885966 -0.51389674 0.03053062
0.20293379 -0.43094238 0.12680591
0.46995189 -0.69045277 0.29365576
-0.47706088 -0.50240099 0.00000000
-0.09148869 -0.44520004 0.00000000
0.43187951 -0.24514967 0.26986566
0.55922803 -0.49999266 0.34944106
0.46508894 0.09505154 0.29061689
0.11751424 -0.34815276 0.07343035
0.03126184 0.25315493 0.01953438
-0.09658573 0.11253767 0.00000000
0.56131548 0.04911899 0.35074697
0.16309897 0.46893806 0.10191454
-0.55571981 -0.63143083 0.00000000
-0.19486580 -0.32832305 0.00000000
0.33175959 -0.08524539 0.20730442
-0.17204483 0.03964626 0.00000000
-0.38744155 -0.76885354 0.00000000
-0.06135596 -0.48135343 0.00000000
0.32344439 0.13937676 0.20210849
0.34808369 0.27784613 0.21750463
-0.42149430 0.01308163 -0.00000041
0.23956028 -0.03875079 0.14969246
-0.15539108 0.10448020 0.00000809
-0.03345130 0.60140968 0.00000247
0.17161342 -0.68820275 0.10723495
0.07827077 0.37570496 0.04891451
0.04352378 -0.70819156 0.02719642
0.19816939 0.07674523 0.12382881
-0.42188572 0.12757338 0.00000313
0.08083491 -0.33253264 0.05051078
0.44772474 -0.59706945 0.27976682
-0.32704233 -0.67677404 0.00000000
-0.25561356 0.02233643 0.00000781
-0.50503026 -0.74169876 0.00000000
-0.27298142 0.03650575 0.00000000
-0.26228454 0.23620396 0.00000438
-0.41957827 -0.70936265 0.00000000
0.41825803 -0.28317137 0.26135412
0.38976175 -0.51954480 0.24354787
0.50461026 0.15797721 0.31531226
0.16900878 -0.12031081 0.10560741
0.17026042 -0.33230469 0.10638952
-0.63717261 0.12593325 -0.00000153
0.22171801 0.51134669 0.13854389
-0.23450089 0.38862299 0.00000237
0.04030420 -0.47900354 0.02518462
-0.23752059 0.33858201 -0.00000020
0.55652070 -0.72203504 0.34774942
0.55829298 -0.55189966 0.34885680
-0.52627700 0.10439297 -0.00000102
0.49315247 -0.79702926 0.30815296
0.53134508 0.16054383 0.33201785
-0.40956038 -0.66728171 0.00000000
0.10631828 -0.45716675 0.06643441
0.10014908 0.47350104 0.06258342
-0.29459538 0.41997564 0.00000069
-0.31767976 0.36121232 0.00000123
-0.58660295 0.09749426 0.00000047
0.32329041 0.18371009 0.20201226
0.00787429 -0.72418394 0.00492036
0.05092687 0.00278144 0.03182234
0.01727073 -0.75178134 0.01079185
0.22508487 0.03736899 0.14064731
0.34347515 0.39132479 0.21462496
0.19494438 -0.11894893 0.12181362
-0.01344064 -0.48346470 0.00000000
0.29193341 -0.34930555 0.18241851
-0.16741101 0.27041793 0.00000000
0.08736553 -0.17606195 0.05459153
0.31848996 0.25998739 0.19901262
0.62259260 -0.37486471 0.38903517
0.26225698 0.39902744 0.16387645
0.16706579 0.48936580 0.10439543
0.07868020 0.34947558 0.04916438
-0.27129761 0.21463950 0.00000457
0.59682320 -0.06336764 0.37293274
-0.25279673 0.21982515 0.00000484
-0.17048611 0.05295850 0.00000863
0.53333465 -0.39762998 0.33326122
0.13640176 -0.42734477 0.08523247
-0.47011190 0.30786817 -0.00000081
-0.50664126 -0.18072487 -0.00000043
0.34451280 0.30560613 0.21527330
0.22483060 -0.71911572 0.14048842
-0.26282975 0.40729440 -0.00000043
0.67369363 -0.28194144 0.42096650
0.16212284 0.26157451 0.10130464
-0.50541841 -0.27457852 -0.00000026
-0.66863818 -0.07254761 -0.00000131
-0.05813898 0.73177161 0.00000002
0.00616213 0.05433643 0.00385049
0.29106057 0.23980469 0.18187719
-0.42761642 0.10514081 0.00000340
0.41773584 0.08007632 0.26103207
-0.77829210 -0.72967381 -0.00000018
-0.50230313 -0.34992199 -0.00000011
-0.46112941 -0.39384978 0.00000000
0.01820232 -0.09686914 0.01137397
0.34235169 -0.50271589 0.21392306
-0.11884638 0.64033014 -0.00000022
-0.68083709 -0.45545788 -0.00000069
0.34745135 -0.03531810 0.21710960
-0.21459177 -0.65493307 0.00000000
0.01907951 0.31355327 0.01193012
0.66565240 -0.19308099 0.41594167
0.51897232 0.02572532 0.32428973
-0.11506241 0.32007312 0.00000546
0.57628547 -0.66557929 0.36009967
0.06026045 -0.06199680 0.03765455
-0.27917665 0.00388693 0.00000000
-0.64200157 -0.60563593 -0.00000026
0.60430241 -0.11861542 0.37760624
0.42318280 -0.17444605 0.26443139
0.04707194 0.68683945 0.02941464
0.47352715 0.01486144 0.29589398
-0.68756041 -0.77269272 -0.00000007
0.55868854 -0.60546067 0.34910399
0.07173500 -0.65993261 0.04482458
-0.59887989 -0.01452534 -0.00000112
0.35643076 -0.52967075 0.22272056
0.32700722 -0.46368642 0.20433486
0.06108324 -0.33547821 0.03816868
-0.70523201 -0.70164877 -0.00000025
0.00254677 -0.79302328 0.00159138
0.22644480 0.43956303 0.14149878
-0.53215351 -0.73177968 0.00000000
0.17947694 -0.59398001 0.11214858
0.11378401 0.18274797 0.07109947
0.13348135 0.23094258 0.08341514
0.53023219 -0.17968072 0.33132255
0.44628391 -0.17234173 0.27886641
-0.10338344 -0.45998006 0.00000000
-0.36420388 -0.65658362 0.00000000
0.26775343 -0.11829918 0.16730933
-0.21564062 0.03946807 0.00000000
0.19506085 -0.23107079 0.12188640
0.02584429 -0.21436132 0.01614915
0.26246782 0.00039432 0.16401585
0.29503500 0.41097246 0.18435645
0.29563149 -0.69865223 0.18472931
0.09875627 -0.66198026 0.06170918
-0.51262320 0.16069340 0.00000083
-0.66204923 0.12738752 -0.00000148
-0.38331229 -0.75643807 0.00000000
-0.27350414 0.47046145 -0.00000058
0.55655762 0.03314978 0.34777226
0.53729081 0.15588378 0.33573311
-0.36202604 -0.20472798 0.00000000
0.56948522 -0.70821776 0.35585046
0.11503561 -0.23695900 0.07188154
-0.29180786 0.47201509 -0.00000067
0.36522644 -0.04557172 0.22821659
0.15465574 0.35578976 0.09664373
0.16450126 0.16779262 0.10279890
0.28452109 0.40156414 0.17778670
-0.00771083 0.20660232 0.00000000
-0.10522927 0.19038251 0.00000000
0.21989041 -0.20141267 0.13740148
-0.46208209 0.24204521 -0.00000099
0.39921033 -0.37249802 0.24945194
0.03447901 0.24930719 0.02155355
0.24314220 0.21807674 0.15193630
-0.28919858 -0.27088322 0.00000000
-0.08731609 0.20448354 0.00000762
0.16280826 0.53827480 0.10173420
-0.23559356 0.09191754 0.00000000
-0.78899031 -0.71278592 -0.00000022
0.65418709 0.02684829 0.40877726
0.26937779 0.29587445 0.16832783
-0.52832702 0.00449655 -0.00000085
-0.33711903 0.22706514 0.00000310
-0.22512570 -0.37081575 0.00000000
-0.38318502 -0.13956794 0.00000000
-0.48222735 -0.54024043 0.00000000
0.60233452 -0.21737691 0.37637660
0.13804811 0.51257074 0.08626118
-0.00945598 0.05117776 0.00001109
-0.15691482 0.13435056 0.00000762
-0.50095658 0.04513452 0.00000299
0.35065108 -0.37049451 0.21910904
0.23074239 0.15225261 0.14418969
-0.10462778 -0.13718962 0.00000000
-0.55878128 -0.39479897 -0.00000027
0.44238144 -0.59049428 0.27642799
-0.34578067 -0.59451656 0.00000000
-0.16740861 0.03709402 0.00000000
-0.15654756 0.49653291 -0.00000013
-0.18496266 0.26956215 0.00000000
-0.53856239 0.00588407 -0.00000089
-0.40064993 -0.01794153 -0.00000026
0.20491728 -0.09390558 0.12804531
-0.00486026 -0.71094314 0.00000000
-0.19109000 0.01164792 0.00000000
0.18293065 -0.23122304 0.11430668
-0.34900482 -0.35852810 0.00000000
-0.14547644 0.01231622 0.00000000
0.00842684 0.25604064 0.00526562
-0.60090687 -0.02378405 -0.00000111
-0.21760593 -0.14258590 0.00000000
0.67522376 -0.40774396 0.42192279
-0.37639294 0.06748189 0.00000501
-0.57468740 0.21380172 -0.00000142
-0.17436499 0.46271120 0.00000229
-0.15982677 -0.70429610 0.00000000
0.10592795 0.52987097 0.06619050
0.30030536 0.21727395 0.18765414
-0.02564687 0.26674823 0.00000761
0.11271336 -0.49122171 0.07043046
0.32354871 -0.40949071 0.20217376
0.44865752 -0.04509676 0.28034955
-0.64323330 -0.03993773 -0.00000126
0.23688706 0.44285692 0.14802196
0.23530172 0.16957635 0.14703143
0.43863778 -0.45481923 0.27408872
-0.65283188 -0.73952398 -0.00000006
-0.17395127 0.37739122 0.00000000
0.09533040 0.60163914 0.05956846
0.34593310 -0.56985525 0.21616095
0.67560533 -0.05680640 0.42216078
-0.03509718 0.40430896 0.00000000
0.30135328 0.33756316 0.18830658
0.26446902 -0.74096704 0.16525702
0.52052297 0.07031757 0.32525777
0.13848203 0.59547004 0.08653230
-0.07585119 -0.24726255 0.00000000
0.65305097 -0.19490673 0.40806743
-0.19486769 -0.44112141 0.00000000
0.36353542 -0.09597081 0.22715995
0.02951256 -0.41281408 0.01844132
0.17020398 -0.26888863 0.10635424
-0.27977148 0.48858176 -0.00000064
0.31066726 -0.21931839 0.19412462
0.24570581 -0.73621724 0.15353258
-0.59185793 0.11612877 0.00000006
0.48088837 0.19123443 0.30049013
-0.16487360 0.05467820 0.00000000
0.55579833 -0.29742446 0.34729791
0.57385044 -0.34484275 0.35857801
0.28284323 -0.58342415 0.17673840
0.16011836 -0.11510238 0.10005211
0.02525797 -0.24777066 0.01578279
0.04172500 -0.44233221 0.02607243
0.59025362 -0.04625072 0.36882765
-0.15465713 0.17425067 0.00000000
-0.36911790 -0.79910590 0.00000000
-0.57458636 -0.51468382 -0.00000013
-0.75865283 -0.76207429 -0.00000009
-0.46393690 -0.53179701 0.00000000
0.13669595 -0.73269411 0.08541630
-0.27005473 0.39597255 -0.00000044
-0.18084797 0.29772215 0.00000481
-0.06701775 0.20365987 0.00000000
-0.25502223 0.03693429 0.00000760
-0.06506936 0.36125972 0.00000560
0.62774030 -0.72172599 0.39225224
-0.17319416 -0.60868062 0.00000000
0.14619223 0.57557828 0.09135012
-0.58909383 0.00921030 -0.00000112
0.01485212 -0.03644642 0.00928054
0.63238898 -0.01086190 0.39515645
-0.03693165 0.27087537 0.00000738
-0.61027379 -0.19153373 -0.00000085
0.15487501 0.21454891 0.09677573
-0.39721740 0.32040582 0.00000038
0.09236025 0.05325592 0.05772382
-0.18330806 -0.73914267 0.00000000
-0.02543389 -0.11130875 0.00000000
0.25138647 -0.73527821 0.15708221
0.13712498 0.38562660 0.08568919
-0.60160997 0.13572791 -0.00000139
-0.34212237 -0.31037462 0.00000000
0.42428115 -0.66297841 0.26511778
-0.34449500 0.44310285 -0.00000065
-0.61194298 0.13561579 -0.00000144
-0.77229637 0.01500300 -0.00000172
0.28947538 -0.26289212 0.18088258
0.58659236 0.03314686 0.36654128
-0.43132545 -0.74948313 0.00000000
-0.53520892 -0.34642643 -0.00000026
-0.36231009 -0.24839020 0.00000000
-0.19124638 0.27640554 0.00000497
-0.12325542 0.12282328 0.00000000
-0.45818383 -0.70758462 0.00000000
-0.60747590 -0.15878132 -0.00000090
0.48403003 0.20261132 0.30245243
0.49284811 -0.51438083 0.30796274
-0.07250848 0.25129699 0.00000714
-0.08623733 0.53317940 0.00000000
0.01643986 -0.19936395 0.01027267
-0.39392060 0.00877436 -0.00000028
0.38662050 0.13421859 0.24158488
0.12382872 0.06847187 0.07737604
0.09393184 0.22542466 0.05870286
0.00032472 0.27845840 0.00021186
0.21874202 -0.43017292 0.13668390
-0.05265223 0.10165687 0.00000000
0.37374070 -0.61320819 0.23353690
0.64636639 -0.16038325 0.40389045
0.38519628 -0.57399239 0.24069507
0.34248825 -0.43949304 0.21400839
-0.33121281 -0.05927502 0.00000000
-0.18813577 -0.31645341 0.00000000
0.02514495 0.09066231 0.01571216
-0.04375730 0.52065867 0.00000353
-0.46101865 0.13763421 -0.00000080
0.47556090 0.16129245 0.29716040
0.46700096 0.18064446 0.29181160
-0.09640941 -0.01798579 0.00000000
0.53368408 0.01082193 0.33348251
0.31728765 -0.59653416 0.19826146
0.57555904 -0.04904612 0.35964556
-0.58999590 -0.64860723 0.00000000
-0.20929542 0.52607131 0.00000056
-0.30220151 -0.35411766 0.00000000
0.14716535 0.38367905 0.09196290
-0.53916042 -0.66762157 0.00000000
0.43565690 -0.15453499 0.27222598
0.37614719 -0.22182337 0.23504061
-0.36538058 0.02199179 0.00000598
-0.02682934 0.64161502 0.00000000
-0.55181152 0.01679213 -0.00000097
-0.79305891 -0.03302945 -0.00000191
-0.07641874 0.20768207 0.00000773
-0.29924357 -0.62493516 0.00000000
-0.14636394 0.30823558 0.00000517
0.43153188 0.27901812 0.26964851
0.30452130 -0.19415781 0.19028423
0.10879038 0.47570548 0.06798287
0.60267492 0.08731016 0.37658925
-0.35943109 -0.61575427 0.00000000
-0.10161642 0.55075670 0.00000221
-0.62096500 -0.65705688 -0.00000007
-0.13893388 -0.41816335 0.00000000
-0.61798028 -0.31163019 -0.00000067
0.42312814 -0.68569067 0.26439731
-0.25117841 0.29653640 -0.00000018
-0.07119823 -0.66900353 0.00000000
0.11170592 0.49302802 0.06980431
0.66505294 -0.26865249 0.41556718
0.03412488 0.25113767 0.02132339
-0.07858604 0.46267121 0.00000387
0.13727304 0.47780729 0.08577688
0.37446046 0.33619229 0.23398689
0.44153188 0.11965343 0.27589695
-0.07011589 0.60348912 0.00000189
-0.12840460 0.36857930 0.00000453
-0.08494466 -0.25448486 0.00000000
-0.76133135 -0.33336076 -0.00000117
-0.46881265 0.22867230 0.00000054
-0.57786873 -0.25725224 -0.00000060
-0.10240408 -0.28703290 0.00000000
0.16183139 0.29662271 0.10112843
0.14238327 0.06599036 0.08897010
0.29489487 -0.62831127 0.18426903
-0.69361080 -0.72812176 -0.00000018
-0.07492257 0.11439440 0.00000915
-0.58927125 -0.42471232 -0.00000035
0.02264430 -0.38083888 0.01414960
-0.39931804 -0.58742127 0.00000000
-0.01875807 0.02247857 0.00000000
0.08534168 0.56047040 0.05332956
0.13264524 0.26527558 0.08288516
-0.36966036 0.13445158 -0.00000040
-0.60450100 -0.00894372 -0.00000115
-0.53333148 -0.16195590 -0.00000058
0.18878927 0.09366926 0.11797646
0.46440558 -0.33555358 0.29019001
-0.56088426 -0.29007896 -0.00000047
0.18712220 -0.59094514 0.11692583
-0.17061676 -0.65598155 0.00000000
-0.07840890 0.38975734 0.00000497
-0.51707910 -0.17258797 -0.00000049
0.17259148 -0.77150731 0.10784610
-0.36478187 -0.63183278 0.00000000
0.01046496 -0.25984289 0.00653917
-0.21071606 -0.12907953 0.00000000
0.08578292 -0.45383683 0.05360261
0.06752862 0.18743369 0.04220555
-0.18473400 -0.00812286 0.00000000
-0.20301827 -0.33197915 0.00000000
-0.07559898 -0.10490017 0.00000000
0.10780349 0.43493668 0.06736691
-0.38753279 -0.76241385 0.00000000
0.52361605 -0.44546756 0.32718845
-0.31567289 0.03762777 0.00000667
-0.00574147 0.73401883 0.00000000
0.20261782 0.45594593 0.12660840
-0.11876876 -0.72164458 0.00000000
0.00912242 0.07662395 0.00570026
-0.19253220 -0.18169067 0.00000000
-0.06452949 0.70803950 -0.00000011
-0.76254930 -0.35942603 -0.00000110
0.22449852 0.51307170 0.14028124
-0.10172881 0.54109881 0.00000000
0.20641883 -0.53407452 0.12898358
-0.31368763 0.03777327 0.00000000
-0.51546117 -0.29260947 -0.00000027
0.49218674 -0.14858837 0.30754936
