ply
format ascii 1.0
element vertex 1368
property float x
property float y
property float z
end_header
-0.07961995 -0.05239288 -0.00000001
-0.18342752 -0.62096036 0.00000150
-0.18607079 0.37055347 -0.04288567
-0.07476919 0.64203746 -0.04892591
-0.39122344 -0.00129417 -0.31076692
-0.24733243 0.15198588 -0.00000207
-0.06724091 -0.40370540 -0.00000016
-0.21190318 0.00769474 -0.00000077
-0.38793599 -0.00730505 -0.28049580
-0.29811890 0.04011322 -0.00000127
-0.19309074 0.33383308 0.04840873
-0.12080922 0.25116178 -0.00000427
-0.57307476 -0.58278109 -0.00155869
-0.36827145 0.06372913 -0.33163137
-0.23054732 0.05279208 0.00000501
-0.28766598 0.14735052 -0.09076796
-0.06917540 -0.60539867 -0.00000030
-0.33965189 -0.75779664 -0.00000202
-0.29849146 0.10006981 -0.04487019
-0.49118049 -0.23909149 -0.31839790
-0.01546577 0.18237168 -0.00000857
-0.30351993 0.03147200 -0.00000131
-0.51154643 -0.62730961 -0.00000298
-0.21663494 0.20090576 -0.00000068
-0.44050231 -0.63612765 0.00000343
-0.40249182 -0.07037845 -0.21987012
-0.11666816 -0.17393515 0.00000127
-0.66292122 -0.79158363 -0.01914364
-0.12042517 0.50927019 0.00837539
-0.32402985 0.01771309 0.22195502
-0.11270295 -0.01205744 0.00000134
-0.32941084 0.10702871 -0.22199115
-0.34066554 -0.63150640 -0.00000195
-0.52053754 -0.31039880 -0.31745513
-0.54487400 -0.51545789 0.20348513
-0.15625656 0.48516703 -0.13542426
-0.34312975 0.03680776 -0.14145989
-0.24641581 -0.53412773 0.00000203
-0.49504814 -0.23376814 -0.35021688
-0.00142648 0.01123216 0.00000050
-0.07963228 0.62819693 -0.04436765
-0.26544882 0.15913794 0.23265384
-0.01084423 0.46566006 0.00000073
-0.29283237 -0.19854510 -0.00000139
-0.44958908 -0.25902653 -0.05720557
-0.51983203 -0.33942572 -0.25075882
-0.24657563 -0.49511258 0.00000205
-0.06937452 0.65972933 -0.05905757
-0.33028797 0.12632784 -0.26847219
-0.47105467 -0.15600045 -0.39328465
-0.46578262 -0.16546100 -0.34512777
-0.26344302 0.16398090 0.17957411
-0.44456620 -0.27329135 0.17613585
-0.17809544 0.37628512 -0.01353727
-0.59837318 -0.71779560 -0.00000356
-0.17703148 0.37259910 0.15306790
-0.10372726 -0.27982121 -0.00000030
-0.44157037 -0.49809306 -0.00000248
-0.41514071 -0.15474709 -0.10303376
-0.20022247 0.10575064 -0.00000424
-0.04660038 -0.16455507 0.00000012
-0.32138073 -0.15925149 0.00000283
-0.21412060 0.28306018 0.15417184
-0.19973615 -0.59968924 -0.00000108
-0.30037408 0.17088668 -0.20844429
-0.08293004 -0.17493999 0.00000102
-0.10927787 0.01385967 -0.00000848
-0.47064048 -0.76233505 0.00000357
-0.09262697 0.33739849 0.00000485
-0.50372343 -0.34178766 -0.16122860
-0.10660680 0.16956888 0.00000141
-0.17073892 0.02769678 0.00000181
-0.13022612 0.48560344 0.07668768
-0.54140825 -0.50708734 0.11708054
-0.33697570 0.08617401 -0.21636197
-0.16203995 0.00835472 -0.00000697
-0.02835867 0.52616957 0.00000399
-0.05015010 -0.37315410 0.00000065
-0.55848857 -0.54832529 0.16629030
-0.15760396 -0.44438400 -0.00000073
-0.18365980 -0.31137606 -0.00000080
-0.19604829 -0.03579057 0.00000196
-0.10778773 -0.10973955 0.00000124
-0.06765597 0.63666134 0.04111230
-0.34595021 -0.01409343 -0.04577041
-0.14703977 -0.08314234 -0.00000044
-0.53396568 -0.43797550 -0.11092364
-0.48805964 -0.49218868 -0.00000275
-0.13387837 -0.58440776 -0.00000067
-0.37159000 -0.09711493 0.28050133
-0.35079786 -0.04691454 0.27986772
-0.02194447 -0.32335439 0.00000046
-0.31758506 -0.44744828 -0.00000170
-0.23440698 0.03428259 -0.00000437
-0.47473548 -0.34611965 0.01590147
-0.36736398 -0.08691451 0.32927568
-0.17793623 0.44425442 -0.16022258
-0.10707994 0.11953062 0.00000745
-0.34043301 0.10772269 -0.28124879
-0.00166232 0.17178648 0.00000062
-0.40386170 -0.07297350 -0.22141558
-0.11736986 0.17470009 0.00000149
-0.29219082 -0.59014154 0.00000234
-0.18632569 0.12150510 0.00000527
-0.35482160 -0.06235720 0.00000314
-0.31101361 -0.75464443 0.00000237
-0.06367920 0.27520421 0.00000649
-0.20964236 0.07452339 0.00000528
-0.24751602 0.20243582 0.10003583
-0.00436422 -0.47590399 0.00000018
-0.28365042 0.11520608 0.10273171
-0.29312670 0.09232361 0.16535193
-0.66116100 -0.75734362 -0.08423572
-0.49218779 -0.57375414 0.00000385
-0.24949867 0.19764986 0.08660999
-0.50298163 -0.41315376 -0.00244989
-0.17841985 0.36925185 0.11223774
-0.10972557 0.33172587 0.00000154
-0.61347738 -0.67519816 -0.01267477
-0.31935157 -0.72044864 -0.00000188
-0.20776794 0.29840567 0.04044226
-0.25683008 0.02990042 -0.00000103
-0.00172644 -0.16874144 0.00000041
-0.02097757 -0.51253234 0.00000005
-0.30595993 0.06135243 0.02991208
-0.39924262 -0.16387124 0.20487030
-0.01648707 0.36784655 0.00000649
-0.50175875 -0.41136839 0.20526276
-0.27805596 0.18101279 -0.11348205
-0.23913131 -0.23276177 -0.00000109
-0.22171705 0.19289370 -0.00000072
-0.28231624 -0.18944415 0.00000251
-0.24668948 -0.25895194 -0.00000115
-0.02831160 -0.79429319 0.00000022
-0.36603188 -0.79807881 0.00000276
-0.47280311 -0.72347215 -0.00000281
-0.29722439 0.08242413 0.25252005
-0.03738290 -0.29204223 0.00000060
-0.22434450 0.25837856 0.06779096
-0.24665870 0.28142453 -0.16690021
-0.63570740 -0.77128128 -0.00000382
-0.15009549 0.43762861 0.15455600
-0.28645075 0.10844232 0.01582662
-0.35706720 -0.16143651 0.00000309
-0.42362678 -0.22273144 0.01043050
-0.21945063 0.29631814 -0.05666602
-0.31806519 0.03210651 0.27127003
-0.08873607 0.06786487 0.00000866
-0.14561885 0.47216428 -0.05146511
-0.52953943 -0.38802855 -0.19613562
-0.07513332 0.64343756 -0.05387200
-0.30499066 0.06368338 0.00221844
-0.18247308 0.35946559 0.06917644
-0.64190939 -0.70507072 -0.09681531
-0.17794404 0.37039869 0.09208523
-0.43217837 -0.24339076 0.32071737
-0.17469867 0.39579376 -0.03808055
-0.44910838 -0.74572078 -0.00000268
-0.02560336 0.39817281 0.00000059
-0.34033498 -0.50904919 0.00000275
-0.40981653 -0.04819617 -0.30639044
-0.52086089 -0.55220578 0.00000408
-0.12307099 0.50287707 0.07949503
-0.33460038 0.04396322 -0.11230626
-0.36679647 -0.08327731 -0.00484243
-0.04004253 0.41970273 -0.00000397
-0.28308611 -0.16887904 -0.00000131
-0.16021795 -0.60613302 -0.00000085
-0.46561653 -0.32411803 0.32041623
-0.06908184 -0.72863661 -0.00000037
-0.43482963 -0.15155716 -0.21312078
-0.33533873 -0.00958260 0.14477860
-0.30707528 0.05866164 0.00628716
-0.35295228 -0.05212097 0.31937949
-0.27978055 -0.70238934 0.00000217
-0.29794247 -0.58519617 0.00000238
-0.61641758 -0.68817449 0.06409329
-0.55064599 -0.51693469 -0.02695119
-0.42237772 -0.13412309 -0.18571537
-0.16086322 0.27708571 -0.00000264
-0.10976721 0.01430952 -0.00000015
-0.03246172 0.11183709 0.00000081
-0.06115299 -0.25590298 0.00000080
-0.18874770 0.35184452 -0.01629939
-0.51865047 -0.40887411 -0.09383805
-0.26830174 0.15225162 0.16186261
-0.43051945 -0.23938469 0.29679010
-0.49070824 -0.38468973 0.19987669
-0.15249066 0.18049230 -0.00000447
-0.00215621 0.16025614 0.00000062
-0.56299147 -0.49473376 -0.13982213
-0.32235188 -0.24725223 -0.00000160
-0.48872752 -0.25418193 -0.27279309
-0.26307142 0.16488636 0.11946798
-0.33927869 0.07257118 -0.19890465
-0.36278418 -0.07585828 0.36213352
-0.39574829 0.00568755 -0.34962828
-0.31416313 0.06264880 -0.04577657
-0.27591760 0.09184654 -0.00000111
-0.36691018 0.06660438 -0.33073929
-0.01970730 0.45535345 0.00000520
-0.46812153 -0.33016465 0.29744808
-0.20972293 0.30842487 -0.03196538
-0.10030849 0.30332599 0.00000008
-0.19892633 0.31975197 0.02807260
-0.05016123 0.45965403 0.00000117
-0.11991723 0.28430568 -0.00000376
-0.09953247 0.53353616 0.00000023
-0.17636084 -0.29347999 -0.00000075
-0.07509476 0.29143014 0.00000595
-0.26159550 -0.62071138 0.00000209
-0.17801486 0.34798192 -0.00000036
-0.08262888 0.10905470 0.00000119
-0.23802926 -0.59748632 0.00000192
-0.55936913 -0.44950345 -0.21900943
-0.19785737 -0.72145448 0.00000154
-0.36269879 -0.07564312 0.24796160
-0.35596007 -0.05936795 0.16424876
-0.08978068 0.51774212 -0.00000088
-0.33078891 0.09098488 -0.19438587
-0.01408737 -0.77558243 -0.00000007
-0.04875124 0.45513454 -0.00000313
-0.01231930 -0.59352956 0.00000005
-0.34152192 -0.65768730 -0.00000197
-0.49097904 -0.50716405 0.00000389
-0.22590888 -0.57546496 0.00000184
-0.24988345 -0.26378320 0.00000222
-0.45247318 -0.29238622 0.30250579
-0.32978369 0.00382676 0.01662917
-0.25982301 0.20213525 -0.06378362
-0.24924427 -0.33690597 0.00000217
-0.04870649 0.70123710 -0.04085179
-0.37560135 -0.28626715 0.00000315
-0.33394748 -0.16735811 0.00000291
-0.14373073 0.15980898 0.00000168
-0.65261346 -0.70217245 -0.15919308
-0.23054107 0.30927045 -0.14288496
-0.18095168 -0.04427493 0.00000184
-0.52879254 -0.56414635 -0.00000304
-0.05234898 -0.44881186 -0.00000010
-0.44300543 -0.26951727 0.04127200
-0.46980080 -0.33420927 0.08386441
-0.02363132 0.01150699 -0.00001110
-0.01900732 -0.71494442 -0.00000006
-0.52420787 -0.46555725 0.01665921
-0.27214889 0.14296964 0.14466458
-0.40578385 -0.17897460 -0.00142380
-0.24628603 0.20540701 0.06142480
-0.41932972 -0.09139311 -0.26248537
-0.14119681 0.45911816 0.01741216
-0.55433840 -0.73914675 -0.00000331
-0.35514219 -0.05740289 0.20680305
-0.15234358 0.07360235 -0.00000621
-0.16187225 -0.54210184 -0.00000082
-0.03908866 0.24382722 -0.00000686
-0.30919879 0.12304519 -0.15084278
-0.30286627 -0.65886180 -0.00000174
-0.45611438 -0.19180113 -0.23730109
-0.06421769 0.38291024 -0.00000384
-0.21290939 -0.41325187 -0.00000104
-0.08001681 0.36673920 0.00000133
-0.36897352 -0.09079832 0.28420879
-0.24583119 0.26766227 -0.13269345
-0.67029182 -0.81823577 0.12409005
-0.23251473 0.23865024 0.19260652
-0.05386370 -0.09420818 0.00000012
-0.24669213 -0.28455024 0.00000218
-0.09445210 -0.52008868 -0.00000040
-0.40074152 -0.01286010 -0.33553484
-0.03238789 -0.52500203 -0.00000002
-0.33284811 -0.02080584 -0.00000152
-0.32561056 0.01389489 0.24792279
-0.03619664 0.20981053 0.00000041
-0.47164335 -0.47459138 0.00000376
-0.36462451 -0.52897543 -0.00000203
-0.14288003 0.05467390 0.00000737
-0.29911506 -0.61695563 0.00000237
-0.09963216 -0.52808906 0.00000092
-0.32445551 0.01668086 0.22544099
-0.50224925 -0.41254522 0.04011662
-0.44784241 -0.59219211 -0.00000257
-0.23547396 0.17586874 0.00000239
-0.50223193 -0.30189814 -0.23998929
-0.21452320 0.28209245 0.10054249
-0.15388988 0.34245111 0.00000188
-0.13103726 0.20570040 -0.00000016
-0.13288990 0.38428826 0.00000311
-0.08644395 0.15177727 0.00000757
-0.31319806 -0.24912354 -0.00000155
-0.26712466 0.18683110 -0.06882596
-0.17288690 0.39800337 -0.03337776
-0.01666387 -0.43407258 0.00000013
-0.05314137 0.69124242 -0.04239679
-0.40365368 -0.17451308 0.03793336
-0.56049039 -0.73558903 0.00000427
-0.40243853 -0.07851083 -0.20194047
-0.03594092 -0.44421000 0.00000001
-0.04409363 0.56507875 0.00000303
-0.10521210 0.54599360 0.05665757
-0.09407956 0.36009246 0.00000449
-0.24035214 0.00807108 -0.00000462
-0.37528418 -0.73718319 -0.00000223
-0.27722728 0.13070373 0.15339930
-0.41057236 -0.32623164 0.00000339
-0.09058803 -0.63899922 0.00000078
-0.17806370 -0.18599542 -0.00000069
-0.32152178 -0.56437368 -0.00000179
-0.50039936 -0.27113092 -0.29716393
-0.30789799 0.05665464 0.27010412
-0.03367732 0.12804825 0.00000932
-0.44305914 -0.11808230 -0.32889406
-0.41301037 -0.19711312 0.28137487
-0.15832183 0.32378940 -0.00000025
-0.14625606 0.44689860 0.13817747
-0.30102681 0.07324707 0.13556630
-0.32723487 0.00997408 0.24051761
-0.07477078 0.57432552 0.00000142
-0.00645858 0.44370268 0.00000083
-0.27711128 0.00477937 -0.00000356
-0.25930485 0.27114178 -0.21084582
-0.10958459 0.55697505 -0.04672920
-0.25611771 -0.22302053 -0.00000119
-0.08921092 -0.29443414 -0.00000022
-0.52799882 -0.36288929 -0.24262520
-0.23284912 0.30599355 -0.14786639
-0.19018355 0.34085058 0.13101206
-0.01483715 0.20706705 0.00000875
-0.35194243 -0.11571439 0.00000308
-0.06724536 -0.65430165 0.00000060
-0.23520696 0.26380451 -0.06865068
-0.07358325 0.15476505 0.00000787
-0.33928765 -0.01913229 0.33771479
-0.31163914 0.05168551 -0.00874512
-0.52801596 -0.62775381 0.00000409
-0.34173805 -0.24742972 0.00000292
-0.32339292 0.05922296 -0.08670228
-0.00761328 0.13616335 0.00000064
-0.00719261 0.58382847 0.00000378
-0.14886828 0.44928120 -0.01882089
-0.60781756 -0.70554390 -0.00000361
-0.09600353 0.18430840 0.00000686
-0.39357988 -0.02738877 -0.26647461
-0.28862270 0.15440774 -0.11110515
-0.20782535 0.04884589 -0.00000072
-0.09906114 0.43070008 0.00000152
-0.11200679 0.41793116 -0.00000183
-0.04622935 0.40520068 0.00000517
-0.05354286 -0.44057063 0.00000063
-0.16832742 0.45196650 -0.12661258
-0.33683192 -0.26203935 -0.00000170
-0.06142858 0.02102301 0.00001004
-0.41120305 -0.07824500 -0.24844070
-0.05302982 0.23054650 0.00000739
-0.26408520 0.25545842 -0.20185381
-0.63283118 -0.71166874 -0.03492723
-0.34968352 -0.63023903 0.00000274
-0.36717181 -0.41286782 0.00000301
-0.33571627 -0.65698404 -0.00000194
-0.43456511 -0.61142229 -0.00000250
-0.39738946 -0.10853741 -0.11031571
-0.13985938 0.35091033 -0.00000208
-0.07844844 0.51649559 0.00000035
-0.28633998 0.01980571 -0.00000122
-0.42896610 -0.44032666 -0.00000236
-0.53420374 -0.48371230 -0.01290446
-0.41975043 -0.21337415 0.03505100
-0.36296434 0.06246234 -0.30107452
-0.34604724 0.02249199 -0.12568326
-0.09537601 0.59605821 -0.05710506
-0.20135201 0.02750556 -0.00000548
-0.17603024 0.32270428 0.00000203
-0.08447625 0.34869478 -0.00000378
-0.35188848 0.09468985 -0.31298669
-0.22391430 -0.71302234 -0.00000130
-0.17990245 0.38693063 -0.04611026
-0.05297953 -0.57100719 -0.00000018
-0.51360477 -0.35048699 -0.19412278
-0.15092772 0.24399789 0.00000179
-0.09551706 0.31113993 0.00000012
-0.32611268 -0.40079366 0.00000271
-0.13125505 -0.40061125 0.00000124
-0.34177383 0.08704039 -0.24338689
-0.12672818 0.30316646 0.00000165
-0.54968250 -0.45841246 -0.14891864
-0.06311952 0.52551426 -0.00000156
-0.06680985 0.02489312 0.00000984
-0.19895063 0.31968372 0.14945102
-0.27038351 0.16770033 -0.04437893
-0.22565090 0.25522417 0.07782725
-0.30452286 -0.48681145 -0.00000164
-0.25526523 -0.77973283 -0.00000153
-0.43199408 -0.15805767 -0.18415476
-0.29987420 -0.01239791 -0.00000132
-0.62316778 -0.62907894 -0.16354717
-0.14904196 0.44017280 0.13843567
-0.35235015 -0.05066366 0.30032467
-0.13065422 0.50669054 -0.04799052
-0.01816027 -0.50316650 0.00000032
-0.34132777 -0.02404623 0.20748173
-0.34267584 -0.31748091 0.00000289
-0.19375492 -0.70201082 0.00000152
-0.20208863 -0.53224036 0.00000169
-0.26210885 0.02903370 0.00000448
-0.14081973 -0.48954458 0.00000126
-0.20109808 0.33322962 -0.04061670
-0.07494235 0.19144182 0.00000733
-0.03186002 0.27364041 -0.00000659
-0.00097818 0.24241513 0.00000065
-0.28551889 0.14472526 -0.07382750
-0.24641380 0.04276604 -0.00000096
-0.50357098 -0.32633311 -0.19397217
-0.23527326 0.23198718 0.22179872
-0.51126597 -0.38950757 -0.09717854
-0.01451551 0.66245524 0.00000102
-0.20517300 0.33617242 -0.06835494
-0.11351589 0.52595078 0.00463370
-0.28001724 0.18292352 -0.12790005
-0.00708205 -0.79878502 -0.00000004
-0.19000880 -0.10518699 -0.00000071
-0.08763678 0.05188358 -0.00000851
-0.26391005 0.22770212 -0.14069585
-0.09293844 -0.42437695 -0.00000033
-0.26442034 0.21135395 -0.10788204
-0.53057073 -0.33979281 -0.30622970
-0.39108734 -0.39962976 0.00000320
-0.08275998 0.01812044 -0.00000921
-0.25442342 0.26336284 -0.16838649
-0.12790287 0.23655082 0.00000527
-0.22993565 0.26764359 -0.04936235
-0.27581692 0.13410330 0.27338097
-0.09853078 -0.33660319 0.00000103
-0.34696110 -0.11524068 0.00000305
-0.24887903 0.19914100 0.19430242
-0.17195995 0.40235802 -0.03797753
-0.21056576 -0.27858850 -0.00000094
-0.10103236 0.55608347 0.03446980
-0.21452361 0.28208875 0.13480726
-0.10616955 0.54368527 0.01696274
-0.17100701 0.42503324 -0.08219839
-0.24311722 0.27434637 -0.13298411
-0.60633309 -0.66382959 0.18768098
-0.27921308 0.12590707 0.20940949
-0.59697534 -0.63528708 -0.01283184
-0.53244526 -0.41266851 -0.15788300
-0.36651757 -0.55173116 0.00000292
-0.02546867 0.54576247 0.00000380
-0.27329149 0.14021166 0.01799843
-0.10297620 0.43789458 0.00000318
-0.14774697 -0.56911657 0.00000126
-0.10951377 0.42455266 0.00000319
-0.05236654 0.10452164 0.00000096
-0.32484731 0.01574668 0.13195543
-0.41135016 -0.04979180 -0.31096320
-0.33189379 0.08049458 -0.17740632
-0.19207793 0.04028140 0.00000623
-0.35583973 0.04708601 -0.23037129
-0.19332147 -0.06050936 -0.00000070
-0.35485022 0.04012403 -0.21007640
-0.18539720 0.33033636 0.00000242
-0.11107057 0.51351295 0.00000192
-0.11151933 -0.48649068 0.00000104
-0.23860748 0.22394703 0.11842239
-0.10238663 0.01427983 -0.00000868
-0.24576130 -0.24616266 0.00000220
-0.15644125 0.04546126 0.00000171
-0.17092205 0.39861225 -0.02440379
-0.52896179 -0.47704294 0.21066341
-0.41251270 -0.19590071 0.03643608
-0.53823181 -0.49941797 0.10070286
-0.14160380 -0.61818318 -0.00000074
-0.19316445 0.37366031 -0.08679332
-0.30286702 -0.02524957 0.00000277
-0.61826749 -0.78192578 0.00000468
-0.00117105 -0.77254009 0.00000001
-0.13751837 0.12372748 -0.00000584
-0.03422342 0.70525373 0.00000120
-0.32424710 -0.06071514 0.00000291
-0.00980965 -0.01823617 0.00000056
-0.42531740 -0.14288196 -0.18210827
-0.49057707 -0.75109151 -0.00000293
-0.33898046 0.07108191 -0.19411451
-0.42486259 -0.22571717 0.05984887
-0.09058207 -0.65591163 0.00000077
-0.18835736 -0.29311120 0.00000174
-0.07864538 0.44503335 0.00000374
-0.07324729 0.16080864 0.00000115
-0.26024736 -0.68478433 -0.00000150
-0.22673629 -0.24771909 -0.00000102
-0.25473766 -0.75545252 0.00000195
-0.20032216 0.35920628 -0.09293048
-0.28449975 0.19282834 -0.17288600
-0.06451675 0.58325380 0.00000048
-0.15570278 0.43766077 -0.02941573
-0.15374313 0.01214992 0.00000766
-0.43924631 -0.46413746 -0.00000244
-0.51974314 -0.48881203 0.00000412
-0.44954473 -0.36789490 0.00000366
-0.11170684 -0.64116815 0.00000094
-0.19636222 -0.28362936 0.00000180
-0.08596854 -0.01671341 -0.00000003
-0.01806975 0.54292602 0.00000098
-0.04422896 -0.17622087 0.00000012
-0.06212105 0.10771936 -0.00000837
-0.12830734 0.49023676 0.06383713
-0.11481341 0.56848023 -0.09909720
-0.19735780 0.02366809 0.00000631
-0.40021026 -0.16620907 0.24394716
-0.41675887 -0.20616433 0.31506242
-0.09804930 -0.60955983 -0.00000047
-0.52119493 -0.33426836 -0.26909343
-0.39364062 -0.29852332 0.00000328
-0.25632586 0.23871978 -0.12486500
-0.26510711 0.20765223 -0.10344612
-0.44141946 -0.47559317 -0.00000246
-0.12562044 -0.43772282 0.00000117
-0.01476061 0.50911367 0.00000073
-0.14645572 -0.16213050 0.00000150
-0.11391345 0.29373048 0.00000154
-0.28805065 0.18814367 -0.18132776
-0.14970445 0.49087714 -0.11348547
-0.00790457 -0.40527775 0.00000031
-0.15640131 0.42240954 0.05103247
-0.03951680 0.70459614 0.03063381
-0.35345809 -0.12445750 0.00000309
-0.31234511 0.08567786 -0.08622405
-0.67302533 -0.79778890 -0.05861921
-0.39456281 -0.28314778 0.00000330
-0.07644084 0.45538122 0.00000366
-0.04758937 0.54012750 0.00000328
-0.47147599 -0.33825946 0.21656733
-0.16816585 -0.12675270 -0.00000059
-0.30340354 -0.22252510 -0.00000147
-0.09439274 -0.75404553 -0.00000054
-0.16520927 0.40114606 0.03037601
-0.17610135 -0.29037688 -0.00000074
-0.25840366 0.06392231 0.00000249
-0.02949463 -0.76249134 -0.00000015
-0.32732508 0.10617195 -0.20920292
-0.34731862 0.10528458 -0.31203660
-0.24824709 0.23160478 -0.06709038
-0.18593872 0.35110190 0.08657546
-0.48266533 -0.36527345 0.22492414
-0.32139328 -0.38947749 -0.00000168
-0.24673415 -0.19335041 -0.00000111
-0.37026834 -0.09392195 0.23159386
-0.21905744 0.28704190 -0.03447278
-0.29436580 0.08933337 0.02092997
-0.18694492 -0.69305498 0.00000148
-0.23350877 -0.57015796 0.00000191
-0.21933999 -0.15719183 -0.00000092
-0.02236491 -0.56563697 0.00000001
-0.43037848 -0.22465279 -0.03115248
-0.34304187 -0.04834435 0.00000306
-0.29659905 0.18072769 -0.21002054
-0.62668528 -0.76587115 -0.00000376
-0.18400285 0.38023761 -0.05306861
-0.14351616 0.48594558 -0.07035581
-0.13167834 0.28326777 -0.00000342
-0.29035849 -0.37694243 -0.00000149
-0.27767018 0.19558362 -0.14308503
-0.17404579 0.44319044 -0.13752871
-0.53240465 -0.40846551 -0.16679236
-0.53187127 -0.40390741 -0.17389044
-0.05001858 -0.32091066 -0.00000000
-0.06215771 0.31889972 0.00000032
-0.15008313 0.43766057 0.10714687
-0.49110176 -0.23059628 -0.33642324
-0.32917392 0.08707348 -0.17743923
-0.25251363 0.19037569 0.10907492
-0.02840858 0.20966948 -0.00000774
-0.45621557 -0.30141688 0.20598808
-0.45133195 -0.28962858 0.24786777
-0.01906752 -0.28615693 0.00000047
-0.33728463 -0.79849701 -0.00000203
-0.11974232 -0.39959210 -0.00000047
-0.22860337 -0.24898291 0.00000207
-0.25728329 0.18065240 -0.00384775
-0.20863795 0.32404249 -0.06017792
-0.04492994 0.69152822 0.01659124
-0.20261661 0.31083142 0.13914871
-0.36240752 -0.07494077 0.15598708
-0.43957772 -0.17898809 -0.17846349
-0.18418231 0.18296650 -0.00000050
-0.49084150 -0.27534433 -0.23793907
-0.39723027 -0.41016840 0.00000324
-0.02921676 -0.24148254 0.00000057
-0.25000067 -0.10342621 0.00000232
-0.37371997 -0.34545373 0.00000310
-0.46764928 -0.34214692 -0.00000254
-0.28752409 0.12969246 -0.05170715
-0.31766722 -0.26245541 -0.00000158
-0.29720270 0.12250932 -0.08682974
-0.50334609 -0.39584324 -0.04193002
-0.34987474 -0.18947399 -0.00000173
-0.30684410 0.05919608 0.28652734
-0.57489003 -0.77234359 -0.00000345
-0.59928230 -0.56002175 -0.18827520
-0.16526536 0.27618618 0.00000371
-0.49016447 -0.38337866 0.23800737
-0.21172363 -0.18584254 -0.00000089
-0.03633397 -0.65026502 -0.00000013
-0.01246280 -0.67583511 0.00000000
-0.01990913 0.49885830 0.00000096
-0.23324291 0.10213204 0.00000232
-0.27946511 0.12530413 0.17975827
-0.09159082 0.59873034 -0.04307098
-0.34878733 -0.04205595 0.21913630
-0.10687342 0.52707766 -0.00000021
-0.34602869 -0.45728870 -0.00000187
-0.09337915 0.44056309 0.00000148
-0.12862067 0.49189221 -0.00521731
-0.33311654 0.09039540 -0.20530716
-0.19964369 0.38079841 -0.13623680
-0.36118311 0.05102278 -0.26691317
-0.10842190 -0.77091146 0.00000084
-0.38231477 -0.15358216 0.00000329
-0.21535983 0.28006600 0.14809116
-0.20684418 0.30063033 0.02214455
-0.10914700 -0.58234486 0.00000096
-0.24104719 -0.10574700 -0.00000102
-0.23065312 -0.69074566 -0.00000132
-0.00852936 0.44307250 0.00000084
-0.05679800 -0.49505512 0.00000062
-0.02649775 0.34188007 0.00000091
-0.08838249 0.04818445 0.00000894
-0.26853463 0.25581243 -0.22593658
-0.19206783 0.36263261 -0.05711180
-0.30390680 0.12310982 -0.12326040
-0.38617758 -0.15862320 0.00000331
-0.52444509 -0.45578527 -0.02238471
-0.24618413 0.12060614 0.00000243
-0.34884071 -0.04219666 0.36949433
-0.33092668 0.00107572 0.05839662
-0.27771202 0.19793061 -0.14839357
-0.16416504 0.40366149 0.15543453
-0.47655796 -0.73055441 0.00000364
-0.35224701 -0.44411870 -0.00000190
-0.04693952 0.62229349 0.00000124
-0.00062068 0.45456532 0.00000079
-0.20020739 0.31664517 0.19867294
-0.19087428 0.38292582 -0.09490375
-0.35968122 -0.58553467 0.00000285
-0.30812876 -0.68792649 -0.00000179
-0.46905428 -0.14972394 -0.39642573
-0.41214052 -0.04731929 -0.32047345
-0.23918798 0.22254363 0.14314772
-0.14154406 0.50973943 -0.11166704
-0.01934771 0.19369685 -0.00000827
-0.09305240 0.59647202 -0.04582947
-0.15197794 -0.45723185 0.00000136
-0.28605305 0.15836266 -0.10622471
-0.23010931 0.24445375 0.23015242
-0.38503150 -0.13498535 0.00000332
-0.25382530 0.18721618 0.01900230
-0.13247235 0.48017886 0.09896284
-0.20385033 -0.51955053 0.00000171
-0.41515742 -0.04663406 -0.33776824
-0.02070809 0.50103610 0.00000455
-0.02339365 0.25618621 0.00000784
-0.16206069 0.38195789 0.00000196
-0.42178857 -0.08544546 -0.28827350
-0.11355928 0.52584344 0.03768096
-0.09504922 -0.72089621 0.00000077
-0.34790558 -0.02731057 -0.02732963
-0.53562348 -0.42887997 -0.13935077
-0.32465330 -0.16843488 0.00000284
-0.39006325 -0.26163834 0.00000328
-0.14850529 0.50330685 -0.13418048
-0.18984845 -0.50774528 -0.00000096
-0.37261204 0.05294139 -0.33096091
-0.45991890 -0.22290906 -0.18971934
-0.15063092 0.22155672 -0.00000385
-0.10398014 0.36917534 -0.00000286
-0.47199341 -0.67151812 0.00000364
-0.40534604 -0.01957977 -0.34507800
-0.13519952 0.25682603 0.00000168
-0.42421932 -0.22417903 0.40464822
-0.38285540 -0.63640724 -0.00000221
-0.20624736 0.30207336 0.08191017
-0.36218985 -0.07441999 0.26187618
-0.31775238 -0.11946447 0.00000282
-0.31999572 0.09954189 -0.15640382
-0.33322319 -0.00128020 -0.00689460
-0.41343111 -0.03190678 -0.36068614
-0.01537364 0.70494590 0.00000085
-0.43433317 -0.66966936 0.00000336
-0.37784460 -0.11221818 0.37739681
-0.41969225 -0.11546022 -0.21215000
-0.16499047 -0.25949842 0.00000158
-0.25668210 0.00560367 -0.00000105
-0.52265217 -0.33879153 -0.26691188
-0.08520131 0.46420530 -0.00000189
-0.33087358 -0.26138879 0.00000283
-0.39764176 -0.53233728 0.00000317
-0.02059703 0.63822513 0.00000077
-0.53088394 -0.48168376 0.25128786
-0.23339718 -0.32800849 0.00000206
-0.15676445 0.42153567 0.06679905
-0.07469722 0.10531833 0.00000113
-0.03497977 -0.15346692 0.00000067
-0.01706182 0.38433484 -0.00000524
-0.61726359 -0.59678571 -0.20270035
-0.09678880 0.56633098 0.03229824
-0.11699025 0.51950363 -0.00420059
-0.26844789 -0.54871734 -0.00000146
-0.42181379 -0.07902905 -0.30233585
-0.25141699 0.28385104 -0.19709968
-0.30245508 0.09880904 -0.06291181
-0.21271759 0.32757506 -0.08922210
-0.10605363 -0.28481017 -0.00000032
-0.00419852 0.20070543 0.00000060
-0.16610187 0.29762379 -0.00000032
-0.11100242 0.55310505 -0.04575638
-0.07901570 0.14977073 -0.00000718
-0.02978805 0.51162999 0.00000064
-0.66071115 -0.74771713 -0.10277218
-0.41132553 -0.03451804 -0.34398551
-0.08977440 0.11675267 0.00000125
-0.22949136 0.29480525 -0.10598818
-0.54973244 -0.54299519 -0.00000316
-0.39046478 -0.33985443 0.00000323
-0.36768338 -0.08768142 0.23465028
-0.02645984 -0.10113565 0.00000028
-0.53370555 -0.43202371 -0.12247830
-0.57820991 -0.49333400 -0.22260051
-0.30568004 0.16661162 -0.22696504
-0.04142671 -0.59120542 -0.00000012
-0.41769416 -0.59824778 0.00000328
-0.03683071 0.69791019 0.00000140
-0.30017061 0.18400807 -0.23585500
-0.27610716 0.13060006 -0.00000108
-0.33963685 -0.01997247 0.31431489
-0.35165423 0.08995894 -0.30149139
-0.14116509 -0.04586010 0.00000154
-0.11213062 0.25709224 -0.00000002
-0.64800608 -0.75270393 -0.02537669
-0.10559787 0.54733139 -0.00490566
-0.14056876 -0.67923791 0.00000114
-0.24435930 0.06670424 -0.00000093
-0.01326008 0.46542240 -0.00000404
-0.02500264 -0.34308848 0.00000013
-0.67448765 -0.77182726 -0.12262925
-0.18123935 0.22343476 0.00000401
-0.12431376 -0.02022322 -0.00000026
-0.28167351 0.23386026 -0.24713623
-0.54970222 -0.42228910 -0.22742359
-0.41822678 -0.54199879 -0.00000236
-0.48976228 -0.64475397 -0.00000286
-0.25722240 0.17901121 0.06629872
-0.33524616 -0.79418918 0.00000253
-0.18881945 0.34414723 0.08707080
-0.22258230 0.20792857 -0.00000190
-0.37582771 -0.10734153 0.18697793
-0.28699575 0.10711826 0.20223512
-0.44721060 -0.77407556 -0.00000268
-0.16569937 0.21248893 -0.00000037
-0.02323429 0.71064468 0.00000112
-0.45526321 -0.28674705 -0.02677197
-0.50192781 -0.41177668 0.20801937
-0.38887244 -0.05592852 -0.17987086
-0.13663713 0.51305378 -0.09314839
-0.02117731 0.51610623 -0.00000297
-0.48314317 -0.36642274 0.12805649
-0.12463027 0.49911283 0.03341500
-0.34170884 0.00784355 -0.07115871
-0.19922579 -0.13724200 -0.00000079
-0.39093395 -0.14382091 0.39947996
-0.05455360 -0.79948570 -0.00000033
-0.27101447 -0.72214648 0.00000209
-0.09177147 0.53114750 0.00000028
-0.09332851 -0.03257765 0.00000118
-0.42809461 -0.53109692 -0.00000242
-0.18939285 -0.33219809 -0.00000085
-0.18712958 -0.42901215 -0.00000090
-0.07783902 -0.61267064 -0.00000035
-0.31665997 -0.79564144 0.00000239
-0.18579136 0.26296127 -0.00000212
-0.31963929 -0.05146845 -0.00000146
-0.06520667 0.05651314 -0.00000911
-0.40137249 -0.00528575 -0.35528142
-0.04907991 0.08336749 0.00000092
-0.23231004 0.27380385 -0.07517457
-0.01198213 0.06037907 0.00000047
-0.25533151 0.26536875 -0.17749816
-0.10894321 0.02838719 0.00000134
-0.29244696 0.11601646 -0.04780969
-0.05813865 0.68023199 -0.04468409
-0.22897473 -0.39497358 0.00000198
-0.10732001 -0.24243762 -0.00000030
-0.41717769 -0.20717945 0.40466070
-0.09257526 0.56884226 0.00000166
-0.04265492 -0.48940123 0.00000052
-0.08204564 -0.55209228 0.00000077
-0.10910867 0.46420185 0.00000161
-0.35497606 -0.40482429 0.00000293
-0.11631952 0.54362953 -0.05305315
-0.12763759 0.49185106 0.06486552
-0.45756389 -0.11391721 -0.41393414
-0.34868078 0.09720990 -0.30164886
-0.12846202 0.14816712 -0.00000572
-0.21590293 -0.16812839 0.00000202
-0.35004325 -0.02183912 -0.05040551
-0.26273977 0.23053082 -0.14070336
-0.24128831 -0.03418085 0.00000230
-0.32706196 0.02640052 -0.03467810
-0.10642441 0.29369547 0.00000507
-0.47855734 -0.35535221 0.14380209
-0.41386478 -0.19916884 0.12428488
-0.29314956 0.18170291 -0.19406237
-0.50157335 -0.33687285 -0.16062991
-0.01983809 0.64605463 0.00000078
-0.41903363 -0.41229614 0.00000340
-0.53059980 -0.48099783 0.26493970
-0.47141430 -0.31134611 -0.05800906
-0.37592732 0.00944407 -0.25392246
-0.09432949 0.40961546 0.00000147
-0.32967046 0.00409829 0.18771160
-0.32330850 0.07772150 -0.12640895
-0.15673965 0.22861565 0.00000183
-0.26373944 0.17178256 -0.01843495
-0.02491580 0.58139641 0.00000071
-0.01699016 -0.10557718 0.00000033
-0.39961906 -0.36050387 0.00000329
-0.34717776 -0.28494933 -0.00000177
-0.07366943 -0.61663974 0.00000067
-0.12991405 -0.36187181 -0.00000051
-0.26087697 -0.39529299 -0.00000132
-0.11227982 0.07353599 -0.00000013
-0.38032333 -0.27883097 0.00000319
-0.23011647 0.21317419 0.00000237
-0.10413844 0.02444355 -0.00000011
-0.29028375 -0.18722714 0.00000257
-0.19683916 0.32478942 0.04555191
-0.11107323 -0.03607724 0.00000132
-0.42686393 -0.15442889 -0.16515028
-0.20275077 0.39045798 -0.17348385
-0.06944037 -0.41980243 0.00000076
-0.04064822 0.12733961 0.00000089
-0.33502708 0.00184620 -0.02311961
-0.09806128 0.04652054 -0.00000828
-0.04185486 -0.53014296 -0.00000008
-0.37213724 -0.01153965 -0.18851822
-0.04275230 0.49546114 -0.00000266
-0.50613972 -0.53287797 0.00000399
-0.55357915 -0.40959402 -0.27529128
-0.33582536 -0.00459587 -0.01333284
-0.50313957 -0.41470461 0.31074791
-0.47759124 -0.25401256 -0.21481014
-0.50382253 -0.70981621 -0.00000298
-0.08407695 0.59701769 0.03442498
-0.06121985 0.04752299 -0.00000938
-0.17894056 0.37591451 -0.01715475
-0.24240649 0.24850783 -0.07318053
-0.41238789 -0.06856199 -0.27566046
-0.19356729 0.06394160 0.00000586
-0.28689180 0.10738200 0.08718929
-0.63735778 -0.79238396 -0.00000384
-0.25019337 0.01856325 0.00000240
-0.06933209 0.42069217 0.00000433
-0.22950785 -0.31798163 0.00000203
-0.28117414 -0.66386244 0.00000221
-0.47925311 -0.42355380 -0.00000266
-0.58185698 -0.67137056 -0.00000343
-0.19944495 0.31848813 0.14786462
-0.02240633 0.40688702 0.00000092
-0.48282953 -0.21365512 -0.32984829
-0.02723784 -0.19228819 0.00000022
-0.68262533 -0.78181969 -0.14358134
-0.10526418 0.31418709 0.00000482
-0.16238902 -0.39092861 -0.00000072
-0.15939537 -0.59773571 0.00000133
-0.06310588 0.64764715 0.04215693
-0.07694827 0.51265182 -0.00000135
-0.20556734 -0.44261354 0.00000177
-0.05146770 0.15441012 -0.00000794
-0.19808945 0.32975225 -0.01729811
-0.11783512 0.01707266 0.00000856
-0.39808512 -0.31098169 0.00000331
-0.04513155 -0.79103423 -0.00000027
-0.12638541 0.49487676 0.00545540
-0.48160862 -0.24915922 -0.24639355
-0.55690010 -0.54448795 0.11207489
-0.23678009 0.24052898 -0.02638284
-0.08421205 -0.49880231 -0.00000032
-0.28459932 0.03108298 -0.00000291
-0.37394446 -0.10279879 0.33036231
-0.05946222 0.67298667 -0.03589321
-0.22403894 0.12320253 -0.00000078
-0.33539237 -0.25346249 0.00000287
-0.45564375 -0.48743582 0.00000363
-0.40797139 -0.18493966 0.09696789
-0.02345613 0.21965579 -0.00000772
-0.19998749 0.31733526 -0.00030063
-0.15066773 -0.09477875 -0.00000047
-0.47471503 -0.24843407 -0.21184718
-0.25512262 0.12654853 -0.00000224
-0.42016785 -0.64262344 -0.00000244
-0.28022447 -0.44999389 0.00000233
-0.25893740 0.17486287 0.08095523
-0.23555436 0.30523450 -0.16039398
-0.27508350 -0.48316276 -0.00000146
-0.10012543 0.12591621 -0.00000693
-0.16134080 0.46837640 -0.12562191
-0.28058517 0.16135206 -0.08405547
-0.26973231 -0.20485954 0.00000241
-0.07145672 0.51423613 0.00000136
-0.62464369 -0.70803241 0.02411231
-0.40492204 -0.59025703 -0.00000231
-0.39200473 -0.67838560 -0.00000229
-0.07753684 0.01419050 0.00000004
-0.22198390 -0.59454822 -0.00000121
-0.19522094 0.03685170 -0.00000551
-0.08637179 -0.61487903 0.00000077
-0.66069339 -0.79506364 0.06119308
-0.24007101 -0.18507254 0.00000220
-0.46570515 -0.56146604 -0.00000266
-0.30102716 0.02588407 0.00000347
-0.02153520 0.06731995 0.00000070
-0.49735006 -0.71520227 0.00000381
-0.12587852 -0.00887889 0.00000144
-0.36706105 -0.56595891 0.00000292
-0.38519868 -0.12996132 0.10050401
-0.14622440 0.28017871 -0.00000021
-0.41545352 -0.26762614 -0.00000217
-0.12128002 0.50719998 0.09002100
-0.03571155 -0.20167383 0.00000016
-0.08595684 0.35334155 0.00000137
-0.26350395 0.16383251 0.20794110
-0.54693142 -0.52042287 0.14727474
-0.27126667 0.07764413 0.00000260
-0.16251462 -0.23616744 -0.00000063
-0.43107310 -0.08965455 -0.32778750
-0.51969915 -0.72597034 0.00000397
-0.05591258 0.33968172 0.00000113
-0.04918347 -0.53961590 -0.00000013
-0.52507964 -0.46766172 0.01234577
-0.42526507 -0.64165399 0.00000331
-0.48491369 -0.37070101 0.21393600
-0.06852526 -0.19230438 0.00000090
-0.43817304 -0.25785911 0.22796071
-0.14064667 0.48919379 -0.06237025
-0.20206967 0.31215016 0.17717096
-0.25054379 -0.58143612 0.00000203
-0.15577360 0.42392371 0.11824512
-0.26014190 -0.18705382 -0.00000119
-0.44927920 -0.64917521 -0.00000262
-0.48850820 -0.37937107 0.03708565
-0.17983397 0.24189347 -0.00000264
-0.01979130 0.37806507 0.00000089
-0.19176823 -0.79780841 0.00000145
-0.09132245 -0.65296754 0.00000078
-0.47406204 -0.54858524 -0.00000270
-0.53749822 -0.55290491 -0.00000309
-0.49080745 -0.38492506 0.10617107
-0.21938097 0.36046153 -0.19551670
-0.16629992 -0.62304436 0.00000137
-0.20231991 0.31154853 0.16343135
-0.37826052 0.03243641 -0.31605375
-0.23968446 -0.48151234 -0.00000125
-0.44820858 -0.20441733 -0.16849523
-0.17102218 -0.30565214 -0.00000072
-0.13712219 0.04257730 0.00000769
-0.32650689 0.06033982 -0.10543419
-0.26271600 0.16574433 0.12062414
-0.53582830 -0.37175965 -0.26439704
-0.64843210 -0.76546303 0.10065092
-0.10371090 0.45302160 0.00000157
-0.16077037 0.45109023 -0.08511541
-0.11317735 0.06535442 0.00000803
-0.48850328 -0.43614512 -0.00000272
-0.07939141 -0.14086839 0.00000101
-0.05635264 0.66395193 0.00102433
-0.10444663 -0.05015766 -0.00000016
-0.40564193 -0.78812212 -0.00000244
-0.05600246 -0.28744394 -0.00000002
-0.13765717 0.46766147 0.06645268
-0.34236722 -0.47449949 0.00000279
-0.07111700 0.57198881 0.00000220
-0.19935309 0.31871370 0.06278984
-0.14370866 -0.60292562 -0.00000074
-0.00869297 0.77901317 0.00108914
-0.07126801 0.62794201 0.04471012
-0.20497999 -0.06535519 -0.00000078
-0.33336380 -0.00481044 0.09002391
-0.31535065 0.03865849 0.30583128
-0.09580989 -0.27250563 -0.00000025
-0.24448869 0.20973869 0.24493543
-0.61857668 -0.66336391 -0.06507834
-0.37722497 -0.22021996 -0.00000191
-0.36173151 -0.07331072 0.20020837
-0.17297344 -0.10082360 -0.00000061
-0.31442798 0.12389319 -0.18008358
-0.38142382 -0.12084390 0.00957468
-0.25179019 0.20540415 -0.02878780
-0.17607942 0.37490891 0.02587332
-0.00796339 -0.64243863 0.00000005
-0.31552158 0.13027203 -0.19965910
-0.33276068 -0.00337381 0.31767947
-0.33197659 -0.00147116 0.21302058
-0.04530575 -0.43953712 0.00000057
-0.15698721 -0.53030996 0.00000135
-0.08739546 0.59396870 -0.01075577
-0.37266875 -0.09972185 0.33860984
-0.08997103 -0.65082199 0.00000077
-0.33014767 0.00293816 0.28982574
-0.39504120 -0.03944916 -0.24795493
-0.13383724 0.47688750 0.05158115
-0.47402688 -0.34441951 0.25282977
-0.28940311 0.14888148 -0.10319316
-0.33488641 -0.00849270 0.02420684
-0.19838120 0.32105804 0.15436249
-0.69509291 -0.81902953 -0.12814794
-0.18270789 0.41724873 -0.12661015
-0.01992054 -0.12279396 0.00000057
-0.44395047 -0.27180267 0.12786822
-0.32280794 0.02065389 0.32849390
-0.13573629 0.47230030 0.03496864
-0.20690399 -0.57260281 -0.00000111
-0.00454160 0.03798254 0.00000056
-0.04652502 0.23315878 0.00000100
-0.00226399 -0.60108544 0.00000011
-0.50108456 -0.78533064 0.00000379
-0.54077999 -0.42259051 -0.18001978
-0.27861973 0.09273491 -0.00000112
-0.17398207 0.37996137 0.14604417
-0.22305370 -0.60254147 -0.00000122
-0.20009841 0.09425949 0.00000527
-0.42648249 -0.78347769 0.00000323
-0.37227707 -0.71904519 -0.00000220
-0.56310636 -0.58844397 0.00000438
-0.21076415 0.05702920 -0.00000074
-0.60000362 -0.72654344 -0.00000358
-0.23174439 0.24051199 0.10276188
-0.04620951 0.68843970 0.00180880
-0.34618040 -0.35377796 0.00000289
-0.37182977 -0.09768222 0.02164267
-0.12265845 -0.13811033 0.00000134
-0.41958540 -0.19059841 -0.04851130
-0.45634386 -0.79310837 -0.00000275
-0.08220605 0.25035610 -0.00000545
-0.25374259 0.18740489 0.06802256
-0.21127934 -0.10265962 -0.00000084
-0.18668142 0.34930495 0.08564006
-0.56277949 -0.66447783 0.00000433
-0.15010172 -0.73186323 0.00000117
-0.32284441 0.06006359 -0.08565277
-0.42693862 -0.23073011 0.08042350
-0.05766972 0.07604616 0.00000020
-0.29325154 0.16218539 -0.15223928
-0.24330329 0.30440441 -0.19919661
-0.39711861 -0.15873608 0.04123548
-0.18048417 -0.07312094 0.00000182
-0.29828031 0.07988996 0.06208233
-0.05868128 0.44620600 -0.00000298
-0.18129634 0.36230828 0.02922178
-0.36981473 -0.58586281 0.00000292
-0.13077263 0.53735417 -0.11516270
-0.11980025 0.52075724 -0.02164561
-0.01730146 0.38459544 -0.00000523
-0.48677632 -0.37520081 0.28119002
-0.34225004 -0.72281941 -0.00000202
-0.14799591 0.36165050 0.00000301
-0.44299704 -0.58234999 0.00000348
-0.21152715 0.02919623 -0.00000514
-0.10898434 0.00764136 -0.00000859
-0.16771515 0.45371444 -0.12719824
-0.37620700 -0.21838582 -0.00000191
-0.21109741 0.11537752 -0.00000375
-0.64593680 -0.70377952 -0.12072060
-0.16005087 0.23205425 -0.00000032
-0.25530979 -0.20479789 -0.00000117
-0.22698600 0.25200966 0.04018625
-0.59298356 -0.71449735 -0.00000353
-0.24980315 0.09552981 0.00000390
-0.47288013 -0.29282798 -0.10588100
-0.49606677 -0.47777421 0.00000394
-0.19569933 0.30065303 0.00000255
-0.36164374 -0.25977223 -0.00000185
-0.13118038 0.36521860 -0.00000211
-0.05889335 0.65473366 0.00000135
-0.47517073 -0.26310778 -0.18238730
-0.13969284 0.39547051 0.00000277
-0.14426899 0.46028397 -0.01860741
-0.15309392 0.43039293 0.08261067
-0.32677614 0.04197357 -0.06699142
-0.18076273 0.01473959 -0.00000631
-0.08232453 -0.68971499 -0.00000043
-0.55235357 -0.44165182 -0.19929120
-0.23347225 0.01595070 0.00000544
-0.26636672 0.15693840 0.02413375
-0.09200524 0.59545140 -0.03812558
-0.19708749 -0.71355307 0.00000154
-0.20948194 0.24404426 -0.00000061
-0.12171028 0.01813954 -0.00000803
-0.42700775 -0.23089885 0.12187744
-0.15867509 0.48170652 -0.14058595
-0.48971292 -0.48173412 0.00000389
-0.50913014 -0.42916241 0.15602126
-0.19440250 -0.11395513 -0.00000074
-0.43339693 -0.53326850 0.00000344
-0.17039067 0.38863450 0.08611906
-0.26637913 -0.54170675 0.00000217
-0.18621078 -0.74102109 0.00000144
-0.36003343 -0.06920629 0.22100871
-0.08366845 0.28272339 0.00000131
-0.23518428 0.32208053 -0.19501959
-0.19188489 0.29167472 0.00000278
-0.33832192 -0.00432265 -0.02699477
-0.18410066 -0.44854352 0.00000161
-0.49143856 -0.38645660 0.31944691
-0.06135747 0.34082002 0.00000565
-0.16572294 0.13807767 0.00000184
-0.53627061 -0.68298044 0.00000412
-0.19477407 -0.78368502 -0.00000117
-0.25764646 0.01832568 0.00000475
-0.33872248 0.03006905 -0.10374902
-0.10986253 0.53476508 0.04284036
-0.17213047 0.38443689 0.02638670
-0.13901856 0.46437176 0.13356560
-0.59321221 -0.67977366 0.00000455
-0.03028024 -0.34034740 0.00000010
-0.50690376 -0.42378762 0.16014100
-0.20731227 -0.55005759 0.00000172
-0.34703949 0.02187885 -0.12955161
-0.02928356 0.30941857 0.00000091
-0.24475698 0.20909737 0.08668455
-0.06708745 0.24587995 0.00000025
-0.46248483 -0.18309580 -0.28957412
-0.05116982 0.29440467 0.00000107
-0.53212035 -0.48466865 0.27040248
-0.11876882 -0.23062706 0.00000125
-0.28997694 0.04819303 0.00000272
-0.17550760 0.40650444 -0.06556538
-0.19583937 0.32719375 0.16414504
-0.24482522 0.21189221 -0.00638389
-0.01356174 0.54929667 -0.00000266
-0.65391523 -0.71385335 -0.14066163
-0.20208289 0.30944546 0.00000222
-0.32432625 0.01698935 0.32540992
-0.45046481 -0.28753164 0.16985297
-0.49787129 -0.51584915 -0.00000283
-0.32578696 -0.36923870 0.00000273
-0.11072219 0.17727790 -0.00000006
-0.37689924 0.03886923 -0.32288278
-0.35164718 -0.01537753 -0.07283373
-0.30218439 -0.54852956 0.00000244
-0.27501590 -0.11918572 0.00000250
-0.60174798 -0.61290429 -0.08641820
-0.58997372 -0.67420088 -0.00000348
-0.15097690 0.43550411 0.11500011
-0.12767191 0.22206985 0.00000160
-0.41145760 -0.19336600 0.31748411
-0.46891744 -0.23057267 -0.22023579
-0.04792084 -0.72933516 0.00000041
-0.46269375 -0.31705616 0.19456307
-0.48407979 -0.25312160 -0.25074178
-0.22685189 0.26374230 -0.02473617
-0.22615274 0.23803862 0.00000258
-0.11164936 0.45525367 0.00000011
-0.25959760 -0.27133275 -0.00000124
-0.44753809 -0.67039971 0.00000346
-0.56052102 -0.50062229 -0.11409738
-0.12839398 -0.79203429 -0.00000077
-0.37482257 -0.67109071 0.00000291
-0.31074912 0.15282489 -0.22360512
-0.44453224 -0.27161895 -0.00337895
-0.09270512 -0.41869072 -0.00000032
-0.44829216 -0.30326008 -0.00000240
-0.35421821 -0.05516849 0.23652071
-0.10565860 -0.01604204 0.00000129
-0.45448613 -0.29724774 0.35479757
-0.19565999 0.21579312 0.00000211
-0.35951624 -0.30344480 0.00000302
-0.28515536 0.11156177 0.19335130
-0.15861652 0.47649819 -0.12897496
-0.51398617 -0.43129115 -0.02074502
-0.06277377 0.15855848 0.00000022
-0.16964638 0.20637480 0.00000191
-0.18559860 0.35191979 0.07114230
-0.11381159 0.52522868 0.10911232
-0.45882147 -0.20169394 -0.23001416
-0.09364549 0.60772859 -0.07336768
-0.24747619 0.24810633 -0.09887271
-0.42114748 -0.21675768 0.27570872
-0.05053609 0.67799232 0.05065533
-0.35840207 0.01544740 -0.17512261
-0.33028427 0.01759002 -0.03243959
-0.48847760 -0.65302216 -0.00000286
-0.05955324 0.04610668 0.00000017
-0.22241886 0.06635117 0.00000505
-0.42816296 -0.67796838 -0.00000251
-0.25317452 0.19233405 -0.00767309
-0.02830938 0.08498275 -0.00000976
-0.35435291 -0.05549621 0.18021728
-0.31783326 0.11388337 -0.17620560
-0.02144316 0.30815851 -0.00000635
-0.16964569 -0.48375001 0.00000148
-0.31087205 -0.12808192 -0.00000146
-0.59639379 -0.63983459 0.20501126
-0.21200786 0.31542410 -0.05913558
-0.18760547 0.02157679 0.00000661
-0.41525629 -0.04635430 -0.33889349
-0.16997196 0.05902788 -0.00000591
-0.11118220 0.11919083 0.00000141
-0.42822472 -0.56205629 -0.00000244
-0.27915849 0.12604454 0.17743740
-0.16725863 0.39619294 0.15373853
-0.47177142 -0.22553277 -0.24612828
-0.24670700 -0.61913870 -0.00000138
-0.15663949 0.42554895 -0.00803060
-0.11347144 0.13105718 0.00000144
-0.30411330 0.10931013 -0.09439175
-0.19618160 0.26193782 -0.00000182
-0.54649614 -0.51937370 0.18541356
-0.37208250 -0.62759118 -0.00000214
-0.03127049 0.01146887 0.00001099
-0.54055750 -0.66487104 0.00000416
-0.37975638 -0.13639321 -0.00000188
-0.64143666 -0.72918872 -0.04199212
-0.42177256 -0.21826019 0.12816451
-0.12377404 0.50117635 0.11409325
-0.22734275 0.26140306 -0.02223899
-0.15568739 0.46728126 -0.09362297
-0.44026609 -0.52481634 -0.00000249
-0.57102074 -0.57857869 0.11935688
-0.46451960 -0.32146133 0.13037503
-0.58200061 -0.52522596 -0.17324409
-0.10069403 0.55690102 0.01813644
-0.35087953 -0.13756430 0.00000306
-0.22442394 0.25818066 0.20464387
-0.35212485 -0.40587876 -0.00000188
-0.43201192 -0.22911491 -0.03002664
-0.59043396 -0.58032022 -0.09785632
-0.24370333 -0.60870643 0.00000196
-0.38165381 -0.01754706 -0.22535007
-0.58811802 -0.57087990 -0.10621071
-0.67561717 -0.77851603 -0.11403026
-0.06653969 0.41117718 -0.00000331
-0.02571682 0.48710062 0.00000100
-0.45464630 -0.71209883 0.00000348
-0.60913606 -0.58199864 -0.19220784
-0.28380986 -0.11235961 -0.00000128
-0.40199669 -0.17051381 0.06227104
-0.16131384 -0.70191792 0.00000128
-0.15880004 -0.71725444 0.00000125
-0.11595489 -0.35600107 -0.00000042
-0.45946799 -0.30927291 0.29417685
-0.01855346 0.51563736 0.00000096
-0.33863339 -0.58890982 0.00000269
-0.49596746 -0.69349657 0.00000381
-0.55050268 -0.54028589 -0.00000316
-0.17614756 0.30050328 -0.00000038
-0.33187136 0.01196742 -0.02856387
-0.49391811 -0.31719262 -0.16323263
-0.33935875 -0.63484623 0.00000266
-0.36922848 0.00008049 -0.19849801
-0.50141612 -0.41054181 0.21871959
-0.22983808 -0.75262134 -0.00000136
-0.03027077 0.14291398 0.00000082
-0.21480871 -0.09695645 -0.00000086
-0.39971661 -0.00307093 -0.35141215
-0.26942491 -0.02410703 -0.00000114
-0.25622952 0.18140068 0.16163360
-0.31956273 0.01557014 -0.00000210
-0.13521194 0.48739412 -0.02999086
-0.43520786 -0.41154520 0.00000353
-0.25542435 0.20612502 -0.04940293
-0.50154422 -0.32274221 -0.19114622
-0.29233514 0.09422615 0.23828757
-0.23548190 -0.78230974 -0.00000141
-0.22170445 -0.09110838 -0.00000090
-0.07877008 0.41681903 0.00000029
-0.41564777 -0.20346824 0.00893777
-0.01046391 -0.69445623 0.00000000
-0.09204686 0.11079644 -0.00000742
-0.34197977 -0.02563101 0.32317511
-0.51124910 -0.55037041 -0.00000293
-0.20204536 0.03824936 -0.00000070
-0.59295040 -0.63152168 0.11856356
-0.15915966 -0.52348494 0.00000137
-0.54697888 -0.38852794 -0.28642939
-0.48041924 -0.74257375 0.00000366
-0.20032164 0.38664446 -0.15247789
-0.03387215 -0.01175251 0.00000029
-0.36607484 -0.08379615 0.19275438
-0.23629219 0.29004216 -0.13128541
-0.25941899 -0.41912573 -0.00000133
-0.27640481 0.22171438 -0.19316870
-0.42928764 -0.71661992 -0.00000254
-0.13476601 -0.33659947 0.00000131
-0.22028691 0.31826776 -0.10868302
-0.18139801 0.10185800 0.00000567
-0.05385070 0.56571016 0.00000053
-0.52122552 -0.42700516 -0.06797914
-0.23699100 0.22784867 0.12912994
-0.22932362 0.24636037 0.01097698
-0.10857643 -0.69644458 0.00000088
-0.00569618 0.49191743 0.00000077
-0.50954922 -0.34818451 -0.17787027
-0.38033769 -0.02268859 -0.20728894
-0.02593266 0.08612278 -0.00000982
-0.23923061 -0.38959443 0.00000206
-0.07579415 -0.44193572 0.00000080
-0.39245530 -0.14749451 0.41568215
-0.26393673 0.27202308 -0.23702910
-0.12060206 -0.64369974 0.00000101
-0.05856525 0.49971401 0.00000046
-0.41606740 -0.17277110 -0.06877027
-0.31399266 -0.73644518 -0.00000186
-0.17160706 -0.44706538 0.00000152
-0.25426010 0.18468143 0.00000253
-0.09613248 0.20259423 0.00000005
-0.20357105 0.30852419 0.21242561
-0.24461430 0.20943481 0.25310100
-0.21982441 -0.45993566 -0.00000111
-0.06947371 0.63989093 -0.01652049
-0.27189876 -0.55818133 0.00000220
-0.47800844 -0.29721426 -0.12323181
-0.09386813 0.49957419 -0.00000105
-0.34546114 -0.03401693 0.10554140
-0.34865488 -0.04174082 0.20143216
-0.52790348 -0.72526287 -0.00000314
-0.18265295 0.37061649 -0.02511403
-0.20517684 0.26313932 0.00000281
-0.24913384 0.20888026 -0.02242256
-0.35233556 -0.73104916 -0.00000208
-0.60597310 -0.76571597 -0.00000364
-0.16894493 -0.04687806 0.00000175
-0.04163030 0.06649928 0.00000086
-0.17292149 0.42914443 -0.10115253
-0.55532157 -0.54067829 0.14038332
-0.53599014 -0.71385505 0.00000410
-0.43033531 -0.23893041 0.07888671
-0.20343039 -0.65695094 -0.00000114
-0.21283017 0.21193094 0.00000331
-0.46808579 -0.62023600 -0.00000271
-0.34153465 -0.02903365 -0.00000158
-0.48298652 -0.58378504 0.00000378
-0.39089368 -0.05190957 -0.19917737
-0.03732918 0.52512852 0.00000111
-0.10485065 0.44816949 0.00000299
-0.62147843 -0.72114586 0.00000474
-0.21118383 0.16634493 -0.00000292
-0.45401769 -0.13803698 -0.34300400
-0.12267659 0.13397162 0.00000683
-0.36653424 0.05661146 -0.30708096
-0.22855966 0.24820499 0.11061549
-0.02553868 0.16580212 -0.00000854
-0.41193234 -0.15824191 -0.07863780
-0.28930902 0.10152984 0.28420971
-0.17184728 0.40442913 -0.04188225
-0.03125471 -0.10952981 0.00000024
-0.36787390 -0.04285324 -0.09822366
-0.05919066 -0.48629930 0.00000064
-0.23563358 0.23112133 0.18501511
-0.26899627 0.15057439 0.17257280
-0.02340805 0.49080787 0.00000067
-0.09339528 0.14819201 -0.00000677
-0.44075505 -0.31358529 0.00000363
-0.29624475 -0.44057379 0.00000246
-0.01647177 -0.35661582 0.00000040
-0.21877389 0.09036996 -0.00000393
-0.60544679 -0.57445037 -0.18925971
-0.61405747 -0.69890726 0.00000470
-0.07733385 -0.40844318 0.00000083
-0.09757950 0.34397177 0.00000013
-0.57266655 -0.54710797 -0.07684421
-0.38637707 -0.03865160 -0.20428712
