ply
format ascii 1.0
element vertex 1380
property float x
property float y
property float z
end_header
-0.47068434 -0.27839025 0.14841480
-0.68260573 -0.23372910 -0.00000109
-0.04843821 0.09720546 0.00000000
-0.41423218 0.28523828 0.13061515
-0.60971351 0.08847319 0.00000018
-0.41291168 0.33821003 0.13019838
-0.40742209 -0.31148345 0.12846699
-0.70164395 -0.30062429 -0.00000105
-0.41793007 0.00772558 -0.00000038
-0.00264697 0.78869468 0.00000013
-0.25436400 -0.08244851 0.08020522
-0.47558654 0.05139003 0.14995693
-0.00455837 0.20639266 0.00143733
-0.07793596 0.26537700 0.00000000
-0.37587591 0.15356595 0.11852042
-0.39359907 -0.01115821 -0.00000025
-0.52818969 -0.04612825 0.16654779
-0.65964897 -0.02674350 -0.00000135
-0.71999583 -0.77078434 0.22702642
-0.54190978 -0.17618001 0.17087382
-0.05008262 -0.36713610 0.00000000
-0.14643887 0.15878681 0.04616686
-0.00503168 0.65298529 0.00158657
-0.21892143 0.26117559 0.06902960
-0.78561680 -0.03902892 -0.00000187
-0.69442668 -0.22407930 0.21896547
-0.37551252 -0.47738996 0.00000000
-0.16532274 0.12946109 0.00000756
-0.46108720 0.02403241 0.14538424
-0.20268434 -0.17526912 0.06390976
-0.36726897 -0.66186136 0.00000000
-0.10756075 -0.09007549 0.00000000
-0.68421781 -0.15554087 -0.00000123
-0.75617272 -0.13741406 -0.00000157
-0.04351580 0.18655653 0.00000855
-0.04381587 0.26356481 0.00000000
-0.76851117 -0.61318385 -0.00000047
-0.74861693 -0.26900347 -0.00000131
-0.52940005 -0.06753492 0.16692941
-0.12724418 0.49982977 -0.00000001
-0.42964000 0.24420120 -0.00000085
-0.66598877 0.09617579 0.20999882
-0.29767193 -0.57428060 0.09386093
-0.46646383 0.10152275 0.14708110
-0.38298626 0.04940346 0.12075650
-0.04641890 0.27799663 0.01463665
-0.35926950 0.43170900 -0.00000088
-0.03480408 0.73622962 0.00000040
-0.09271988 0.33068591 0.02923613
-0.09499551 0.39837770 0.02995367
-0.43289331 -0.22309678 0.13649860
-0.18107962 0.36402279 0.05709746
-0.52952152 0.20066092 0.16696740
-0.33040477 -0.14148274 0.10418214
-0.14661163 -0.37557585 0.04622909
-0.13293081 0.46783244 0.04191210
-0.75842340 -0.65930459 0.23914344
-0.74502277 -0.15260430 -0.00000150
-0.75991620 -0.10819078 -0.00000164
-0.31080247 -0.65788235 0.00000000
-0.21421296 -0.02063959 0.00000000
-0.09588654 -0.50492690 0.00000000
-0.48274028 -0.35670895 -0.00000002
-0.65227086 -0.20810107 0.20567290
-0.51011235 -0.67803682 0.16084694
-0.37310565 0.38185369 0.11764726
-0.34002841 0.29833633 0.10721720
-0.11228251 0.19937254 0.03539693
-0.21036455 0.06795053 0.00000781
-0.00403747 0.78574259 0.00127308
-0.44111412 -0.39572653 0.00000000
-0.13413131 -0.23863512 0.04229384
-0.28791917 -0.21760617 0.09078572
-0.53097993 0.09128541 0.16742530
-0.14955282 0.54381573 -0.00000019
-0.49012488 -0.58210463 0.00000000
-0.06276636 -0.13872951 0.01979128
-0.39517722 -0.61620386 0.12460598
-0.36285623 0.32382680 0.11441373
-0.57039777 -0.17725850 -0.00000071
-0.49523451 0.13664399 0.15615663
-0.05236600 0.32238209 0.01650529
-0.64826508 -0.57420621 -0.00000034
-0.01889658 0.39259373 0.00000583
-0.57171944 -0.49668510 -0.00000015
-0.57570734 -0.45118919 -0.00000025
-0.24806728 0.15442503 0.07821976
-0.17644245 0.57086158 0.00000044
-0.21887159 0.56804902 -0.00000052
-0.01342397 -0.31959072 0.00000000
-0.69241808 -0.22051165 0.21833212
-0.53179468 0.05154369 -0.00000095
-0.24416193 0.42597226 0.07698675
-0.05482805 -0.62171344 0.01728820
-0.74243909 -0.00838642 -0.00000174
-0.75517967 -0.25832062 -0.00000135
-0.05279722 0.03190751 0.00001072
-0.45553822 0.16575769 0.00000185
-0.59053767 0.00244358 0.18620748
-0.59614286 0.02825151 0.18797251
-0.24336263 0.38231893 -0.00000030
-0.49710950 -0.05765466 0.15674755
-0.27697818 0.12528915 0.08733588
-0.26599864 0.37876538 0.08387184
-0.23607012 -0.37214222 0.07443685
-0.14062543 0.11144201 0.00000821
-0.58327906 -0.63056631 0.00000000
-0.26090085 0.15673121 0.08226642
-0.50314439 -0.41898095 0.15864991
-0.48267985 0.20339309 -0.00000101
-0.08600406 -0.34473023 0.02711852
-0.55067988 0.10493695 0.17363965
-0.27057238 0.27502720 0.08531223
-0.01928543 0.08159497 0.00607028
-0.16480579 0.26643062 0.05196602
-0.72094244 -0.23095941 0.22732643
-0.08852509 0.09556564 0.00000923
-0.39564253 0.14357540 0.00000337
-0.70785210 -0.43278937 0.22319833
-0.13546836 0.56122262 -0.00000016
-0.66301004 -0.01987704 -0.00000138
-0.21324909 -0.29064423 0.06724100
-0.47775414 -0.08825239 -0.00000047
-0.50262201 0.26521323 0.15848626
-0.15119486 -0.24476300 0.00000000
-0.56909517 -0.45419496 -0.00000021
-0.69049827 0.06337180 -0.00000164
-0.22679828 -0.34133649 0.00000000
-0.26443303 -0.13571141 0.08338015
-0.03128135 0.15511325 0.00986353
-0.23206604 -0.71019600 0.00000000
-0.01472995 -0.00060356 0.00000000
-0.02968844 0.50256190 0.00000000
-0.17596689 -0.47586009 0.00000000
-0.02672918 -0.54185109 0.00842816
-0.37040042 0.14315041 -0.00000042
-0.21200251 0.23401490 0.06684225
-0.27896131 -0.71164846 0.00000000
-0.03623847 0.75501115 0.01142655
-0.58620738 -0.47619419 -0.00000025
-0.60679967 -0.37859612 -0.00000051
-0.41574292 0.30368357 0.00000031
-0.05994113 -0.10030746 0.01890044
-0.00709594 0.37435786 0.00223747
-0.26248038 -0.11819283 0.00000000
-0.71441081 -0.42358104 -0.00000089
-0.17493511 0.58179025 0.05516031
-0.37826363 -0.44698188 0.00000000
-0.19831845 -0.38738344 0.06253312
-0.15054457 -0.07265478 0.04746922
-0.76531214 -0.36122580 -0.00000110
-0.07317508 0.27332617 0.02306629
-0.08923653 0.58995834 -0.00000001
-0.30142072 0.48259310 0.09504368
-0.03226422 0.11532206 0.00000000
-0.18744224 -0.11150110 0.05910367
-0.70291484 -0.70796987 -0.00000023
-0.39318365 0.36581521 0.12397788
-0.26615732 0.11240598 0.08392384
-0.24995836 -0.49070502 0.00000000
-0.12522704 -0.58768761 0.00000000
-0.63743878 0.00263082 0.20099422
-0.39394384 -0.37779309 0.12421707
-0.27524624 -0.52114204 0.00000000
-0.12873598 0.17416124 0.00000745
-0.09731745 -0.61693747 0.03068582
-0.60411390 -0.52610170 0.19048751
-0.17204750 -0.42720565 0.05424945
-0.39858292 0.11798305 0.12567597
-0.43440677 -0.60255793 0.13697570
-0.54326081 0.03025679 0.17129682
-0.48096533 0.16094196 0.15165506
-0.10846113 0.35936206 0.00000497
-0.00075775 -0.18107790 0.00023893
-0.45040489 0.07892120 -0.00000065
-0.20044272 0.04494788 0.06319420
-0.31343777 0.40746494 0.09883279
-0.29233452 0.22037654 0.09217820
-0.22895046 0.33332822 0.07218831
-0.75125722 0.01759735 -0.00000136
-0.74441807 -0.28396673 0.23472847
-0.03985257 -0.00342629 0.01256618
-0.22832513 -0.52097634 0.07199472
-0.24503455 0.50608921 0.07726338
-0.54898877 -0.32193218 -0.00000036
-0.05572463 0.07249566 0.01756055
-0.05689361 -0.55463444 0.00000000
-0.55721045 0.05278348 -0.00000106
-0.59689689 -0.07628271 -0.00000100
-0.01605931 -0.52031621 0.00506377
-0.14636282 0.01382544 0.04614066
-0.29634757 0.44894289 0.00000017
-0.29983712 0.15973173 -0.00000015
-0.02380331 -0.08288437 0.00750558
-0.49425522 -0.75625344 0.00000000
-0.56178822 -0.19359584 0.17714187
-0.49854734 -0.74906098 0.00000000
-0.49366848 0.04198355 0.00000318
-0.67211531 -0.44829326 -0.00000066
-0.30826660 0.20918579 0.09719745
-0.00349154 -0.67108888 0.00110094
-0.32245783 0.10454318 0.10167652
-0.47913346 -0.27609594 0.15107899
-0.61367661 -0.35526075 0.19350310
-0.22441453 0.13347059 0.07076165
-0.58816859 -0.72761693 0.00000000
-0.21485274 -0.04108443 0.00000000
-0.67940784 0.09724165 -0.00000166
-0.47831527 0.19429542 0.15082000
-0.15120385 0.45054765 0.04767715
-0.44104917 0.03318974 0.00000434
-0.19576975 -0.44169744 0.00000000
-0.57288181 -0.32540677 -0.00000046
-0.25157762 0.19866046 0.07932668
-0.30214910 0.10990482 0.09526656
-0.70919552 -0.24276036 -0.00000118
-0.61497591 0.05655254 0.19391344
-0.34520103 -0.24964339 0.10884765
-0.71104382 -0.60255003 0.22420423
-0.52469346 -0.47591509 0.00000000
-0.10477802 -0.22020906 0.03303826
-0.15917219 0.14256448 0.05018182
-0.48363997 -0.64359016 0.00000000
-0.44870335 0.23840297 0.14148455
-0.41694021 -0.16752455 -0.00000007
-0.60296820 0.13310916 -0.00000044
-0.06288200 -0.74943646 0.00000000
-0.71074082 -0.21380528 0.22410967
-0.15529745 0.19036135 0.04896788
-0.57526666 -0.66887735 0.00000000
-0.65501814 -0.20744549 -0.00000101
-0.25503651 0.13297800 0.08041065
-0.04195654 0.13314596 0.00000000
-0.54315374 -0.09802336 -0.00000073
-0.16094952 0.30039860 0.00000507
-0.08263462 0.40323074 0.02605116
-0.21599087 0.23510114 0.00000521
-0.64566940 -0.79695031 0.00000000
-0.32260692 -0.13117860 0.10172335
-0.34411178 0.20069572 -0.00000041
-0.30324122 0.24196191 -0.00000031
-0.35134215 -0.65935264 0.11078405
-0.20162718 -0.50823774 0.06357642
-0.44517572 -0.18591832 -0.00000016
-0.00437634 0.01616288 0.00137993
-0.54853619 -0.68622038 0.17296262
-0.47659650 0.16787998 0.15027973
-0.62273309 -0.56722335 0.19635846
-0.75853199 -0.26259210 0.23917883
-0.43947971 0.13606292 -0.00000070
-0.42827442 0.06621392 0.00000403
-0.74425941 -0.36213571 -0.00000109
-0.75467386 -0.03875645 0.23796294
-0.69600420 -0.37078193 -0.00000090
-0.12229596 0.55840331 0.03856207
-0.33652930 -0.65198819 0.00000000
-0.38188510 0.31953373 0.12041551
-0.46457097 -0.60786021 0.14648698
-0.50286347 -0.44320579 0.00000000
-0.58011481 -0.79870141 0.18291988
-0.61705659 -0.44734517 -0.00000043
-0.20195937 0.46750985 0.06368144
-0.36393559 -0.42371028 0.11475497
-0.01741011 0.34341187 0.00000659
-0.27269679 0.03699654 0.00000000
-0.36392607 0.30798371 -0.00000068
-0.26649794 -0.62029716 0.08403125
-0.39355946 0.22708018 0.00000201
-0.49077701 -0.41719990 0.00000000
-0.33118474 -0.16463993 0.10442808
-0.14346604 -0.21778306 0.00000000
-0.25819419 0.03669657 0.00000000
-0.68167533 -0.38599416 0.21494445
-0.41566277 -0.17097534 0.13106554
-0.76784446 -0.59523931 -0.00000051
-0.03670549 0.45958589 0.00000000
-0.37599354 0.11892632 0.11855746
-0.75580535 -0.26424007 0.23831907
-0.55617004 -0.24195114 -0.00000053
-0.05952972 0.05837093 0.01876019
-0.23106628 0.15735607 0.00000615
-0.74384534 -0.72853775 0.23454659
-0.29255838 0.42055180 0.09224790
-0.73252015 -0.11648175 0.23097730
-0.29401301 0.41366532 0.00000081
-0.34454339 -0.03447794 0.00000000
-0.04683870 0.28927892 0.01476186
-0.29287641 0.28447831 -0.00000034
-0.35738348 0.40197896 0.11268938
-0.22498946 -0.65377530 0.00000000
-0.26944166 0.05570528 0.00000710
-0.23931446 -0.32288364 0.00000000
-0.79739589 -0.08285581 -0.00000179
-0.00568810 -0.28402525 0.00000000
-0.65014846 -0.70181771 -0.00000012
-0.47977730 0.18717380 0.15128273
-0.46862434 -0.75056464 0.14776508
-0.66691710 -0.32479415 -0.00000086
-0.18881069 -0.26349699 0.05953516
-0.59985052 -0.47681143 -0.00000030
-0.51406664 -0.06840255 0.16209447
-0.19203005 0.36285452 0.06054643
-0.00507283 -0.27155149 0.00159955
-0.58991420 -0.28189468 -0.00000061
-0.32980970 -0.06753612 0.00000000
-0.50082720 0.16094720 -0.00000101
-0.10905449 -0.02575153 0.00000000
-0.26902676 -0.43934453 0.08482863
-0.01612473 0.50207036 0.00000000
-0.47459440 -0.30464823 -0.00000007
-0.49111947 -0.05289736 0.15485878
-0.03113080 0.49295314 0.00981606
-0.48975915 -0.35595048 -0.00000005
-0.02553361 0.30469311 0.00000000
-0.70262423 -0.11085522 0.22155050
-0.11301086 0.16482443 0.03562607
-0.05290792 0.50979244 0.00000355
-0.26787658 -0.04467164 0.00000000
-0.39097945 0.06888904 0.00000470
-0.32334324 0.22289389 0.10195590
-0.24839610 0.34580779 0.07832049
-0.54319202 -0.43849081 0.17127772
-0.62547635 -0.17762847 -0.00000094
-0.48687250 -0.05643466 0.15351961
-0.08996175 0.53061066 0.02836644
-0.59067179 -0.45196684 -0.00000031
-0.01918083 0.65958035 0.00604616
-0.23887527 -0.44263526 0.07532136
-0.19578791 -0.79926040 0.06173520
-0.21766323 0.22597387 0.06863285
-0.37021837 0.16381794 0.11673238
-0.01913002 0.15328043 0.00603201
-0.61842958 -0.42463220 0.19500170
-0.36004119 -0.63076987 0.11352700
-0.03530508 0.36792591 0.01112616
-0.48697293 -0.06221056 0.15355127
-0.02429326 -0.21080251 0.00766007
-0.44824112 0.14679664 0.00000230
-0.12914884 0.46059201 0.00000000
-0.36848820 -0.19205544 0.00000000
-0.24686676 -0.20160865 0.00000000
-0.18893342 0.34807910 -0.00000001
-0.59693274 -0.10787281 0.18822380
-0.16484584 -0.18406366 0.05197865
-0.17448748 0.40119757 -0.00000004
-0.39200746 -0.51651220 0.00000000
-0.75444282 0.01911035 -0.00000184
-0.27142352 -0.45909432 0.00000000
-0.01326531 0.29478181 0.00417522
-0.03230065 0.06890292 0.00000000
-0.60796560 -0.58667764 -0.00000014
-0.01920988 0.48716119 0.00000000
-0.50799945 -0.01703481 0.16018144
-0.11791649 -0.58151018 0.03718104
-0.41973028 0.17901452 0.13234865
-0.50700985 -0.60520386 0.00000000
-0.24372976 0.00000393 0.00000000
-0.73550573 -0.02739696 -0.00000168
-0.25219947 -0.43735096 0.00000000
-0.42633125 -0.62700730 0.13442936
-0.28928847 0.13870246 0.09121760
-0.61570988 0.10663161 0.19414496
-0.49310286 0.13050705 0.15548193
-0.11328410 0.01612723 0.00001005
-0.13343258 -0.60332498 0.04207352
-0.08788448 0.16272824 0.00000823
-0.12917912 0.01046958 0.04072206
-0.29749329 0.44267356 -0.00000064
-0.19452115 0.03958341 0.00000847
-0.18794858 0.16596521 0.00000000
-0.74510072 -0.60086383 0.23494280
-0.29152388 0.41934571 0.09192291
-0.59999076 -0.76896953 0.00000000
-0.57970167 0.03478153 0.18278809
-0.16384330 -0.61042634 0.05166253
-0.59960915 0.09578651 0.18906805
-0.49765496 -0.18673972 -0.00000038
-0.74904423 -0.70011352 0.23618595
-0.67719126 -0.51157926 0.21353034
-0.56357149 -0.44589776 -0.00000020
-0.14904530 0.33216505 0.00000000
-0.07323876 -0.44134820 0.00000000
-0.50943754 -0.67489445 0.00000000
-0.07715960 0.48735303 0.00000353
-0.57389201 -0.32409285 -0.00000046
-0.28548828 0.40350932 0.00000114
-0.03879006 0.73593772 0.01223121
-0.57859772 -0.04507350 -0.00000098
-0.21402427 -0.16940502 0.00000000
-0.23197845 0.10088543 0.00000000
-0.16103004 0.30834485 0.05077546
-0.30401152 -0.01665184 0.09585991
-0.14299385 -0.37445749 0.04508835
-0.64355618 -0.42402970 -0.00000058
-0.16222950 0.47034987 0.00000239
-0.64355586 -0.43265223 0.20292453
-0.10779169 0.56878911 -0.00000005
-0.27828471 0.20980114 0.00000451
-0.47546726 0.23057465 -0.00000102
-0.33174908 0.29146170 -0.00000052
-0.19750443 0.55503909 0.06227621
-0.28441868 0.08951002 0.00000637
-0.18145215 0.20363854 0.05721489
-0.25517172 0.10590919 0.08045287
-0.20170538 -0.55233698 0.06360107
-0.26480220 0.32008798 -0.00000028
-0.02159600 0.69210004 0.00000129
-0.12268662 0.19452769 0.00000723
-0.03945799 -0.58756521 0.01244176
-0.19910311 -0.63004341 0.00000000
-0.49736362 -0.57561985 0.15682705
-0.45778095 0.33851849 -0.00000108
-0.44045541 -0.29734226 0.13888297
-0.43302925 -0.34114437 0.00000000
-0.44279091 0.24636084 0.00000074
-0.51791154 -0.32520419 0.16330645
-0.38717694 -0.58387833 0.12208335
-0.37008633 0.17542607 0.00000333
-0.44424654 -0.10709006 0.14007869
-0.29410111 -0.21577580 0.09273499
-0.35970260 0.39894620 -0.00000021
-0.59250639 -0.20959215 0.18682792
-0.08095219 -0.31460010 0.02552558
-0.22515044 0.28498442 0.00000428
-0.01459856 -0.63076376 0.00460317
-0.06133340 -0.70398262 0.00000000
-0.17025687 -0.23148381 0.05368483
-0.17120278 -0.58637199 0.00000000
-0.00066538 -0.70117852 0.00020981
-0.22017172 0.30369660 0.00000406
-0.43160007 -0.23093943 -0.00000002
-0.04857963 -0.04699370 0.01531797
-0.61629590 -0.29729457 0.19432911
-0.40314948 0.32703420 0.00000016
-0.32612043 -0.21690846 0.10283121
-0.38272437 -0.24958808 0.12067938
-0.33423895 -0.56985996 0.10539112
-0.24487029 -0.01774335 0.00000000
-0.28355207 -0.45240711 0.00000000
-0.20876169 -0.57539257 0.00000000
-0.37550287 -0.30047006 0.00000000
-0.44285841 -0.31835370 0.13964065
-0.43781848 0.17297547 0.00000207
-0.05586209 -0.12023558 0.01761425
-0.39848217 0.09373004 0.12564375
-0.31672692 -0.16120242 0.00000000
-0.57512815 -0.10131718 -0.00000086
-0.15068027 0.09434279 0.04751200
-0.51971303 0.08222244 0.00000201
-0.29262961 0.45348238 -0.00000064
-0.67038339 -0.07952819 0.21138435
-0.04972501 0.52891491 0.01567913
-0.19599454 0.54461596 0.06179990
-0.00734437 0.08974604 0.00231580
-0.46408235 -0.11670707 0.14633331
-0.10860000 -0.08669598 0.00000000
-0.20895952 0.39435852 0.06588552
-0.07556199 -0.09036765 0.02382596
-0.43275712 -0.11794950 0.13645582
-0.58099816 0.13938063 -0.00000131
-0.00026489 0.78035112 0.00008323
-0.00576993 0.22748084 0.00181936
-0.63395644 -0.02221027 0.19989827
-0.18131205 0.52426555 0.05717100
-0.26796116 0.11067477 0.08448585
-0.11687609 0.55257507 0.03685306
-0.25591454 0.44319566 -0.00000046
-0.19519314 -0.69894601 0.00000000
-0.35637423 0.26518738 0.11236864
-0.02945638 0.18853284 0.00928809
-0.48751007 -0.16663337 0.15372048
-0.27599123 -0.07573826 0.08702464
-0.64109533 -0.40955618 0.20214870
-0.73862847 -0.63951217 -0.00000040
-0.41788921 0.35543776 -0.00000060
-0.39273603 -0.39779915 0.00000000
-0.21298493 0.30247681 0.06715321
-0.39801606 -0.14904476 -0.00000002
-0.02876671 0.42558874 0.00000000
-0.49746311 0.17235120 0.15685765
-0.64892233 -0.08065998 -0.00000121
-0.13213935 0.15960788 0.00000000
-0.25735356 0.54163197 -0.00000064
-0.17970101 -0.46702509 0.00000000
-0.07675353 0.61590127 0.02420169
-0.67411990 -0.73572981 0.21256127
-0.22085922 -0.62162891 0.00000000
-0.05787701 -0.38229606 0.01824959
-0.16860852 0.53466420 0.05316386
-0.55210970 -0.35256638 0.17408979
-0.09959195 -0.72204702 0.03140301
-0.06499196 -0.61633885 0.00000000
-0.27152325 0.47488175 0.08561638
-0.18635217 0.52596567 0.05875895
-0.30561152 0.41105591 -0.00000062
-0.26459503 -0.36846029 0.08343123
-0.07061407 0.50385949 0.02226580
-0.09909510 0.11108538 0.03124634
-0.34161674 -0.63756332 0.10771746
-0.24879796 -0.42021888 0.00000000
-0.45498020 0.22398692 0.00000088
-0.07270377 -0.24676451 0.02292471
-0.34423814 0.38192108 -0.00000073
-0.13506159 -0.50112483 0.00000000
-0.42635281 -0.69412650 0.00000000
-0.63394950 0.07804954 0.19989624
-0.01751012 0.25388083 0.00000793
-0.26334469 -0.00227831 0.00000000
-0.22910663 -0.65877515 0.07224115
-0.33321530 -0.53104984 0.00000000
-0.60538037 -0.31710392 -0.00000061
-0.02253557 0.35742313 0.00710584
-0.20844657 -0.06824317 0.00000000
-0.37524687 0.36038197 -0.00000082
-0.16135757 0.35230831 0.05087874
-0.59461931 0.08606723 0.18749463
-0.56103989 -0.72251290 0.00000000
-0.08519060 0.63774016 0.02686210
-0.00574924 -0.55811160 0.00000000
-0.30973838 0.38545953 0.09766626
-0.46856312 0.28957772 0.14774683
-0.27164627 0.11718538 0.00000614
-0.25407552 -0.41022841 0.08011425
-0.16650322 0.15255314 0.00000720
-0.34779487 -0.71589366 0.10966553
-0.11282733 0.22683853 0.00000689
-0.44287822 -0.49813721 0.00000000
-0.16483816 -0.34110315 0.00000000
-0.47279446 0.15106619 0.00000176
-0.05762595 0.47072466 0.00000000
-0.56490321 0.00018608 -0.00000100
-0.10805190 -0.59200521 0.00000000
-0.22465141 -0.34598998 0.07083634
-0.71092590 -0.17741614 -0.00000131
-0.23329680 0.43468159 -0.00000035
-0.44153661 -0.43667454 0.13922386
-0.24353646 -0.49303391 0.07679111
-0.35427974 0.32958337 0.11171098
-0.07450987 0.36535754 0.00000540
-0.17339242 -0.48449091 0.00000000
-0.01921241 -0.11396438 0.00000000
-0.44311772 0.08480950 0.13972305
-0.26100687 0.01427139 0.00000000
-0.09961692 -0.31526872 0.03141088
-0.65361512 0.01448128 0.20609545
-0.16596670 0.00555609 0.05232224
-0.68956884 0.00351096 -0.00000153
-0.17253279 0.07220479 0.00000000
-0.50358988 -0.18006757 -0.00000042
-0.39218296 -0.23739293 0.00000000
-0.61340832 -0.60855634 -0.00000013
-0.37663900 -0.05436100 0.11876072
-0.60367897 -0.59737038 -0.00000011
-0.45488466 0.06650641 0.00000352
-0.20894180 0.24306463 0.06587726
-0.08354792 0.25869392 0.00000686
-0.52367319 -0.49050834 0.00000000
-0.11376421 -0.63703923 0.03587175
-0.10848528 0.35354449 0.03420191
-0.01919245 0.04423343 0.00604039
-0.34737604 0.31056945 0.10953407
-0.68119868 -0.33017489 -0.00000091
-0.34428903 0.21725523 -0.00000044
-0.40895972 -0.60572412 0.00000000
-0.39726918 0.28946641 -0.00000079
-0.20402438 -0.43634426 0.00000000
-0.25153320 0.27900345 0.00000387
-0.21983519 0.38456283 0.06931793
-0.37832645 -0.32525011 0.11929265
-0.01166178 0.56186496 0.00367715
-0.79097328 -0.19943068 -0.00000150
-0.20918870 0.26416024 0.00000488
-0.20866626 0.26191308 0.06579595
-0.56117400 -0.64956004 0.17694753
-0.22317440 0.10338764 0.07037061
-0.57404825 -0.73620807 0.18100700
-0.11547358 0.44328457 0.03641075
-0.39655098 0.12574807 -0.00000050
-0.31266094 -0.50222555 0.00000000
-0.14446859 -0.61476061 0.04555336
-0.10350411 0.05905290 0.03262668
-0.24356741 0.19919959 0.00000000
-0.28105229 0.12973703 0.00000580
-0.39464611 -0.52232247 0.00000000
-0.37955916 -0.31497067 0.11968134
-0.52518049 -0.66490649 0.16559818
-0.68663576 -0.75834238 -0.00000010
-0.07454225 0.35083809 0.00000000
-0.25162306 -0.26595513 0.00000000
-0.68416251 -0.61439674 0.21572818
-0.21401089 0.51222794 0.06748160
-0.10521782 -0.57673285 0.03317693
-0.05858860 0.12529543 0.01847396
-0.29527703 0.30419207 0.09310307
-0.00886131 -0.70973497 0.00000000
-0.40268683 -0.23930700 0.12697388
-0.10027262 0.09306453 0.03160821
-0.51975053 0.19399241 -0.00000115
-0.59842189 0.06590962 -0.00000126
-0.65517989 -0.69802236 -0.00000015
-0.51744684 0.07824215 -0.00000093
-0.74634927 -0.47274802 0.23533685
-0.67527936 -0.63638914 0.21292715
-0.11004696 0.01377488 0.00000000
-0.09283105 -0.31771440 0.02927118
-0.18686151 0.43165914 0.05892072
-0.39716684 0.34358700 -0.00000000
-0.03507108 0.33235891 0.00000649
-0.38224993 -0.72880299 0.12052978
-0.44035244 -0.25835064 -0.00000001
-0.00046798 0.46294637 0.00014756
-0.07978497 -0.05546581 0.00000000
-0.20782554 0.18245822 0.06553086
-0.18762847 -0.73942121 0.00000000
-0.26798980 0.28036766 0.08450190
-0.52136086 -0.28091655 -0.00000031
-0.60600808 0.13827191 -0.00000142
-0.23724888 0.10642690 0.00000682
-0.75934269 -0.56393899 0.23943358
-0.64289401 0.02508632 0.20271487
-0.51745886 0.07194093 0.16316124
-0.47109376 -0.15136223 0.14854410
-0.35751230 -0.52019290 0.11272960
-0.42821666 0.31704004 -0.00000016
-0.39751879 0.38792742 -0.00000075
-0.35948221 -0.26021818 0.11335074
-0.65971814 -0.65127028 0.20802046
-0.51882694 -0.59743082 0.00000000
-0.24589291 0.46481965 -0.00000046
-0.48900076 -0.47989814 0.15419010
-0.68368723 -0.77452704 0.21557785
-0.37431967 0.28970691 0.00000134
-0.02240553 -0.30518789 0.00000000
-0.01458964 0.66318123 0.00460036
-0.59365118 -0.06316225 0.18718912
-0.10565186 0.06357063 0.00000945
-0.13438011 -0.44299247 0.04237229
-0.01504228 -0.11718443 0.00000000
-0.33263795 0.35792275 0.00000100
-0.31826864 0.20144589 0.00000389
-0.41552781 -0.27341957 0.13102286
-0.63371109 0.00140338 0.00000117
-0.53947976 -0.00221583 0.17010785
-0.16637750 -0.66658308 0.05246160
-0.13599048 0.29036943 0.04287418
-0.18287048 0.50716070 -0.00000026
-0.04615293 0.16480724 0.00000000
-0.11888807 -0.04367047 0.00000000
-0.13806378 0.15257534 0.00000000
-0.15226059 0.11897660 0.00000792
-0.72830846 -0.62271498 0.22964793
-0.39739316 -0.38442947 0.12530470
-0.22639718 -0.22212226 0.07138681
-0.41228534 0.12259231 -0.00000056
-0.25205555 0.07080105 0.00000713
-0.21821082 0.43355368 0.06880352
-0.38312954 0.35485116 0.12080796
-0.24309212 -0.78496907 0.00000000
-0.35060165 0.34157823 0.11054971
-0.58450209 -0.13340439 -0.00000084
-0.15827981 0.30062749 0.00000510
-0.03622524 0.08390705 0.01141196
-0.59742211 -0.68395567 0.00000000
-0.23396959 0.18665841 0.00000567
-0.59666926 0.01927992 0.18813834
-0.43730731 0.01877728 -0.00000049
-0.55771510 0.09973620 0.00000099
-0.02233469 0.08757748 0.00000000
-0.33519648 -0.70495926 0.00000000
-0.35273924 -0.61454454 0.11122457
-0.67926850 -0.39315935 -0.00000079
-0.05075698 0.20524000 0.01600452
-0.50428468 0.25051894 0.15901052
-0.46040822 0.13992664 0.14517519
-0.40770112 0.15105249 0.12855188
-0.76920866 -0.50778300 -0.00000073
-0.58041538 -0.11049838 -0.00000087
-0.22519826 -0.30270421 0.00000000
-0.03632749 0.00780233 0.00000000
-0.26101335 -0.24783038 0.08230186
-0.08849782 -0.25484496 0.00000000
-0.08577436 -0.34701550 0.00000000
-0.23314429 0.27814829 -0.00000007
-0.17382143 0.57302743 -0.00000034
-0.55025721 0.21432159 0.17350654
-0.75095359 -0.29831413 -0.00000125
-0.12633697 -0.05896595 0.00000000
-0.10250001 -0.33961761 0.00000000
-0.72469544 0.05632500 -0.00000178
-0.20705431 -0.12706320 0.00000000
-0.19845042 0.09554114 0.06256674
-0.01126016 0.71610915 0.00355052
-0.42192744 0.03125749 0.00000474
-0.10918055 0.02052425 0.00001004
-0.27964601 0.16435011 0.00000525
-0.13071775 0.03484531 0.00000000
-0.60269788 -0.53094600 -0.00000022
-0.26476699 -0.60266367 0.00000000
-0.57730731 0.11952837 -0.00000126
-0.26580741 0.25634370 0.00000398
-0.53433481 -0.60816271 0.00000000
-0.25590843 -0.08289583 0.08069220
-0.45887957 -0.49679297 0.14469239
-0.20071937 0.11438538 0.00000726
-0.05024509 0.00427275 0.01583163
-0.43547036 -0.31379416 0.13731107
-0.22288589 -0.72152721 0.07027964
-0.73515116 -0.60244671 -0.00000049
-0.54336723 0.08305069 -0.00000105
-0.14093933 -0.22047901 0.00000000
-0.08487129 0.35830511 0.00000534
-0.18301987 -0.42753084 0.00000000
-0.57430656 0.15868404 0.18108906
-0.41988581 -0.01222882 0.13239740
-0.05738522 -0.09674022 0.00000000
-0.22619752 0.18372210 0.07132385
-0.02560165 0.32867202 0.00000000
-0.60738345 -0.72018518 0.19151817
-0.08964899 0.28334468 0.02826782
-0.12667443 0.17749965 0.03993481
-0.29258578 -0.72625657 0.09225718
-0.00909494 -0.56287597 0.00286779
-0.19935040 -0.08179402 0.06285851
-0.49011991 -0.52568503 0.15454299
-0.39747564 -0.34597280 0.00000000
-0.04609500 0.41615851 0.00000000
-0.46618710 -0.79613564 0.00000000
-0.12504586 0.47508531 0.00000299
-0.02601764 0.39494130 0.00819795
-0.13216153 0.50890428 0.00000232
-0.30503527 0.04520322 0.09618274
-0.01273254 -0.48755486 0.00401478
-0.41979460 -0.52015349 0.00000000
-0.27696776 0.11087264 0.00000000
-0.36112053 0.13537292 0.11386297
-0.45603466 -0.21032344 -0.00000016
-0.73039801 -0.31613608 0.23030767
-0.35519146 -0.14100704 0.00000000
-0.43398773 -0.40871284 0.00000000
-0.59204247 0.09829647 0.18668212
-0.01023411 0.65813213 0.00000000
-0.41301381 0.35639210 0.13023109
-0.49356673 -0.11300562 0.15563035
-0.25219143 -0.49887537 0.00000000
-0.61061677 -0.76845752 0.00000000
-0.35537131 -0.17754582 0.00000000
-0.67547511 0.08137672 0.21299013
-0.48165654 0.23701904 0.15187441
-0.69800249 -0.75913442 0.22009168
-0.21492535 0.12556364 0.06776955
-0.34652128 0.21732223 0.10926440
-0.04911200 -0.02989917 0.00000000
-0.59348761 -0.68199771 0.18713658
-0.41177887 0.25802387 0.12984153
-0.12226703 -0.16787934 0.00000000
-0.74717352 -0.09532394 0.23559784
-0.42416794 0.10918871 -0.00000059
-0.13530430 -0.73517294 0.04266370
-0.73447334 -0.22122692 -0.00000133
-0.70869945 -0.79438176 0.22346446
-0.30009205 -0.75274996 0.09462403
-0.64084141 -0.71178740 -0.00000006
-0.27711482 -0.25027653 0.00000000
-0.40577486 -0.53338010 0.12794759
-0.27661136 -0.10998873 0.00000000
-0.23111045 0.41091191 0.07287329
-0.19613027 0.06397532 0.06183464
-0.27721308 0.46793995 0.08740980
-0.62164275 -0.07267358 -0.00000111
-0.32892670 0.30988450 0.10371661
-0.03273476 -0.61802402 0.00000000
-0.08256114 -0.01632751 0.00000000
-0.25074753 -0.72528397 0.07906488
-0.15370621 0.30283804 0.00000000
-0.50985772 0.22895485 0.16076717
-0.00098915 0.29666925 0.00031190
-0.07845271 0.48901614 0.00000348
-0.04561220 -0.24899299 0.01438229
-0.02028533 -0.42187014 0.00639630
-0.26654020 0.01405436 0.08403630
-0.26609747 0.10994741 0.08390498
-0.48480289 -0.41955082 0.00000000
-0.11323279 0.50736305 0.00000000
-0.25400172 -0.43388009 0.00000000
-0.67809234 -0.11085603 0.21381509
-0.76786109 -0.43409657 -0.00000091
-0.67510312 -0.34849529 -0.00000085
-0.60799591 -0.69102024 0.19171133
-0.21373858 -0.11679271 0.06739534
-0.27563318 -0.55536718 0.08691174
-0.65099744 -0.24146959 -0.00000094
-0.39258606 0.12837023 0.12378944
-0.47372061 0.22078592 0.14937299
-0.59878775 -0.31497750 0.18880840
-0.56621116 0.14436487 -0.00000126
-0.21732601 -0.30253463 0.06852652
-0.58218327 0.03007974 0.18357055
-0.11303567 0.47477174 0.03564203
-0.22365302 -0.03629404 0.07052153
-0.38002992 -0.34970397 0.00000000
-0.18636151 0.60962663 -0.00000046
-0.24465972 0.31432933 -0.00000019
-0.11892059 -0.47128141 0.00000000
-0.43851811 0.09199308 0.00000341
-0.63845471 -0.41734217 0.20131605
-0.02525736 0.63411220 0.00796407
-0.41116797 0.30215907 -0.00000087
-0.00489394 0.65407090 0.00000000
-0.71387696 -0.42102813 0.22509808
-0.25483041 0.01490924 0.00000000
-0.31516281 0.09150870 -0.00000009
-0.13051429 -0.24484610 0.00000000
-0.06324790 0.60950225 0.01994109
-0.61271219 -0.15432395 -0.00000093
-0.61110006 0.11541796 -0.00000140
-0.04215148 0.40612898 0.01329106
-0.21327967 -0.79017331 0.06725064
-0.28848114 0.11730144 0.00000586
-0.17301479 -0.28312430 0.00000000
-0.61095450 -0.00130911 0.19264532
-0.28006127 0.20100893 0.08830817
-0.26307339 -0.74659604 0.08295143
-0.29322898 -0.10831285 0.00000000
-0.07107952 -0.46168899 0.00000000
-0.65603079 -0.47378234 -0.00000055
-0.77310156 -0.15799557 -0.00000161
-0.40810321 0.24855527 0.12868045
-0.23476537 -0.37431288 0.00000000
-0.14791526 -0.33682793 0.04664015
-0.34387249 -0.69659223 0.10842874
-0.50540272 -0.30376044 -0.00000021
-0.44086453 0.13268349 0.13901265
-0.00232730 0.04440712 0.00000000
-0.15843899 0.35905780 0.00000422
-0.20391532 -0.26147701 0.06429791
-0.12874226 -0.12740012 0.04059458
-0.08315001 0.17598081 0.00000811
-0.25495375 0.37515679 0.00000220
-0.40774254 -0.74392615 0.00000000
-0.52519212 0.18995088 -0.00000116
-0.01736113 -0.58506336 0.00000000
-0.12596739 -0.14875846 0.03971962
-0.00736512 0.78419547 0.00232222
-0.01455075 0.67533559 0.00458639
-0.12325996 -0.11585535 0.03886592
-0.45635620 0.10813029 0.14389390
-0.21655777 -0.52614020 0.00000000
-0.25179383 0.00466345 0.00000000
-0.18988801 -0.31592885 0.00000000
-0.09670704 -0.59905165 0.03049335
-0.03159593 -0.74453458 0.00000000
-0.11753972 0.23236490 0.03706223
-0.62773991 -0.10819848 0.19793794
-0.17396633 -0.48033657 0.05485449
-0.26350239 0.50993044 0.08308729
-0.71186264 -0.42418778 -0.00000087
-0.45029947 -0.21479627 -0.00000013
-0.32600759 -0.07296840 0.10279564
-0.21111026 0.16779251 0.00000000
-0.04815906 0.37584508 0.00000000
-0.22848386 0.34909487 0.07204146
-0.47423397 -0.35315895 0.14953396
-0.42249497 -0.19676988 -0.00000004
-0.21636780 0.43158563 0.06822231
-0.74590979 -0.31909411 -0.00000120
-0.65690218 -0.78139664 0.20713217
-0.04091013 0.60099341 0.01289718
-0.57221850 0.18299866 -0.00000068
-0.79828395 -0.46442473 -0.00000084
-0.33284932 0.27246716 -0.00000049
-0.03649210 0.67213928 0.01150512
-0.24714225 0.11781069 0.00000000
-0.51466386 -0.54049403 0.00000000
-0.12814004 0.57537799 0.04040485
-0.34995199 0.36730981 0.11034532
-0.51711071 0.20254322 0.16305383
-0.27860581 -0.56077208 0.08784906
-0.44164300 -0.29857287 0.13925744
-0.12390563 -0.52619564 0.03906951
-0.62274731 -0.09092129 -0.00000108
-0.08974915 0.37404597 0.00000000
-0.02395691 0.10376535 0.00754368
-0.72335894 -0.52670497 0.22808756
-0.42894992 0.33310135 0.13525575
-0.53029349 -0.64000851 0.00000000
-0.08100566 0.25897628 0.00000000
-0.41970614 0.11447981 -0.00000058
-0.44297850 0.02706886 -0.00000052
-0.08250732 0.13144790 0.00000000
-0.44627416 -0.09001613 0.14071807
-0.37235930 -0.13863750 0.00000000
-0.67944431 0.03360722 0.21424162
-0.15905468 0.12022741 0.05015259
-0.21081712 -0.39761027 0.06647416
-0.09221387 -0.37925818 0.02907657
-0.39497417 -0.62741463 0.12454195
-0.37425341 -0.18680437 0.11800835
-0.58141365 0.02977611 0.00000170
-0.04266858 -0.35504944 0.00000000
-0.71899727 -0.46576206 0.22671244
-0.56583081 -0.57178464 0.17841599
-0.30226828 -0.23877596 0.00000000
-0.20110347 0.50477787 -0.00000034
-0.28200905 0.02018772 0.08891420
-0.40084036 -0.41065671 0.12639166
-0.49842516 0.25880540 -0.00000053
-0.49422886 0.26220390 0.15583940
-0.45494554 -0.55791219 0.00000000
-0.28304965 0.16272263 0.00000521
-0.22839994 0.12128625 0.00000000
-0.20183059 -0.22164580 0.06364055
-0.64944331 -0.47338386 -0.00000052
-0.59272470 -0.51117179 -0.00000021
-0.20855535 0.24867556 0.06576098
-0.12255759 0.63117817 0.03864401
-0.75679806 -0.77264216 0.23863062
-0.32095436 -0.73464260 0.00000000
-0.09502808 -0.09614856 0.00000000
-0.00554736 0.65951355 0.00000202
-0.64742036 -0.18581887 0.20414347
-0.17479403 -0.40479447 0.05511548
-0.19167184 0.36088885 0.00000365
-0.23197547 -0.66315433 0.00000000
-0.03228373 -0.39913152 0.01017960
-0.27708604 -0.27616862 0.08736986
-0.22039437 -0.53453959 0.00000000
-0.40920504 0.31770441 -0.00000089
-0.24963885 0.16300381 0.00000000
-0.01767553 0.17326235 0.00557339
-0.05164917 0.51349902 0.00000000
-0.68786988 -0.01845424 -0.00000149
-0.59851912 0.02210834 0.18872422
-0.66910749 -0.00280011 0.21098215
-0.20358486 0.00163022 0.00000000
-0.26317303 0.36650495 0.08298059
-0.15701027 0.25550716 0.00000580
-0.46695232 0.26627642 0.14723814
-0.44384204 -0.40922318 0.00000000
-0.16465422 0.16288058 0.05191822
-0.57189783 -0.70482502 0.18032893
-0.45791645 -0.24691049 0.14438887
-0.19689472 0.47368713 0.06208446
-0.30145359 -0.44534404 0.00000000
-0.08409427 0.39403770 0.02651633
-0.18140899 -0.71493028 0.05720128
-0.09563745 0.47628006 0.03015609
-0.10846036 -0.37628969 0.00000000
-0.29104765 0.11715066 -0.00000004
-0.44161829 0.32836196 -0.00000060
-0.31760814 -0.76422885 0.00000000
-0.38797721 0.24301814 -0.00000067
-0.21869771 0.08422406 0.00000000
-0.52060002 -0.60372635 0.00000000
-0.33674104 0.09098892 0.10618030
-0.29627842 0.39135208 -0.00000054
-0.30295678 0.20867001 0.00000406
-0.25157266 -0.72073327 0.00000000
-0.23738792 -0.09042596 0.00000000
-0.17800510 0.39596781 0.05612805
-0.26944317 0.16548737 0.08496000
-0.03942989 0.38025277 0.00000000
-0.03328719 0.02820538 0.01048465
-0.26441733 -0.24209768 0.00000000
-0.63790117 -0.22929683 -0.00000090
-0.17819830 0.26098920 0.05618316
-0.49542067 0.15899064 0.15621334
-0.06300350 0.45279823 0.01986163
-0.39284271 -0.17121047 0.12386990
-0.11138420 0.12639478 0.03512130
-0.03036737 0.35518928 0.00000000
-0.41028264 0.26339540 -0.00000080
-0.19626531 -0.52508889 0.00000000
-0.38989261 -0.09669744 0.12293979
-0.69508086 -0.54030184 -0.00000060
-0.78140147 -0.52993477 -0.00000068
-0.00237787 0.40079178 0.00000595
-0.32769522 -0.35673180 0.00000000
-0.51019182 -0.22594145 -0.00000036
-0.30131920 0.03359527 0.09501097
-0.04765045 0.30071251 0.00000000
-0.47490935 -0.68614793 0.14974685
-0.05467061 0.38251426 0.00000000
-0.16538410 0.51802843 0.05214678
-0.65930084 0.05302701 0.20789000
-0.65739370 -0.68513078 0.20728743
-0.41212292 -0.35495284 0.00000000
-0.62237240 0.15018411 -0.00000110
-0.44986217 -0.24937817 -0.00000006
-0.28622499 -0.56912847 0.00000000
-0.62296341 -0.58360941 -0.00000021
-0.28517662 -0.74686181 0.00000000
-0.41218255 -0.46237182 0.12996804
-0.77921406 -0.41990289 -0.00000095
-0.27459253 0.22991541 0.08657911
-0.09793992 -0.67369035 0.00000000
-0.31811372 0.45806888 0.10030729
-0.16541927 -0.72550391 0.00000000
-0.15638378 -0.04898375 0.00000000
-0.16835772 0.55319092 0.00000089
-0.00736399 -0.52826853 0.00232199
-0.68287309 0.03016223 0.21532189
-0.02731593 -0.48190921 0.00861317
-0.68196269 -0.03804011 0.21503561
-0.26451405 0.47737731 -0.00000056
-0.05031219 0.49687263 0.01586427
-0.49743245 -0.46352296 0.15684875
-0.73608964 -0.00356425 0.23210301
-0.13514259 0.18785118 0.00000000
-0.37261550 -0.14069358 0.00000000
-0.12341473 0.54136093 -0.00000007
-0.46668716 -0.27153675 -0.00000010
-0.54761211 -0.73475148 0.17267124
-0.16571438 0.28757539 0.00000519
-0.35454291 0.22018045 0.00000288
-0.61884710 -0.78629009 0.19513282
-0.57665893 -0.06558016 -0.00000093
-0.64317501 -0.25788745 0.20280471
-0.11643968 0.08798067 0.03670611
-0.44382673 -0.40565291 0.00000000
-0.61463500 -0.52503334 0.19380503
-0.23276258 -0.69991551 0.00000000
-0.30914145 0.01525516 0.00000711
-0.16261273 0.26428761 0.05126860
-0.45569011 -0.19225571 0.14368695
-0.16090002 -0.02296770 0.05073446
-0.77591857 -0.72117239 -0.00000020
-0.24445773 0.47260720 0.00000077
-0.17960461 0.11775315 0.00000752
-0.36461060 -0.32395184 0.11496781
-0.10650156 -0.17210124 0.03358172
-0.40777376 0.12334476 0.00000347
-0.33201337 0.43717235 -0.00000078
-0.60109553 -0.47437592 -0.00000031
-0.60714688 -0.73366569 0.00000000
-0.40406070 0.36079577 -0.00000095
-0.00499169 0.40618820 0.00156800
-0.13588918 0.66358971 -0.00000034
-0.34795028 -0.10196207 0.00000000
-0.04645437 -0.58929078 0.00000000
-0.76168078 -0.45820282 0.24017111
-0.02552760 0.76872008 -0.00000005
-0.01542509 -0.79299793 0.00000000
-0.09944411 0.40656496 0.03135176
-0.34168717 -0.07781707 0.10773967
-0.12476624 0.06431824 0.00000915
-0.24521615 -0.46049704 0.00000000
-0.46072629 -0.19031025 -0.00000022
-0.04500263 0.06740920 0.01419008
-0.16819492 0.54635872 0.00000101
-0.64336277 -0.49419065 0.20286354
-0.47228437 -0.42871918 0.00000000
-0.37318413 0.27844666 0.11766968
-0.35698400 0.42447272 0.11256382
-0.12354881 0.25736763 0.03895700
-0.57848080 -0.57645599 0.18240479
-0.30831906 -0.00362674 0.00000000
-0.07056243 -0.10661842 0.02224951
-0.55047667 -0.19578998 0.17357510
-0.14799304 0.27683518 0.00000561
-0.13137077 0.54438037 -0.00000011
-0.54917577 0.22006639 -0.00000132
-0.21193040 -0.30550030 0.06682519
-0.58408421 -0.48572528 -0.00000022
-0.31002882 -0.16451548 0.00000000
-0.33160402 0.20530455 0.00000357
-0.36199449 0.28350205 0.11414353
-0.21338830 -0.12015683 0.00000000
-0.28756330 -0.06995934 0.09067351
-0.32657347 -0.72625764 0.00000000
-0.08040549 0.69661869 -0.00000016
-0.56412464 -0.12998776 0.17787869
-0.46799020 0.17824504 0.14756600
-0.60292044 0.00317580 0.00000173
-0.47458088 -0.02363728 0.14964387
-0.69189078 -0.31147860 0.21816571
-0.47568731 -0.00708689 -0.00000060
-0.08077669 0.09769794 0.02546062
-0.23318756 0.27801137 0.07352804
-0.34679460 -0.41223110 0.00000000
-0.12439260 0.14093943 0.00000000
-0.07760482 -0.24388621 0.00000000
-0.72011378 -0.50823198 0.22706437
-0.54155864 0.11065240 -0.00000109
-0.43075118 -0.54018479 0.13582304
-0.12033149 0.62302669 0.03794273
-0.63078579 -0.58519118 -0.00000024
-0.19026952 0.19238459 0.05998853
-0.31401224 0.47746337 -0.00000077
-0.08693635 -0.78007291 0.02741248
-0.01527524 0.31514203 0.00000704
-0.24146297 0.16137660 0.00000594
-0.66824384 -0.60308063 -0.00000037
-0.09889180 0.23287998 0.03118223
-0.48184817 -0.63981293 0.00000000
-0.49595146 0.14524307 -0.00000096
-0.30631032 0.02219217 0.00000000
-0.25291885 0.00872415 0.00000000
-0.09375604 0.65738345 0.02956226
-0.70004098 0.00198240 -0.00000158
-0.48666646 0.09708092 0.15345488
-0.41660526 -0.34187978 0.13136259
-0.07586053 0.06818246 0.00000000
-0.45483746 -0.39371181 0.14341784
-0.02032788 0.63540268 0.00000216
-0.51053958 -0.40900999 0.16098178
-0.38738258 -0.30769817 0.00000000
-0.30347504 -0.04504636 0.09569074
-0.10019692 -0.01982760 0.00000000
-0.13847581 0.61551367 0.04366400
-0.68769952 -0.37414238 -0.00000086
-0.74451024 -0.07768749 -0.00000163
-0.30459574 0.36111011 0.09604464
-0.38421529 0.08593244 0.00000455
-0.44886232 0.30068380 -0.00000103
-0.32664294 -0.29289564 0.10299597
-0.10976150 -0.36154153 0.03460963
-0.59606900 -0.74389176 0.18795051
-0.13004534 0.03453546 0.00000000
-0.15749317 -0.46362237 0.04966022
-0.02816444 0.60653979 0.00887815
-0.08483640 -0.28123472 0.00000000
-0.52262957 0.22090176 0.16479447
-0.07116436 0.18910777 0.02243096
-0.19362959 0.25374767 0.00000527
-0.16250794 -0.57923045 0.00000000
-0.20008680 -0.12653811 0.06309071
-0.02996279 0.07600513 0.00001041
-0.53911839 0.16089690 0.00000032
-0.13059968 0.01748230 0.00000000
-0.35526404 0.37032449 0.11202047
-0.53275804 -0.27837379 0.16798793
-0.04231735 -0.65150153 0.00000000
-0.18653213 -0.63030552 0.00000000
-0.20509891 0.19701922 0.06466477
-0.08030711 -0.32071901 0.00000000
-0.28062881 0.13673731 0.08848089
-0.34514442 -0.08993745 0.10882980
-0.48028667 -0.39139991 0.15144244
-0.47667448 -0.37780404 0.00000000
-0.31800450 -0.38181654 0.10027213
-0.46421846 -0.11808434 0.14637623
-0.65112712 -0.73127656 -0.00000007
-0.18675676 -0.32440880 0.05888752
-0.09640922 -0.47605663 0.00000000
-0.27224633 0.32203273 -0.00000032
-0.53859386 -0.54385722 0.16982767
-0.56031090 0.17209446 0.17667661
-0.42392559 0.20313095 -0.00000075
-0.04602097 -0.18310960 0.01451118
-0.36354332 -0.23811758 0.11463128
-0.12167942 0.60303533 -0.00000017
-0.38670126 -0.59009446 0.12193336
-0.26583320 0.00943057 0.00000785
-0.12101752 0.00361968 0.03815884
-0.37558074 -0.64232567 0.00000000
-0.49163528 0.25580635 0.15502143
-0.03043781 -0.38110000 0.00000000
-0.19354987 0.15494957 0.00000676
-0.15260114 0.35420818 0.04811769
-0.04719486 0.10253529 0.00000000
-0.05021517 0.64320126 0.01583199
-0.69601263 -0.21640912 -0.00000117
-0.49184872 0.02074661 -0.00000072
-0.59175642 -0.76554516 0.00000000
-0.02545932 0.15162340 0.00000000
-0.50091320 0.04864387 0.15794710
-0.63263957 -0.14929920 0.19948284
-0.31062586 0.22125274 -0.00000030
-0.22566821 0.11209706 0.07115695
-0.06704618 0.65449191 0.00000114
-0.68217025 0.08334629 -0.00000164
-0.09889788 0.01937224 0.00001022
-0.00662223 -0.07060964 0.00208810
-0.39682133 -0.74857466 0.00000000
-0.29441512 -0.46496049 0.09283400
-0.76284835 -0.76250431 0.24053838
-0.59613083 -0.14884905 -0.00000087
-0.53545554 0.01716711 0.16883896
-0.02117136 0.12993973 0.00667568
-0.52509912 0.14142974 0.16557357
-0.10520189 0.06773680 0.00000940
-0.12947180 -0.03202470 0.00000000
-0.11562603 0.13132813 0.00000000
-0.18178390 -0.04807052 0.05731950
-0.00585369 0.69357986 0.00000000
-0.25768047 0.32848410 0.08125124
-0.58410445 -0.40068265 0.18417832
-0.54914207 0.12906811 0.00000066
-0.76389297 -0.68998182 -0.00000028
-0.23418506 0.34793084 0.00000305
-0.33178522 -0.02847608 0.10461744
-0.25848699 -0.68013861 0.08150526
-0.05280821 0.70415510 0.01665137
-0.37734314 -0.22861550 0.00000000
-0.57176384 -0.06032688 0.18028760
-0.08560621 -0.59891308 0.02699307
-0.13565166 0.16647872 0.00000746
-0.16669306 0.34826138 0.00000426
-0.36842691 0.14595794 0.00000385
-0.69712284 0.04998076 -0.00000086
-0.78984195 -0.44150895 -0.00000090
-0.25588777 -0.37761557 0.08068569
-0.75997504 -0.21829321 -0.00000144
-0.22943338 -0.67136498 0.07234417
-0.27598623 -0.27827932 0.08702306
-0.46382407 -0.11577082 -0.00000036
-0.46597296 -0.06454616 0.14692954
-0.19042400 0.22785603 0.00000000
-0.45602760 0.30871834 0.14379415
-0.09420362 0.42358336 0.02969954
-0.09477074 0.25271921 0.02988279
-0.67592117 -0.34439271 -0.00000086
-0.28314047 -0.47704331 0.00000000
-0.03587326 0.07689146 0.01130086
-0.00510673 -0.25911886 0.00161024
-0.36114142 0.11992050 0.00000442
-0.55269033 -0.64902667 0.17427249
-0.42499497 0.02094286 0.00000485
-0.64954717 -0.45401183 -0.00000056
-0.35314680 0.03199045 0.11134666
-0.48600237 0.16254421 0.00000131
-0.18701269 0.11854476 0.00000740
-0.11088155 0.61222846 -0.00000014
-0.60010111 -0.70724172 0.18922191
-0.07375209 0.34630678 0.00000000
-0.45464487 0.08478426 0.14335383
-0.33198594 -0.33220764 0.00000000
-0.31722625 -0.64620938 0.10002673
-0.57026504 0.09753007 0.17981351
-0.51394145 0.10454770 -0.00000096
-0.63547327 0.13109100 0.20037675
-0.04039695 -0.17173538 0.00000000
-0.15048977 -0.17614394 0.04745194
-0.56038817 -0.08947206 -0.00000082
-0.19351886 0.24371296 0.06101973
-0.15638871 0.01872502 0.00000000
-0.33158837 -0.43809121 0.10455535
-0.61993149 -0.67534987 0.19547490
-0.15704898 0.49896471 0.00000201
-0.51860941 -0.64207237 0.00000000
-0.01059533 0.74236185 0.00000070
-0.01889368 0.52107330 0.00000390
-0.28044664 -0.36328989 0.00000000
-0.50459490 -0.35376483 0.15910739
-0.36741827 0.11820628 0.11584857
-0.51743547 -0.41666236 0.16315619
-0.35185151 0.16491245 0.00000385
-0.01295615 0.68226381 0.00408529
-0.79618644 -0.17232198 -0.00000157
-0.03298704 -0.03231404 0.00000000
-0.18843940 0.23489696 0.05941209
-0.13229933 0.26490224 0.00000603
-0.62795456 -0.67916174 0.19800473
-0.55364846 -0.07406402 0.17457542
-0.36941120 0.13609970 0.11648194
-0.32365305 0.20264175 -0.00000033
-0.01992777 0.39902040 0.00000000
-0.25711678 0.50783721 0.08107340
-0.69599878 0.02267698 0.21946078
-0.15024097 -0.09168524 0.04737349
-0.11197970 0.62224794 0.00000082
-0.08681683 -0.20586484 0.00000000
-0.17268124 -0.20425845 0.05444928
-0.22724159 0.18844613 0.00000000
-0.52290247 -0.75885549 0.16487988
-0.02791450 -0.22092717 0.00000000
-0.41314736 -0.34010041 0.13027226
-0.23271806 0.01124945 0.07337989
-0.55788736 -0.02903452 0.17591211
-0.26707357 0.43141448 0.08421176
-0.00297165 0.64263926 0.00093701
-0.36255337 0.05277831 -0.00000023
-0.32498855 -0.03203188 0.10247432
-0.04181207 0.14448158 0.01317459
-0.23446208 -0.67515932 0.00000000
-0.03360350 -0.59943453 0.00000000
-0.31535759 0.34660008 0.09943601
-0.01553204 0.77492208 0.00489753
-0.65200634 -0.76391749 0.20558850
-0.25396852 0.38005204 0.08008086
-0.13454092 0.16129096 0.04241511
-0.10739550 -0.16899576 0.00000000
-0.02626262 0.29781366 0.00000000
-0.26383076 -0.06715331 0.00000000
-0.32011707 0.35269104 0.10093882
-0.54030764 -0.72248912 0.00000000
-0.71478204 -0.38133694 0.22538357
-0.30624009 -0.76730928 0.00000000
-0.13896254 0.22997734 0.00000000
-0.01715171 0.76080789 0.00000033
-0.37142540 -0.36184912 0.00000000
-0.75218926 -0.00540119 0.23717955
-0.05808810 -0.26552752 0.00000000
-0.26595551 0.36785837 0.00000211
-0.07786370 -0.07782117 0.02455172
-0.19426763 0.58081143 -0.00000044
-0.44351741 -0.49583375 0.00000000
-0.67425925 -0.63389325 -0.00000034
-0.78142953 -0.78428818 -0.00000004
-0.18649865 -0.45649702 0.05880614
-0.01452046 0.51246739 0.00000000
-0.23616397 0.15773483 0.00000000
-0.79948283 -0.09423912 -0.00000176
-0.66209840 -0.52236199 0.20877123
-0.21824090 0.16908609 0.06880841
-0.32872404 0.26610512 0.10365264
-0.35565352 -0.59559798 0.00000000
-0.16270850 -0.31852924 0.00000000
-0.11479728 0.44191204 0.03619363
-0.35520281 0.16185298 0.00000384
-0.01969620 -0.35404770 0.00621054
-0.65360597 -0.04297199 -0.00000130
-0.74717012 -0.74950583 0.23559487
-0.68270268 -0.52936508 0.21526812
-0.53443861 0.20062946 0.16851794
-0.15653948 -0.42044227 0.04935951
-0.62601315 -0.71581632 0.00000000
-0.49651625 0.05615160 -0.00000080
-0.01566225 0.03265537 0.00493857
-0.12718370 0.29055741 0.04009713
-0.72987738 0.05773612 -0.00000180
-0.15240909 0.21473319 0.04805032
-0.68915308 -0.76885984 -0.00000008
-0.14388921 0.55726595 0.04536933
-0.33061091 0.25446808 0.00000276
-0.12983517 -0.78194021 0.04093920
-0.41778487 -0.25701685 0.00000000
-0.20931083 0.28663815 0.06599434
-0.23224030 0.03890847 0.07322924
-0.33405821 0.19278550 0.10533450
-0.08441644 0.02181213 0.00001040
-0.56275013 -0.10361187 -0.00000080
-0.06329333 0.18427809 0.01995744
-0.59782748 -0.48250008 -0.00000028
-0.16101130 0.31995829 0.05076955
-0.28442099 0.38056663 0.00000154
-0.30643099 0.18889986 0.09662306
-0.47699340 0.02068644 0.15040465
-0.42777656 0.08802990 -0.00000057
-0.37823160 0.24530631 0.11926337
-0.21743352 0.30818121 0.06856051
-0.30924635 -0.55305432 0.09751054
-0.03992350 -0.10333940 0.00000000
-0.68699352 -0.50710325 0.21662114
-0.15731127 -0.04024449 0.04960287
-0.33145849 0.12163167 0.00000497
-0.69617912 -0.44902066 0.21951764
-0.01137997 0.05449048 0.00358829
-0.35875175 0.26824953 -0.00000059
-0.19110580 0.49958405 0.06025913
-0.73711977 -0.25617327 -0.00000128
-0.55932708 -0.66773790 0.00000000
-0.55405836 -0.77808878 0.17470385
-0.30321323 0.29737150 0.00000257
-0.04178373 -0.58613293 0.00000000
-0.39623137 -0.50850007 0.00000000
-0.11890046 -0.48124123 0.03749130
-0.72858168 -0.17098079 0.22973533
-0.74341816 -0.53743376 0.23441245
-0.58521055 -0.01458765 -0.00000106
-0.31669198 0.18127846 0.09985855
-0.22678947 0.56302559 -0.00000055
-0.73223497 -0.14085300 -0.00000146
-0.15691035 0.13401048 0.00000000
-0.67228248 -0.73708563 -0.00000015
-0.51238436 -0.76272839 0.00000000
-0.28059564 0.48733082 0.08847680
-0.59746044 -0.13701641 0.18839015
-0.50532806 0.09859239 0.15933928
-0.43865418 0.01624379 0.13831549
-0.16331821 -0.14819003 0.05149696
-0.33236639 0.17577989 0.10479642
-0.12059843 0.06668103 0.00000000
-0.55885581 -0.51609444 0.17621672
-0.07056766 0.59082163 0.02224895
-0.43026865 0.14527252 0.13567157
-0.07334538 0.57080183 0.02312455
-0.69455385 -0.24910732 -0.00000111
-0.37424892 -0.55020722 0.11800693
-0.10976794 0.49808795 0.03461167
