ply
format ascii 1.0
element vertex 1375
property float x
property float y
property float z
end_header
-0.13364212 -0.11727235 -0.00000043
-0.35103568 0.67463911 -0.00000056
0.22543796 0.52342121 -0.00000095
0.58965393 -0.49344276 -0.00000025
0.44347799 0.20248162 0.33524623
0.06615338 -0.51304483 -0.00000018
0.31599635 -0.76346721 -0.00000002
-0.39324728 -0.74078475 -0.00000004
-0.08521695 0.44550544 -0.00000078
-0.43932488 -0.61938364 -0.00000011
0.22669833 0.37464030 0.43235496
0.55692123 0.23704631 0.01312577
-0.28712892 0.34244744 -0.00000061
0.15075294 0.23499974 -0.00000065
0.20956982 -0.51009723 -0.00000018
-0.31373904 0.52176055 -0.00000061
-0.01518673 0.65230718 -0.00000091
-0.66235198 0.40112999 -0.00000017
0.02344401 0.76664755 0.02156125
-0.09761387 -0.26231302 -0.00000034
-0.43271206 -0.55606522 -0.00000015
0.53723571 -0.44195745 -0.00000025
0.37317810 0.02406069 -0.00000057
0.67822044 -0.42007860 -0.00000042
0.01659300 -0.01851675 -0.00000049
-0.17063693 -0.58059190 -0.00000014
0.30968091 -0.58417736 -0.00000013
0.01429116 0.39279941 -0.00000075
0.43832774 -0.35551864 -0.00000028
-0.32282282 0.73378640 -0.00000060
0.63067340 0.13485888 -0.00000096
0.72354012 -0.01887155 -0.00000090
-0.68503939 0.39086419 -0.00000014
-0.61303665 0.79247145 -0.00000023
0.56438196 -0.03314393 -0.00000071
-0.34261304 -0.65078631 -0.00000009
-0.12970704 0.75798204 -0.00000084
-0.39500160 0.24959919 -0.00000048
0.61712197 -0.05382775 -0.00000075
0.03853873 0.26981913 -0.00000067
-0.52749976 -0.03289743 -0.00000028
0.50440990 0.21632753 0.17250218
-0.23392525 -0.44038620 -0.00000022
-0.02750995 -0.53739271 -0.00000016
-0.28338387 0.54680566 -0.00000065
-0.30718172 -0.37050635 -0.00000027
0.05491844 -0.51708698 -0.00000018
-0.63446813 0.55294509 -0.00000021
0.58883147 -0.15976137 -0.00000060
0.19439333 0.57029167 0.07685564
-0.56128386 0.02415133 -0.00000026
0.58812680 -0.43336620 -0.00000031
0.56866001 -0.25752671 -0.00000048
0.42508736 0.34405401 0.06715688
0.44214101 0.28713905 0.15391018
-0.08915457 0.18073243 -0.00000061
-0.54581439 0.07796213 -0.00000029
0.27275358 0.38077117 0.31878030
0.71383874 0.02887772 -0.00000094
0.14847910 0.27393166 -0.00000067
0.59480925 -0.54142457 -0.00000020
0.46524998 0.32943917 0.01155526
0.29413324 -0.65742995 -0.00000009
0.10654143 0.39952962 -0.00000075
-0.59828330 0.36392192 -0.00000025
0.55125258 -0.14244268 -0.00000058
-0.07979574 -0.02027876 -0.00000049
0.27625344 0.39229718 0.28607882
-0.35324926 0.31763084 -0.00000053
-0.75179969 0.51731048 -0.00000006
0.22331764 -0.76028191 -0.00000002
-0.22590689 0.38945606 -0.00000068
-0.22564726 0.44361662 -0.00000069
0.39079186 0.30723108 -0.00000089
-0.68238899 0.16988860 -0.00000015
-0.04147070 0.31549593 -0.00000070
0.06630598 0.49080712 -0.00000081
-0.57775625 -0.36655803 -0.00000017
0.20576465 0.57506376 0.04172149
0.00479526 0.67271958 -0.00000092
0.01295110 0.68645073 -0.00000093
-0.29014764 -0.62573097 -0.00000011
-0.75703503 0.23802575 -0.00000005
-0.49284731 -0.31841136 -0.00000027
0.34298495 -0.56059722 -0.00000015
0.24679912 0.01502277 -0.00000051
0.32941563 0.37527980 0.20741564
0.03366491 0.73908550 0.05930172
0.14386879 0.21389557 -0.00000063
0.44767493 0.28064129 0.15600785
-0.29007270 -0.62878560 -0.00000011
0.71012306 0.07839978 0.02497548
-0.34275423 0.16841774 -0.00000052
-0.68789610 0.69917267 -0.00000014
-0.23571031 -0.71400171 -0.00000005
-0.55771031 -0.10460726 -0.00000024
-0.14165497 -0.24268472 -0.00000035
-0.32101497 0.21432453 -0.00000055
0.20293381 0.23708749 -0.00000065
0.31942461 -0.36446240 -0.00000027
0.14173279 0.13962598 -0.00000059
-0.01238263 -0.50133379 -0.00000019
-0.17496651 0.70371715 -0.00000078
-0.32889376 -0.58444566 -0.00000013
-0.44198575 -0.04541896 -0.00000037
0.04222805 0.41001349 -0.00000076
0.22048083 -0.30352808 -0.00000031
-0.07381388 0.60471719 -0.00000088
-0.53198441 0.71235822 -0.00000034
-0.74468513 -0.02291911 -0.00000005
-0.30475591 -0.27918361 -0.00000033
-0.02217281 0.10954150 -0.00000057
-0.56570973 -0.59226716 -0.00000013
-0.57668563 0.35933373 -0.00000028
0.67009069 -0.22744979 -0.00000062
-0.11248035 0.12677881 -0.00000058
0.16488249 0.50611588 0.28075064
-0.33616096 -0.31922699 -0.00000030
0.28085235 -0.77402499 -0.00000002
0.64835899 -0.17110907 -0.00000066
0.08022907 0.66166170 -0.00000094
-0.24971268 -0.74703404 -0.00000003
-0.55163851 0.07323120 -0.00000028
0.31981296 0.44739920 -0.00000097
0.79113075 -0.08453779 -0.00000089
0.28898431 0.42679962 0.18328286
0.65286193 -0.15772125 -0.00000067
0.52694996 -0.47399265 -0.00000020
0.45338613 0.21589324 0.28449438
0.27096868 0.04155705 -0.00000053
-0.42000226 -0.15356104 -0.00000038
0.26455111 0.16186221 -0.00000060
0.45774752 -0.17839258 -0.00000044
-0.01528728 -0.54989980 -0.00000016
0.75222925 -0.05353606 -0.00000089
-0.45733416 -0.66410667 -0.00000008
0.66422903 0.08131077 0.11852284
0.48249268 0.17158576 0.31757719
-0.73697939 -0.35980936 -0.00000000
-0.43460380 -0.27689718 -0.00000033
0.61603640 0.17919620 -0.00000099
0.70615526 -0.11286737 -0.00000078
-0.01154096 0.50642484 -0.00000082
-0.28817594 0.33165862 -0.00000061
-0.23942886 -0.39650821 -0.00000025
0.10962219 0.33585732 -0.00000071
-0.32694129 -0.11812599 -0.00000043
0.71483153 -0.07453560 -0.00000083
-0.66434735 0.43450731 -0.00000017
0.69423376 0.10051858 0.01141773
-0.07305552 0.66481139 -0.00000090
0.34917732 -0.71747290 -0.00000005
0.03020740 -0.10646614 -0.00000043
-0.23835390 0.57292167 -0.00000070
0.24684448 0.38539401 0.36510632
0.08293124 -0.56988072 -0.00000014
0.77501732 -0.74738454 -0.00000007
0.26545216 0.49278454 -0.00000096
0.06004269 0.73113829 0.01919037
0.58878614 0.13144410 0.17360600
0.16140094 0.53165037 0.23275578
-0.45553680 -0.30284221 -0.00000031
-0.60248162 0.57702574 -0.00000025
-0.63183633 0.50531435 -0.00000021
-0.28727581 -0.15595278 -0.00000040
0.12350684 -0.64182219 -0.00000010
-0.13705938 0.10543072 -0.00000057
-0.43547160 -0.05453299 -0.00000038
0.33655816 -0.15277883 -0.00000040
-0.57140088 -0.45116056 -0.00000016
-0.16427518 -0.62403205 -0.00000011
0.62149559 -0.54661922 -0.00000023
-0.52343544 -0.27814875 -0.00000024
0.19634342 -0.03880949 -0.00000048
0.28787238 0.42258642 0.19487219
-0.62019752 0.28119558 -0.00000022
0.45688551 0.28787424 0.12022053
-0.52803941 -0.25977491 -0.00000024
-0.65773098 0.42789305 -0.00000018
-0.20980099 0.75059941 -0.00000074
-0.51105034 -0.79066350 -0.00000001
0.69045726 -0.50602052 -0.00000034
-0.44817614 -0.71094936 -0.00000006
-0.39858686 -0.41457310 -0.00000024
-0.47862190 0.76112561 -0.00000040
-0.68175171 0.56489256 -0.00000015
0.48054864 -0.29777300 -0.00000034
0.45258316 -0.27800715 -0.00000033
0.36814263 -0.71004631 -0.00000006
0.15786340 0.31099881 -0.00000069
-0.00559567 0.75782804 -0.00000097
0.04863148 0.02939681 -0.00000052
-0.20976650 0.63174893 -0.00000074
0.72936904 -0.23476666 -0.00000067
-0.54066151 0.44463717 -0.00000032
-0.31594331 0.22723337 -0.00000056
0.53757621 0.12650210 -0.00000085
0.50734459 0.00075811 -0.00000069
0.20835119 0.42998506 0.35183514
-0.08090694 0.12551731 -0.00000058
-0.21999032 -0.52481376 -0.00000017
0.30589669 0.37306468 0.26342169
0.32102469 0.47323808 0.01248323
0.54594802 0.20471624 0.10737008
0.19367025 -0.61572509 -0.00000012
0.24898754 0.43636830 0.24950459
0.78515542 -0.49410326 -0.00000038
-0.25568237 -0.36846563 -0.00000027
-0.41969800 0.72345625 -0.00000048
-0.51944870 -0.17061929 -0.00000027
-0.55583882 0.29699522 -0.00000031
-0.74416207 -0.61304905 0.00000000
-0.28898778 -0.29469025 -0.00000032
-0.34885483 0.34475999 -0.00000054
-0.24254142 -0.05001164 -0.00000047
-0.56609383 -0.57407050 -0.00000014
-0.71413196 0.44367582 -0.00000011
0.12794651 -0.22977349 -0.00000036
-0.10947185 -0.03324112 -0.00000048
0.01031874 -0.61493847 -0.00000012
0.45631828 -0.35704513 -0.00000028
-0.44321141 0.25342350 -0.00000043
-0.58764125 0.76936443 -0.00000027
0.01426236 0.65772287 -0.00000091
-0.12681412 -0.00821579 -0.00000049
-0.77770850 0.33541270 -0.00000003
0.57880720 0.12350940 0.21259285
0.08652731 -0.06431623 -0.00000046
0.30935515 -0.33523036 -0.00000029
-0.65134646 0.19841211 -0.00000019
-0.01925535 0.16077728 -0.00000060
-0.62668965 0.32685713 -0.00000022
-0.50947155 0.01258050 -0.00000031
-0.10177906 -0.63546570 -0.00000010
-0.19721292 0.40833038 -0.00000072
0.56474780 -0.60976204 -0.00000012
0.71750612 0.08036342 0.00463354
-0.61808310 0.53582963 -0.00000023
-0.45210551 0.38566546 -0.00000043
0.29944326 0.13546212 -0.00000061
0.01042426 -0.45456054 -0.00000022
0.71166104 -0.11034911 -0.00000079
-0.45282584 0.66356404 -0.00000043
0.73497583 -0.02533070 -0.00000090
0.25836960 0.02998488 -0.00000052
0.27789552 0.44915406 0.15876453
-0.63900103 0.55846399 -0.00000020
-0.07426986 0.04488985 -0.00000053
0.59771161 -0.28999294 -0.00000047
0.36112542 0.29246552 0.31863704
-0.63215062 -0.74058091 -0.00000004
0.66464921 -0.04228231 -0.00000081
-0.39589604 0.18004547 -0.00000046
-0.19610189 -0.26755366 -0.00000033
-0.25810826 0.73321085 -0.00000068
0.17388873 0.55184533 0.16162691
-0.37873798 0.42487853 -0.00000053
0.63270987 -0.39771081 -0.00000040
0.05873924 0.70700336 -0.00000096
-0.77275302 0.10846280 -0.00000003
0.48179803 -0.63589893 -0.00000010
0.34079263 0.36510445 0.20480038
-0.06960271 0.71248056 -0.00000091
-0.12452263 0.28431403 -0.00000068
0.68854865 0.07667987 0.07567274
0.02392916 -0.72489463 -0.00000005
-0.38451066 0.52614104 -0.00000052
0.06788004 -0.46691099 -0.00000021
-0.16368717 -0.60987643 -0.00000012
-0.69487435 0.07652158 -0.00000013
0.24005383 0.26948087 -0.00000069
-0.52027199 -0.16137958 -0.00000027
0.09314540 0.38037996 -0.00000074
-0.44597305 -0.79567910 -0.00000000
0.26124291 0.04126775 -0.00000053
-0.78645668 0.64713022 -0.00000002
0.06364910 0.31682180 -0.00000070
0.23658071 0.33797621 -0.00000076
0.51560276 -0.73574967 -0.00000004
0.06241761 0.18174953 -0.00000061
-0.12072550 -0.69448267 -0.00000007
0.62844842 -0.75499843 -0.00000003
0.44021369 -0.48396053 -0.00000020
-0.77576055 0.37417877 -0.00000003
-0.16047770 -0.13428346 -0.00000042
-0.74845583 -0.63035710 0.00000000
-0.42104299 -0.49573509 -0.00000019
-0.13744610 -0.51950896 -0.00000018
-0.54928325 0.72842459 -0.00000031
-0.76571364 0.57341696 -0.00000004
0.15693672 0.19400234 -0.00000062
0.22109538 0.43769821 0.30731299
0.15794465 0.57626538 0.14318010
0.35812986 0.29150102 0.32725549
-0.27208274 0.72466708 -0.00000066
-0.44790091 -0.58344408 -0.00000014
-0.59119099 0.58186407 -0.00000026
0.64984528 -0.40658223 -0.00000041
0.27402823 -0.63804920 -0.00000010
0.47503519 -0.14489753 -0.00000050
0.20889853 0.50739997 -0.00000091
-0.72681062 0.26748274 -0.00000009
0.64754604 -0.21332029 -0.00000061
0.36567257 -0.61276109 -0.00000012
-0.13254569 -0.04080992 -0.00000047
0.53129454 -0.68460167 -0.00000007
-0.10007155 -0.43531955 -0.00000023
0.66835641 0.08152815 0.10906699
-0.08729239 -0.62780611 -0.00000011
-0.52967279 -0.55083503 -0.00000016
0.31870427 -0.58228888 -0.00000014
-0.52270761 -0.27192669 -0.00000025
-0.76143026 -0.57894806 0.00000000
0.01465483 0.73689288 -0.00000096
-0.79437749 0.70827452 -0.00000001
-0.27041405 -0.06228121 -0.00000046
0.11526575 0.63901051 0.09950862
-0.78682377 0.33227962 -0.00000002
0.01284859 0.44488083 -0.00000078
0.67214392 0.10626402 -0.00000098
-0.44865487 0.47921154 -0.00000044
0.04867942 -0.78611447 -0.00000001
-0.28748704 0.04891707 -0.00000053
0.31972084 -0.53437769 -0.00000017
-0.03002922 -0.06002135 -0.00000046
-0.08353303 -0.41983257 -0.00000024
-0.70963107 0.07913491 -0.00000011
-0.62833100 -0.02929044 -0.00000018
0.31722770 0.22669280 -0.00000073
-0.25813163 0.69268699 -0.00000068
-0.65370054 0.42186619 -0.00000018
-0.51496268 -0.44178551 -0.00000022
-0.28168873 -0.73862793 -0.00000004
-0.23039217 0.68083205 -0.00000071
-0.71197321 -0.71430333 0.00000000
-0.68787993 -0.73721644 0.00000000
0.28881993 0.31408881 0.42893844
-0.55525045 0.29525441 -0.00000031
0.51353781 0.16767803 0.25851611
0.22809352 -0.44628029 -0.00000022
-0.77567263 -0.45876937 0.00000000
-0.35972663 -0.65507459 -0.00000009
0.05986546 0.59994477 -0.00000087
-0.01725459 0.45375250 -0.00000078
0.08336429 0.26685787 -0.00000067
-0.54794872 -0.11934922 -0.00000025
0.30515499 0.48071646 0.03074592
0.61746261 -0.08659240 -0.00000071
-0.21904447 -0.37178781 -0.00000027
-0.51516785 0.65269778 -0.00000036
-0.46561120 0.10419247 -0.00000038
0.46931738 0.28197746 0.10599771
-0.76822966 -0.71867045 0.00000000
0.68213241 0.10298113 -0.00000098
-0.73621555 0.46702307 -0.00000008
-0.28227033 -0.01218676 -0.00000049
-0.20223201 -0.53685808 -0.00000016
0.21449943 -0.37806468 -0.00000026
-0.09975078 -0.11893085 -0.00000043
-0.28568253 0.25286900 -0.00000060
-0.15382331 0.73940348 -0.00000081
-0.17267554 -0.54204964 -0.00000016
-0.69647957 -0.03155013 -0.00000010
0.76498686 -0.12760387 -0.00000083
0.66733339 -0.31070041 -0.00000053
0.37081047 0.35861434 -0.00000092
0.14148920 -0.05187589 -0.00000047
0.12452886 0.65970499 0.03430997
0.50449651 -0.32972386 -0.00000033
-0.47314129 -0.11687429 -0.00000033
-0.67254206 0.46545077 -0.00000016
-0.57082719 -0.73712473 -0.00000004
-0.23537673 -0.67532557 -0.00000008
0.16324006 -0.20474255 -0.00000037
0.70303106 0.09418996 0.00604496
0.53212894 -0.50598185 -0.00000018
0.28660668 0.35047262 0.35457142
0.12916776 0.66348924 0.01597800
0.31170894 0.27653152 0.46086189
-0.56809830 0.26230109 -0.00000029
-0.06336818 -0.59350175 -0.00000013
-0.06256158 -0.13020498 -0.00000042
0.34210710 0.33717596 0.26272192
0.32609824 -0.49842961 -0.00000019
0.17614746 -0.20531530 -0.00000037
0.36726851 0.41203050 -0.00000098
0.10480458 -0.00970355 -0.00000049
0.61456929 0.16651184 0.04117146
-0.70150207 -0.15730093 -0.00000008
-0.47371884 0.38123379 -0.00000041
-0.38445515 -0.68377513 -0.00000007
0.02080246 -0.66687133 -0.00000008
-0.41815391 0.63441535 -0.00000048
-0.02051802 0.44585281 -0.00000078
-0.35905321 -0.70957480 -0.00000006
0.09515060 -0.49406840 -0.00000019
0.22308587 0.45115243 0.27369996
0.17229265 0.49020193 0.29925790
0.37994422 0.32962971 0.19679818
-0.23053707 0.39502230 -0.00000068
-0.34328287 -0.27094142 -0.00000033
-0.71611934 0.21984738 -0.00000010
0.43910466 0.06300811 -0.00000068
0.16811120 0.44444797 -0.00000080
0.29099400 0.25120288 -0.00000072
-0.69171948 0.25534574 -0.00000014
0.16298746 0.52920560 0.23462363
0.37954417 -0.58746659 -0.00000013
0.21870460 0.44553272 0.29546554
-0.44292657 0.29637573 -0.00000044
0.58246606 0.13772965 -0.00000091
0.59965060 -0.07454635 -0.00000071
0.12172102 -0.30652080 -0.00000031
-0.63136068 0.38535227 -0.00000021
0.71660524 0.06901916 -0.00000098
0.38282568 0.07240477 -0.00000063
0.00743705 0.29815816 -0.00000069
-0.74472980 -0.16032035 -0.00000003
0.70018483 -0.50381653 -0.00000036
0.39297682 -0.00347758 -0.00000056
-0.31696590 0.63772648 -0.00000060
0.36849115 -0.13958457 -0.00000041
-0.64060922 -0.37119366 -0.00000010
0.02871019 -0.69005755 -0.00000007
-0.61874989 -0.17188962 -0.00000016
0.16227949 0.34486296 -0.00000072
0.37693850 0.30839394 0.24955669
0.39090208 -0.27872916 -0.00000033
-0.27071270 -0.67355615 -0.00000008
0.67552396 -0.48333628 -0.00000035
0.51638178 -0.37713299 -0.00000030
0.77593623 -0.12069837 -0.00000085
-0.67889222 -0.54032728 -0.00000003
0.46478827 -0.37440871 -0.00000027
0.30205073 0.39881593 0.21574815
0.39170328 -0.22177338 -0.00000036
-0.53897075 0.07659512 -0.00000029
0.28504093 -0.13637636 -0.00000041
0.15405955 0.60936401 -0.00000096
-0.36086687 0.04108170 -0.00000048
0.24708181 -0.58073150 -0.00000014
-0.44608641 -0.17558542 -0.00000035
-0.40270530 0.30165948 -0.00000048
0.74115409 -0.45480694 -0.00000043
-0.13725863 -0.33469253 -0.00000029
0.23186213 0.53130907 0.08015023
0.52039584 -0.48287180 -0.00000020
0.58239523 0.01624492 -0.00000079
0.51676332 -0.47512203 -0.00000020
-0.09884027 -0.14192743 -0.00000041
0.04762989 0.08017625 -0.00000055
-0.74619464 -0.50151718 0.00000000
0.39339133 -0.22206742 -0.00000036
0.31953744 0.14613045 -0.00000064
-0.36218185 -0.34513194 -0.00000028
0.12002020 0.56179971 -0.00000087
0.52090902 0.23260284 0.10117262
-0.55064596 0.04276041 -0.00000027
-0.78791611 -0.37929103 0.00000000
-0.77245580 -0.63329738 0.00000000
-0.25761939 0.45582315 -0.00000066
0.03006466 0.47527114 -0.00000080
0.30325308 -0.55291178 -0.00000015
-0.65818038 0.70671813 -0.00000018
-0.10349242 -0.36004814 -0.00000027
-0.57708220 0.03574677 -0.00000024
0.23687791 0.52599358 0.08080253
-0.75351760 0.60120060 -0.00000006
-0.57568365 0.73216712 -0.00000028
-0.77261723 0.68229600 -0.00000003
-0.44150380 -0.76701531 -0.00000002
-0.09444162 0.39002567 -0.00000074
-0.64549815 -0.61553132 -0.00000005
-0.79990106 -0.02283316 0.00000000
-0.26023321 0.76531656 -0.00000067
-0.26746004 -0.78798475 -0.00000001
0.59036788 -0.55987567 -0.00000018
0.29846641 0.08568327 -0.00000056
-0.18960328 -0.79137003 -0.00000001
0.13579270 -0.37580933 -0.00000027
-0.75287398 -0.78042918 0.00000000
0.25964447 0.39470511 0.31698505
-0.72436864 -0.24296970 -0.00000004
-0.56405177 -0.13720572 -0.00000023
-0.47773190 0.41301616 -0.00000040
-0.58034783 -0.03728126 -0.00000023
-0.15787641 -0.18407920 -0.00000038
-0.58232002 -0.22444679 -0.00000019
-0.02201334 0.45165787 -0.00000078
0.26370864 0.41236592 0.26970400
0.27618191 0.32373322 0.43545345
0.29822172 -0.20281700 -0.00000037
0.12692702 -0.52561968 -0.00000017
0.25855363 0.45606977 0.18580832
-0.39945922 -0.57222339 -0.00000014
0.45691152 -0.71113217 -0.00000006
0.54320091 -0.01353168 -0.00000071
0.31231257 0.26037356 -0.00000076
-0.57608851 0.67350606 -0.00000028
0.20113748 0.46759282 0.28568708
0.00788051 0.19047749 -0.00000062
-0.62375162 -0.72740313 -0.00000005
0.36741910 0.31876692 0.24769892
-0.11479092 0.27318786 -0.00000067
0.26282373 -0.07270464 -0.00000045
0.03502032 0.45931909 -0.00000079
0.45008112 0.12151369 -0.00000076
0.69806171 -0.63626090 -0.00000020
-0.25196617 -0.29358316 -0.00000032
0.58210393 0.15674466 0.13308544
-0.39917633 0.10008990 -0.00000045
0.49921451 0.04383894 -0.00000073
-0.41994309 -0.03810922 -0.00000040
-0.54862783 -0.19907691 -0.00000023
-0.18896856 -0.72143289 -0.00000005
-0.70465275 0.11940217 -0.00000012
0.63531096 0.12234984 -0.00000095
-0.39444872 0.32277560 -0.00000049
0.79039834 -0.20363019 -0.00000075
0.21428429 -0.17670980 -0.00000039
0.39685872 -0.36705385 -0.00000027
-0.71923463 0.68955782 -0.00000010
0.32383870 -0.53263674 -0.00000017
0.20299867 0.58359599 -0.00000099
-0.32628774 -0.25102697 -0.00000034
0.66236511 -0.05681193 -0.00000079
-0.71566154 -0.55616390 0.00000000
0.40633036 0.30492278 0.19314359
-0.27951101 -0.31632199 -0.00000030
-0.44770265 -0.40660249 -0.00000025
0.52841553 0.01049620 -0.00000072
0.34701179 0.29459060 -0.00000083
-0.12561394 0.77245110 -0.00000084
-0.51210303 0.57315123 -0.00000036
-0.15076622 -0.56621193 -0.00000015
-0.02210701 -0.11372747 -0.00000043
-0.63541085 -0.74037673 -0.00000004
-0.48210924 0.13715724 -0.00000036
-0.53253109 0.42089216 -0.00000033
-0.67045498 -0.20660640 -0.00000010
0.56559382 -0.64926192 -0.00000009
-0.36730006 -0.02315945 -0.00000046
-0.43265333 -0.54276894 -0.00000016
-0.34067236 -0.76904249 -0.00000002
-0.78206173 -0.64398145 0.00000000
-0.55863124 -0.04561707 -0.00000025
-0.27711931 0.17878088 -0.00000059
0.39023582 0.01921973 -0.00000058
-0.57785676 -0.23134555 -0.00000019
0.05442806 0.38411558 -0.00000074
0.15404427 0.44927628 -0.00000079
0.05441382 -0.03637137 -0.00000048
0.04504757 0.03994226 -0.00000052
0.53449303 0.14988310 0.25163810
-0.20523510 -0.08569302 -0.00000045
-0.05047580 0.62239655 -0.00000089
-0.79341975 0.47897630 -0.00000001
-0.28081584 0.42080384 -0.00000063
-0.49131298 -0.03975782 -0.00000032
0.56783313 -0.76558220 -0.00000002
-0.52425721 -0.50694076 -0.00000018
-0.15104605 -0.69662774 -0.00000006
0.64470694 -0.01101626 -0.00000082
0.12108352 -0.53680604 -0.00000016
0.41584977 0.36419018 0.04343747
0.44784048 0.24293838 0.23770333
-0.37039458 -0.37378417 -0.00000027
0.39457683 -0.79799798 -0.00000000
0.77709339 -0.68853794 -0.00000014
0.15508109 0.54170140 0.22463537
0.07281601 0.20281721 -0.00000063
-0.29702681 -0.77459304 -0.00000002
-0.06485635 -0.14875636 -0.00000041
-0.27901161 -0.51410645 -0.00000018
0.43933138 0.11429165 -0.00000074
-0.60328621 -0.26195757 -0.00000016
-0.07529926 0.39668204 -0.00000075
0.03736298 0.23205976 -0.00000065
-0.65668334 0.20379575 -0.00000018
0.56009868 -0.40177098 -0.00000032
-0.24026223 0.23988309 -0.00000064
0.28144283 0.17141459 -0.00000063
-0.06954695 -0.58632648 -0.00000013
0.21231149 0.46169173 -0.00000087
0.47512956 0.02384688 -0.00000068
-0.35653304 -0.09306407 -0.00000044
-0.30216493 -0.10261910 -0.00000044
0.49130684 0.05000644 -0.00000072
0.32578749 -0.38737694 -0.00000026
0.37459221 0.32608461 -0.00000089
-0.58895482 0.54763701 -0.00000026
-0.31409303 -0.55204874 -0.00000015
-0.62510474 -0.64961940 -0.00000007
0.06656606 -0.64084563 -0.00000010
0.14221727 0.26566828 -0.00000067
-0.03218660 0.36873398 -0.00000073
0.23043107 0.43542396 0.29194494
-0.58848466 -0.55796319 -0.00000012
0.17961544 0.08900860 -0.00000056
0.29386482 0.15476829 -0.00000063
0.08220467 0.67241509 0.09876075
-0.53105617 -0.48301522 -0.00000020
0.61596838 0.15744880 0.05785111
0.69737312 -0.35790576 -0.00000051
-0.23588083 -0.54187728 -0.00000016
-0.35379309 0.61458450 -0.00000056
-0.47754968 0.15101665 -0.00000037
-0.66041362 -0.79518163 -0.00000000
0.65350517 -0.24352247 -0.00000058
0.79912047 -0.25100303 -0.00000069
0.56185738 -0.30822531 -0.00000042
0.66459077 -0.47460070 -0.00000035
-0.00856679 -0.30863135 -0.00000031
0.01039478 -0.14837724 -0.00000041
-0.38653776 -0.34813173 -0.00000028
0.01170562 -0.01061559 -0.00000049
-0.61124182 0.47226514 -0.00000024
-0.34922716 -0.25498715 -0.00000034
-0.19294851 0.04395790 -0.00000053
-0.18194866 -0.22440294 -0.00000036
0.19742004 -0.49971384 -0.00000019
0.52184050 0.00337712 -0.00000071
0.39241647 0.39725289 0.02248024
-0.22746718 -0.42378556 -0.00000024
0.58521020 -0.75423936 -0.00000003
-0.34756540 0.31595329 -0.00000054
0.62013796 0.01726757 -0.00000083
-0.30250322 -0.39177103 -0.00000026
-0.13414228 0.47706024 -0.00000080
0.37902578 -0.29321263 -0.00000032
-0.23441242 -0.27935675 -0.00000033
0.58313955 -0.22158911 -0.00000053
0.09467655 0.61175529 -0.00000090
0.05430114 -0.13585558 -0.00000042
-0.17573794 -0.29185874 -0.00000032
0.35961341 0.13739877 -0.00000068
0.59914785 0.13265260 0.14842486
0.54453859 -0.66630944 -0.00000008
-0.26459481 -0.18161737 -0.00000039
0.46377050 -0.21168282 -0.00000042
-0.23714419 0.33410818 -0.00000066
0.02905094 0.35795040 -0.00000072
-0.35535456 -0.02273430 -0.00000047
0.31972068 0.30018928 0.39193818
0.21062725 -0.49583395 -0.00000019
0.02528906 -0.75576775 -0.00000003
-0.20650345 0.61741687 -0.00000074
-0.70323810 0.32180049 -0.00000012
-0.37543328 -0.63259769 -0.00000010
-0.49100736 0.64103396 -0.00000039
0.77706879 -0.19188650 -0.00000076
-0.08993625 0.63231107 -0.00000087
0.21490065 0.45901291 -0.00000087
-0.41935238 -0.14758842 -0.00000038
-0.10746584 0.18958926 -0.00000062
0.19293448 -0.48818627 -0.00000019
0.58267118 -0.75147177 -0.00000003
0.43552587 0.20157413 0.35452775
-0.65236926 0.59523420 -0.00000018
0.41994987 0.26107913 0.25892272
-0.22299717 0.45065021 -0.00000070
-0.02615221 0.48001886 -0.00000080
0.29524527 0.23438962 -0.00000071
0.38024676 -0.04565118 -0.00000050
-0.08232538 -0.13716927 -0.00000041
0.11738354 -0.44548081 -0.00000022
0.39668180 -0.19735955 -0.00000038
-0.47805788 0.73756340 -0.00000040
0.03220402 0.15295770 -0.00000060
-0.01943211 -0.24877339 -0.00000034
-0.29207251 0.26669674 -0.00000059
-0.08971050 0.79168966 -0.00000089
0.08394076 -0.04205486 -0.00000047
-0.47858721 0.69226061 -0.00000040
-0.15791537 -0.58986642 -0.00000013
-0.71625480 -0.36577570 -0.00000002
0.07487207 -0.50970543 -0.00000018
0.27399788 0.45467035 -0.00000092
0.21945442 -0.18389393 -0.00000039
-0.08033401 -0.40273632 -0.00000025
0.13814481 0.14522154 -0.00000059
0.26088728 0.43744659 -0.00000089
-0.69950802 -0.14542091 -0.00000008
-0.43616971 0.51741863 -0.00000045
-0.65479129 0.46103455 -0.00000018
0.27647436 0.38231658 -0.00000085
0.13455120 -0.03173167 -0.00000048
0.38517219 0.37728231 0.08171007
-0.09580513 -0.61560634 -0.00000012
0.39767929 0.29539325 0.23271143
-0.66189800 -0.20206736 -0.00000011
0.06909542 0.21379331 -0.00000063
-0.24773968 0.73933385 -0.00000069
-0.78769308 0.75286307 -0.00000002
-0.51112143 0.20546928 -0.00000035
0.03494880 -0.07270567 -0.00000045
-0.73313377 -0.41355418 0.00000000
-0.62437910 0.03083692 -0.00000019
0.00011993 -0.00784713 -0.00000050
-0.24528123 -0.71992945 -0.00000005
-0.30145162 0.74353058 -0.00000062
0.55098165 0.02578692 -0.00000076
-0.07898297 -0.42177693 -0.00000024
0.29548494 -0.54299026 -0.00000016
-0.25886220 0.07413477 -0.00000055
0.43490424 0.12585863 -0.00000074
0.33235699 -0.04842299 -0.00000047
-0.11138018 0.48639434 -0.00000080
-0.33472154 0.54764227 -0.00000058
0.32421983 -0.25191890 -0.00000034
-0.72940182 -0.11074336 -0.00000006
0.33606679 -0.01461862 -0.00000049
0.20417848 0.58134197 -0.00000098
-0.44258671 0.64060079 -0.00000045
0.30924538 -0.10704195 -0.00000043
-0.76885126 0.07141957 -0.00000004
0.41029514 -0.71404782 -0.00000005
0.53837970 0.18380968 -0.00000092
0.43957720 0.19967438 0.34984519
-0.44946601 -0.77668560 -0.00000001
-0.61853184 -0.13917339 -0.00000017
-0.21071443 0.11646908 -0.00000057
-0.67440531 -0.55330544 -0.00000003
0.02970994 -0.08448079 -0.00000045
0.12166233 0.39468217 -0.00000075
-0.02224706 0.48514510 -0.00000080
0.42604822 -0.43693146 -0.00000023
0.28159267 0.40110261 0.25529520
-0.53755902 -0.63693212 -0.00000010
-0.58924881 0.76739382 -0.00000026
-0.56827182 0.12731759 -0.00000027
-0.07283956 -0.01908433 -0.00000049
0.71962178 -0.30944736 -0.00000058
0.36675036 0.38024703 0.11535058
0.06836249 -0.67050101 -0.00000008
0.43247077 -0.36377079 -0.00000027
0.42151208 -0.66875929 -0.00000008
0.47087329 -0.75635395 -0.00000003
0.72412924 -0.29801776 -0.00000060
-0.64933257 -0.77466248 -0.00000002
0.30820429 -0.27309756 -0.00000033
-0.53020266 -0.29908408 -0.00000023
0.49028966 -0.30910917 -0.00000034
-0.39589296 -0.74147270 -0.00000004
0.59297428 0.13070756 0.16609404
-0.55914877 -0.75212648 -0.00000003
0.26910582 0.45175795 0.17222721
-0.06932157 0.16182281 -0.00000060
0.09943870 0.54415261 -0.00000084
-0.48454337 0.74076959 -0.00000039
-0.01566061 -0.50642809 -0.00000018
-0.03257864 -0.55112653 -0.00000016
0.28847694 0.39645550 0.25042642
0.12331500 -0.59721087 -0.00000013
-0.46757370 0.68263699 -0.00000042
-0.05429236 0.56518735 -0.00000085
0.52090870 -0.58126439 -0.00000014
0.26045625 0.18454053 -0.00000062
0.07342791 -0.72580126 -0.00000005
-0.73944660 -0.64409221 0.00000000
-0.42148152 -0.06077851 -0.00000039
0.30064455 0.34786014 0.32970593
0.28024786 -0.47368225 -0.00000020
0.34209798 -0.69046090 -0.00000007
-0.21631618 -0.23965627 -0.00000035
-0.18713759 -0.72617933 -0.00000005
0.37632539 -0.51078786 -0.00000018
-0.10218537 0.56101102 -0.00000085
0.47416214 0.28528607 0.08825288
0.58931111 0.15071216 -0.00000094
-0.15624731 -0.56261199 -0.00000015
0.31287344 0.43612151 0.11100313
0.22000310 -0.59539664 -0.00000013
-0.49843594 0.11003797 -0.00000034
0.19593960 0.15832286 -0.00000060
0.34478472 0.27505048 0.39210109
0.29640413 0.22478258 -0.00000070
-0.59197531 -0.25859599 -0.00000017
-0.64739364 -0.23465064 -0.00000012
0.38557394 -0.65738346 -0.00000009
0.62612912 -0.53963365 -0.00000024
0.60721636 -0.23213799 -0.00000055
0.54542117 0.22726868 0.05943406
0.09533886 -0.12093328 -0.00000042
-0.76816106 0.35513416 -0.00000004
0.42196846 -0.62130356 -0.00000011
0.08057730 -0.16522877 -0.00000040
0.66373338 -0.59535517 -0.00000022
-0.04447293 -0.61227176 -0.00000012
0.19419597 -0.01828005 -0.00000049
-0.22731893 -0.08221454 -0.00000045
-0.09898113 -0.35560852 -0.00000028
0.59046602 -0.37240278 -0.00000038
0.20926682 0.40530113 -0.00000080
-0.78742836 0.62820045 -0.00000002
0.63977302 -0.10374384 -0.00000072
0.54132887 0.21267472 -0.00000095
0.14005505 0.30245017 -0.00000069
0.37732591 0.29069440 0.28723391
-0.56909911 0.00902141 -0.00000025
-0.46100028 -0.07843393 -0.00000035
0.59098043 -0.62361890 -0.00000011
-0.16505027 -0.59667132 -0.00000013
-0.72896562 -0.29138670 -0.00000002
-0.72226868 0.01897326 -0.00000009
-0.38002023 0.06825232 -0.00000046
0.35845674 0.19377983 -0.00000074
-0.43806325 0.62154052 -0.00000045
0.06194965 0.14617220 -0.00000059
-0.31655216 -0.51331764 -0.00000018
0.01723016 0.21850891 -0.00000064
-0.79648476 0.66249363 -0.00000000
-0.01555503 0.07154098 -0.00000054
0.58465138 -0.27278294 -0.00000048
-0.11257726 0.29122605 -0.00000068
-0.08849599 -0.30086605 -0.00000031
-0.38698979 -0.18196677 -0.00000039
-0.60459992 -0.10103197 -0.00000019
-0.53024588 -0.18751127 -0.00000025
0.65858167 -0.56678674 -0.00000024
0.01666239 0.32207064 -0.00000070
-0.15508656 0.01785631 -0.00000051
-0.24640757 -0.44400161 -0.00000022
-0.47406360 -0.13140427 -0.00000032
-0.24590088 0.48689742 -0.00000068
0.44182148 -0.27969284 -0.00000033
0.33119660 0.45765701 -0.00000099
-0.57977586 0.17451838 -0.00000027
-0.59013867 -0.64004671 -0.00000010
0.10420101 0.23602277 -0.00000065
-0.40735335 -0.38753413 -0.00000026
-0.70614580 0.41387470 -0.00000012
-0.36178422 0.13423595 -0.00000049
0.00097938 0.21953202 -0.00000064
-0.47066140 0.70423807 -0.00000041
0.25203507 0.41863772 0.28146001
-0.12300823 0.09406407 -0.00000056
0.23578529 -0.51001012 -0.00000018
0.69601592 -0.77555635 -0.00000003
0.39172849 0.39294521 -0.00000098
0.02368899 0.21961753 -0.00000064
0.43794325 0.20988212 -0.00000084
0.29642221 -0.79616414 -0.00000000
0.68248267 -0.40650477 -0.00000044
0.51390165 -0.54401488 -0.00000016
-0.79467645 -0.75503300 0.00000000
-0.48957051 0.15082221 -0.00000036
0.15851417 -0.26457995 -0.00000033
0.25978926 0.35382547 -0.00000080
0.50999272 0.25628257 0.07339457
0.08078565 0.13232514 -0.00000058
0.18883652 0.16674223 -0.00000060
-0.64399195 -0.75720563 -0.00000003
0.58902309 -0.17830721 -0.00000058
0.24588747 0.38900478 0.35933082
-0.13766963 0.49052279 -0.00000080
0.46011015 -0.17109343 -0.00000045
-0.67771704 0.00119382 -0.00000013
0.32067778 0.08282252 -0.00000058
0.14756176 0.00262969 -0.00000050
-0.61962564 0.38655995 -0.00000023
-0.35333942 -0.51512278 -0.00000018
-0.76547701 0.71435042 -0.00000004
-0.32186441 0.37274763 -0.00000058
0.22157869 0.19546998 -0.00000062
-0.01582171 -0.21102154 -0.00000037
-0.61799656 0.61977765 -0.00000023
0.76546976 -0.68271375 -0.00000015
-0.40296503 0.12127620 -0.00000045
0.14517281 0.58813437 0.14514487
-0.57574586 -0.13265527 -0.00000021
-0.77913768 0.04164182 -0.00000003
0.45177841 -0.24055845 -0.00000037
0.22961188 0.34523548 -0.00000076
0.29395015 0.34394875 0.35278775
0.29438627 0.43657535 0.15025046
0.71809429 -0.30967622 -0.00000058
0.18412086 -0.22764080 -0.00000036
0.57299459 0.20968218 -0.00000098
-0.19470620 -0.60778523 -0.00000012
0.76521419 -0.55558334 -0.00000031
0.15000729 -0.41346640 -0.00000024
0.34908516 0.08243631 -0.00000061
0.60742194 -0.19459289 -0.00000059
-0.66827368 -0.09778883 -0.00000012
-0.19320360 -0.51278952 -0.00000018
-0.25267916 0.71479458 -0.00000068
-0.17795822 0.65090822 -0.00000078
0.32245242 -0.38662245 -0.00000026
0.37496346 -0.28104773 -0.00000032
0.76705863 -0.70239221 -0.00000012
0.20364978 0.19605023 -0.00000062
-0.66891263 0.59943744 -0.00000016
0.06911616 -0.04826084 -0.00000047
-0.06706977 -0.03600318 -0.00000048
-0.00318977 -0.70118122 -0.00000006
-0.33862249 0.54089834 -0.00000058
0.15537645 -0.35860413 -0.00000028
0.63243643 -0.33353860 -0.00000047
0.34026500 0.34432842 0.25116472
-0.52783124 -0.15964834 -0.00000026
0.22136440 -0.78177241 -0.00000001
0.32686753 -0.18394903 -0.00000039
-0.04282688 0.15939285 -0.00000060
-0.62302757 -0.50150317 -0.00000010
-0.11948211 -0.60903508 -0.00000012
-0.29618306 0.01708058 -0.00000051
0.75131326 -0.55253308 -0.00000031
-0.02143580 -0.27271291 -0.00000033
0.30515623 -0.44707811 -0.00000022
-0.57925646 0.20350936 -0.00000027
0.43364149 -0.09835552 -0.00000050
-0.08238286 -0.24396534 -0.00000035
-0.12834186 0.03925023 -0.00000052
-0.33028328 0.69824666 -0.00000059
-0.22398811 -0.02345192 -0.00000049
-0.41196978 -0.00558370 -0.00000041
-0.45829177 -0.71532876 -0.00000005
0.46413774 -0.51974687 -0.00000018
0.33069697 0.43166574 0.08190982
0.29748570 0.28363764 0.47635111
0.32061477 0.42638636 0.11534245
0.29268092 0.37504516 0.28787346
-0.42694179 -0.49060956 -0.00000019
-0.44771671 -0.25435854 -0.00000033
0.70316028 0.08884069 0.01740578
0.74174996 -0.35823888 -0.00000055
-0.30283609 0.53954009 -0.00000062
-0.48867472 -0.59538616 -0.00000013
0.07747483 -0.46768561 -0.00000021
-0.04395857 0.21645180 -0.00000064
-0.22689915 -0.37316227 -0.00000027
-0.79762802 0.05008778 -0.00000000
0.16606839 -0.02663188 -0.00000048
0.35481313 0.34517559 0.21765923
0.09679747 0.66176343 -0.00000096
0.08129367 -0.37907406 -0.00000026
0.27793062 0.37738202 -0.00000085
-0.42794800 -0.78822557 -0.00000001
0.27699495 0.31154295 0.46021427
0.15322365 -0.20790210 -0.00000037
0.45361384 0.25423015 0.20056317
0.22204628 0.31598979 -0.00000072
0.19389502 0.46335696 0.31066782
0.71626948 0.07436507 0.02037960
-0.39634684 -0.52900057 -0.00000017
0.31483818 -0.65828175 -0.00000009
-0.79445531 0.59760258 -0.00000001
0.10551121 0.64585538 0.10584098
-0.44274008 0.32074072 -0.00000044
-0.50193739 0.18389803 -0.00000035
0.39729652 0.31089389 0.19980924
0.38534518 -0.37573682 -0.00000027
0.50326262 -0.51855960 -0.00000018
-0.75144111 -0.16921750 -0.00000002
-0.02480132 0.25921370 -0.00000066
0.16830575 0.16760570 -0.00000060
0.75632322 -0.66043717 -0.00000017
0.64989670 -0.48913796 -0.00000032
-0.42475113 0.41119483 -0.00000047
-0.43958865 -0.54636637 -0.00000016
0.35565913 -0.72836632 -0.00000004
0.05153057 0.74780689 -0.00000100
0.19464367 0.12060908 -0.00000058
-0.17331618 0.62828418 -0.00000078
-0.28448151 0.71381216 -0.00000064
-0.30671977 -0.07007247 -0.00000046
0.37864299 0.38334300 0.08272970
0.24549261 0.10887378 -0.00000057
0.42047887 0.29113662 0.19235496
0.30943587 0.28193206 0.45405543
0.46531122 0.23422019 0.21865450
0.15386153 0.13594325 -0.00000058
0.05911628 -0.42579415 -0.00000023
-0.56538594 0.28496868 -0.00000029
-0.36718716 0.07092014 -0.00000047
-0.36496679 -0.16801511 -0.00000039
0.57559595 -0.74890457 -0.00000003
-0.51530337 -0.61536682 -0.00000012
0.64212178 -0.32611007 -0.00000048
0.23131890 0.40247217 0.36172724
0.03939479 -0.04843614 -0.00000047
-0.67952708 -0.48129130 -0.00000004
0.41359012 0.26672015 0.26048697
-0.79439985 -0.37399472 0.00000000
0.68625897 -0.47208137 -0.00000037
-0.48872242 0.16349679 -0.00000036
-0.30793674 0.16777826 -0.00000056
0.75995230 -0.56194206 -0.00000030
0.69686355 -0.25339386 -0.00000062
0.03082211 0.65939928 -0.00000091
-0.37291032 0.41814280 -0.00000053
-0.35073533 0.43821218 -0.00000056
0.09945837 0.68768153 0.02798529
-0.20173696 0.42485039 -0.00000072
-0.67367069 0.72318426 -0.00000016
0.57871135 0.02083191 -0.00000079
-0.42999026 0.25671978 -0.00000044
-0.30262879 -0.77981683 -0.00000001
0.67284393 0.08478011 0.09222298
-0.19095912 0.42646675 -0.00000073
-0.07749054 0.29604004 -0.00000069
0.61621667 -0.37923316 -0.00000040
-0.16461824 0.12216529 -0.00000058
-0.25368955 0.30717686 -0.00000064
-0.01534242 0.02096568 -0.00000051
0.53732118 0.14141330 0.26391647
-0.23463731 -0.61804120 -0.00000011
-0.29258496 -0.32364594 -0.00000030
-0.47882160 -0.52320224 -0.00000017
-0.37106518 0.17793323 -0.00000049
0.03773439 0.75600396 -0.00000099
0.63172901 -0.68211374 -0.00000009
0.71075759 0.07309816 0.03513285
-0.47344422 -0.42102504 -0.00000024
-0.59111019 0.04637890 -0.00000023
-0.11938085 -0.09798922 -0.00000044
0.44204187 -0.26862251 -0.00000033
0.39140655 -0.14664281 -0.00000041
-0.33865783 0.03865568 -0.00000050
-0.19905802 -0.58209794 -0.00000014
0.71964458 -0.09760198 -0.00000081
-0.59304217 -0.70475093 -0.00000006
0.56635405 0.16246630 0.15491068
0.22076269 -0.23931308 -0.00000035
0.21039330 0.42901899 0.34949332
-0.52844846 -0.31180686 -0.00000023
0.08370394 -0.10035375 -0.00000044
-0.29165574 -0.54678938 -0.00000016
0.02269234 0.47304440 -0.00000080
-0.68310324 -0.03515303 -0.00000012
0.31891068 -0.15523360 -0.00000040
0.23995050 0.25199926 -0.00000067
-0.19230312 0.37211609 -0.00000072
0.74308468 0.03734726 0.04258434
-0.02847982 0.00140206 -0.00000050
-0.52542858 -0.18152966 -0.00000026
-0.57192978 -0.42906802 -0.00000016
0.17861427 -0.37098062 -0.00000027
0.29426584 0.34995793 0.33902264
-0.20426293 -0.28801292 -0.00000032
-0.56006318 0.44695879 -0.00000030
-0.23130951 -0.75383214 -0.00000003
0.51918549 -0.74797243 -0.00000003
-0.77234505 0.30172937 -0.00000003
-0.30504450 0.57153212 -0.00000062
0.26912910 0.27100844 -0.00000072
0.22464581 -0.50822211 -0.00000018
0.25811713 0.09600885 -0.00000056
-0.16108636 0.26261994 -0.00000066
-0.31391907 0.74618023 -0.00000061
0.05354551 -0.15185291 -0.00000041
0.37888392 0.41415987 0.01513618
-0.53537783 0.41313534 -0.00000033
-0.76911750 0.74283782 -0.00000004
-0.01143801 -0.08016727 -0.00000045
-0.35177890 0.58273527 -0.00000056
0.21569853 0.46074728 0.26889559
0.58851078 0.08636858 -0.00000087
-0.64259541 0.27889431 -0.00000020
0.49286782 0.21784098 0.19432825
-0.42361148 -0.37061335 -0.00000027
0.42222885 -0.68477005 -0.00000007
-0.16819591 -0.46206490 -0.00000021
-0.32771743 -0.51869371 -0.00000018
0.62935647 -0.65852585 -0.00000012
-0.45088855 -0.74826440 -0.00000003
0.51975581 0.26201138 0.03967834
-0.20651077 -0.48772972 -0.00000020
0.47375380 -0.29738075 -0.00000033
0.23541610 0.23146435 -0.00000064
0.02719620 0.16026050 -0.00000060
-0.49582669 0.13893112 -0.00000035
0.41656990 0.28474475 -0.00000089
-0.10051628 0.49685939 -0.00000081
0.05263581 -0.32425227 -0.00000030
-0.50911136 0.33265127 -0.00000036
-0.18910100 0.08487741 -0.00000055
-0.57741712 -0.17933652 -0.00000020
-0.24817358 -0.13723808 -0.00000041
0.31622992 0.32281120 -0.00000083
0.73988726 -0.21063503 -0.00000071
-0.67806521 0.53450720 -0.00000015
-0.40428855 0.07200662 -0.00000044
0.71582820 -0.39462974 -0.00000049
0.70680924 -0.73488894 -0.00000008
-0.44507644 -0.11944898 -0.00000036
-0.12822245 0.35315250 -0.00000072
0.43097852 0.25841411 0.24072031
0.03722348 0.24297203 -0.00000065
-0.54204069 0.53165329 -0.00000032
-0.15275459 -0.31723211 -0.00000030
0.56051888 0.16330967 0.16577472
-0.41803930 0.16952574 -0.00000044
0.70086076 -0.06132390 -0.00000083
0.34472867 -0.02554072 -0.00000049
0.40015931 -0.74444314 -0.00000003
0.55932501 -0.28883612 -0.00000044
-0.33050630 0.39796706 -0.00000057
-0.45185960 -0.37373055 -0.00000027
-0.02372422 0.68014180 -0.00000093
0.31904278 0.04195570 -0.00000053
0.21300737 0.42427765 0.35412303
-0.07205779 0.00469009 -0.00000050
0.21056554 0.05120089 -0.00000053
-0.20460882 -0.57608564 -0.00000014
0.44810310 0.17801177 -0.00000081
-0.71194419 -0.34926160 -0.00000003
-0.39133422 -0.48468424 -0.00000020
0.63293003 0.15137364 0.03415798
-0.09149708 -0.02153424 -0.00000049
-0.59306724 -0.69980874 -0.00000006
0.04206188 0.44000305 -0.00000078
0.07094454 -0.16453360 -0.00000040
0.31483882 -0.36117591 -0.00000027
0.67122689 -0.69057726 -0.00000013
-0.01271381 -0.64750135 -0.00000010
-0.76078197 -0.11248672 -0.00000002
-0.52429265 0.73327480 -0.00000034
0.17211540 0.17369338 -0.00000061
0.35268424 0.38909078 0.12671641
-0.11741657 -0.50952782 -0.00000018
-0.00757392 0.75969406 -0.00000097
-0.16139204 -0.59299173 -0.00000013
0.24890490 -0.53344986 -0.00000017
-0.72278540 0.19429882 -0.00000010
0.33160452 0.36205810 0.23142692
0.38379148 -0.20336798 -0.00000037
0.43939280 -0.53642492 -0.00000016
-0.07829369 0.24950206 -0.00000066
-0.72485136 -0.09396011 -0.00000006
0.26489653 0.47047159 0.14066026
-0.65990461 -0.50608291 -0.00000006
-0.62918444 0.09399124 -0.00000020
0.27344839 -0.12239481 -0.00000042
-0.28237364 -0.32448296 -0.00000030
0.19394218 0.14428729 -0.00000059
-0.46601253 -0.07983951 -0.00000034
0.46041233 0.23142825 -0.00000088
-0.13190432 -0.57858186 -0.00000014
-0.48536709 -0.36981893 -0.00000027
0.15083995 0.51576421 0.29031385
0.25699192 0.51933548 0.05151737
0.12086527 0.50900960 -0.00000082
0.64070570 0.06659259 -0.00000090
0.50651428 0.17636924 0.25488661
0.39196141 -0.15202985 -0.00000040
-0.48766863 -0.48468524 -0.00000020
0.09823427 0.14558727 -0.00000059
-0.49111827 -0.65188433 -0.00000009
-0.48385716 0.54686840 -0.00000040
0.36359033 -0.33632434 -0.00000029
0.23541853 -0.25996037 -0.00000034
0.55130474 -0.55515918 -0.00000015
-0.74432741 0.15714875 -0.00000007
0.00086702 0.20707999 -0.00000063
-0.04299100 -0.25583624 -0.00000034
0.67244046 -0.09378828 -0.00000076
0.40309080 0.27371821 -0.00000087
0.38553719 0.09309948 -0.00000066
0.10043999 -0.24647962 -0.00000035
-0.22915785 0.34772096 -0.00000067
-0.10310304 0.71135537 -0.00000087
-0.65152256 -0.44979517 -0.00000008
0.31216188 -0.07520240 -0.00000045
0.29006936 -0.75651449 -0.00000003
0.66119451 -0.26930915 -0.00000056
0.75181161 0.04473387 0.00751519
0.19871470 -0.78734617 -0.00000001
-0.19974638 -0.40168588 -0.00000025
0.45849181 0.25733458 0.18319046
0.47635953 0.12359217 -0.00000079
-0.10613978 -0.26243520 -0.00000034
-0.67900230 -0.12943229 -0.00000011
0.39897800 0.36553994 0.07721923
-0.35004896 0.11616079 -0.00000050
-0.35184393 -0.69683125 -0.00000006
-0.44100864 -0.08725850 -0.00000037
-0.74350506 -0.30887787 -0.00000000
-0.50043481 -0.70777070 -0.00000006
0.71422098 -0.64463825 -0.00000019
0.45311905 -0.00739940 -0.00000062
-0.23561960 0.18630214 -0.00000062
0.21089709 0.54328188 0.09972075
-0.06708674 0.37738002 -0.00000074
0.32881294 0.29732926 0.37837475
0.20029832 -0.20416056 -0.00000037
0.36028388 0.41140500 0.06161254
0.33437536 -0.20131626 -0.00000037
0.21411849 0.43617044 -0.00000084
-0.66927304 -0.26143573 -0.00000009
-0.73564334 0.34053905 -0.00000008
0.65958691 0.11705203 0.05083934
0.34842769 0.26302829 0.41033721
-0.29794611 -0.20492342 -0.00000037
0.71254628 -0.23389492 -0.00000066
0.73026958 0.04347207 0.05714495
-0.58573183 0.00850213 -0.00000023
-0.53247678 -0.74985356 -0.00000003
-0.79581880 0.29594378 -0.00000001
-0.19098061 -0.71525882 -0.00000005
-0.63898107 0.03890625 -0.00000018
0.31249340 0.47918702 0.01810340
0.60601980 -0.17800769 -0.00000060
0.66186059 0.10458965 0.07301380
-0.76370922 0.14367167 -0.00000005
-0.25686198 -0.59791476 -0.00000013
0.50757710 0.24951489 -0.00000095
-0.30089990 0.65640465 -0.00000062
0.50813358 0.06494295 -0.00000076
-0.25945247 0.59209481 -0.00000068
0.45671786 -0.03694373 -0.00000059
-0.68291686 0.33139558 -0.00000015
-0.65135789 -0.70103270 -0.00000003
0.69288895 -0.78554719 -0.00000002
0.13943186 -0.29385666 -0.00000032
0.01530386 -0.51759837 -0.00000018
-0.10519775 0.14674452 -0.00000059
-0.53253566 0.10446351 -0.00000030
-0.09149238 0.46802657 -0.00000079
-0.71063888 -0.69327313 0.00000000
-0.09361650 0.16744712 -0.00000060
0.48019965 0.21548908 -0.00000089
-0.35937932 -0.52966485 -0.00000017
0.38270975 -0.27656575 -0.00000033
0.20567345 -0.27397120 -0.00000033
0.37854413 -0.04018938 -0.00000051
0.27519611 -0.52701311 -0.00000017
-0.34001799 0.71354514 -0.00000057
0.46254561 0.21100478 -0.00000087
-0.54856498 -0.19147904 -0.00000023
-0.06712143 -0.30848535 -0.00000031
0.15359330 -0.06094718 -0.00000046
0.54781025 -0.05706746 -0.00000067
0.14413963 0.22053671 -0.00000064
-0.12033271 -0.12587257 -0.00000042
0.00964792 0.36937490 -0.00000073
0.55865158 -0.10634105 -0.00000063
-0.76945024 -0.66176369 0.00000000
-0.63750006 0.70062861 -0.00000020
-0.60937389 0.33994467 -0.00000024
-0.11789562 -0.62923024 -0.00000011
-0.51309020 -0.39516664 -0.00000023
-0.04507764 0.13681977 -0.00000059
0.38017277 0.30566682 0.24845298
0.14650309 0.60339060 0.10904691
0.06157375 0.43015818 -0.00000077
-0.70276571 0.66687436 -0.00000012
0.20553095 -0.11626135 -0.00000043
0.31627876 0.27683638 0.45025295
0.02356876 0.68125044 -0.00000093
-0.36036369 0.33580432 -0.00000053
-0.39550394 -0.04051348 -0.00000042
-0.41914038 0.09912615 -0.00000042
-0.32211243 0.15662151 -0.00000054
-0.71387380 -0.19560376 -0.00000006
-0.74708720 0.47499519 -0.00000007
-0.61516622 0.51299788 -0.00000023
0.60959058 0.12165537 0.14963166
-0.29831971 0.59134286 -0.00000063
0.54271119 -0.72490517 -0.00000005
0.57853863 0.19128185 0.06567889
-0.54650619 0.73312235 -0.00000032
-0.18803165 -0.62976172 -0.00000011
-0.56337152 0.57883864 -0.00000030
0.14776642 -0.76151027 -0.00000002
0.12662649 0.62550740 0.10417127
-0.14672689 0.12007173 -0.00000058
-0.71105596 0.22040957 -0.00000011
-0.30090645 0.30490747 -0.00000059
0.23411503 0.50814678 -0.00000094
0.00386677 0.56978970 -0.00000086
0.49462756 0.27033157 0.07625904
-0.61946738 -0.09160443 -0.00000018
-0.60047338 -0.57822638 -0.00000011
0.65233146 0.12078848 -0.00000097
-0.00421396 -0.75965996 -0.00000003
-0.26092019 0.66279875 -0.00000067
-0.72320202 -0.07525721 -0.00000007
0.44712297 0.07616706 -0.00000070
-0.08694856 0.38469276 -0.00000074
0.24840459 0.41896247 0.28865439
0.15759596 0.38302556 -0.00000074
0.25194359 0.20918886 -0.00000064
0.23808693 -0.38601223 -0.00000026
0.30697333 0.09163578 -0.00000057
-0.20817289 0.60629758 -0.00000074
0.20737292 -0.15059523 -0.00000041
0.21080128 0.27847387 -0.00000067
0.17496608 0.54876072 -0.00000092
-0.74208887 -0.35129261 0.00000000
0.31642683 -0.52417747 -0.00000017
0.31506123 -0.54661984 -0.00000016
0.10677625 -0.12039069 -0.00000042
-0.78842075 -0.37275424 0.00000000
-0.00663831 -0.00431334 -0.00000050
-0.31902190 -0.01234242 -0.00000049
0.03551918 -0.79945435 -0.00000000
-0.70146319 0.75711599 -0.00000012
0.43957889 0.28041654 -0.00000091
0.03027561 -0.26362552 -0.00000034
-0.55305468 0.49263106 -0.00000031
-0.40475634 -0.65413047 -0.00000009
-0.16123386 0.76371232 -0.00000080
-0.73094560 0.33210115 -0.00000009
0.30380674 -0.27344358 -0.00000033
-0.17227222 0.65980053 -0.00000078
0.55347421 -0.18404439 -0.00000054
0.56002815 0.19795533 -0.00000096
0.30168201 0.18042746 -0.00000066
0.16462970 -0.67906000 -0.00000008
-0.19586217 -0.36979739 -0.00000027
0.12685088 0.08294383 -0.00000055
0.65284701 -0.03472056 -0.00000081
-0.58013616 -0.21234895 -0.00000020
0.61148925 0.14710174 -0.00000096
0.25780344 0.46501765 -0.00000092
-0.42019424 0.50932899 -0.00000047
0.13620228 0.19444698 -0.00000062
0.31726585 0.31736735 0.35989525
-0.04562210 -0.42106731 -0.00000024
0.66307898 0.10878691 0.06122730
-0.12508466 -0.17010115 -0.00000039
-0.32232919 0.25961658 -0.00000056
0.28944732 -0.04466714 -0.00000047
0.18614760 0.57200828 0.09106548
0.17293666 0.53960006 0.19034887
0.45923644 0.28445768 -0.00000094
-0.14278585 0.10346924 -0.00000056
0.22064723 -0.41984600 -0.00000024
0.28662806 -0.51249209 -0.00000018
0.44137283 -0.71356858 -0.00000005
-0.02821721 0.30331268 -0.00000069
0.72505528 -0.43741260 -0.00000045
0.17472994 0.57511707 -0.00000095
-0.00103871 -0.28730144 -0.00000032
-0.59802909 -0.36441011 -0.00000015
-0.02330948 0.57625579 -0.00000086
-0.37227675 -0.43624341 -0.00000023
0.41212236 0.25608236 -0.00000086
-0.65413868 -0.08049473 -0.00000014
0.32811379 -0.67465897 -0.00000008
0.24527589 -0.18193654 -0.00000039
-0.62694716 0.22092848 -0.00000022
-0.74352531 0.22603964 -0.00000007
-0.48628604 -0.36075583 -0.00000027
-0.44935320 0.76955833 -0.00000044
0.40940784 -0.58463455 -0.00000013
-0.05342866 0.05623111 -0.00000054
0.19359020 0.28754772 -0.00000068
0.65041575 -0.02032265 -0.00000082
0.36039284 -0.30069754 -0.00000031
0.68151168 -0.68622703 -0.00000014
0.22310055 0.29983390 -0.00000070
0.53992441 -0.03310875 -0.00000069
-0.27132341 0.50412082 -0.00000066
-0.59675550 -0.35886905 -0.00000015
-0.56016952 0.26511041 -0.00000030
0.14892973 0.58953380 0.13392293
0.71042526 -0.71996401 -0.00000010
0.47068415 0.03130697 -0.00000068
-0.10881102 -0.54280161 -0.00000016
-0.08743747 -0.28017147 -0.00000032
0.17682854 -0.72700620 -0.00000005
0.32579521 0.42384291 0.10960334
-0.76640795 -0.49933351 0.00000000
-0.09944952 -0.40138191 -0.00000025
0.12005149 0.57413851 0.23027719
-0.54539518 0.52014464 -0.00000032
0.60508455 0.11990425 0.16324957
0.49735303 0.19239160 0.23995422
0.62494627 -0.27142215 -0.00000052
-0.04439592 -0.26890335 -0.00000033
0.46042547 -0.28528555 -0.00000033
-0.49906235 -0.73735785 -0.00000004
