ply
format ascii 1.0
element vertex 1380
property float x
property float y
property float z
end_header
-0.33681797 0.31722344 0.00000160
-0.06321956 -0.58829296 0.00000000
-0.51195242 0.15664508 0.00000092
-0.10464600 0.29841377 0.20989388
-0.68700333 -0.26272579 -0.00000105
-0.18649940 -0.49931717 0.37407097
-0.64609635 -0.67087181 -0.00000016
-0.25250432 0.19443387 0.50646215
-0.29812073 -0.79968912 0.59795532
-0.57336817 -0.42247211 -0.00000029
-0.02758598 0.25362168 0.05533056
-0.14746555 -0.31922677 0.00000000
-0.08485473 0.41950027 0.17019762
-0.18283578 -0.07511931 0.36672317
-0.27362813 -0.17154910 0.00000000
-0.32896880 -0.45300128 0.65983096
-0.28416876 0.35523485 0.00000197
-0.06977700 0.52866327 0.13995142
-0.36624459 -0.32978613 0.00000000
-0.28100689 -0.51514043 0.00000000
-0.30464372 -0.25460002 0.00000000
-0.03404036 0.06000417 0.06825507
-0.57443577 -0.78404145 0.00000000
-0.38181985 0.24257372 -0.00000064
-0.14899094 0.08814418 0.00000000
-0.15264047 0.25196285 0.30615967
-0.19131333 -0.65367818 0.38372650
-0.01977717 -0.44729993 0.03966803
-0.22386977 0.01136171 0.44901795
-0.16873110 -0.29691097 0.00000000
-0.03951684 0.44237838 0.07926086
-0.20846141 0.24610211 0.41812377
-0.18332190 0.30748682 0.36769989
-0.05995596 -0.73555663 0.12025660
-0.02044312 0.16683432 0.04098504
-0.06351844 0.54873061 0.12739849
-0.00285918 0.37092685 0.00572151
-0.18635665 0.01743543 0.00000000
-0.39388092 0.02003655 -0.00000030
-0.66086989 -0.13966768 -0.00000116
-0.07676531 0.20127397 0.15397194
-0.71122565 0.07106706 -0.00000175
-0.09106041 -0.52647157 0.18264432
-0.42645718 0.34839058 -0.00000102
-0.45138154 0.33895594 -0.00000097
-0.06922475 -0.70023111 0.13884746
-0.46383291 -0.59630796 0.00000000
-0.25626297 0.16202842 0.51400246
-0.03220101 0.21729601 0.06458714
-0.10924679 0.26740289 0.00000634
-0.33278295 0.02039104 0.66748229
-0.21256286 -0.42342694 0.42634773
-0.20558342 -0.11383567 0.00000000
-0.29283815 -0.38412705 0.58736155
-0.23888357 0.09901665 0.00000000
-0.06182744 -0.44219691 0.12401032
-0.37374853 -0.09880743 -0.00000001
-0.06159324 0.06779166 0.12354056
-0.23474524 -0.22793422 0.47084106
-0.02071776 0.12778136 0.04153468
-0.36995985 -0.79939613 0.00000000
-0.04053008 0.04849977 0.08127183
-0.08466634 0.50222377 0.16982013
-0.28037997 -0.12841602 0.56237439
-0.04368183 -0.70555331 0.08761478
-0.05416066 0.53144588 0.10863278
-0.68465140 -0.24855904 -0.00000107
-0.11036055 0.34988362 0.22135620
-0.71598019 -0.23057888 -0.00000123
-0.32650395 -0.39491940 0.00000000
-0.74981107 -0.74244886 -0.00000014
-0.34621107 -0.43876408 0.69441470
-0.54776484 0.22943497 -0.00000099
-0.02249152 0.16585844 0.04511234
-0.10637208 -0.37440834 0.21335569
-0.35161386 -0.77346459 0.70524922
-0.44305153 -0.11494881 -0.00000027
-0.33820561 0.01465340 -0.00000006
-0.58816086 -0.06041251 -0.00000099
-0.21697557 0.16734926 0.43520089
-0.30472593 -0.78648854 0.61120378
-0.67310797 -0.00588193 -0.00000145
-0.63336839 -0.28278703 -0.00000079
-0.04437311 0.37738803 0.00000567
-0.22219859 -0.53760298 0.44567457
-0.14953353 0.02674973 0.00000934
-0.24285258 -0.66491526 0.48710129
-0.32468443 -0.77397555 0.65123557
-0.26186025 -0.58401987 0.52522606
-0.34687544 -0.02721942 0.69574964
-0.15070618 0.03026994 0.30227896
-0.04622730 -0.35581243 0.09272036
-0.08675013 0.52111104 0.17399982
-0.61691678 -0.74170700 0.00000000
-0.77342372 -0.33760393 -0.00000116
-0.21449097 -0.65513146 0.43021503
-0.60403451 -0.42031498 -0.00000042
-0.13688546 0.57538536 0.00000112
-0.19141950 -0.30983916 0.00000000
-0.47084153 -0.46583653 0.00000000
-0.16396903 -0.33038170 0.00000000
-0.31485509 -0.78788582 0.63152032
-0.16638565 0.06430133 0.33371536
-0.42442757 -0.25508829 0.00000000
-0.60870233 -0.05703513 -0.00000108
-0.24650140 0.15484080 0.49442294
-0.38902954 -0.09736923 -0.00000007
-0.72789729 -0.57722847 -0.00000056
-0.63954050 0.03215129 0.00000054
-0.01916285 0.68907537 0.03843342
-0.21966921 0.20443079 0.44060388
-0.17510022 -0.34414873 0.35120708
-0.11899409 0.46593336 0.23867118
-0.48679929 -0.29682880 -0.00000014
-0.53535188 -0.20777695 -0.00000050
-0.08586568 0.18328036 0.17221033
-0.10584706 0.58901078 -0.00000008
-0.28841609 -0.36532410 0.57849199
-0.02662365 0.32192510 0.00000677
-0.37863105 0.34515150 0.00000033
-0.34977011 -0.64630461 0.70155193
-0.27770860 0.00386028 0.55701681
-0.01618168 0.21579848 0.03243896
-0.01819705 0.13710010 0.00000967
-0.00393308 0.10741418 0.00786729
-0.04171899 0.61685033 0.08367475
-0.20018580 -0.79919789 0.00000000
-0.61835303 -0.19315481 -0.00000088
-0.20976221 -0.45757017 0.00000000
-0.07253943 0.22313194 0.14549588
-0.54305262 -0.19863517 -0.00000055
-0.52250276 -0.04470793 -0.00000074
-0.09383716 0.01411635 0.18821378
-0.05675552 0.50396737 0.11383737
-0.16631127 0.62396859 -0.00000040
-0.12271293 0.46512975 0.24613276
-0.35127131 0.06807817 0.00000548
-0.04109392 0.56578741 0.08241897
-0.14156902 0.25923733 0.28395290
-0.45656785 -0.17180173 -0.00000023
-0.05104808 -0.75468951 0.10238962
-0.49806053 -0.79991688 0.00000000
-0.34951748 -0.02215714 0.70104898
-0.61341647 -0.74775995 0.00000000
-0.14871568 0.39573020 0.29828548
-0.06355581 -0.24392658 0.00000000
-0.26574451 0.00367615 0.53301227
-0.02081282 0.18583194 0.04172719
-0.50826293 0.01124332 0.00000341
-0.24918185 0.16800837 0.00000572
-0.05103443 -0.13644395 0.10236226
-0.07948334 0.71345566 -0.00000008
-0.34369292 -0.76917345 0.00000000
-0.01516783 0.23754576 0.00000000
-0.03394098 0.53061617 0.06807708
-0.08954577 0.02599694 0.00001026
-0.00156254 0.57146284 0.00313406
-0.20723044 0.23752864 0.41565112
-0.23654494 -0.29360428 0.47445057
-0.26070604 -0.22103001 0.52291257
-0.10089131 0.53095333 0.20236229
-0.05215071 -0.31870880 0.00000000
-0.59993668 -0.41710181 -0.00000041
-0.35512253 0.33757788 0.00000090
-0.01936366 0.11684373 0.03883864
-0.02572657 0.38977063 0.05158959
-0.27862197 0.39187527 -0.00000047
-0.07000831 -0.31305043 0.00000000
-0.02950119 0.11496916 0.05915211
-0.22072061 0.00333315 0.00000862
-0.70556405 -0.54211545 -0.00000064
-0.22232392 -0.23480715 0.00000000
-0.52669385 0.25195704 -0.00000096
-0.73975939 -0.14044867 -0.00000149
-0.11312313 -0.34614995 0.22689660
-0.04905863 -0.00444495 0.09839929
-0.63690561 0.08739188 -0.00000033
-0.04682608 0.13961812 0.09390321
-0.75825513 -0.67871514 -0.00000030
-0.21583215 0.01492199 0.00000000
-0.03945592 0.28604459 0.00000711
-0.04877685 -0.21742357 0.09783412
-0.27808144 -0.78238131 0.00000000
-0.67141761 -0.63877325 -0.00000032
-0.53444318 -0.17232953 -0.00000056
-0.39327126 0.13799493 0.00000351
-0.01263084 -0.48906026 0.02533429
-0.36025205 0.43054593 -0.00000075
-0.02433850 -0.04596352 0.04881692
-0.28020329 -0.03229794 0.56202043
-0.18440497 -0.49806166 0.00000000
-0.20382400 -0.05957770 0.00000000
-0.10507389 0.13915183 0.21073682
-0.16029935 0.27323706 0.00000000
-0.45196257 0.01772590 -0.00000055
-0.38143204 0.26409771 0.00000163
-0.66129569 -0.38735476 -0.00000072
-0.10900582 -0.10453291 0.21863830
-0.47004968 -0.74731247 0.00000000
-0.28019085 -0.61013662 0.56199295
-0.22040969 0.10348502 0.44208868
-0.10986387 0.39781899 0.22035451
-0.09677636 -0.11581152 0.19410907
-0.53023046 -0.43995316 -0.00000007
-0.17973903 0.17277503 0.00000670
-0.28087696 -0.47068461 0.56336975
-0.41086629 0.16801771 -0.00000064
-0.43386062 0.26833586 -0.00000091
-0.09002726 -0.25057354 0.18057208
-0.69084064 -0.43709444 -0.00000076
-0.60039578 -0.35685707 -0.00000052
-0.07221597 0.08447107 0.00000000
-0.17475403 -0.17000107 0.35051270
-0.07517744 -0.27218614 0.15078706
-0.25655801 -0.24883746 0.00000000
-0.16904718 0.32827964 0.33906475
-0.00338656 -0.18725484 0.00000000
-0.44421925 0.21187535 -0.00000086
-0.19340194 -0.34424471 0.00000000
-0.05868533 0.71850657 0.00000023
-0.26947410 -0.79834900 0.54049739
-0.23398433 0.16207644 0.00000604
-0.05854901 0.09910592 0.00000963
-0.34477333 -0.54104404 0.00000000
-0.31537807 -0.38723861 0.00000000
-0.30729530 -0.59108627 0.61635840
-0.02315798 0.71265294 0.00000000
-0.24892512 -0.27149353 0.49928249
-0.46057118 -0.47734302 0.00000000
-0.08564039 -0.78164227 0.17177311
-0.11877998 -0.48174777 0.23824282
-0.31040414 -0.55254280 0.62259419
-0.14890760 0.15646217 0.00000741
-0.23341233 0.25881011 -0.00000004
-0.20245033 -0.22470226 0.00000000
-0.33417902 -0.41387855 0.67028160
-0.25068704 -0.34656824 0.00000000
-0.44021740 0.19733484 0.00000161
-0.22708863 -0.31120803 0.45548328
-0.15267368 0.20663800 0.00000660
-0.43859242 0.34876252 -0.00000107
-0.22943153 0.01530410 0.46018405
-0.15749590 -0.09175318 0.31589723
-0.26170702 -0.67358878 0.52491857
-0.03346612 0.51255313 0.06712463
-0.03060658 -0.56828448 0.06138912
-0.30118379 -0.40194066 0.60410093
-0.06057541 0.67349346 0.00000095
-0.66247575 -0.12095927 -0.00000120
-0.09543554 0.00259544 0.19141972
-0.24673568 -0.34913586 0.49489064
-0.01342066 0.41314381 0.02690708
-0.24490428 -0.00105467 0.49121878
-0.23829123 -0.76451235 0.00000000
-0.03171080 0.58223315 0.00000279
-0.30540558 -0.62700455 0.00000000
-0.03375497 -0.60967524 0.00000000
-0.43850124 0.32786485 -0.00000053
-0.26054951 -0.69737451 0.00000000
-0.00293465 0.18458233 0.00586705
-0.04583980 0.65188201 0.09194192
-0.06167580 0.47147970 0.12369926
-0.38847300 -0.66820081 0.00000000
-0.16675244 0.21733056 0.33446492
-0.32975768 -0.22724927 0.66141442
-0.04272718 -0.53119118 0.08569999
-0.56182150 -0.62191073 0.00000000
-0.11493510 0.46364992 0.23053220
-0.16750958 0.19525795 0.00000654
-0.44248517 -0.43523071 0.00000000
-0.16716645 0.20608759 0.33528731
-0.09128162 0.09948044 0.18307101
-0.55692746 -0.57232006 0.00000000
-0.07934332 0.13867793 0.00000872
-0.20606497 -0.11573488 0.41331547
-0.11774462 -0.79293937 0.23616613
-0.11950378 -0.20682396 0.23969458
-0.05489595 0.33422608 0.00000000
-0.10878354 -0.43873146 0.00000000
-0.51064921 -0.46030283 0.00000000
-0.01791443 0.67252652 0.03593184
-0.16637267 0.48697988 -0.00000016
-0.26461221 0.20495998 -0.00000008
-0.49000382 0.17589384 -0.00000099
-0.04066881 0.23783483 0.00000782
-0.24201182 0.08021221 0.00000000
-0.10730919 -0.10323555 0.00000000
-0.02648929 -0.28194692 0.05313087
-0.24180743 0.24334173 -0.00000005
-0.00668898 0.42263448 0.01340495
-0.09696952 0.46381729 0.19449734
-0.26408137 0.21056967 0.00000477
-0.13004382 -0.34563828 0.26083525
-0.32455841 -0.15265389 0.65098620
-0.47096455 -0.69984809 0.00000000
-0.15085636 0.12421135 0.30256831
-0.53609264 -0.54813122 0.00000000
-0.43073166 -0.50232632 0.00000000
-0.21264678 0.14211577 0.42651160
-0.42135935 0.23942784 0.00000127
-0.18009717 0.60904050 -0.00000043
-0.13630567 0.14066170 0.27338240
-0.00761033 0.25846440 0.01526441
-0.15296050 0.23312782 0.30680151
-0.07247167 -0.15961173 0.14535998
-0.05016822 0.34121857 0.10061319
-0.19891850 -0.67405391 0.39898055
-0.02933567 -0.52296447 0.05883999
-0.13776741 0.38914001 0.00000000
-0.22767440 0.26370981 0.45665977
-0.34742170 -0.40846380 0.00000000
-0.53166918 -0.34710804 -0.00000024
-0.34198808 -0.32232892 0.68594518
-0.16165146 0.13596147 0.32423316
-0.16451651 -0.07992885 0.32997885
-0.10115279 0.62546895 -0.00000012
-0.05009204 -0.53669518 0.10047206
-0.13313254 0.21675641 0.26703105
-0.13624950 0.18043215 0.27327136
-0.19323623 -0.66754431 0.00000000
-0.06469895 0.54795624 0.12976639
-0.08199598 0.23669064 0.00000000
-0.16942126 0.10026803 0.33981746
-0.64840085 -0.71848748 -0.00000008
-0.18617699 -0.20080092 0.37342432
-0.27343231 -0.15476155 0.54843885
-0.36743163 -0.22384820 0.00000000
-0.75820364 -0.04789555 -0.00000174
-0.09119943 -0.39972230 0.18292315
-0.00921509 -0.02059455 0.01848315
-0.23992469 -0.43863533 0.48122894
-0.34520891 -0.05464163 0.00000000
-0.57609587 -0.05756237 -0.00000094
-0.17035124 0.05669875 0.34166944
-0.55612598 0.10011098 0.00000101
-0.20513492 -0.15398229 0.41144982
-0.17963383 0.05536614 0.00000846
-0.02583121 0.25481013 0.05179525
-0.23146446 -0.37608835 0.46425993
-0.06017655 -0.04867955 0.00000000
-0.19962921 0.05330391 0.40039664
-0.09397640 0.51409452 0.18849404
-0.20397862 -0.33006551 0.40912990
-0.65815383 -0.78459569 -0.00000001
-0.33037792 0.37194242 0.00000081
-0.04866681 -0.09465810 0.09761340
-0.33427892 -0.03843384 0.67048384
-0.40834850 -0.62127061 0.00000000
-0.31522489 -0.14393428 0.00000000
-0.10966671 0.12366106 0.00000849
-0.27615965 0.15879409 0.55391065
-0.65367026 0.13750557 -0.00000149
-0.06576897 -0.55923748 0.13191604
-0.34604309 -0.70310420 0.00000000
-0.30278165 -0.79457052 0.60730399
-0.04433798 0.16679465 0.08891341
-0.25728588 0.10355478 0.00000656
-0.13205345 0.16335000 0.26486640
-0.04755835 0.66010130 0.09538941
-0.21699132 -0.22500169 0.43523076
-0.02526604 -0.59491134 0.00000000
-0.11470909 0.20724482 0.23007776
-0.37510754 -0.51311287 0.00000000
-0.70853356 -0.77471342 -0.00000006
-0.73843623 0.05273593 -0.00000183
-0.34993106 -0.35066473 0.70187662
-0.05978385 0.02559000 0.00001071
-0.29822857 0.12010624 0.59817530
-0.15343252 0.06323894 0.00000000
-0.12121964 0.22221347 0.00000000
-0.41413017 -0.39570075 0.00000000
-0.27275959 -0.74297751 0.54708725
-0.17232798 -0.09314632 0.34564683
-0.20872466 0.03918546 0.41865087
-0.28686678 -0.08572299 0.00000000
-0.11426099 0.25632491 0.22916871
-0.08528441 -0.01605143 0.00000000
-0.51016918 0.12283883 0.00000151
-0.35614608 -0.29385192 0.71434273
-0.52037738 0.23999660 -0.00000123
-0.64713119 -0.16755806 -0.00000105
-0.53108151 -0.41674656 -0.00000012
-0.64206267 -0.51920850 -0.00000041
-0.08184913 -0.56194919 0.00000000
-0.33275187 -0.18884442 0.66742025
-0.26003157 -0.38385734 0.52155902
-0.00290527 0.45078628 0.00581645
-0.30029674 -0.49098569 0.60232132
-0.00305674 0.71122955 0.00000000
-0.19330930 -0.55183108 0.38772992
-0.12106526 -0.12063328 0.00000000
-0.14571835 -0.03891222 0.00000000
-0.20984236 0.01016200 0.42089260
-0.03897076 -0.26831078 0.07816555
-0.05949256 -0.45142294 0.00000000
-0.33827400 0.07572813 0.00000560
-0.22883203 0.15307851 0.00000625
-0.60047026 -0.17924313 -0.00000083
-0.24499499 0.06519999 0.49140102
-0.27347646 0.50179761 -0.00000064
-0.32537916 -0.01314080 0.00000000
-0.05366359 0.69041565 0.00000080
-0.33281095 0.03125406 0.66753888
-0.15661013 0.00044742 0.31412081
-0.16384431 -0.65116996 0.32863054
-0.02132856 -0.05502784 0.04277973
-0.13871789 -0.18997332 0.27823325
-0.06007780 -0.56868443 0.00000000
-0.16383141 0.17820260 0.00000000
-0.09462764 0.10226055 0.18978256
-0.02566957 -0.63395577 0.05148671
-0.71058422 -0.03075715 -0.00000156
-0.28706028 -0.11465305 0.57577365
-0.21622841 0.11826056 0.43370205
-0.02705523 0.12396052 0.05424630
-0.03163561 0.70605172 0.06345344
-0.32252214 -0.71388582 0.00000000
-0.20267594 0.20350890 0.40651406
-0.51465425 -0.50547697 0.00000000
-0.54840154 -0.39164057 -0.00000023
-0.15801157 0.40518005 0.31693354
-0.73754182 -0.59228570 -0.00000052
-0.26081341 0.09127703 0.52312929
-0.31455387 0.25352810 0.00000309
-0.04777948 0.54975075 0.09582846
-0.07193001 -0.45824610 0.14427354
-0.06538461 0.67993769 -0.00000007
-0.30064704 -0.45173154 0.00000000
-0.10335471 0.41378158 0.20730436
-0.47518646 -0.75693798 0.00000000
-0.05845636 -0.08387184 0.00000000
-0.16364048 -0.57474127 0.32822171
-0.29682856 0.08760310 0.59536748
-0.05517280 0.13989583 0.11066279
-0.14880048 -0.12931651 0.29845641
-0.41124403 -0.51899732 0.00000000
-0.06750929 0.53831382 0.13540714
-0.49445867 -0.74535290 0.00000000
-0.14099332 -0.46777598 0.00000000
-0.12573117 0.45208264 0.25218662
-0.36297182 -0.51640186 0.00000000
-0.73985577 -0.01935301 -0.00000171
-0.58896814 -0.77288428 0.00000000
-0.29521253 -0.27624905 0.59212450
-0.50629403 0.22442799 -0.00000011
-0.19647509 0.21903136 0.39407669
-0.43929823 -0.36269247 0.00000000
-0.15961246 -0.71145469 0.32014252
-0.31527703 -0.34358076 0.00000000
-0.12751204 0.24822674 0.25575775
-0.04670782 -0.57129814 0.00000000
-0.51223828 -0.70155917 0.00000000
-0.02522834 0.58790440 0.05060172
-0.21807172 0.20794469 0.43739593
-0.06750910 0.54731034 0.13540312
-0.15095042 0.43018907 0.00000000
-0.00131958 0.10574652 0.00001039
-0.05927570 0.10904926 0.00000000
-0.17020096 -0.19978368 0.00000000
-0.11626125 0.52618690 0.23319243
-0.04354328 0.18979391 0.08732012
-0.24730660 0.52272322 -0.00000012
-0.68770648 -0.42442224 -0.00000077
-0.05937640 0.32974822 0.11909414
-0.30032309 -0.79125745 0.00000000
-0.29890123 0.08725920 0.59952478
-0.19733967 0.07168284 0.39580491
-0.28893895 -0.65825908 0.57953944
-0.16066279 0.43593456 0.32225142
-0.07581621 -0.14659883 0.15206828
-0.10061699 0.28316009 0.20180193
-0.33068967 -0.65202048 0.66328134
-0.00404772 -0.03128186 0.00000000
-0.00918273 0.49695074 0.01840926
-0.12684300 0.34079386 0.25441620
-0.30270584 -0.17401183 0.60715482
-0.28471410 0.20217014 -0.00000016
-0.00259540 -0.36493194 0.00000000
-0.05001198 -0.43659162 0.00000000
-0.01210281 0.17706476 0.00000916
-0.27449245 -0.19256943 0.55056508
-0.45674723 0.28843109 -0.00000023
-0.21954390 0.30588355 0.44035298
-0.32980811 -0.65498716 0.66151314
-0.05730911 0.12551966 0.00000000
-0.12577458 0.05218082 0.00000932
-0.23252849 -0.11522938 0.00000000
-0.08931436 -0.49119243 0.17914217
-0.00486020 -0.35154898 0.00974834
-0.08581503 -0.38802382 0.00000000
-0.09231908 0.54076528 0.18516804
-0.14900287 -0.62861734 0.29886235
-0.20430316 0.32471133 0.40978360
-0.35505811 0.12637294 -0.00000032
-0.18832199 -0.23365941 0.37772663
-0.31246876 0.09658413 0.62673821
-0.54348354 -0.64472657 0.00000000
-0.41870834 -0.65824038 0.00000000
-0.17724765 0.37731224 0.35551663
-0.10504722 0.52848493 0.00000000
-0.75468715 -0.35665933 -0.00000111
-0.66548039 -0.58886265 -0.00000038
-0.10994280 -0.46595738 0.22051766
-0.35014836 -0.56211901 0.70231114
-0.13381573 -0.23705540 0.26840074
-0.19165073 -0.41637904 0.00000000
-0.18949628 -0.53124916 0.38008196
-0.59846688 0.00524608 -0.00000115
-0.35251345 -0.76919670 0.00000000
-0.56688407 -0.31617939 -0.00000045
-0.00705087 -0.15756756 0.00000000
-0.73374733 0.00637464 -0.00000083
-0.05836589 -0.19630285 0.00000000
-0.11890025 0.12521148 0.23848405
-0.02015759 -0.37308049 0.04043106
-0.27235733 0.06591927 0.00000000
-0.08888131 0.63263127 0.00000109
-0.25940190 -0.65427448 0.52029508
-0.07883069 0.59421108 0.00000000
-0.01882560 -0.29730231 0.03775943
-0.03353835 0.41311578 0.06726950
-0.72442422 -0.59467127 -0.00000051
-0.31705861 0.45515650 -0.00000074
-0.05790356 -0.13291791 0.11613999
-0.24328900 -0.57729983 0.48797664
-0.25914361 -0.44359466 0.51977771
-0.34619423 -0.23704715 0.69438219
-0.07064452 0.71105752 -0.00000014
-0.08313715 0.39542520 0.00000000
-0.43259394 0.20513689 0.00000163
-0.20204103 0.21246590 0.40524580
-0.20429346 -0.29611422 0.40976142
-0.28040931 -0.47181983 0.56243174
-0.11052705 0.52354014 0.00000000
-0.05476175 -0.18551532 0.10983832
-0.12997628 -0.60010464 0.26069978
-0.34842267 -0.69901000 0.69884898
-0.32753932 -0.05247834 0.00000000
-0.50133326 0.13769072 -0.00000097
-0.14834570 -0.28529083 0.00000000
-0.11725401 0.30266366 0.23518270
-0.34747076 0.13938424 -0.00000032
-0.10134301 0.15014539 0.20326862
-0.30486268 0.08095524 -0.00000003
-0.28664360 0.22406955 -0.00000021
-0.28511553 -0.41551580 0.57187160
-0.09368038 0.29607605 0.00000000
-0.18070010 0.55956845 -0.00000035
-0.53168823 -0.43588694 -0.00000008
-0.19955695 -0.00290748 0.40026236
-0.18341435 0.17104255 0.36787680
-0.76797068 -0.31237669 -0.00000122
-0.06459913 -0.01361135 0.12956962
-0.06914834 0.56694603 0.00000245
-0.05522144 0.24486822 0.11076034
-0.14377411 -0.52118976 0.28837476
-0.27116255 -0.70961151 0.00000000
-0.13252118 0.47913208 0.26580595
-0.06351292 0.05431362 0.12739097
-0.23141747 -0.11903508 0.00000000
-0.23833286 -0.35996894 0.47803645
-0.12398558 0.10911874 0.24866902
-0.30316445 -0.56120756 0.60807298
-0.34304870 -0.18506715 0.68807336
-0.09200096 0.27324904 0.18453082
-0.07457922 0.29946999 0.14958719
-0.08949056 0.37301714 0.17948759
-0.26911041 0.01536679 0.53976424
-0.21697850 -0.45781795 0.43520439
-0.25505674 -0.53729277 0.00000000
-0.08819980 0.49584114 0.00000323
-0.07700087 0.00899075 0.15444442
-0.09439100 0.43861165 0.18932531
-0.26260565 -0.52333554 0.52672142
-0.14117073 -0.77057955 0.28315303
-0.11015853 -0.17736809 0.22095036
-0.62284447 -0.23290939 -0.00000083
-0.10648453 -0.73679257 0.00000000
-0.10019932 -0.57031618 0.20097467
-0.20165654 -0.65758221 0.00000000
-0.23164306 -0.20014929 0.00000000
-0.05688287 -0.31210123 0.11409276
-0.49126201 -0.69150625 0.00000000
-0.40532920 0.10753939 -0.00000051
-0.09716066 0.43829310 0.00000396
-0.07383513 0.07712657 0.14807608
-0.33420840 0.01443732 0.00000670
-0.00819486 0.62720551 0.01643186
-0.01160423 0.10153238 0.02327517
-0.08887439 0.32787272 0.17824981
-0.17238357 -0.12430779 0.34575818
-0.31469422 -0.27644244 0.63120033
-0.50115380 0.05863676 0.00000276
-0.13026154 0.13393831 0.26125849
-0.20098589 0.08206808 0.40312885
-0.25605494 0.15926747 0.51358518
-0.07920897 -0.44334306 0.15887330
-0.22024380 -0.75458193 0.44175376
-0.09407046 0.33304604 0.18867259
-0.34765499 -0.55680366 0.69731009
-0.54329621 -0.57421500 0.00000000
-0.43459249 0.32759517 -0.00000102
-0.17052357 0.16815939 0.34202873
-0.74635654 0.04108780 -0.00000166
-0.17760805 -0.58891791 0.35623716
-0.18968431 -0.46777145 0.00000000
-0.68403460 -0.40642729 -0.00000079
-0.43107369 0.25460954 -0.00000088
-0.44712413 -0.44736416 0.00000000
-0.57474265 -0.73074700 0.00000000
-0.09487833 0.00234194 0.19030210
-0.45859166 -0.10239146 -0.00000036
-0.03111186 0.61826291 0.06239856
-0.02479014 0.01449425 0.04969954
-0.60492649 0.01649645 0.00000147
-0.00233112 0.66395589 0.00467565
-0.14700425 0.09055556 0.29484017
-0.06614507 0.13455847 0.13267040
-0.10939431 0.35921632 0.21941817
-0.04493405 0.16974918 0.09012643
-0.03999084 0.50164963 0.08021158
-0.28351994 -0.16903854 0.56867228
-0.13185460 -0.16391723 0.26446722
-0.02304106 -0.46443240 0.04621458
-0.09910794 0.00489886 0.19878564
-0.32176047 -0.43901475 0.64537292
-0.22880500 -0.51847286 0.00000000
-0.02140491 -0.31805663 0.04293287
-0.00072698 0.29097412 0.00145815
-0.05589612 -0.20913968 0.00000000
-0.66673250 -0.34501757 -0.00000082
-0.16617221 0.26787069 0.33329553
-0.12934577 0.34174009 0.00000000
-0.14816959 0.39701456 0.29719016
-0.16067319 0.41932893 0.32227221
-0.13525015 0.14823486 0.27127819
-0.20760380 -0.65071079 0.41640110
-0.33582353 -0.26908549 0.67358096
-0.15456739 0.56646734 0.00000093
-0.57987372 -0.57159662 -0.00000005
-0.10442077 0.09226504 0.20942532
-0.31662059 0.20703283 -0.00000030
-0.25903139 -0.44520254 0.51955261
-0.25658467 -0.59444352 0.00000000
-0.32083432 -0.44401399 0.64351525
-0.13892133 -0.20390367 0.00000000
-0.19662248 -0.44765447 0.39437533
-0.05805778 0.07216411 0.11644932
-0.11176843 -0.39489038 0.22417941
-0.62023176 0.08931702 -0.00000004
-0.19548008 0.10955510 0.00000000
-0.02426523 -0.08679118 0.00000000
-0.13396856 0.12166555 0.26869373
-0.63981036 -0.14477921 -0.00000106
-0.06007271 0.41751696 0.12049077
-0.48142477 -0.29814577 -0.00000011
-0.32703184 -0.65627094 0.00000000
-0.08260885 0.58394217 0.16569250
-0.07529237 0.01022657 0.00000000
-0.27422850 -0.23110112 0.55003549
-0.17390706 0.12776778 0.00000000
-0.40349811 0.12205968 0.00000358
-0.07610503 -0.60841266 0.15264759
-0.03006556 0.24815016 0.00000782
-0.47292060 -0.72154505 0.00000000
-0.06094645 0.17377465 0.12224328
-0.51176484 0.17545107 0.00000060
-0.11851198 -0.18113043 0.00000000
-0.78610564 -0.20154612 -0.00000150
-0.08967526 -0.70364497 0.17986605
-0.01847934 0.01198400 0.03706491
-0.31534017 0.15929278 -0.00000021
-0.72870121 -0.62965600 -0.00000043
-0.05872980 0.47989237 0.11779722
-0.05670836 -0.34751455 0.00000000
-0.05213819 0.66265206 0.10457675
-0.17079953 -0.76326884 0.00000000
-0.03090600 -0.46706002 0.06198967
-0.08605361 -0.77224662 0.17260194
-0.75645861 -0.29885563 -0.00000125
-0.04046293 0.13487164 0.08113984
-0.27501662 0.17452727 0.00000517
-0.24114121 -0.69399631 0.00000000
-0.06798615 -0.78448992 0.13636315
-0.07286135 0.53910514 0.00000281
-0.52853557 -0.24817211 -0.00000040
-0.40032532 0.25009667 0.00000150
-0.20949707 0.20987083 0.00000569
-0.24487079 -0.02433421 0.49115152
-0.19731445 0.16075987 0.39575795
-0.17176066 -0.63627845 0.00000000
-0.16677031 -0.63291535 0.33449937
-0.00028577 -0.59328185 0.00057318
-0.01306716 -0.53195609 0.02620944
-0.67812143 -0.29183168 -0.00000096
-0.21272511 -0.28485099 0.00000000
-0.42394616 0.23176555 -0.00000080
-0.73859307 -0.02454789 -0.00000169
-0.21925361 -0.37676430 0.43976773
-0.24569144 -0.38546307 0.49279597
-0.34923751 -0.19811855 0.00000000
-0.58242971 -0.47646581 -0.00000023
-0.42254396 0.21838006 0.00000160
-0.14782208 0.12058424 0.29649451
-0.15892024 -0.20353178 0.31875410
-0.09324472 0.64053282 0.00000087
-0.26425500 0.06190330 0.53003220
-0.07498215 -0.35374945 0.15039536
-0.01719371 0.49632721 0.03448627
-0.49619852 0.04188290 0.00000313
-0.75331024 -0.31550141 -0.00000121
-0.35339098 -0.09545726 0.70881794
-0.00235257 -0.52373408 0.00471866
-0.72259017 -0.33736272 -0.00000107
-0.34815193 -0.13994979 0.69830945
-0.11579903 -0.72559466 0.00000000
-0.21709474 0.49516127 0.00000092
-0.15639574 0.33097023 0.31369223
-0.01726158 -0.12460793 0.03462240
-0.27908680 0.15466652 0.55978183
-0.00696477 -0.54995448 0.01396957
-0.25633217 0.19811614 0.00000513
-0.59765259 0.06601177 -0.00000125
-0.34198268 -0.30294086 0.68593447
-0.27973907 0.18445758 -0.00000011
-0.09938030 -0.18078574 0.19933193
-0.21350056 -0.76574140 0.42822851
-0.35139415 -0.58007848 0.70480977
-0.05952563 0.60075293 0.11939401
-0.16152694 0.07737450 0.32397002
-0.00874545 -0.44318575 0.01754119
-0.37162719 -0.26080375 0.00000000
-0.15916435 -0.14863597 0.31924372
-0.31365567 0.01539367 0.62911554
-0.21289550 0.15878413 0.42701715
-0.01631432 0.46916811 0.03271295
-0.08426043 -0.31427723 0.00000000
-0.00688014 0.16492379 0.00000942
-0.22109096 -0.56900135 0.00000000
-0.74499054 -0.50237549 -0.00000074
-0.11524998 -0.35009300 0.23116252
-0.23658365 -0.41874076 0.47452767
-0.18253071 -0.17301802 0.36611083
-0.66520172 0.12330466 -0.00000164
-0.32522682 0.26006556 -0.00000043
-0.38728658 -0.49032577 0.00000000
-0.19262829 -0.59119756 0.38636399
-0.02460253 0.41220644 0.00000545
-0.18298592 -0.24107513 0.36702381
-0.30149023 -0.41059441 0.60471553
-0.52816526 -0.32832274 -0.00000026
-0.34729156 -0.29752565 0.69658278
-0.41242448 -0.05408949 -0.00000025
-0.47799888 0.09665771 -0.00000080
-0.13780152 0.47216059 0.27639708
-0.20209427 0.16656132 0.40534582
-0.04695302 0.39526516 0.00000536
-0.13948279 -0.25443783 0.00000000
-0.30151371 0.07748465 0.60476308
-0.01772903 0.71497526 0.03555838
-0.22956012 0.18016491 0.46044270
-0.10355984 -0.56869733 0.20771503
-0.33633789 -0.14944202 0.67461316
-0.25507570 -0.30653556 0.51161901
-0.19853296 -0.47306811 0.39820727
-0.77898140 -0.53905953 -0.00000065
-0.23865021 -0.65720289 0.47867240
-0.32108717 -0.64779755 0.64402117
-0.24102515 0.12962041 0.00000642
-0.21053932 -0.27284645 0.00000000
-0.46481215 0.24695320 0.00000031
-0.32054170 -0.73362461 0.64292656
-0.13166350 0.34338068 0.26407915
-0.10176684 0.37460126 0.20411209
-0.07411562 0.00977056 0.14865733
-0.13573970 0.35480752 0.27225589
-0.16814844 -0.67409511 0.33726355
-0.64112149 -0.79952644 0.00000000
-0.22808950 -0.47986231 0.45749027
-0.02466924 -0.49823298 0.04948030
-0.22179853 -0.12227203 0.44487337
-0.21207876 0.29628774 0.42537956
-0.18011984 0.30370179 0.36127726
-0.24072697 0.22419856 0.48284104
-0.57119475 0.07228678 -0.00000115
-0.43133901 -0.02043649 -0.00000039
-0.13959706 -0.63306038 0.00000000
-0.14990121 0.05149647 0.00000000
-0.02802213 0.58307087 0.05620007
-0.03806994 -0.15052607 0.00000000
-0.16180497 0.35078769 0.32454202
-0.31763223 0.36477508 0.00000117
-0.15654820 0.36189127 0.31399500
-0.31206716 0.40066444 -0.00000063
-0.12754386 0.42132665 0.00000000
-0.22663637 -0.14286640 0.00000000
-0.48446131 0.04444401 -0.00000073
-0.31062061 -0.77616543 0.62302708
-0.04855938 0.68913423 0.09739852
-0.06439293 0.39405398 0.12914683
-0.26209934 -0.04019089 0.52570799
-0.22036248 -0.71449784 0.44199180
-0.07454813 0.33836539 0.14951441
-0.09090384 0.69957758 -0.00000007
-0.11988932 0.26551747 0.24045870
-0.32160224 0.45564244 -0.00000042
-0.16199845 0.16802094 0.00000000
-0.35081677 -0.75761772 0.70365058
-0.05065441 -0.49557733 0.10160002
-0.18747074 0.14060356 0.00000000
-0.04258326 -0.13703378 0.08541133
-0.38607749 -0.01674399 -0.00000020
-0.09842069 -0.64093837 0.19740719
-0.62015941 -0.56407406 -0.00000024
-0.07724520 0.16857662 0.00000000
-0.12608271 0.03637265 0.00000955
-0.51418094 0.21075838 -0.00000003
-0.44413909 0.03419166 0.00000426
-0.05533009 -0.28251667 0.00000000
-0.34713649 0.13534578 0.00000444
-0.08106488 -0.60078715 0.00000000
-0.26699991 -0.18088955 0.53553681
-0.76842737 -0.72787394 -0.00000018
-0.01005560 0.20092144 0.02016900
-0.24058475 -0.27651182 0.48255358
-0.12514752 0.31824186 0.25100803
-0.50689798 -0.01316719 -0.00000073
-0.54326704 -0.39500756 -0.00000021
-0.30299104 0.18883633 -0.00000021
-0.03641095 0.34492411 0.07303123
-0.10213488 -0.25694970 0.20485692
-0.24113364 -0.13200096 0.48365517
-0.18809474 -0.18140121 0.00000000
-0.14869689 0.12427789 0.29824918
-0.08649903 0.45711043 0.17349588
-0.21267091 -0.06931559 0.00000000
-0.17769741 0.19368385 0.35641036
-0.21520693 0.03010275 0.43165279
-0.14324131 -0.12011818 0.28730610
-0.54884445 -0.29895452 -0.00000040
-0.20868853 -0.39940598 0.41857680
-0.16986889 -0.15447731 0.34071434
-0.09870674 -0.76080476 0.19798093
-0.01731526 -0.47130272 0.03473007
-0.15202406 -0.69672597 0.30492209
-0.11032706 -0.61728892 0.22128838
-0.00191719 0.75680801 0.00000000
-0.43635130 -0.21995302 -0.00000006
-0.16678717 0.16422580 0.33453436
-0.00886065 0.01609087 0.01774817
-0.14083799 0.21012817 0.28247641
-0.02234301 0.53363194 0.04481446
-0.73902130 -0.79103703 -0.00000002
-0.34538961 -0.38755831 0.69276737
-0.06308785 -0.29894308 0.12653839
-0.23768127 -0.26346228 0.47672993
-0.48159537 0.31192870 -0.00000119
-0.01432761 0.60169309 0.00000000
-0.15835163 0.35933887 0.31761230
-0.10734999 -0.68567998 0.21531712
-0.64129425 -0.73051011 -0.00000003
-0.01527974 -0.34460721 0.03064732
-0.13868034 -0.71519838 0.00000000
-0.26939623 -0.10941312 0.54034359
-0.29018289 -0.58296058 0.58203484
-0.31548630 -0.78872607 0.63278635
-0.15668861 -0.61409608 0.00000000
-0.27888325 0.05524064 0.55937312
-0.59682054 0.15806899 -0.00000141
-0.22160234 -0.10061889 0.44447996
-0.07100560 -0.13665769 0.00000000
-0.35302099 -0.05567938 0.00000000
-0.21943974 0.19715111 0.00000573
-0.24958186 0.00236713 0.50060097
-0.24267804 -0.68558948 0.00000000
-0.15778199 -0.31521935 0.31647105
-0.61901174 -0.75890700 0.00000000
-0.16219250 -0.67729915 0.32531742
-0.22523207 -0.14731306 0.00000000
-0.72205824 -0.05382704 -0.00000157
-0.18397611 -0.30818811 0.36900989
-0.41646684 -0.39032697 0.00000000
-0.07976650 0.34602318 0.15998167
-0.52198931 -0.62875647 0.00000000
-0.17480955 0.17216068 0.35062546
-0.22493925 0.19578044 0.00000000
-0.02313820 0.26272189 0.04639384
-0.05663876 0.26563654 0.11360314
-0.36131032 -0.62650048 0.00000000
-0.25579881 0.09762116 0.51306647
-0.21723790 -0.48791998 0.43572468
-0.13576420 -0.70786027 0.27230890
-0.13241448 -0.38954873 0.26559021
-0.22072942 -0.04180948 0.44272933
-0.22901392 0.09097348 0.45934674
-0.02103398 0.03017764 0.04216591
-0.04502421 -0.76919154 0.09030726
-0.19237881 0.35494806 -0.00000003
-0.01039307 -0.26171994 0.02084588
-0.13979266 -0.16984388 0.28038897
-0.76965346 -0.64405346 -0.00000039
-0.37427119 0.17044092 -0.00000048
-0.62338343 0.07837271 -0.00000138
-0.17874016 -0.69792878 0.35850788
-0.06056827 0.30335194 0.12148475
-0.18974597 -0.02890351 0.00000000
-0.23663136 -0.26764368 0.00000000
-0.14549247 -0.54407301 0.00000000
-0.11543381 0.53480940 0.23153258
-0.34323323 -0.10707706 0.68844385
-0.02434648 -0.77320734 0.00000000
-0.00519559 0.59810922 0.01042105
-0.03865290 0.69400926 0.00000101
-0.05658214 0.09872648 0.00000000
-0.68272640 -0.75479202 -0.00000011
-0.03505091 0.13648865 0.07028444
-0.25039112 -0.05401426 0.50222392
-0.13477321 0.27652894 0.27032212
-0.23712111 0.20262631 0.47560600
-0.49567980 0.16833241 -0.00000100
-0.04713257 0.67224546 0.00000121
-0.43036912 -0.24504519 0.00000000
-0.13884698 0.23253013 0.27849297
-0.11086959 0.51945622 0.22237680
-0.02387420 0.09406462 0.04788565
-0.53707149 -0.30291195 -0.00000034
-0.25462175 0.04328325 0.51070325
-0.09001952 -0.09300790 0.00000000
-0.05306977 0.35237173 0.10644462
-0.33893630 0.03581825 0.67982580
-0.30016282 -0.56462706 0.60205239
-0.11528556 -0.57721434 0.23123389
-0.26705578 0.35995361 0.00000222
-0.07196896 0.66580238 -0.00000007
-0.07341028 0.21744544 0.14724258
-0.35832112 -0.05063274 -0.00000003
-0.29846109 -0.55351252 0.00000000
-0.14567861 -0.74430818 0.00000000
-0.08609543 0.03527430 0.00001017
-0.01329331 -0.42377024 0.00000000
-0.05611766 0.51971814 0.11255242
-0.74033600 -0.24399461 -0.00000131
-0.06290421 -0.77800598 0.12617006
-0.34766017 -0.50032756 0.69732084
-0.34622920 0.33791513 0.00000107
-0.29871742 -0.62302436 0.59915299
-0.13249373 -0.58395523 0.26574914
-0.21042711 -0.08908124 0.42206504
-0.26853094 -0.20486924 0.53860760
-0.00160592 -0.39327620 0.00322107
-0.05762332 0.54693947 0.11557366
-0.07567465 0.38586641 0.00000000
-0.09674717 -0.20670413 0.19405053
-0.25922370 0.17815603 0.51993959
-0.02026319 -0.66242364 0.04064288
-0.00234343 0.10711137 0.00470033
-0.72870614 -0.13294635 -0.00000146
-0.63588702 -0.73019441 -0.00000001
-0.13124939 -0.01214963 0.00000000
-0.16214961 0.29134390 0.00000000
-0.38988677 -0.56563406 0.00000000
-0.13569673 -0.63636352 0.27217357
-0.04326298 -0.27714517 0.08677468
-0.66855726 -0.23416365 -0.00000103
-0.05949887 0.43441281 0.11933156
-0.04125894 0.33767836 0.08275508
-0.01944314 0.60599617 0.03899303
-0.08916834 0.32687194 0.17884934
-0.11572623 0.33718345 0.23211848
-0.42787758 -0.10165367 -0.00000023
-0.21134798 0.00315644 0.42390074
-0.58984384 0.01996873 -0.00000114
-0.73178513 -0.58522861 -0.00000054
-0.10834737 0.29142212 0.21730829
-0.18067731 -0.65232035 0.36239332
-0.16544228 0.06555242 0.33182313
-0.16325027 -0.31223083 0.32743905
-0.11000954 -0.51380462 0.00000000
-0.15686789 0.16021696 0.00000000
-0.05541134 -0.66025386 0.00000000
-0.15082642 0.16229586 0.30250981
-0.02703230 0.05198277 0.05422000
-0.13763564 0.57870973 0.00000105
-0.78126054 -0.43699286 -0.00000091
-0.75262353 -0.54181742 -0.00000065
-0.28133608 0.42329645 0.00000089
-0.11223323 0.54422670 0.22511307
-0.07213287 0.34599978 0.14467010
-0.70461652 -0.51107593 -0.00000069
-0.62456771 0.15032171 -0.00000152
-0.30539479 -0.02736578 0.00000000
-0.36022809 0.26585340 0.00000200
-0.46449303 -0.38562714 0.00000000
-0.29803715 -0.29318257 0.59778997
-0.09647979 -0.56830408 0.19351423
-0.17150999 -0.22398719 0.34400597
-0.17070912 0.36646030 0.34240177
-0.05326263 0.05630933 0.10683146
-0.26228420 -0.62926399 0.52607624
-0.06189919 0.16101890 0.12415424
-0.24142589 0.18492848 0.48424275
-0.10575874 -0.43841090 0.21212548
-0.41712344 -0.78046383 0.00000000
-0.28465357 -0.13189623 0.57094626
-0.16422170 -0.27250769 0.32938750
-0.16237379 -0.73617407 0.32568105
-0.17467912 -0.71996213 0.35036245
-0.21885696 -0.32995047 0.00000000
-0.16370281 0.31578308 0.00000479
-0.54933657 0.23732952 -0.00000115
-0.52596750 -0.06528817 -0.00000072
-0.00169570 -0.41959899 0.00340116
-0.46776371 -0.43748189 0.00000000
-0.02720049 0.01665608 0.05455735
-0.41225213 0.34783764 -0.00000096
-0.24156154 0.37369043 -0.00000028
-0.07332994 0.25216130 0.14706825
-0.24576886 -0.46394113 0.49295091
-0.10414692 -0.55546199 0.20889256
-0.10087895 0.47487326 0.20233880
-0.00660410 -0.57184340 0.00000000
-0.25327859 -0.41299323 0.00000000
-0.50136919 -0.39726531 -0.00000002
-0.26781092 0.16585584 0.00000545
-0.24260078 0.05733470 0.48659875
-0.17507012 -0.50609507 0.35114670
-0.00229008 0.55848345 0.00459333
-0.27641157 -0.41509545 0.00000000
-0.10800136 0.46947229 0.21662151
-0.10055672 -0.25145581 0.20169152
-0.21626999 0.31329660 0.43378630
-0.15706412 -0.44385204 0.00000000
-0.03237299 0.34834489 0.06491969
-0.00932768 0.22079619 0.01869135
-0.22294451 0.09471354 0.44716542
-0.11533928 0.23422787 0.23134190
-0.39836117 0.28788905 0.00000090
-0.05258553 0.61365780 0.10547381
-0.13191349 -0.33791619 0.00000000
-0.25283731 0.03322592 0.00000769
-0.08460407 -0.50894784 0.00000000
-0.21832129 -0.20165835 0.43789848
-0.19939293 -0.24687145 0.00000000
-0.25555759 -0.34404522 0.51258540
-0.32489445 -0.65564671 0.65165757
-0.30801712 -0.79080771 0.61780505
-0.30709672 -0.40365943 0.61596092
-0.37464785 -0.54893190 0.00000000
-0.16830570 0.09538075 0.00000803
-0.33529980 -0.70059272 0.00000000
-0.58696450 -0.65699679 0.00000000
-0.30778286 -0.45350891 0.61733694
-0.17779831 -0.60480135 0.35661877
-0.06434326 0.26959474 0.00000000
-0.11043488 0.14982994 0.22149024
-0.04573984 0.12379315 0.00000000
-0.13294302 0.35221163 0.26665152
-0.02338719 0.06774480 0.00000000
-0.07591817 0.00809988 0.15225208
-0.05995126 -0.02531495 0.00000000
-0.18662332 0.38110893 0.37432212
-0.24989917 -0.53065978 0.50123508
-0.01265614 0.66219227 0.02538503
-0.06573938 -0.61625659 0.00000000
-0.51287699 -0.23767711 -0.00000035
-0.05541287 -0.41544621 0.11114430
-0.00977185 -0.62483950 0.00000000
-0.01415432 0.47148055 0.02838049
-0.15608297 0.00260265 0.31304716
-0.00364941 -0.43197187 0.00731981
-0.11423224 0.33123641 0.22911411
-0.72263634 -0.42422844 -0.00000092
-0.30016192 -0.03096585 0.60205293
-0.41009805 0.13894551 -0.00000058
-0.12115187 0.21125089 0.24298897
-0.55375325 0.10113521 -0.00000113
-0.22493714 0.12160114 0.00000000
-0.39542332 -0.73704353 0.00000000
-0.05598110 0.31726199 0.00000000
-0.04207979 0.69504435 0.08440203
-0.65070417 -0.03105775 -0.00000131
-0.26774849 0.12329513 0.00000611
-0.20419435 0.29020770 0.40956521
-0.15678073 -0.03566529 0.31446284
-0.14935363 -0.16770224 0.29956588
-0.18614546 0.14459562 0.37335393
-0.69832204 -0.25726373 -0.00000111
-0.25354752 -0.10253587 0.50855472
-0.08890657 0.11632326 0.00000000
-0.00127161 0.44989756 0.00253963
-0.14427099 0.44980041 0.28937326
-0.18380798 0.27643610 0.36867472
-0.01218799 -0.48386272 0.02444605
-0.14502118 0.08047642 0.29087635
-0.48011653 -0.06715090 -0.00000052
-0.41158437 -0.30935055 0.00000000
-0.17357911 0.06945872 0.34815703
-0.35677326 -0.46905577 0.00000000
-0.11673819 0.10609564 0.23414749
-0.03742309 0.02982343 0.07506132
-0.20259210 0.34609102 -0.00000006
-0.17117682 0.53515554 0.00000114
-0.65787141 0.12407606 -0.00000161
-0.01558575 0.10274204 0.03126111
-0.26259414 -0.60457563 0.52669798
-0.76684105 -0.42942861 -0.00000093
-0.19564535 0.53121812 -0.00000036
-0.15128638 0.11424860 0.30343046
-0.47904891 0.04977977 -0.00000072
-0.48656959 0.11195405 0.00000215
-0.11540429 -0.37745112 0.23147203
-0.29215621 0.34016099 0.00000207
-0.19053742 0.13074111 0.38217181
-0.04739286 0.05627380 0.09503745
-0.32986574 -0.15808743 0.66163147
-0.28423318 0.08681436 0.00000000
-0.00961384 0.37040424 0.01927001
-0.13101451 0.32536964 0.00000514
-0.16668416 -0.27084277 0.33432658
-0.18328371 -0.09191944 0.00000000
-0.02830040 0.50361345 0.05675574
-0.02691372 -0.47970603 0.05398217
-0.32961082 -0.44870290 0.66111871
-0.41640197 0.29431586 0.00000045
-0.38923177 0.25770643 0.00000158
-0.20365761 0.43343961 0.00000221
-0.04616379 -0.17316778 0.00000000
-0.19150918 0.57944872 0.00000001
-0.04311815 0.26010625 0.08648418
-0.01849078 0.72063645 0.03708796
-0.45222215 0.12577271 -0.00000074
-0.36686676 0.34834145 -0.00000077
-0.00095273 -0.32720729 0.00191093
-0.56522987 0.14366291 0.00000011
-0.26313434 0.08316431 0.00000000
-0.04794144 -0.14248936 0.00000000
-0.51478610 0.06416060 0.00000241
-0.25236663 -0.34827233 0.50618505
-0.27404548 -0.41420853 0.54966759
-0.20699913 -0.39079688 0.00000000
-0.20822051 -0.79539181 0.41763807
-0.22585421 -0.53186641 0.00000000
-0.65905732 -0.60625225 -0.00000033
-0.18050495 -0.35216932 0.00000000
-0.31546870 0.03013926 0.00000000
-0.52152913 -0.55105399 0.00000000
-0.60515170 0.13165279 -0.00000046
-0.79971332 -0.76728218 -0.00000008
-0.08289219 0.56357029 0.00000230
-0.18817638 -0.17693147 0.37743475
-0.06824981 0.36278795 0.13688197
-0.23462340 0.17659391 0.00000581
-0.11235905 0.03740114 0.22534623
-0.00850084 -0.43960326 0.00000000
-0.06370947 0.41960155 0.12778520
-0.69686104 -0.09192332 -0.00000140
-0.25637859 -0.22926226 0.51423264
-0.10318868 -0.68214197 0.20697057
-0.42465027 0.02888121 0.00000473
-0.04923736 0.62380901 0.09875578
-0.02306958 -0.70286819 0.00000000
-0.04310970 0.38716344 0.08645663
-0.60778827 -0.07151131 -0.00000105
-0.35525112 -0.13508167 0.71254866
-0.30203993 0.09763797 0.60582035
-0.76493611 -0.70640511 -0.00000023
-0.02268746 0.62509789 0.04550535
-0.27868108 0.48658114 -0.00000012
-0.62773089 -0.67484625 -0.00000007
-0.31561028 -0.75893589 0.63303520
-0.04952831 -0.70634120 0.09934135
-0.07166222 -0.68346057 0.14373643
-0.28487194 0.00622467 0.57137921
-0.06652640 0.38430456 0.00000000
-0.56557969 -0.08827136 -0.00000084
-0.16145639 0.31793292 0.00000000
-0.18750936 -0.09028049 0.00000000
-0.09709976 0.14003557 0.19475774
-0.16118625 0.42009457 0.32330130
-0.31653778 -0.76262290 0.63489551
-0.51846768 -0.42820323 -0.00000004
-0.35608621 -0.40558625 0.00000000
-0.02879800 0.33914060 0.05776156
-0.07579976 0.45095386 0.15203556
-0.69177773 -0.10010923 -0.00000136
-0.23778409 -0.39192906 0.47693559
-0.08329099 -0.12698132 0.16706082
-0.71138748 -0.40654051 -0.00000090
-0.23088063 0.56909468 -0.00000058
-0.04746613 -0.09734115 0.09520513
-0.17509045 -0.49059102 0.00000000
-0.56092742 -0.38648895 -0.00000030
-0.17962248 -0.09352191 0.36027793
-0.18364926 0.21367325 0.00000000
-0.01662820 -0.04500697 0.00000000
-0.71106876 -0.03973733 -0.00000155
-0.22042215 -0.48769089 0.44211149
-0.14517806 0.13973386 0.29119128
-0.28421767 0.07023805 0.00000666
-0.10288945 0.37317691 0.20637096
-0.18761478 0.53987825 0.00000074
-0.10332945 0.06193672 0.20723540
-0.00357268 0.67909205 0.00716590
-0.28758962 0.00232192 0.57683590
-0.16691011 0.31945726 0.00000469
-0.03487530 0.10881689 0.06993132
-0.52619579 0.11527686 -0.00000104
-0.31631692 0.09739346 -0.00000011
-0.03653312 -0.33323182 0.07327626
-0.30353716 -0.07249942 0.60882271
-0.02643030 0.77118279 -0.00000006
-0.04469933 -0.00007411 0.00000000
-0.06162099 0.20834681 0.00000000
-0.10438161 0.31220615 0.20935440
-0.05542966 0.23693132 0.11116335
-0.74228165 0.01158704 -0.00000109
-0.22437224 0.07841661 0.45002858
-0.14008528 -0.02834047 0.00000000
-0.10386517 -0.41729711 0.00000000
-0.04566368 -0.42711793 0.09158989
-0.08090291 0.24324292 0.16225787
-0.69709607 -0.72206995 -0.00000019
-0.10377863 0.20057176 0.20815386
-0.60303645 -0.31416416 -0.00000060
-0.15908536 0.07565808 0.31908588
-0.20404444 0.54603824 -0.00000042
-0.02010863 -0.27570548 0.00000000
-0.09756906 -0.79496006 0.19569903
-0.16483036 -0.41598094 0.33060832
-0.06695660 -0.10129280 0.13429813
-0.28864972 -0.78149072 0.00000000
-0.00598244 0.68572716 0.01199602
-0.14847996 -0.69875177 0.00000000
-0.52929457 0.01254474 -0.00000087
-0.14866279 0.42026744 0.00000000
-0.12205918 0.19930766 0.24480842
-0.28484199 -0.16922807 0.57132401
-0.30852639 -0.06569100 0.61882999
-0.30467730 0.08241364 0.61110897
-0.16389685 -0.38658728 0.32873593
-0.38258764 0.36982947 -0.00000016
-0.21307763 -0.13681355 0.00000000
-0.37011984 -0.32476464 0.00000000
-0.17510930 0.17243291 0.35121812
-0.15420800 0.04097155 0.30930287
-0.54856712 -0.25966854 -0.00000047
-0.04915374 0.17641379 0.09859006
-0.06072556 -0.15142951 0.00000000
-0.53489991 -0.23296099 -0.00000046
-0.16838997 0.15204205 0.00000000
-0.33549278 -0.36394505 0.00000000
-0.17085442 0.34031153 0.34269310
-0.17582070 0.12191026 0.00000752
-0.16240400 -0.47604993 0.00000000
-0.18950802 0.06284204 0.38009539
-0.43962043 0.08998010 -0.00000062
-0.22995202 0.25643074 0.46122909
-0.20605691 0.03689597 0.41328899
-0.00673918 -0.43181724 0.01351710
-0.55347770 0.16672831 -0.00000005
-0.12502266 0.35660358 0.25075914
-0.19712175 0.24600211 0.39537490
-0.00721151 -0.63389323 0.01446448
-0.12078067 -0.58728062 0.24225569
-0.03966530 0.62281330 0.07955557
-0.00639541 0.54886444 0.01282759
-0.01375691 0.30218392 0.02757805
-0.02888978 -0.55127700 0.05794565
-0.29616720 -0.37194053 0.59403892
-0.63312457 0.02160479 0.00000084
-0.25152314 -0.16575414 0.50449400
-0.76790378 -0.14217681 -0.00000161
-0.70504583 -0.37649977 -0.00000093
-0.56072000 0.07138443 -0.00000111
-0.23721836 -0.51755392 0.47580047
-0.41201164 0.09913771 0.00000380
-0.05448034 -0.36708011 0.10927388
-0.30384357 -0.21585634 0.00000000
-0.17013849 -0.17891697 0.34125509
-0.11484650 -0.66961220 0.23035324
-0.29213090 -0.73177670 0.58594144
-0.01946017 -0.76581512 0.00000000
-0.03128918 0.21829771 0.00000000
-0.10396469 0.37960299 0.00000000
-0.01111917 0.45462355 0.00000501
-0.00003372 -0.71612884 0.00000000
-0.34539011 -0.27684587 0.69276907
-0.65783467 -0.79598489 0.00000000
-0.10605954 -0.34923993 0.21272881
-0.21281781 0.00436618 0.42684905
-0.57140041 0.15578792 -0.00000021
-0.36624886 0.26636331 0.00000188
-0.14098026 -0.21021620 0.28277100
-0.04467940 -0.74461384 0.08961566
-0.17099853 -0.30012899 0.00000000
-0.09662339 0.38423326 0.19380273
-0.15787998 0.25766753 0.31666211
-0.55744995 0.23575991 -0.00000128
-0.17669612 -0.77118904 0.35440805
-0.22306278 -0.14605695 0.44740907
-0.21084706 -0.46882769 0.42290626
-0.22754285 -0.63222235 0.00000000
-0.06285516 0.61324054 0.12607234
-0.45186863 0.32487929 -0.00000074
-0.37880992 0.21178131 -0.00000058
-0.15362132 0.31827905 0.30812733
-0.11906894 0.20997382 0.23881087
-0.13819935 0.21644450 0.27719391
-0.07530758 -0.03608397 0.15104810
-0.18230788 0.40878109 -0.00000009
-0.55383093 -0.63023264 0.00000000
-0.13788191 0.00077627 0.00000000
-0.23171340 0.27792364 0.46476211
-0.38298504 -0.57816440 0.00000000
-0.35358097 -0.13690158 0.70919874
-0.09589847 -0.43181001 0.19234824
-0.02198812 0.11108875 0.04410264
-0.28949004 -0.17074607 0.58064694
-0.26477790 0.00220220 0.00000797
-0.07977527 -0.36032405 0.00000000
-0.18360135 -0.40210870 0.00000000
-0.51647459 -0.49743640 0.00000000
-0.01872166 -0.59843600 0.03755094
-0.15240335 -0.24521791 0.00000000
-0.12289894 -0.24685958 0.24650441
-0.36401339 -0.31623375 0.00000000
-0.04209690 0.58630065 0.08443153
-0.07655279 0.01192126 0.15354567
-0.46584709 -0.26471929 -0.00000011
-0.16754420 0.37391305 0.33605186
-0.14789057 -0.77448241 0.00000000
-0.15218551 0.22726097 0.00000629
-0.22059692 -0.07558509 0.44246342
-0.41914506 0.17094130 -0.00000068
-0.21332972 0.19532386 0.42788365
-0.04737149 0.19078333 0.09501532
-0.08566162 0.06211980 0.17179723
-0.10555113 0.03406132 0.21169078
-0.22411110 -0.22719368 0.00000000
-0.01625433 -0.57366170 0.03260211
-0.08628204 0.34326609 0.17306014
-0.03018609 0.33332416 0.06053273
-0.08694938 0.09161387 0.00000931
-0.23836849 -0.73422089 0.47810734
-0.31319549 -0.28496734 0.62819418
-0.75892826 -0.50280415 -0.00000074
-0.21593036 -0.38681500 0.00000000
-0.11706985 0.31279635 0.23480517
-0.16291206 -0.11087066 0.00000000
-0.25868998 -0.25083838 0.51886866
-0.06742726 0.54265839 0.13523875
-0.11699950 -0.07517037 0.00000000
-0.27734364 -0.29948640 0.55628346
-0.01673483 -0.49792611 0.03356586
-0.07334789 0.11498618 0.14709996
-0.09612717 0.04270627 0.19280696
-0.47844816 -0.53812355 0.00000000
-0.38410278 -0.24873096 0.00000000
-0.51014712 -0.21864385 -0.00000038
-0.53039052 0.26394440 -0.00000123
-0.69785988 0.04811537 -0.00000084
-0.31985371 0.17974028 -0.00000027
-0.31500721 -0.77610137 0.00000000
-0.09757744 0.51598107 0.19571453
-0.03610966 0.00997480 0.07240413
-0.26379910 -0.24835829 0.52911641
-0.09384226 0.50872402 0.18822202
-0.16661567 0.47022270 -0.00000013
-0.04236705 0.28532583 0.08496383
-0.09434063 0.44575040 0.00000000
-0.18486439 -0.43465382 0.37079155
-0.02160379 0.14314857 0.04333177
-0.22900368 0.23855679 0.45932509
-0.08172963 0.15557189 0.00000000
-0.20093594 -0.17762969 0.00000000
-0.62101945 -0.52957066 -0.00000030
-0.03706450 -0.76406525 0.07434207
-0.37951737 -0.12310889 0.00000000
-0.32655240 -0.22692419 0.65498537
-0.17857974 -0.65903000 0.35818613
