ply
format ascii 1.0
element vertex 1380
property float x
property float y
property float z
end_header
-0.38663282 -0.73448509 0.68339019
-0.17111665 -0.43765473 0.30245577
-0.06898613 -0.78341135 0.12193585
-0.29296429 0.17543309 0.51782934
-0.21826845 -0.42656212 0.00000000
-0.11923183 0.09825162 0.21074721
-0.41512759 -0.35105599 0.00000000
-0.10637252 0.29449206 0.00000598
-0.33895361 -0.57256033 0.00000000
-0.02929371 0.19595871 0.05177785
-0.12974050 0.21851837 0.22931234
-0.42020951 0.26703758 0.00000083
-0.15044328 0.32183246 0.26591563
-0.77303447 -0.18832002 -0.00000153
-0.13347835 -0.12057346 0.00000000
-0.18059582 0.25797768 0.00000541
-0.04750030 0.37490276 0.08394896
-0.19719018 -0.18028018 0.34854181
-0.14637256 -0.03995298 0.25871957
-0.03374198 0.35410335 0.05962913
-0.10248478 0.00872588 0.18112870
-0.23142126 0.12767135 0.00000659
-0.29842480 -0.07731763 0.52748024
-0.05543626 0.45447188 0.09798589
-0.03824875 0.43194374 0.00000000
-0.05759566 -0.29660179 0.00000000
-0.18554722 0.39332628 0.32796416
-0.16073189 -0.19338060 0.28410027
-0.07253011 0.66256417 0.00000090
-0.04340392 0.15796704 0.07670177
-0.14259350 -0.66268004 0.25203992
-0.24414788 -0.57820560 0.43154150
-0.43344444 -0.26500385 0.00000000
-0.69186610 -0.08120196 -0.00000139
-0.27296191 -0.16233666 0.48247279
-0.03340693 0.42625628 0.05903904
-0.18321664 0.61373122 -0.00000041
-0.27565834 0.16722398 0.48723784
-0.20371313 -0.47618310 0.00000000
-0.10151818 0.30616378 0.17943760
-0.66443627 -0.66720846 -0.00000024
-0.25190359 -0.37780104 0.44525024
-0.20234074 -0.53015357 0.35764564
-0.45110672 -0.52252564 0.00000000
-0.73569971 -0.57233448 -0.00000057
-0.29672982 -0.58382178 0.52448252
-0.37580919 -0.64504542 0.66425930
-0.70684991 -0.48703104 -0.00000074
-0.02835242 -0.56011077 0.05011407
-0.21811314 0.03318572 0.38551533
-0.21896640 0.37490252 0.00000290
-0.56918364 -0.44172350 -0.00000023
-0.07169659 0.00032272 0.00000000
-0.10192992 0.26640617 0.18016537
-0.22006200 0.09786650 0.38896235
-0.00875761 -0.50557220 0.00000000
-0.13889381 0.35260526 0.00000462
-0.02497420 0.05342698 0.00000000
-0.12080432 0.35895960 0.00000000
-0.34707453 0.04953755 0.00000587
-0.06334339 -0.21777265 0.00000000
-0.35254815 -0.58632092 0.62314457
-0.13323015 -0.19132188 0.00000000
-0.48448590 0.18300723 -0.00000098
-0.09792970 -0.00525591 0.00000000
-0.31743245 -0.63439216 0.56107544
-0.18841812 0.26318894 0.33303818
-0.07013399 0.48856654 0.12395977
-0.22127839 -0.18864162 0.39111906
-0.08880998 0.06185438 0.00000973
-0.32750004 -0.01645090 0.57887264
-0.30737850 -0.12884612 0.54330626
-0.03009606 -0.32380859 0.05319604
-0.31188622 -0.01847081 0.55127430
-0.71920221 -0.16572823 -0.00000136
-0.41639162 -0.44613064 0.00000000
-0.11104439 -0.43951973 0.00000000
-0.00166937 0.01278827 0.00292749
-0.26360282 -0.41705398 0.46592918
-0.06082377 -0.22967891 0.10750854
-0.21699547 0.10544554 0.00000000
-0.77633226 -0.78293184 -0.00000004
-0.28208526 -0.79560076 0.49859739
-0.18713816 0.26893441 0.33077126
-0.32897585 -0.42033007 0.00000000
-0.41463247 -0.01843586 -0.00000032
-0.55040419 -0.76289615 0.00000000
-0.09236282 -0.28395451 0.16325511
-0.36175172 -0.68045220 0.63941190
-0.27892064 0.22621092 0.49300655
-0.12475142 0.40514807 0.00000404
-0.52762616 -0.37127119 -0.00000018
-0.35180322 -0.20489238 0.62182927
-0.35062720 -0.40237600 0.61974992
-0.45180185 -0.41174452 0.00000000
-0.50719812 -0.13936892 -0.00000050
-0.22769924 -0.78399389 0.40246784
-0.72105780 -0.71167895 -0.00000022
-0.28494787 -0.01136438 0.00000000
-0.38724095 -0.10321604 0.68446787
-0.62498800 0.05198567 0.00000049
-0.45080810 -0.70168822 0.00000000
-0.18967464 0.21887591 0.33525901
-0.34329946 0.40348926 -0.00000076
-0.19187812 0.31501001 0.33915124
-0.26317753 0.14793281 0.46517588
-0.14531289 -0.79641004 0.25684656
-0.28325099 -0.53378177 0.00000000
-0.22488624 0.18944234 0.39749746
-0.21972125 -0.54735285 0.38836642
-0.28121608 0.29528968 0.00000303
-0.13981744 0.24400137 0.24713358
-0.05089052 -0.21126369 0.08995111
-0.14726466 0.42584234 0.26029759
-0.05202359 -0.43311825 0.00000000
-0.29975448 -0.48824730 0.52982911
-0.60329691 0.00879800 -0.00000118
-0.07685562 -0.79304944 0.00000000
-0.02978703 0.48178446 0.05264981
-0.22348553 -0.41024942 0.39501995
-0.29446387 0.24112043 -0.00000027
-0.32821253 -0.36396335 0.58013080
-0.10013299 -0.38650532 0.17698922
-0.29810352 -0.13624364 0.52691216
-0.58350291 -0.58615120 -0.00000004
-0.13173820 0.23287053 0.23285300
-0.42104956 -0.79274530 0.00000000
-0.26670068 0.08468533 0.47140657
-0.36106681 -0.33559347 0.63820276
-0.17511821 0.09202208 0.30951862
-0.64859911 -0.42559779 -0.00000060
-0.29960900 0.17353711 0.52957426
-0.06381395 0.62162945 0.11279281
-0.17573578 -0.23111174 0.00000000
-0.43791940 0.22385255 0.00000121
-0.10531702 -0.10725999 0.18615220
-0.36911059 -0.42722142 0.00000000
-0.19949289 -0.79031501 0.00000000
-0.40338367 -0.55565192 0.00000000
-0.21975401 0.28923266 0.38842629
-0.03149441 0.09998945 0.05564881
-0.12289881 0.16610118 0.00000765
-0.51755890 0.08739053 0.00000196
-0.18498461 0.21485950 0.00000599
-0.33065146 -0.37955068 0.58444170
-0.14664293 0.12352731 0.25919762
-0.07736580 0.22143894 0.00000000
-0.12123673 0.19745666 0.21428023
-0.23446785 0.11654645 0.41443327
-0.00139991 -0.34866959 0.00000000
-0.03224112 0.49149218 0.05698027
-0.08669399 -0.10204927 0.15323522
-0.02668931 -0.04772663 0.00000000
-0.28696628 0.28371078 -0.00000031
-0.22658147 -0.72437902 0.00000000
-0.46851081 -0.63317805 0.00000000
-0.09580559 0.61191410 -0.00000008
-0.15300203 0.59584508 0.00000047
-0.11847663 0.16553750 0.20941235
-0.58303563 -0.67592187 0.00000000
-0.15974324 -0.15140360 0.00000000
-0.37135407 -0.51726051 0.65638523
-0.14415171 -0.32353146 0.00000000
-0.48578026 -0.06997226 -0.00000054
-0.63687857 0.12405658 -0.00000094
-0.07018776 -0.24083205 0.12405978
-0.01293664 0.15241315 0.02284765
-0.42863331 -0.75893660 0.00000000
-0.15647285 -0.53403975 0.27657226
-0.51922348 -0.63609638 0.00000000
-0.22332064 -0.70389054 0.39472849
-0.11679999 0.54619237 0.20644943
-0.19739743 0.31734307 0.34890738
-0.26945407 -0.75811119 0.47627125
-0.50342913 0.16113448 0.00000100
-0.14794760 0.28884107 0.00000544
-0.30589708 -0.31984831 0.54068710
-0.01069721 0.36670169 0.01889557
-0.00381837 -0.16239000 0.00674913
-0.33734541 0.06988297 0.59627386
-0.14596719 -0.64893373 0.25800307
-0.03089219 0.75275073 -0.00000005
-0.47374368 0.16639234 -0.00000090
-0.29558828 0.42902537 -0.00000061
-0.00112027 -0.49725928 0.00198013
-0.67148925 0.03240597 -0.00000151
-0.30006765 0.03617573 0.00000693
-0.17886579 -0.08833336 0.31615271
-0.11525313 -0.63396471 0.20371469
-0.30363144 0.37433899 -0.00000054
-0.19722835 0.37871221 -0.00000010
-0.08894452 -0.47670471 0.15721312
-0.29424769 -0.76658114 0.00000000
-0.30999349 0.21779057 -0.00000029
-0.30135890 -0.08018288 0.00000000
-0.00049780 0.68593084 0.00087654
-0.64331447 -0.67386688 -0.00000014
-0.25481099 0.18294543 0.45038820
-0.51408099 0.00825378 0.00000335
-0.03100111 0.61333143 0.05479204
-0.09418732 -0.61975251 0.16647999
-0.01517538 0.54815439 0.00000000
-0.21042510 -0.34661184 0.37193510
-0.00495990 0.52686571 0.00000402
-0.21903301 -0.78159824 0.38714993
-0.08135377 -0.76516885 0.14379617
-0.01966864 -0.30391326 0.03476513
-0.55019347 -0.14501976 -0.00000068
-0.13442605 -0.67550651 0.23760362
-0.04762068 0.03263908 0.08417153
-0.59073599 0.05895977 -0.00000121
-0.04335086 0.22974804 0.07661011
-0.27058600 -0.12575129 0.47827337
-0.28606727 -0.29982282 0.50563682
-0.33433738 -0.54702345 0.59095619
-0.24706702 0.29815969 0.43670366
-0.18174765 -0.21194841 0.32124651
-0.15789600 -0.52062123 0.00000000
-0.15452240 -0.18102964 0.00000000
-0.60158078 -0.77710802 0.00000000
-0.32466822 -0.47797187 0.57386563
-0.23769822 -0.48403810 0.42014147
-0.11154496 -0.63055257 0.19716034
-0.13967204 -0.14843392 0.00000000
-0.08559020 0.36982247 0.15128423
-0.04014111 0.38349253 0.07094110
-0.28446276 -0.09479672 0.50280146
-0.42594402 0.36581525 -0.00000093
-0.08870447 0.31889138 0.00000588
-0.00046341 0.79822637 0.00081906
-0.27838508 0.18780470 0.49205837
-0.78053103 -0.60087488 -0.00000050
-0.24750689 -0.38621189 0.00000000
-0.45262257 0.08371191 0.00000327
-0.15584140 -0.33445532 0.27545613
-0.24879477 -0.12846828 0.43975609
-0.05803619 0.30577618 0.10258137
-0.02074485 -0.60711957 0.00000000
-0.12703894 0.21627351 0.22454673
-0.03726223 0.28460058 0.06586253
-0.34995363 -0.39679156 0.61855936
-0.10196164 0.65137225 -0.00000017
-0.06333885 0.54694001 0.11195050
-0.30250783 0.49328816 -0.00000069
-0.30683880 -0.49745399 0.00000000
-0.18573074 0.11195726 0.00000752
-0.20333564 -0.27032610 0.35940417
-0.14646355 -0.16638219 0.25888040
-0.48421882 0.22528238 -0.00000105
-0.00632307 0.45243397 0.01116637
-0.08542777 0.16978422 0.00000816
-0.17648672 0.13655534 0.31193912
-0.13217219 0.11888713 0.23361983
-0.11359189 0.50592583 0.20077928
-0.49831126 0.28045663 -0.00000121
-0.54951647 -0.39933432 -0.00000023
-0.13493412 0.36418536 0.00000450
-0.08858034 0.09446716 0.15656942
-0.11921520 -0.09321469 0.21071781
-0.42751574 -0.56469401 0.00000000
-0.25057860 0.02453901 0.44290162
-0.16605513 0.21651478 0.29351013
-0.23087406 0.27891485 0.40808002
-0.37600691 -0.59425844 0.66460901
-0.38152824 -0.68572217 0.00000000
-0.63019561 -0.32732341 -0.00000070
-0.11997701 -0.54685884 0.21206434
-0.02314152 0.04003465 0.04088246
-0.06576558 0.61539704 0.11624234
-0.15279284 -0.60303584 0.27006768
-0.21699033 0.43789854 -0.00000029
-0.16696433 -0.18490745 0.29511638
-0.35695840 0.03930247 0.63094222
-0.28966704 0.14253867 0.51199907
-0.18109224 0.44538360 0.00000245
-0.10828045 0.08730516 0.00000000
-0.77252952 -0.44808810 -0.00000088
-0.21110307 0.46724806 -0.00000031
-0.44679364 -0.68920597 0.00000000
-0.03667126 0.28666696 0.06480494
-0.11800022 0.39529884 0.00000000
-0.09292517 0.32023028 0.00000579
-0.33684640 0.32427763 -0.00000060
-0.41382473 0.22053020 0.00000173
-0.04171588 -0.17579037 0.07373455
-0.21825707 -0.33889240 0.00000000
-0.34332042 -0.35555481 0.60683492
-0.77184424 -0.53451176 -0.00000066
-0.43875565 -0.69686694 0.00000000
-0.57124662 0.07829668 -0.00000116
-0.34020220 -0.59319373 0.00000000
-0.02589516 -0.28656555 0.04577076
-0.21682117 -0.07132551 0.38324108
-0.44778549 -0.61037175 0.00000000
-0.24956364 0.41233605 0.00000168
-0.09349646 -0.08207045 0.00000000
-0.73938718 0.02012384 -0.00000117
-0.16858846 -0.07211729 0.29798709
-0.28778416 -0.42579468 0.50867109
-0.06632218 -0.10844973 0.11722720
-0.04414014 -0.08404975 0.07801953
-0.27938121 -0.79296864 0.00000000
-0.15995514 0.37532461 0.00000000
-0.31176952 -0.43803365 0.00000000
-0.19004152 -0.27854969 0.33590628
-0.36570578 -0.44696743 0.00000000
-0.62002770 -0.20729410 -0.00000087
-0.27686034 0.01286296 0.48936411
-0.25193758 -0.41682082 0.00000000
-0.41684119 0.24999616 -0.00000081
-0.02749358 0.40239593 0.04858590
-0.09695352 -0.65468574 0.17136937
-0.08586007 -0.69475266 0.15176124
-0.00413733 0.13071081 0.00731291
-0.51156693 -0.75887119 0.00000000
-0.21204861 -0.64984213 0.37480471
-0.03000331 0.08701540 0.00000000
-0.06127547 -0.53334362 0.10830694
-0.01500715 -0.72050990 0.00000000
-0.34426618 -0.60070834 0.60850573
-0.15673665 -0.79203114 0.27703852
-0.10397703 -0.02402382 0.00000000
-0.15194028 -0.56137630 0.26856075
-0.61171511 -0.03532360 -0.00000113
-0.16451435 -0.20352235 0.00000000
-0.05500862 0.38482088 0.00000540
-0.01931789 -0.11210345 0.03414518
-0.22165205 0.31807739 0.39178033
-0.38275941 0.27875117 0.00000136
-0.22994777 0.00930329 0.40643365
-0.11845800 0.57106806 0.00000155
-0.06169838 0.17168053 0.10905444
-0.48927553 0.10446186 0.00000222
-0.07972292 -0.09286969 0.14091357
-0.22184105 -0.18816409 0.00000000
-0.20513239 0.03782727 0.36258086
-0.09019893 0.50576591 0.15943087
-0.03237964 -0.23838124 0.00000000
-0.05902862 0.62086946 0.10433592
-0.17810338 0.09584660 0.00000000
-0.07570521 -0.07177254 0.13381211
-0.04523835 0.58171394 0.07995686
-0.02684996 0.09613221 0.00000000
-0.46218307 -0.12647577 -0.00000033
-0.27854129 0.17738365 0.49233586
-0.62357005 0.16837778 -0.00000142
-0.26677256 -0.53635547 0.00000000
-0.15728261 -0.51594627 0.27800353
-0.01501434 0.16989095 0.02652071
-0.56842531 -0.61837134 0.00000000
-0.23337060 -0.74332815 0.41249222
-0.21349788 -0.69703347 0.00000000
-0.07961649 0.33387341 0.14072544
-0.18146434 0.12287518 0.00000742
-0.04231961 0.70935689 0.00000070
-0.43593947 0.10714987 0.00000320
-0.41865445 -0.17022453 -0.00000007
-0.36881812 -0.12146083 0.00000000
-0.15280542 -0.48683743 0.27008992
-0.14693308 0.07953485 0.25971031
-0.08584156 0.07363520 0.15171205
-0.08215406 -0.67140448 0.00000000
-0.08199587 0.18141366 0.14491761
-0.23617082 -0.38419067 0.41744171
-0.10798222 -0.49566769 0.00000000
-0.20756374 0.05714932 0.36686881
-0.64004015 0.07543944 -0.00000019
-0.24120424 -0.61591297 0.00000000
-0.13173143 0.62829101 -0.00000026
-0.34188664 0.23105861 0.00000294
-0.03289737 -0.35647318 0.00000000
-0.04166544 0.28437464 0.07363257
-0.33185433 -0.20238302 0.00000000
-0.28724423 0.24916994 0.00000369
-0.24143873 0.11222297 0.00000000
-0.29124319 -0.44570336 0.51478504
-0.02048889 -0.57736786 0.03621496
-0.14219876 -0.33988363 0.25134220
-0.19266872 0.06728460 0.34055069
-0.09771211 -0.13806647 0.00000000
-0.44275871 -0.14037524 -0.00000023
-0.31254510 -0.10433169 0.55243860
-0.04675249 0.21722244 0.00000804
-0.52706446 -0.33022441 -0.00000025
-0.03492708 -0.25336203 0.06173507
-0.00822756 0.10649263 0.01454255
-0.14597388 0.21795895 0.00000000
-0.22259054 0.27246816 0.00000454
-0.23764002 -0.22801113 0.42003906
-0.68617576 -0.46200537 -0.00000070
-0.10509500 0.68668510 -0.00000013
-0.45244612 0.11455083 0.00000276
-0.25236756 -0.27840263 0.00000000
-0.56664365 -0.13726143 -0.00000076
-0.56926418 -0.62788589 0.00000000
-0.31300359 -0.40457288 0.00000000
-0.53546966 -0.17003490 -0.00000057
-0.36714277 -0.73206507 0.64894062
-0.21763732 -0.23473940 0.38468309
-0.16274710 0.11236074 0.28765189
-0.32367741 -0.43977763 0.00000000
-0.19396243 0.40202941 0.00000292
-0.01851971 -0.48268052 0.03273436
-0.17233472 -0.75264383 0.00000000
-0.08691714 -0.03094268 0.15362965
-0.28868386 -0.03988635 0.00000000
-0.35649024 -0.67162401 0.63011203
-0.04152294 0.65612714 0.07339193
-0.67936314 0.09086607 -0.00000165
-0.06892711 -0.41864345 0.00000000
-0.47956763 -0.64109701 0.00000000
-0.50356065 -0.74640800 0.00000000
-0.09944516 -0.75118456 0.17577345
-0.11675149 0.46579569 0.20636393
-0.71887761 -0.01780658 -0.00000162
-0.11788039 0.11230178 0.20834505
-0.27446766 -0.44202589 0.00000000
-0.30129411 0.15464737 0.00000499
-0.15761487 -0.05160899 0.27859082
-0.55955418 0.22772534 -0.00000119
-0.04689068 -0.30863486 0.00000000
-0.43885583 -0.29629255 0.00000000
-0.58076119 -0.75626996 0.00000000
-0.54356538 0.04543821 0.00000217
-0.52914035 0.24598529 -0.00000091
-0.23445539 -0.52893991 0.00000000
-0.22056503 -0.01523315 0.38985876
-0.09626175 0.54672152 0.00000235
-0.34151446 0.00285069 0.00000676
-0.63648212 0.07778522 -0.00000016
-0.79442403 -0.38936428 -0.00000103
-0.34544703 0.16303597 0.00000401
-0.18282849 0.26747920 0.32315821
-0.02077038 0.62077826 0.00000000
-0.20881375 0.30279898 0.36908660
-0.15407964 0.32619528 0.27233829
-0.15815057 -0.66581276 0.00000000
-0.09670723 0.53751184 0.00000000
-0.11509309 0.15955590 0.20343181
-0.35356749 -0.32364551 0.62494731
-0.37432319 -0.76178457 0.66163221
-0.32736122 -0.50161714 0.00000000
-0.34929329 -0.19909785 0.61739286
-0.44320951 -0.38511029 0.00000000
-0.44332850 0.35548823 -0.00000109
-0.12311363 0.07752320 0.00000000
-0.14300078 0.53969532 0.00000160
-0.53337081 -0.77821433 0.00000000
-0.28435529 -0.14135605 0.00000000
-0.37645108 -0.71698914 0.66539356
-0.10141278 0.16841998 0.17923855
-0.21239805 -0.57735311 0.00000000
-0.12097811 -0.65053911 0.21383382
-0.16409220 -0.60030666 0.29003977
-0.03596230 0.16123569 0.06354807
-0.22258309 -0.74670323 0.00000000
-0.09121105 0.48352465 0.00000000
-0.06849571 0.13381500 0.12105331
-0.76436678 -0.23428158 -0.00000141
-0.62508182 -0.33574723 -0.00000066
-0.43110563 -0.46193190 0.00000000
-0.36221841 -0.75210863 0.00000000
-0.21742347 0.28982298 0.38430693
-0.71746409 -0.06932072 -0.00000153
-0.23848381 0.49812945 -0.00000048
-0.23948698 0.32236226 0.00000338
-0.00195691 -0.17217108 0.00345893
-0.39058889 -0.77589250 0.69038255
-0.49066849 0.22780766 0.00000014
-0.19184550 0.11936254 0.33908703
-0.31968437 0.28999171 -0.00000046
-0.66547179 -0.53160125 -0.00000049
-0.32479599 -0.04551122 0.00000000
-0.26321506 -0.71739661 0.46524354
-0.65029066 -0.05000755 -0.00000127
-0.08032251 -0.65509130 0.14197336
-0.75925484 -0.02640579 -0.00000178
-0.07398728 -0.54996114 0.13077558
-0.22700326 -0.04184683 0.40123862
-0.23112126 -0.07672066 0.40851731
-0.19673844 0.12066020 0.00000000
-0.02438412 0.49160818 0.04309994
-0.34595455 0.09580158 0.61149241
-0.12914440 0.49832467 0.22826805
-0.18585001 -0.48449854 0.32849761
-0.02846057 0.52445863 0.05029875
-0.23392691 -0.13146167 0.41347626
-0.71936728 -0.01135264 -0.00000164
-0.05407134 0.66594729 0.09557380
-0.23276808 -0.50791515 0.41142723
-0.00707915 0.64766650 0.01251270
-0.22497411 0.29702726 0.00000408
-0.24631793 -0.03287516 0.43537846
-0.39462895 0.17021560 0.00000294
-0.03483861 0.56997182 0.06157869
-0.03881171 0.29568308 0.00000000
-0.52037124 -0.76469482 0.00000000
-0.11058170 0.36723564 0.19545812
-0.43044349 0.15015598 -0.00000069
-0.14833490 -0.45092300 0.26218809
-0.04099604 0.43121663 0.07246220
-0.28782374 -0.11010376 0.50874214
-0.45761790 -0.05733654 -0.00000044
-0.40320288 -0.64055155 0.00000000
-0.23631872 0.43256210 0.00000160
-0.23300153 0.29740655 0.41184209
-0.05665707 0.67857257 0.10014427
-0.24461494 -0.51841938 0.43236705
-0.01182317 0.55642105 0.02089795
-0.32885989 0.21010403 -0.00000036
-0.78491629 -0.32732665 -0.00000118
-0.27050877 -0.09336138 0.47813697
-0.13466360 0.03259741 0.00000000
-0.17865683 0.06441438 0.00000000
-0.17301229 0.39114151 0.30580793
-0.07067264 -0.55012680 0.12491682
-0.14193793 -0.01235274 0.25088117
-0.00097469 -0.35736674 0.00000000
-0.14946333 0.58711872 -0.00000026
-0.00884737 0.10795761 0.01561812
-0.00131486 -0.09435045 0.00232407
-0.00528565 0.70056759 0.00933996
-0.13528930 0.22043590 0.00000000
-0.25835103 0.39359335 -0.00000038
-0.06604071 -0.17478040 0.00000000
-0.02150297 -0.43147138 0.00000000
-0.23308820 -0.15480358 0.00000000
-0.24486680 -0.25455635 0.43281273
-0.22926897 0.08769840 0.40524383
-0.02686344 -0.65134319 0.04748225
-0.20858622 0.27021900 0.00000000
-0.34582877 -0.76197402 0.61126697
-0.29445989 -0.11993132 0.00000000
-0.23086637 0.17352576 0.40806763
-0.32465807 -0.44079713 0.57384783
-0.63208148 -0.27155596 -0.00000080
-0.13502118 0.11960464 0.23865553
-0.12162423 -0.22716512 0.00000000
-0.55075194 -0.31353643 -0.00000038
-0.19017768 0.12699516 0.33614784
-0.16978807 0.43317745 -0.00000008
-0.30508302 0.35413312 -0.00000051
-0.02790053 0.49288259 0.04930789
-0.04242791 0.33574555 0.07499309
-0.23450621 -0.31867050 0.00000000
-0.52870441 -0.63640754 0.00000000
-0.04966214 0.46606054 0.08777988
-0.38306228 -0.74870729 0.00000000
-0.32247304 -0.25199964 0.56998631
-0.04734073 -0.47228343 0.08367671
-0.65034117 -0.79309620 0.00000000
-0.54906690 0.19701363 -0.00000047
-0.39885636 -0.61554449 0.00000000
-0.49221608 -0.61601224 0.00000000
-0.21710194 0.06710416 0.38372905
-0.54587007 -0.49836308 -0.00000003
-0.63247426 -0.72233183 -0.00000001
-0.09370900 0.61734955 -0.00000008
-0.11127663 0.14727663 0.00000000
-0.07699510 0.46769113 0.13609219
-0.11473993 -0.77187175 0.00000000
-0.42801746 -0.52413321 0.00000000
-0.27482148 -0.09407031 0.48575994
-0.17195852 0.43019448 0.30394484
-0.08799273 0.09919475 0.15553081
-0.15862804 -0.72182151 0.28038165
-0.50384994 -0.31732618 -0.00000018
-0.07503603 0.61509791 0.00000000
-0.11054844 -0.18986710 0.19539895
-0.39148156 -0.34330904 0.69196229
-0.22080641 0.19958373 0.39028615
-0.14333262 -0.04377631 0.00000000
-0.15969398 -0.40964033 0.28226573
-0.23845164 -0.30593264 0.42147338
-0.36502439 -0.63146132 0.64519671
-0.16171853 -0.26793106 0.28584421
-0.16847067 0.21425978 0.29777974
-0.40508585 -0.70935128 0.00000000
-0.09080572 0.28243831 0.16049288
-0.08119155 0.35946217 0.14350944
-0.42809693 -0.59243526 0.00000000
-0.09063333 0.51291978 0.16019871
-0.37294894 -0.19633796 0.65920561
-0.43811775 -0.62154166 0.00000000
-0.16279126 0.10229355 0.00000000
-0.45156903 -0.79781347 0.00000000
-0.37197744 -0.42760998 0.65748747
-0.74154664 -0.06866253 -0.00000163
-0.39181062 -0.76083565 0.69254207
-0.06882334 0.15294503 0.00000000
-0.69303947 -0.10142909 -0.00000136
-0.20675570 -0.11747381 0.00000000
-0.03798422 0.29658861 0.00000000
-0.01309322 0.48794342 0.02313435
-0.58618142 0.07035710 -0.00000121
-0.05361063 0.01757801 0.00001093
-0.51828122 0.18890908 -0.00000113
-0.70158802 0.03458823 -0.00000164
-0.08382582 0.59670404 0.00000178
-0.21552635 0.26080909 0.38095356
-0.10833252 0.02488640 0.00000000
-0.06910349 0.08044042 0.12214329
-0.18494436 0.17109557 0.00000664
-0.10740553 -0.12887356 0.18984373
-0.18545973 0.32005969 0.00000440
-0.02569139 0.31210665 0.04539766
-0.49784615 -0.49081454 0.00000000
-0.65046010 -0.56390964 -0.00000036
-0.69695289 0.09403533 -0.00000159
-0.03141056 0.11388214 0.05550100
-0.08119064 0.48182941 0.00000000
-0.31105656 -0.07465988 0.54980762
-0.13393681 0.63444714 0.00000019
-0.09786866 -0.33510654 0.17298692
-0.30371809 0.00778016 0.00000730
-0.22564587 0.06130583 0.39883971
-0.11621028 0.47540065 0.20540468
-0.23285778 0.48451228 0.00000080
-0.54953426 0.13991298 -0.00000118
-0.22766536 0.02818501 0.40239984
-0.52439015 0.19793659 -0.00000117
-0.04694613 -0.30912268 0.08297924
-0.29363148 -0.45951425 0.51900644
-0.23550578 -0.47853415 0.41626623
-0.35231264 -0.58193272 0.62272831
-0.32616049 0.02209696 0.00000673
-0.03734574 -0.30797554 0.06601014
-0.20708730 -0.07285472 0.36603588
-0.33389454 -0.77986562 0.59017259
-0.34042868 -0.71724524 0.00000000
-0.22194895 0.23331128 0.39230229
-0.20702460 0.24816032 0.36592223
-0.27763006 0.21268918 0.00000448
-0.70173896 -0.44304858 -0.00000080
-0.06287266 -0.47196831 0.11113003
-0.09026471 0.35760042 0.00000527
-0.24606788 -0.55443571 0.43493519
-0.30691273 -0.04062339 0.00000000
-0.05397953 0.37887213 0.00000000
-0.01418411 -0.14385890 0.02507101
-0.34179877 -0.51412449 0.00000000
-0.01976727 0.36585071 0.03493947
-0.28288004 -0.38143298 0.00000000
-0.29678924 -0.26062695 0.52458866
-0.07111746 0.12729253 0.12568733
-0.38018475 0.38167540 -0.00000031
-0.24153016 0.28081031 0.42691689
-0.11043562 -0.47192072 0.19519953
-0.12328482 0.16939940 0.00000760
-0.23213701 -0.74709210 0.41031180
-0.26017016 -0.45416462 0.45986162
-0.34736691 0.07180102 -0.00000020
-0.16851688 -0.01309580 0.29786061
-0.27474996 0.27675789 -0.00000025
-0.11458829 0.03378019 0.00000976
-0.04604120 0.20367137 0.08137974
-0.11164087 0.37990363 0.19732448
-0.01069648 0.48773153 0.00000452
-0.17840317 -0.16828653 0.31533500
-0.01322816 0.13495665 0.02336242
-0.31444107 -0.21106009 0.00000000
-0.25802903 -0.04940659 0.45607845
-0.50480563 0.00216627 -0.00000074
-0.54193386 -0.21178658 -0.00000052
-0.43711630 -0.49893206 0.00000000
-0.14772253 0.42111232 0.26110452
-0.29458822 0.19970283 0.52069977
-0.73051564 -0.20546603 -0.00000134
-0.12110116 0.47599468 0.00000303
-0.15907324 -0.47603613 0.00000000
-0.21364438 -0.76973273 0.00000000
-0.21957601 -0.66195877 0.38810971
-0.15027986 -0.07387937 0.26562588
-0.37021906 -0.43970593 0.00000000
-0.29844805 0.16832452 0.52752143
-0.37711030 0.42043236 -0.00000094
-0.28192628 0.34550513 -0.00000040
-0.16839041 -0.50588023 0.29763703
-0.04747539 0.13073455 0.00000932
-0.15843523 -0.22169255 0.00000000
-0.15187397 -0.42477185 0.26844354
-0.52346764 0.17273498 0.00000043
-0.19090781 0.16283786 0.00000668
-0.16652876 0.42161722 0.29434681
-0.08606103 0.41709608 0.15211032
-0.22617409 -0.10427308 0.39977280
-0.10195933 0.20323316 0.18021734
-0.48401807 -0.04168201 -0.00000058
-0.58887241 0.12672320 -0.00000132
-0.09118813 -0.62703043 0.00000000
-0.30273522 0.23223879 -0.00000029
-0.37279191 -0.08470181 0.65892843
-0.23948542 0.24340990 0.42330044
-0.36773868 -0.12740083 0.64999640
-0.08080339 -0.63911504 0.00000000
-0.12430232 0.59883451 0.00000097
-0.32545128 -0.62380438 0.57524923
-0.35658426 -0.02067629 -0.00000007
-0.15600869 -0.37712217 0.27575183
-0.12957537 -0.64684582 0.22902984
-0.06824963 0.20042360 0.00000000
-0.30924533 0.10813833 -0.00000010
-0.20600761 0.21711312 0.36412847
-0.56173511 -0.66899654 0.00000000
-0.14428122 -0.70389745 0.00000000
-0.53229214 0.07367997 0.00000191
-0.60007776 -0.25096906 -0.00000070
-0.16040525 -0.17842123 0.28352294
-0.25791299 -0.18633927 0.45587287
-0.09141416 0.08798622 0.00000930
-0.08922874 -0.12833138 0.15771551
-0.01903849 0.42417870 0.03364132
-0.34972305 -0.28093669 0.61815220
-0.73954497 -0.22791388 -0.00000134
-0.08037380 -0.17119999 0.14206402
-0.19351462 0.50392980 -0.00000030
-0.12165725 0.18061596 0.21502304
-0.07272365 -0.73113667 0.12854207
-0.14058574 -0.71171744 0.00000000
-0.70236368 0.04723227 -0.00000167
-0.05562879 0.14029812 0.09832619
-0.65930088 -0.40987685 -0.00000067
-0.11012463 -0.76566181 0.19464986
-0.10877962 -0.31532260 0.00000000
-0.05008138 0.65945465 0.08852129
-0.17214404 0.49670857 0.00000176
-0.60586202 0.00150066 -0.00000117
-0.52494335 0.04112788 -0.00000090
-0.29604618 0.03909992 0.00000000
-0.13039333 0.37347544 0.23047150
-0.31757398 -0.72683586 0.56132528
-0.02246490 -0.08402831 0.03970765
-0.00351249 0.65639284 0.00000000
-0.19377606 -0.16426119 0.00000000
-0.10923558 -0.59361998 0.00000000
-0.39362174 -0.58022114 0.69574412
-0.28085508 0.15156394 0.49642554
-0.26427714 0.50103042 -0.00000008
-0.59385024 -0.06961274 -0.00000100
-0.62013142 -0.31788551 -0.00000067
-0.08516147 -0.29814956 0.15052643
-0.06739422 -0.29802277 0.00000000
-0.21935447 0.16209625 0.38771965
-0.20669340 -0.05732704 0.00000000
-0.03077030 -0.03641615 0.05438778
-0.12434988 0.18240364 0.00000000
-0.21630589 -0.72592177 0.38232963
-0.49063030 0.19175489 -0.00000102
-0.39491778 0.06108061 -0.00000038
-0.30945824 -0.56407042 0.54698080
-0.31347542 0.04966821 0.55408353
-0.36563397 0.17543752 -0.00000046
-0.03116140 0.63409833 0.05507907
-0.20519613 0.57966109 -0.00000026
-0.31827895 -0.60145695 0.56257179
-0.66182099 0.06519491 -0.00000153
-0.15894232 0.41010431 0.28093648
-0.07258062 0.24621962 0.00000000
-0.17300487 -0.07889355 0.00000000
-0.28907505 -0.13727147 0.51095380
-0.39779793 -0.51096374 0.00000000
-0.09140881 -0.52980415 0.00000000
-0.06527944 -0.12369025 0.11538412
-0.08391436 -0.23344802 0.14832211
-0.23285577 0.23390582 0.41158422
-0.11899612 -0.70577599 0.00000000
-0.57156836 0.00553710 0.00000229
-0.07635895 -0.61352703 0.13496760
-0.31755313 0.00922323 0.00000707
-0.32671343 -0.13567393 0.57748184
-0.62291838 0.07159299 -0.00000137
-0.24485152 0.25020473 0.43278590
-0.01453169 0.57144663 0.02568537
-0.24015551 -0.15899411 0.00000000
-0.19041471 -0.15299684 0.33656589
-0.10497876 0.44919075 0.18555488
-0.31849487 -0.38074718 0.00000000
-0.26008938 -0.66771544 0.45971877
-0.00378987 0.49865215 0.00669875
-0.03529727 0.73928261 -0.00000004
-0.04367298 -0.62860475 0.00000000
-0.33131474 -0.37333566 0.00000000
-0.10484250 -0.38145852 0.00000000
-0.15295630 0.01043354 0.27035661
-0.25548436 -0.51205424 0.45157921
-0.09835893 -0.03138802 0.17385349
-0.19554965 0.27825041 0.00000000
-0.21664507 -0.55052367 0.38292914
-0.09255253 0.61126826 0.16359134
-0.48345677 -0.38141929 0.00000000
-0.19103153 -0.42666843 0.33765615
-0.49517127 0.17756333 -0.00000101
-0.11076578 -0.32210870 0.00000000
-0.11220384 0.22445644 0.19832495
-0.02685320 -0.47030534 0.00000000
-0.13572984 0.22200880 0.23989933
-0.58184451 -0.29770562 -0.00000054
-0.76964845 -0.56970631 -0.00000058
-0.14130985 0.52515732 0.00000188
-0.38402118 -0.28990250 0.67877596
-0.23386921 -0.72691926 0.41337353
-0.39298745 -0.00356643 0.69462552
-0.04490681 0.63266937 0.07937254
-0.05703170 0.32373648 0.00000000
-0.36356818 -0.30024871 0.64262420
-0.15809453 0.26400523 0.27943947
-0.01547968 0.49033294 0.02735272
-0.06340728 0.03489738 0.11207500
-0.18400292 0.40463007 -0.00000009
-0.19598553 0.08510265 0.00000777
-0.36343935 0.05943158 0.64239774
-0.00264834 0.26315312 0.00468105
-0.17845128 0.28956649 0.31541685
-0.19120546 -0.08468018 0.33796377
-0.28266059 -0.64370915 0.49961432
-0.23136579 -0.58154681 0.00000000
-0.40530065 -0.15184694 -0.00000005
-0.33934380 0.09824869 0.59980759
-0.03545344 0.12268905 0.06266543
-0.31036531 -0.38777004 0.54858472
-0.34517250 0.08668539 0.61010974
-0.03381655 0.19645946 0.05975629
-0.77530898 -0.70784636 -0.00000023
-0.27884530 0.16420725 0.49287316
-0.60013715 -0.48073147 -0.00000030
-0.22325888 -0.12217104 0.39461992
-0.15570802 0.24910642 0.27522112
-0.02346250 -0.71606699 0.00000000
-0.12874744 -0.70354913 0.00000000
-0.38865914 0.00119978 0.68697499
-0.45027914 -0.44498924 0.00000000
-0.62942013 -0.23070517 -0.00000086
-0.01173596 0.25977589 0.02074379
-0.14037810 -0.76178586 0.00000000
-0.16862752 0.09371848 0.00000805
-0.20404628 -0.21918142 0.36066025
-0.75366028 -0.71083796 -0.00000022
-0.17148664 0.36877891 0.30311117
-0.05593101 0.60635987 0.09886065
-0.28015014 0.47204768 -0.00000062
-0.50610286 0.15855063 -0.00000103
-0.30278031 -0.11564398 0.53517873
-0.02094723 0.74645800 0.03702493
-0.51155923 -0.15448759 -0.00000050
-0.18219429 0.32771171 0.32203435
-0.31243053 0.09262509 0.00000582
-0.27415137 -0.63605026 0.48457391
-0.39079518 0.16070979 0.00000317
-0.69865742 -0.10155000 -0.00000139
-0.27645329 -0.22908916 0.48864379
-0.38662975 -0.17552623 0.68338722
-0.05344041 -0.29183460 0.00000000
-0.16184992 -0.65852449 0.00000000
-0.17583482 0.17214000 0.00000676
-0.21906530 -0.75836625 0.00000000
-0.68693546 -0.03804690 -0.00000145
-0.03110170 0.29582841 0.05497354
-0.09397371 0.03418502 0.16608529
-0.16980191 0.43256753 0.30013353
-0.41579709 -0.42224015 0.00000000
-0.06778776 0.15532130 0.00000865
-0.34645693 0.07242155 0.61238037
-0.03850940 -0.18043865 0.00000000
-0.00859423 0.11678556 0.01519066
-0.37027883 -0.25850204 0.65448582
-0.34523243 -0.68610013 0.61021326
-0.37481826 0.01441598 0.00000592
-0.65776617 0.10316498 -0.00000158
-0.08241350 0.28669368 0.00000000
-0.22064631 -0.73506854 0.39000150
-0.36461431 -0.19677235 0.00000000
-0.72023927 -0.41933783 -0.00000092
-0.29617720 -0.62075219 0.52350559
-0.08286076 -0.30736945 0.00000000
-0.17362618 0.08160862 0.30688093
-0.15410284 0.27782253 0.00000000
-0.60928094 0.03269082 0.00000112
-0.06912416 0.62933939 0.12217950
-0.32658840 -0.18890355 0.00000000
-0.07959001 -0.48055244 0.14067864
-0.11608018 0.53390539 -0.00000003
-0.63129292 -0.42914402 -0.00000052
-0.13833460 -0.34634886 0.00000000
-0.35580466 0.01337405 0.62890089
-0.36385595 -0.52372616 0.64313192
-0.28296853 -0.05148437 0.50016047
-0.07037689 0.33703617 0.12439408
-0.37142550 -0.34690061 0.65651223
-0.11230208 0.67692608 -0.00000026
-0.47906685 -0.75491080 0.00000000
-0.00402582 0.01272469 0.00709274
-0.54239304 -0.08792563 -0.00000075
-0.03635873 -0.60460341 0.06426556
-0.53047490 -0.13973726 -0.00000060
-0.01760253 0.11521171 0.00000000
-0.32731261 -0.36138841 0.00000000
-0.52910491 -0.75805311 0.00000000
-0.06768835 0.53919763 0.11964221
-0.27367577 -0.63041393 0.48373327
-0.08813341 0.00247485 0.15576102
-0.50155325 0.26888242 -0.00000076
-0.06533771 -0.49021392 0.11548712
-0.01315225 0.61744249 0.00000000
-0.44190893 0.24528045 -0.00000091
-0.30195889 -0.51824624 0.53372542
-0.73491152 -0.60418680 -0.00000049
-0.11953131 -0.25465299 0.00000000
-0.54099345 0.01027557 0.00000280
-0.04942467 0.35658821 0.08736015
-0.32424774 0.06644978 0.57312205
-0.24232908 -0.27214988 0.42832710
-0.43448820 -0.05400061 -0.00000034
-0.06381741 -0.31232095 0.11279992
-0.25296647 -0.00967185 0.44713023
-0.15818707 0.20611502 0.00000652
-0.13984641 0.28855963 0.24718494
-0.00207875 0.42072821 0.00366317
-0.24366740 -0.22313648 0.43069283
-0.64827336 -0.09084251 -0.00000119
-0.72675811 -0.70930907 -0.00000023
-0.01453008 0.04280061 0.02566096
-0.29718480 -0.08110526 0.52528846
-0.16055672 -0.50905835 0.28379066
-0.68604027 -0.45800189 -0.00000070
-0.48843266 -0.62051528 0.00000000
-0.09441354 -0.76079426 0.16687985
-0.11404475 0.02164856 0.00000000
-0.21805565 0.30161929 0.38542438
-0.28080185 -0.25829800 0.49633001
-0.09605723 -0.74739580 0.16978514
-0.29142099 0.23103848 0.00000391
-0.36930329 -0.10599659 0.65276203
-0.09572670 0.13564196 0.16920091
-0.57779390 -0.64189146 0.00000000
-0.23719418 -0.66275117 0.41925055
-0.22054766 0.14668389 0.38982863
-0.01819942 -0.15467192 0.00000000
-0.36622439 0.03149259 0.64731962
-0.22408424 0.32989615 0.39607992
-0.16708291 0.47801989 0.00000217
-0.21875235 -0.52192886 0.38665385
-0.32929752 0.09658748 0.58204914
-0.01723702 0.17677833 0.00000909
-0.58092267 -0.29354978 -0.00000055
-0.03888146 0.29941834 0.06872459
-0.01731840 -0.02543391 0.03061098
-0.06616499 0.37166240 0.11694057
-0.00233256 0.10524111 0.00412289
-0.19449099 0.18032768 0.34376528
-0.07603080 0.04521405 0.13438760
-0.26587065 0.21481467 0.46993854
-0.53341086 -0.37584558 -0.00000020
-0.33226153 -0.59269798 0.58728685
-0.09929665 0.61289428 0.00000122
-0.03133207 -0.18225210 0.00000000
-0.29017481 0.50113924 -0.00000071
-0.20546158 0.58010805 -0.00000027
-0.35430612 -0.40705539 0.62625260
-0.03695179 -0.32155248 0.06531382
-0.20212089 0.49356294 0.00000124
-0.09406254 0.38049534 0.00000487
-0.25940575 -0.32591417 0.45851092
-0.34326035 0.15058693 0.00000426
-0.16270399 -0.02143393 0.28758605
-0.09321967 -0.00164677 0.16476963
-0.04206886 0.68722877 0.00000000
-0.05283803 0.30424060 0.09339342
-0.67652319 0.10274094 -0.00000165
-0.48362030 -0.08998774 -0.00000049
-0.75182136 -0.32737991 -0.00000118
-0.35235316 -0.65952276 0.00000000
-0.14155843 0.38766631 0.25020762
-0.18091381 -0.70542264 0.31977266
-0.17899652 -0.58892141 0.31638377
-0.29236394 -0.49318583 0.00000000
-0.22196974 0.13738134 0.00000000
-0.55917440 -0.52415197 -0.00000005
-0.57622873 -0.02006754 -0.00000101
-0.27688095 -0.74823389 0.48939857
-0.58968684 -0.15637425 -0.00000083
-0.34296073 0.30723704 0.00000165
-0.36645181 -0.02618863 -0.00000010
-0.16519106 -0.53173162 0.00000000
-0.58288296 -0.42242431 -0.00000033
-0.11303538 -0.03581584 0.19979473
-0.13622831 -0.38598090 0.24078920
-0.19613531 -0.27589459 0.00000000
-0.37660539 -0.17553015 0.00000000
-0.05204507 -0.13613695 0.00000000
-0.27159066 -0.36000492 0.00000000
-0.13304414 0.40691697 0.00000000
-0.02276316 0.15023169 0.00000000
-0.70883804 -0.60489083 -0.00000049
-0.01247743 -0.35913592 0.02205437
-0.19041006 0.45616494 -0.00000020
-0.22978022 0.13843356 0.40614181
-0.23681034 -0.74543304 0.00000000
-0.29023958 0.48487645 -0.00000031
-0.09739112 0.32019812 0.00000573
-0.01697877 0.28193145 0.03001068
-0.20421144 0.18731004 0.36095354
-0.43842332 -0.26852463 0.00000000
-0.06023468 0.17230150 0.00000851
-0.36283904 0.04239259 0.64133659
-0.16976056 -0.04041768 0.00000000
-0.66736658 0.06061947 -0.00000047
-0.13608569 0.01754652 0.24053711
-0.20903702 0.50204264 -0.00000037
-0.50954791 -0.46474126 0.00000000
-0.03905592 -0.40125093 0.06903296
-0.01756927 -0.35981229 0.03105441
-0.13990004 0.00536226 0.00000000
-0.12604863 -0.44474340 0.00000000
-0.07328328 0.64085856 0.12953194
-0.63140333 0.02282578 0.00000086
-0.14243785 -0.28516239 0.25176481
-0.38067179 -0.67714372 0.00000000
-0.08425241 0.62372379 0.14892030
-0.07179850 -0.34004331 0.00000000
-0.25477631 0.19029911 0.45032992
-0.19724950 0.03963734 0.34863657
-0.05664285 0.35509497 0.00000582
-0.63041761 0.06659378 -0.00000139
-0.65951871 -0.65480812 -0.00000024
-0.10539297 -0.52386414 0.18628645
-0.35610282 0.38181317 0.00000015
-0.10934253 -0.01540547 0.00000000
-0.18345791 0.16057644 0.32427037
-0.53169442 0.01506652 -0.00000088
-0.74239357 -0.29136623 -0.00000124
-0.06355490 0.21118029 0.11233592
-0.17370520 0.13282797 0.00000000
-0.38312909 -0.73789333 0.00000000
-0.61226601 0.14277067 -0.00000078
-0.11568123 0.36849948 0.00000473
-0.41331461 0.29790395 -0.00000088
-0.07156555 0.54275738 0.12649203
-0.11201700 -0.28110034 0.19799470
-0.06128467 0.64674425 0.00000137
-0.09306518 0.06605058 0.00000960
-0.13619366 0.37616068 0.00000000
-0.33256432 0.31371959 -0.00000056
-0.21570087 0.28795870 0.38125990
-0.07630627 -0.19713111 0.13487449
-0.76105075 -0.36630635 -0.00000108
-0.22535634 0.20000092 0.00000000
-0.53301347 -0.27810325 -0.00000037
-0.09618030 -0.26296216 0.17000267
-0.34586242 0.23155682 -0.00000047
-0.01926699 -0.31394066 0.03405521
-0.07001328 -0.74922084 0.12375138
-0.24463014 0.07887283 0.00000000
-0.18790806 0.08733207 0.33212604
-0.56680924 -0.08298315 -0.00000086
-0.06757145 0.38537104 0.11943534
-0.23382184 0.48297400 0.00000081
-0.33669708 -0.32975711 0.59512786
-0.22962523 -0.22588156 0.40587247
-0.22252761 -0.04531586 0.00000000
-0.10264932 -0.77474456 0.00000000
-0.11630336 0.63249418 0.00000056
-0.58170246 -0.03252455 -0.00000101
-0.33887478 -0.55605162 0.00000000
-0.15611517 -0.42109414 0.27594003
-0.09099977 0.07184483 0.00000000
-0.34260160 -0.60792514 0.00000000
-0.33301703 -0.39205343 0.58862294
-0.07187341 0.64578322 0.00000120
-0.01594154 0.46831463 0.02817734
-0.17330085 0.07617294 0.30630569
-0.58684250 -0.31109247 -0.00000054
-0.19752387 0.44397809 -0.00000021
-0.11639479 0.43319084 0.20573332
-0.22877829 0.17065319 0.00000000
-0.57402495 -0.35607318 -0.00000041
-0.17577006 0.23464459 0.31068191
-0.29396474 0.44585567 0.00000027
-0.29681138 0.06874030 0.52462894
-0.44526750 -0.26598462 -0.00000002
-0.28766916 0.18655807 0.50846906
-0.12534457 0.36901343 0.00000457
-0.07501982 -0.67553868 0.13260064
-0.03558848 0.00950572 0.06290412
-0.02935682 -0.09638790 0.00000000
-0.25689894 0.08488261 0.00000000
-0.19564337 -0.45008685 0.00000000
-0.30200166 -0.54375907 0.53380093
-0.16784912 0.02991723 0.29668047
-0.12213452 0.37443466 0.00000000
-0.11838384 0.48947570 0.20924928
-0.37642925 -0.64170381 0.66535530
-0.35359354 0.00503741 0.00000649
-0.40117923 -0.48278352 0.00000000
-0.26313685 0.17852586 0.46510761
-0.11395345 0.40342772 0.00000423
-0.49687608 0.04861578 0.00000301
-0.11680589 -0.22665490 0.00000000
-0.10627826 -0.74308754 0.18785124
-0.15822952 -0.48669230 0.00000000
-0.06976926 -0.65477948 0.12332007
-0.05221914 0.08346247 0.09228136
-0.02158813 -0.54384056 0.03815791
-0.22921280 0.44196240 -0.00000035
-0.29724351 -0.38380080 0.52539117
-0.38067000 0.00022952 0.67285292
-0.13013138 -0.46823771 0.23001261
-0.26772708 -0.68161452 0.47321872
-0.36459629 -0.53297829 0.64444046
-0.50672656 0.19886060 -0.00000110
-0.23404770 0.15807545 0.00000000
-0.06722744 -0.78907261 0.00000000
-0.52891523 -0.01237551 -0.00000082
-0.18991279 0.20084908 0.00000612
-0.52610685 -0.46784635 -0.00000000
-0.28010849 -0.45338923 0.49510379
-0.04052433 -0.11026407 0.00000000
-0.00335125 0.68067131 0.00592014
-0.02746438 0.56951710 0.04853922
-0.01057961 -0.37088368 0.00000000
-0.18111746 0.23334777 0.00000577
-0.38489720 -0.74934941 0.00000000
-0.28768056 0.28863478 -0.00000032
-0.33721271 0.11398875 -0.00000023
-0.34474954 -0.05193140 0.60936202
-0.07507734 0.37359849 0.00000526
-0.23889562 0.43992652 -0.00000038
-0.26344921 0.36143994 0.00000227
-0.02035027 0.64350965 0.00000204
-0.07161002 -0.31969531 0.12657369
-0.77801639 -0.79140863 -0.00000002
-0.30601176 0.39290223 -0.00000059
-0.09397152 0.23109014 0.16608724
-0.38883787 -0.73858843 0.68728771
-0.28092209 0.01066335 0.49653690
-0.26690517 -0.70414686 0.47176595
-0.07693122 0.47043670 0.13597408
-0.12552883 0.22626056 0.00000671
-0.36359482 -0.17088357 0.64267174
-0.17865607 0.13695147 0.00000000
-0.00903480 0.14775766 0.01595061
-0.55597331 -0.26925495 -0.00000048
-0.04072948 -0.66010030 0.00000000
-0.44962811 -0.41658953 0.00000000
-0.17620223 -0.32430891 0.00000000
-0.66855693 -0.23873779 -0.00000102
-0.05482187 -0.08153377 0.00000000
-0.00628274 0.74458769 0.00000074
-0.00525175 -0.05742502 0.00928268
-0.50406627 0.21608023 -0.00000112
-0.64592303 0.11249330 -0.00000092
-0.18478213 -0.66680262 0.32661008
-0.15326892 0.54307112 0.00000135
-0.18299513 0.26247285 0.00000000
-0.04583284 0.18421396 0.08099591
-0.54834517 -0.33363906 -0.00000034
-0.08775043 -0.71274170 0.00000000
-0.36381219 -0.11177356 0.64305615
-0.16788638 0.31555618 0.00000000
-0.11156718 0.34667996 0.19719994
-0.38363978 0.10950622 0.00000417
-0.10332082 -0.23649288 0.18262384
-0.06518727 -0.11947552 0.11522121
-0.18498357 -0.23105329 0.00000000
-0.51678544 0.06612493 0.00000233
-0.33522755 0.05984617 0.59253174
-0.20771562 0.34034369 0.36714677
-0.30598335 0.05081655 0.54084087
-0.33472587 0.16494838 0.00000418
-0.18904028 0.07859154 0.00000797
-0.47797023 -0.22016681 -0.00000024
-0.04167931 0.56916957 0.00000000
-0.07230206 0.47653571 0.12779167
-0.18075358 0.06074071 0.31948996
-0.29658236 -0.77252096 0.00000000
-0.12640383 -0.21800669 0.22342402
-0.17025117 -0.65528952 0.30092600
-0.12724492 0.26558116 0.00000610
-0.38218579 -0.65596220 0.00000000
-0.24402699 0.18418680 0.00000000
-0.46771734 -0.53528830 0.00000000
-0.08774301 -0.51078332 0.00000000
-0.17868452 0.02336255 0.31582020
-0.01766100 -0.48850912 0.03121655
-0.19752680 0.31528099 0.34913598
-0.18933023 -0.59263088 0.33464904
-0.18608058 -0.73357656 0.32890514
-0.15858475 0.12954042 0.28029501
-0.08110196 -0.32768783 0.14335107
-0.78810646 -0.54959050 -0.00000063
-0.41136206 -0.27586286 0.00000000
-0.67044225 -0.17115823 -0.00000114
-0.36612384 0.02092139 -0.00000019
-0.03396363 0.50603094 0.00000390
-0.77831307 -0.53700335 -0.00000066
-0.36211791 0.04694965 0.00000563
-0.11810662 0.35691892 0.20875882
-0.04371094 -0.70581283 0.00000000
-0.22041896 -0.72373649 0.38959966
-0.31364308 0.07483483 0.55437998
-0.30918737 0.18976050 0.00000426
-0.24462045 0.25880785 0.43237774
-0.36921491 -0.41037520 0.65260464
-0.14074700 0.19245841 0.24876676
-0.20231964 0.18541400 0.35760967
-0.15934960 -0.12876902 0.00000000
-0.02636999 -0.04991880 0.00000000
-0.00751399 0.47579448 0.00000475
-0.13255583 0.03452484 0.23429793
-0.52531530 -0.47478851 0.00000000
-0.61221687 0.04083066 -0.00000127
-0.40533882 -0.32182411 0.00000000
-0.34603655 0.03318089 0.61163526
-0.02077137 0.16074373 0.03671427
-0.37685985 -0.72780344 0.66611602
-0.01225650 0.19389154 0.02164666
-0.51975339 0.25606761 -0.00000126
-0.35359346 0.08064289 0.62499459
-0.15798710 0.20039557 0.27924936
-0.46194563 0.16937721 0.00000166
-0.26073737 0.53428713 -0.00000057
-0.48650432 0.29694217 -0.00000094
-0.11040903 -0.09949219 0.19515254
-0.02765769 0.17211126 0.04886916
-0.01198053 0.16708902 0.02115805
-0.40324454 0.19938330 -0.00000066
-0.32570639 0.05933833 0.57570253
-0.11635709 0.04480380 0.20565045
-0.22415502 -0.07030141 0.39620409
-0.05574562 -0.23143679 0.09853269
-0.19466682 0.48764218 -0.00000028
-0.37598539 0.38446619 -0.00000028
-0.11150463 0.29799592 0.00000585
-0.04861965 0.40245045 0.08593724
-0.23856514 0.19695053 0.42167575
-0.08756958 0.57164240 0.15478205
-0.04392536 0.12891337 0.00000940
-0.08643285 0.09984247 0.15275800
-0.26361358 -0.67953380 0.46594794
-0.23033959 0.00179069 0.40713593
-0.40261619 -0.15066055 -0.00000004
-0.19708759 -0.52236875 0.34836049
-0.07126973 0.37121647 0.00000000
-0.23486524 0.09230697 0.41513559
-0.21678393 -0.43394062 0.38317458
-0.49337574 -0.36882417 -0.00000004
-0.68812777 0.09129546 -0.00000138
-0.03212822 0.52160954 0.05678160
-0.00427258 -0.24312591 0.00755197
-0.09417858 0.02256220 0.16644706
-0.48119092 0.21271840 0.00000057
-0.57754981 -0.08334603 -0.00000090
-0.29719347 -0.23385495 0.52530325
-0.21428000 0.32803623 -0.00000008
-0.09800040 0.45864318 0.17322025
-0.03250324 -0.51550153 0.05745083
-0.42045483 0.20567011 -0.00000074
-0.54303452 0.17956935 -0.00000006
-0.31334299 -0.60311881 0.55384719
-0.60873624 -0.02590684 -0.00000114
-0.09669194 -0.12678876 0.17090701
-0.20922570 0.20348797 0.36981659
-0.25838558 0.21263525 0.00000485
-0.26813976 -0.27817713 0.47394897
-0.18500014 -0.36961133 0.00000000
-0.29845636 0.25828993 0.00000332
-0.00973677 -0.72718738 0.01721015
-0.00197339 -0.03338816 0.00000000
-0.14023070 -0.31066321 0.24786357
-0.40289946 0.00303241 -0.00000031
-0.08014678 0.00792967 0.14166275
-0.14486026 -0.07150072 0.25604652
-0.03969981 0.17799401 0.00000873
-0.32820690 0.24607861 0.00000295
-0.12568341 0.37795990 0.00000000
-0.52627043 0.25074837 -0.00000128
-0.54509830 0.24377547 -0.00000118
-0.49853851 0.22191426 0.00000008
-0.13301192 -0.75851433 0.23510409
-0.39460767 0.12881942 0.00000363
-0.73630964 -0.76794807 -0.00000008
-0.59424263 -0.40007617 -0.00000041
-0.30992200 -0.70887513 0.54780002
-0.27102544 0.13612133 0.47905101
-0.67221158 0.10594379 -0.00000132
-0.29603841 0.13911080 0.52326111
-0.10830529 0.45348118 0.19143093
-0.26529331 0.02265614 0.46891874
-0.36728020 -0.29533877 0.64918544
-0.32536133 -0.05409291 0.57509222
-0.57621937 -0.29152857 -0.00000053
-0.03598634 0.28688193 0.06360734
-0.12226814 0.39740479 0.21611005
-0.07622724 0.68384714 -0.00000012
-0.38208552 -0.44856803 0.67535388
-0.11578579 0.55699674 0.20465732
-0.02478542 -0.15088572 0.04380925
-0.30454075 -0.00179432 0.53829080
-0.55433178 -0.12749328 -0.00000073
-0.27457838 -0.69224822 0.48532868
-0.74160631 -0.04327017 -0.00000167
-0.06436740 -0.38810277 0.11377206
-0.02893073 -0.69070223 0.05113627
-0.39161752 -0.12133372 -0.00000004
-0.27417027 -0.37033596 0.48460793
-0.10321469 -0.65605235 0.18243624
-0.53486082 -0.12248023 -0.00000065
-0.13822609 0.22805397 0.24432071
-0.56862803 -0.77396489 0.00000000
-0.23404035 -0.46208253 0.00000000
-0.70949231 -0.47854247 -0.00000077
-0.63003519 -0.48513242 -0.00000042
-0.03258626 -0.38882653 0.05759757
-0.64778341 -0.44728436 -0.00000056
-0.38630969 -0.59939660 0.68281964
-0.06162669 -0.10526991 0.10892774
-0.66501203 -0.23624635 -0.00000101
-0.77485287 -0.05388925 -0.00000180
-0.41657663 0.17977031 -0.00000068
-0.22722443 -0.73048942 0.40162860
-0.42801277 0.04091504 -0.00000048
-0.19040898 0.29848332 0.33655726
-0.34811986 0.04374579 0.61531958
-0.15161096 0.04029232 0.26796508
-0.16961670 -0.49025441 0.29980456
-0.07506286 0.00026024 0.00000000
-0.15900503 -0.10424083 0.28104799
-0.01219619 -0.30466309 0.02155728
-0.11600825 -0.55641075 0.20504940
-0.33973036 -0.59194309 0.00000000
-0.05038986 0.02610025 0.00000000
-0.09680260 -0.52747068 0.17110262
-0.19345180 -0.20840400 0.00000000
-0.09110635 -0.66905426 0.16103425
-0.36440788 -0.14893847 0.64410894
-0.40719020 -0.22495726 0.00000000
-0.00401040 0.54895618 0.00708855
-0.51566932 -0.78222782 0.00000000
-0.24118859 -0.63880984 0.00000000
-0.10871374 -0.02653506 0.19215605
-0.09721650 -0.29166192 0.17183419
-0.22343863 -0.24732284 0.39493721
-0.24933371 0.23130714 0.44070995
-0.07476119 -0.14938589 0.13214351
-0.33214776 0.15197028 0.00000445
-0.11306086 0.39058520 0.19983486
-0.58032696 -0.37605330 -0.00000040
-0.27218974 -0.02442984 0.48110842
-0.76055697 -0.29534293 -0.00000126
-0.24991838 -0.22421841 0.00000000
-0.23665534 0.27565648 0.00000421
-0.06131960 0.43048714 0.00000462
-0.15477099 -0.70373727 0.27356415
-0.09871320 0.11626551 0.00000000
-0.31055571 0.08978426 0.54892291
-0.03413093 -0.26805760 0.06032783
-0.18880234 0.18839826 0.33371706
-0.13736562 -0.52880363 0.24279942
-0.37369470 -0.34737098 0.00000000
-0.13885015 0.13386247 0.00000790
-0.06026321 -0.17269461 0.00000000
-0.44199483 0.08587180 0.00000344
-0.43450022 0.18016283 -0.00000076
-0.00269245 0.71039409 0.00475653
-0.07025789 0.36604711 0.12418374
-0.38082923 -0.55050999 0.00000000
-0.21081910 0.14523628 0.37263282
-0.37113326 -0.18541932 0.65599632
-0.53537655 -0.04408262 -0.00000079
-0.39357189 -0.64684255 0.00000000
-0.03660328 -0.29447056 0.06469781
-0.26194800 0.11113586 0.46300602
-0.12292482 0.11302692 0.21726161
-0.09160355 -0.47476018 0.16191308
-0.35523510 0.29523747 0.00000161
-0.06588504 -0.15266775 0.11645453
-0.26129485 0.38150369 0.00000197
-0.20806870 -0.31808846 0.36777006
-0.30008305 -0.74714310 0.00000000
-0.25035681 0.22619756 0.00000478
-0.27581390 0.34730830 0.00000227
