ply
format ascii 1.0
element vertex 1383
property float x
property float y
property float z
end_header
-0.24737100 0.09804478 0.00000430
-0.57281305 -0.07851089 -0.00000021
-0.16783832 -0.68082689 0.00000200
-0.46927888 -0.43178643 0.00000565
-0.22015552 -0.14191605 0.00000356
-0.47392712 0.13335001 0.00000027
-0.04697525 0.00149238 0.00000150
-0.29448933 0.43308208 0.00000210
-0.42784701 0.09733616 0.05893706
-0.51816640 -0.61350819 0.00000035
-0.10539098 0.02841258 -0.00000829
-0.32910772 -0.59928177 0.00000385
-0.08187533 0.02817536 0.00001045
-0.38748563 0.33763337 0.08443414
-0.27043948 0.36239147 0.03842239
-0.20458077 -0.25467851 0.00000318
-0.00152377 0.73484506 0.00000182
-0.18387088 0.14378284 -0.00000376
-0.49585942 0.08311395 0.08570522
-0.50879274 0.25738446 0.00000026
-0.40064107 0.26485765 0.07711303
-0.14351474 -0.60585526 0.00000188
-0.13830697 -0.72318444 0.00000014
-0.03579796 0.32904450 0.00000776
-0.51689685 -0.11448823 0.00000025
-0.33906383 -0.67173486 0.00000382
-0.23738678 0.17157415 0.00000649
-0.52210386 -0.04012866 0.00000012
-0.75709792 -0.57780973 -0.00000056
-0.49691009 0.21118793 0.00000108
-0.00562393 0.69306761 0.00000280
-0.29578812 0.18125851 0.00000534
-0.26817295 0.21199185 0.00000171
-0.30374525 -0.21498345 0.00000431
-0.21317344 -0.69410457 0.00000245
-0.15878252 -0.72237306 0.00000182
-0.26402257 -0.44274619 0.00000346
-0.03602593 -0.68166939 0.00000022
-0.71555339 -0.56812878 0.06413993
-0.53128560 0.22135768 0.00000029
-0.05394997 0.15063628 -0.00000755
-0.26558102 0.14525741 0.00000458
-0.69103897 -0.55356568 0.05617713
-0.09801084 -0.17248255 0.00000221
-0.54067111 0.05650163 0.10025975
-0.62426462 -0.02373265 -0.00000066
-0.42990830 -0.17504036 0.01122258
-0.51678302 0.01195935 0.00000010
-0.29594095 0.21353297 0.02284739
-0.52576662 -0.28213025 0.00000039
-0.74933383 -0.17056421 0.14964067
-0.31129618 -0.45257963 0.00000394
-0.76284226 -0.76813476 -0.00000008
-0.26312370 -0.70380214 0.00000296
-0.48816136 -0.75504097 0.00000524
-0.37671258 -0.77175791 0.00000005
-0.38328379 0.20612270 0.00000333
-0.01481188 -0.36171486 0.00000098
-0.08010313 0.52438614 0.00000489
-0.20060040 -0.12398656 0.00000339
-0.09138068 0.42219701 0.00000326
-0.60307944 -0.22748110 0.07647229
-0.58771533 -0.48122480 0.00000017
-0.69065866 -0.72941193 0.02463282
-0.68479772 0.02239389 0.15626971
-0.08260672 0.22552020 0.00000192
-0.42997861 -0.11670667 0.00000091
-0.20584495 0.56348508 0.00000211
-0.01508496 0.13499170 0.00000175
-0.36866770 0.17856796 0.00000397
-0.20186588 -0.12965146 0.00000339
-0.52332263 -0.61573606 0.00000035
-0.06418978 -0.32417950 0.00000157
-0.04320981 0.08027877 0.00000165
-0.15924411 -0.42505418 0.00000070
-0.17877199 0.50071048 0.00000203
-0.06274286 0.19153782 0.00000890
-0.27495873 0.50384718 0.06561524
-0.11402686 0.26037485 -0.00000368
-0.17538033 -0.56669692 0.00000044
-0.69656135 0.05448479 0.16706538
-0.21737397 0.47475931 0.03561497
-0.08195035 0.03512915 0.00000243
-0.55295878 0.06484939 0.00000190
-0.23876901 0.39416903 0.00000171
-0.26888022 -0.41799556 0.00000072
-0.20439967 -0.02600311 0.00000145
-0.06022855 0.56540323 0.00000256
-0.07923897 -0.15722911 0.00000204
-0.13316499 0.03535202 0.00000157
-0.18443598 0.30291993 0.00000402
-0.44204943 -0.73122529 0.00000480
-0.56576695 -0.78672186 0.00000600
-0.66067014 -0.52132192 -0.00000032
-0.19804625 0.29693541 0.00000567
-0.32942859 0.23323353 0.00000402
-0.63796780 0.07992334 0.00000008
-0.59992886 -0.58322047 0.00000020
-0.47050465 -0.24810903 0.00000076
-0.31331595 -0.64430784 0.00000360
-0.40030748 -0.32416376 0.00000512
-0.01197237 -0.20304671 0.00000112
-0.18431858 -0.32875369 0.00000088
-0.03335019 0.75445009 0.00624309
-0.54180132 -0.66792184 0.00000025
-0.05534348 0.70836239 0.00000270
-0.67285886 0.04183221 0.15459566
-0.17332996 0.45866058 0.01376644
-0.67175605 0.09960473 -0.00000116
-0.53113227 0.01260346 0.08831907
-0.71843673 -0.75109313 0.03273145
-0.07024133 -0.14924845 0.00000196
-0.55205365 -0.48461224 0.00000044
-0.48050929 -0.24039761 0.02135994
-0.46792808 0.10724068 0.07797697
-0.23670727 0.48686714 0.00000161
-0.67719660 0.11833772 -0.00000117
-0.75708059 -0.07907887 0.16930415
-0.33587529 -0.53909723 0.00000049
-0.52327831 0.17027301 0.11307208
-0.12509984 -0.78508557 0.00000003
-0.45681142 0.05018126 0.00000394
-0.38274966 -0.58954902 0.00000444
-0.53120853 0.12447756 0.00000155
-0.21645125 -0.76130405 0.00000007
-0.24933162 0.02403907 -0.00000402
-0.02270252 0.72683609 0.00000348
-0.11385557 -0.41816798 0.00000072
-0.29193595 -0.55159099 0.00000355
-0.17908517 -0.39089684 0.00000077
-0.34503536 0.19467148 0.04062903
-0.71395229 -0.68552318 0.04250062
-0.07427586 0.66062146 0.00713031
-0.62712065 0.11286029 0.14756533
-0.44165560 0.03192995 0.05321341
-0.74595305 -0.69358434 0.05484909
-0.50375190 -0.31135706 0.01871064
-0.75703649 -0.75801242 0.04812676
-0.03150370 -0.43978175 0.00000101
-0.45788764 -0.51170782 0.00000054
-0.09497204 0.22271843 0.00000192
-0.05298519 0.12102052 0.00000984
-0.26928174 -0.32034810 0.00000374
-0.05892287 0.65914911 0.00000369
-0.47655034 -0.18925977 0.00000065
-0.44734658 -0.57961376 0.00000514
-0.36750148 -0.03910877 0.00000128
-0.17243858 -0.37594772 0.00000080
-0.38163548 0.23008373 0.00000305
-0.38997179 -0.25770541 0.00000514
-0.09271758 0.19249212 0.00000186
-0.03050867 -0.72550455 0.00000046
-0.40060515 0.30989312 0.08513507
-0.21525755 0.08404658 0.00000781
-0.16291635 0.08497855 0.00000338
-0.43635055 0.04494705 0.05325089
-0.49832668 -0.19777899 0.03664173
-0.33163364 0.02503458 0.00000667
-0.26496629 -0.54959657 0.00000327
-0.18157644 -0.11885997 0.00000319
-0.49972245 0.00909867 0.07415690
-0.22175591 0.42282883 0.02823566
-0.04423377 0.09501268 0.00000215
-0.21785988 -0.40750705 0.00000304
-0.31570399 0.46839347 0.00000123
-0.05077380 0.40808460 0.00000280
-0.36391545 0.22249946 0.00000099
-0.04517146 0.74051117 0.00000290
-0.33554556 -0.52643320 0.00000051
-0.14818809 0.03606612 0.00000936
-0.02609079 -0.47411060 0.00000089
-0.21601968 -0.41989003 0.00000299
-0.01089309 0.10179807 0.00001069
-0.28628960 -0.21369946 0.00000110
-0.32826527 0.07528774 0.01210339
-0.03501715 0.31781846 0.00000790
-0.31584255 -0.44429272 0.00000067
-0.31134515 -0.59996828 0.00000366
-0.43307631 -0.54802585 0.00000047
-0.36559836 -0.18775525 0.00000501
-0.61145161 -0.26889005 -0.00000026
-0.27323165 0.42769190 0.05127963
-0.14485896 0.13156353 0.00000175
-0.26871011 0.08252122 0.00000165
-0.04664901 -0.48703885 0.00000108
-0.61573948 0.07776245 -0.00000072
-0.05313900 0.30213736 0.00000263
-0.51276684 -0.29007890 0.02639175
-0.31997308 -0.69497069 0.00000020
-0.29251199 -0.36533980 0.00000081
-0.41175442 0.19632433 0.00000291
-0.13573195 -0.14978270 0.00000265
-0.06833566 0.36336782 0.00000290
-0.72539422 -0.55652269 0.07045084
-0.39104494 -0.12136910 0.00000120
-0.51636522 0.02331386 0.00000009
-0.65392934 -0.09352445 0.12228524
-0.37280780 -0.65397846 0.00000421
-0.66607508 -0.73371049 0.01327429
-0.08048505 0.26646309 0.00000200
-0.47558008 0.03815506 0.00000038
-0.32848917 0.14097456 0.00000523
-0.43847951 0.09160908 0.00000059
-0.06406866 0.53617658 0.00000500
-0.45203357 0.17301494 0.00000244
-0.10320356 0.37011394 0.00000219
-0.45818465 -0.14567039 0.02864618
-0.54564369 -0.10658591 0.00000003
-0.09867403 0.67438787 0.00000242
-0.14910670 0.20136667 0.00000188
-0.46612651 0.14553801 0.08403247
-0.20547204 0.47627487 0.03075767
-0.43974149 0.15521078 0.00000050
-0.19328347 -0.27855675 0.00000302
-0.52931319 -0.61414817 0.00000035
-0.43800604 -0.30903336 0.00000092
-0.57559693 -0.44266798 0.02623094
-0.27806675 -0.37848635 0.00000373
-0.20169425 0.42475415 0.00000399
-0.23587625 0.14418999 0.00000177
-0.25529541 0.42162127 0.04247011
-0.02711289 0.45933195 -0.00000257
-0.31746965 0.34412306 0.05542700
-0.23736506 0.02867990 -0.00000430
-0.13734792 0.17007778 0.00000327
-0.63242460 -0.39463693 -0.00000027
-0.03436654 -0.05343974 0.00000176
-0.01430213 0.48698232 0.00000256
-0.38716151 -0.79357316 0.00000001
-0.21904489 0.00329230 0.00000151
-0.34409184 0.34944493 0.00000223
-0.19443076 0.36655121 0.00642009
-0.51188949 0.05875911 0.08826529
-0.53799571 -0.54175719 0.00000048
-0.51533297 0.06525416 0.00000262
-0.40294356 -0.32700561 0.00000514
-0.24117369 0.22286131 0.00091111
-0.25330766 0.29533137 0.00000172
-0.05409876 0.63674154 0.00000269
-0.24606162 0.14168440 0.00000177
-0.18947491 -0.71972718 0.00000015
-0.57703007 -0.11640202 -0.00000019
-0.56963889 0.03473772 0.00000197
-0.03308782 0.55112773 0.00000253
-0.58773999 -0.24160480 0.06734311
-0.29924568 -0.69431834 0.00000020
-0.50316572 0.27329291 0.00000016
-0.16242012 0.52842312 0.02151552
-0.59555151 -0.08548667 0.09856848
-0.28523322 0.25186770 0.02507103
-0.67290451 -0.65599457 -0.00000025
-0.77670859 -0.71735998 0.06385675
-0.22883274 -0.18881780 0.00000356
-0.08542760 0.59404737 0.00005352
-0.30190348 0.09684229 0.00459234
-0.36671173 0.02146260 0.01906211
-0.35069289 0.05130073 0.01747909
-0.65927219 -0.69979279 0.01639612
-0.57217863 0.13673279 0.12815460
-0.52955253 0.01558843 0.00000299
-0.60717006 -0.61668158 0.00000019
-0.47665001 -0.57191033 0.00000546
-0.28830608 0.01418418 0.00000749
-0.07751212 -0.29883241 0.00000094
-0.68737926 -0.61913075 0.04290006
-0.54386988 0.24785626 -0.00000039
-0.10828442 0.08632009 0.00000166
-0.68463895 0.00895397 -0.00000115
-0.31401082 -0.68327208 0.00000354
-0.20924720 0.04727632 0.00000380
-0.56634327 -0.19575693 0.06630641
-0.00826274 0.67440045 0.00000285
-0.33139088 -0.10420695 0.00000480
-0.05698461 -0.62154559 0.00000094
-0.27204938 0.39413573 0.00000303
-0.39387523 0.10444167 0.00000445
-0.01669851 0.63023073 0.00000268
-0.03912165 0.37860220 0.00000262
-0.62318313 0.02924213 -0.00000072
-0.44087502 0.25105684 0.00000038
-0.04824791 0.65834303 0.00000324
-0.52118994 -0.29587830 0.02898578
-0.36862062 0.34679514 0.07794042
-0.02210981 0.59202598 0.00000501
-0.46331776 0.11053420 0.07657842
-0.42759713 0.02225695 0.00000486
-0.66589230 0.03973241 0.15121951
-0.69322080 -0.50279376 -0.00000059
-0.22490318 0.34060005 0.01491755
-0.30606037 -0.02463562 0.00000145
-0.32780590 -0.68085640 0.00000369
-0.37454385 0.13779042 0.00000439
-0.72765937 0.05397626 -0.00000153
-0.13728966 -0.36107297 0.00000082
-0.15552592 0.09751203 0.00000333
-0.23245734 -0.03697241 0.00000143
-0.00943320 -0.64954537 0.00000028
-0.00810784 -0.50088517 0.00000065
-0.11144563 -0.22182462 0.00000108
-0.40779315 -0.07385595 0.00000102
-0.48534889 0.14276353 0.09182163
-0.30406360 0.45803834 0.06997986
-0.64626074 -0.58685767 -0.00000014
-0.73123561 -0.19922199 0.13672925
-0.37262034 0.04974487 0.00000556
-0.52981149 -0.71890591 0.00000015
-0.24918520 -0.63841038 0.00000293
-0.39544601 -0.40000838 0.00000075
-0.30248381 -0.61473788 0.00000354
-0.26672322 0.38265743 0.00000152
-0.66919554 0.02619621 0.00000017
-0.14733515 0.09430351 0.00000168
-0.43010573 -0.61787719 0.00000488
-0.29962724 -0.06007495 0.00000455
-0.19090664 0.45874466 0.00000375
-0.78419158 -0.61403918 -0.00000046
-0.07238178 0.37843439 0.00000665
-0.18635918 0.30088625 0.00000206
-0.71781409 -0.09978924 0.14869097
-0.48766401 0.19503889 0.10214781
-0.30010998 -0.18264740 0.00000433
-0.58219722 -0.46103333 0.00000019
-0.29447038 0.46342529 0.00000171
-0.69448125 -0.72126169 -0.00000020
-0.03416475 -0.29626605 0.00000131
-0.38900235 -0.25842998 0.00000102
-0.34207833 0.17757233 0.00000449
-0.60375602 0.03749640 0.00000128
-0.10548302 0.39528348 -0.00000141
-0.15341138 -0.32859295 0.00000088
-0.44840060 -0.20351572 0.01410815
-0.74507984 0.01067419 -0.00000160
-0.44930660 -0.60632705 0.00000036
-0.04280025 0.42868232 0.00000276
-0.10942717 -0.25403548 0.00000218
-0.02203636 0.44112417 -0.00000306
-0.05195641 0.33524930 0.00000744
-0.09115040 0.14031436 0.00000176
-0.17080095 0.56116456 0.03096815
-0.63937363 -0.66920719 0.01328127
-0.02796602 0.43070754 0.00000260
-0.14266661 -0.15209193 0.00000121
-0.62973294 -0.06825600 -0.00000065
-0.50265555 0.16632158 0.00000002
-0.17118024 0.08663718 -0.00000521
-0.31186029 -0.34923010 0.00000085
-0.02638300 -0.15789497 0.00000120
-0.36631389 -0.69677075 0.00000406
-0.36443427 0.43001719 0.00000073
-0.00438949 0.68517065 0.00000423
-0.12862984 0.53996238 0.00000390
-0.07174432 -0.61391226 0.00000035
-0.32079720 0.19105397 0.00000473
-0.67501418 -0.76640630 -0.00000008
-0.27607264 -0.48183496 0.00000060
-0.59202383 -0.67153971 0.00000024
-0.68933935 -0.17497215 0.12300640
-0.31320554 0.21672728 0.00000137
-0.05610204 -0.01493328 0.00000206
-0.60986529 -0.01779524 0.11681515
-0.10968412 0.37229954 -0.00000171
-0.43305387 0.24170936 0.00000045
-0.56466722 0.04638654 -0.00000030
-0.50114309 0.13796694 0.09777033
-0.65191757 -0.55781339 -0.00000021
-0.41421973 -0.32333854 0.00000089
-0.57860053 0.01766539 0.10967332
-0.05949225 -0.06034797 0.00000139
-0.17759716 0.17129974 0.00000739
-0.48966878 -0.48667251 0.00000576
-0.09148505 -0.40264967 0.00000075
-0.58270975 -0.30371536 0.05409204
-0.53384517 -0.49740345 0.00000057
-0.41581774 0.02027992 0.04000193
-0.68092805 -0.12811258 -0.00000095
-0.59605303 0.00885776 -0.00000049
-0.13441047 -0.17649234 0.00000259
-0.07593398 -0.27460620 0.00000099
-0.43121677 -0.21638015 0.00000102
-0.56849347 -0.34905935 0.03987537
-0.27830763 -0.55522120 0.00000046
-0.18399197 -0.25962766 0.00000101
-0.07799820 0.52181590 0.00000495
-0.67593308 -0.78148526 0.00899584
-0.69856790 0.05226231 -0.00000073
-0.59857899 -0.64210880 0.00054138
-0.19531991 -0.38740767 0.00000284
-0.72551854 -0.56767742 -0.00000058
-0.69425302 -0.35847677 0.09237625
-0.20895739 0.43601860 0.00000188
-0.11421471 0.54134805 0.00305121
-0.02859894 0.16869773 0.00000182
-0.74475685 -0.17157042 0.14748918
-0.38461908 -0.23908293 0.00000511
-0.31100888 -0.62705235 0.00000361
-0.14129865 0.47840324 0.00348943
-0.05249321 -0.65665645 0.00000027
-0.18211884 0.52277535 0.02899452
-0.56873320 -0.05094110 -0.00000021
-0.19760239 -0.33484797 0.00000087
-0.45673490 -0.26997062 0.00583970
-0.56560048 -0.52314034 0.00756352
-0.07427331 -0.19700882 0.00000113
-0.63950547 -0.77769690 0.00000680
-0.76923135 -0.22637152 -0.00000143
-0.24011212 0.27134902 0.00910737
-0.59283070 -0.15153411 0.08560983
-0.35365705 -0.61000218 0.00000036
-0.58987795 -0.16528465 0.08188385
-0.38467880 -0.00187300 0.02263860
-0.30868312 -0.37378189 0.00000080
-0.42029893 -0.20495682 0.00000109
-0.44289736 -0.40821418 0.00000541
-0.24241651 0.33921993 0.02221320
-0.16944755 -0.02162265 0.00000325
-0.61717426 0.10202147 0.14134523
-0.01558042 -0.78395594 0.00000003
-0.37348050 -0.59689211 0.00000433
-0.79432747 -0.50204936 -0.00000074
-0.69353461 -0.72527859 0.02660948
-0.00145481 0.37151349 0.00000220
-0.58047233 -0.50830829 0.01661765
-0.44365807 -0.26303950 0.00000098
-0.16588484 -0.45044747 0.00000241
-0.01682092 -0.65182580 0.00000028
-0.53365415 0.09693163 0.10445428
-0.22946493 0.37336891 0.02272759
-0.60721031 -0.50540339 0.00000006
-0.60989845 0.06828399 -0.00000066
-0.22531279 -0.48231562 0.00000298
-0.12337144 -0.51782903 0.00000183
-0.21930786 -0.01954793 0.00000146
-0.14218902 -0.46067705 0.00000214
-0.67865787 -0.21837467 0.11065911
-0.62995553 -0.23257696 -0.00000045
-0.21563036 0.23150360 0.00000421
-0.26943383 -0.66717899 0.00000025
-0.38999678 -0.38139399 0.00000490
-0.17062462 0.22519468 0.00000689
-0.25936416 0.11320034 0.00000445
-0.00059450 0.69058904 0.00000422
-0.39750912 -0.17653076 0.00000537
-0.60990419 -0.73847867 0.00000656
-0.03744107 0.05065908 -0.00000992
-0.17117344 0.14185065 0.00000357
-0.16586700 -0.09325399 0.00000133
-0.21935753 -0.28711996 0.00000096
-0.07558980 0.17730242 0.00000886
-0.60295360 -0.05947784 -0.00000046
-0.05775928 -0.06417816 0.00000199
-0.23190085 0.00036291 0.00000850
-0.60262109 0.02984445 0.12219347
-0.24599798 0.42016981 0.03820348
-0.51736494 -0.11041988 0.06043364
-0.13002434 0.63553569 0.00000223
-0.45254992 0.03681839 0.05878439
-0.13475010 0.55458429 0.00000229
-0.47784774 -0.33730790 0.00291922
-0.29169535 -0.61740745 0.00000342
-0.53677638 0.09795305 -0.00000015
-0.00093881 0.62430881 0.00000268
-0.68910702 -0.25011799 -0.00000087
-0.41809182 0.33266944 0.09673414
-0.46427114 0.16333019 0.08640847
-0.13142024 0.01672360 0.00000983
-0.63314895 0.03961157 0.13708960
-0.64184587 -0.69785022 0.00000003
-0.54857515 0.18650736 0.00000041
-0.42340877 0.09261587 0.05618240
-0.06389216 0.66447724 0.00334575
-0.05159741 0.55357768 0.00000499
-0.08131638 -0.75272731 0.00000095
-0.22110047 0.36123477 0.00000444
-0.66976886 -0.24655297 -0.00000073
-0.19640266 0.30482375 -0.00000036
-0.10567795 -0.05858507 0.00000251
-0.00280345 0.11317692 0.00000171
-0.22526103 -0.08019682 0.00000373
-0.21427992 -0.31563986 0.00000317
-0.30734408 0.02106756 -0.00000233
-0.63687315 -0.79095614 0.00000674
-0.44344351 -0.06227633 0.00000074
-0.33172281 0.43093821 0.00000097
-0.50697812 -0.04078157 0.00000024
-0.12442780 -0.33790338 0.00000087
-0.00409951 0.57985599 -0.00000100
-0.42470451 0.00004701 0.04021983
-0.48540885 0.19327776 0.10086193
-0.29376163 -0.53315037 0.00000360
-0.23876452 0.37017213 0.00000174
-0.69514502 -0.52289770 -0.00000058
-0.46020714 -0.63843364 0.00000516
-0.68042491 -0.77971302 0.01124734
-0.04259356 0.00735561 0.00000196
-0.37668191 0.31136271 0.07508998
-0.04041458 0.11699826 0.00001007
-0.45604368 -0.68859006 0.00000503
-0.17236349 -0.39232697 0.00000258
-0.04500316 0.60844779 0.00000312
-0.75549685 -0.39999810 -0.00000100
-0.36388047 -0.35783745 0.00000467
-0.23935657 -0.20587932 0.00000111
-0.02061495 0.68101698 0.00000403
-0.54892430 0.20757607 0.13077803
-0.41839458 -0.71998730 0.00000015
-0.22294985 -0.31765895 0.00000326
-0.78061670 -0.09832822 -0.00000174
-0.26515397 -0.00759801 0.00000149
-0.31973666 0.25589825 0.00000391
-0.21375670 0.31908229 0.00000513
-0.62685843 -0.52777029 0.03312928
-0.20846850 -0.59971640 0.00000038
-0.21151045 0.30602089 0.00297221
-0.03568589 0.18776697 -0.00000740
-0.47959454 0.10325495 0.00000027
-0.36986791 -0.09522037 0.00000523
-0.64109847 -0.72793267 0.00354459
-0.31051725 -0.70209119 0.00000346
-0.51295572 0.21660842 0.00000071
-0.17561015 0.56606796 0.03391610
-0.35818084 0.03108595 0.01709753
-0.26282787 -0.39760455 0.00000075
-0.49167578 -0.05084783 0.05999675
-0.19454841 -0.15096934 0.00000327
-0.47789162 0.12589242 0.00000256
-0.75961892 -0.58182169 0.08068129
-0.52672125 -0.39772430 0.00000053
-0.29113525 0.10480142 0.00000167
-0.33999423 0.40794542 0.00000155
-0.14810684 0.47921055 0.00000431
-0.48826694 0.27621825 -0.00000001
-0.00101253 0.04979872 0.00000159
-0.38465430 -0.77422769 0.00000005
-0.31730967 0.45491782 0.00000105
-0.14589349 0.51250722 0.01155503
-0.46181557 0.02966549 0.06149989
-0.50120772 0.20100162 0.10904591
-0.67851267 -0.17705173 -0.00000088
-0.17486499 0.15375871 0.00000364
-0.08592886 0.15017199 0.00000178
-0.67739670 0.01058577 0.15097466
-0.27717737 0.48402653 0.06303373
-0.28137612 -0.77937551 0.00000004
-0.10194778 0.17797840 0.00000183
-0.67106541 -0.44984348 0.06608149
-0.12376440 0.01213882 -0.00000804
-0.53106559 0.17650604 0.00000088
-0.28327362 0.40474362 0.05151218
-0.30376485 0.37847599 0.05565130
-0.53290491 -0.55626690 0.00000609
-0.13366586 -0.03015630 0.00000286
-0.11872016 0.55516261 0.00745788
-0.66724906 -0.35912718 -0.00000057
-0.24465527 0.06269107 0.00000162
-0.04090727 0.38197322 0.00000222
-0.07029237 0.18939838 0.00000881
-0.07699812 0.11691844 0.00000172
-0.67251322 -0.38812520 0.07771913
-0.11551033 -0.01726548 0.00000147
-0.53436394 -0.26474431 0.00000031
-0.10311648 0.53926718 0.00000251
-0.48829946 -0.32028497 0.01045999
-0.12346751 -0.06316304 0.00000138
-0.44252403 0.34972434 0.00000024
-0.00978664 0.67788656 0.00000287
-0.68931301 0.03216376 -0.00000121
-0.21178894 0.00764702 0.00000375
-0.22339483 0.22476442 0.00000192
-0.46460164 0.18216330 0.08991202
-0.09087833 -0.41954613 0.00000167
-0.51853234 -0.10971085 0.00000024
-0.16709072 0.18082063 0.00000184
-0.38959284 -0.00543538 0.00000107
-0.08262282 -0.47409279 0.00000061
-0.03770609 0.51788266 -0.00000115
-0.21945054 0.21509626 0.00000627
-0.41992120 -0.16227259 0.00919826
-0.15591757 -0.30595588 0.00000257
-0.01150970 0.22853302 -0.00000737
-0.26171272 -0.50457801 0.00000055
-0.74607977 -0.05016758 -0.00000154
-0.10568369 0.68592006 0.00000235
-0.06678853 0.59717221 0.00000333
-0.62315941 0.10491787 0.14444086
-0.40101347 0.24381586 0.07352028
-0.34115092 -0.35245725 0.00000084
-0.30429109 0.29288608 0.04060579
-0.28169153 -0.45205556 0.00000363
-0.21265816 0.10679684 0.00000395
-0.60630413 -0.61950210 0.00790389
-0.58893239 -0.25008968 -0.00000012
-0.24787284 0.46111377 0.00000156
-0.02745514 0.54909475 0.00000541
-0.10548902 0.37845457 0.00000221
-0.51354321 -0.77842324 0.00000546
-0.06749393 0.01665225 0.00001079
-0.16386851 -0.02301907 0.00000319
-0.09136291 0.52967673 0.00000346
-0.66620746 -0.22140641 -0.00000073
-0.13233355 0.51390465 0.00000236
-0.50258000 -0.42306194 0.00000071
-0.13491517 -0.26268865 0.00000101
-0.39210916 0.16277245 0.00000085
-0.60696968 -0.36744233 -0.00000011
-0.58880213 0.13785710 0.00000027
-0.43975843 -0.73532312 0.00000012
-0.14206660 0.06694351 0.00000163
-0.40080129 -0.66540509 0.00000025
-0.66926390 -0.32176175 0.08816203
-0.58245802 0.16321069 0.13730816
-0.31722215 -0.48539440 0.00000059
-0.26252710 -0.65522384 0.00000027
-0.49936013 -0.13037248 0.00000040
-0.13484667 0.59016100 0.00000313
-0.38342024 0.24005992 0.00000082
-0.31042699 0.00315977 0.00000728
-0.03743685 0.28105482 0.00000827
-0.22139329 0.15042590 0.00000178
-0.62449979 0.06001107 0.13700503
-0.15706996 0.46844534 0.00850721
-0.00950313 -0.23285173 0.00000116
-0.35877960 0.13356947 0.00000474
-0.11135684 -0.18359865 0.00000116
-0.21371931 0.29008799 0.00108034
-0.51522709 -0.06596537 0.06744567
-0.60537838 -0.34678969 0.05617166
-0.39243721 -0.23454948 0.00000106
-0.33541296 -0.03454010 0.00000498
-0.05388745 0.30015411 0.00000263
-0.13399107 -0.39992106 0.00000217
-0.16844964 -0.00379691 0.00000327
-0.40781532 -0.38763458 0.00000077
-0.49089357 -0.35922353 0.00462887
-0.07107968 -0.42263238 0.00000071
-0.33009237 -0.30624800 0.00000093
-0.62645032 -0.12366190 0.10506821
-0.00947206 0.58987250 0.00000522
-0.75946768 -0.47759766 0.09921533
-0.00120218 0.12290217 -0.00000966
-0.41414902 0.25367270 0.00000057
-0.55842704 -0.19186580 0.00000004
-0.49547625 -0.12068687 0.04917107
-0.03984448 -0.28964512 0.00000096
-0.24526485 0.51549917 0.05490149
-0.33817572 0.31623092 0.00000277
-0.32125052 -0.04709550 0.00000480
-0.09894226 -0.70499492 0.00000018
-0.36393427 -0.30595521 0.00000477
-0.16353052 0.39264796 0.00000512
-0.34277874 0.44286722 0.00000104
-0.60684031 0.05074396 -0.00000062
-0.65059521 0.06113218 0.00000008
-0.42275452 -0.22999983 0.00000107
-0.04541438 0.18207177 0.00000232
-0.48731325 0.04439790 0.07511421
-0.23186946 -0.29235821 0.00000340
-0.41371033 -0.16852518 0.00000109
-0.45430996 0.14255078 0.07841105
-0.08838497 0.02107060 0.00000154
-0.72535136 -0.39823368 0.09867968
-0.03127296 -0.19994757 0.00000146
-0.36805694 0.28163855 0.06606900
-0.32054061 -0.59633442 0.00000038
-0.32461604 -0.24467113 0.00000447
-0.30297407 -0.41514218 0.00000072
-0.20867536 -0.27531567 0.00000319
-0.41618437 0.14375312 0.06219626
-0.03018234 0.24015800 0.00000884
-0.64849532 0.07122853 0.14934432
-0.73809370 -0.16521246 0.14575308
-0.38419256 -0.28593323 0.00000096
-0.24592134 -0.04174805 0.00000402
-0.16608946 0.05198721 0.00000335
-0.39476211 0.13536166 0.00000403
-0.70027640 -0.74844095 0.02538066
-0.76092317 -0.48329041 -0.00000079
-0.00606746 -0.28658958 0.00000096
-0.64782128 -0.60622300 0.02816059
-0.37382910 0.20852015 0.00000348
-0.24573442 0.48141995 0.04902129
-0.24207949 -0.39284469 0.00000332
-0.25501043 -0.63416941 0.00000031
-0.14368855 0.42969327 0.00000500
-0.16193634 -0.31619331 0.00000091
-0.06745806 -0.43832267 0.00000139
-0.34295655 0.18240921 0.00000119
-0.03698877 0.27393442 0.00000201
-0.25936820 0.02005111 -0.00000380
-0.31826258 0.06744605 0.00000152
-0.05713611 0.29378899 -0.00000477
-0.55944607 0.12234485 0.12010140
-0.64011598 -0.37792199 0.06558211
-0.14639498 -0.28847615 0.00000096
-0.36391242 -0.22509344 0.00000492
-0.07992612 -0.51164759 0.00000054
-0.20070749 0.51167200 0.00000288
-0.72246961 0.04647688 -0.00000148
-0.34664825 0.18196243 0.03905992
-0.58027776 -0.27891530 0.05746992
-0.53023356 -0.66801548 0.00000585
-0.44925482 -0.00853481 0.00000063
-0.03294826 0.39772254 0.00000259
-0.27543910 -0.32355896 0.00000380
-0.04975424 0.30219877 0.00000259
-0.51139855 -0.54193266 0.00000589
-0.43380642 0.28413743 0.09484413
-0.07087487 0.08588324 0.00000166
-0.66585367 0.08300440 -0.00000110
-0.05203213 0.20722209 -0.00000654
-0.18071830 -0.40352356 0.00000265
-0.21609382 -0.48514507 0.00000059
-0.31119991 -0.05428760 0.00000140
-0.56391395 -0.19362189 -0.00000000
-0.74942303 -0.59902928 0.07321780
-0.37982866 0.34377267 0.08223000
-0.19035500 -0.78190455 0.00000204
-0.40865970 0.31766340 0.00000054
-0.35688970 0.18519362 0.00000411
-0.42423203 0.09236026 0.05649576
-0.11963761 0.56026315 0.00876346
-0.08639544 0.45923798 0.00000327
-0.08985404 0.08329222 -0.00000773
-0.45624508 0.06060651 0.00000049
-0.36539381 -0.46478817 0.00000449
-0.00541704 0.66940777 0.00000439
-0.00234752 0.57132353 0.00000257
-0.06380731 -0.76662085 0.00000006
-0.16066125 0.07037274 -0.00000583
-0.64293771 -0.75791487 0.00000687
-0.10491885 -0.68195771 0.00000022
-0.63791924 -0.58196807 0.02822284
-0.02542810 -0.36262638 0.00000109
-0.13485820 -0.33638229 0.00000087
-0.43816435 0.13592220 0.00000319
-0.43904086 -0.66129815 0.00000490
-0.10048905 -0.72263018 0.00000121
-0.59622924 -0.77633497 0.00000004
-0.21371174 -0.14081490 0.00000349
-0.00068113 0.75696211 0.00000347
-0.01636769 0.73788366 0.00000288
-0.75183132 -0.33240837 0.12183493
-0.74205038 -0.27004245 -0.00000124
-0.13224999 -0.19002040 0.00000114
-0.67214414 0.03853981 0.15369947
-0.13480359 0.39126402 0.00000223
-0.43605020 -0.49976679 0.00000056
-0.13390081 -0.62929426 0.00000173
-0.11584355 0.10711208 0.00000170
-0.37399226 0.10988505 0.00000105
-0.42500117 -0.55375260 0.00000046
-0.49195997 0.09484808 0.08611921
-0.02260916 0.48419655 0.00000621
-0.06811306 0.29373303 0.00000205
-0.03507077 0.66196220 0.00000274
-0.01753530 -0.76618223 0.00000006
-0.60642639 -0.32647853 0.06024778
-0.36429472 0.37835112 0.00000147
-0.48564613 0.08082387 0.08089295
-0.23374970 0.34800211 0.00000181
-0.05369263 0.11507714 -0.00000822
-0.70187740 -0.76477427 -0.00000009
-0.03676627 -0.37425555 0.00000119
-0.59540659 -0.20397981 0.07736047
-0.30374190 -0.19190722 0.00000435
-0.42452774 0.36509299 0.00000048
-0.40779041 -0.74107863 0.00000011
-0.74825196 -0.58184329 0.07578017
-0.65062884 -0.15569452 0.10976878
-0.07352056 0.59606668 0.00000418
-0.20353957 -0.07212673 0.00000136
-0.24519186 0.20952864 0.00026838
-0.18497644 -0.54948042 0.00000047
-0.47828755 -0.53743291 0.00000554
-0.47999614 -0.07889195 0.00000049
-0.63679130 0.06559698 0.14329655
-0.32824582 0.05628219 0.00869677
-0.43366812 -0.22120176 0.00000101
-0.01063087 -0.40196035 0.00000086
-0.35758043 0.19496674 0.00000107
-0.52556124 -0.74213882 0.00000011
-0.45063987 -0.14400870 0.02569217
-0.40043654 0.37775170 0.00000052
-0.40518582 -0.71181516 0.00000445
-0.03648443 0.18806691 0.00000933
-0.24183349 -0.06821919 0.00000393
-0.20676321 0.13362855 0.00000175
-0.16217845 -0.44635261 0.00000238
-0.30665963 0.29299267 0.04164526
-0.07808737 -0.79091444 0.00000084
-0.22310909 0.51981711 0.04612590
-0.59008137 0.02772800 -0.00000047
-0.62624024 -0.11142448 0.10716151
-0.01940255 0.55756690 0.00000543
-0.09818416 0.60114033 0.00681559
-0.36555364 -0.74288915 0.00000397
-0.41881854 0.05364299 0.00000463
-0.19103121 0.29863360 0.00000408
-0.18041893 0.32697739 0.00000211
-0.38181012 -0.49339612 0.00000461
-0.22010643 -0.64475396 0.00000262
-0.42984090 -0.13039228 0.01916117
-0.10911235 0.39254843 0.00000594
-0.24713849 0.49197409 0.05150984
-0.58903585 -0.13900304 -0.00000026
-0.27443436 0.48170722 0.06143839
-0.26751624 0.20454483 0.00000173
-0.54682808 -0.57339834 0.00000042
-0.16606166 0.32911347 0.00000387
-0.06758629 0.36601134 0.00000686
-0.53948282 0.06078274 0.10051456
-0.02643966 0.61757738 0.00000266
-0.22005492 0.40877600 0.02499240
-0.44190007 -0.75080669 0.00000009
-0.27073578 0.01759893 0.00000772
-0.12936635 0.15653072 0.00000316
-0.30000348 0.39520786 0.00000125
-0.07405016 0.28837786 0.00000204
-0.49041360 -0.33435770 0.00885949
-0.08960102 0.04181568 0.00000252
-0.23313241 0.22935126 -0.00000066
-0.20164333 -0.69334129 0.00000020
-0.17625268 -0.76138127 0.00000007
-0.38857943 0.31731082 0.08127874
-0.13048731 0.33179404 0.00000350
-0.69565414 0.02351101 -0.00000125
-0.15103142 -0.79393121 0.00000001
-0.08337400 0.38954977 -0.00000218
-0.77264842 -0.44256455 0.11114584
-0.65230941 -0.15582754 -0.00000071
-0.18597284 0.51271091 0.02885892
-0.24750268 0.20160873 0.00000600
-0.23896646 0.38515160 0.00000172
-0.06285016 -0.72130220 0.00000015
-0.15220784 0.05251139 -0.00000642
-0.18352133 -0.14835913 0.00000316
-0.26465950 0.14265497 0.00000456
-0.45243352 0.12781741 0.00000044
-0.29038494 -0.35100442 0.00000391
-0.19770552 0.27117297 0.00000201
-0.67395536 -0.12974459 -0.00000090
-0.07508938 0.52650122 0.00000494
-0.41360877 -0.64514811 0.00000029
-0.55633789 0.23655254 -0.00000047
-0.06892180 0.66313130 0.00000345
-0.10818548 0.54633399 0.00000250
-0.34535774 0.16842926 0.00000455
-0.07809777 -0.46038475 0.00000064
-0.05059418 -0.12287175 0.00000180
-0.39011517 0.36093586 0.08972546
-0.32684160 -0.53959434 0.00000049
-0.12809125 -0.16402844 0.00000255
-0.39460454 0.27132195 0.00000227
-0.05049814 0.72581922 0.00852187
-0.34513400 0.04643091 0.01421491
-0.61172757 -0.73533574 0.00000658
-0.49609472 -0.16145974 0.00000047
-0.36971941 -0.02539021 0.00000124
-0.59367809 -0.21149623 -0.00000020
-0.02705808 0.69598047 0.00000309
-0.64563939 -0.15298218 0.10810318
-0.42930760 0.07979614 0.05643597
-0.16713474 -0.72007910 0.00000192
-0.02410840 -0.77703658 0.00000030
-0.13700843 0.20895763 0.00000758
-0.50972855 -0.00414048 0.07610960
-0.16772023 0.50869479 0.00000355
-0.36126227 0.19658208 0.04796141
-0.13724834 0.40700867 -0.00000023
-0.33435357 0.20289882 0.00000431
-0.18687182 -0.61770279 0.00000034
-0.65081441 0.10426688 -0.00000101
-0.38326862 -0.66266593 0.00000431
-0.30313462 -0.74463816 0.00000331
-0.64136329 -0.61423031 -0.00000007
-0.21888345 0.57820617 0.00000167
-0.32559640 -0.23206086 0.00000450
-0.43987705 -0.02457884 0.00000072
-0.67479358 -0.33299716 -0.00000066
-0.68030807 -0.49883061 0.06132159
-0.26544743 0.49168548 0.05934718
-0.24824859 0.39833952 0.00000344
-0.22909775 0.23557245 0.00000589
-0.03539905 0.24145216 0.00000875
-0.43258312 -0.68289729 0.00000479
-0.02123077 0.08704539 0.00000166
-0.24086394 0.35226585 0.02387259
-0.24269423 -0.29203254 0.00000352
-0.13281834 0.56608345 0.00000348
-0.15151862 0.58443113 0.02681364
-0.45912359 -0.13655541 0.00000071
-0.14608171 -0.62068285 0.00000034
-0.56601683 -0.04637682 0.09282325
-0.30811550 -0.68055794 0.00000022
-0.11851905 -0.70037614 0.00000019
-0.42161663 0.29002998 0.09064291
-0.30281923 -0.38949120 0.00000397
-0.45634984 0.30085149 0.00000020
-0.37887516 0.22886635 0.00000312
-0.77657956 -0.06982384 -0.00000174
-0.32110327 0.13468429 0.01961188
-0.14239628 -0.18894132 0.00000265
-0.29348657 0.35977388 0.04788724
-0.34084151 -0.57457582 0.00000042
-0.48554134 0.18115616 0.09875419
-0.47705137 0.14411005 0.08848462
-0.23504831 -0.36479836 0.00000330
-0.19558873 -0.24211629 0.00000311
-0.11499616 0.01923379 0.00001005
-0.63310153 0.02594106 0.00000087
-0.40248340 -0.24299277 0.00000104
-0.52236074 0.18462693 0.11523828
-0.34392516 -0.27247860 0.00000099
-0.02451521 -0.59639607 0.00000038
-0.19806512 -0.09424096 0.00000132
-0.45419584 0.13948236 0.00000041
-0.32375137 -0.67975474 0.00000364
-0.15882641 -0.61383389 0.00000203
-0.65203545 -0.65456487 0.02134939
-0.57175206 0.16960639 -0.00000050
-0.60784574 -0.41389970 -0.00000006
-0.02651488 0.19317939 -0.00000758
-0.23503046 -0.10679013 0.00000130
-0.57835920 -0.04392479 -0.00000029
-0.24294984 -0.77439039 0.00000261
-0.13836571 -0.64379713 0.00000029
-0.29775165 0.15731948 0.00000561
-0.17839564 0.10451286 0.00000358
-0.52448347 -0.55809515 0.00000599
-0.63725873 0.07886774 0.00000010
-0.22322400 -0.20002597 0.00000112
-0.26202833 -0.44251049 0.00000067
-0.11786746 0.59372114 0.00000237
-0.60310985 -0.00133758 -0.00000053
-0.60911659 -0.69617548 0.00000019
-0.04731158 0.19124576 -0.00000699
-0.10501047 0.02178446 0.00000265
-0.27801899 -0.64097812 0.00000030
-0.78872780 -0.16497605 -0.00000159
-0.06986339 0.21373901 0.00000190
-0.24090863 0.23036791 0.00214188
-0.25918535 -0.77285616 0.00000279
-0.06734753 0.28386731 0.00000203
-0.57095968 -0.17011726 -0.00000008
-0.03674571 0.03446433 0.00000156
-0.69999798 -0.09821333 -0.00000113
-0.48097924 0.17639785 0.00000017
-0.02121640 -0.27267448 0.00000099
-0.29359388 -0.57456251 0.00000042
-0.29715522 0.44648779 0.00000121
-0.12186935 0.47252910 0.00000485
-0.37482605 -0.72551541 0.00000410
-0.20990230 -0.53169819 0.00000272
-0.67909374 -0.20800100 0.11269812
-0.53189832 0.00573652 -0.00000000
-0.47853191 0.22557471 0.00000013
-0.35717078 -0.01232216 0.00000132
-0.39270419 0.05866975 0.03690030
-0.09181824 -0.14301403 0.00000220
-0.47948616 0.26664728 0.00000070
-0.27657495 0.20411071 0.01282243
-0.58599069 -0.34124184 0.04880883
-0.57537988 -0.49091292 0.00000028
-0.59303918 0.09573052 0.12982501
-0.50177976 -0.68942208 0.00000021
-0.52751889 -0.07659347 0.00000013
-0.42944136 0.03008777 0.04762734
-0.19978847 -0.36896883 0.00000081
-0.27800251 -0.29520164 0.00000388
-0.08960416 -0.25407693 0.00000102
-0.27976806 0.22282498 0.01753776
-0.27658178 -0.31960356 0.00000382
-0.16631888 -0.50726744 0.00000231
-0.14189817 0.39585187 0.00000374
-0.23726972 -0.09795356 0.00000382
-0.56266607 0.19368297 0.00000005
-0.53745775 -0.19105105 0.05470134
-0.54635480 0.12580978 0.00000124
-0.50111006 -0.67478962 0.00000023
-0.45422590 0.11686034 0.00000044
-0.43025287 0.33610627 0.00000075
-0.69653939 -0.12435982 -0.00000108
-0.59761671 -0.41964557 0.03982625
-0.33670889 -0.77726829 0.00000004
-0.00345578 0.03078338 -0.00001132
-0.26109406 0.44358683 0.04888690
-0.05857514 0.41438538 0.00000290
-0.54349235 -0.25991703 0.00000023
-0.77393655 -0.16416325 -0.00000159
-0.58829149 -0.13742345 -0.00000025
-0.47246010 0.21796875 0.00000147
-0.36294260 0.03300956 0.01949884
-0.20858238 0.51513338 0.03903113
-0.23659625 0.25723787 0.00000189
-0.18044304 0.48692558 0.02187500
-0.45623062 0.26174555 0.10050847
-0.62720837 -0.56448472 -0.00000002
-0.09861188 0.11426079 0.00000171
-0.31029635 -0.10186407 0.00000131
-0.22975229 -0.09420224 0.00000375
-0.51063307 -0.71120543 0.00000556
-0.22711637 0.10096488 0.00000744
-0.36995764 -0.01882428 0.01327120
-0.69265001 -0.14145539 0.13041394
-0.54260851 -0.75513138 0.00000008
-0.30131465 -0.50198267 0.00000056
-0.42370740 -0.15712237 0.01174856
-0.29071970 0.01577496 -0.00000293
-0.20725753 0.54914172 0.04453030
-0.56611060 -0.60193597 0.00000635
-0.13384627 -0.14041451 0.00000124
-0.44579414 -0.74368433 0.00000481
-0.12202166 0.18339954 0.00000313
-0.77528162 -0.44949676 0.11104323
-0.67707349 -0.44377057 -0.00000054
-0.41894255 0.16072730 0.00000324
-0.16564256 0.26234631 -0.00000208
-0.10530917 0.49589185 0.00000483
-0.55976273 -0.03786062 0.09164852
-0.28410462 -0.24390513 0.00000404
-0.45655041 0.24362925 0.00000144
-0.26031716 0.41231268 0.00000153
-0.23166613 0.15098226 0.00000178
-0.37152846 0.19780347 0.00000367
-0.34689107 -0.73433960 0.00000379
-0.07204952 0.00317661 0.00001088
-0.28147380 -0.55006314 0.00000344
-0.19057667 -0.77121298 0.00000207
-0.00544657 0.57572873 0.00000544
-0.28347375 0.28669260 0.03052819
-0.12845305 -0.59427687 0.00000174
-0.59041081 -0.44491887 0.03221158
-0.33983090 -0.65410537 0.00000386
-0.22467067 -0.30857508 0.00000092
-0.52309149 -0.18324916 0.04990415
-0.70748714 0.02178408 -0.00000134
-0.10141079 0.15720814 0.00000179
-0.44593650 0.02330702 0.05351890
-0.79955116 -0.61640948 -0.00000046
-0.04242210 0.73447632 0.00658734
-0.39454173 -0.29083339 0.00000512
-0.00807111 0.59540307 0.00000270
-0.55528263 -0.49792043 0.00761884
-0.02225517 0.07072805 0.00000187
-0.68224774 -0.79114358 0.00999285
-0.14869079 -0.26026967 0.00000258
-0.14314015 -0.18231978 0.00000116
-0.60718416 0.07955989 0.13303224
-0.59154267 -0.63583448 0.00000656
-0.43690557 0.28307100 0.00000131
-0.79708069 -0.51115002 -0.00000072
-0.30090503 -0.58742236 0.00000040
-0.63252650 -0.14964404 0.10304941
-0.61180505 -0.71590181 0.00000662
-0.02352091 -0.11238115 0.00000129
-0.06694347 -0.43559877 0.00000139
-0.18026416 0.11861051 0.00000363
-0.21470643 -0.18521884 0.00000115
-0.56320481 0.07689251 0.11360964
-0.35960875 0.19750067 0.04741660
-0.35537728 0.05200426 0.00000126
-0.24336847 -0.33913270 0.00000086
-0.05796165 0.50841789 0.00000245
-0.21849856 -0.74616031 0.00000010
-0.48349459 0.10067198 0.08351133
-0.69124572 -0.16451582 0.12569370
-0.34931138 0.09554546 0.02478583
-0.41950372 0.25135036 0.00000205
-0.16519744 0.00884756 0.00000941
-0.34384047 0.43461099 0.00000088
-0.02779396 0.63004363 0.00000065
-0.47503566 0.04164677 0.00000370
-0.19926685 -0.20512090 0.00000112
-0.04604486 -0.27365165 0.00000147
-0.40779872 0.31393468 0.08895658
-0.13102568 -0.49126072 0.00000196
-0.45984554 -0.46362298 0.00000063
-0.13277415 0.56123685 0.00000354
-0.06476774 0.21702367 0.00000259
-0.13613087 0.04059738 0.00000158
-0.21616894 0.24312083 0.00000600
-0.04930695 0.14708067 0.00000230
-0.05220062 -0.57512995 0.00000042
-0.38001770 -0.44977536 0.00000066
-0.09601332 -0.52836658 0.00000051
-0.10542098 0.05751312 0.00000272
-0.35767269 -0.78258620 0.00000381
-0.55448272 -0.21905560 0.05703875
-0.25706456 0.38779537 0.00000340
-0.00596204 -0.64282947 0.00000029
-0.45045371 0.23514441 0.09327194
-0.57230273 -0.72952790 0.00000618
-0.50664591 -0.61441578 0.00000570
-0.20991897 0.14288837 0.00000399
-0.22165979 -0.17855378 0.00000117
-0.18060669 0.46108915 0.01733489
-0.47343054 0.25196074 0.00000013
-0.09400806 0.02953340 -0.00000861
-0.32074623 0.19874011 0.03089015
-0.17655436 0.56621423 0.03434900
-0.25742219 0.37512028 0.03508811
-0.34259152 -0.51851555 0.00000415
-0.23911885 0.54615803 0.00000152
-0.12156058 0.57998890 0.00000352
-0.26312697 -0.52870666 0.00000329
-0.19248533 0.11291220 -0.00000407
-0.69346131 -0.15702489 0.12798504
-0.37993585 0.17971190 0.00000374
-0.01243383 -0.38230032 0.00000078
-0.54875046 0.05774856 0.00000208
-0.34649789 0.29249872 0.05872078
-0.76950607 -0.68704131 -0.00000028
-0.20735745 0.43307046 0.02385752
-0.57418354 -0.55553378 0.00000036
-0.27771046 0.40865456 0.00000140
-0.00885841 0.39872107 -0.00000426
-0.29822925 0.04369827 0.00000158
-0.32841199 0.20521879 0.00000127
-0.45843034 0.24005337 0.09758480
-0.32177301 0.29120672 0.00000122
-0.54679690 -0.10003760 0.00000001
-0.35135777 0.39803616 0.00000146
-0.54521972 -0.13319647 0.00000007
-0.26663674 0.05383154 0.00000160
-0.74003178 -0.77263962 0.03819027
-0.11202060 0.11438524 -0.00000647
-0.03741266 -0.67581131 0.00000023
-0.42716211 -0.14492843 0.00000096
-0.31508766 0.18647450 0.00000139
-0.59951708 -0.42252231 0.00000001
-0.27877297 -0.07385087 0.00000431
-0.00561519 0.21861976 0.00000197
-0.03453220 0.68866495 0.00000373
-0.22209302 0.17302796 -0.00000205
-0.62162000 -0.36898535 -0.00000022
-0.00365035 0.12711322 0.00001051
-0.32282649 0.38701455 0.00000109
-0.29493823 0.25967223 0.00000434
-0.70596900 -0.02471731 -0.00000127
-0.38093572 -0.79811113 0.00000403
-0.21666670 0.14370760 0.00000406
-0.41919974 0.19306323 0.00000281
-0.02772462 0.27616480 -0.00000599
-0.38392442 0.36770044 0.00000066
-0.32675974 -0.54751243 0.00000047
-0.27328073 0.29427794 0.02749027
-0.06970696 0.69795729 0.01182515
-0.01733415 -0.75713181 0.00000026
-0.18402229 -0.79221450 0.00000001
-0.27120864 -0.02976666 0.00000431
-0.05539074 0.15915507 0.00000180
-0.23432702 -0.65040012 0.00000028
-0.37775401 -0.18630266 0.00000514
-0.74310079 -0.79307584 -0.00000002
-0.66546662 -0.26987641 0.09578518
-0.14908240 -0.39687720 0.00000076
-0.43503331 -0.45798597 0.00000524
-0.68536614 -0.01632266 0.14960625
-0.76690241 -0.52517149 0.09392872
-0.75940995 -0.08322958 0.16956701
-0.06957458 -0.76991470 0.00000006
-0.77663273 -0.74042279 0.05970842
-0.20789415 0.39013278 0.01642564
-0.13359707 0.21406419 0.00000190
-0.10448006 -0.07633625 0.00000136
-0.02256445 -0.77580624 0.00000005
-0.27436589 -0.76733591 0.00000296
-0.39218965 -0.48129007 0.00000060
-0.51363706 -0.32980089 0.00000054
-0.35937378 -0.32285072 0.00000469
-0.74806579 -0.71185930 0.05249809
-0.62004671 -0.68126261 0.00000017
-0.41665377 -0.52342477 0.00000052
-0.48491599 -0.32165901 0.00000075
-0.02075346 -0.47799433 0.00000082
-0.71146028 -0.04185868 0.15629148
-0.58604223 -0.45107885 0.00000015
-0.56242898 -0.35392069 0.00000021
-0.01316546 0.64669677 0.00000453
-0.67027905 -0.06828749 0.13383288
-0.21793162 -0.65879596 0.00000257
-0.37236512 0.07830162 0.00000110
-0.48817323 -0.46612778 0.00000578
-0.26771701 -0.50342272 0.00000056
-0.22711444 0.34823089 0.00000449
-0.14848329 0.50657023 0.01160906
-0.22116477 -0.24174804 0.00000338
-0.51883360 -0.12052573 0.00000025
-0.51019155 0.21299547 0.11505716
-0.01768307 0.72057743 0.00000363
-0.35562339 0.44236411 0.00000078
-0.64442397 -0.63674877 0.02124946
-0.51934938 0.04472046 0.00000281
-0.49313842 -0.42101149 0.00000071
-0.46971533 -0.68522020 0.00000518
-0.13953122 0.01630343 0.00000971
-0.06507992 -0.67980849 0.00000023
-0.30299229 0.33561781 0.04767187
-0.24792720 0.03893647 0.00000157
-0.66264282 0.02453052 0.14710669
-0.02055710 -0.07768746 0.00000157
-0.04380800 0.15626190 -0.00000775
-0.06531564 -0.14767226 0.00000122
-0.11516871 -0.45480010 0.00000186
-0.64268204 -0.34093833 0.07328753
-0.36194903 0.37533593 0.00000081
-0.06952140 -0.24752254 0.00000104
-0.46586321 -0.55263343 0.00000538
-0.61529716 -0.57449594 0.01980992
-0.25436335 0.28903873 0.01840464
-0.45666863 -0.27938043 0.00413194
-0.02081730 0.69514282 0.00000387
-0.10741827 -0.42914779 0.00000183
-0.36035202 0.07833862 0.00000543
-0.15876175 0.36069898 -0.00000045
-0.52730607 -0.20796977 0.04730844
-0.35835962 -0.03433665 0.00000134
-0.68339831 -0.27297545 0.10295772
-0.35085145 0.34560695 0.07007382
-0.37215706 0.30078070 0.07125186
-0.56042253 -0.29028089 0.04688738
-0.21685463 0.01438984 0.00000857
-0.37003473 -0.20798385 0.00000111
-0.05083596 0.06150092 0.00000162
-0.28592666 0.18735718 0.01386172
-0.28112398 -0.55226429 0.00000343
-0.47731088 -0.15255848 0.03565720
-0.23066523 0.45974272 0.03865995
-0.44276462 -0.03815975 0.00000071
-0.15019514 -0.58361702 0.00000041
-0.01860105 -0.65131213 0.00000028
-0.04213504 0.59494728 0.00000262
-0.23225258 0.44504101 0.00000314
-0.33960432 0.20648042 0.04039661
-0.22063952 -0.28060598 0.00000097
-0.65246878 -0.55116632 -0.00000023
-0.18884684 0.42920222 0.00000418
-0.69402896 -0.02917416 0.15104508
-0.30825725 0.14167928 0.00000561
-0.28544059 0.50631032 0.00000132
-0.36630204 0.35657695 0.07868722
-0.13642616 -0.11754676 0.00000128
-0.68957244 -0.29556917 0.10158581
-0.32350390 0.23677095 0.03886569
-0.36606858 0.01137365 0.01698460
-0.16543469 0.49430379 0.00000214
-0.20311482 0.00051969 0.00000365
-0.31118402 0.13995242 0.00000557
-0.01982409 0.42672325 0.00000230
-0.63732264 -0.56457790 0.03106915
-0.18554091 0.33174645 0.00000547
-0.13144643 -0.35955475 0.00000221
-0.77661110 -0.68308570 0.06993113
-0.51145245 -0.55022188 0.00000587
-0.64494624 -0.28569538 0.08412135
-0.08492353 -0.17100117 0.00000208
-0.16946274 -0.35985535 0.00000262
-0.63811962 -0.16945881 -0.00000058
-0.32258898 0.30937849 0.05143228
-0.47905959 -0.06575524 0.05190098
-0.57806469 -0.39171725 0.03638650
-0.12203356 -0.60969007 0.00000036
-0.45332556 0.30413099 0.00000072
-0.41381013 0.23000761 0.00000244
-0.65337969 -0.58075619 -0.00000020
-0.04641576 0.65804933 0.00000174
-0.55180120 -0.69077163 0.00000603
-0.03574789 0.30150842 0.00000807
-0.26790509 -0.01027244 0.00000148
-0.10287644 0.18783581 0.00000833
-0.27797822 0.34169294 0.00000360
-0.07405415 0.34869210 0.00000215
-0.65803927 -0.51292303 0.04921259
-0.19160654 0.52201134 0.00000191
-0.31629576 0.30097570 0.04722143
-0.41480761 0.06687966 0.00000453
-0.24057526 -0.59592025 0.00000292
-0.45224998 -0.26517686 0.00476292
-0.34930877 0.04697598 0.01611090
-0.11592063 -0.37571378 0.00000202
-0.33039557 -0.09305203 0.00000482
-0.37856605 -0.13945484 0.00000124
-0.44331706 -0.54259009 0.00000048
-0.05143701 0.63844847 0.00000404
-0.33126758 0.36703963 0.06545984
-0.65409585 -0.17612763 0.10761612
-0.74265222 -0.36948778 0.11126330
-0.27629092 -0.29621541 0.00000094
-0.31329587 0.19646366 0.00000480
-0.21527637 0.24580290 0.00000196
-0.03306787 -0.55723936 0.00000046
-0.56359574 0.07799817 -0.00000033
-0.50757457 -0.44263359 0.00000067
-0.47526305 -0.64222217 0.00000030
-0.37547133 -0.42823451 0.00000466
-0.46260847 -0.06534937 0.04488572
-0.16881423 -0.16223250 0.00000120
-0.53016871 -0.16090823 0.05694009
-0.19397405 0.53363347 0.00000273
-0.65021680 0.08143389 -0.00000018
-0.24799753 0.27901490 0.00000178
-0.53431617 0.20498208 0.00000045
-0.33912109 -0.17356572 0.00000476
-0.00179515 -0.20089752 0.00000114
-0.55852796 -0.34527676 0.03625691
-0.29451449 0.06207168 -0.00000195
-0.71419487 -0.22220716 0.12528572
-0.40009997 0.05493747 0.03941527
-0.56270274 -0.17148091 0.06907011
-0.28442613 -0.01434422 0.00000147
-0.79103245 -0.40054740 -0.00000100
-0.61974347 0.11798313 -0.00000007
-0.62819555 -0.58801238 0.02295492
-0.18225046 0.59711969 0.00000189
-0.07885666 -0.51553856 0.00000137
-0.40904661 0.38312330 0.00000045
-0.08641776 0.21113462 0.00000281
-0.66978410 0.10481385 -0.00000086
-0.35484233 0.00979119 0.00000131
-0.39218631 0.01694975 0.00000103
-0.19768241 -0.68196214 0.00000231
-0.35684753 0.39279729 0.00000083
-0.13976239 0.47063276 0.00144088
-0.13365809 0.36457752 0.00000218
-0.10462540 0.67984703 0.02363767
-0.36901420 -0.41543766 0.00000072
-0.13464650 -0.11444136 0.00000271
-0.43050918 0.26161979 0.00000171
-0.30298361 0.32221824 0.04527693
-0.47618152 -0.76912626 0.00000509
-0.65755053 -0.37954731 -0.00000047
-0.56726608 -0.06868515 0.08938046
-0.29664391 0.32911607 0.00000136
-0.14313396 0.58871010 0.02396386
-0.18938274 0.16837949 -0.00000313
-0.61364801 -0.48835824 0.03447102
-0.60251739 0.06145160 0.12778975
-0.18114637 0.10260904 0.00000169
-0.68366212 -0.17108626 0.12125391
-0.43410170 0.33263729 0.10362635
-0.00686361 0.62051782 0.00000274
-0.41867794 -0.14454128 0.00000102
-0.09310938 -0.01022903 0.00000246
-0.11389874 0.59371417 0.00000240
-0.46602401 0.28494805 0.10886922
-0.44234121 0.30681855 0.00000030
-0.53202901 -0.38406432 0.00000047
-0.08191418 0.32059772 0.00000210
-0.35689331 0.21736732 0.04978859
-0.44597681 -0.59549895 0.00000509
-0.19905786 0.55983436 0.00000229
-0.09174906 0.39836312 -0.00000176
-0.47476987 -0.46194238 0.00000063
-0.01048122 0.54682082 0.00000569
-0.32254438 0.38002422 0.06402008
-0.30835402 0.04288046 0.00000484
-0.14723426 0.55499972 0.00000220
-0.33306232 -0.56918708 0.00000395
-0.08329057 -0.50411553 0.00000055
-0.01075897 0.65891051 0.00000285
-0.39480943 0.25295315 0.07247795
-0.14574433 -0.13447225 0.00000279
-0.64715094 -0.49055410 -0.00000026
-0.33521717 0.42786461 0.00000138
-0.16404866 0.58647001 0.03257585
-0.03789572 -0.35670330 0.00000123
-0.40221029 0.17407482 0.00000076
-0.47083804 -0.69030549 0.00000021
-0.49015496 0.03733969 0.07507492
-0.42311418 0.02493015 0.04397555
-0.59860707 -0.74134422 0.00000011
-0.02354924 0.49091524 0.00000612
-0.20415532 0.23357324 0.00000629
-0.21863241 -0.27709293 0.00000329
-0.11935179 -0.33403457 0.00000213
-0.42293078 -0.51763894 0.00000500
-0.54981179 -0.27038764 0.04586595
-0.04402445 -0.13137749 0.00000172
-0.74154035 -0.01970959 0.17320358
-0.53954372 -0.75730309 0.00000008
-0.66344619 -0.45529030 0.06182687
-0.39360753 -0.48829084 0.00000058
-0.42871291 -0.29768033 0.00000094
-0.18311148 -0.49001063 0.00000252
