ply
format ascii 1.0
element vertex 1408
property float x
property float y
property float z
end_header
-0.66444181 0.33570351 0.00000000
-0.18015983 0.12283903 0.00000000
-0.61714129 -0.52823816 0.00000000
-0.53667122 0.35493673 0.00000000
0.65768689 0.32272425 0.10515979
-0.46763546 -0.33750295 0.00000000
0.71277286 0.39922342 0.18185899
-0.49710269 -0.35236446 0.00000000
-0.30022967 -0.40772936 0.00000000
0.28731939 -0.78442673 0.00000000
-0.12175398 0.46530498 0.00000000
-0.17931648 -0.43059239 0.00000000
0.73206305 -0.27594366 0.00000000
0.74417213 -0.74907024 0.00000000
0.51448727 0.69873344 0.24086148
0.60588152 0.29195107 0.05702587
-0.58997135 -0.39318868 0.00000000
-0.17577715 -0.07567215 0.00000000
-0.42152730 -0.23977494 0.00000000
0.50099452 -0.12765821 0.00000000
0.33501280 0.26869315 0.00000000
-0.44087577 -0.37338070 0.00000000
-0.67592628 -0.60526643 0.00000000
0.59989528 0.40086607 0.11702165
-0.70712531 0.66235103 0.00000000
-0.32101338 -0.16884238 0.00000000
-0.39321462 0.32447657 0.00000000
0.21562028 0.02608056 0.00000000
-0.27644065 0.22769086 0.00000000
-0.64896008 -0.39806734 0.00000000
-0.68398873 -0.56402737 0.00000000
0.05209877 0.19302805 0.00000000
0.63530289 -0.13921601 0.00000000
-0.79431700 -0.33253345 0.00000000
-0.65953153 -0.72344079 0.00000000
0.00748238 0.14893228 0.00000000
0.68027162 0.11426219 0.00000000
-0.48161921 0.55514406 0.00000000
0.60679275 -0.59444982 0.00000000
0.54889365 -0.78877265 0.00000000
-0.64627731 0.05468446 0.00000000
-0.46422488 -0.66231474 0.00000000
-0.57779536 -0.44578429 0.00000000
-0.37973635 -0.64786340 0.00000000
0.15958201 0.26312088 0.00000000
-0.69576330 -0.15164739 0.00000000
-0.26500137 0.26319418 0.00000000
0.56534451 0.36175331 0.07408418
-0.32036325 -0.31728689 0.00000000
0.12420556 0.71496656 0.02283347
0.22495681 0.57116409 0.00000000
0.31466456 0.66068681 0.10221054
0.71835774 0.06370473 0.00000000
-0.13123769 0.11684470 0.00000000
0.56361296 0.05248657 0.00000000
-0.33947316 -0.25573216 0.00000000
0.42847530 0.22738061 0.00000000
0.22765689 -0.05319089 0.00000000
0.28543853 -0.60432787 0.00000000
-0.33910855 -0.74544992 0.00000000
0.72881781 0.19669270 0.07315896
0.43719129 0.12649930 0.00000000
-0.14807777 0.01379995 0.00000000
-0.45338819 -0.76450174 0.00000000
0.30508933 0.69320987 0.11558654
0.39920263 0.37374553 0.00000000
-0.15980322 -0.11303037 0.00000000
-0.60413601 0.29435622 0.00000000
-0.50792440 -0.71341192 0.00000000
-0.29288418 -0.05257713 0.00000000
-0.77014225 -0.72395919 0.00000000
-0.34934562 0.56410470 0.00000000
0.58244018 -0.03836111 0.00000000
-0.50544216 -0.10588422 0.00000000
0.14226792 -0.23742231 0.00000000
-0.11850356 0.78499060 0.00000000
-0.67564037 -0.62251780 0.00000000
0.13424953 0.60110831 0.00000000
0.24452735 -0.40462584 0.00000000
0.74377899 -0.41042597 0.00000000
-0.18617887 0.28087427 0.00000000
0.10483401 -0.33214637 0.00000000
0.41917139 -0.48946271 0.00000000
-0.47417815 0.57250383 0.00000000
-0.75510585 -0.22791294 0.00000000
-0.22302302 -0.63115515 0.00000000
0.63962979 0.00648017 0.00000000
0.09256281 -0.04651187 0.00000000
0.11834819 0.09036405 0.00000000
-0.49200323 0.64702927 0.00000000
-0.40357145 0.22751149 0.00000000
0.17962323 -0.27649662 0.00000000
0.78571460 0.01565525 0.00079904
-0.13773603 0.35078734 0.00000000
0.03552864 -0.19701810 0.00000000
0.44571563 -0.29801921 0.00000000
0.53479038 0.23754089 0.00000000
0.47070491 -0.31744259 0.00000000
-0.07587369 0.29662379 0.00000000
-0.22730905 -0.38668595 0.00000000
0.31384107 -0.41536397 0.00000000
0.18419109 0.62972304 0.00811094
-0.10692757 -0.67422754 0.00000000
-0.68302173 -0.74414331 0.00000000
-0.75532430 -0.06370394 0.00000000
-0.37132276 0.11029799 0.00000000
0.52341100 0.31685429 0.02347067
0.58500348 0.16155446 0.00000000
-0.01739495 -0.20147935 0.00000000
-0.68161689 0.66351567 0.00000000
-0.57464990 -0.46305904 0.00000000
-0.24758879 -0.24903472 0.00000000
0.67661628 0.51731436 0.22961748
-0.45307657 0.60035449 0.00000000
-0.59012305 0.72524731 0.00000000
0.48550400 -0.04036444 0.00000000
-0.17407666 0.52127015 0.00000000
0.18561740 0.30819257 0.00000000
-0.60338949 -0.51058835 0.00000000
-0.19028166 -0.66618293 0.00000000
-0.71060217 -0.38876461 0.00000000
0.35663250 -0.38978842 0.00000000
-0.14031238 -0.55924782 0.00000000
-0.00091868 -0.06574074 0.00000000
0.29098997 0.00892482 0.00000000
-0.18719211 -0.55542308 0.00000000
0.69597983 0.09997212 0.00000000
-0.28850218 0.28157088 0.00000000
0.20714038 -0.65266095 0.00000000
0.30450276 -0.34809467 0.00000000
0.42227259 -0.26440004 0.00000000
-0.26705057 -0.53612419 0.00000000
-0.30967068 -0.78573932 0.00000000
-0.02630520 0.26992855 0.00000000
0.33267744 -0.08879217 0.00000000
0.49767406 0.63171967 0.19199981
0.19423574 -0.06708206 0.00000000
0.38053770 -0.67651206 0.00000000
0.40221943 0.68704144 0.16860691
-0.68583360 -0.41412380 0.00000000
-0.17149612 -0.23822983 0.00000000
-0.23879680 0.10882080 0.00000000
0.53882409 0.36597703 0.06108774
-0.25860830 -0.67707344 0.00000000
0.58808588 0.66869001 0.26624922
0.23003013 -0.45648927 0.00000000
-0.34001276 0.00763249 0.00000000
-0.28734813 0.05737195 0.00000000
0.64380606 0.51778092 0.21076478
0.26725287 0.75483282 0.12945140
-0.72546196 -0.69244062 0.00000000
0.25668442 -0.07002680 0.00000000
0.72456963 0.18549031 0.06415303
0.52819777 -0.29946039 0.00000000
-0.31845436 0.01425583 0.00000000
0.45309854 0.58744460 0.14020994
-0.00475190 0.77824950 0.00000000
-0.64660333 -0.54540168 0.00000000
-0.63926378 0.15139982 0.00000000
-0.32411288 0.45814824 0.00000000
-0.75627615 -0.01799779 0.00000000
-0.60366858 -0.07102470 0.00000000
0.37205634 -0.02267210 0.00000000
0.62922216 -0.22227264 0.00000000
-0.40006090 -0.29103604 0.00000000
0.74005194 0.30180405 0.14097517
0.70456925 0.54555936 0.26237456
0.50743572 -0.52402276 0.00000000
-0.08138872 -0.51844365 0.00000000
0.08399306 -0.03290794 0.00000000
-0.40125557 0.11000692 0.00000000
-0.39915271 0.02626853 0.00000000
-0.13775850 0.31842709 0.00000000
-0.64419342 -0.16882385 0.00000000
-0.27060568 0.18016375 0.00000000
0.02243764 0.24314840 0.00000000
0.31007218 0.61359918 0.07208695
0.18633244 0.34364752 0.00000000
0.47025868 -0.61503369 0.00000000
0.52436241 -0.40538757 0.00000000
0.38404171 0.41485950 0.00000000
0.36436288 -0.72041493 0.00000000
0.35368471 -0.35993100 0.00000000
-0.08196314 -0.10812842 0.00000000
-0.02137436 0.37317624 0.00000000
-0.58727127 0.44742273 0.00000000
-0.14869906 0.36197197 0.00000000
-0.21469112 -0.00760210 0.00000000
0.22467857 0.23083958 0.00000000
-0.61877351 -0.43127179 0.00000000
0.25891792 -0.21709613 0.00000000
0.04199176 -0.03881978 0.00000000
0.69458177 -0.18251138 0.00000000
-0.66682597 0.36331301 0.00000000
0.11038615 0.09616715 0.00000000
0.36021983 -0.23022915 0.00000000
0.54865259 -0.58971092 0.00000000
0.12947363 0.04104561 0.00000000
0.01179866 0.50637964 0.00000000
-0.06363667 -0.17484494 0.00000000
-0.45494862 0.04705319 0.00000000
0.56665463 0.65172396 0.24386793
-0.44074130 -0.33291039 0.00000000
0.58218157 0.17505386 0.00000000
-0.63154064 -0.57627230 0.00000000
-0.19045370 -0.26874729 0.00000000
0.58015892 -0.03362496 0.00000000
-0.02337565 0.08135955 0.00000000
0.73672900 -0.24115365 0.00000000
-0.00947366 0.32726704 0.00000000
-0.16309909 0.29562617 0.00000000
0.07188503 -0.56258998 0.00000000
0.73966516 -0.41478139 0.00000000
0.62738363 0.45383090 0.16391673
-0.17848514 0.36903105 0.00000000
0.11598461 0.16361044 0.00000000
0.43325973 0.10670109 0.00000000
0.67004799 0.69718337 0.33063228
-0.66469000 0.43571536 0.00000000
0.61079165 0.10010229 0.00000000
0.18472434 -0.17609793 0.00000000
-0.53665275 0.57581467 0.00000000
-0.66528590 -0.13854759 0.00000000
-0.00866659 -0.46591610 0.00000000
0.60898336 0.27184285 0.04711308
-0.35725308 0.74066591 0.00000000
0.23976336 0.07407986 0.00000000
0.61779532 0.48424106 0.17605351
0.39374238 -0.04194549 0.00000000
0.35391775 0.49018635 0.02570826
-0.01730624 0.69136940 0.00000000
-0.08023007 -0.54029139 0.00000000
-0.07127068 -0.23058726 0.00000000
-0.37349348 -0.39010792 0.00000000
0.58898896 -0.57221020 0.00000000
0.27111785 0.54460658 0.00916613
-0.04214364 0.27772918 0.00000000
0.39201160 -0.08401711 0.00000000
0.72196498 -0.12602810 0.00000000
0.22830121 0.01245802 0.00000000
-0.43810870 -0.74867960 0.00000000
0.38815832 0.09847434 0.00000000
-0.74324887 0.78826123 0.00000000
0.54302760 0.49544033 0.13900031
-0.20480383 0.21462095 0.00000000
-0.55162143 0.40363241 0.00000000
-0.62183471 0.68557986 0.00000000
0.15039866 -0.35109139 0.00000000
0.08550911 -0.06596219 0.00000000
0.09063996 0.41933546 0.00000000
0.63954056 -0.38547701 0.00000000
0.20617817 0.61530302 0.01252168
-0.59262720 0.64281880 0.00000000
0.68130658 -0.46062527 0.00000000
0.35204083 0.35834915 0.00000000
0.66097841 0.42087412 0.16428861
0.39705940 0.74532654 0.19957285
0.47078817 -0.79749313 0.00000000
-0.56193137 -0.34078414 0.00000000
-0.31405139 -0.11595048 0.00000000
-0.52532685 -0.54527346 0.00000000
-0.16760147 -0.15508977 0.00000000
0.41289342 -0.79460596 0.00000000
0.35021689 -0.31418728 0.00000000
0.33303716 0.39762042 0.00000000
-0.34570370 0.76281483 0.00000000
-0.45916079 -0.11678132 0.00000000
-0.74546628 0.44643120 0.00000000
-0.77356453 0.62599472 0.00000000
0.39720097 -0.16712761 0.00000000
-0.18485272 0.55824671 0.00000000
-0.20439067 0.55391835 0.00000000
0.30153440 0.11565469 0.00000000
0.27469125 0.54906020 0.01384498
0.41465350 -0.49357364 0.00000000
0.66245306 0.21338710 0.04420678
-0.44812630 -0.78587900 0.00000000
-0.51353201 -0.39491876 0.00000000
0.00473077 -0.11023273 0.00000000
0.43581749 0.28077643 0.00000000
0.07265405 0.15587354 0.00000000
0.24702597 -0.52406483 0.00000000
0.63556601 0.61095419 0.26027128
-0.32304105 0.41516711 0.00000000
0.50683569 -0.68351613 0.00000000
0.63543612 -0.30908831 0.00000000
0.64605845 0.15894200 0.00291527
0.63220388 -0.48583873 0.00000000
0.01107302 -0.70355229 0.00000000
0.48085677 0.04990159 0.00000000
-0.14676191 0.13971528 0.00000000
0.79091269 -0.78332764 0.00000000
-0.61989169 0.65650817 0.00000000
0.71968021 -0.27632860 0.00000000
-0.38633043 -0.48174237 0.00000000
0.58856605 0.55039151 0.19757441
-0.18609315 -0.25215162 0.00000000
-0.15591421 -0.70332243 0.00000000
-0.03475703 0.77504872 0.00000000
0.28162787 -0.48706379 0.00000000
0.66989476 0.26580077 0.07909567
0.62773602 0.33650324 0.09573342
-0.62583116 -0.46635107 0.00000000
-0.34721583 0.55628839 0.00000000
-0.64323767 0.26125516 0.00000000
0.59203045 0.11101102 0.00000000
-0.25094302 -0.70280240 0.00000000
-0.08987740 0.63206470 0.00000000
-0.16476981 -0.79565711 0.00000000
-0.04236265 -0.36038829 0.00000000
-0.39358521 -0.25645462 0.00000000
-0.45581561 0.72092950 0.00000000
0.59112703 -0.08619134 0.00000000
-0.41052473 -0.33912393 0.00000000
0.58363737 0.46110013 0.14265476
-0.51994567 0.00901220 0.00000000
-0.09486617 -0.11969011 0.00000000
-0.41402107 -0.21796035 0.00000000
0.50995396 -0.36224731 0.00000000
-0.50777270 0.30872001 0.00000000
0.59582472 0.62756226 0.24678724
0.48472572 0.43410880 0.06926761
-0.38695979 -0.21877613 0.00000000
0.28286428 0.41596397 0.00000000
-0.62617978 0.69616974 0.00000000
-0.48717549 -0.28464312 0.00000000
-0.34805400 0.02685026 0.00000000
-0.15567704 0.59412149 0.00000000
0.27027387 0.25538265 0.00000000
0.09059433 -0.30416602 0.00000000
-0.33499973 0.77643987 0.00000000
-0.50847411 0.07205924 0.00000000
-0.20003677 -0.13566879 0.00000000
0.68190489 0.01264198 0.00000000
-0.76926711 -0.53403616 0.00000000
-0.25487415 -0.17181541 0.00000000
-0.51484705 -0.76128515 0.00000000
0.07674909 0.15183515 0.00000000
-0.08182634 0.28537582 0.00000000
-0.01930559 -0.50424826 0.00000000
-0.35454426 -0.43130393 0.00000000
-0.05234962 -0.31534435 0.00000000
-0.25856817 -0.00752690 0.00000000
-0.71722894 0.56395334 0.00000000
-0.72601110 -0.28649446 0.00000000
0.17428854 -0.63582334 0.00000000
0.30747713 0.01911791 0.00000000
0.67835844 0.14569415 0.01402051
-0.28800495 -0.28983466 0.00000000
-0.54056771 0.45269276 0.00000000
-0.25761936 -0.19862702 0.00000000
-0.27056250 0.53828470 0.00000000
-0.77188583 -0.50373427 0.00000000
0.48309048 -0.19165696 0.00000000
-0.77734800 -0.32070707 0.00000000
0.71816242 0.09035722 0.00496656
0.61501496 0.09818912 0.00000000
0.77772176 -0.10118814 0.00000000
0.25334356 0.28879895 0.00000000
-0.62353484 -0.66159217 0.00000000
-0.64562664 0.24841743 0.00000000
0.21520488 0.59253792 0.00451375
-0.35064153 0.78476027 0.00000000
0.38492470 -0.71313863 0.00000000
-0.79416724 -0.27477549 0.00000000
-0.28489495 -0.59440105 0.00000000
-0.05421588 0.02038742 0.00000000
0.23520117 -0.22637721 0.00000000
-0.40100042 -0.01331843 0.00000000
0.18663995 -0.57139797 0.00000000
-0.61756159 -0.67716561 0.00000000
-0.66750645 0.28019453 0.00000000
-0.36369464 0.32831560 0.00000000
0.41029501 0.02584337 0.00000000
-0.52601619 -0.18541100 0.00000000
0.04081292 0.49840664 0.00000000
0.23635626 0.70284864 0.08114125
-0.42301144 0.58023077 0.00000000
-0.30323803 -0.68872794 0.00000000
-0.00542543 0.60195482 0.00000000
0.15341789 0.56851541 0.00000000
0.24207806 0.54904184 0.00000000
0.22141551 0.37977308 0.00000000
0.22047482 0.59545073 0.00928336
0.56769902 -0.06241255 0.00000000
0.52906353 0.44993583 0.10433688
-0.16894674 -0.62186421 0.00000000
0.13282256 0.71746656 0.02931342
-0.36233830 0.74906152 0.00000000
-0.76700835 -0.10424843 0.00000000
-0.49746939 0.02773175 0.00000000
-0.51394099 -0.14335681 0.00000000
-0.00942078 0.15609115 0.00000000
0.51090161 -0.34782078 0.00000000
0.24525007 -0.79322500 0.00000000
0.49816794 0.65352295 0.20499654
0.52203635 0.13438417 0.00000000
0.35785243 0.04381830 0.00000000
0.28226617 0.69232080 0.10176500
0.31348324 -0.36518303 0.00000000
-0.09457319 0.66045063 0.00000000
-0.01217600 -0.72823329 0.00000000
0.77440342 -0.59957077 0.00000000
-0.71362660 -0.77859928 0.00000000
-0.02641077 0.39943006 0.00000000
-0.04216767 0.04094936 0.00000000
-0.77257248 -0.30656774 0.00000000
0.31887159 -0.49085704 0.00000000
-0.74567104 0.74539497 0.00000000
-0.61394020 -0.27439069 0.00000000
0.19240978 -0.12205166 0.00000000
-0.76597154 0.71575150 0.00000000
0.66773487 0.07503483 0.00000000
-0.12887138 0.52790868 0.00000000
-0.33355134 -0.08530705 0.00000000
0.14863716 -0.65875864 0.00000000
0.03405033 -0.31374668 0.00000000
0.38514850 -0.51453667 0.00000000
-0.14161762 0.28887239 0.00000000
0.45441132 -0.07857877 0.00000000
0.77217105 -0.21770762 0.00000000
-0.32574155 0.71655097 0.00000000
0.50211650 0.21238496 0.00000000
-0.22662972 0.75063263 0.00000000
-0.74983139 -0.42792693 0.00000000
0.20608880 0.75536400 0.09410928
0.34903239 0.35244891 0.00000000
-0.40476353 -0.26346367 0.00000000
-0.63149333 -0.01843907 0.00000000
-0.26303770 -0.76106144 0.00000000
0.43887175 -0.10888072 0.00000000
-0.61784073 0.64294387 0.00000000
-0.68407470 -0.22798266 0.00000000
0.56619681 0.66801878 0.25309911
0.74229501 0.10630215 0.02832720
0.07435581 0.43136099 0.00000000
-0.38732026 -0.56374228 0.00000000
-0.47098717 -0.63919321 0.00000000
0.09148639 -0.37546916 0.00000000
0.66508271 -0.64883403 0.00000000
0.35315134 -0.49115027 0.00000000
-0.13638762 0.12048983 0.00000000
-0.07754033 0.04101516 0.00000000
0.27145998 0.73632662 0.12111664
-0.13111469 -0.10535741 0.00000000
-0.06983825 -0.75114525 0.00000000
0.66992269 -0.47313699 0.00000000
0.27717676 0.61743302 0.05514734
-0.71526647 0.24240295 0.00000000
0.28796851 -0.18978714 0.00000000
0.55630183 0.23837471 0.00000000
0.35377194 -0.27720591 0.00000000
-0.53224432 0.49928307 0.00000000
0.16233116 -0.65619854 0.00000000
-0.62719321 -0.63650879 0.00000000
-0.58189771 0.07471992 0.00000000
-0.63657632 0.71923960 0.00000000
-0.70367822 -0.21328515 0.00000000
-0.05718748 -0.71911936 0.00000000
-0.68558038 -0.36903201 0.00000000
-0.46500952 0.00469171 0.00000000
0.22349093 0.34406071 0.00000000
0.73740972 -0.06542059 0.00000000
0.09082722 0.38852127 0.00000000
-0.77041680 -0.61553119 0.00000000
-0.26757221 0.09699020 0.00000000
0.53902991 0.23897302 0.00000000
-0.73305811 0.74875879 0.00000000
0.79230464 0.02404095 0.00952820
-0.74738076 -0.79566484 0.00000000
0.23841810 0.70795517 0.08531960
0.17510624 0.64511036 0.01178456
-0.74426319 -0.66068459 0.00000000
-0.36637935 -0.22043715 0.00000000
0.15909254 0.60416259 0.00000000
0.35877440 0.03102902 0.00000000
-0.35423106 -0.27879524 0.00000000
-0.36997948 0.72992403 0.00000000
0.51169506 0.55343424 0.15454088
0.33754043 -0.30181821 0.00000000
0.71536823 0.43758000 0.20572933
-0.08562622 -0.15135120 0.00000000
-0.10258721 -0.58871704 0.00000000
-0.01460827 0.08108351 0.00000000
-0.70218500 0.74547372 0.00000000
0.46611439 0.73464787 0.23359963
0.28123272 0.74016212 0.12904871
-0.60558478 -0.29448209 0.00000000
-0.47177383 -0.08295018 0.00000000
0.32347498 -0.63787445 0.00000000
-0.66410399 0.08858242 0.00000000
-0.73472872 -0.22700283 0.00000000
0.12173351 0.22311908 0.00000000
0.45389759 0.56225861 0.12599510
0.69566581 -0.68386694 0.00000000
0.44200585 -0.52896021 0.00000000
0.27392541 -0.35777210 0.00000000
0.38129730 0.63968468 0.12880802
0.00252506 0.17582816 0.00000000
0.75413209 -0.06165700 0.00000000
0.48185220 -0.11016225 0.00000000
-0.36488844 -0.53450620 0.00000000
-0.10750933 0.26322500 0.00000000
0.60255920 0.31766534 0.07007784
-0.53955279 -0.46597184 0.00000000
-0.53431496 -0.36443436 0.00000000
0.33628896 -0.46407851 0.00000000
0.73083727 -0.74950094 0.00000000
-0.12788399 -0.70744097 0.00000000
0.73609472 -0.43273176 0.00000000
-0.05413538 -0.13417147 0.00000000
-0.40951613 0.04087456 0.00000000
-0.75636087 -0.65733598 0.00000000
-0.17531648 -0.45027638 0.00000000
0.19401840 0.72819807 0.07123893
-0.39957840 0.66074800 0.00000000
0.25657539 -0.69303711 0.00000000
0.50735204 0.56129168 0.15658939
0.77959444 -0.66080941 0.00000000
0.12916429 -0.25305395 0.00000000
0.05514462 -0.70740016 0.00000000
-0.02002759 0.14577266 0.00000000
0.01390588 -0.23111803 0.00000000
-0.76124441 -0.46791792 0.00000000
0.44566530 -0.02023350 0.00000000
-0.60021330 0.75880061 0.00000000
-0.12051067 0.49181298 0.00000000
0.51217239 -0.41423795 0.00000000
-0.30319356 0.35663484 0.00000000
-0.16366281 -0.64193912 0.00000000
-0.74966834 0.11301588 0.00000000
-0.10423043 -0.75222344 0.00000000
0.16159523 0.75951714 0.07059538
0.38539921 -0.67758969 0.00000000
0.57654837 0.45756865 0.13646422
0.05240816 -0.54029254 0.00000000
0.35371566 0.49733140 0.02975522
-0.25917574 0.41350813 0.00000000
0.00491932 0.58754424 0.00000000
-0.34940057 0.31177772 0.00000000
0.26728024 -0.36324930 0.00000000
0.26492782 -0.50997744 0.00000000
0.25623564 0.09257449 0.00000000
0.33591628 -0.45702566 0.00000000
-0.06253911 -0.12590369 0.00000000
-0.14361183 0.10009620 0.00000000
0.64814239 -0.63063383 0.00000000
-0.36851461 0.73307699 0.00000000
-0.25412232 -0.79264253 0.00000000
0.70135716 0.52103186 0.24620550
0.45479746 -0.64928852 0.00000000
-0.62755663 0.71228793 0.00000000
0.02459625 0.29250233 0.00000000
-0.38187341 0.33387334 0.00000000
0.04269409 -0.76927019 0.00000000
0.30193317 -0.36102543 0.00000000
0.06648640 0.75902779 0.01487245
0.33303218 -0.04256620 0.00000000
0.69474128 0.55865177 0.26427736
0.44014778 -0.29150990 0.00000000
-0.09495339 -0.10416615 0.00000000
-0.31561386 0.63043437 0.00000000
-0.15769965 -0.55771120 0.00000000
0.66207190 -0.22128561 0.00000000
-0.01450620 -0.19139610 0.00000000
-0.30279284 -0.27175778 0.00000000
-0.62896842 0.69877201 0.00000000
0.25948897 -0.12693593 0.00000000
0.45598234 -0.68105192 0.00000000
-0.55286139 0.57653876 0.00000000
0.44129065 0.41114217 0.03056296
0.26643537 -0.72508999 0.00000000
0.05633482 -0.06435648 0.00000000
-0.78077159 -0.50908359 0.00000000
-0.72842875 0.11628183 0.00000000
0.51203794 0.39348127 0.06150630
-0.21302099 -0.46010743 0.00000000
-0.31926528 0.39074429 0.00000000
0.14847983 -0.08923804 0.00000000
-0.54406543 0.04662469 0.00000000
0.55412923 -0.03365941 0.00000000
0.37676876 -0.51198922 0.00000000
-0.70335879 0.24736118 0.00000000
-0.06739064 0.66982024 0.00000000
-0.20693482 0.69664781 0.00000000
0.64678668 -0.03723549 0.00000000
-0.38693149 -0.06050131 0.00000000
-0.44708478 -0.21254910 0.00000000
0.50975583 0.49049907 0.11672645
0.48659394 0.13882399 0.00000000
-0.47448227 0.69762816 0.00000000
-0.20759465 0.61758016 0.00000000
-0.60024428 0.01674260 0.00000000
0.79765052 -0.20925353 0.00000000
0.39059607 0.03289869 0.00000000
-0.41336901 0.57920920 0.00000000
-0.46480140 0.74819367 0.00000000
-0.16879137 0.72342414 0.00000000
-0.18895291 0.26072433 0.00000000
-0.32608413 0.49270647 0.00000000
-0.01837661 -0.17638394 0.00000000
0.12072155 0.08390964 0.00000000
0.07329635 0.01330929 0.00000000
-0.26424415 -0.54369698 0.00000000
-0.43991744 -0.08887440 0.00000000
-0.42645912 0.55444764 0.00000000
0.64353309 0.55147584 0.23024601
-0.43562121 -0.53768840 0.00000000
0.37931772 -0.41312821 0.00000000
0.05090109 -0.65415762 0.00000000
-0.63926525 -0.57546753 0.00000000
-0.19039195 -0.03420447 0.00000000
-0.60077181 -0.34239284 0.00000000
-0.39623677 0.38512256 0.00000000
-0.44088623 0.15447531 0.00000000
0.69755125 0.06982627 0.00000000
0.60628911 -0.65566162 0.00000000
0.52935392 0.21818807 0.00000000
-0.34187657 -0.05886992 0.00000000
-0.57682518 -0.60399626 0.00000000
0.57792120 -0.66186411 0.00000000
-0.51759720 -0.31768954 0.00000000
0.46331824 -0.75525994 0.00000000
0.71554034 -0.16665901 0.00000000
-0.72788674 0.06624850 0.00000000
0.51603891 0.13968406 0.00000000
0.30473023 0.17890713 0.00000000
-0.53826484 -0.01688509 0.00000000
0.48761677 0.59084971 0.16231496
-0.71017040 0.52320517 0.00000000
-0.07268449 0.16327367 0.00000000
0.56131343 0.66451072 0.24820785
0.37270058 -0.45356550 0.00000000
-0.52656184 -0.05050344 0.00000000
0.66166276 0.25893857 0.07029746
-0.15437776 -0.02554368 0.00000000
-0.75262480 0.14754382 0.00000000
-0.70283173 0.45321913 0.00000000
0.12409975 0.46274001 0.00000000
0.55699197 0.39076273 0.08612480
0.36877919 -0.08579127 0.00000000
0.36705989 -0.68313909 0.00000000
-0.58199526 -0.46732308 0.00000000
-0.55239447 -0.25710330 0.00000000
-0.36395222 -0.01560856 0.00000000
-0.28638195 -0.60642258 0.00000000
0.01819933 -0.30881055 0.00000000
-0.64745565 -0.35617808 0.00000000
0.67061397 -0.77671277 0.00000000
-0.77521650 -0.23937655 0.00000000
-0.13407063 0.12462685 0.00000000
-0.08112039 0.56958091 0.00000000
0.21734830 -0.48156937 0.00000000
0.45791205 -0.29228820 0.00000000
0.08005724 0.77649327 0.03296312
-0.23555489 -0.37224217 0.00000000
-0.67390036 -0.22975741 0.00000000
0.36501442 0.26746301 0.00000000
-0.01974588 -0.38738440 0.00000000
-0.43326850 -0.21833708 0.00000000
-0.60505168 0.23736904 0.00000000
-0.65164865 0.24342012 0.00000000
0.25839214 -0.75341071 0.00000000
0.76694087 0.09580110 0.03657203
-0.14744823 0.64253416 0.00000000
-0.24059522 0.75802384 0.00000000
-0.53905530 -0.70944013 0.00000000
0.25558260 0.47122781 0.00000000
0.06630479 -0.54630029 0.00000000
-0.32105829 0.41377271 0.00000000
0.09238408 0.08936902 0.00000000
-0.62373573 0.23132099 0.00000000
0.22825618 -0.01628789 0.00000000
0.57203034 0.22547802 0.00000000
0.40419298 -0.42125782 0.00000000
0.29637819 -0.29071959 0.00000000
0.09785745 -0.39498667 0.00000000
0.25640971 -0.37721402 0.00000000
0.71640346 -0.03089463 0.00000000
-0.44397429 0.40996356 0.00000000
-0.54909391 0.20773250 0.00000000
-0.46311651 0.74543150 0.00000000
-0.31904817 -0.46401814 0.00000000
-0.23949376 -0.40449490 0.00000000
-0.56099579 0.47948654 0.00000000
0.53859114 0.45492459 0.11279828
0.64602544 0.57987409 0.24825175
-0.73077124 -0.31003436 0.00000000
0.70214801 0.11577805 0.01044943
-0.38950871 -0.53638863 0.00000000
-0.57293291 0.68656837 0.00000000
0.05764139 0.25153771 0.00000000
-0.41445304 0.48858597 0.00000000
-0.68587478 0.77585712 0.00000000
-0.13928067 0.06961108 0.00000000
0.24924165 0.67203703 0.07069228
0.17987308 0.30309070 0.00000000
0.44443536 0.46098433 0.06144829
-0.02461005 0.34178799 0.00000000
0.59439850 0.34402177 0.08068388
-0.73993244 -0.18794322 0.00000000
-0.16290202 -0.32058462 0.00000000
0.74643612 -0.28746923 0.00000000
0.29279039 0.17936412 0.00000000
0.73361686 -0.42027059 0.00000000
0.68188888 0.58472736 0.27198499
0.55738546 0.01095744 0.00000000
-0.77342015 -0.37202888 0.00000000
0.59431215 0.34129358 0.07904332
0.72635257 0.42415922 0.20430916
-0.17641775 0.10207750 0.00000000
-0.05654664 0.62271574 0.00000000
0.16389019 0.76204422 0.07340608
0.06622308 -0.29472033 0.00000000
0.01861919 -0.21826294 0.00000000
-0.22571189 0.40131145 0.00000000
-0.68773923 -0.49152653 0.00000000
-0.64456739 -0.04491300 0.00000000
0.23107438 0.01877730 0.00000000
0.38466319 0.18625157 0.00000000
-0.56691272 0.36362237 0.00000000
0.52695339 -0.39568972 0.00000000
0.19656369 0.29185024 0.00000000
0.05783782 0.19801258 0.00000000
0.29329191 0.27716577 0.00000000
0.61189501 0.18972317 0.00094379
0.42655306 0.65426807 0.16368748
-0.08196385 0.60018337 0.00000000
-0.64631407 -0.62641495 0.00000000
-0.70636236 0.08900304 0.00000000
-0.76613997 0.40928259 0.00000000
-0.70336091 -0.72542464 0.00000000
0.61268812 0.34594867 0.09246782
-0.43702388 0.28631185 0.00000000
-0.39532856 0.71616789 0.00000000
-0.30634720 0.49393920 0.00000000
0.46766901 -0.11917166 0.00000000
-0.30958671 0.72908301 0.00000000
-0.75720136 0.54172662 0.00000000
0.07481427 0.74563330 0.01191919
-0.37728840 -0.41719695 0.00000000
-0.45703697 -0.27697340 0.00000000
-0.22786950 -0.61109742 0.00000000
0.59660014 0.51852646 0.18368364
0.38499368 -0.52282442 0.00000000
-0.56119734 0.39991606 0.00000000
-0.72283255 0.78827245 0.00000000
-0.14911830 0.11021329 0.00000000
-0.35355599 0.25171163 0.00000000
0.21666108 -0.41461196 0.00000000
-0.01513466 0.11237573 0.00000000
-0.38813827 -0.43817032 0.00000000
0.39105479 -0.38362679 0.00000000
0.22444785 -0.57435192 0.00000000
0.43577584 -0.19968508 0.00000000
0.17369455 -0.49209597 0.00000000
-0.37703652 -0.54767577 0.00000000
-0.50905493 0.49259348 0.00000000
-0.77242297 0.14534723 0.00000000
-0.08261655 -0.51903787 0.00000000
-0.38783429 -0.02300923 0.00000000
0.15775296 -0.74598992 0.00000000
-0.48886821 0.21827331 0.00000000
-0.21442390 0.17515616 0.00000000
-0.20238514 0.36827851 0.00000000
-0.50219383 0.14337024 0.00000000
0.32885849 0.63468259 0.09532647
0.37718558 -0.46708072 0.00000000
-0.26641258 -0.09434038 0.00000000
0.64111037 -0.34898411 0.00000000
0.00961736 -0.61015096 0.00000000
0.10009276 0.05162776 0.00000000
0.10466204 -0.04761615 0.00000000
-0.13789267 0.50079153 0.00000000
0.79112884 -0.06983157 0.00000000
0.37556843 0.59747212 0.10086358
-0.32409611 -0.07588340 0.00000000
0.04969293 -0.13363541 0.00000000
0.48614484 0.28454396 0.00000000
0.17368374 0.31180712 0.00000000
-0.66657670 -0.76772035 0.00000000
-0.24050793 0.32590004 0.00000000
0.48172024 -0.28495380 0.00000000
-0.13946310 0.72797741 0.00000000
0.65935427 -0.24574778 0.00000000
0.25167364 0.56684513 0.01079492
-0.37760963 0.69982140 0.00000000
-0.28974059 0.48827188 0.00000000
0.48402217 0.45918589 0.08347462
-0.20095237 -0.36423691 0.00000000
-0.77184680 -0.23923115 0.00000000
-0.74376994 0.13415470 0.00000000
0.30991543 0.23939538 0.00000000
0.13482268 0.15391783 0.00000000
0.26914151 -0.26987980 0.00000000
0.50705511 0.30170837 0.00510869
-0.38892629 0.06963765 0.00000000
0.28426794 -0.51184442 0.00000000
0.58885610 0.05633779 0.00000000
0.48569575 -0.68173190 0.00000000
-0.69585553 -0.44419195 0.00000000
-0.30321675 0.74502112 0.00000000
-0.57658022 0.45677093 0.00000000
0.37173408 -0.59280769 0.00000000
0.00682235 0.73938332 0.00000000
-0.69135103 -0.50025772 0.00000000
-0.49568687 0.20421377 0.00000000
0.43892263 -0.56451750 0.00000000
0.26046323 0.21791997 0.00000000
-0.55203965 0.35697509 0.00000000
0.53518233 0.54548728 0.16359911
0.21840602 0.23360872 0.00000000
0.32271161 -0.25725741 0.00000000
0.43051683 0.00943387 0.00000000
-0.48302368 -0.37065981 0.00000000
0.40683710 -0.64574171 0.00000000
-0.33489370 0.49770573 0.00000000
0.26948519 0.15719513 0.00000000
-0.60206245 -0.72954786 0.00000000
-0.31240849 0.20323482 0.00000000
0.18287041 -0.15435703 0.00000000
-0.28694290 0.02991242 0.00000000
-0.32687016 0.33542841 0.00000000
0.28181840 -0.27563250 0.00000000
0.46704178 -0.60073097 0.00000000
0.49633987 0.66370471 0.20986580
-0.04156879 -0.12667965 0.00000000
0.02845370 -0.51474775 0.00000000
0.48542218 -0.61735152 0.00000000
0.48930348 0.38177142 0.04142917
-0.59119826 -0.27754274 0.00000000
-0.16826638 0.36587951 0.00000000
-0.01528710 0.00870520 0.00000000
0.50732324 -0.32633236 0.00000000
-0.49936388 -0.70262741 0.00000000
-0.08649800 0.50622849 0.00000000
0.15423849 0.60439527 0.00000000
0.46713352 0.47779660 0.08447838
-0.14024479 0.01210248 0.00000000
0.37895625 -0.41166696 0.00000000
-0.41610335 0.02371657 0.00000000
-0.42685828 0.12443370 0.00000000
-0.24750003 0.21491508 0.00000000
0.61073256 -0.56779729 0.00000000
0.06213554 0.42506831 0.00000000
0.02872400 0.16399206 0.00000000
0.44422989 -0.70785950 0.00000000
-0.78629729 0.04540279 0.00000000
0.47179950 -0.57651687 0.00000000
-0.60377910 -0.05260909 0.00000000
-0.35849270 -0.53120417 0.00000000
0.03839671 0.40045487 0.00000000
0.58614373 -0.55503879 0.00000000
-0.50251300 -0.24134444 0.00000000
-0.30824144 0.19374270 0.00000000
-0.15133792 -0.28961567 0.00000000
0.03966245 0.00594286 0.00000000
-0.41883665 0.41859429 0.00000000
-0.04041549 -0.27936151 0.00000000
-0.11815639 -0.29353770 0.00000000
0.50339857 0.49479710 0.11552616
-0.07115606 0.38186303 0.00000000
-0.06505810 -0.73114212 0.00000000
0.78476912 0.04394451 0.01673736
-0.54174806 -0.42993293 0.00000000
-0.79545801 -0.68761448 0.00000000
0.18105284 -0.15312023 0.00000000
-0.33459791 -0.60977826 0.00000000
-0.66795933 0.30337001 0.00000000
-0.64271457 -0.04976982 0.00000000
-0.51012266 0.12322313 0.00000000
-0.33617836 -0.07040254 0.00000000
0.73937358 0.23286611 0.10039676
0.03384137 0.59689086 0.00000000
-0.21101735 -0.46920535 0.00000000
-0.27222733 0.53328517 0.00000000
-0.02835039 0.31269599 0.00000000
-0.41886139 0.15510817 0.00000000
-0.41247990 -0.67920571 0.00000000
0.72763493 0.44956717 0.21986660
-0.75579778 -0.56320744 0.00000000
0.23830311 -0.37112561 0.00000000
-0.71852283 0.11790321 0.00000000
-0.03331242 0.05679917 0.00000000
-0.34545744 -0.02744332 0.00000000
-0.58163984 0.14418083 0.00000000
-0.59825617 -0.70319131 0.00000000
-0.10914660 -0.54553031 0.00000000
0.08640567 0.52679914 0.00000000
0.24427603 0.64901069 0.05437614
0.54922467 -0.19176204 0.00000000
-0.30983859 0.76463850 0.00000000
-0.43246091 0.08459587 0.00000000
0.71437310 -0.56414316 0.00000000
-0.37605128 -0.60761319 0.00000000
-0.78204832 -0.47707561 0.00000000
0.14155651 -0.60085050 0.00000000
-0.40679188 -0.56726335 0.00000000
0.17238019 -0.06592133 0.00000000
-0.12752331 0.06018417 0.00000000
0.29137968 0.06455257 0.00000000
-0.79360271 0.51519452 0.00000000
-0.28415728 -0.12534981 0.00000000
0.31257940 0.26215938 0.00000000
-0.02282909 -0.17241393 0.00000000
-0.25201575 -0.17292061 0.00000000
0.34714222 0.61200696 0.09276648
-0.07878805 -0.72936931 0.00000000
0.48476382 0.53037898 0.12540440
-0.76556323 -0.27237179 0.00000000
0.42476374 -0.54316716 0.00000000
0.38643184 -0.79513955 0.00000000
0.08643087 0.76593827 0.03052585
-0.49038041 0.17924297 0.00000000
-0.50214317 -0.11379401 0.00000000
0.28658745 0.03597604 0.00000000
-0.30207304 0.00386085 0.00000000
0.18875604 0.27788052 0.00000000
0.47864317 -0.23416796 0.00000000
-0.52925910 -0.11507818 0.00000000
0.55219844 0.46139484 0.12450121
-0.03981208 -0.18587091 0.00000000
0.05864465 0.65511904 0.00000000
0.21437943 -0.65007754 0.00000000
0.35563797 -0.39575096 0.00000000
0.01334664 -0.45264960 0.00000000
0.63209624 0.22708195 0.03449474
-0.53530788 -0.16167201 0.00000000
-0.52318174 -0.07769704 0.00000000
-0.41635176 0.13574127 0.00000000
-0.22401971 -0.69625573 0.00000000
0.31273201 0.60483533 0.06852899
-0.12418404 0.02229787 0.00000000
-0.50215396 0.55652185 0.00000000
-0.37832635 -0.37694461 0.00000000
-0.71060830 0.66002982 0.00000000
0.60256561 -0.03511541 0.00000000
-0.49150672 -0.20940817 0.00000000
-0.23464275 -0.20049258 0.00000000
0.12945908 -0.10115238 0.00000000
-0.16567271 0.32611653 0.00000000
-0.63341268 -0.25458126 0.00000000
-0.51065477 0.62514547 0.00000000
0.62445284 -0.08960049 0.00000000
-0.10515320 -0.32104026 0.00000000
-0.76674330 0.63432951 0.00000000
-0.48284094 0.28041408 0.00000000
0.26077037 0.01738671 0.00000000
-0.77695633 0.38320504 0.00000000
-0.57702383 -0.34701383 0.00000000
-0.35334356 0.03047212 0.00000000
0.52813936 -0.11674485 0.00000000
-0.61430376 -0.01462900 0.00000000
-0.55533050 -0.39561411 0.00000000
0.22275157 0.64638461 0.04029912
0.50504211 0.55146885 0.14951736
-0.37762412 0.05769261 0.00000000
-0.51355451 -0.44579246 0.00000000
-0.74108074 -0.01295583 0.00000000
0.68484747 0.65645550 0.31551895
-0.15715755 -0.48232379 0.00000000
0.42697791 0.11809150 0.00000000
0.74000262 0.12182947 0.03604166
-0.20521220 0.35369598 0.00000000
0.17083040 -0.01827000 0.00000000
-0.35651132 0.34879261 0.00000000
0.23559268 0.13200353 0.00000000
0.24818042 -0.61311590 0.00000000
-0.65112268 0.65208661 0.00000000
0.69884333 0.67097518 0.33214029
-0.35482006 0.44282429 0.00000000
0.62343649 -0.79082220 0.00000000
-0.12561748 0.02005435 0.00000000
0.68105685 -0.73791129 0.00000000
0.58475675 -0.32072873 0.00000000
-0.43091125 -0.46386888 0.00000000
0.63566965 0.03241486 0.00000000
-0.43986113 -0.19886033 0.00000000
0.56356821 -0.35748049 0.00000000
0.79103185 -0.04996695 0.00000000
0.47377383 0.35972836 0.01952855
-0.69844841 0.53981362 0.00000000
-0.20329556 -0.68432399 0.00000000
0.32660299 0.18194534 0.00000000
0.74060504 0.19964320 0.08174938
0.62408050 0.43272816 0.14969088
-0.68155882 0.78511665 0.00000000
0.01422783 -0.30721286 0.00000000
-0.59559390 -0.09557220 0.00000000
0.58524004 0.23804458 0.01357286
-0.60437257 0.76096622 0.00000000
-0.00164279 -0.21939688 0.00000000
-0.37958828 0.46989708 0.00000000
-0.44012011 0.48987143 0.00000000
-0.47924711 0.01451254 0.00000000
-0.72662512 -0.33150355 0.00000000
-0.43705086 0.34841171 0.00000000
0.47532051 -0.28187845 0.00000000
-0.59695735 0.52014706 0.00000000
-0.52209488 0.11647555 0.00000000
0.33740862 -0.74029480 0.00000000
0.28855562 -0.59456933 0.00000000
0.47767596 0.67301867 0.20441584
-0.13547365 -0.78819469 0.00000000
-0.49189253 -0.61528609 0.00000000
0.36299318 -0.21567704 0.00000000
-0.69190428 0.06459860 0.00000000
0.71037852 0.16168382 0.04200474
0.14411349 0.35216998 0.00000000
0.06508283 -0.21888477 0.00000000
0.14643116 0.45535726 0.00000000
-0.36939213 0.16989312 0.00000000
-0.21346035 -0.38551670 0.00000000
0.05469103 0.70095221 0.00000000
-0.78810287 0.43144312 0.00000000
0.72496677 -0.36099162 0.00000000
-0.15193244 0.26293575 0.00000000
0.42696117 0.51324632 0.08172563
0.59328887 0.67969637 0.27569744
-0.14219761 0.07234353 0.00000000
-0.54003198 0.53208053 0.00000000
-0.11499929 -0.77288354 0.00000000
0.78189199 -0.44714891 0.00000000
0.40536444 -0.49398930 0.00000000
0.06888502 -0.78328601 0.00000000
0.27883155 -0.51818186 0.00000000
0.51451709 0.10814548 0.00000000
0.40372509 0.08122989 0.00000000
-0.33726875 0.60126785 0.00000000
0.35434482 0.55495780 0.06371160
0.04521399 0.21444032 0.00000000
-0.09914249 0.14036800 0.00000000
0.17680939 -0.55251101 0.00000000
-0.71880502 0.05195573 0.00000000
-0.45864980 -0.54815470 0.00000000
0.38639230 0.21846104 0.00000000
0.43796281 -0.47845585 0.00000000
-0.45712371 0.65442927 0.00000000
-0.36751635 -0.43751604 0.00000000
0.75003843 0.15168595 0.05929434
-0.04870715 0.31645059 0.00000000
-0.65857970 0.30225278 0.00000000
-0.74760237 0.79514263 0.00000000
-0.39553747 0.78946291 0.00000000
0.35054551 -0.13436378 0.00000000
-0.79224132 -0.44663635 0.00000000
-0.69304397 0.49421720 0.00000000
0.59361912 -0.21413003 0.00000000
0.51353683 -0.28130421 0.00000000
0.18914157 0.15991569 0.00000000
0.26022290 -0.62768555 0.00000000
-0.77097312 0.33711254 0.00000000
0.24902038 -0.64262525 0.00000000
0.35957942 0.72717532 0.16714614
-0.33278275 -0.70916799 0.00000000
-0.72549154 0.74552907 0.00000000
0.31675940 -0.47083613 0.00000000
0.46976126 0.56738710 0.13823116
-0.68502488 0.74206217 0.00000000
-0.45821640 0.40815427 0.00000000
-0.38048649 0.19238800 0.00000000
-0.00182433 0.69481113 0.00000000
-0.59457652 -0.70110324 0.00000000
0.11473125 0.49308877 0.00000000
-0.70038425 -0.55425334 0.00000000
0.76212213 -0.06954776 0.00000000
-0.46781568 0.45489813 0.00000000
0.55091501 0.20087672 0.00000000
0.10357260 0.24526917 0.00000000
0.19412659 0.00211349 0.00000000
0.72667754 0.25409435 0.10537006
0.68202037 -0.24441450 0.00000000
-0.35912586 -0.09967299 0.00000000
0.61446251 0.13999790 0.00000000
0.07462838 -0.54465622 0.00000000
-0.46160786 0.46653729 0.00000000
0.38418740 -0.46094759 0.00000000
0.74165574 0.33253092 0.15982027
0.49513399 0.39426948 0.05211265
-0.05894088 0.70044021 0.00000000
0.78786526 -0.40118696 0.00000000
-0.18353063 -0.28607774 0.00000000
-0.63509227 0.53730037 0.00000000
-0.68060154 -0.57854410 0.00000000
0.50148549 -0.51993480 0.00000000
0.17723108 -0.00974130 0.00000000
0.18784321 -0.19491826 0.00000000
-0.33184347 -0.11819202 0.00000000
0.24508886 -0.15759904 0.00000000
0.20434690 0.66431809 0.04002447
0.20502832 -0.20144452 0.00000000
-0.00672401 0.69487929 0.00000000
-0.68658517 -0.06871085 0.00000000
-0.27223247 0.12931306 0.00000000
-0.00545496 -0.51709582 0.00000000
0.10044868 -0.22759419 0.00000000
-0.47413051 -0.56125074 0.00000000
0.37933328 0.09061299 0.00000000
0.11759920 -0.21238478 0.00000000
-0.54140403 0.78896671 0.00000000
0.35307698 -0.34768631 0.00000000
-0.33471585 0.03193558 0.00000000
-0.54893257 0.28106394 0.00000000
0.30236162 -0.76974024 0.00000000
-0.49908076 0.16469401 0.00000000
0.67605120 -0.44788809 0.00000000
-0.31874854 0.32313724 0.00000000
0.49500264 0.65209986 0.20232203
-0.58083691 0.35624266 0.00000000
-0.62669338 0.63741278 0.00000000
0.77827590 0.14097429 0.06950990
0.04140767 -0.71476304 0.00000000
-0.66573004 -0.11503447 0.00000000
-0.40898718 0.62810244 0.00000000
-0.12595936 -0.03075837 0.00000000
0.26856064 -0.04170128 0.00000000
-0.79497429 -0.30093593 0.00000000
-0.72409449 0.79301150 0.00000000
0.27685724 -0.24234189 0.00000000
-0.41794297 -0.68400264 0.00000000
0.04870179 0.43971578 0.00000000
0.67060591 0.10479947 0.00000000
-0.22977283 0.17474052 0.00000000
0.18391098 -0.51624563 0.00000000
0.62260744 0.44174906 0.15409040
0.49649734 -0.43915595 0.00000000
-0.20160291 0.38906130 0.00000000
-0.65276487 0.06215130 0.00000000
-0.38833303 0.58530162 0.00000000
-0.30509464 0.46875912 0.00000000
0.36493890 -0.72531515 0.00000000
-0.64625973 0.51027489 0.00000000
0.49776020 -0.17196545 0.00000000
-0.01259961 -0.50778596 0.00000000
-0.37688119 -0.38877150 0.00000000
0.69614146 0.55550054 0.26325669
0.01010776 -0.64072480 0.00000000
0.13760916 -0.04474422 0.00000000
-0.05080201 -0.25638568 0.00000000
0.57730109 -0.55993246 0.00000000
0.69337340 0.37523091 0.15656640
0.32648189 0.32636671 0.00000000
-0.21847557 0.57204291 0.00000000
0.48568197 -0.05775580 0.00000000
-0.14137471 -0.11952308 0.00000000
0.02862685 0.79179723 0.01190550
0.26385822 0.73539363 0.11614185
0.46947056 0.49179019 0.09399729
-0.78226042 0.03730487 0.00000000
-0.13448394 0.28840714 0.00000000
-0.67177650 0.42827694 0.00000000
0.54761204 -0.11001943 0.00000000
0.72862744 0.12351499 0.03039369
0.26150655 -0.31861757 0.00000000
-0.74701066 -0.45529873 0.00000000
-0.27453650 -0.37535849 0.00000000
-0.72459209 -0.51488941 0.00000000
-0.40109872 0.36766518 0.00000000
0.55028707 0.71433650 0.27082355
-0.29009856 -0.61880465 0.00000000
-0.54932528 -0.43360997 0.00000000
0.70630813 -0.57983696 0.00000000
-0.71586235 0.05518239 0.00000000
0.70395023 0.14316866 0.02746555
-0.67735371 -0.35669572 0.00000000
0.34740322 0.58419677 0.07670843
-0.76023727 -0.67641196 0.00000000
-0.72388095 -0.53226009 0.00000000
0.09263187 -0.46180362 0.00000000
-0.01317184 -0.63085822 0.00000000
0.28550821 -0.51732896 0.00000000
0.10255702 0.25415749 0.00000000
0.47938688 0.46283313 0.08289870
-0.77745710 0.64388281 0.00000000
0.31555150 -0.55628585 0.00000000
0.33586865 -0.48431062 0.00000000
0.75384342 0.05802542 0.00691876
0.74805573 -0.03755859 0.00000000
-0.46524278 0.70019764 0.00000000
-0.56625474 0.61209877 0.00000000
-0.29482454 0.12654403 0.00000000
-0.00923527 0.04788362 0.00000000
0.35565357 0.38003020 0.00000000
-0.31690298 0.48546674 0.00000000
0.56809811 0.32998226 0.05717030
-0.17975035 0.40677689 0.00000000
0.10831180 0.12132628 0.00000000
0.10283280 -0.63486781 0.00000000
0.18301428 0.64899039 0.01865566
-0.48429757 0.06828607 0.00000000
0.09119559 0.33849321 0.00000000
-0.42589864 -0.13124774 0.00000000
0.07341211 0.76178430 0.02051609
0.14430337 -0.59307002 0.00000000
-0.30652641 -0.19947394 0.00000000
-0.15375983 0.68592947 0.00000000
0.00944005 -0.44776845 0.00000000
-0.62148296 -0.42717199 0.00000000
-0.07938792 0.58884334 0.00000000
-0.08559201 0.53616096 0.00000000
0.69926013 -0.75435615 0.00000000
-0.31128274 -0.55104226 0.00000000
0.52828112 0.64153387 0.21556083
0.35680756 0.40948332 0.00000000
-0.40529759 0.35398373 0.00000000
0.18824706 0.52946589 0.00000000
-0.32367732 -0.32054839 0.00000000
-0.63016982 0.36273584 0.00000000
-0.09487041 0.57388514 0.00000000
0.14752369 0.40384922 0.00000000
0.27832349 0.35747192 0.00000000
-0.31627795 0.32072235 0.00000000
-0.70971738 0.57872634 0.00000000
-0.61999114 0.43340795 0.00000000
-0.59707539 0.73238213 0.00000000
-0.69741583 0.18252672 0.00000000
-0.27882105 -0.21060429 0.00000000
0.64888827 -0.16013898 0.00000000
-0.46060261 0.25483278 0.00000000
0.15793550 0.39818048 0.00000000
0.12264197 0.18471076 0.00000000
-0.61071091 -0.01254337 0.00000000
0.65007813 -0.63752237 0.00000000
0.14438831 0.30996493 0.00000000
-0.05236016 -0.61943387 0.00000000
-0.63311183 -0.29398415 0.00000000
-0.22045455 -0.43076686 0.00000000
-0.30438605 0.22346253 0.00000000
0.36691678 -0.17093878 0.00000000
-0.09355268 0.15700664 0.00000000
-0.75976716 -0.75967983 0.00000000
-0.50910682 0.44194840 0.00000000
0.53163415 -0.22319962 0.00000000
0.09429888 -0.67785056 0.00000000
-0.33765074 -0.21604424 0.00000000
0.37510270 0.20431187 0.00000000
-0.72177252 -0.69211406 0.00000000
0.16854675 0.40314517 0.00000000
-0.10361014 0.59925980 0.00000000
-0.08631363 -0.21780137 0.00000000
0.66878077 -0.48770048 0.00000000
0.10001657 0.65825666 0.00000000
-0.47842191 0.71730735 0.00000000
-0.12389928 0.10612804 0.00000000
-0.33773840 -0.23255422 0.00000000
-0.70034147 -0.17352562 0.00000000
-0.00460258 -0.28581043 0.00000000
0.47752980 0.71668610 0.22978384
0.23479348 0.23787108 0.00000000
0.51838784 -0.27531971 0.00000000
0.63550799 -0.11590949 0.00000000
0.08911868 -0.59331432 0.00000000
-0.61936736 -0.59538091 0.00000000
-0.26790614 0.34087564 0.00000000
-0.07304365 -0.27472413 0.00000000
-0.54574379 -0.64182974 0.00000000
-0.59809513 -0.05351950 0.00000000
0.71131549 -0.78310782 0.00000000
0.04682928 -0.10054365 0.00000000
0.43873851 0.15171897 0.00000000
0.72413853 -0.31145117 0.00000000
-0.03895717 0.02044868 0.00000000
-0.63538692 0.13249035 0.00000000
0.41742569 -0.52562275 0.00000000
-0.32435014 0.68910378 0.00000000
-0.45724104 -0.50872703 0.00000000
-0.55961617 -0.05540932 0.00000000
0.39735502 -0.35715772 0.00000000
-0.02076471 0.19480746 0.00000000
0.50332545 0.28566367 0.00000000
-0.72807427 0.22765222 0.00000000
0.31682193 0.56652858 0.04858446
-0.20177308 -0.44388190 0.00000000
0.32064430 -0.76791136 0.00000000
0.08126762 0.39138475 0.00000000
-0.06734055 0.14122041 0.00000000
0.13007370 0.07162461 0.00000000
-0.18615823 0.50871409 0.00000000
-0.57075501 -0.63621578 0.00000000
0.71277975 -0.40244937 0.00000000
-0.55653049 -0.67570475 0.00000000
0.79832824 -0.25653603 0.00000000
0.07233970 -0.29262099 0.00000000
0.18563064 -0.67032877 0.00000000
0.64285612 0.41013488 0.14746561
0.61052717 0.04934603 0.00000000
0.73833019 0.22457009 0.09495295
-0.04701959 -0.36417954 0.00000000
-0.44615944 -0.54539167 0.00000000
-0.33534244 -0.11094459 0.00000000
0.03704710 -0.38632859 0.00000000
0.68299804 -0.26516338 0.00000000
-0.29833453 -0.02676471 0.00000000
0.45863103 0.26114405 0.00000000
0.56459760 -0.45011252 0.00000000
-0.45757256 0.47795353 0.00000000
-0.26569173 0.27378629 0.00000000
0.34575406 -0.20839655 0.00000000
0.64730957 0.20412418 0.02998062
-0.38786642 0.36105145 0.00000000
0.54604765 -0.15941444 0.00000000
-0.10837396 0.58180639 0.00000000
0.63463220 0.47278198 0.17918815
-0.60946115 0.45357113 0.00000000
-0.40534573 -0.21803476 0.00000000
0.28916374 -0.23368553 0.00000000
0.77818768 -0.54708742 0.00000000
-0.60772686 -0.13401896 0.00000000
-0.09240741 -0.04684467 0.00000000
0.65208000 -0.46404592 0.00000000
0.00434017 -0.58295156 0.00000000
0.60562107 -0.34153278 0.00000000
0.33634408 -0.70809040 0.00000000
0.44575690 0.51451544 0.09342115
0.67532260 -0.07013892 0.00000000
-0.14651601 0.77958583 0.00000000
0.32672379 0.54185306 0.03997309
0.41752216 0.34326925 0.00000000
0.76752842 -0.45424865 0.00000000
-0.53926006 0.28223738 0.00000000
-0.71381921 -0.61903253 0.00000000
-0.78927778 0.45871298 0.00000000
-0.15306888 -0.69964788 0.00000000
0.69043656 0.15880701 0.02870398
-0.37389231 -0.46406219 0.00000000
-0.39960797 -0.55441321 0.00000000
-0.68906293 -0.78878666 0.00000000
0.41008557 0.15673844 0.00000000
-0.57607507 0.64231700 0.00000000
0.19133053 0.73660720 0.07457378
-0.04648770 -0.40884038 0.00000000
0.63478717 0.42020895 0.14863437
-0.52210709 -0.74568457 0.00000000
0.55509299 -0.57790247 0.00000000
-0.29401081 0.77009186 0.00000000
-0.16586501 0.29328583 0.00000000
-0.01632573 -0.29203888 0.00000000
0.07150838 0.52929637 0.00000000
0.35494189 -0.37503924 0.00000000
-0.31679036 -0.23148015 0.00000000
0.54143882 0.50143175 0.14156655
-0.70944258 0.72086240 0.00000000
0.27511856 -0.18126766 0.00000000
-0.21547183 -0.21284060 0.00000000
0.70068748 -0.75621278 0.00000000
0.42422861 -0.36560180 0.00000000
-0.54374159 -0.32710407 0.00000000
0.22123059 -0.62004541 0.00000000
0.13381440 -0.51902414 0.00000000
-0.20804138 0.74507789 0.00000000
0.06621293 0.11628167 0.00000000
0.15674654 0.27561929 0.00000000
-0.00020376 -0.72308394 0.00000000
0.26041554 -0.12503755 0.00000000
0.71920674 -0.69009172 0.00000000
0.40120142 0.11428264 0.00000000
0.68177711 0.50710235 0.22667321
0.33301812 0.52644480 0.03466071
-0.65391645 -0.34999453 0.00000000
0.60595227 0.69786236 0.29366750
0.78734855 -0.71315565 0.00000000
0.05972668 0.49354816 0.00000000
-0.41431446 0.45718692 0.00000000
-0.78449191 -0.57660055 0.00000000
0.47976555 -0.47548574 0.00000000
0.06257457 -0.57749579 0.00000000
0.54401269 0.63896022 0.22323042
-0.01164244 -0.77901117 0.00000000
0.64822523 0.59311479 0.25725182
-0.31125619 -0.37650264 0.00000000
0.71144261 -0.36654093 0.00000000
0.41999953 0.29901862 0.00000000
0.71300470 -0.73291887 0.00000000
-0.34955737 -0.44331612 0.00000000
0.54631628 0.60266063 0.20341457
-0.72245891 0.58805425 0.00000000
-0.17441663 0.70812892 0.00000000
-0.45461691 -0.54779790 0.00000000
0.32432434 0.47474902 0.00000000
-0.26106486 0.24268647 0.00000000
0.73938872 -0.23159800 0.00000000
0.04608892 0.23637777 0.00000000
0.73471600 -0.45673153 0.00000000
0.08924058 0.23990317 0.00000000
0.11918979 -0.39350794 0.00000000
-0.42291188 0.13829850 0.00000000
0.67804991 -0.14816169 0.00000000
-0.12221012 -0.67193869 0.00000000
0.76384915 -0.46772454 0.00000000
-0.69250531 0.28285139 0.00000000
-0.40604880 -0.72561853 0.00000000
0.04414138 -0.49665126 0.00000000
-0.44464164 -0.72576598 0.00000000
-0.43293792 -0.19322534 0.00000000
0.17658885 -0.61213946 0.00000000
0.24532753 0.42769597 0.00000000
-0.27419869 -0.31682213 0.00000000
-0.15512018 0.00943471 0.00000000
0.60584349 -0.49390797 0.00000000
-0.00912450 -0.79510969 0.00000000
-0.09188291 0.41312270 0.00000000
-0.71550470 -0.75618862 0.00000000
-0.65909249 -0.04497229 0.00000000
-0.09766619 0.22136652 0.00000000
-0.28610630 -0.25006892 0.00000000
0.25533313 -0.11602240 0.00000000
-0.69366918 0.04539965 0.00000000
0.56513017 -0.19243361 0.00000000
