ply
format ascii 1.0
element vertex 1379
property float x
property float y
property float z
end_header
-0.17166188 0.39136410 -0.00000074
0.60373155 -0.65153441 -0.00000010
-0.50126893 -0.45068937 -0.00000022
-0.28065908 0.62956120 0.02991634
0.62477456 0.14205933 -0.00000119
-0.67970961 -0.16503905 -0.00000010
-0.55797183 0.35603995 0.03094591
-0.39754794 -0.17500246 -0.00000039
0.54758140 -0.61651500 -0.00000011
0.34259886 0.29111068 0.00000156
-0.42357151 -0.46686752 -0.00000021
0.22801472 0.24670044 0.00000455
0.23006974 0.28311440 0.00000386
0.24224007 -0.44677678 -0.00000022
-0.45899580 0.05689210 -0.00000037
-0.34404129 -0.12734206 -0.00000042
0.15358453 -0.08638364 -0.00000045
0.02631970 0.65764806 -0.00000091
-0.07568287 -0.29735425 -0.00000031
0.47255565 -0.41104798 -0.00000024
-0.52002798 -0.75286784 -0.00000003
-0.64006679 -0.01045439 -0.00000017
-0.46146802 -0.79474345 -0.00000000
-0.61508546 -0.77052247 -0.00000002
0.14335068 0.33656884 -0.00000071
0.12882631 0.13540178 0.00000786
0.14596588 0.43232793 -0.00000077
0.40835084 -0.41314498 -0.00000024
0.00631603 0.32046375 0.00000670
-0.68517668 -0.01702919 -0.00000012
-0.74645048 0.00788103 -0.00000006
0.19263181 0.32445150 -0.00000070
-0.58844207 0.21270322 0.00031053
-0.76680612 -0.57716294 0.00000000
0.53134058 0.00593103 0.00000305
-0.39654032 -0.11274382 -0.00000041
-0.71741061 0.19344967 0.03009075
0.00716670 0.63530876 0.00000157
-0.09526733 -0.50178858 -0.00000019
0.01132636 -0.75911673 -0.00000003
-0.43023735 -0.28832151 -0.00000032
0.45036618 0.03580872 0.00000407
0.13400686 -0.55213185 -0.00000015
-0.77102648 0.56015413 0.14417890
0.04193162 0.49349832 -0.00000081
0.02402988 0.40527353 -0.00000075
-0.77289515 0.59415972 0.15391635
0.03541261 0.27492811 -0.00000067
0.63114708 0.04827373 0.00000038
-0.24641360 -0.39577479 -0.00000025
-0.71877205 0.72626155 0.17508231
0.20060718 0.08605717 0.00000757
-0.48285485 -0.16197372 -0.00000031
0.14620829 0.44687604 0.00000253
0.19304566 0.12662469 -0.00000058
-0.50337828 0.45838907 0.04390816
-0.57742416 -0.05578811 -0.00000023
0.64761541 -0.33342910 -0.00000086
-0.78732621 0.06228952 0.01346721
-0.60079370 0.64343847 0.12057816
-0.73985385 0.50531312 0.12083196
0.05493350 0.12621554 0.00000912
-0.39286510 0.44102430 0.00919797
0.53862544 -0.64953334 -0.00000009
0.22998288 0.17782823 0.00000564
-0.53818147 0.48147377 0.05962076
-0.30655036 0.03389781 -0.00000052
-0.60397372 -0.28070992 -0.00000016
0.61948911 -0.37191725 -0.00000070
-0.10795176 0.12941450 -0.00000058
0.09426338 -0.42685417 -0.00000023
-0.18385469 0.74801535 0.03579266
0.22922086 0.05510602 -0.00000053
0.37430082 0.11833190 -0.00000087
-0.57395308 -0.31996752 -0.00000018
-0.40394974 -0.26610642 -0.00000033
0.11404841 -0.63934572 -0.00000010
0.46829540 0.17774219 0.00000118
-0.76954449 -0.65611023 0.00000000
-0.04662506 -0.17365503 -0.00000039
-0.75224045 -0.00723568 -0.00000005
-0.59626110 0.06861413 -0.00000023
0.09345143 -0.18742472 -0.00000038
-0.23347086 0.71725754 0.04091146
-0.44838672 0.66705010 0.08561882
-0.02815386 0.70211876 -0.00000094
0.50289324 -0.50517672 -0.00000018
-0.34615513 0.45544643 0.00043399
-0.06631170 -0.42750420 -0.00000023
0.45702049 0.07124534 -0.00000104
0.28702574 0.37443472 0.00000113
-0.28648713 0.33921515 -0.00000061
0.67218886 -0.60100489 -0.00000042
-0.56514757 -0.75163688 -0.00000003
0.78614781 -0.70040821 -0.00000025
0.38598650 -0.19591736 -0.00000038
0.18404899 -0.64529262 -0.00000010
0.14511804 -0.44584859 -0.00000022
0.59755800 0.11339047 -0.00000157
0.42170267 -0.57498801 -0.00000014
-0.14650036 0.75501850 0.02755434
0.07319451 -0.60833104 -0.00000012
0.51169448 0.17632873 0.00000037
0.14504529 -0.30349557 -0.00000031
-0.18075294 0.05856973 -0.00000054
0.55875332 0.15149319 -0.00000009
0.62103936 0.15802696 -0.00000174
-0.74612606 -0.28052688 -0.00000001
-0.18504712 -0.16818904 -0.00000039
-0.39508039 0.03916490 -0.00000044
0.27361489 -0.40388832 -0.00000025
0.11049428 -0.06684177 -0.00000046
0.14485773 -0.37822272 -0.00000026
0.18296655 -0.31251019 -0.00000030
0.01806697 0.43250486 0.00000470
-0.47570058 -0.56153437 -0.00000015
-0.08875502 0.43327522 -0.00000077
0.76244495 -0.17738260 -0.00000153
-0.27400038 0.58645106 0.01640754
-0.15813559 0.67770087 0.00972609
0.11927000 0.03931993 -0.00000052
-0.28440966 0.12396445 -0.00000057
-0.05282264 -0.56131928 -0.00000015
-0.73069551 0.33457078 0.07200131
-0.35131612 0.08551291 -0.00000049
0.51510196 -0.74040121 -0.00000004
0.47827980 -0.07590566 -0.00000082
-0.73681678 0.14651726 0.02261932
-0.67207142 -0.67327975 -0.00000001
0.03906643 -0.54925988 -0.00000016
0.09596019 0.61032747 -0.00000094
-0.76052161 0.31974515 0.07607294
-0.09933016 -0.67534005 -0.00000008
0.18085835 -0.08700317 -0.00000045
0.09966983 0.28164226 0.00000592
0.16186824 0.42156601 -0.00000078
-0.13891601 0.34444405 -0.00000072
-0.34990105 -0.30754790 -0.00000031
-0.18418078 -0.59812621 -0.00000013
0.46810235 0.10590115 -0.00000114
0.39983439 -0.08072244 -0.00000056
0.50895498 0.25613862 -0.00000101
-0.73166293 -0.14511327 -0.00000005
0.04245808 -0.16685967 -0.00000040
0.57017478 -0.27270502 -0.00000073
0.28324059 0.10441257 -0.00000057
0.61230298 0.13877898 -0.00000089
0.55849681 0.19142346 -0.00000160
0.79682554 -0.75022126 -0.00000012
-0.60789629 -0.79265116 -0.00000000
0.22849317 0.05019250 -0.00000053
0.42538483 -0.34553112 -0.00000028
-0.02149382 0.22916298 -0.00000064
-0.25592123 -0.45813575 -0.00000021
0.79465562 -0.51539293 -0.00000071
0.27810813 0.14777493 -0.00000062
0.15886385 -0.20349534 -0.00000037
-0.37081662 -0.09074160 -0.00000044
-0.06121674 0.08773578 -0.00000055
-0.71958394 0.42117793 0.09249311
0.42285049 0.31543196 -0.00000141
-0.41021192 -0.33628335 -0.00000029
0.55922078 -0.64716490 -0.00000010
-0.53037663 -0.59400264 -0.00000013
-0.77807564 0.28360577 0.07102834
0.38248504 0.37009451 -0.00000063
-0.24475733 -0.21673388 -0.00000036
0.48078239 0.03963377 -0.00000106
0.28993631 -0.33693804 -0.00000029
-0.61958958 0.70761878 0.14310063
0.15015326 0.01256941 -0.00000051
0.40287826 0.15842355 -0.00000104
-0.71047534 0.03814768 -0.00000010
-0.33401500 0.45778510 -0.00000058
0.62446825 0.14328620 -0.00000172
0.34237943 0.29751502 -0.00000112
0.02043760 0.29423469 -0.00000068
-0.26615678 0.01274712 -0.00000051
-0.75737942 -0.63622659 0.00000000
-0.59867565 -0.49840848 -0.00000012
0.30264432 0.01596380 -0.00000051
-0.77917164 -0.53441649 0.00000000
-0.46489170 0.11765018 -0.00000038
-0.37048099 -0.79283782 -0.00000000
-0.04726672 0.55636419 -0.00000085
-0.00354738 0.23353167 -0.00000065
0.01791307 -0.60665038 -0.00000012
0.33156843 -0.74479394 -0.00000003
-0.39934388 0.17504251 -0.00000046
0.61569276 0.14173955 -0.00000169
0.32113809 -0.44024580 -0.00000022
0.00061482 0.61084260 0.00000206
0.26403156 0.11113402 0.00000621
-0.43200466 0.21274570 -0.00000043
-0.54747359 0.69355919 0.11970972
0.66918686 -0.45134587 -0.00000070
-0.42757765 -0.01564175 -0.00000039
-0.33194242 -0.62530748 -0.00000011
-0.60080029 -0.58542680 -0.00000011
-0.61447278 -0.53663141 -0.00000010
0.32499618 0.33134370 0.00000117
-0.08609160 0.61867999 -0.00000087
-0.03087751 -0.34477063 -0.00000028
-0.45124822 -0.37601453 -0.00000026
-0.66196263 0.61542105 0.12957660
0.45016052 -0.36463308 -0.00000027
0.18500018 -0.26931777 -0.00000033
-0.00186802 -0.24475644 -0.00000035
0.01276855 0.12577681 0.00000976
0.55869782 -0.50361205 -0.00000025
-0.34266937 -0.45800642 -0.00000021
-0.56946927 -0.36815574 -0.00000018
-0.14660739 -0.54124664 -0.00000016
0.14938660 -0.31976723 -0.00000030
-0.67302442 0.00902572 -0.00000014
-0.65580783 -0.36808646 -0.00000009
0.16773222 0.47262563 -0.00000090
0.18661516 0.48489958 0.00000107
-0.77998288 -0.01677357 -0.00000002
0.09626969 0.24828442 -0.00000066
0.36252131 -0.46983944 -0.00000021
-0.53974498 -0.14903693 -0.00000025
-0.75080616 0.33514799 0.07761666
-0.17330975 0.72827289 0.02757166
-0.70211965 0.21665567 0.03223911
-0.79339885 -0.00170437 -0.00000001
0.77139303 -0.28853766 -0.00000128
0.35546001 -0.41948522 -0.00000024
-0.75379016 -0.26307999 -0.00000000
0.03902737 0.10138601 -0.00000056
0.56621231 -0.22471599 -0.00000081
0.35708384 0.41490974 -0.00000139
-0.37502259 -0.59044271 -0.00000013
0.47591202 0.03464826 0.00000360
-0.21449456 -0.36886091 -0.00000027
0.12814059 0.00999091 0.00000990
-0.64437161 -0.44629772 -0.00000008
-0.58116967 0.01417452 -0.00000024
0.50467691 -0.61393541 -0.00000012
-0.67458640 -0.61607686 -0.00000002
0.03764271 -0.15532932 -0.00000040
0.32723817 -0.64331169 -0.00000010
0.37939372 -0.05589582 -0.00000054
0.41987676 0.26847835 0.00000048
-0.12424247 0.11066588 -0.00000057
-0.55040089 -0.01482152 -0.00000026
-0.59893795 0.29131560 0.02449726
0.36359071 -0.77419609 -0.00000002
0.09099522 0.66424503 -0.00000031
-0.77493122 -0.53654800 0.00000000
0.33838780 0.41462603 -0.00000058
0.00659268 0.55135046 -0.00000084
-0.40838813 -0.17590514 -0.00000039
0.08116375 0.01190132 0.00001058
-0.65515580 0.72717682 0.15806318
0.41910217 0.36850516 -0.00000130
-0.18293550 0.77280420 0.04227167
0.59270653 0.15023989 -0.00000072
0.22764170 0.50414993 -0.00000006
0.21541883 0.42171118 -0.00000095
0.03569522 0.52080847 0.00000300
0.50053566 -0.63067523 -0.00000011
0.63242014 -0.24988128 -0.00000098
0.05949085 0.37347068 -0.00000073
-0.38689312 -0.25606043 -0.00000034
-0.05478419 -0.00752198 -0.00000050
-0.17573707 -0.63197430 -0.00000011
0.20437328 -0.12163770 -0.00000042
0.16023309 0.38661498 -0.00000074
-0.73964438 -0.55941068 0.00000000
-0.35809555 0.77728112 0.09103111
0.75003352 0.02782849 -0.00000154
-0.37287920 0.55677161 0.03519053
-0.00398202 -0.71212325 -0.00000005
0.40574110 0.08856263 0.00000398
-0.40088956 0.32555793 -0.00000049
-0.64872879 -0.09194782 -0.00000014
-0.59354867 0.29115943 0.02299205
0.15056738 -0.41599941 -0.00000024
-0.68215600 0.55374313 0.11831634
0.24269062 0.30262464 -0.00000081
0.42579736 -0.47451092 -0.00000020
-0.54043444 -0.66082022 -0.00000009
0.50839786 0.03854941 0.00000291
0.18133220 0.43194873 -0.00000086
-0.26519996 -0.31427129 -0.00000030
0.08006107 0.23915856 -0.00000065
0.40794516 0.14855351 0.00000286
-0.39346599 -0.59846801 -0.00000013
-0.57986068 -0.23031700 -0.00000019
-0.50997628 -0.04228063 -0.00000030
-0.32596248 0.22681781 -0.00000055
0.33282179 -0.75392767 -0.00000003
0.19000317 0.11324157 -0.00000057
-0.55459380 0.67337050 0.11616251
-0.71174783 -0.55370289 0.00000000
0.45704957 -0.29888570 -0.00000032
-0.22435584 0.05375627 -0.00000053
-0.11163965 0.06229590 -0.00000054
-0.42628935 0.54236402 0.04577711
-0.57706341 0.02388528 -0.00000024
0.21274371 0.31566816 0.00000361
0.52163453 0.05426894 0.00000237
0.05207828 0.56876607 0.00000197
0.38620835 0.10313175 -0.00000088
-0.31119359 -0.68558543 -0.00000007
-0.60216700 0.08027299 -0.00000023
0.07066975 0.54061624 0.00000215
0.12407578 -0.63041656 -0.00000011
0.28212838 0.51396829 -0.00000135
-0.48565611 0.53624629 0.06023063
0.46306196 -0.44675508 -0.00000022
0.48385129 0.01995497 -0.00000103
-0.46831080 0.03231903 -0.00000036
-0.20937890 0.60422175 0.00369069
-0.53631020 0.42401143 0.04351579
-0.10538945 -0.42353610 -0.00000024
-0.76350635 -0.55995710 0.00000000
-0.36914454 0.13198912 -0.00000048
-0.45340930 0.45289716 0.02885429
0.76063011 -0.04664507 -0.00000178
-0.70404351 0.34381033 0.06727499
0.09142019 -0.11119963 -0.00000043
0.04002040 -0.13540954 -0.00000042
-0.33660188 0.31371316 -0.00000055
-0.53186421 -0.55901553 -0.00000015
-0.50148673 0.39888579 0.02724371
0.12200487 -0.32856452 -0.00000029
-0.65840100 -0.59246961 -0.00000004
0.12000037 0.63564046 -0.00000035
-0.57731592 -0.65469788 -0.00000009
-0.57165732 -0.47766947 -0.00000016
-0.51713681 0.40278104 0.03254894
0.78016217 -0.17597920 -0.00000156
0.06056009 0.26877967 -0.00000067
-0.54805109 0.50465320 0.06859131
-0.33375359 -0.64127214 -0.00000010
-0.45628176 0.10228282 -0.00000039
-0.73170141 0.09975282 0.00853753
0.23131912 -0.68589559 -0.00000007
-0.65546343 -0.40015531 -0.00000008
0.34630167 0.03717190 0.00000605
-0.09490292 0.07436938 -0.00000055
0.34119120 0.27560725 0.00000186
-0.51308508 0.47871224 0.05205923
-0.75293495 0.61799383 0.15496784
0.33924255 0.35598459 -0.00000122
0.01477724 0.02194247 -0.00000051
0.12467608 -0.27492274 -0.00000033
-0.75691039 0.43938344 0.10756625
-0.74580444 0.10924390 0.01494172
0.15022499 0.29152461 0.00000500
-0.10095954 0.52638219 -0.00000083
-0.69067313 -0.74822281 0.00000000
0.53322252 -0.66533206 -0.00000008
-0.03608134 0.16067030 -0.00000060
0.19089692 -0.50107533 -0.00000019
0.16433420 0.06384361 0.00000848
0.60152066 0.00140498 0.00000179
-0.64612288 0.74843969 0.16138278
0.56690362 -0.13446112 -0.00000099
-0.48523539 -0.41968298 -0.00000024
-0.17296155 0.52017796 -0.00000076
0.15835354 0.14946409 -0.00000059
-0.44842798 -0.71521270 -0.00000005
-0.71620998 0.04523956 -0.00000010
-0.76192867 0.21721972 0.04862631
0.04940096 0.43591190 -0.00000077
-0.70129236 -0.70271458 0.00000000
-0.23754202 0.33763513 -0.00000066
0.60127084 0.05236531 0.00000088
-0.45740087 0.60075245 0.07007020
0.73308927 -0.01894405 -0.00000175
0.20604150 0.37482716 0.00000268
0.39851719 0.12599512 -0.00000096
0.11886731 0.53376041 -0.00000086
-0.48126756 -0.72237343 -0.00000005
-0.21139941 -0.63941436 -0.00000010
-0.57842760 -0.05665032 -0.00000023
-0.53339081 0.08244114 -0.00000030
-0.59027862 -0.49389440 -0.00000013
0.75956034 -0.38259246 -0.00000104
-0.72483875 -0.19851555 -0.00000004
-0.72088411 0.70239177 0.16917655
-0.11299403 -0.47038118 -0.00000021
-0.13986509 0.74094906 0.02193440
0.32750165 -0.05014453 -0.00000047
-0.20851404 -0.35378907 -0.00000028
-0.61060749 0.19961364 0.00277402
-0.02876646 0.79151215 0.00550302
-0.64260699 -0.21384247 -0.00000013
0.33217642 0.30227136 -0.00000109
-0.05046972 -0.59423358 -0.00000013
0.72695197 -0.19395933 -0.00000139
-0.70324605 -0.14664201 -0.00000008
-0.38098988 0.08140524 -0.00000046
-0.57867000 -0.20208710 -0.00000020
0.47912589 0.00152856 -0.00000098
-0.15215554 0.30879346 -0.00000069
0.37082483 0.40993117 -0.00000112
-0.60806078 -0.08802894 -0.00000019
0.35399376 0.19633529 0.00000304
0.17825471 -0.45564154 -0.00000022
-0.14503426 -0.42455347 -0.00000023
0.52541824 -0.35610128 -0.00000043
-0.47689879 -0.25315852 -0.00000030
0.45785127 -0.27249466 -0.00000037
-0.52814439 0.57280862 0.08168747
0.47067387 -0.57144033 -0.00000014
0.08875110 0.40424654 -0.00000075
0.51543414 0.08806901 -0.00000126
0.42158278 0.35627569 -0.00000148
0.34994480 -0.49304197 -0.00000019
0.18093721 0.48077532 0.00000126
-0.34857789 0.56331478 0.03037039
-0.52076711 0.46356782 0.05003372
0.09141693 -0.74071316 -0.00000004
-0.71583725 0.28025862 0.05322631
-0.13561981 0.00105073 -0.00000050
0.11652111 0.30227623 -0.00000069
-0.34211389 0.13316089 -0.00000051
0.30431009 -0.05110485 -0.00000047
-0.78060814 0.14542375 0.03420889
-0.57220303 -0.24461464 -0.00000020
0.45000172 0.22698429 -0.00000132
-0.77463498 0.41507376 0.10577888
0.06875030 0.66562711 -0.00000096
-0.04873788 -0.72813015 -0.00000004
-0.36863625 -0.22657065 -0.00000036
-0.27601144 -0.10315850 -0.00000044
-0.63581295 -0.37491420 -0.00000011
0.36309854 0.42736342 -0.00000128
-0.72028259 -0.20616090 -0.00000005
-0.10908750 -0.28637017 -0.00000032
-0.69193617 0.28154177 0.04708707
-0.72838279 -0.34853685 -0.00000001
0.23352876 0.55804987 -0.00000114
-0.15353115 -0.23117754 -0.00000036
0.39625716 0.02570678 -0.00000076
-0.51256615 -0.43565233 -0.00000023
-0.77364683 0.19738998 0.04642460
0.07158136 0.23744327 -0.00000065
0.09218042 0.61272417 -0.00000093
-0.77797944 0.19680254 0.04744116
-0.00922964 0.13805213 -0.00000059
-0.75891765 -0.36975111 0.00000000
-0.25611908 -0.33007722 -0.00000029
-0.72316587 -0.46320562 0.00000000
-0.27357785 0.26447093 -0.00000061
-0.56896888 -0.32560206 -0.00000019
0.26657354 -0.56901851 -0.00000014
-0.29785866 0.47952375 -0.00000062
-0.40254673 0.17297461 -0.00000046
0.46931503 -0.52294245 -0.00000017
-0.43631706 -0.47563366 -0.00000020
-0.64542499 -0.43448887 -0.00000009
-0.32658493 0.45284802 -0.00000059
-0.25090559 -0.20751020 -0.00000037
0.03338908 -0.57107697 -0.00000014
0.22225117 0.38451375 -0.00000090
0.47522966 -0.57265241 -0.00000014
-0.15696348 -0.27262783 -0.00000033
0.77347418 -0.64002043 -0.00000040
-0.52620340 -0.62073304 -0.00000011
0.72880682 -0.21093716 -0.00000136
0.18203380 -0.15030291 -0.00000041
-0.75899247 0.16481642 0.03360547
0.49120210 -0.35456471 -0.00000032
0.37426879 -0.48326816 -0.00000020
-0.72102338 0.01512090 -0.00000009
-0.53354778 0.35832742 0.02493733
0.52225225 -0.78364283 -0.00000001
0.06377356 -0.65447002 -0.00000009
-0.23624327 -0.40698941 -0.00000025
-0.60981510 0.23352224 0.01176278
0.27884873 -0.77974492 -0.00000001
-0.35796427 0.34179848 -0.00000053
-0.41181027 -0.11539182 -0.00000039
-0.42764390 -0.11630748 -0.00000038
-0.63244702 0.51900041 0.09539336
-0.37234345 -0.64458147 -0.00000010
-0.61225634 0.35724403 0.04600731
0.51869861 0.21853712 -0.00000153
0.14296161 -0.45832402 -0.00000021
0.24276995 -0.40685212 -0.00000025
-0.78272871 -0.42013388 0.00000000
0.04569573 0.31722325 0.00000616
-0.23251211 -0.64847797 -0.00000009
0.13891923 0.19629759 -0.00000062
0.55754687 -0.72169472 -0.00000005
0.21424771 -0.16724197 -0.00000040
-0.13773057 0.30764323 -0.00000069
0.36357226 0.14975566 0.00000369
0.69510043 -0.22317805 -0.00000123
0.58050230 -0.27338474 -0.00000076
-0.41164050 0.04671257 -0.00000042
-0.02810644 0.45008504 -0.00000078
0.22910144 0.45333683 -0.00000106
-0.03253843 -0.67584704 -0.00000008
0.01041272 0.71758167 -0.00000095
0.37215499 0.13014676 -0.00000088
-0.64511420 -0.39648894 -0.00000009
0.09242863 0.20245269 0.00000732
-0.77916774 -0.52253321 0.00000000
-0.56872098 -0.41625408 -0.00000017
-0.67927711 -0.57219462 -0.00000002
-0.36792157 -0.57643656 -0.00000014
0.62453782 0.09395804 -0.00000032
-0.00035719 -0.48872190 -0.00000019
-0.70284146 0.14320416 0.01249804
0.14914135 0.09633399 0.00000818
0.38855324 -0.20289860 -0.00000037
0.25662654 0.01796133 -0.00000051
0.68215669 -0.05104142 -0.00000152
-0.46610835 0.73878515 0.10990030
-0.07705120 0.62561058 -0.00000089
-0.61301450 0.56477772 0.10254419
-0.57932679 -0.72932885 -0.00000004
0.42987362 0.29763231 -0.00000024
0.35856341 0.22045591 0.00000252
0.30140169 0.14073763 -0.00000068
0.78308985 0.00711704 -0.00000180
-0.35482540 0.63745137 0.05218911
0.11235403 -0.35574805 -0.00000028
-0.12725536 0.04912124 -0.00000053
0.01079400 -0.05469023 -0.00000047
0.03717677 0.39482127 -0.00000075
-0.24866851 -0.78828997 -0.00000001
-0.42507928 -0.45168573 -0.00000022
0.02187242 0.55771158 -0.00000085
0.36422499 0.18738076 0.00000300
0.09087399 0.00614294 -0.00000050
-0.31134201 0.41374936 -0.00000060
0.29850667 -0.50483937 -0.00000018
0.38475886 0.23564819 -0.00000113
-0.13046128 0.76456418 0.02579181
-0.14838408 -0.61018384 -0.00000012
0.03374587 -0.25455100 -0.00000034
-0.53127630 -0.60070691 -0.00000012
0.16246313 0.24168269 0.00000562
-0.17308290 0.74048563 0.03082502
-0.78861867 0.10971089 0.02668964
-0.37827192 -0.34754721 -0.00000028
-0.37496479 0.38548341 -0.00000052
-0.71645354 0.44198026 0.09728981
0.02507566 -0.34582352 -0.00000028
-0.37842232 -0.58635306 -0.00000013
-0.06561862 0.43869263 -0.00000077
-0.46557508 -0.03166475 -0.00000035
0.56498855 -0.64851412 -0.00000009
-0.31983169 -0.55847693 -0.00000015
-0.46473126 -0.55759762 -0.00000015
0.27535855 -0.17121520 -0.00000039
0.18295701 -0.32565749 -0.00000030
-0.03991854 -0.69754238 -0.00000006
0.02801894 0.66442893 -0.00000092
-0.40569851 -0.59765764 -0.00000013
-0.60046041 0.20249929 0.00080303
0.74753688 -0.74146199 -0.00000015
-0.40567107 -0.47174176 -0.00000021
0.23696214 0.45330472 -0.00000108
-0.01439357 0.17843538 -0.00000061
-0.60413885 -0.46228400 -0.00000012
0.46305574 0.21976354 0.00000053
-0.73569505 -0.34101571 -0.00000001
-0.48661283 -0.48579242 -0.00000020
0.42285958 0.06798456 0.00000402
0.28833073 -0.13216451 -0.00000042
0.07948153 -0.28485733 -0.00000032
-0.66571921 0.30178858 0.04546654
-0.04003589 -0.38696782 -0.00000026
-0.08716802 0.48760002 -0.00000080
0.05595381 -0.20241613 -0.00000037
0.26133464 0.20188053 -0.00000067
-0.09280963 0.13346359 -0.00000058
0.38605272 -0.22557309 -0.00000036
0.22400706 0.20244335 0.00000533
0.03922862 0.29125486 -0.00000068
-0.57263331 0.61750216 0.10589453
-0.75566495 0.17412896 0.03522998
0.08866670 0.59698723 -0.00000089
-0.11502764 0.26156548 -0.00000066
0.13960023 -0.10319522 -0.00000044
0.24791329 -0.28062658 -0.00000032
0.17638274 -0.62316255 -0.00000011
-0.25911861 -0.50947440 -0.00000018
0.40175916 -0.71927689 -0.00000005
0.38565065 -0.72105672 -0.00000005
0.10673357 0.50931459 0.00000211
0.16540989 0.02007946 0.00000918
0.52346945 -0.08908764 -0.00000094
-0.39386071 0.25901043 -0.00000048
-0.66856345 -0.51485554 -0.00000005
-0.74358694 -0.79843720 0.00000000
0.42240930 -0.14347114 -0.00000051
-0.44726188 0.29762765 -0.00000043
-0.40980584 -0.70122486 -0.00000006
-0.52224614 0.50075849 0.06052986
0.43366199 -0.57529597 -0.00000014
0.17348673 0.27973071 0.00000484
0.44354467 0.33656794 -0.00000120
-0.08335964 -0.58670343 -0.00000013
-0.70808952 0.60137973 0.13828569
-0.37738425 0.23523268 -0.00000049
0.12230438 0.38179259 0.00000395
-0.25070306 0.21227883 -0.00000062
-0.25943317 0.43136937 -0.00000066
0.57091131 -0.47392425 -0.00000034
0.40749868 0.29997369 0.00000015
-0.42836891 0.14550837 -0.00000042
0.00669658 0.13958332 -0.00000059
-0.74163777 -0.31658863 -0.00000000
0.68554629 0.08166856 -0.00000127
-0.77540228 0.70157071 0.18375173
-0.51523559 0.18154138 -0.00000034
-0.53015764 0.48661185 0.05883747
0.01927759 0.30277904 -0.00000069
-0.16267400 0.67689888 0.01074028
0.12440451 -0.35199004 -0.00000028
-0.12534185 0.63972417 -0.00000084
-0.32605214 0.02618271 -0.00000051
-0.72205359 0.11241988 0.00935703
0.02006345 -0.41209494 -0.00000024
0.30161782 -0.76274391 -0.00000002
-0.07724315 -0.36296430 -0.00000027
-0.50006813 0.23856417 -0.00000036
-0.72961194 -0.08669022 -0.00000006
-0.51767010 0.30815060 0.00700808
-0.12702874 0.59542116 -0.00000083
-0.58927760 0.53133495 0.08702376
0.29910664 -0.04340482 -0.00000047
0.53358167 -0.37011222 -0.00000043
-0.63480083 0.50677108 0.09271285
-0.64621726 0.65181756 0.13518199
0.72746260 -0.29998825 -0.00000118
0.38555409 0.09681683 -0.00000086
-0.24191202 -0.03251045 -0.00000048
0.43368813 -0.65788943 -0.00000009
0.30230448 -0.46024041 -0.00000021
-0.43378819 -0.06978817 -0.00000038
0.21873887 -0.12302122 -0.00000042
-0.03795940 0.74997484 -0.00000095
-0.56201263 -0.24242068 -0.00000021
0.17548582 0.20055095 0.00000609
-0.54030762 -0.76649392 -0.00000002
-0.64746381 -0.70601973 -0.00000003
0.05459736 -0.35975787 -0.00000028
0.77565301 -0.12350968 -0.00000168
0.30757132 -0.10944776 -0.00000043
-0.48782470 -0.24001794 -0.00000029
-0.22486032 -0.04497182 -0.00000047
-0.35233845 0.62796615 0.04893950
0.58928261 0.08350846 0.00000055
-0.71506062 0.18158759 0.02623315
0.64145280 -0.35406600 -0.00000080
0.01222421 0.53983890 -0.00000084
-0.08271571 0.14955983 -0.00000059
-0.69034514 -0.24817435 -0.00000007
-0.47792188 -0.08450929 -0.00000033
0.77072338 -0.26371180 -0.00000134
0.11594734 0.54442264 -0.00000087
-0.46412197 -0.64936075 -0.00000009
0.39233386 0.36219396 -0.00000067
0.75486065 -0.62230571 -0.00000044
0.24802438 -0.46443282 -0.00000021
0.72410351 -0.11626958 -0.00000153
-0.18988109 -0.05892105 -0.00000046
0.20109014 0.12663593 -0.00000058
-0.11232087 -0.22125577 -0.00000036
-0.07168177 -0.00681462 -0.00000050
0.20520866 -0.25281082 -0.00000034
0.14597130 0.47077445 0.00000211
0.00035172 0.75952662 -0.00000097
0.11943497 -0.56405834 -0.00000015
-0.45527918 -0.33276881 -0.00000029
-0.39163132 -0.18238014 -0.00000039
0.68073648 0.11370176 -0.00000184
-0.74438820 0.30998314 0.06904411
0.31822794 0.31332114 -0.00000107
-0.49946380 -0.53613765 -0.00000016
-0.69020595 0.55225452 0.12009731
0.16356092 0.22321265 -0.00000064
-0.27357399 0.62291087 0.02618812
0.37609568 -0.00493110 -0.00000063
-0.13612814 0.15441153 -0.00000060
-0.09417375 -0.66825169 -0.00000008
-0.51104591 -0.24335309 -0.00000026
-0.35346240 0.51692171 0.01910370
0.21369015 0.27611537 0.00000429
0.10549688 0.49832366 0.00000231
0.56885379 -0.12063526 -0.00000102
0.36293056 0.36401319 -0.00000131
0.20925236 -0.36517669 -0.00000027
-0.76735519 0.05999364 0.00742326
-0.13457292 0.60596135 -0.00000082
-0.44345617 -0.48699766 -0.00000020
-0.56604828 -0.07636389 -0.00000024
-0.19171503 0.29012629 -0.00000068
0.14974835 0.60891729 -0.00000111
0.57574886 -0.06906712 -0.00000115
-0.24357978 0.63314516 0.02082462
0.04755045 0.68965507 0.00000007
0.12669928 -0.15226678 -0.00000040
-0.19876562 -0.23205360 -0.00000035
0.57205553 0.17713263 -0.00000162
0.45831809 -0.57056206 -0.00000014
-0.77751764 -0.02758705 -0.00000002
0.06514981 0.09190634 -0.00000056
0.35235702 -0.40044270 -0.00000025
-0.27010159 -0.32371559 -0.00000030
-0.66345352 0.55298968 0.11303536
0.37646774 -0.30513005 -0.00000031
0.58537869 -0.67405380 -0.00000008
0.37918020 -0.38268696 -0.00000026
0.11020222 0.47421273 -0.00000080
0.36239678 -0.58189275 -0.00000014
0.47168250 -0.53028742 -0.00000017
0.34651297 0.14931834 0.00000403
0.54238876 -0.06546819 -0.00000105
0.50459751 0.10020589 0.00000187
0.42529811 0.00599652 0.00000509
0.13752700 0.62165110 -0.00000109
0.09133925 0.12318875 -0.00000058
-0.60901708 0.54023214 0.09479668
0.07778866 0.28598832 -0.00000068
0.03007359 0.64699496 -0.00000090
-0.14372958 0.21038429 -0.00000063
-0.09070039 0.34006973 -0.00000071
-0.14403286 0.09864328 -0.00000056
0.06076745 0.69149930 -0.00000098
-0.45241718 0.27092411 -0.00000042
0.39177294 0.22057454 0.00000188
0.75393707 -0.24896677 -0.00000137
-0.58314010 0.40120792 0.05003737
0.21315768 0.29547393 -0.00000070
-0.16626610 -0.56862262 -0.00000014
0.05378576 -0.13591016 -0.00000042
0.02341773 0.77136999 -0.00000102
-0.32168750 -0.26093746 -0.00000034
0.46632241 -0.61064144 -0.00000012
0.09823182 0.53608889 -0.00000084
-0.43419371 -0.22472470 -0.00000035
-0.52572169 -0.30927263 -0.00000024
0.10469331 0.30780232 0.00000542
-0.35402571 -0.62332731 -0.00000011
0.15480826 0.20320386 0.00000636
0.68350209 -0.63168373 -0.00000039
0.47517579 -0.74926150 -0.00000003
0.74192562 -0.75724857 -0.00000011
0.41263232 0.15129561 -0.00000106
0.27399158 -0.32756718 -0.00000030
-0.00486591 0.40239918 -0.00000075
-0.45203709 -0.10978640 -0.00000035
0.56731849 -0.33961156 -0.00000059
0.32890389 -0.10988669 -0.00000043
-0.46943676 0.77068636 0.11946277
-0.00231603 0.01980867 -0.00000051
-0.37564108 -0.69629280 -0.00000006
0.36404396 -0.30544723 -0.00000031
0.59050498 0.03405627 -0.00000140
-0.73703762 0.15025900 0.02369488
-0.36376743 0.52774555 0.02483874
-0.77551569 -0.75113109 0.00000000
0.04870006 0.55099417 0.00000231
0.76364973 -0.48129333 -0.00000080
-0.04278926 -0.51230523 -0.00000018
-0.06943774 -0.30165710 -0.00000031
0.17140487 0.46181589 0.00000178
0.04768583 0.08998765 -0.00000056
-0.63301965 -0.30156434 -0.00000012
0.51176269 0.08464505 -0.00000124
-0.03057401 0.76550592 -0.00000096
0.04584788 0.61996951 0.00000123
0.40332801 0.31766912 -0.00000135
0.52093721 0.06373625 0.00000221
-0.14521724 -0.75428861 -0.00000003
-0.18740495 -0.12214961 -0.00000042
-0.26149743 -0.15220037 -0.00000040
0.13753291 -0.35374841 -0.00000028
0.19782581 -0.57823119 -0.00000014
-0.02203297 -0.03080732 -0.00000048
0.76721361 -0.23312971 -0.00000142
-0.39599053 0.66531952 0.07092702
0.54729728 -0.44840958 -0.00000032
-0.47341613 0.05396229 -0.00000036
-0.65738092 -0.15528750 -0.00000012
-0.54733414 -0.31981241 -0.00000021
0.37068440 0.14790539 -0.00000091
-0.12437914 0.48272441 -0.00000080
-0.67996392 -0.45574629 -0.00000004
-0.32966707 -0.51957200 -0.00000018
-0.58558548 -0.54559012 -0.00000013
0.58894607 -0.01433150 -0.00000130
0.56400606 -0.34150715 -0.00000058
-0.08670781 -0.76705456 -0.00000002
0.26433099 -0.71419607 -0.00000005
0.02115444 -0.44341079 -0.00000022
0.58685718 -0.30936894 -0.00000071
-0.17613903 0.31823658 -0.00000070
-0.28198767 -0.41733084 -0.00000024
0.71374193 -0.18907648 -0.00000136
-0.11651784 0.62526362 -0.00000084
-0.18118258 -0.34235227 -0.00000029
0.57735983 -0.44145795 -0.00000043
-0.20617265 -0.23771164 -0.00000035
0.13976830 -0.50435302 -0.00000018
0.35925394 -0.64846495 -0.00000009
-0.64235167 -0.75015674 -0.00000003
-0.01343557 -0.35488384 -0.00000028
0.65721256 -0.57516963 -0.00000042
0.21017427 0.48413346 -0.00000106
0.21752528 0.36429811 -0.00000085
0.35088664 0.11801474 -0.00000079
0.29154523 0.37893719 -0.00000111
0.25983692 0.16248122 0.00000544
0.10210630 0.41494102 0.00000372
-0.04477223 -0.16677711 -0.00000040
-0.31160139 -0.29430909 -0.00000032
0.24216734 -0.39310062 -0.00000025
-0.22267089 0.32997658 -0.00000068
0.47729083 0.11174390 -0.00000119
-0.54186837 0.38186978 0.03358592
0.64587680 -0.43407191 -0.00000066
-0.55436820 0.25593357 0.00279582
0.25623611 0.08052014 0.00000683
0.08009330 0.20838205 0.00000741
0.21386171 -0.25235405 -0.00000034
-0.40861945 -0.10584445 -0.00000040
0.28213590 0.21940031 0.00000401
-0.31288578 -0.06240211 -0.00000046
-0.50726457 -0.77797948 -0.00000001
-0.02490145 -0.25647708 -0.00000034
-0.12167338 -0.28168987 -0.00000032
0.15492022 0.41815253 0.00000287
0.52569349 -0.21542678 -0.00000070
0.57087246 0.02022058 -0.00000131
0.63518618 -0.05328027 -0.00000137
-0.56229769 -0.29078286 -0.00000020
-0.12183772 0.30394336 -0.00000069
0.15989231 0.07871970 0.00000831
0.45330571 0.00873160 -0.00000091
0.49835995 -0.55408936 -0.00000015
-0.27736556 0.34367872 -0.00000062
-0.50873744 0.68291466 0.10630617
0.42754973 -0.66721757 -0.00000008
-0.15414771 -0.14684020 -0.00000041
0.57872298 -0.64922347 -0.00000009
-0.52554747 0.35595541 0.02212195
-0.16997116 0.61291268 -0.00000078
-0.66759158 -0.49609077 -0.00000005
-0.47940313 0.00750356 -0.00000034
0.15025535 0.61986844 -0.00000113
-0.32144874 0.37866213 -0.00000058
-0.05814018 -0.35152428 -0.00000028
0.22142079 -0.38661189 -0.00000026
-0.11337509 -0.24920734 -0.00000034
-0.41932489 0.62623008 0.06665058
0.44314205 -0.44517215 -0.00000022
0.76079230 -0.35189842 -0.00000112
0.17250851 0.31175690 -0.00000069
-0.61195083 -0.68490910 -0.00000007
0.13534248 0.61196782 -0.00000107
0.13368630 0.41613176 0.00000322
0.50566619 -0.41611354 -0.00000025
-0.07582987 0.08745035 -0.00000055
-0.00307869 -0.13356560 -0.00000042
-0.22516473 -0.26976180 -0.00000033
-0.12261314 0.10660249 -0.00000057
0.41841359 -0.05286057 -0.00000068
0.21975243 0.34795416 0.00000290
0.11836222 0.54901857 0.00000123
0.11034647 -0.21828097 -0.00000036
0.02699829 -0.79167094 -0.00000001
-0.11883494 -0.78050654 -0.00000001
-0.42172960 -0.34001086 -0.00000029
-0.12473902 0.55547963 -0.00000082
-0.01294691 0.48577759 -0.00000080
-0.68712852 -0.37322017 -0.00000005
-0.65694395 -0.53821253 -0.00000005
0.04925893 0.69123149 0.00000001
0.28432233 0.12172100 0.00000572
0.03119793 0.22933076 0.00000780
-0.75548069 -0.00051247 -0.00000005
-0.00939278 -0.42945123 -0.00000023
-0.73492386 0.76083755 0.18885150
0.11792576 -0.31420386 -0.00000030
0.65511242 -0.14712873 -0.00000125
-0.70386340 -0.64432629 0.00000000
-0.19659318 -0.23435234 -0.00000035
-0.49485641 0.64726127 0.09286090
0.21404250 0.16926948 -0.00000061
-0.49337278 -0.49735549 -0.00000019
0.62967378 -0.02166609 -0.00000141
-0.14075985 0.55736665 -0.00000081
-0.24068315 -0.75707068 -0.00000003
0.09871093 0.69869529 -0.00000108
0.27915307 -0.41659137 -0.00000024
-0.20516012 0.47567502 -0.00000072
0.13021933 0.54585422 -0.00000092
0.52117348 0.04324807 -0.00000119
0.04094636 0.49680216 0.00000331
-0.64461495 -0.00684903 -0.00000016
-0.35958466 -0.63463664 -0.00000010
0.15846112 0.23798574 0.00000574
-0.66699721 -0.61716246 -0.00000003
-0.11375016 0.73919755 0.01437054
0.41841584 0.33990696 -0.00000077
-0.14245081 -0.68101572 -0.00000007
-0.31745575 -0.53877987 -0.00000016
0.03794399 0.39369043 -0.00000075
0.13978065 -0.15950927 -0.00000040
0.23231092 0.54306200 -0.00000085
-0.41718834 -0.24457716 -0.00000035
0.16096641 0.01929704 0.00000926
0.06868105 -0.51402059 -0.00000018
-0.18125626 -0.61558569 -0.00000012
0.46448076 0.08704495 -0.00000110
0.53679220 -0.22826756 -0.00000071
-0.21339499 0.71388146 0.03454582
0.30179294 -0.73554668 -0.00000004
0.61041692 0.08184620 -0.00000155
-0.41129492 0.56489097 0.04782164
0.71489818 -0.27080064 -0.00000120
0.76356287 -0.75824085 -0.00000010
-0.72094891 0.20797606 0.03499407
0.79001982 -0.09203843 -0.00000177
0.55636911 -0.41657915 -0.00000041
0.57297472 0.12982422 0.00000003
0.46574619 -0.28813589 -0.00000037
-0.26594591 -0.00271657 -0.00000050
0.52089787 -0.68079015 -0.00000007
0.60234209 0.14229780 -0.00000164
-0.16950526 -0.20646083 -0.00000037
-0.27610954 -0.61829343 -0.00000011
0.27357752 -0.48051923 -0.00000020
-0.29972976 0.43528825 -0.00000061
-0.08788844 0.17765226 -0.00000061
-0.40024271 -0.45532670 -0.00000022
-0.27706427 -0.70327411 -0.00000006
-0.72642758 0.72562421 0.17698728
0.32156061 0.20952772 0.00000343
0.35546036 0.16840535 -0.00000091
-0.51878863 0.50485809 0.06070414
-0.14537601 -0.05585441 -0.00000047
0.45625461 -0.67029103 -0.00000008
0.66798383 -0.49164572 -0.00000062
-0.57877536 -0.16931358 -0.00000021
-0.73873970 -0.56279512 0.00000000
0.17611541 -0.67043645 -0.00000008
0.65968138 -0.61356843 -0.00000035
-0.24118730 -0.00224601 -0.00000050
-0.16335723 -0.48640712 -0.00000020
-0.36232835 0.36036538 -0.00000053
0.02595999 -0.61156829 -0.00000012
-0.15720181 0.64207632 -0.00000080
0.64468338 -0.22752945 -0.00000106
-0.43167578 0.77499169 0.11038180
0.27361670 -0.26255261 -0.00000034
0.24046384 0.02384829 -0.00000051
0.10143726 0.35321405 0.00000473
0.64287637 -0.37965585 -0.00000076
0.08489450 0.41611121 -0.00000076
0.06998912 0.14898095 -0.00000059
0.44328368 -0.08273976 -0.00000070
0.02290658 0.13738794 -0.00000059
0.16003832 0.42878861 0.00000259
0.54658375 0.18285314 -0.00000155
0.18347257 -0.62273109 -0.00000011
0.78803113 -0.64344235 -0.00000039
-0.75611210 0.68590973 0.17426483
0.59183842 -0.37886838 -0.00000059
-0.39571170 -0.31649197 -0.00000030
-0.50729781 0.59625172 0.08239224
-0.33015130 0.48968717 0.00538402
0.16790694 0.57749067 -0.00000110
-0.12793373 0.64733154 -0.00000084
-0.32674465 -0.67910810 -0.00000008
-0.06294881 -0.56001501 -0.00000015
-0.52093004 0.70718652 0.11620383
-0.14964892 -0.39656926 -0.00000025
-0.05048043 0.78750566 0.01030942
0.15825234 0.54441526 -0.00000101
-0.17364065 -0.28639961 -0.00000032
-0.62330940 -0.65223374 -0.00000007
0.16282023 -0.22382262 -0.00000036
-0.15539152 -0.35706060 -0.00000028
0.51666069 0.25571406 -0.00000159
0.27198077 0.13909182 -0.00000059
0.41541177 0.29258119 0.00000013
-0.42861320 -0.67870794 -0.00000008
-0.52931214 0.55427510 0.07697386
0.54278865 -0.32034991 -0.00000055
0.38304807 0.39353628 -0.00000143
-0.77058082 -0.38805719 0.00000000
0.49563793 -0.32380499 -0.00000039
-0.10419384 -0.33832126 -0.00000029
0.12664705 0.25523959 0.00000594
-0.68325385 -0.72054307 0.00000000
0.09879686 -0.56412072 -0.00000015
0.03116827 -0.08533402 -0.00000045
0.27109803 0.28571048 -0.00000086
0.23319895 0.29097481 -0.00000075
0.46698930 -0.27141380 -0.00000040
-0.10814173 -0.69807276 -0.00000006
-0.01397993 0.06159732 -0.00000054
-0.37569031 0.64289640 0.05933049
0.34723806 0.24116909 -0.00000102
-0.57396069 0.74415825 0.14063344
0.69547011 -0.58580028 -0.00000052
-0.35330580 0.54386924 0.02637558
-0.39842073 0.61543919 0.05804751
0.28091434 -0.50668144 -0.00000018
-0.73996354 -0.05436766 -0.00000005
-0.45345139 0.22966729 -0.00000041
-0.69879908 -0.02965558 -0.00000010
0.04175412 -0.19973189 -0.00000038
-0.74173494 0.71276137 0.17765080
-0.08088446 0.50706068 -0.00000082
0.26710953 0.35799343 0.00000181
-0.04140765 0.32075064 -0.00000070
-0.74244314 0.77185353 0.19388258
-0.50079528 0.76642711 0.12681842
-0.79729424 -0.06914002 0.00000000
0.03072953 0.56688209 -0.00000085
-0.37727171 0.76826633 0.09378924
-0.06754972 0.33468182 -0.00000071
0.28672965 -0.37044398 -0.00000027
-0.54129160 0.67779319 0.11375231
-0.60022501 -0.25565188 -0.00000017
-0.41323799 0.76291977 0.10210046
-0.26962668 0.24607850 -0.00000061
-0.43246843 0.67200244 0.08264229
0.50927378 0.25834217 -0.00000157
-0.06747094 0.03263789 -0.00000052
0.04479295 -0.35871565 -0.00000028
0.19825997 0.05851419 0.00000806
0.68798469 0.09998341 -0.00000184
-0.52894191 0.11633464 -0.00000031
0.59940879 0.05164136 0.00000093
0.13544589 0.25665822 -0.00000066
0.17076942 0.47205816 0.00000161
-0.56991307 -0.04787761 -0.00000024
0.21328380 0.21325252 -0.00000063
0.74369944 -0.16573360 -0.00000150
0.77078292 -0.68049871 -0.00000030
-0.05085501 -0.19853002 -0.00000038
-0.74444882 -0.53824022 0.00000000
0.29326358 0.29404113 0.00000245
0.48238403 -0.52364462 -0.00000017
0.39247195 0.31474784 0.00000018
0.75311957 -0.78422435 -0.00000004
0.75704327 -0.23454881 -0.00000140
-0.70897243 -0.03945238 -0.00000009
0.34096070 -0.13098313 -0.00000042
0.28221029 0.16915468 0.00000491
0.30259814 0.42661208 -0.00000011
0.62558600 -0.77935741 -0.00000001
-0.16194017 -0.53037151 -0.00000017
-0.02057624 -0.02057652 -0.00000049
0.33262789 -0.79326416 -0.00000000
-0.09625022 -0.10566162 -0.00000043
0.08055387 0.17624122 0.00000792
0.05212714 0.62479886 0.00000106
-0.50496567 -0.31928885 -0.00000026
0.07658723 0.55573185 0.00000181
-0.38079126 -0.78542551 -0.00000001
-0.55200121 0.69059848 0.12013503
0.11425572 0.19969409 -0.00000062
0.77430462 -0.42816897 -0.00000093
0.46057458 -0.17777484 -0.00000057
-0.68452915 -0.29338470 -0.00000007
-0.64016758 -0.59989023 -0.00000006
-0.63190241 0.46669456 0.08104812
0.72939533 0.03067634 -0.00000183
0.42192109 0.19891103 0.00000169
-0.20284414 0.55964620 -0.00000074
0.46886469 -0.24156534 -0.00000047
0.09164418 -0.06458073 -0.00000046
0.18260249 0.48834188 -0.00000098
0.72938271 -0.53462537 -0.00000066
0.40264563 -0.25378844 -0.00000034
-0.18106221 0.50992907 -0.00000075
-0.08235845 -0.27698418 -0.00000033
0.35858781 0.22772516 -0.00000103
-0.73556351 -0.11002006 -0.00000005
0.04683480 -0.16073156 -0.00000040
0.01378490 0.45630080 0.00000438
-0.23987641 0.61059405 0.01369834
-0.25971029 0.08904012 -0.00000056
0.00806060 0.64367257 -0.00000090
0.10522071 0.24313045 0.00000646
0.18322756 -0.28460950 -0.00000032
0.28399122 0.16832945 0.00000489
-0.72632652 0.65575652 0.15799546
-0.60192748 -0.18795034 -0.00000018
0.70894400 -0.68610173 -0.00000028
-0.39000989 -0.48235032 -0.00000020
0.63610290 -0.57165649 -0.00000036
0.61701759 -0.00585196 -0.00000140
0.36548401 0.33089241 0.00000040
0.29430197 0.27517303 -0.00000092
-0.53453027 0.47948933 0.05809107
0.08684852 -0.03554442 -0.00000048
0.06153880 0.34372085 -0.00000071
-0.20986917 -0.16972974 -0.00000039
-0.19473470 0.61731862 0.00327068
-0.54155021 -0.25452008 -0.00000023
0.00285189 0.03606459 -0.00000052
0.33022356 -0.44544562 -0.00000022
0.18787607 -0.72799074 -0.00000005
0.13600848 -0.35863185 -0.00000028
0.37682251 0.29276301 -0.00000122
-0.16109006 0.18096400 -0.00000061
-0.27954240 0.04969975 -0.00000053
-0.46615223 -0.15661726 -0.00000033
-0.49762872 -0.28315132 -0.00000027
-0.02524813 -0.56303975 -0.00000015
0.02011856 0.21119351 0.00000826
0.03311692 -0.40260257 -0.00000025
-0.03188814 0.70099650 -0.00000094
0.27777059 0.22070264 0.00000407
0.14279331 0.14810155 0.00000744
0.68316328 -0.55528682 -0.00000054
0.17979944 -0.39582610 -0.00000025
-0.31886123 0.08845169 -0.00000053
-0.02233337 -0.45759056 -0.00000021
0.02490391 0.71734966 -0.00000095
-0.34792718 0.00608121 -0.00000048
-0.23377107 -0.75505809 -0.00000003
0.50191725 0.07396342 -0.00000119
0.55098031 -0.37701616 -0.00000047
0.03670724 -0.34792278 -0.00000028
-0.48213479 0.70683132 0.10557709
0.50230113 0.29495551 -0.00000162
-0.03051225 0.06485581 -0.00000054
-0.25984030 -0.36975714 -0.00000027
0.16748636 0.58016562 -0.00000027
0.35504350 0.19627927 0.00000302
0.06460098 0.42939525 0.00000405
-0.12889016 0.41408400 -0.00000076
0.77378669 -0.51215556 -0.00000072
-0.44732333 -0.10762175 -0.00000036
0.58241616 -0.54968630 -0.00000023
-0.76423784 0.04404396 0.00224787
0.67833657 -0.02927732 -0.00000155
0.50365931 -0.37319795 -0.00000032
0.26097153 -0.21812578 -0.00000036
0.78005255 -0.61316846 -0.00000047
0.14711242 -0.15549112 -0.00000040
0.34517150 -0.40749147 -0.00000025
-0.48005694 -0.05049569 -0.00000033
0.31712322 0.46104756 -0.00000100
-0.75326189 0.55446554 0.13781293
0.63667017 -0.36482819 -0.00000077
0.45724374 0.31053680 -0.00000151
-0.02950157 0.27864304 -0.00000067
-0.49837633 0.36653043 0.01761721
-0.44258020 0.12593582 -0.00000040
-0.56779225 0.67541569 0.12030014
-0.23393431 0.76990694 0.05532802
-0.50683789 0.34018300 0.01276244
-0.30848569 0.46465691 -0.00000061
0.29256067 -0.56902801 -0.00000014
-0.14051615 -0.55849314 -0.00000015
0.12484033 0.55618779 -0.00000092
0.33670613 -0.38279287 -0.00000026
-0.35142429 -0.21500628 -0.00000037
-0.69047533 0.31136305 0.05478496
0.60263229 0.13798780 -0.00000164
-0.64326423 -0.24553934 -0.00000012
0.59393034 -0.54523006 -0.00000028
-0.06913115 0.00322281 -0.00000050
-0.17926341 -0.52302886 -0.00000017
0.42701757 0.32923420 -0.00000145
0.50226474 -0.06920331 -0.00000091
-0.12181733 0.63850043 -0.00000084
0.01020650 0.71430630 0.00000024
0.10559389 0.40402677 0.00000384
-0.37482528 -0.22938821 -0.00000036
0.58494601 -0.61586710 -0.00000012
-0.56481705 -0.52280314 -0.00000016
-0.48187895 0.27830133 -0.00000039
0.23826525 0.04224752 0.00000772
0.46388245 -0.54098977 -0.00000016
-0.69173025 0.70295816 0.16141696
-0.51608615 -0.45672719 -0.00000021
-0.49301843 -0.74539884 -0.00000003
0.47033775 -0.18546069 -0.00000058
0.24375410 -0.67079132 -0.00000008
0.57684455 -0.34033628 -0.00000062
0.39076889 -0.59825880 -0.00000013
0.32853712 -0.44865974 -0.00000022
-0.28892166 -0.44821918 -0.00000022
0.03719390 0.72093245 -0.00000096
0.08607715 0.06791611 0.00000960
-0.45091094 0.66760323 0.08645411
-0.46384662 -0.15312448 -0.00000033
0.44979556 0.23041808 -0.00000133
0.45083471 0.14362691 -0.00000116
0.37420118 0.18709197 -0.00000100
0.47097563 0.01269450 -0.00000097
-0.20301857 0.16608498 -0.00000060
0.57240911 0.12600984 -0.00000152
-0.45713304 -0.48551024 -0.00000020
-0.02720560 0.61111527 -0.00000088
-0.76296221 -0.21874094 0.00000000
0.50604417 -0.68461727 -0.00000007
-0.21701977 0.29437420 -0.00000068
0.61267589 -0.21233097 -0.00000099
0.11749585 0.23715183 0.00000637
-0.11858405 0.29398344 -0.00000068
-0.66926074 -0.48145168 -0.00000005
0.38862572 -0.50891144 -0.00000018
-0.68679923 -0.12673479 -0.00000010
-0.39739601 0.09903026 -0.00000045
0.53224852 0.15113853 0.00000043
0.53152127 -0.22916547 -0.00000069
-0.55483933 -0.69469549 -0.00000007
0.37277022 0.11776472 -0.00000086
-0.22042052 0.40873970 -0.00000069
0.04853194 0.40143034 -0.00000075
0.38995229 -0.40622477 -0.00000025
-0.64022223 -0.35729926 -0.00000011
0.40353818 -0.13022768 -0.00000048
-0.66298954 -0.55798370 -0.00000004
0.57302283 -0.59689019 -0.00000013
0.19546700 -0.52834710 -0.00000017
-0.75514851 -0.29733782 0.00000000
-0.51694647 -0.10409580 -0.00000028
0.03346635 0.65359483 -0.00000091
0.43807565 0.05579508 0.00000395
-0.37932014 0.37831077 -0.00000052
-0.43686675 -0.40220861 -0.00000025
-0.24188196 0.27696843 -0.00000065
-0.10990840 0.17717292 -0.00000061
0.30281635 0.47956343 -0.00000106
0.63415124 0.13938193 -0.00000132
-0.53026334 -0.36112558 -0.00000022
-0.45330238 -0.07056192 -0.00000036
0.28955263 0.43146331 0.00000006
0.57950988 0.11466840 0.00000018
-0.29466268 -0.79240207 -0.00000000
-0.18434143 -0.06998638 -0.00000046
0.47554685 0.17239695 0.00000114
0.42151283 0.21362381 -0.00000121
0.56903607 -0.17897671 -0.00000091
-0.67977998 0.27660094 0.04244639
-0.31031534 0.64923335 0.04330564
0.69388809 -0.50407254 -0.00000068
-0.61734477 0.76382096 0.15774643
-0.69512073 0.63982506 0.14520086
0.43224160 0.06641629 0.00000387
0.65112847 0.07114663 -0.00000166
-0.72377378 0.06342941 -0.00000009
0.60187351 -0.26639056 -0.00000085
-0.77379692 -0.58828967 0.00000000
0.02315487 -0.13411214 -0.00000042
0.01804162 -0.40691729 -0.00000025
-0.05328355 0.59001692 -0.00000087
-0.62230881 -0.47366787 -0.00000010
-0.70314001 0.74492451 0.17590499
-0.61302085 -0.52432602 -0.00000010
0.06216658 -0.64907168 -0.00000009
0.01506968 -0.31735841 -0.00000030
-0.18739471 -0.68598519 -0.00000007
-0.63354136 0.06041954 -0.00000019
0.13148592 -0.69021575 -0.00000007
0.32052810 -0.11389082 -0.00000043
-0.37993386 0.16133677 -0.00000048
0.08966326 -0.43908981 -0.00000023
0.58926904 -0.47341535 -0.00000040
0.05676152 0.65639092 -0.00000091
-0.24991002 0.39311999 -0.00000066
0.39574390 -0.50550571 -0.00000018
-0.23198036 -0.25283287 -0.00000034
-0.55308199 -0.79697359 -0.00000000
0.17493138 0.22507504 0.00000570
-0.45437581 0.30365862 -0.00000042
0.63498829 -0.43186030 -0.00000063
0.01971466 0.24011738 -0.00000065
-0.70944457 0.18502752 0.02564248
0.46455329 0.05121693 0.00000352
-0.79167995 -0.67710772 0.00000000
-0.38959035 0.17204047 -0.00000047
0.30515784 0.25684854 -0.00000092
-0.55401872 0.33977592 0.02545835
0.12200563 0.08684175 0.00000875
0.43874893 -0.25249431 -0.00000035
0.17647124 -0.54367424 -0.00000016
-0.42368782 0.56028961 0.04993652
0.07998126 -0.23673422 -0.00000035
-0.52045820 0.32246882 0.01165127
-0.46003533 0.04546344 -0.00000037
-0.43031897 0.12805988 -0.00000042
-0.21159796 -0.77182159 -0.00000002
-0.40320442 0.73456817 0.09168146
0.08595785 -0.40431923 -0.00000025
0.57049211 0.04961394 -0.00000136
-0.71983120 0.69403050 0.16662123
0.07023271 0.01073289 0.00001077
0.57156108 0.08394115 -0.00000143
-0.10217725 -0.51220613 -0.00000018
0.55289647 0.22254345 -0.00000164
0.45592297 0.09497907 0.00000290
0.11078524 0.26860333 -0.00000067
0.18972217 -0.08719088 -0.00000045
-0.05588555 -0.61436186 -0.00000012
-0.23699352 -0.18425492 -0.00000038
-0.65249176 0.18278821 0.00957583
-0.24905426 0.59123613 0.01093517
0.26588695 -0.51667673 -0.00000018
0.20445871 0.11695513 -0.00000057
-0.22407602 0.09316195 -0.00000056
-0.32774231 -0.00283706 -0.00000050
0.21855782 -0.49921771 -0.00000019
-0.20632060 -0.03542625 -0.00000048
0.24523039 0.49317501 -0.00000119
-0.73079294 0.26573483 0.05334356
-0.04061178 0.48359102 -0.00000080
-0.23217283 -0.29315651 -0.00000032
0.19536277 -0.74966916 -0.00000003
0.09129537 0.10436333 0.00000893
-0.31835901 -0.39929975 -0.00000025
0.58399225 -0.70215903 -0.00000006
0.44160682 0.29178310 -0.00000142
-0.29866489 -0.70828677 -0.00000006
0.31476710 0.00430119 0.00000718
0.29693993 0.20884295 -0.00000080
0.19339474 0.10820241 -0.00000057
0.32824445 0.36292551 -0.00000120
-0.78658273 -0.16658602 0.00000000
0.10384983 0.40779529 0.00000381
0.50466458 0.24128034 -0.00000066
0.16264725 -0.75949417 -0.00000003
-0.16155491 0.31369475 -0.00000070
-0.02995349 -0.43936374 -0.00000023
-0.28645631 0.21943530 -0.00000059
0.11515407 0.22331819 -0.00000064
0.43679032 -0.24937491 -0.00000035
-0.43387594 0.70010083 0.09065116
0.76867378 -0.41409057 -0.00000096
0.46698040 0.23213327 -0.00000139
0.52523125 0.27267514 -0.00000165
-0.74692066 0.44517284 0.10642614
-0.54212004 0.68948078 0.11714958
-0.38587434 0.08725987 -0.00000046
-0.25698003 -0.57827330 -0.00000014
0.22132837 -0.19965420 -0.00000038
0.44218723 -0.42042061 -0.00000024
-0.72110749 0.41603349 0.09151029
-0.25969652 0.57370475 0.00906527
-0.06488909 0.41208335 -0.00000076
0.26434509 0.38160998 0.00000144
-0.45680927 -0.57646944 -0.00000014
0.59203138 -0.73139366 -0.00000004
0.23107997 0.50784044 -0.00000019
-0.15974803 0.05123025 -0.00000053
-0.55253372 0.55444432 0.08332288
0.04229380 -0.74670967 -0.00000003
-0.41191493 -0.47533190 -0.00000020
0.68361385 -0.03285402 -0.00000156
0.07192507 -0.38678106 -0.00000026
0.49972053 0.27673561 -0.00000158
0.34676486 -0.48925084 -0.00000019
-0.55299513 0.69073277 0.12044127
-0.73182364 -0.57978516 0.00000000
0.19840692 0.29874860 0.00000415
-0.17371406 0.01847665 -0.00000051
0.59745023 0.03554819 0.00000125
0.18456082 0.44684561 -0.00000090
0.38589371 0.35261708 -0.00000038
-0.73796894 -0.52593354 0.00000000
0.05828556 0.72696031 -0.00000104
0.41898143 -0.36344288 -0.00000027
-0.24157350 0.65005016 0.02486859
-0.20114669 -0.23978764 -0.00000035
0.18499938 0.30503377 -0.00000069
0.68406151 0.10343274 -0.00000163
0.07061400 -0.22278048 -0.00000036
