ply
format ascii 1.0
element vertex 1400
property float x
property float y
property float z
end_header
-0.52572218 0.22551308 0.00000000
-0.04768468 0.60199418 0.00000000
0.73742128 -0.60951231 -0.00000024
-0.14190931 -0.37396010 0.00000000
0.36518357 0.37102786 -0.00000040
0.17255539 0.58233999 0.22695357
0.14409731 0.34316053 0.00000000
0.47768476 0.31571452 0.03320853
0.09977164 -0.28464734 0.00000000
-0.64838303 0.68123685 0.00000000
-0.35932395 -0.48850984 0.00000000
0.17587229 -0.12551792 0.00000000
-0.36024358 -0.52041596 0.00000000
-0.03343055 -0.73629338 0.00000000
-0.70947989 0.26599384 0.00000000
-0.07265432 0.26458421 0.00000000
-0.79031357 0.51275025 0.00000000
0.28093302 0.26198814 -0.00000012
0.37830937 0.36964745 0.26186952
-0.45807364 0.39141049 0.00000000
-0.59490883 0.63790018 0.00000000
-0.60204778 -0.49232112 0.00000000
-0.00652056 0.17154291 0.00000000
0.25814407 0.46156029 0.40402797
0.04205819 0.44873540 0.00000000
0.06384409 0.06075947 0.00000000
0.48750613 -0.20504914 -0.00000015
-0.28498722 0.64148734 0.00000000
-0.29049102 0.53087887 0.00000000
-0.35130335 -0.44160025 0.00000000
-0.76128128 0.66682846 0.00000000
-0.62180669 -0.46702727 0.00000000
0.70377864 -0.03014600 -0.00000077
-0.65228099 0.47541244 0.00000000
0.13692908 0.41193042 0.00000000
-0.27964416 -0.21437729 0.00000000
0.15104271 0.29957993 0.00000000
-0.00217321 0.37059410 0.00000000
0.25975347 0.29410079 -0.00000011
-0.29615532 0.32443418 0.00000000
0.47359103 -0.68164569 0.00000000
0.66355350 0.01412196 -0.00000072
-0.22445626 0.76414755 0.00000000
0.67918312 -0.69046904 -0.00000013
-0.00925232 -0.10357314 0.00000000
0.02188170 -0.52454660 0.00000000
0.66342357 -0.05441266 -0.00000066
-0.75456611 0.37711289 0.00000000
0.27983764 -0.57149650 0.00000000
-0.41471768 -0.64834160 0.00000000
-0.60592789 -0.47906383 0.00000000
-0.45174962 0.28667378 0.00000000
0.75356014 -0.73118605 -0.00000009
-0.67785608 0.66034603 0.00000000
0.55368817 -0.53092858 -0.00000001
-0.76006681 0.15252114 0.00000000
0.43450586 0.02099957 -0.00000024
0.40401090 -0.62859792 0.00000000
-0.56756567 0.47913623 0.00000000
-0.72744990 0.73604392 0.00000000
0.23750943 0.51769335 0.22540765
0.43588210 0.33475869 0.14772685
0.44598723 0.10707850 -0.00000034
-0.71671409 -0.32191779 0.00000000
-0.15227863 0.40849812 0.00000000
0.23661150 -0.71257831 0.00000000
-0.73265269 0.25914364 0.00000000
-0.02828420 0.07461084 0.00000000
-0.43779572 0.51652021 0.00000000
0.14723025 -0.03609030 0.00000000
-0.25642385 0.34568018 0.00000000
-0.42046618 0.52694365 0.00000000
0.25089712 0.47599747 0.36784825
0.35575633 0.36852858 0.38098092
-0.44497405 -0.03176974 0.00000000
0.02773470 -0.53588851 0.00000000
-0.45669057 -0.10714077 0.00000000
0.23374803 -0.03030778 0.00000000
0.22081227 -0.26688306 0.00000000
-0.74968483 0.73095550 0.00000000
0.40978690 0.15325748 -0.00000030
0.05809567 -0.74925028 0.00000000
-0.19623368 -0.54058426 0.00000000
0.11589083 -0.12024488 0.00000000
-0.02478186 -0.29873562 0.00000000
0.44472874 0.27548105 0.40148717
0.19412307 0.24822154 0.00000000
-0.01259361 0.25830785 0.00000000
0.40394204 0.19201270 -0.00000032
-0.14012275 -0.74858221 0.00000000
0.25393018 0.42621495 -0.00000021
-0.56005862 0.71253166 0.00000000
0.47634056 -0.20809132 -0.00000013
-0.65917838 0.23576376 0.00000000
-0.63296635 0.25248405 0.00000000
-0.39353776 -0.45364725 0.00000000
-0.16751112 -0.09899138 0.00000000
0.60566419 -0.75252041 0.00000000
0.23917211 0.51293416 0.24098859
-0.36906242 -0.00960349 0.00000000
-0.54093953 0.26913229 0.00000000
-0.60887102 -0.17927974 0.00000000
-0.54103584 0.20247673 0.00000000
-0.55450529 -0.18706950 0.00000000
-0.00870993 0.19455398 0.00000000
-0.00677723 -0.09525189 0.00000000
0.41459131 -0.10318852 -0.00000009
0.15810630 -0.57053492 0.00000000
-0.22275577 -0.47265479 0.00000000
0.61835757 -0.34324041 -0.00000031
0.41241373 -0.61817202 0.00000000
0.14611944 -0.72290325 0.00000000
0.20571237 -0.15521857 0.00000000
0.20370908 0.29087227 0.00000000
-0.66548654 0.36604494 0.00000000
-0.59388272 -0.57349829 0.00000000
-0.03210521 0.06603169 0.00000000
0.38211809 0.40975997 0.04086326
0.74166103 -0.06201352 -0.00000082
-0.45247335 0.64524289 0.00000000
0.60702335 0.18660732 -0.00000075
0.35716108 0.43903824 0.01911922
0.72992710 0.06862231 0.00729328
0.15529763 0.07396190 0.00000000
0.03885612 0.75439065 0.03397624
-0.66046424 -0.69588260 0.00000000
-0.75023855 -0.32921594 0.00000000
0.09339808 0.08085350 0.00000000
-0.13951256 -0.06423238 0.00000000
0.42903551 -0.01951032 -0.00000019
-0.78933429 -0.27061032 0.00000000
-0.75778910 0.00669809 0.00000000
-0.06725517 -0.37724070 0.00000000
-0.35937598 -0.11544912 0.00000000
0.55393617 -0.19275718 -0.00000030
0.71329376 -0.13797197 -0.00000069
-0.75413600 0.70460815 0.00000000
-0.75214240 0.67423883 0.00000000
-0.46261119 -0.44684685 0.00000000
-0.07005622 -0.71996143 0.00000000
0.51138712 0.27177409 0.08472534
-0.74178837 0.48904375 0.00000000
-0.31577777 0.63906085 0.00000000
0.08189010 -0.23540962 0.00000000
0.04970405 -0.36199638 0.00000000
-0.43861783 0.06577842 0.00000000
0.35978526 0.32302269 -0.00000035
0.24198974 0.35606173 -0.00000012
-0.29307278 -0.25011574 0.00000000
0.31254930 0.20780983 -0.00000014
0.43871758 -0.41521419 0.00000000
0.28851366 -0.04799486 0.00000000
0.05113236 0.59395582 0.00000000
-0.26803378 -0.73726128 0.00000000
0.36804108 -0.55409370 0.00000000
-0.00645932 0.64499289 0.00000000
0.25540612 0.51630206 0.14235607
-0.59140405 -0.33956216 0.00000000
0.44048266 0.31945507 0.20158349
0.33498236 -0.05424833 0.00000000
-0.21733861 0.55431135 0.00000000
0.25715455 -0.49297081 0.00000000
-0.60063778 0.10545110 0.00000000
0.71743393 0.05540730 -0.00000087
-0.48163366 0.06870707 0.00000000
-0.28494529 0.63753490 0.00000000
0.42601344 0.33376671 0.20237644
0.36844825 -0.43418090 0.00000000
0.32827276 -0.71520140 0.00000000
0.28859430 0.48257816 0.14505175
0.53423329 -0.55443218 0.00000000
-0.22987815 -0.29354616 0.00000000
-0.21117305 -0.43946393 0.00000000
0.75324689 -0.58133786 -0.00000027
-0.17317530 -0.35430235 0.00000000
0.48028345 -0.55983022 0.00000000
-0.01379617 0.72206580 0.00000000
-0.58536467 -0.17524907 0.00000000
0.57474479 0.05214629 -0.00000057
-0.46477380 -0.39227679 0.00000000
-0.62547446 0.57960790 0.00000000
-0.60138902 -0.28782253 0.00000000
0.70286629 -0.42105344 -0.00000042
0.25604092 -0.12270508 0.00000000
0.55549174 -0.68312057 0.00000000
-0.21281844 0.21844187 0.00000000
-0.77022433 0.55660240 0.00000000
-0.60283456 0.15711782 0.00000000
0.06679311 -0.35250531 0.00000000
0.54328931 -0.09796596 -0.00000037
-0.01790414 -0.20692180 0.00000000
0.17155804 -0.76965282 0.00000000
0.17732416 0.58156004 -0.00000019
-0.74010533 0.71392226 0.00000000
0.13871950 0.14593363 0.00000000
0.09030958 -0.69364512 0.00000000
0.76224367 -0.55229067 -0.00000031
0.46504689 -0.21718257 -0.00000009
0.09915662 0.30698785 0.00000000
-0.77200359 -0.25467193 0.00000000
-0.77755039 -0.08657144 0.00000000
0.20552700 -0.57143092 0.00000000
0.28857146 0.05055518 0.00000000
0.24842186 -0.40949339 0.00000000
-0.21318550 -0.45977657 0.00000000
-0.24207241 0.50517196 0.00000000
-0.16675789 0.49189227 0.00000000
0.56641494 0.15991978 -0.00000064
-0.48101580 0.58986203 0.00000000
0.27229557 -0.01219322 0.00000000
-0.54401890 0.20075219 0.00000000
-0.14991324 -0.23300421 0.00000000
-0.37086485 0.51581288 0.00000000
0.67100661 -0.47589056 -0.00000030
-0.54424903 -0.78546939 0.00000000
0.17785140 -0.68881783 0.00000000
0.17050783 -0.00368929 0.00000000
0.38780732 -0.23997351 0.00000000
0.43156510 -0.39088334 0.00000000
0.70698748 -0.51164277 -0.00000035
0.15748949 0.46608574 -0.00000004
0.73111781 -0.24360995 -0.00000064
-0.22858312 -0.11584711 0.00000000
0.00597594 -0.23630401 0.00000000
-0.06382036 0.58426988 0.00000000
-0.04695186 0.53240730 0.00000000
-0.01907189 0.73902779 0.00000000
0.22796007 0.24366777 0.00000000
-0.14814098 -0.01847874 0.00000000
0.03587333 -0.09206700 0.00000000
0.11059711 0.45069027 0.00000000
0.51876566 -0.17500972 -0.00000025
-0.16509368 -0.38377015 0.00000000
-0.73219347 -0.23425728 0.00000000
0.65104078 0.12692783 0.11085378
-0.34522784 0.62642074 0.00000000
-0.67843822 -0.50893677 0.00000000
0.22476036 -0.31869317 0.00000000
0.19670590 -0.20150605 0.00000000
-0.52931311 0.19219128 0.00000000
-0.50977668 -0.45275402 0.00000000
-0.02100438 -0.29389926 0.00000000
0.13694483 0.62222272 0.20545651
0.31329992 0.39291868 0.47188599
-0.03015612 0.40867085 0.00000000
0.35018598 0.10009756 -0.00000013
0.59352551 -0.51473109 -0.00000010
-0.62255822 -0.29266109 0.00000000
-0.39570414 0.33732889 0.00000000
-0.35786047 0.30733451 0.00000000
-0.50553645 0.66419652 0.00000000
0.19031856 0.59714300 0.06308686
0.21307531 0.33078655 -0.00000004
-0.29647670 0.00668400 0.00000000
-0.75743883 0.62710535 0.00000000
0.77380624 -0.59305551 -0.00000026
-0.12711776 -0.59748474 0.00000000
-0.68732344 -0.22333840 0.00000000
0.66171793 -0.05712246 -0.00000065
0.17944852 0.59642230 -0.00000020
0.76314875 -0.15992606 -0.00000078
0.32495689 0.37901908 0.48317053
-0.04809251 -0.59313220 0.00000000
-0.32085168 0.04862380 0.00000000
0.41648562 0.31768438 0.33124219
-0.78025644 0.42668531 0.00000000
-0.69292030 0.57183658 0.00000000
0.62978226 -0.06909318 -0.00000058
0.64522097 -0.67618951 -0.00000007
-0.50877134 0.75546853 0.00000000
-0.31977795 0.68918002 0.00000000
-0.40360776 0.31050082 0.00000000
0.40007576 0.33452933 0.32905272
-0.32224523 -0.26676753 0.00000000
0.67729925 -0.32429021 -0.00000045
-0.61516805 0.77684365 0.00000000
0.46503953 -0.53922193 0.00000000
0.58104810 -0.31019199 -0.00000026
0.31186086 -0.53329427 0.00000000
-0.44171689 -0.20229188 0.00000000
0.06134326 -0.32431491 0.00000000
0.43573548 0.35827389 0.03013864
0.45217369 0.27769084 0.35290682
-0.52830557 0.38961528 0.00000000
0.48272880 -0.36170077 -0.00000000
0.14506147 0.46667084 -0.00000001
-0.12007613 -0.59746672 0.00000000
-0.74154999 0.11349318 0.00000000
0.31764529 -0.37753246 0.00000000
-0.32596422 -0.73967653 0.00000000
-0.00116156 -0.65241281 0.00000000
0.73001119 -0.03906499 -0.00000082
-0.42817077 -0.19456103 0.00000000
-0.51689987 -0.01363710 0.00000000
-0.73704459 0.68279862 0.00000000
-0.53512318 0.47207666 0.00000000
-0.15276101 0.47393112 0.00000000
0.54651534 -0.43198446 -0.00000008
0.34817888 -0.27958086 0.00000000
0.65254308 -0.69484634 -0.00000007
-0.52539894 0.41845970 0.00000000
-0.25821120 -0.50197672 0.00000000
0.03424346 0.76332527 0.01222886
-0.55029299 0.35987434 0.00000000
0.00702344 -0.25704425 0.00000000
0.76981252 -0.38624768 -0.00000052
0.48028092 0.08684155 -0.00000039
-0.44431946 0.38935864 0.00000000
-0.55431647 -0.23180425 0.00000000
0.18114174 0.60005913 0.09458998
-0.56760460 -0.32547197 0.00000000
-0.17824579 0.48041210 0.00000000
-0.24142276 -0.15122275 0.00000000
0.04104050 -0.37456919 0.00000000
-0.28302832 0.76439615 0.00000000
-0.13197711 -0.70345966 0.00000000
-0.30517597 -0.78548665 0.00000000
-0.77726367 0.26201076 0.00000000
-0.35017788 -0.55171482 0.00000000
0.02054281 -0.44779368 0.00000000
-0.07712060 -0.36161728 0.00000000
-0.31543743 0.46631267 0.00000000
-0.42839942 0.06084588 0.00000000
0.12768797 0.55075341 -0.00000005
-0.04765705 0.71577636 0.00000000
-0.03843853 -0.14589389 0.00000000
0.04059698 0.22237062 0.00000000
0.68220966 -0.28818020 -0.00000049
-0.07937480 -0.22499880 0.00000000
-0.70197901 -0.63397744 0.00000000
-0.55083292 0.37400072 0.00000000
-0.26096808 -0.45366521 0.00000000
-0.23241906 -0.25651551 0.00000000
0.49187908 0.24596487 0.31275667
-0.06550587 0.75343545 0.00000000
-0.55664620 0.19209649 0.00000000
0.15285104 0.22724532 0.00000000
0.50409692 0.10722928 -0.00000046
-0.66812973 0.13926983 0.00000000
-0.34662755 -0.48797033 0.00000000
0.33267372 0.40071585 0.33516801
0.42034603 -0.02479775 -0.00000017
-0.00302410 -0.61801298 0.00000000
0.62211248 -0.16024719 -0.00000048
-0.31287051 0.17472148 0.00000000
-0.54166389 -0.73835028 0.00000000
0.61585626 -0.76250688 0.00000000
0.34656127 0.28482809 -0.00000028
-0.69731621 0.40535156 0.00000000
-0.77138877 0.25764382 0.00000000
-0.44362828 0.09664052 0.00000000
0.19361028 -0.54691626 0.00000000
-0.60834866 0.13439413 0.00000000
0.11321372 -0.75882612 0.00000000
-0.03100269 0.32484109 0.00000000
-0.17923862 0.69236224 0.00000000
-0.59278943 0.47062511 0.00000000
0.50992167 -0.01258544 -0.00000037
-0.36299252 0.00819706 0.00000000
-0.05910738 -0.34921073 0.00000000
-0.06079321 -0.42136141 0.00000000
0.29974288 0.05719500 0.00000000
0.55788133 0.17130003 -0.00000063
0.43908980 -0.48766087 0.00000000
-0.68875077 0.69701348 0.00000000
-0.12022836 0.63614052 0.00000000
0.51507512 -0.61523807 0.00000000
0.47827396 0.26852360 0.26770333
-0.63831927 -0.60293886 0.00000000
-0.65497464 0.17141008 0.00000000
0.06479823 -0.34106988 0.00000000
0.45143728 0.30368933 0.22579245
-0.50073849 0.53656001 0.00000000
0.05415106 0.59228128 0.00000000
-0.00567545 -0.13696406 0.00000000
-0.13924020 0.08886448 0.00000000
-0.06449331 -0.67523282 0.00000000
-0.14159475 0.71066320 0.00000000
-0.33349122 0.37809945 0.00000000
-0.79489489 0.72273150 0.00000000
-0.66848779 0.58163700 0.00000000
-0.26764944 -0.38629624 0.00000000
0.78998474 -0.63501336 -0.00000021
-0.34481574 -0.57936377 0.00000000
0.38915132 0.33589356 0.37715736
0.68974661 -0.16820349 -0.00000062
-0.68015066 0.45525176 0.00000000
0.18979258 0.60301594 0.03618154
0.16110871 -0.56744545 0.00000000
-0.06423935 -0.75849480 0.00000000
0.66452819 -0.14460636 -0.00000058
-0.62606784 -0.62955541 0.00000000
-0.15755288 -0.19211832 0.00000000
0.15549453 -0.12786725 0.00000000
-0.51394563 -0.73047468 0.00000000
0.46783478 0.24069489 -0.00000050
0.61669960 0.14501714 0.19263144
0.48180127 -0.11438265 -0.00000022
0.49088378 0.26222968 0.23592244
0.77572322 -0.70481956 -0.00000012
0.70513617 -0.73044200 -0.00000009
0.43095788 -0.79533526 0.00000000
0.42681235 -0.31253539 0.00000000
0.26874282 0.01192392 0.00000000
-0.34063511 -0.56638668 0.00000000
-0.53885423 0.44013107 0.00000000
-0.50652612 -0.46141154 0.00000000
0.56193317 -0.54477656 -0.00000001
0.44953663 -0.15711172 -0.00000011
0.39821490 0.32233984 0.39975084
0.34675396 0.11695829 -0.00000014
0.30356456 0.20681988 -0.00000012
-0.00892571 -0.70575840 0.00000000
-0.63638376 -0.45102872 0.00000000
-0.16959802 -0.58114003 0.00000000
-0.30596887 -0.24748015 0.00000000
-0.73530618 0.68641470 0.00000000
0.58252883 -0.62138060 0.00000000
0.51856905 -0.14781309 -0.00000027
-0.73257010 0.75988018 0.00000000
-0.74105665 0.44065169 0.00000000
0.58305835 -0.76972694 0.00000000
-0.08401846 -0.49097498 0.00000000
-0.74746349 -0.64427485 0.00000000
0.36707459 0.00957182 -0.00000008
-0.77267038 0.77512307 0.00000000
-0.22298376 -0.65425755 0.00000000
0.03464616 -0.72164445 0.00000000
-0.52698313 -0.17562485 0.00000000
-0.31415416 0.72878312 0.00000000
0.59886574 -0.44834215 -0.00000017
0.18473425 -0.74076585 0.00000000
-0.08774451 0.34674695 0.00000000
0.04619963 -0.75849051 0.00000000
-0.34096381 -0.37199077 0.00000000
0.25533581 0.39579271 -0.00000019
0.45796485 -0.19117290 -0.00000010
-0.35581461 0.33798306 0.00000000
0.25618941 0.50995702 0.17034187
-0.79350815 0.11718884 0.00000000
0.29287470 -0.75926592 0.00000000
0.10757954 -0.00808541 0.00000000
-0.11036617 0.55034417 0.00000000
0.78535674 -0.49210400 -0.00000038
0.49932131 0.20178051 -0.00000054
-0.36171783 -0.74872058 0.00000000
-0.68134837 -0.41342772 0.00000000
0.75906673 -0.73267340 -0.00000008
-0.30909687 -0.24546624 0.00000000
0.54958799 -0.78851159 0.00000000
0.12740685 -0.42712028 0.00000000
0.25616535 -0.07200247 0.00000000
0.66994600 -0.47705955 -0.00000030
-0.67154690 -0.64994853 0.00000000
-0.60587332 0.27030668 0.00000000
-0.18846176 0.14654170 0.00000000
-0.37694571 0.46986659 0.00000000
-0.55032803 -0.48233408 0.00000000
-0.51652835 0.14603479 0.00000000
-0.04302490 0.67346763 0.00000000
0.34328487 0.19422362 -0.00000020
-0.45000744 0.52464040 0.00000000
-0.03806507 0.58763923 0.00000000
0.27545896 0.43896598 -0.00000027
0.70726794 -0.39779452 -0.00000045
0.07045162 -0.66224843 0.00000000
-0.34185204 0.67044538 0.00000000
0.32301915 0.39148263 0.43020698
-0.33723833 -0.53847624 0.00000000
-0.54201465 0.79967071 0.00000000
-0.79312093 -0.79005298 0.00000000
-0.06547598 0.36847058 0.00000000
-0.32882957 -0.65669617 0.00000000
-0.41182284 0.73669595 0.00000000
-0.64923518 -0.49099833 0.00000000
-0.11945257 0.34691854 0.00000000
-0.45060693 -0.67715797 0.00000000
0.77100608 -0.78951868 -0.00000001
-0.69513332 -0.78427386 0.00000000
0.24973676 -0.34604702 0.00000000
-0.67091392 -0.43341010 0.00000000
0.76112097 -0.78961797 -0.00000001
0.50972142 -0.51280404 0.00000000
-0.12239283 0.43201750 0.00000000
-0.40789860 -0.30627592 0.00000000
0.43353375 0.05258474 -0.00000026
-0.12426977 0.33577877 0.00000000
-0.29759605 0.71552228 0.00000000
0.09163946 0.68746559 0.10513492
-0.78724022 0.48001620 0.00000000
-0.68782077 -0.68012572 0.00000000
-0.36963719 0.19794004 0.00000000
-0.03810066 -0.41356540 0.00000000
-0.23356978 -0.32041129 0.00000000
-0.77922064 0.62873830 0.00000000
0.47137078 -0.00497887 -0.00000029
0.55268823 -0.72631588 0.00000000
-0.47963615 -0.04806715 0.00000000
0.39343158 -0.12418670 -0.00000002
0.51251230 -0.50801898 0.00000000
-0.16233119 -0.60576116 0.00000000
0.29232562 0.42925949 -0.00000030
0.07359390 0.65898350 -0.00000003
0.23879541 -0.44906272 0.00000000
0.47392372 -0.44434056 0.00000000
0.23822767 0.54812449 0.06866921
0.21538954 -0.28245183 0.00000000
0.42960752 0.31690258 0.26914977
-0.74731236 -0.71657000 0.00000000
0.43454809 -0.22613975 -0.00000002
-0.75828722 0.29286686 0.00000000
0.76879091 -0.50874282 -0.00000036
0.21249473 -0.49547151 0.00000000
-0.14273892 0.08772741 0.00000000
-0.26753020 -0.74246093 0.00000000
-0.32876963 0.33387961 0.00000000
0.51306122 -0.61066081 0.00000000
0.31889173 -0.60456563 0.00000000
0.28570787 0.27520100 -0.00000015
0.34983674 -0.64244592 0.00000000
0.40036088 0.34465018 0.27669221
0.29026105 0.48340915 -0.00000034
-0.31257582 0.67895771 0.00000000
0.53061983 0.03530469 -0.00000046
-0.79477393 -0.22953625 0.00000000
-0.36483575 -0.57944885 0.00000000
0.43154316 -0.69530321 0.00000000
0.43718907 0.32095987 0.21058450
0.10230303 0.67888240 0.09466700
-0.78597077 -0.37919143 0.00000000
0.50316369 0.07543976 -0.00000043
-0.69442793 -0.12202531 0.00000000
-0.78796655 -0.09570969 0.00000000
0.36560647 0.38479255 0.24958071
0.10956105 0.40687351 0.00000000
-0.24743823 0.37943899 0.00000000
-0.22429784 0.69567274 0.00000000
-0.56298876 -0.01976666 0.00000000
0.74015264 -0.36645287 -0.00000054
0.39869810 0.34019164 0.30749329
-0.14939877 0.00215345 0.00000000
-0.45079791 0.09972179 0.00000000
-0.60346845 0.42044671 0.00000000
0.16937946 0.12841511 0.00000000
0.27330510 -0.58497811 0.00000000
0.68207524 -0.70950323 -0.00000011
0.28716564 0.25438720 -0.00000013
0.60813103 -0.52316823 -0.00000013
0.52327618 0.22473064 0.26161841
0.41230936 0.23651612 -0.00000038
0.21459651 -0.34367275 0.00000000
0.02933063 0.64800850 0.00000000
-0.16871421 0.06556226 0.00000000
0.14300355 0.14552928 0.00000000
-0.51871156 0.41903716 0.00000000
-0.18476440 0.16622516 0.00000000
0.60807851 -0.66430161 -0.00000000
-0.42013058 0.36443848 0.00000000
0.45596536 -0.72484825 0.00000000
0.34754208 0.34550916 0.53814158
-0.52558815 -0.46126972 0.00000000
-0.10669344 0.06492502 0.00000000
-0.08432055 -0.10312630 0.00000000
0.09215079 0.04544107 0.00000000
0.43252269 0.24262612 -0.00000043
-0.23845953 0.63208647 0.00000000
-0.12678364 -0.65785587 0.00000000
-0.03437753 -0.02564883 0.00000000
0.08760178 0.70484431 0.03800538
0.30137436 0.40424601 0.47489597
-0.51116849 -0.23678334 0.00000000
0.71123476 -0.01851184 -0.00000079
-0.45151139 0.15955997 0.00000000
-0.43837995 -0.24502826 0.00000000
0.32328288 0.42466627 0.26190742
0.41599721 0.35186751 0.16169574
0.46638426 0.00434234 -0.00000029
0.17645232 -0.36601332 0.00000000
0.32255914 -0.57687745 0.00000000
-0.68003485 0.52513089 0.00000000
0.35529896 0.44243842 0.01137986
0.27317206 0.37263994 -0.00000021
0.52697754 -0.09687914 -0.00000033
0.67267546 -0.62857324 -0.00000017
-0.09335257 0.75655185 0.00000000
0.32648045 0.28107942 -0.00000024
-0.51115043 0.41577656 0.00000000
0.40262128 -0.10280838 -0.00000006
-0.04408380 0.02271602 0.00000000
0.66574878 -0.49923809 -0.00000027
-0.17202234 0.39119670 0.00000000
-0.47309334 -0.07982506 0.00000000
0.14979747 -0.37083099 0.00000000
0.12803130 -0.49848349 0.00000000
0.51306044 -0.50129293 0.00000000
-0.14009601 -0.66761034 0.00000000
0.79761787 -0.73131527 -0.00000009
0.11108282 0.14400412 0.00000000
0.68174787 -0.16731867 -0.00000060
-0.55196206 0.34448731 0.00000000
-0.76480992 0.71778404 0.00000000
0.27667243 -0.56458847 0.00000000
-0.46659466 -0.48650953 0.00000000
0.15929634 -0.71587669 0.00000000
0.08386017 0.26422881 0.00000000
-0.09536938 -0.43464982 0.00000000
-0.25925216 -0.67550621 0.00000000
-0.59491915 0.78331709 0.00000000
0.45744215 0.33040348 0.06115393
0.51122633 0.22715169 0.31006953
-0.31759412 -0.35511634 0.00000000
-0.55280350 -0.73816384 0.00000000
-0.40904198 0.04026544 0.00000000
0.19389354 0.57625142 0.15022138
-0.79999895 -0.37413123 0.00000000
-0.55440609 -0.77413744 0.00000000
0.78040669 -0.55868502 -0.00000030
0.74264486 -0.33949168 -0.00000058
-0.53949852 0.19287444 0.00000000
-0.05797687 0.48020976 0.00000000
-0.06126505 -0.18146911 0.00000000
0.32825011 -0.22679344 0.00000000
-0.70460586 -0.62243887 0.00000000
0.68744562 -0.58903158 -0.00000024
-0.17708192 -0.52508126 0.00000000
-0.30703127 -0.32423075 0.00000000
-0.25378743 -0.39676894 0.00000000
-0.55806101 -0.62503803 0.00000000
0.39504757 0.38743695 -0.00000048
-0.54122650 0.27284059 0.00000000
-0.70206664 0.24439597 0.00000000
0.14346301 -0.55626902 0.00000000
-0.71830058 0.67497700 0.00000000
-0.08102030 -0.33058164 0.00000000
0.13104910 -0.63077614 0.00000000
-0.70531729 0.78585691 0.00000000
-0.77646522 0.26136718 0.00000000
0.67558529 -0.38029559 -0.00000040
0.53455865 -0.79978241 0.00000000
-0.78842659 -0.61493013 0.00000000
-0.21974948 0.15559285 0.00000000
0.66810885 -0.54939758 -0.00000023
0.27789373 -0.58080364 0.00000000
0.36723517 -0.65577193 0.00000000
0.30560174 -0.65688832 0.00000000
0.19049246 -0.64077770 0.00000000
-0.23103091 -0.44208118 0.00000000
0.26194537 0.50034479 0.18974585
0.62935157 -0.55681569 -0.00000014
0.44443431 -0.49189003 0.00000000
0.20367095 -0.66196605 0.00000000
0.68558846 0.11053583 0.01949631
-0.23879190 0.21700316 0.00000000
-0.51195308 -0.13925109 0.00000000
0.07137682 -0.44003264 0.00000000
-0.36753990 0.12701204 0.00000000
0.33887925 0.44231331 0.09463161
0.17896017 -0.25180131 0.00000000
0.22525577 0.24443600 0.00000000
-0.66431390 -0.14248160 0.00000000
0.09598793 0.67812549 0.13025174
0.73801800 -0.15561193 -0.00000073
-0.23416087 0.46536946 0.00000000
-0.52197467 0.71669592 0.00000000
-0.55293288 -0.04161111 0.00000000
0.20079135 -0.06585265 0.00000000
0.45386892 -0.15891757 -0.00000012
-0.47192412 -0.37109418 0.00000000
0.22776733 -0.32773926 0.00000000
0.02151967 0.49975346 0.00000000
0.17632779 -0.22618381 0.00000000
-0.51535760 -0.45091499 0.00000000
-0.25660955 -0.73382784 0.00000000
0.32686519 0.46488259 0.04151888
-0.16410503 0.54291060 0.00000000
-0.46122362 -0.29098765 0.00000000
0.09028306 -0.79500955 0.00000000
-0.12625134 -0.46528587 0.00000000
-0.29388456 0.25407270 0.00000000
-0.62565897 0.67776908 0.00000000
-0.03736074 -0.06266638 0.00000000
-0.26974302 0.70239470 0.00000000
0.06600838 -0.51522911 0.00000000
-0.44126086 -0.13306782 0.00000000
0.62484995 -0.71403868 0.00000000
0.68584713 -0.68758328 -0.00000014
-0.29846628 -0.70717529 0.00000000
0.50640158 0.23628454 0.28839162
-0.11300247 0.55038854 0.00000000
-0.69516325 0.65542841 0.00000000
-0.13231914 -0.24049925 0.00000000
-0.36445016 0.29114621 0.00000000
0.13580304 -0.78337973 0.00000000
0.34703935 0.45192689 0.00519636
0.13549572 0.04485386 0.00000000
-0.33300536 -0.22789360 0.00000000
0.33584000 -0.17202060 0.00000000
-0.51218187 0.31050265 0.00000000
-0.72510044 -0.38973303 0.00000000
-0.23614113 -0.04643918 0.00000000
0.47815612 0.01016279 -0.00000032
0.06038738 -0.23780169 0.00000000
-0.53830838 0.22919276 0.00000000
-0.10317019 0.06648430 0.00000000
-0.08494965 0.79890488 0.00000000
0.41285718 -0.59108210 0.00000000
-0.43132292 -0.15277689 0.00000000
-0.28894023 -0.11731972 0.00000000
-0.57366821 -0.72153106 0.00000000
-0.01256341 0.22096344 0.00000000
-0.65326896 0.25558389 0.00000000
0.46947542 -0.78654006 0.00000000
0.30940100 -0.11601085 0.00000000
0.63674000 0.15390430 0.04707111
-0.35738240 -0.11731073 0.00000000
-0.61813274 -0.55071063 0.00000000
0.37611359 -0.10161691 -0.00000001
0.14016419 0.63003921 0.14992663
-0.00311586 0.27582992 0.00000000
-0.09066645 0.21102859 0.00000000
-0.75189657 0.22864656 0.00000000
0.44260681 -0.69006709 0.00000000
-0.41983248 0.09728524 0.00000000
-0.16947962 -0.32171154 0.00000000
0.41446796 -0.13318939 -0.00000006
0.25582526 -0.02771229 0.00000000
-0.00367000 -0.42274716 0.00000000
0.62191143 0.11073569 -0.00000072
0.11408113 0.61391086 -0.00000008
0.22843510 0.51930521 -0.00000024
0.31956871 0.31248687 -0.00000025
-0.11256106 -0.78430415 0.00000000
-0.30833629 -0.59883033 0.00000000
-0.25642189 0.15223917 0.00000000
-0.62857415 -0.14682790 0.00000000
-0.20923987 -0.32328341 0.00000000
0.54485803 -0.47500272 -0.00000004
0.07683749 0.10651882 0.00000000
-0.71277426 -0.67361106 0.00000000
-0.65206132 -0.07280560 0.00000000
-0.42071199 0.08259618 0.00000000
-0.63761706 -0.55569063 0.00000000
0.00051263 -0.09995178 0.00000000
-0.51207375 -0.53876038 0.00000000
0.43034921 -0.68043423 0.00000000
0.49869557 -0.71974623 0.00000000
0.16415148 -0.16873664 0.00000000
-0.31446722 -0.30731003 0.00000000
-0.23619955 -0.34472233 0.00000000
-0.68936672 -0.34469149 0.00000000
0.19413818 0.13757569 0.00000000
0.09725670 0.69166832 0.05572299
-0.17195882 0.14966164 0.00000000
-0.60720231 0.47873992 0.00000000
-0.01498948 0.52052615 0.00000000
0.26128890 0.50562455 0.16648251
-0.62954560 0.54041627 0.00000000
0.32838912 -0.35990330 0.00000000
0.15286826 0.02521626 0.00000000
0.12579257 -0.71710278 0.00000000
0.55863845 0.03301446 -0.00000051
0.35643751 0.18291954 -0.00000022
-0.54361619 -0.69170506 0.00000000
-0.28620069 -0.60385156 0.00000000
0.06588583 0.63116548 0.00000000
0.60086108 0.17427489 0.12510739
0.11050110 -0.12246369 0.00000000
0.08661292 -0.51950555 0.00000000
0.03309272 0.15963829 0.00000000
0.04477396 -0.00966927 0.00000000
-0.28606773 -0.25373665 0.00000000
0.17321074 0.01514541 0.00000000
-0.50425476 0.18844705 0.00000000
-0.13383437 -0.20038917 0.00000000
0.50178518 0.24652390 0.26009750
-0.69325763 -0.33144159 0.00000000
-0.58583131 -0.67576122 0.00000000
-0.45410369 -0.28790755 0.00000000
0.07268397 -0.12726558 0.00000000
0.28714304 0.26471619 -0.00000014
-0.17126053 -0.19299405 0.00000000
-0.02589488 -0.56826509 0.00000000
-0.68067756 0.61221956 0.00000000
-0.63305420 -0.60900041 0.00000000
-0.12052802 -0.50264819 0.00000000
-0.74623039 0.53984387 0.00000000
0.08783403 0.52943704 0.00000000
0.21932394 0.56465428 0.08061458
0.07595303 0.69560844 -0.00000007
-0.55274010 -0.79969290 0.00000000
-0.64320081 0.44047419 0.00000000
-0.74611945 0.41000259 0.00000000
-0.04894075 0.30198980 0.00000000
0.39998405 0.07781580 -0.00000022
-0.71614860 0.62693512 0.00000000
0.48418019 0.27818162 -0.00000057
0.09021702 0.01877063 0.00000000
0.31368380 -0.26110798 0.00000000
0.43603963 0.34466836 0.09706980
-0.70982157 -0.62497700 0.00000000
-0.45763454 -0.00048679 0.00000000
-0.39377557 0.04784057 0.00000000
0.62860580 0.14742638 0.12059773
-0.79968250 0.20513482 0.00000000
-0.56926417 -0.21642638 0.00000000
-0.55881333 -0.60208884 0.00000000
-0.12706020 -0.22679123 0.00000000
-0.14460710 0.78007820 0.00000000
0.73717538 -0.62804128 -0.00000021
-0.11214099 -0.43255805 0.00000000
-0.71523502 0.19880983 0.00000000
-0.69835257 -0.72404903 0.00000000
0.53964323 -0.76680941 0.00000000
0.44107265 0.32194544 -0.00000052
0.75297363 -0.54280840 -0.00000032
-0.21276367 0.57901820 0.00000000
0.31627002 -0.01084671 0.00000000
-0.47898742 -0.59799950 0.00000000
0.40546206 -0.02950137 -0.00000013
-0.37536637 -0.42311581 0.00000000
-0.61241576 0.32679555 0.00000000
-0.22887982 0.46283134 0.00000000
0.30605867 0.19528946 -0.00000012
0.54922996 0.19261062 -0.00000064
0.52867615 0.01190841 -0.00000043
0.29922250 0.41465860 0.43332983
0.10502121 -0.06764288 0.00000000
0.50762562 -0.64058707 0.00000000
-0.49069601 0.51162263 0.00000000
0.50186487 -0.08585905 -0.00000029
-0.58780500 -0.66985817 0.00000000
0.55906383 -0.37278990 -0.00000016
0.60469101 0.18281433 0.06286607
-0.37528205 -0.08744707 0.00000000
-0.11576952 0.32753908 0.00000000
-0.58933871 -0.19887268 0.00000000
-0.75627048 0.45062425 0.00000000
-0.34319327 0.36595532 0.00000000
-0.73657992 -0.62516538 0.00000000
0.32506909 -0.13159237 0.00000000
0.60264394 -0.54983872 -0.00000009
-0.60510363 0.57476598 0.00000000
0.38326260 -0.39124585 0.00000000
0.20334422 0.53506467 0.30991024
-0.05279051 0.48598558 0.00000000
0.11335825 0.44704717 0.00000000
0.45777615 0.09725366 -0.00000036
0.15033161 -0.14858316 0.00000000
0.20271415 0.19663423 0.00000000
0.41682983 0.34413528 0.19641383
-0.35118461 0.68006949 0.00000000
-0.34249612 0.35278225 0.00000000
0.43975478 -0.66966170 0.00000000
0.32491947 -0.20058761 0.00000000
-0.17281506 0.39231159 0.00000000
0.53311544 0.16554171 -0.00000058
0.11116885 -0.22711655 0.00000000
0.15129073 -0.76982992 0.00000000
-0.71660743 -0.17759106 0.00000000
0.29683575 0.42416828 0.39748881
-0.53304559 0.12903369 0.00000000
0.34633087 -0.04761786 0.00000000
-0.09569627 0.30077497 0.00000000
-0.27350753 0.61126801 0.00000000
0.16186144 0.50781470 -0.00000009
0.61609282 -0.42230248 -0.00000023
0.54080168 -0.24879413 -0.00000023
0.63864347 -0.14875381 -0.00000052
-0.76526174 -0.53374702 0.00000000
-0.60979450 0.42674185 0.00000000
0.53430208 -0.30041321 -0.00000017
-0.23235393 0.71787880 0.00000000
0.07169393 0.50224400 0.00000000
-0.49304413 0.30503403 0.00000000
-0.32905079 0.69922039 0.00000000
0.70821430 -0.75604969 -0.00000005
-0.55630542 -0.35975672 0.00000000
0.43903289 -0.02180634 -0.00000021
0.59887768 0.17884308 0.11210097
-0.35314922 0.77077349 0.00000000
0.19789949 -0.34053658 0.00000000
0.55754030 -0.66907770 0.00000000
-0.01774677 -0.05109145 0.00000000
-0.74743969 0.38028556 0.00000000
0.09759986 -0.55246412 0.00000000
0.69271654 -0.16880526 -0.00000062
0.05082746 0.03161404 0.00000000
-0.37045476 0.37886371 0.00000000
0.52236006 -0.47584906 0.00000000
-0.45306275 0.08391525 0.00000000
0.49828071 -0.38499546 -0.00000002
0.11966787 0.62078769 -0.00000010
0.48723559 -0.79453353 0.00000000
0.53440168 0.25184434 0.06920289
0.28003772 -0.74474858 0.00000000
0.47762620 0.27722466 0.22718004
0.56719960 0.22058666 0.06145253
0.08346003 -0.03154926 0.00000000
0.19307901 0.55451060 0.26371483
-0.79325232 0.50574633 0.00000000
-0.05935419 0.75833155 0.00000000
0.49209424 0.14355441 -0.00000047
0.02992159 -0.71800415 0.00000000
0.75056479 -0.38868767 -0.00000051
0.12027355 0.65832155 0.10770123
-0.07331912 0.64195800 0.00000000
-0.13084461 -0.75235714 0.00000000
0.37231057 0.32773520 0.50294701
-0.55655250 -0.39220785 0.00000000
0.30526051 0.46714487 0.13884780
-0.60458481 -0.65749024 0.00000000
-0.58248729 -0.16668277 0.00000000
0.32320287 0.39854122 -0.00000033
0.57625405 -0.31397708 -0.00000025
0.46810103 -0.45771871 0.00000000
0.19182608 -0.38397760 0.00000000
-0.57510568 -0.00103866 0.00000000
0.58066692 -0.64191687 0.00000000
-0.77580982 -0.72317192 0.00000000
0.14996571 -0.55994085 0.00000000
-0.70318738 -0.22779864 0.00000000
0.06908095 -0.68797679 0.00000000
-0.42813756 -0.40474699 0.00000000
-0.34955196 0.67295137 0.00000000
0.04575492 0.74660502 -0.00000005
-0.29981276 -0.06763506 0.00000000
-0.10967216 -0.74858554 0.00000000
0.47811729 0.30509913 -0.00000058
-0.71562982 -0.43250356 0.00000000
-0.63699877 -0.54619809 0.00000000
-0.67119427 -0.13418928 0.00000000
0.01471608 0.75359548 0.00000000
-0.50992066 0.08370042 0.00000000
-0.38851326 0.20507072 0.00000000
0.00301333 0.18442993 0.00000000
0.39118601 -0.42176594 0.00000000
0.27361114 -0.56265672 0.00000000
0.41308613 -0.76879590 0.00000000
-0.44826874 -0.25042775 0.00000000
0.57036944 -0.03336625 -0.00000048
0.12589723 0.11518042 0.00000000
0.32058155 0.36844614 -0.00000030
0.62988161 0.16172523 0.04222774
-0.28436722 0.71212152 0.00000000
0.33609472 0.41468449 0.24766738
-0.37478646 0.03481690 0.00000000
-0.00701143 0.18134934 0.00000000
0.67639600 -0.26611415 -0.00000050
-0.24091317 -0.20270258 0.00000000
0.63986980 -0.01271619 -0.00000065
-0.23327710 -0.62166312 0.00000000
0.66843440 -0.17356179 -0.00000057
-0.74337703 -0.65351481 0.00000000
0.06712354 -0.29882840 0.00000000
0.13523375 0.12605856 0.00000000
0.55686172 -0.62660850 0.00000000
0.70827439 0.03278262 -0.00000083
-0.59760314 -0.37368410 0.00000000
-0.67803832 0.12028340 0.00000000
0.22117471 -0.65506488 0.00000000
-0.62729455 0.66888887 0.00000000
0.07170745 0.61371867 0.00000000
-0.06449638 0.72779924 0.00000000
-0.17654605 0.26380050 0.00000000
0.31369409 0.47015063 -0.00000038
-0.50965831 -0.78742290 0.00000000
-0.49232961 -0.79268576 0.00000000
0.64321805 0.13738888 0.09757805
0.52896409 0.25007011 0.10549198
0.69902396 -0.34849728 -0.00000048
-0.31062777 -0.18403973 0.00000000
0.20656909 0.42575255 -0.00000011
0.48211339 0.27809353 0.20022887
-0.45739077 0.20334325 0.00000000
-0.25700412 -0.26041281 0.00000000
0.05886145 0.38900225 0.00000000
-0.74348004 0.32756757 0.00000000
-0.27755567 0.09489756 0.00000000
-0.09812988 -0.07082708 0.00000000
-0.31474628 0.31764820 0.00000000
-0.07750815 -0.50955497 0.00000000
0.54386409 -0.41588312 -0.00000009
-0.49706303 0.57518775 0.00000000
0.69660912 -0.23299809 -0.00000057
-0.46780087 0.05691179 0.00000000
0.00922517 -0.27721742 0.00000000
0.66048252 -0.07115330 -0.00000064
0.29201270 0.41419160 0.47195765
0.51234543 -0.79664579 0.00000000
-0.24692434 -0.64778339 0.00000000
-0.79394499 -0.27611138 0.00000000
0.36814856 -0.50642383 0.00000000
0.73680450 0.06126852 0.00969045
0.48338508 0.31554352 0.00538557
-0.43584035 -0.62494583 0.00000000
-0.07760745 -0.39383372 0.00000000
-0.01697298 0.51537827 0.00000000
0.37923265 0.35509576 -0.00000042
-0.37231921 -0.45017069 0.00000000
-0.54236609 -0.33711247 0.00000000
0.43270280 -0.76399442 0.00000000
-0.67020683 -0.19616296 0.00000000
0.37711289 0.29677576 -0.00000036
-0.41851604 0.71289701 0.00000000
-0.03394784 0.58604082 0.00000000
0.26212238 -0.55080784 0.00000000
0.01693149 0.27958595 0.00000000
0.75215229 -0.24253941 -0.00000068
-0.39756879 0.24104694 0.00000000
-0.29595004 -0.58884334 0.00000000
0.73653644 -0.06288667 -0.00000081
0.39829903 0.38643778 0.07679724
0.24070864 -0.39315423 0.00000000
0.57332228 0.18515386 0.20893784
0.64114127 -0.48771601 -0.00000023
-0.53424892 0.64939075 0.00000000
0.00274442 -0.79109502 0.00000000
0.43760231 0.33163771 0.15477533
-0.49075985 0.15539813 0.00000000
0.33789067 -0.16220461 0.00000000
0.63098246 -0.68116944 -0.00000004
-0.43787707 -0.28886368 0.00000000
-0.58127789 -0.17639317 0.00000000
0.46319009 -0.64191685 0.00000000
-0.68016581 0.25585772 0.00000000
0.00261566 -0.28308448 0.00000000
-0.79137447 -0.65240022 0.00000000
0.48150866 -0.53879981 0.00000000
0.07926040 -0.57642191 0.00000000
0.61461760 -0.48289901 -0.00000018
-0.08920475 0.06483682 0.00000000
-0.27123919 0.35865326 0.00000000
0.55593238 -0.16883534 -0.00000033
0.11178310 0.30278632 0.00000000
-0.79126762 0.58490398 0.00000000
-0.43110326 -0.45378481 0.00000000
0.38598347 -0.40827033 0.00000000
-0.52912403 -0.63568846 0.00000000
0.21522366 -0.09884550 0.00000000
0.19804975 -0.57409057 0.00000000
-0.08266124 -0.41807203 0.00000000
0.61617245 -0.76343065 0.00000000
0.11058248 -0.72905826 0.00000000
0.63464605 -0.58086390 -0.00000013
0.37607076 -0.35258186 0.00000000
0.03613547 -0.41966061 0.00000000
-0.07115615 -0.21555679 0.00000000
-0.10843479 -0.22852037 0.00000000
0.78274424 -0.36264040 -0.00000055
-0.65726183 0.74849143 0.00000000
0.18155315 -0.12040304 0.00000000
-0.09816217 -0.69700707 0.00000000
-0.76324180 -0.04361333 0.00000000
-0.20654809 0.04043804 0.00000000
-0.09449282 0.51932242 0.00000000
0.11782743 -0.72788097 0.00000000
-0.42191613 0.03748754 0.00000000
0.05322343 0.62989488 0.00000000
-0.68097455 0.43641478 0.00000000
0.31347167 0.13917746 -0.00000008
0.36272895 0.41392197 0.11748463
-0.46753934 0.61363548 0.00000000
0.13872251 -0.07276790 0.00000000
0.37746323 -0.37344064 0.00000000
0.42541179 -0.33454923 0.00000000
-0.35428195 -0.49620764 0.00000000
-0.01306606 -0.42037174 0.00000000
0.26547540 0.31198735 -0.00000014
-0.33886489 -0.62375837 0.00000000
-0.40418698 -0.36214335 0.00000000
0.29016956 0.04289404 0.00000000
0.14447796 -0.49650895 0.00000000
-0.72279871 -0.16273532 0.00000000
0.01810084 -0.44615555 0.00000000
0.32156107 -0.50338137 0.00000000
0.00388020 -0.05054248 0.00000000
-0.32202252 -0.25135127 0.00000000
0.29528264 -0.35683796 0.00000000
-0.42062913 -0.56575988 0.00000000
-0.62352173 -0.64244248 0.00000000
-0.11509486 -0.08215486 0.00000000
-0.56931733 -0.58250323 0.00000000
-0.74138558 0.04330499 0.00000000
-0.71782778 0.69927505 0.00000000
-0.73651776 0.45393229 0.00000000
-0.03873311 -0.42047810 0.00000000
-0.21164914 -0.76916048 0.00000000
0.60096065 -0.54105831 -0.00000010
-0.18831648 0.13344197 0.00000000
-0.36559044 -0.63206007 0.00000000
0.40389911 -0.16558062 -0.00000001
-0.17728253 -0.01236859 0.00000000
0.24959444 -0.51215485 0.00000000
0.35744775 -0.15309945 0.00000000
-0.38502711 -0.77375892 0.00000000
-0.76908104 0.43493013 0.00000000
-0.53651266 0.75300912 0.00000000
0.11508489 0.55916627 -0.00000003
-0.72910217 0.35068243 0.00000000
-0.46129867 0.74275298 0.00000000
0.19967699 -0.72090981 0.00000000
-0.57890817 -0.04889886 0.00000000
0.55554494 0.21820398 0.13208692
0.69909507 -0.40953042 -0.00000042
-0.13496591 0.09723475 0.00000000
-0.38869151 0.32079404 0.00000000
-0.36823895 -0.11073988 0.00000000
-0.08253425 -0.79100225 0.00000000
-0.48854113 -0.09187763 0.00000000
-0.50236371 -0.73728556 0.00000000
-0.28057253 -0.74315213 0.00000000
-0.32777209 0.29938612 0.00000000
-0.21552167 -0.13399816 0.00000000
0.49594544 0.26612221 -0.00000059
-0.26247690 0.77597221 0.00000000
-0.38720423 0.07841935 0.00000000
-0.76417623 -0.11845243 0.00000000
0.55309028 -0.47526419 -0.00000005
-0.23620928 0.06209274 0.00000000
-0.47295240 -0.45099093 0.00000000
0.63964173 0.03565558 -0.00000069
0.60799548 0.15714083 0.17542458
-0.60265941 0.71854761 0.00000000
0.21423090 0.58124641 0.02275246
0.01578193 0.26050959 0.00000000
0.15751229 0.33370709 0.00000000
-0.48979509 -0.19837218 0.00000000
-0.01742521 0.32874994 0.00000000
-0.52760078 -0.27278175 0.00000000
-0.15049626 -0.27414216 0.00000000
0.44854737 0.31409103 0.18799399
0.11503556 -0.44045267 0.00000000
0.39752687 -0.59834413 0.00000000
-0.47604205 -0.58642581 0.00000000
-0.03321808 -0.02279903 0.00000000
0.52081838 0.27915531 0.00012677
0.43736726 0.33053095 0.16152722
0.29594659 0.48567176 0.09248912
-0.57093165 0.71800385 0.00000000
-0.78905975 -0.02840219 0.00000000
-0.25287982 -0.07791800 0.00000000
0.32450662 -0.22828548 0.00000000
-0.12502861 0.65395757 0.00000000
-0.76997701 -0.66516750 0.00000000
-0.12549344 -0.11626131 0.00000000
0.20875331 0.53231084 0.29654969
0.08403423 0.56773786 0.00000000
-0.11094350 0.09021553 0.00000000
0.37876738 -0.22727034 0.00000000
-0.69963295 0.35333358 0.00000000
-0.27282535 -0.01801495 0.00000000
-0.69459745 0.78022767 0.00000000
0.00372981 -0.31429091 0.00000000
-0.58569701 0.23823088 0.00000000
0.52553106 0.22543671 0.24671921
0.36701670 -0.00769902 -0.00000007
-0.61005872 0.43446343 0.00000000
-0.75109739 0.63137820 0.00000000
-0.76317190 -0.67926629 0.00000000
0.44780433 0.31070462 0.20877290
-0.23895080 -0.69431769 0.00000000
-0.70866652 0.38497166 0.00000000
0.06876785 -0.57410765 0.00000000
0.44136581 0.27490740 0.42129510
0.06895057 0.71629713 0.07422617
0.47294586 0.28246646 0.22435481
0.20356171 -0.17015569 0.00000000
0.47542057 -0.65528661 0.00000000
-0.14650569 0.04822416 0.00000000
-0.23151183 -0.25562507 0.00000000
0.56194014 -0.71753871 0.00000000
-0.28868660 0.78089231 0.00000000
0.42469109 -0.23567697 0.00000000
0.10430014 0.53343806 0.00000000
0.32759604 0.38593371 0.43509810
0.32031754 0.28823387 -0.00000023
0.42064857 0.02471936 -0.00000021
0.31944054 0.10149745 -0.00000006
-0.32427061 0.57661019 0.00000000
0.77489259 -0.69965129 -0.00000013
0.56958368 -0.67056414 0.00000000
0.52431730 -0.41877789 -0.00000004
0.26938538 0.24481701 -0.00000008
-0.22105298 -0.23965299 0.00000000
-0.68493475 0.32658244 0.00000000
0.40603362 -0.12892640 -0.00000005
-0.00005939 -0.03386684 0.00000000
-0.21942125 0.32331260 0.00000000
0.25720003 -0.71821053 0.00000000
-0.77466422 0.01021787 0.00000000
0.21595460 0.08601869 0.00000000
0.72070195 -0.70856225 -0.00000011
0.67953600 -0.76266578 -0.00000005
-0.53097701 -0.54221950 0.00000000
0.69348106 -0.41498459 -0.00000041
0.54946529 -0.42822459 -0.00000009
-0.39733618 -0.47205369 0.00000000
-0.59765791 0.61242226 0.00000000
0.31341557 0.10732380 -0.00000006
0.38724871 -0.17765604 0.00000000
0.63854970 0.13526454 0.13175812
0.20764177 -0.35823635 0.00000000
-0.37398686 0.52604423 0.00000000
-0.20074789 -0.19125945 0.00000000
0.57986252 -0.08519312 -0.00000045
-0.79093440 -0.24364746 0.00000000
-0.52068135 -0.52896841 0.00000000
0.24375933 -0.08694252 0.00000000
0.37219814 0.40271038 0.12625216
0.49753735 0.23094853 -0.00000056
-0.70974744 0.20901150 0.00000000
0.09321528 -0.55537327 0.00000000
-0.43225946 -0.10352722 0.00000000
-0.13314224 -0.19529956 0.00000000
-0.04046917 -0.28408115 0.00000000
-0.36692863 0.37500950 0.00000000
-0.52534452 0.67779776 0.00000000
-0.05404537 -0.34984767 0.00000000
-0.40972154 0.48660541 0.00000000
-0.16372374 0.74368404 0.00000000
0.59129353 0.15825577 0.25385674
0.43688093 0.26538558 -0.00000046
0.10502052 0.25953286 0.00000000
0.09848804 0.23478037 0.00000000
0.39968152 0.34842782 0.26110235
0.54886420 -0.51613268 -0.00000001
-0.06828781 -0.25604136 0.00000000
0.40921222 0.31878364 0.36230894
0.03250082 -0.12558741 0.00000000
-0.65168536 -0.38846771 0.00000000
-0.54166069 -0.07026660 0.00000000
-0.59370191 -0.67080419 0.00000000
0.36985085 0.41812175 -0.00000045
0.26275125 0.52600214 0.05658646
0.03628185 0.34030452 0.00000000
0.38350103 -0.41217669 0.00000000
0.09757775 -0.51042420 0.00000000
-0.68345602 0.48461549 0.00000000
-0.11968577 0.50265977 0.00000000
-0.28192245 0.58055656 0.00000000
0.04965648 0.00709723 0.00000000
0.13107771 0.42937033 0.00000000
0.50892293 -0.39543805 -0.00000003
0.17850447 0.57264782 0.24578800
0.44931168 -0.46085931 0.00000000
-0.16109849 -0.65727366 0.00000000
-0.48937459 0.78464427 0.00000000
-0.62225575 0.03231548 0.00000000
0.24506517 -0.27420012 0.00000000
-0.21764012 -0.57267009 0.00000000
-0.13938860 -0.03076242 0.00000000
-0.35768636 -0.63485035 0.00000000
-0.76263712 -0.36630151 0.00000000
0.23939882 -0.15268588 0.00000000
0.71497056 0.06764311 0.08748027
-0.67968632 -0.07434095 0.00000000
-0.53424387 0.20337419 0.00000000
-0.04604230 -0.65180885 0.00000000
-0.08226798 -0.23066872 0.00000000
0.78763209 -0.03071352 -0.00000095
0.43647051 0.24034680 -0.00000044
0.45212453 -0.66256450 0.00000000
-0.28499054 0.01906001 0.00000000
0.21078370 0.20492137 0.00000000
-0.17590196 -0.51262340 0.00000000
0.57912376 -0.70935469 0.00000000
0.27510320 0.22880532 -0.00000008
-0.21379152 0.39372202 0.00000000
0.27479489 0.45933116 -0.00000029
0.55689911 0.18385650 0.29810565
0.59608787 -0.69914158 0.00000000
-0.45016734 -0.48510847 0.00000000
-0.05842144 0.48719947 0.00000000
0.46898888 0.29412184 0.18561731
-0.77520253 0.61730344 0.00000000
-0.03759769 -0.05583031 0.00000000
0.75475727 -0.17274491 -0.00000075
0.34388293 -0.79390010 0.00000000
-0.30269254 -0.05181867 0.00000000
0.37634215 0.37973479 0.22101065
0.24382589 0.48411010 0.36260805
-0.65974049 0.06557758 0.00000000
0.47248537 0.29477063 0.16475867
0.00526251 0.66696145 0.00000000
0.04528429 -0.62871996 0.00000000
0.31188378 0.33735742 -0.00000026
0.02646724 -0.47229660 0.00000000
0.04488283 -0.53187240 0.00000000
-0.06041220 0.32227949 0.00000000
0.71331500 -0.69610870 -0.00000013
0.18420006 -0.66935778 0.00000000
0.38793125 0.31672909 -0.00000040
-0.15894401 0.56190009 0.00000000
-0.25932134 0.04875486 0.00000000
0.22650472 -0.15959838 0.00000000
-0.56906745 0.09994299 0.00000000
-0.46863829 0.55979524 0.00000000
0.77748066 -0.66419684 -0.00000017
0.07810141 0.30255691 0.00000000
-0.39356229 0.12475201 0.00000000
0.74730798 -0.69021812 -0.00000014
0.27595048 0.49209168 0.16080309
0.16272427 -0.78803963 0.00000000
-0.01950599 -0.14606251 0.00000000
0.39131594 -0.31995690 0.00000000
0.79248992 -0.79880864 -0.00000000
-0.00578126 0.26482026 0.00000000
0.02423035 -0.69259597 0.00000000
0.59126080 -0.19796158 -0.00000038
0.28918784 0.44972627 0.30736925
-0.67131997 0.31213673 0.00000000
0.34628022 -0.16734995 0.00000000
-0.12739606 0.58357720 0.00000000
-0.37238405 0.10241238 0.00000000
0.10289555 -0.53795449 0.00000000
-0.74364526 0.09888036 0.00000000
-0.67018968 -0.45967184 0.00000000
-0.24145849 -0.69028598 0.00000000
0.07671909 -0.73885001 0.00000000
0.37389426 0.33128726 0.47710509
-0.66586274 -0.37931962 0.00000000
-0.50710791 0.40713053 0.00000000
-0.19206408 -0.51761765 0.00000000
-0.22375268 0.43955173 0.00000000
0.45423895 0.26283197 -0.00000049
0.10327605 0.67638622 0.10233127
0.27638099 0.51835301 -0.00000034
0.11810865 0.65660124 0.12725070
-0.71720762 -0.53386972 0.00000000
-0.42432446 0.65923843 0.00000000
0.20408289 0.53855491 0.28863135
-0.50299131 -0.76998275 0.00000000
0.38489013 0.30068905 -0.00000038
-0.77805079 -0.52624694 0.00000000
0.21966748 -0.03693923 0.00000000
-0.46205478 -0.45656946 0.00000000
0.37815151 0.34075292 0.40805458
-0.05186474 -0.37695657 0.00000000
-0.00654143 -0.64031364 0.00000000
-0.31282325 0.67152928 0.00000000
0.19195014 0.56124369 0.23551566
-0.32361468 0.41803891 0.00000000
0.04449895 0.20152183 0.00000000
0.66059920 0.13245511 0.03494416
0.44361449 -0.49688112 0.00000000
0.70181270 -0.04867656 -0.00000075
-0.23756420 -0.43902352 0.00000000
-0.23899978 -0.58515718 0.00000000
-0.43557567 0.23944662 0.00000000
-0.30239425 -0.66489751 0.00000000
0.43554416 -0.25492585 0.00000000
0.73098889 -0.08965656 -0.00000077
-0.34689740 -0.29067036 0.00000000
-0.29851468 -0.14955515 0.00000000
0.04142742 0.65622554 0.00000000
0.53095493 -0.48426870 0.00000000
-0.31476836 0.07164295 0.00000000
-0.31898511 -0.70115033 0.00000000
0.53786929 -0.75603337 0.00000000
-0.61618048 -0.24088887 0.00000000
0.77012195 0.01929618 -0.00000095
0.51686346 0.02375366 -0.00000042
-0.21909036 -0.40164991 0.00000000
0.07973679 -0.70580589 0.00000000
0.77193613 -0.70279685 -0.00000012
0.47316233 0.07363730 -0.00000037
0.36989937 -0.05791509 -0.00000003
0.15412318 0.59997915 -0.00000015
0.54542655 -0.66097935 0.00000000
0.45143345 0.30609525 0.21370544
-0.29667887 0.68131187 0.00000000
0.03751037 0.21647026 0.00000000
0.53206875 0.25745646 0.05270238
0.07375349 0.25266088 0.00000000
-0.53863110 -0.12031984 0.00000000
-0.45155619 0.36342809 0.00000000
-0.47671097 0.63459036 0.00000000
-0.60371071 -0.05244887 0.00000000
-0.57402661 -0.11108109 0.00000000
-0.59164341 0.35418467 0.00000000
-0.62044912 -0.55177380 0.00000000
0.45528012 -0.60004633 0.00000000
0.50111909 0.20001132 -0.00000054
-0.69513569 0.43234039 0.00000000
-0.11746680 0.02629993 0.00000000
-0.64081991 -0.68625338 0.00000000
0.18877873 -0.27016305 0.00000000
0.24533279 -0.37562507 0.00000000
0.39928378 0.35882122 0.21080561
0.65877245 -0.14874078 -0.00000057
0.31574963 0.08165237 -0.00000004
0.09039726 0.68505521 0.12351385
-0.22871654 0.32879268 0.00000000
-0.20396915 -0.05590561 0.00000000
-0.43462969 0.63696856 0.00000000
-0.23922210 -0.40896899 0.00000000
-0.59545455 -0.16592618 0.00000000
-0.49226448 0.69806402 0.00000000
0.43765685 -0.04464057 -0.00000019
-0.68014765 0.17004910 0.00000000
