ply
format ascii 1.0
element vertex 1383
property float x
property float y
property float z
end_header
-0.35059557 -0.77606572 0.00000006
-0.06326647 -0.11865718 0.00000228
-0.14951881 -0.63045578 0.00000178
-0.04956823 0.37612421 0.00000339
-0.42539178 -0.55963913 0.00000060
-0.01400376 0.52480105 -0.00000112
-0.43820431 -0.03753106 0.00000113
-0.67100803 0.00768706 0.21364843
-0.32826914 -0.61777549 0.00000046
-0.30674767 0.01936832 0.00000205
-0.01306716 0.55800998 0.00000351
-0.22165208 0.38617046 0.03131017
-0.53821963 0.24497240 -0.00000002
-0.14103596 0.48183896 0.00000313
-0.14672168 0.14199508 0.00000837
-0.24897125 -0.14352215 0.00000164
-0.08599319 -0.64243011 0.00000117
-0.51361154 -0.03158836 0.00000048
-0.62280825 -0.00456750 -0.00000048
-0.28635177 -0.69616599 0.00000026
-0.17876513 0.19403830 0.00000736
-0.31692289 -0.44575402 0.00000375
-0.29869402 0.33082421 0.06503597
-0.43976354 0.22803084 0.12641603
-0.17887482 0.61448544 0.00000274
-0.04823281 -0.07210399 0.00000182
-0.75323722 -0.66813886 -0.00000033
-0.28543200 0.28931522 0.04605528
-0.15866683 -0.68473142 0.00000172
-0.71115467 0.03266107 -0.00000128
-0.63492861 0.03858529 0.19913970
-0.58843394 0.16625715 0.00000012
-0.55096941 0.01910979 0.14179083
-0.67253006 -0.56219011 -0.00000033
-0.36709373 0.04139424 0.03295370
-0.53150498 -0.25511721 0.00000056
-0.22244699 -0.42699248 0.00000295
-0.04712453 0.68666620 0.00011713
-0.08927497 -0.71033873 0.00000022
-0.01265357 0.44004604 0.00000310
-0.53742266 -0.68494531 0.00000515
-0.56186163 -0.75332379 0.00000012
-0.11178112 0.20334478 0.00000352
-0.70727574 -0.23893035 0.17259106
-0.09056228 0.07853543 0.00000985
-0.44268632 -0.57010844 0.00000057
-0.15808062 0.32680098 0.00000282
-0.01575328 0.52720392 0.00000332
-0.58587803 0.09244101 0.18247370
-0.30922456 -0.46860223 0.00000363
-0.47947531 -0.65238523 0.00000471
-0.49617552 -0.34845344 0.01276422
-0.62285862 -0.05354353 0.16783734
-0.21857310 -0.13005644 0.00000167
-0.75656819 -0.00917123 -0.00000162
-0.10814154 0.26822050 0.00000267
-0.13183685 0.49779456 0.00415214
-0.30580353 0.13719203 0.01948669
-0.48759668 -0.07285012 0.07855985
-0.06803640 -0.35811777 0.00000110
-0.44351719 0.01998645 0.07504828
-0.13965017 -0.70228371 0.00000151
-0.30591884 -0.60848493 0.00000048
-0.17655472 0.42298374 0.01270833
-0.21908298 -0.33449531 0.00000315
-0.38457014 0.14984268 0.07183435
-0.26741683 0.10649041 -0.00000261
-0.13601459 -0.64007873 0.00000163
-0.53427394 -0.69649488 0.00000510
-0.22254213 -0.47327830 0.00000283
-0.49906962 -0.03490349 0.09550488
-0.54925521 -0.45531050 0.01825977
-0.09778997 0.37288253 -0.00000189
-0.04760821 0.06044219 0.00001068
-0.54261877 -0.23742061 0.07036823
-0.41996025 0.14820383 0.00000109
-0.71791992 -0.46876106 -0.00000081
-0.27136481 0.06761708 -0.00000328
-0.47768360 -0.60739270 0.00000481
-0.13594721 0.45247826 0.00000313
-0.05613236 0.08483637 0.00001030
-0.64471432 -0.19232287 -0.00000048
-0.76137765 -0.74066357 -0.00000015
-0.39185636 0.12199653 0.00000136
-0.36780888 0.10880414 0.00000158
-0.29583866 0.45169361 0.09445915
-0.61905604 0.07013259 0.19739171
-0.45502394 0.21695067 0.13306753
-0.03020983 0.36331919 0.00000791
-0.05932500 -0.68279206 0.00000029
-0.46155497 0.03927448 0.09127380
-0.15113076 0.55701940 0.00000296
-0.46678443 0.07734458 0.00000076
-0.24418963 0.03813557 0.00000210
-0.34990718 0.22823236 0.07046840
-0.19483679 0.23751864 0.00000436
-0.36747297 0.19863330 0.00000149
-0.54173030 0.17704849 0.17680205
-0.13039267 -0.38528203 0.00000104
-0.39462692 0.30929405 0.00000114
-0.46870062 0.06174234 0.00000076
-0.18757128 0.50570501 0.04093034
-0.67261507 -0.27792659 0.14092473
-0.04656295 0.47454828 0.00000655
-0.66469791 -0.18348334 0.16036961
-0.24158266 0.16750806 0.00000242
-0.71015335 -0.05056771 0.22300668
-0.38712071 0.32235241 0.00000119
-0.64572449 -0.73241546 0.00000008
-0.13557632 0.45576612 0.00000540
-0.04382585 0.04603730 -0.00000989
-0.15910545 -0.51842541 0.00000214
-0.01078342 0.53704623 0.00000344
-0.26292107 0.17363774 0.00216380
-0.42425822 -0.78379527 0.00000004
-0.10932728 0.49797557 0.00000093
-0.20699137 -0.21443619 0.00000334
-0.61953182 -0.22387187 -0.00000023
-0.17628619 -0.72955387 0.00000177
-0.09024690 0.54162247 0.00000522
-0.00382530 0.25856563 0.00000268
-0.67711497 -0.02365913 0.20936228
-0.03415537 -0.66652065 0.00000033
-0.68255109 -0.37761191 0.12138485
-0.53728855 -0.63919400 0.00000527
-0.26584236 -0.69465234 0.00000026
-0.35568558 0.41243248 0.00000137
-0.27947315 0.21203949 0.02239276
-0.50767264 -0.53345403 0.00000526
-0.31505508 -0.41852982 0.00000095
-0.47250418 -0.15542798 0.00000096
-0.69714481 -0.72909427 0.03975073
-0.04410153 0.38090096 0.00000335
-0.08921340 -0.36745272 0.00000108
-0.27902881 0.27927915 0.00000216
-0.27050777 0.07989017 0.00000220
-0.72119630 -0.69972709 0.06231986
-0.36594724 0.28036208 0.00000305
-0.56443738 0.13881407 -0.00000013
-0.19505347 -0.28024304 0.00000307
-0.11007477 -0.32748621 0.00000118
-0.03176993 0.24248823 0.00000910
-0.30309498 0.36284875 0.07604784
-0.13451073 0.32749296 0.00000670
-0.71068540 -0.60470117 -0.00000049
-0.38871113 0.03482877 0.04473069
-0.57075007 -0.07255378 0.13045668
-0.06605928 0.27338289 0.00000328
-0.43846928 -0.22234821 0.00000132
-0.01001544 0.43031294 -0.00000312
-0.03674774 -0.59649669 0.00000051
-0.26946041 0.40914149 0.00000210
-0.03880110 -0.69674829 0.00000026
-0.28119694 0.35659224 0.06078620
-0.62177793 -0.66567350 0.00915389
-0.23194841 0.18143316 0.00000455
-0.09644418 0.67554112 0.02798090
-0.55545903 0.07093666 0.00000001
-0.16616603 0.54508019 0.00000379
-0.38278381 0.10313884 0.00000481
-0.09432065 0.43389798 -0.00000076
-0.72443384 -0.02078085 0.23959505
-0.39425786 0.18860661 0.00000358
-0.53034723 0.10346329 0.00000197
-0.21870338 0.51348429 0.00000243
-0.51035225 -0.45309431 0.00000549
-0.63839824 0.10998984 -0.00000073
-0.12034415 -0.62174448 0.00000154
-0.66567069 -0.19753963 0.15734747
-0.54749719 0.03630456 0.00000242
-0.33714000 -0.10242377 0.00000480
-0.20059938 0.56144160 0.06343645
-0.62947011 -0.36944433 -0.00000016
-0.37710056 0.20348802 0.08103135
-0.60768250 -0.40114585 0.00000006
-0.51323372 -0.40828160 0.00795119
-0.27137578 0.25414218 0.00000225
-0.12009256 -0.50882332 0.00000182
-0.18204614 -0.69749091 0.00000026
-0.07305415 0.69111090 0.00000387
-0.43807152 0.01536924 0.00000107
-0.49840136 -0.10113182 0.00000068
-0.61124724 0.17101514 -0.00000057
-0.26289436 0.28520011 0.00000498
-0.06691379 0.10922922 0.00000288
-0.49688757 -0.34358937 0.00000094
-0.36193522 -0.22052910 0.00000473
-0.26061309 -0.34213123 0.00000114
-0.01569797 -0.66868186 0.00000047
-0.63180141 -0.66665582 0.00000013
-0.04965473 0.14523378 0.00000236
-0.23990116 0.45013019 0.05919457
-0.47039005 0.13200138 0.00000068
-0.13684832 0.32494480 -0.00000178
-0.00111929 -0.71849966 0.00000020
-0.09835645 0.59364673 0.00000337
-0.06764539 -0.12718565 0.00000168
-0.00626706 0.37077445 0.00000293
-0.01554539 -0.11756119 0.00000185
-0.44326968 0.13530034 0.10466254
-0.00712078 0.31918364 0.00000286
-0.33049975 -0.70599884 0.00000024
-0.55752464 -0.63378215 0.00000042
-0.32164392 0.12275439 0.02562502
-0.22328935 -0.31458482 0.00000324
-0.34283350 -0.73339865 0.00000327
-0.42400850 -0.36088372 0.00000110
-0.13898644 -0.66972547 0.00000033
-0.51493739 -0.64070960 0.00000040
-0.51369208 0.13375639 0.00000193
-0.36432063 0.15081384 0.05947017
-0.07040677 0.59542369 0.00000413
-0.29713115 -0.45437877 0.00000355
-0.38050223 0.19250122 0.00000138
-0.45743192 0.05356814 0.09239400
-0.31554866 -0.14324222 0.00000164
-0.03861485 0.66393570 0.00000401
-0.54555252 -0.67233409 0.00000032
-0.11075251 0.04025478 0.00000210
-0.32308880 0.38899728 0.00000261
-0.35040633 -0.02994318 0.00000187
-0.57656717 -0.51143970 0.00000044
-0.17025290 0.32482982 0.00000281
-0.10530284 -0.03221128 0.00000287
-0.36025754 -0.47320546 0.00000082
-0.37839641 0.35120683 0.00000199
-0.65272393 0.05575303 0.00000018
-0.11723137 0.08532924 0.00000938
-0.45522671 -0.37993655 0.00000105
-0.04264756 -0.03722197 0.00000191
-0.33171409 0.41236863 0.10666561
-0.67614912 0.04272071 -0.00000099
-0.42480311 0.21383059 0.00000270
-0.35791144 -0.64311298 0.00000039
-0.52109459 0.22970134 0.00000067
-0.60816335 -0.69814472 0.00000025
-0.08111187 0.08972631 0.00000988
-0.48660456 0.13509523 0.13161645
-0.30115812 -0.44665865 0.00000361
-0.56050189 -0.05226553 0.00000010
-0.10640001 -0.35988073 0.00000206
-0.23897065 0.52158809 0.07706166
-0.23957528 0.00618738 0.00000418
-0.58438028 -0.20710015 0.10422025
-0.73151150 -0.05897006 -0.00000135
-0.23665454 0.10452475 0.00000226
-0.36569130 0.35365404 0.00000134
-0.47121844 -0.46667291 0.00000510
-0.29566824 0.49052429 0.00000180
-0.70246164 -0.42994333 0.12028449
-0.02147150 -0.40478073 0.00000118
-0.07143855 -0.28828878 0.00000128
-0.25602253 0.19469859 0.00000617
-0.53830377 0.05298442 0.00000018
-0.30134934 0.27068146 0.00000441
-0.58936179 -0.55947707 0.01636512
-0.02748735 0.48399142 0.00000346
-0.04193294 0.21261354 0.00000253
-0.17531463 -0.74533965 0.00000172
-0.60108056 -0.70828746 0.00000567
-0.36370360 -0.79857954 0.00000000
-0.26630142 0.49426082 0.00000204
-0.59871189 -0.71065311 0.00000564
-0.64428013 -0.62473517 -0.00000002
-0.09956178 0.33809621 0.00000375
-0.13215246 0.15122066 0.00000357
-0.18174299 0.37041974 0.00000554
-0.00871598 -0.27036060 0.00000132
-0.25640116 -0.62875042 0.00000275
-0.18838198 -0.53635910 0.00000066
-0.34760048 -0.36992228 0.00000422
-0.44025862 -0.51241901 0.00000470
-0.05845157 0.47249861 0.00000318
-0.59678586 0.15520879 0.00000009
-0.11011858 0.05747385 -0.00000786
-0.44505164 -0.17116842 0.00000121
-0.28045262 -0.64704562 0.00000292
-0.18988254 0.44844194 0.00000447
-0.16221912 -0.44845386 0.00000235
-0.19411839 -0.01384089 0.00000372
-0.20209529 -0.50844984 0.00000256
-0.05732251 0.04634312 0.00001067
-0.37042299 -0.00219731 0.02376824
-0.05491175 0.32647968 0.00000791
-0.35565690 -0.75859227 0.00000332
-0.14690569 0.37755739 0.00000427
-0.63508868 -0.00878819 -0.00000058
-0.61581143 -0.50598285 0.04665681
-0.71422481 -0.45960134 0.11995944
-0.09663483 0.53892559 0.00000515
-0.19316478 -0.01108341 0.00000197
-0.22575476 -0.56701103 0.00000058
-0.39124065 -0.03480063 0.00000153
-0.61321626 -0.59749987 0.02141610
-0.27792583 -0.00899795 0.00000449
-0.42436859 0.05725334 0.00000454
-0.42099501 -0.62083569 0.00000426
-0.21428224 -0.17653857 0.00000350
-0.03919932 0.60134044 0.00000350
-0.15580266 0.23421687 0.00000400
-0.34410216 -0.16815687 0.00000469
-0.25808418 0.12706307 0.00000465
-0.54591574 -0.60151035 0.00000544
-0.12319713 0.20961289 0.00000252
-0.20943701 0.07440013 0.00000810
-0.72271137 -0.58721973 0.09230576
-0.21701783 -0.42712927 0.00000093
-0.44065125 0.26053174 0.13535943
-0.39311808 0.15469923 0.07841527
-0.04182018 0.32405369 -0.00000438
-0.13830316 -0.65175786 0.00000037
-0.62281245 -0.62465318 0.02038723
-0.49615369 -0.64886910 0.00000487
-0.26817739 0.19764388 0.01163684
-0.07154845 0.27635194 0.00000269
-0.47635056 -0.15047170 0.00000092
-0.32145460 0.37678748 0.09108739
-0.28218572 0.47961877 0.00000192
-0.24584069 -0.11990366 0.00000170
-0.01614811 0.75146159 0.00000402
-0.52816833 0.01883523 0.12751055
-0.12645702 0.14672193 0.00000237
-0.48436148 0.24450023 0.00000120
-0.18895004 -0.51768237 0.00000071
-0.22902816 0.29949861 0.00000546
-0.13144317 -0.38476782 0.00000104
-0.12734364 0.55730387 0.00000440
-0.58864161 -0.38545880 0.06083589
-0.18618700 0.38441785 0.00000529
-0.19651590 -0.42948256 0.00000271
-0.06583207 -0.05152328 0.00000187
-0.03229164 -0.43213390 0.00000121
-0.48393811 0.18734282 0.14344251
-0.25842359 0.18914169 0.00336329
-0.07067563 0.47072675 0.00000318
-0.28208432 0.01493700 0.00000459
-0.51257657 -0.04233777 0.10200326
-0.09852530 0.18282807 -0.00000567
-0.40332449 -0.42937161 0.00000093
-0.39770177 -0.14351896 0.00429641
-0.40403390 0.37630694 0.00000099
-0.60216832 0.02750573 0.17586472
-0.30249634 0.02395710 0.00000206
-0.14319192 -0.18942382 0.00000153
-0.07404027 0.02285426 0.00000206
-0.46132916 -0.28624868 0.00710532
-0.78748635 -0.79531097 -0.00000001
-0.48016874 -0.39364765 0.00000102
-0.68534801 -0.61094961 -0.00000039
-0.43725102 0.09987749 0.00000099
-0.59322943 0.04645125 0.17518284
-0.66455218 -0.03882156 -0.00000080
-0.12873529 -0.17880795 0.00000272
-0.38153132 -0.78149552 0.00000350
-0.03685407 0.39885770 0.00000300
-0.57894632 -0.30278717 0.07613403
-0.52331145 -0.47793982 0.00000554
-0.04831917 0.61619747 0.00000398
-0.56778436 -0.07172046 0.00000006
-0.12461655 -0.10676120 0.00000173
-0.61874464 -0.77516127 0.00000006
-0.07965134 0.66251196 0.00000346
-0.34503034 0.00176931 0.00000672
-0.10083912 -0.30482317 0.00000215
-0.56087052 0.06031133 0.15859435
-0.49707085 0.21756171 0.15942807
-0.25872989 0.17824927 0.00074905
-0.28936553 -0.48682448 0.00000078
-0.44151955 0.14186102 0.00000091
-0.34001424 0.05958408 0.02077341
-0.31175820 0.23059819 0.04730865
-0.23024266 -0.52628084 0.00000277
-0.13789193 0.30185466 -0.00000222
-0.26586411 -0.03577391 0.00000191
-0.02105562 0.17125788 0.00000243
-0.18184318 0.41651592 0.01433449
-0.21317416 0.07028422 0.00000411
-0.68032025 -0.78604258 0.01456574
-0.02357687 -0.53487639 0.00000088
-0.45779451 -0.33111888 0.00000532
-0.38379630 0.18682440 0.08090266
-0.24204751 0.52350846 0.00000259
-0.34008769 -0.12838515 0.00000168
-0.67656125 0.11186963 -0.00000106
-0.63003487 0.14032037 -0.00000038
-0.15899224 -0.68230147 0.00000173
-0.42808888 -0.06814463 0.04268983
-0.10166132 -0.08568056 0.00000271
-0.18924326 -0.03093331 0.00000192
-0.74337650 -0.23250987 -0.00000128
-0.60174267 -0.23715835 0.10728135
-0.58638735 0.00593599 0.16045968
-0.12498827 0.56862182 0.00000317
-0.37635791 -0.16888468 0.00000499
-0.17159647 0.58612926 0.05173463
-0.43116372 0.27740215 0.00000184
-0.60523288 0.01367854 0.00000158
-0.57857701 -0.20072375 0.00000010
-0.44557729 0.17745361 0.11698505
-0.19941373 0.05696193 -0.00000544
-0.35604079 0.04776161 0.02770924
-0.00892594 0.11728226 0.00000229
-0.67059772 -0.22130578 0.15428316
-0.04333592 0.25664163 0.00000303
-0.40401850 0.08676562 0.00000129
-0.44276766 0.17753006 0.11525136
-0.20455424 -0.43228727 0.00000092
-0.26528855 0.24640037 0.02242828
-0.03040111 0.11506985 0.00000229
-0.10882539 0.14020973 0.00000334
-0.49495360 0.12765051 0.13490011
-0.41950889 0.26149540 0.00000098
-0.35552815 -0.01292283 0.00000181
-0.66021955 -0.26710918 0.13599229
-0.42097009 -0.36554995 0.00000490
-0.65269466 -0.34244209 0.11185706
-0.78373067 0.00260644 -0.00000172
-0.40306882 0.26988287 0.11435310
-0.21932610 0.55729733 0.00000238
-0.01154715 0.02093665 -0.00001127
-0.36167362 0.23060984 0.00000150
-0.51860042 -0.74663780 0.00000483
-0.23730803 -0.63685763 0.00000041
-0.08982000 0.70118360 0.00000343
-0.36916698 -0.78711556 0.00000003
-0.13838570 0.27799554 0.00000713
-0.65596579 -0.66559016 0.03048093
-0.41818869 0.03883814 0.06412983
-0.56747607 -0.29402809 0.07124688
-0.34074030 0.35000406 0.00000156
-0.25300455 -0.41337051 0.00000326
-0.61942231 -0.54457872 0.03894426
-0.45387725 0.08469525 0.09820951
-0.03040527 0.52021409 0.00000634
-0.18236724 0.31129794 0.00000443
-0.02489118 0.14784805 0.00000259
-0.28712697 0.32983153 0.00000399
-0.46394626 -0.50475767 0.00000074
-0.39129790 0.23009064 0.09674335
-0.50551003 -0.09277988 0.00000061
-0.13152309 0.53607932 0.00000315
-0.25385462 0.45007994 0.00000322
-0.54796022 0.12338640 0.16683259
-0.61300091 0.16077967 -0.00000057
-0.64866842 -0.24532627 0.13441660
-0.22304341 -0.49417676 0.00000076
-0.10819362 -0.00341728 0.00000199
-0.56683451 -0.63284421 0.00000555
-0.36043242 0.22583166 0.00000380
-0.16732537 -0.73124618 0.00000017
-0.35303356 0.29615013 0.08995204
-0.09746371 0.17690310 -0.00000581
-0.22572608 0.46687460 0.05468467
-0.28715433 0.35451721 0.00000370
-0.35822024 -0.12602332 0.00000168
-0.44647186 0.19159181 0.12119205
-0.32820612 -0.34734579 0.00000113
-0.13006963 0.29786899 0.00000274
-0.00043895 0.76665768 0.00000335
-0.62267496 -0.40056210 0.07814649
-0.11047074 0.52186373 0.00000330
-0.31406794 -0.12750591 0.00000452
-0.12168770 -0.10474501 0.00000174
-0.65052648 -0.21709657 0.14286149
-0.27452123 0.21964711 0.00000552
-0.32557293 -0.30704817 0.00000418
-0.25353954 0.52144973 0.00000212
-0.33036726 -0.24159346 0.00000439
-0.32089450 0.45818451 0.00000184
-0.03378462 -0.08533535 0.00000209
-0.31282026 -0.27074663 0.00000132
-0.00588191 0.39450338 0.00000299
-0.71826476 -0.44691938 0.12575069
-0.03431643 -0.50268585 0.00000105
-0.36175445 -0.64643494 0.00000038
-0.48901495 0.18926782 0.00000176
-0.41103188 0.31905211 0.00000099
-0.40282430 -0.41779957 0.00000460
-0.63030807 0.12531321 -0.00000068
-0.18735441 -0.55942127 0.00000230
-0.37743736 0.02133754 0.00000158
-0.50041932 -0.35834275 0.00000093
-0.41647083 -0.76618955 0.00000008
-0.34354504 0.29963815 0.08493926
-0.60346724 -0.68326234 0.00000576
-0.64805351 -0.77897832 0.00000005
-0.54542403 -0.58365212 0.00000054
-0.44777275 0.20316072 0.12498720
-0.09789423 -0.71772169 0.00000021
-0.31523839 0.30800111 0.00000182
-0.59935702 -0.58990882 0.01473865
-0.47777433 0.07048728 0.10943466
-0.00830703 0.04752290 0.00001140
-0.11540041 -0.01279986 0.00000301
-0.21620486 0.45844499 0.00000385
-0.50003388 0.16314730 0.00000039
-0.39741996 -0.59156890 0.00000412
-0.53939399 0.07669913 0.14944044
-0.41507249 -0.36140621 0.00000110
-0.08639401 0.06482730 0.00000216
-0.70889805 -0.30828054 -0.00000090
-0.55451265 -0.40867906 0.00000052
-0.56975797 -0.45008318 0.03238622
-0.40819024 -0.38841182 0.00000472
-0.25050843 0.31601205 0.03118229
-0.52184776 -0.79302143 0.00000002
-0.70593345 -0.58478842 -0.00000054
-0.13240750 -0.09508320 0.00000296
-0.40537688 -0.62413326 0.00000044
-0.71581387 -0.07742610 0.21960126
-0.23526957 -0.14753417 0.00000163
-0.20132085 0.50272545 0.04872839
-0.59188335 0.08729006 -0.00000031
-0.14469019 0.39067368 0.00000591
-0.24239244 0.37542308 0.00000237
-0.43088883 -0.35243225 0.00000112
-0.44036065 -0.26206295 0.00028106
-0.46495669 0.00006256 0.00000086
-0.24023352 -0.18399757 0.00000154
-0.19439386 0.02797667 0.00000383
-0.68467207 -0.62570723 0.05866540
-0.69492337 -0.72616137 -0.00000018
-0.06855278 0.28844526 0.00000334
-0.28929599 -0.11464324 0.00000433
-0.01071592 0.05372639 0.00000213
-0.04300725 0.05839562 0.00000254
-0.21583337 0.30173759 0.00588736
-0.10882008 0.15297899 0.00000883
-0.28160468 0.46018079 0.00000257
-0.06229981 -0.42217449 0.00000094
-0.35335319 -0.23367331 0.00000461
-0.44512155 0.09347202 0.00000372
-0.48631409 0.10138452 0.00000057
-0.47847606 0.08089732 0.00000066
-0.56960378 -0.75997675 0.00000526
-0.62986419 -0.16195529 -0.00000038
-0.04786173 0.01833791 -0.00001033
-0.51729397 -0.67875235 0.00000030
-0.50655128 -0.01803427 0.10452185
-0.31487593 -0.63714148 0.00000041
-0.74569126 0.04469500 -0.00000158
-0.05767888 0.18263257 0.00000246
-0.74645100 -0.27463056 -0.00000126
-0.32650263 -0.51880519 0.00000366
-0.63647684 -0.29518619 -0.00000030
-0.07504363 0.71219592 0.00000359
-0.36834232 -0.16476830 0.00000492
-0.37437296 -0.43209716 0.00000092
-0.11306901 0.01558092 -0.00000862
-0.20234910 -0.29853351 0.00000309
-0.09064666 0.32238883 0.00000281
-0.78804738 -0.63954244 -0.00000040
-0.42503949 -0.48442964 0.00000079
-0.20197131 0.39835793 0.00000482
-0.26442329 0.52134623 0.00000218
-0.73188714 -0.47965743 -0.00000080
-0.13381563 -0.04798221 0.00000188
-0.04738051 0.12631240 -0.00000819
-0.41192102 -0.22505789 0.00000517
-0.03156103 0.15030780 -0.00000814
-0.26435804 -0.19940557 0.00000389
-0.35036128 -0.77029815 0.00000007
-0.21797024 0.19959001 0.00000250
-0.46273631 0.15743563 0.12251110
-0.09347516 0.24125038 0.00000345
-0.26913456 0.16658360 0.00000625
-0.65945153 -0.49738003 -0.00000029
-0.60863967 0.03586973 -0.00000040
-0.14745357 -0.06016720 0.00000318
-0.16649356 -0.40647166 0.00000249
-0.33176267 -0.41462081 0.00000397
-0.07317352 0.12300481 0.00000231
-0.59388647 -0.49608295 0.00000027
-0.21187169 0.06165478 0.00000819
-0.57446152 -0.02720280 0.14447613
-0.04056490 0.24262698 0.00000297
-0.29941625 -0.07217838 0.00000453
-0.05858018 0.23432301 0.00000877
-0.17570081 0.24182231 0.00000693
-0.41529764 -0.76754345 0.00000008
-0.11225421 0.51231619 0.00000430
-0.26052023 -0.43252696 0.00000092
-0.63290141 -0.43874329 0.07466375
-0.58292365 0.13927497 0.19272279
-0.19354258 0.25686405 0.00000651
-0.22571218 0.23063061 -0.00000126
-0.00926919 0.17204537 0.00000251
-0.26967086 -0.57539907 0.00000056
-0.46059421 -0.49455111 0.00000493
-0.28015959 0.48984727 0.00000225
-0.04211283 0.71574717 0.00000418
-0.07383687 -0.49092352 0.00000077
-0.43409652 0.24883218 0.12825417
-0.02700436 0.40073827 0.00000325
-0.48659549 -0.47777747 0.00000521
-0.04089331 -0.05806931 0.00000223
-0.41275454 0.06052021 0.06634046
-0.06710216 0.13396191 0.00000965
-0.23671431 -0.10717283 0.00000388
-0.09644274 0.56420107 0.00000341
-0.06255305 0.52118894 0.00000330
-0.40931566 -0.70321450 0.00000024
-0.62898258 0.11620710 -0.00000066
-0.49100170 0.14373807 0.00000225
-0.53495320 0.08141145 0.00000214
-0.04048882 0.31831695 0.00000821
-0.04364284 -0.62791509 0.00000043
-0.30435046 -0.13523202 0.00000442
-0.24210294 0.50836250 0.00000224
-0.25366126 0.05267237 0.00000213
-0.67389141 -0.41016480 0.10758530
-0.03703029 0.49805211 0.00000325
-0.10085182 0.49395176 0.00000415
-0.26623750 -0.14875899 0.00000163
-0.60766315 -0.63973933 0.00000030
-0.14015682 -0.55253612 0.00000062
-0.23326675 -0.53169119 0.00000067
-0.49387464 -0.39031314 0.00052503
-0.62039095 0.03905562 -0.00000051
-0.35505713 -0.76671207 0.00000008
-0.06398827 0.35957294 0.00000348
-0.64662002 -0.42992961 0.08548813
-0.02180514 -0.08852194 0.00000178
-0.01076453 0.14965491 -0.00000871
-0.49754160 0.04386553 0.00000054
-0.51100702 -0.33262802 0.02609210
-0.25165709 0.04651976 0.00000212
-0.43145673 0.24342086 0.00000223
-0.78837092 -0.31894580 -0.00000120
-0.11692109 0.10454004 0.00000226
-0.23852852 0.14836760 0.00000237
-0.37402254 -0.43688505 0.00000429
-0.59241751 0.05805208 0.17767308
-0.72751892 -0.29597557 0.17048115
-0.18470380 -0.69907480 0.00000192
-0.18967599 0.49921267 0.00000388
-0.48413019 0.28221424 0.00000076
-0.47503403 0.15183481 0.00000246
-0.78380656 -0.71637142 -0.00000021
-0.69567504 -0.56474788 0.08125783
-0.27912118 -0.14899737 0.00000415
-0.46551324 -0.02531623 0.07706766
-0.05916794 0.07501067 0.00000219
-0.09719514 0.27802813 0.00000775
-0.24522134 0.22576629 0.00459019
-0.57854729 -0.39735529 0.05147436
-0.40329994 -0.08384498 0.00000147
-0.40048870 -0.32748373 0.00000481
-0.11321214 0.01384492 -0.00000865
-0.36902766 -0.28152495 0.00000464
-0.05973736 0.58894365 0.00000401
-0.59422048 -0.38126890 0.06539413
-0.16415076 -0.55031688 0.00000211
-0.42111226 -0.44015133 0.00000090
-0.51938244 0.01216178 0.00000038
-0.49133351 -0.53529655 0.00000066
-0.03969705 0.27102316 0.00000304
-0.29271073 -0.21979519 0.00000145
-0.00746514 -0.05880578 0.00000192
-0.28318064 -0.55852770 0.00000317
-0.08193804 0.36604170 0.00000292
-0.55406211 -0.67900208 0.00000532
-0.32117162 0.05850444 0.00000203
-0.37297664 0.10864624 0.00000153
-0.07604917 0.45554185 0.00000314
-0.50596591 -0.32220787 0.02564030
-0.26292317 0.23091882 0.00000235
-0.12192637 0.08647074 -0.00000696
-0.06277844 0.30719814 -0.00000415
-0.57838117 0.11901840 -0.00000023
-0.27028268 0.21024776 0.01620844
-0.49265979 -0.03346270 0.00000066
-0.31254378 0.24395433 0.00000451
-0.19863312 0.43406540 0.02933153
-0.45954696 -0.17371440 0.03504331
-0.20013973 -0.40140031 0.00000281
-0.25453126 0.06192465 0.00000446
-0.63688123 0.03661017 -0.00000065
-0.35864240 -0.42590470 0.00000094
-0.25096435 0.32683567 0.00000235
-0.74726410 -0.35383892 0.16784967
-0.12479661 0.02293350 -0.00000815
-0.42281329 0.17704189 0.00000104
-0.13031523 0.26235191 0.00000266
-0.19946637 -0.33410698 0.00000116
-0.35689543 0.28778679 0.09019765
-0.31461494 0.37866791 0.08731038
-0.19746627 -0.16050830 0.00000160
-0.07813586 -0.41922290 0.00000095
-0.01553177 0.35478901 0.00000289
-0.44374325 0.28839408 0.14447931
-0.29207048 -0.54037989 0.00000065
-0.38198900 0.32323989 0.00000123
-0.35216773 0.35389556 0.10431740
-0.00513183 0.04142277 -0.00001103
-0.15610454 0.26454904 -0.00000247
-0.37808106 0.28308098 0.10218600
-0.15253272 -0.46223427 0.00000223
-0.44629232 -0.17494818 0.00000120
-0.41636054 -0.53530944 0.00000443
-0.00711333 -0.33348276 0.00000123
-0.24239323 0.10265158 -0.00000336
-0.68771068 -0.53988794 -0.00000048
-0.67823435 -0.61077749 -0.00000033
-0.67865006 -0.11468225 -0.00000085
-0.36430431 0.01076228 0.02330054
-0.22186464 0.53226642 0.00000287
-0.45375697 -0.45034462 0.00000087
-0.74222657 -0.39167797 0.15494289
-0.11676088 -0.12123701 0.00000170
-0.51193095 -0.03202258 0.00000049
-0.67516037 -0.61602106 -0.00000030
-0.05774772 0.35619292 0.00000341
-0.56448346 -0.75022950 0.00000012
-0.50188868 0.13251242 0.14047700
-0.46200900 -0.23928059 0.00000113
-0.51909075 -0.72207228 0.00000019
-0.12922912 0.43566422 0.00000426
-0.07484913 0.53035456 0.00000400
-0.19493802 0.45683989 0.03290508
-0.00384884 0.76762003 0.00000392
-0.17941613 0.51501435 0.03824949
-0.10969194 -0.19725838 0.00000151
-0.20000978 0.56197126 0.00000294
-0.66377923 -0.26915866 -0.00000056
-0.19561883 -0.58168661 0.00000055
-0.38665020 0.02838274 0.04177555
-0.11849514 -0.21473417 0.00000146
-0.48740064 -0.55072079 0.00000062
-0.70249325 -0.51015373 -0.00000064
-0.60976269 -0.25470380 -0.00000011
-0.69268909 -0.03881633 0.21515653
-0.65548885 -0.51548785 0.06892983
-0.13397345 0.39903869 0.00000300
-0.33237206 -0.66637017 0.00000033
-0.07379703 -0.15673745 0.00000228
-0.02922861 0.52188623 0.00000330
-0.07334224 -0.20495760 0.00000149
-0.14925330 0.51655803 0.00000302
-0.55749619 -0.29923110 0.00000038
-0.17799661 -0.01802493 0.00000195
-0.04674926 0.50055029 0.00000367
-0.23306373 0.48062556 0.00000326
-0.31682897 0.43409170 0.10299662
-0.45927345 0.23009873 0.00000067
-0.36752464 -0.26210658 0.00000134
-0.48222536 -0.52213498 0.00000506
-0.37572375 -0.63046668 0.00000383
-0.15759854 -0.74815827 0.00000013
-0.32144213 -0.13420439 0.00000457
-0.14044032 0.65525209 0.00000300
-0.38468607 0.15228526 0.07254152
-0.73473206 -0.71544860 0.06669692
-0.58876820 0.01209806 0.16353670
-0.28635774 -0.21595614 0.00000405
-0.05640432 0.14917570 0.00000966
-0.24143767 0.27334146 0.01451899
-0.33854582 -0.32066009 0.00000120
-0.44058272 0.25849875 0.00000080
-0.13877312 -0.13786316 0.00000166
-0.18030813 -0.71572444 0.00000184
-0.35152196 -0.23253975 0.00000460
-0.51093268 0.20228090 0.00000118
-0.51958143 -0.72534595 0.00000019
-0.13694050 0.40658197 -0.00000015
-0.41088936 -0.06564817 0.03261568
-0.05959419 0.30411303 0.00000276
-0.19262404 0.51286045 0.04592480
-0.70490451 -0.54474066 -0.00000062
-0.63193304 -0.26235362 0.11959199
-0.54725618 -0.50181630 0.00000068
-0.26802455 -0.27928263 0.00000373
-0.69389023 0.07677370 -0.00000117
-0.70387456 -0.41867401 -0.00000075
-0.13878679 0.23821719 0.00000752
-0.05576406 0.07315791 -0.00000902
-0.20621162 -0.02091936 0.00000381
-0.48389683 0.19631960 0.00000049
-0.17938486 0.07420137 -0.00000564
-0.09602191 0.34331463 0.00000286
-0.45582926 0.00508749 0.00000455
-0.25166590 0.50494050 0.08067611
-0.55825183 0.12738764 -0.00000007
-0.15344643 -0.39826491 0.00000239
-0.00254817 0.15941562 0.00000242
-0.34777264 0.10589951 0.03755766
-0.30506984 -0.64778714 0.00000038
-0.66491275 -0.66474980 -0.00000016
-0.17127943 0.48587226 0.00000439
-0.59608476 0.11828911 0.19550755
-0.38114333 -0.74519674 0.00000359
-0.03113691 0.25090321 0.00000291
-0.05942967 -0.01398553 0.00000197
-0.11532007 0.27171781 0.00000268
-0.68390415 -0.43964655 -0.00000055
-0.33073835 -0.47212387 0.00000082
-0.12431698 0.45927743 0.00000427
-0.34485066 -0.72608838 0.00000331
-0.18874241 0.16809329 -0.00000351
-0.59078490 0.10186825 0.18796539
-0.07866204 0.42144784 0.00000305
-0.58850949 0.03379241 0.16897547
-0.13814894 0.58591916 0.00000304
-0.61382852 -0.08292404 -0.00000033
-0.14235327 -0.79236096 0.00000131
-0.16973252 -0.05199234 0.00000187
-0.30914736 0.41788903 0.00000254
-0.63527952 -0.58551955 0.00000001
-0.15442262 0.30239601 0.00000415
-0.12142712 0.34542609 0.00000286
-0.27049439 0.27598927 0.00000223
-0.75477673 -0.63471852 -0.00000041
-0.03543970 -0.64326290 0.00000039
-0.13830134 0.63686232 0.00000325
-0.46559189 -0.31794154 0.00000118
-0.29998224 0.18942716 0.00000207
-0.30795547 0.11667146 0.01553075
-0.40310015 0.26625714 0.00000111
-0.74362357 -0.07069027 -0.00000145
-0.39268332 -0.77476794 0.00000006
-0.30207893 0.23486663 0.04237385
-0.23416939 0.26898910 0.00886053
-0.11204579 0.22989876 -0.00000436
-0.22400365 -0.39212715 0.00000305
-0.76695946 -0.79186017 0.06705628
-0.67308901 -0.78385231 -0.00000004
-0.10576163 -0.61111245 0.00000143
-0.33658850 0.14985964 0.00000180
-0.55567954 -0.61830913 0.00000045
-0.22302615 0.06959136 0.00000217
-0.67589597 -0.03487723 0.20570803
-0.06015942 -0.74229215 0.00000069
-0.63510488 -0.74537984 0.00000014
-0.12289620 0.13829097 0.00000346
-0.28035041 -0.37089335 0.00000107
-0.52105482 -0.35844640 0.02568925
-0.13924342 0.45559332 0.00000534
-0.61505030 -0.68272021 0.00056101
-0.35884350 -0.07074545 0.00000507
-0.08052995 -0.18686937 0.00000153
-0.45606627 -0.66421517 0.00000034
-0.50632758 -0.53778167 0.00000524
-0.65995656 0.10232344 -0.00000091
-0.30812224 0.18979046 0.03450362
-0.47430573 0.31873358 0.00000052
-0.18038685 -0.71802609 0.00000184
-0.07993134 -0.50234301 0.00000147
-0.32337618 -0.41692357 0.00000389
-0.28474250 0.38554199 0.07046860
-0.52046793 0.08778820 0.00000030
-0.01700560 0.26360557 -0.00000627
-0.22169363 -0.09384237 0.00000377
-0.05854170 0.61197344 0.00000500
-0.10408214 0.30360013 0.00000739
-0.73926509 -0.52392576 0.11895998
-0.08417684 -0.32433703 0.00000119
-0.60662610 -0.33189639 0.08586979
-0.65379166 -0.27164138 -0.00000047
-0.33961003 -0.05446456 0.00000494
-0.04208828 -0.77771430 0.00000044
-0.44039526 0.19982220 0.00000086
-0.35305030 0.01050429 0.00000180
-0.13855503 -0.10476224 0.00000174
-0.40065716 0.33111701 0.00000179
-0.34155656 0.13180001 0.04036998
-0.19242299 0.40775368 0.01866956
-0.29688954 -0.06665797 0.00000183
-0.56088216 -0.52980599 0.00000059
-0.03446537 0.41368614 0.00000335
-0.69667004 -0.02998082 0.21991814
-0.69744803 -0.13260236 0.19391313
-0.24287857 0.04435196 0.00000211
-0.04797678 0.54348925 0.00000584
-0.38995632 -0.55735978 0.00000061
-0.71278735 -0.36414621 0.14370364
-0.04693592 -0.71254017 0.00000064
-0.38996314 -0.30128102 0.00000478
-0.26450135 0.11848743 0.00000469
-0.65796941 -0.35383500 0.11220337
-0.07807428 -0.50479296 0.00000074
-0.58340661 -0.15355644 0.00000001
-0.52383574 0.15051954 0.15880123
-0.41569499 0.03943135 0.00000492
-0.07373262 0.23881245 0.00000850
-0.70479876 -0.14539845 -0.00000104
-0.72230311 -0.25965218 -0.00000107
-0.09321352 0.21444419 0.00000338
-0.41106816 -0.70594922 0.00000024
-0.72441662 -0.75521670 0.05000308
-0.16116428 0.26827968 0.00000267
-0.00237996 0.65199592 0.00000365
-0.38551792 0.18950466 0.08266384
-0.64789831 -0.37597157 0.10021301
-0.34655831 0.06313393 0.00000597
-0.02052282 -0.65173484 0.00000037
-0.32358138 0.29548843 0.07142694
-0.04553038 -0.25908487 0.00000176
-0.01549361 0.40796367 0.00000316
-0.35989577 -0.55026262 0.00000062
-0.12396433 0.30078577 -0.00000262
-0.30017698 0.29865058 0.00000196
-0.22683657 0.37069457 0.03054963
-0.38987815 -0.15135906 0.00000162
-0.08922926 -0.75348208 0.00000012
-0.66080355 0.07689368 -0.00000023
-0.13798400 0.02546100 -0.00000774
-0.15602266 0.14139865 0.00000235
-0.28998692 0.15627501 0.00000219
-0.47363731 -0.23656680 0.02760009
-0.35762673 0.29832757 0.09337653
-0.21135461 0.46829954 0.04609634
-0.16283057 -0.61646508 0.00000193
-0.10737082 0.64991411 0.02817455
-0.51108303 -0.36912416 0.01671866
-0.03203206 0.75649591 0.00873675
-0.39966922 -0.65895985 0.00000035
-0.25382473 0.39037028 0.05244730
-0.12990312 0.64753201 0.04160214
-0.59211625 -0.22861342 0.10348797
-0.49522887 0.15097499 0.00000209
-0.17568109 0.31933774 0.00000280
-0.24641329 0.36316227 0.00000235
-0.16265535 -0.60860717 0.00000048
-0.33257657 -0.08468378 0.00000480
-0.32915332 0.29256137 0.00000172
-0.18583578 -0.13506246 0.00000166
-0.28055351 0.18082405 0.01500774
-0.13926504 0.42288443 0.00000432
-0.74024974 -0.63723222 -0.00000041
-0.32680124 -0.06675127 0.00000183
-0.62121878 -0.63029917 0.01793666
-0.14985877 0.08552918 0.00000221
-0.46881211 -0.22708949 0.02703947
-0.00842925 -0.30886339 0.00000123
-0.17202840 0.18223698 0.00000401
-0.14964472 0.47983435 0.01061687
-0.25425700 -0.52994684 0.00000298
-0.73593806 -0.27606532 -0.00000117
-0.69596946 -0.02980410 0.21952716
-0.11645051 0.33771805 -0.00000208
-0.11527463 0.38487725 0.00000296
-0.39432004 -0.58602281 0.00000410
-0.03615899 0.33171102 -0.00000438
-0.13498013 0.06257241 0.00000338
-0.00291064 0.33221650 0.00000863
-0.48092605 -0.30228274 0.00000104
-0.00071122 -0.05753551 0.00000186
-0.22203773 0.04608471 0.00000819
-0.11582166 0.15309749 0.00000238
-0.72810729 -0.18926024 0.19839444
-0.46253552 -0.41863482 0.00000514
-0.77843803 -0.61457991 -0.00000046
-0.25860053 -0.07228206 0.00000182
-0.76034991 -0.13979545 -0.00000152
-0.05045807 0.72453760 0.00000365
-0.09449135 0.02582364 0.00000292
-0.36758839 0.19766911 0.07360142
-0.74840316 -0.72654995 -0.00000018
-0.28301932 0.16196378 0.01168217
-0.05405812 0.64286274 0.00000233
-0.00421181 -0.14376170 0.00000168
-0.71817947 -0.53198702 -0.00000067
-0.27605280 -0.09260803 0.00000427
-0.35613412 0.02396963 0.02161828
-0.26245089 -0.67102880 0.00000270
-0.22428354 -0.41543518 0.00000096
-0.55355578 -0.21785619 0.00000033
-0.00397324 -0.29147167 0.00000127
-0.39341744 0.09755110 0.06384893
-0.67438959 0.02569499 0.00000011
-0.56090318 0.05779822 0.00000192
-0.55520942 0.15379830 0.17920049
-0.41712143 -0.41021385 0.00000475
-0.15380521 -0.44722348 0.00000227
-0.69918153 -0.19898639 -0.00000093
-0.25575516 0.29031944 0.00000234
-0.66459983 0.04112706 0.21828736
-0.15093358 -0.72586736 0.00000155
-0.38130235 -0.71053871 0.00000022
-0.03081727 -0.13791711 0.00000193
-0.21126977 0.58111412 0.00000242
-0.15543256 -0.38060717 0.00000246
-0.55329353 -0.01515127 0.13439146
-0.19457871 0.43219205 0.02632129
-0.04633246 -0.17342028 0.00000157
-0.37066644 -0.42819346 0.00000093
-0.21436868 0.13283171 0.00000427
-0.35539315 0.10603869 0.04234278
-0.47553944 0.29627193 0.00000046
-0.50724260 -0.12418080 0.07755292
-0.54959172 -0.52294723 0.00101032
-0.20668395 0.11841323 0.00000417
-0.14863604 0.60165341 0.00000294
-0.25177421 -0.34676999 0.00000113
-0.50613147 -0.79623627 0.00000459
-0.66173690 -0.28388569 0.13260734
-0.54591075 0.07260202 0.15244410
-0.01070240 0.12135771 0.00001062
-0.74116311 -0.60741829 -0.00000048
-0.61343997 0.00469749 -0.00000041
-0.13845807 0.04536729 0.00000946
-0.79326340 -0.55974380 -0.00000060
-0.13473291 0.03439496 0.00000331
-0.71508803 -0.24785917 0.17515478
-0.09453340 -0.50675061 0.00000073
-0.24036869 -0.32150108 0.00000337
-0.33322035 0.22375508 0.05891722
-0.65126594 0.00561903 0.20081221
-0.13162278 0.59604075 0.02938117
-0.57306623 -0.05430134 0.13661162
-0.56145259 -0.02615747 0.13663894
-0.33977517 -0.29915351 0.00000433
-0.58333453 -0.78006499 0.00000005
-0.23111232 -0.18015560 0.00000155
-0.11509753 0.66716777 0.00000316
-0.72848148 -0.03805647 0.23765812
-0.02915907 0.35563520 -0.00000410
-0.74577378 -0.78584546 0.05540627
-0.50576537 0.05884524 0.12387710
-0.02822062 0.44387707 0.00000311
-0.25049120 -0.16174590 0.00000160
-0.61285208 -0.30012245 0.09795160
-0.22371532 -0.01657774 0.00000398
-0.42462182 0.01343591 0.00000119
-0.11922571 0.46019162 0.00000315
-0.00316806 0.48692030 0.00000708
-0.13800790 0.54565270 0.02035470
-0.01116560 0.12027348 0.00001063
-0.04129473 -0.58977649 0.00000053
-0.51743639 0.15190224 0.15517001
-0.68643256 -0.42320881 0.11203375
-0.28673592 0.07616154 0.00000479
-0.10949728 -0.72184616 0.00000020
-0.04346186 0.19591445 -0.00000690
-0.10951408 0.44458345 0.00000410
-0.23877434 0.11946450 -0.00000313
-0.77597820 -0.23891013 -0.00000140
-0.22586082 -0.05194114 0.00000187
-0.39981205 -0.18189215 0.00000155
-0.25520676 0.27688116 0.02401346
-0.60875219 -0.39632238 0.07056437
-0.62901244 -0.72619533 0.00000588
-0.30165694 0.43011081 0.09251412
-0.43973901 -0.04879645 0.05494445
-0.49516402 -0.02246653 0.00000063
-0.14104323 0.31523318 -0.00000186
-0.43254942 -0.38544529 0.00000495
-0.48116486 -0.79802066 0.00000436
-0.33801978 0.15729072 0.00000503
-0.03185514 0.32347988 -0.00000467
-0.24976042 0.25391847 0.00000243
-0.25103878 -0.47802384 0.00000080
-0.27140720 -0.29901381 0.00000371
-0.71332884 -0.46870550 0.11705101
-0.66628123 -0.48958584 0.08234165
-0.36990737 0.10414937 0.05090051
-0.29344150 0.32955253 0.00000387
-0.13490027 -0.07154153 0.00000182
-0.69237680 -0.33159084 0.13938761
-0.00759689 -0.24097786 0.00000147
-0.09506383 -0.12183233 0.00000170
-0.34877510 0.26815320 0.08007133
-0.01266311 -0.23218427 0.00000153
-0.40957356 -0.55973995 0.00000060
-0.02885406 0.35464911 -0.00000412
-0.18406214 0.37618542 0.00000287
-0.31948046 -0.25529160 0.00000425
-0.14095618 -0.10368608 0.00000302
-0.70091214 -0.55952535 0.08586961
-0.05777897 0.72415068 0.01643279
-0.24930990 0.17123516 -0.00000180
-0.11009041 0.32305025 0.00000281
-0.30356684 0.10019561 0.00854287
-0.20009584 0.13004339 -0.00000396
-0.29433524 0.28526240 0.00000202
-0.62549449 -0.25970390 -0.00000024
-0.74150810 -0.75063125 0.06183788
-0.48197063 -0.10427517 0.06694196
-0.67695203 -0.23088732 0.15576980
-0.28848751 0.30270729 0.05141671
-0.12075675 0.59859313 0.02326955
-0.15413575 0.07874548 -0.00000624
-0.01377074 -0.21249825 0.00000147
-0.31014462 0.26788207 0.00000427
-0.16240953 -0.70813248 0.00000170
-0.11056145 -0.59737335 0.00000151
-0.33875610 0.37191396 0.00000250
-0.09773395 -0.67478550 0.00000120
-0.36805822 0.10032750 0.04876729
-0.22613130 -0.09806520 0.00000380
-0.15809562 0.23600878 -0.00000299
-0.14335857 0.32251417 0.00000410
-0.04287995 0.27135361 0.00000268
-0.15024906 0.29240502 0.00000409
-0.29927465 -0.03330812 0.00000463
-0.67109712 -0.73991618 -0.00000013
-0.06814472 0.69050880 0.01420793
-0.46065565 0.05933087 0.09589054
-0.34268643 -0.51458941 0.00000382
-0.47366863 -0.00644824 0.00000079
-0.09961577 -0.67973926 0.00000120
-0.66012944 -0.65539579 0.03570716
-0.23995499 -0.10630082 0.00000391
-0.66684955 -0.00117969 0.20876879
-0.25808938 -0.17320474 0.00000390
-0.53996032 -0.38911879 0.02955345
-0.11098574 0.02572926 -0.00000847
-0.11294880 0.35564386 0.00000391
-0.01702797 0.54386004 -0.00000066
-0.58012564 0.12217653 -0.00000025
-0.26481663 0.42327931 0.00000213
-0.21942510 0.12683126 -0.00000350
-0.11989856 0.36395781 0.00000291
-0.46342434 -0.58375653 0.00000474
-0.48863658 -0.45614655 0.00000528
-0.05277876 0.58817702 0.00000120
-0.57508221 -0.21975797 0.09515840
-0.19436097 -0.13569374 0.00000342
-0.63473541 -0.53322094 0.05141903
-0.03273425 0.03600276 0.00000239
-0.45898068 -0.55150729 0.00000062
-0.52127595 0.05783472 0.13327916
-0.32753558 -0.68601457 0.00000325
-0.65131414 -0.15921819 -0.00000057
-0.20686535 0.35479430 0.00000524
-0.01565575 -0.07913917 0.00000180
-0.20283409 0.33723591 0.00695001
-0.16418153 0.63352341 0.00000277
-0.26209571 -0.64189248 0.00000277
-0.02901569 -0.44984818 0.00000088
-0.10726820 0.27097385 0.00000268
-0.20754284 -0.24184747 0.00000327
-0.48463707 -0.07862383 0.00000077
-0.02743309 0.69744262 0.00000269
-0.23243329 -0.32540180 0.00000119
-0.71600943 -0.32562549 0.15565502
-0.34827219 -0.39677656 0.00000101
-0.06800818 -0.17767375 0.00000156
-0.38266188 -0.61674615 0.00000392
-0.49806230 -0.08448740 0.00000066
-0.53922543 -0.25725774 0.06313295
-0.67942043 -0.79529685 0.01161617
-0.59533920 -0.40455852 0.06007953
-0.01719322 -0.67584885 0.00000031
-0.35839241 0.31638355 0.09851451
-0.10754897 -0.61354369 0.00000047
-0.45339018 -0.48775875 0.00000489
-0.45208206 -0.60713720 0.00000458
-0.71752366 -0.78492562 0.03803867
-0.47764568 -0.42256174 0.00000527
-0.38156900 -0.60517064 0.00000049
-0.47683761 0.13993869 0.00000257
-0.35779325 -0.49983885 0.00000399
-0.55720137 -0.66844116 0.00000033
-0.54758955 -0.06825384 0.11713323
-0.60458794 0.10153349 0.00000056
-0.08851374 0.04000367 0.00000290
-0.17517629 0.46954325 0.02386870
-0.43334059 0.17908425 0.00000295
-0.74855799 -0.73557706 -0.00000016
-0.32316737 0.39935959 0.09798063
-0.76730321 -0.73630514 -0.00000016
-0.12254030 -0.55992710 0.00000171
-0.34643841 0.13344542 0.00000515
-0.42097300 -0.41656024 0.00000477
-0.77602660 -0.70043951 -0.00000025
-0.29600841 0.20774466 0.03158904
-0.50076464 0.00172792 0.10601692
-0.06565624 -0.59252264 0.00000111
-0.37735176 -0.31915220 0.00000462
-0.10748300 -0.72743445 0.00000115
-0.09212148 0.23937917 0.00000260
-0.15056346 0.12842704 -0.00000534
-0.46104623 -0.53402436 0.00000484
-0.14815604 0.37414127 0.00000428
-0.18972772 0.15881240 -0.00000367
-0.25623311 -0.18556287 0.00000154
-0.32499268 -0.48724099 0.00000078
-0.40473970 0.20667467 0.00000116
-0.76968864 -0.75893951 0.07725494
-0.06385857 0.62014953 0.00000483
-0.10925535 0.05347666 0.00000312
-0.51435825 -0.08060396 0.00000052
-0.06854292 0.53426122 0.00000396
-0.23102125 -0.50896045 0.00000282
-0.17878571 0.53724540 0.04359683
-0.66285826 -0.09710729 -0.00000073
-0.35614719 0.05757595 0.00000173
-0.70854796 -0.78178962 -0.00000005
-0.08686479 0.63484844 0.01150706
-0.13580655 0.24301677 -0.00000345
-0.00144566 0.17295692 0.00000245
-0.08850819 0.44184277 0.00000391
-0.33498447 -0.11272760 0.00000172
-0.08672472 0.49002937 0.00000323
-0.39977004 -0.43347668 0.00000454
-0.01087627 0.55347270 0.00000338
-0.34848958 0.29921105 0.00000154
-0.10481650 -0.25933528 0.00000135
-0.00417880 -0.33694058 0.00000120
-0.33858418 0.43208540 0.00000180
-0.03887476 0.75242492 0.00000381
-0.37280697 0.38017169 0.00000125
-0.17981604 -0.47268752 0.00000082
-0.36694650 0.36663330 0.11681637
-0.28104671 0.09819147 0.00000225
-0.21341264 0.40508070 0.03106012
-0.04300714 -0.36660335 0.00000147
-0.36708801 0.10921954 0.05045797
-0.60876645 -0.36484846 0.07869766
-0.47255330 -0.52254333 0.00000069
-0.02628704 -0.31025393 0.00000146
-0.25652843 0.52130210 0.00000210
-0.28901580 0.32934707 0.00000202
-0.45208009 0.19283623 0.00000077
-0.15198605 -0.34440825 0.00000114
-0.61918620 0.16630472 -0.00000063
-0.19680711 0.02439792 0.00000206
-0.22798189 0.40843376 0.04100231
-0.12286108 0.57707547 0.00000425
-0.04453756 -0.45523668 0.00000127
-0.02827448 0.73843099 0.00173148
-0.27991109 -0.79170124 0.00000002
-0.05873079 0.35131369 0.00000341
-0.28431608 0.32095648 0.05352808
-0.30562660 -0.16385563 0.00000159
-0.27273171 -0.08091342 0.00000427
-0.43273703 -0.17712728 0.00000132
-0.42282578 0.02127752 0.06248642
-0.51613693 0.03192346 0.12339119
-0.03602685 0.75903488 0.00000379
-0.53342125 -0.32426641 0.00000061
-0.45120435 0.10606235 0.10206345
-0.64453540 -0.61016275 -0.00000004
-0.22084700 0.38257881 0.00000464
-0.70653934 -0.40837736 -0.00000078
-0.10149459 -0.41225388 0.00000097
-0.26393745 0.11993033 0.00000682
-0.03900143 0.33327662 -0.00000428
-0.25994820 -0.76157886 0.00000245
-0.12503087 0.23897956 -0.00000382
-0.62869640 -0.48680571 0.05963681
-0.17254080 0.38562650 0.00056747
-0.36494312 -0.20726781 0.00000479
-0.29742803 0.13390385 0.01341161
-0.25897129 -0.63800208 0.00000040
-0.06463932 -0.59412747 0.00000110
-0.46495287 -0.06002849 0.06775812
-0.72978864 -0.37187077 -0.00000102
-0.03975404 -0.64784640 0.00000074
-0.08538885 -0.79299039 0.00000002
-0.69250201 -0.37646703 -0.00000069
-0.23353688 -0.65548568 0.00000248
-0.15021264 -0.64369747 0.00000175
-0.33145480 -0.61640820 0.00000046
-0.47888894 -0.47920456 0.00000514
-0.38432451 0.01233314 0.03619016
-0.37649323 0.03991992 0.00000567
-0.06572334 0.50335449 0.00000385
-0.42821053 0.00346332 0.06124349
-0.51082368 -0.07133533 0.09342569
-0.03671460 -0.53567747 0.00000066
-0.07068299 -0.03886233 0.00000190
-0.10823968 -0.01180737 0.00000197
-0.18662988 -0.72892305 0.00000018
-0.26680781 -0.77622170 0.00000006
-0.23703624 -0.44415303 0.00000089
-0.02166800 0.11995082 0.00000230
-0.06806524 0.37102429 0.00000293
-0.18294241 -0.39785858 0.00000101
-0.04701516 -0.50669083 0.00000073
-0.53754017 -0.50604932 0.00000073
-0.12579575 -0.70650289 0.00000023
-0.35843680 -0.43690624 0.00000091
-0.00444590 0.07780823 0.00000223
-0.04870667 -0.27043274 0.00000176
-0.19591305 0.38381880 0.01466619
-0.41708528 -0.28531138 0.00000129
-0.49555743 -0.62130872 0.00000045
-0.38786301 -0.57311257 0.00000408
-0.69103921 -0.50087876 0.09485550
-0.53116363 0.05578505 0.13891510
-0.21074025 0.00893643 -0.00000610
-0.11498464 0.08296417 0.00000325
-0.40944096 0.23189011 0.00000109
-0.11073029 0.66192501 0.03336885
-0.13968966 0.13992770 0.00000849
-0.46187023 0.07831380 0.00000358
-0.63029186 -0.79400059 0.00000001
-0.65734199 -0.28814815 -0.00000048
-0.08120193 -0.42039973 0.00000168
-0.23995080 0.48781830 0.06895477
-0.00325144 0.64131925 0.00000091
-0.61173373 -0.49789556 0.04620320
-0.65617350 0.01870681 -0.00000079
-0.64725871 -0.15331052 0.15729023
-0.04401940 0.70995364 0.00419244
-0.58628112 -0.67111080 0.00000032
-0.34453194 0.21747030 0.00000166
-0.31472975 0.19288555 0.03942051
-0.00232110 0.74020450 0.00000456
-0.60028703 0.02131381 0.00000159
-0.42082193 -0.42961203 0.00000474
-0.15698831 0.20769855 0.00000755
-0.78163152 -0.77063699 -0.00000007
-0.06657727 0.18752612 0.00000912
-0.30346279 -0.65210324 0.00000037
-0.17699446 0.47486612 0.02637849
-0.59871581 -0.66129765 0.00000035
-0.19570911 0.59146925 0.00000255
-0.50666908 -0.58531510 0.00000512
-0.03803346 0.24119901 0.00000295
-0.52641301 -0.02431212 0.11527897
-0.39918653 -0.28942402 0.00000489
-0.05709017 0.67257842 0.00268983
-0.17890252 0.46232512 0.00000452
-0.03583453 0.03293590 0.00000241
-0.56267546 -0.02249103 0.00000005
-0.17756241 0.10338230 0.00000829
-0.36776559 0.30112240 0.10041639
-0.32833547 0.26758467 0.06718350
-0.60744725 0.02524173 -0.00000038
-0.33266951 0.20452973 0.00000458
-0.21646344 0.17337565 -0.00000265
-0.10429769 -0.47374509 0.00000176
-0.52976518 0.19105388 0.00000095
-0.33990102 0.17853334 0.05140739
-0.52256173 -0.54725937 0.00000063
-0.32944435 0.32755805 0.08335682
-0.04234221 -0.28724439 0.00000167
-0.30079110 0.30328434 0.05923664
-0.29634730 -0.22715078 0.00000412
-0.61052451 -0.73673495 0.00000016
-0.16545235 -0.44588587 0.00000238
-0.21894550 -0.02008063 0.00000195
-0.59470984 -0.10681758 0.13654361
-0.78065036 -0.43881721 -0.00000090
-0.03474795 0.35483018 0.00000793
-0.27837466 0.23243109 0.00000530
-0.49438792 -0.13973206 0.06552775
-0.39584208 0.38516047 0.00000105
-0.57250928 -0.48137165 0.00000044
-0.13912750 -0.28678935 0.00000128
-0.32078861 -0.03326087 0.00000482
-0.33818414 0.01772523 0.00881961
-0.30719887 -0.30202796 0.00000403
-0.45996481 0.06546367 0.00000376
-0.31102267 0.21917427 0.04390140
-0.32377197 -0.77375531 0.00000300
-0.29431724 -0.73846644 0.00000015
-0.51831845 -0.16687270 0.07343516
-0.69723010 -0.49354276 -0.00000061
-0.28312336 0.19881200 0.02125292
-0.60664624 -0.16556720 -0.00000018
-0.01648875 0.04271729 0.00000226
-0.39671177 -0.17551729 0.00000156
-0.47331666 0.02057102 0.09377562
-0.57578974 -0.60246441 0.00000049
-0.29654455 0.36402717 0.00000341
-0.54598746 0.07416574 0.15289558
-0.10952226 -0.49630896 0.00000076
-0.61840399 -0.25286549 -0.00000019
-0.06869341 0.14284126 0.00000236
-0.27461783 0.17959338 0.01099720
-0.49084925 0.03874634 0.10939336
-0.43254455 -0.21839597 0.00668197
-0.29424427 0.06928788 0.00000687
-0.10523986 0.28083620 -0.00000352
-0.59864118 0.16694499 -0.00000009
-0.50879822 -0.56481151 0.00000519
-0.01355240 -0.35894639 0.00000123
-0.63899520 0.15529653 -0.00000079
-0.05875236 0.52309199 0.00000384
-0.05107483 0.32782607 0.00000328
-0.32204381 0.18630031 0.00000500
-0.23318613 -0.12090441 0.00000381
-0.50609812 0.14956216 0.14749976
-0.44857894 -0.00008807 0.00000100
-0.27654297 -0.54864796 0.00000063
-0.43833527 -0.69107663 0.00000027
-0.64986627 -0.17040125 0.15450358
-0.52551373 -0.77562261 0.00000006
-0.02324551 0.63473549 0.00000133
