ply
format ascii 1.0
element vertex 1379
property float x
property float y
property float z
end_header
-0.15914944 -0.34102344 -0.00000029
-0.60030508 0.40039124 0.38989486
0.00037773 -0.46345812 -0.00000021
0.08830351 0.22992479 0.00000693
0.41482921 -0.02590846 -0.00000072
-0.31014696 0.54617526 0.10941622
0.07870063 -0.27316140 -0.00000033
0.01344886 0.33089461 -0.00000071
-0.20895640 0.68838241 0.18909949
-0.50108294 0.39513078 0.18691469
0.78313779 -0.08146581 -0.00000179
-0.77310073 -0.33130484 0.00000000
0.14571124 -0.74947737 -0.00000003
0.10472349 0.51092609 0.00000212
-0.01366441 -0.08002358 -0.00000045
-0.17648047 0.63633614 0.02489697
-0.38323097 0.27304347 -0.00000049
0.11275125 0.16997185 -0.00000061
-0.49579765 -0.61120286 -0.00000012
-0.49515352 0.53504178 0.44720300
0.00410981 -0.04658043 -0.00000047
0.37957491 0.23722311 0.00000181
0.13663788 -0.76599574 -0.00000002
0.57969795 -0.58388196 -0.00000016
0.53407880 0.17810949 -0.00000150
-0.18248163 0.61813358 0.00119331
0.60707274 -0.45009303 -0.00000050
-0.56935510 -0.70755913 -0.00000006
0.00232517 -0.29735551 -0.00000031
-0.31372937 0.09336418 -0.00000054
0.05028143 0.61036597 0.00000132
0.42586045 -0.73224065 -0.00000004
0.04568647 0.60471252 0.00000148
0.15177716 0.49583918 0.00000155
-0.27262612 -0.18989189 -0.00000038
0.52215775 0.12108777 0.00000116
0.20106321 0.20991139 0.00000556
-0.08438182 -0.43160845 -0.00000023
0.68891998 0.10072022 -0.00000184
0.00292847 0.06342242 -0.00000054
-0.43745417 -0.53691479 -0.00000016
0.79478943 -0.12802123 -0.00000168
-0.38467253 -0.33859383 -0.00000029
-0.62690340 -0.69642015 -0.00000006
-0.61574528 0.31764202 0.25913258
0.11906810 0.54003796 -0.00000087
-0.67809311 -0.29547888 -0.00000008
0.23408188 0.13238563 0.00000632
-0.01205349 -0.75043536 -0.00000003
0.23053583 0.40498612 -0.00000097
-0.27817473 -0.37691909 -0.00000026
-0.56314288 0.15575329 -0.00000028
-0.16341083 0.31288448 -0.00000070
0.04119009 0.06256037 -0.00000054
0.19824767 -0.33337018 -0.00000029
0.07176146 -0.02654706 -0.00000048
0.19538870 0.30851672 -0.00000069
0.10670252 0.42519649 -0.00000077
0.13116236 0.02049071 -0.00000051
0.73660968 -0.37563412 -0.00000106
-0.21562881 -0.62891525 -0.00000011
-0.07890513 -0.22971449 -0.00000036
-0.35269286 0.61743521 0.33050893
0.55725428 0.05260636 0.00000172
0.49519219 0.16283468 0.00000093
0.52981950 0.24357155 -0.00000161
-0.53060908 0.27691654 0.01462030
-0.30535507 0.57108724 0.14850355
0.36136041 -0.40049060 -0.00000025
-0.49319322 0.25427564 -0.00000037
0.11811404 0.22351964 -0.00000064
0.09491141 0.34475328 0.00000497
-0.03889775 0.50581886 -0.00000082
-0.50963686 0.43927005 0.28928235
-0.68761921 0.21568540 0.20069132
0.03839939 -0.52494061 -0.00000017
0.22681824 -0.75427897 -0.00000003
0.70926971 -0.02681131 -0.00000166
0.23394808 0.16349752 -0.00000060
0.79084242 -0.69833665 -0.00000025
-0.17343680 -0.47951316 -0.00000020
0.12571415 0.57025700 -0.00000095
-0.30874946 0.57386163 0.16048776
-0.31732403 0.57927892 0.18767007
-0.62077380 0.01718508 -0.00000019
0.13279669 0.58205775 -0.00000100
-0.23051511 0.64151726 0.13993617
0.21497952 0.45818689 0.00000101
0.78011623 0.01777430 -0.00000197
-0.42934494 -0.40459756 -0.00000025
-0.27980133 -0.20903974 -0.00000037
0.11290770 0.41766755 0.00000351
-0.75245646 -0.34163766 0.00000000
0.51106610 -0.15674414 -0.00000077
0.12885221 -0.35385889 -0.00000028
-0.09769342 -0.47920422 -0.00000020
0.05074626 0.17679535 0.00000836
-0.58963516 -0.57339511 -0.00000012
-0.17074639 0.03876392 -0.00000052
0.56212356 -0.06613694 -0.00000111
0.10912969 -0.32223897 -0.00000030
0.15941009 0.52360244 0.00000090
-0.73314596 -0.08229635 -0.00000006
0.57620109 -0.30113458 -0.00000070
-0.11024420 0.69774155 0.01551165
0.38099323 -0.78289281 -0.00000001
-0.56982377 -0.11467396 -0.00000022
-0.53633339 0.06456454 -0.00000029
0.64331445 -0.28516583 -0.00000094
0.15201665 0.04709085 -0.00000053
0.35886532 0.37383727 -0.00000024
-0.21380258 -0.47647017 -0.00000020
-0.22995599 0.58862626 0.03609820
-0.48431925 -0.47597734 -0.00000020
-0.45740676 0.36988550 0.05302056
0.14331433 -0.44475349 -0.00000022
0.08169047 0.06581748 -0.00000054
-0.43072543 0.55369931 0.35828347
-0.38128867 0.49595155 0.15005410
-0.70466563 0.16011355 0.12584799
0.20261442 0.27256280 0.00000451
-0.60839162 -0.27156666 -0.00000015
0.09900995 0.05945899 -0.00000054
-0.06110615 0.75188814 0.02524143
0.21532127 0.35224458 -0.00000082
0.31748517 -0.20265897 -0.00000037
0.18443859 -0.05614178 -0.00000046
-0.53796834 -0.55471294 -0.00000015
-0.61383108 0.12803482 -0.00000022
0.29512938 -0.59226629 -0.00000013
-0.04224142 -0.47359266 -0.00000020
0.20242401 0.13411745 -0.00000058
0.44689079 0.10395794 0.00000291
0.61956852 -0.11944179 -0.00000119
-0.47227454 -0.11522886 -0.00000033
-0.75395646 -0.44272529 0.00000000
-0.32537330 0.12487668 -0.00000053
-0.01919385 -0.44005546 -0.00000022
-0.27906817 0.57632741 0.10761585
0.07569782 0.65759897 -0.00000096
-0.42404179 -0.23387291 -0.00000035
-0.53876020 -0.69885933 -0.00000006
-0.44836247 -0.56307810 -0.00000015
-0.35251893 0.62354137 0.34203358
-0.10769828 0.12835005 -0.00000058
0.05273490 0.54344338 0.00000237
-0.34993456 -0.37519772 -0.00000027
0.44333098 0.16633635 0.00000186
0.36005250 0.29460535 0.00000116
0.03308267 0.08709255 0.00001009
-0.27558748 0.37920559 -0.00000063
-0.23232725 -0.36684862 -0.00000027
-0.17055844 -0.10005707 -0.00000044
-0.50232628 0.01457043 -0.00000032
-0.56718547 -0.37809623 -0.00000018
-0.07206284 0.76202072 0.06621198
0.48346933 0.11160405 0.00000208
0.55506067 -0.52394316 -0.00000019
0.29396043 0.06827018 0.00000646
0.20703482 0.11567220 0.00000700
-0.51362492 0.08802965 -0.00000032
0.57008269 -0.72189011 -0.00000005
-0.16098273 -0.11017865 -0.00000043
-0.54352039 -0.63357729 -0.00000010
0.68760991 -0.58963839 -0.00000049
0.24350554 0.04460331 -0.00000053
0.40486631 0.09779719 0.00000383
0.02230908 0.22315467 -0.00000064
0.01979183 0.19152424 0.00000859
-0.19257069 0.54829400 -0.00000075
-0.30196150 0.12893126 -0.00000055
0.30063571 0.40451157 -0.00000119
0.01033288 0.34873285 -0.00000072
0.09614168 0.26283894 -0.00000066
0.10436163 0.05835457 -0.00000054
-0.38671909 -0.49219970 -0.00000019
0.11966545 0.41172415 0.00000350
0.20254750 -0.32913848 -0.00000029
-0.70202980 0.13580533 0.07350370
0.49373375 -0.68620828 -0.00000007
0.20431617 0.29980640 -0.00000069
-0.10342705 -0.64252868 -0.00000010
0.09688752 0.12421066 -0.00000058
-0.14429919 -0.56486006 -0.00000015
-0.36851010 -0.61642203 -0.00000011
0.00787180 0.15820930 0.00000931
-0.60523295 0.22570807 0.06010991
-0.01773211 -0.23475635 -0.00000035
0.04623605 0.53588442 0.00000259
0.42094270 -0.12799903 -0.00000054
-0.70857912 -0.00481121 -0.00000010
0.29954189 -0.06934108 -0.00000046
0.33435788 0.08419913 -0.00000067
-0.00532994 0.30601184 -0.00000069
0.28543475 0.44348535 -0.00000122
-0.13641594 0.51797209 -0.00000080
0.69524692 -0.23739639 -0.00000120
-0.12874477 0.11991728 -0.00000057
0.30684368 0.45485377 -0.00000070
0.53020546 -0.09640839 -0.00000095
0.67567194 0.12365402 -0.00000184
0.21507505 0.07587812 0.00000752
0.26746735 -0.66359785 -0.00000009
0.45934353 -0.17853631 -0.00000056
-0.29137703 0.58323203 0.14494203
-0.47801116 0.52848925 0.40117042
0.10482276 -0.59481385 -0.00000013
-0.01314115 0.76430410 -0.00000098
0.26338931 -0.79302506 -0.00000000
-0.48826214 0.43142501 0.23251651
-0.44996300 -0.09920744 -0.00000036
-0.58816942 0.03802257 -0.00000023
-0.70097886 0.14359099 0.08658724
0.36403732 -0.30339178 -0.00000031
-0.46273797 0.56814133 0.44853177
-0.58350007 -0.36616097 -0.00000016
-0.32676976 0.57501209 0.19773123
-0.19023495 -0.09894243 -0.00000044
-0.11227018 0.43801780 -0.00000077
-0.74340861 0.11134722 0.10637583
-0.58702054 -0.33002491 -0.00000017
0.03520313 0.60210604 -0.00000088
0.78020467 -0.18205527 -0.00000154
-0.31815139 0.48606945 0.00819881
0.35146626 -0.22720062 -0.00000036
0.19818931 -0.51325381 -0.00000018
-0.35944667 0.60476900 0.31902278
0.63055398 0.10322499 -0.00000060
-0.48416650 -0.26351123 -0.00000029
-0.34962123 -0.17541050 -0.00000039
0.41125487 0.04609827 -0.00000085
0.18837519 0.33922087 0.00000365
-0.61327605 0.32937363 0.27712661
0.63248645 -0.79600355 -0.00000000
-0.22425996 -0.03627352 -0.00000048
-0.46146416 -0.72172572 -0.00000005
0.27364621 -0.36263144 -0.00000027
0.33606541 -0.76103980 -0.00000002
0.48160233 0.01385970 -0.00000101
0.36319837 0.13166678 0.00000402
-0.16148297 -0.70915064 -0.00000006
0.29362921 0.11383678 0.00000568
-0.56250060 0.43067030 0.37527501
-0.61913084 0.27339912 0.17975896
-0.53163203 0.44783924 0.34866041
-0.05033261 -0.54506117 -0.00000016
0.59709178 -0.18344636 -0.00000099
-0.70357062 -0.67238499 0.00000000
-0.11805279 -0.39955710 -0.00000025
-0.35316228 -0.56485781 -0.00000015
0.42640964 -0.39640194 -0.00000025
-0.22238421 0.62165737 0.08555806
-0.59195886 -0.47451377 -0.00000014
-0.01913726 -0.26424045 -0.00000033
-0.37731776 0.16989680 -0.00000048
0.06540332 0.62859654 0.00000080
-0.22069862 0.63331057 0.10492213
-0.40937655 0.48821351 0.18958795
0.04674428 -0.79851375 -0.00000000
-0.36553458 0.28405291 -0.00000052
0.32888483 -0.70380040 -0.00000006
0.73885150 -0.10403839 -0.00000160
-0.69783913 0.15584725 0.10429792
-0.01835822 -0.59943027 -0.00000013
0.55978087 0.15775265 -0.00000022
0.23525503 0.48921266 0.00000006
-0.34300640 0.29246500 -0.00000054
0.09829391 0.21984949 -0.00000064
-0.66146873 0.21389471 0.14640980
-0.62402022 0.18236495 0.01240533
-0.09665692 0.48773729 -0.00000080
0.58556488 0.14919544 -0.00000160
-0.33310690 -0.50561625 -0.00000018
0.46803285 0.25234376 -0.00000016
-0.25980732 0.49292240 -0.00000067
-0.32350461 0.10319160 -0.00000053
0.02713047 0.21166386 0.00000815
0.06250399 0.30004443 0.00000618
0.17308898 0.42696941 -0.00000083
-0.18540667 0.63865439 0.04674165
0.43873431 0.06237475 -0.00000097
0.01751971 -0.36531333 -0.00000027
-0.40323861 -0.33121045 -0.00000029
0.34598224 -0.54026948 -0.00000016
0.30042817 -0.70639144 -0.00000006
-0.52205934 0.49318549 0.41815844
0.26993923 0.10282796 0.00000626
0.05936616 0.51579475 0.00000272
-0.43065333 -0.10201731 -0.00000038
-0.43400725 -0.76011624 -0.00000002
-0.14716426 -0.47195127 -0.00000021
-0.02906447 0.76129498 -0.00000096
-0.50587169 -0.06811430 -0.00000030
-0.72041429 -0.40070558 -0.00000001
-0.41644114 -0.58949240 -0.00000013
0.15261199 -0.22610996 -0.00000036
0.15723332 -0.08489251 -0.00000045
-0.39598124 0.49807606 0.18272476
0.79408908 -0.46840777 -0.00000083
0.36972858 -0.36045810 -0.00000027
-0.65563432 0.10654980 -0.00000017
-0.79469604 -0.14084762 0.00000000
-0.49478571 0.21695768 -0.00000037
0.47394797 -0.66519689 -0.00000008
-0.62646176 -0.76521884 -0.00000002
-0.36544403 0.06357387 -0.00000048
-0.21979866 -0.01578604 -0.00000049
-0.75285819 0.06370631 0.03218153
0.30325357 -0.31502387 -0.00000030
-0.01740123 0.25779015 -0.00000066
-0.52509237 -0.43954388 -0.00000021
-0.46208446 0.44800692 0.21387461
0.37549870 -0.69934842 -0.00000006
0.16760133 -0.34566199 -0.00000028
-0.35332066 -0.07942619 -0.00000045
-0.28979093 -0.27764490 -0.00000033
-0.11648462 -0.08827132 -0.00000044
0.47307996 -0.10338871 -0.00000075
-0.50655614 0.19316349 -0.00000035
-0.40474984 0.17799278 -0.00000045
-0.59644449 0.27377677 0.13641966
-0.05019680 0.57282649 -0.00000086
0.33973172 0.08978843 0.00000523
-0.08224247 0.07283816 -0.00000055
-0.32728982 -0.31825263 -0.00000030
-0.53437686 -0.39372106 -0.00000021
-0.28022040 -0.62064281 -0.00000011
0.09071052 0.09487241 -0.00000056
0.56850333 -0.29856657 -0.00000068
0.06467182 0.13467484 -0.00000058
0.55632295 -0.22380614 -0.00000078
-0.22422418 -0.07630636 -0.00000045
-0.79593775 -0.43515072 0.00000000
-0.13701000 0.71258555 0.09634755
-0.55295493 0.34649923 0.19321023
-0.62244087 0.04944362 -0.00000020
-0.04161362 -0.35693090 -0.00000028
0.21979707 0.42154503 0.00000157
-0.45255530 0.00630563 -0.00000037
0.16601198 -0.75639886 -0.00000003
0.46206079 -0.42750920 -0.00000023
-0.45909603 0.13925614 -0.00000039
0.55627487 -0.10682114 -0.00000101
-0.10983704 0.51566966 -0.00000082
-0.49358827 -0.58954492 -0.00000013
-0.22173683 0.06787043 -0.00000054
-0.54335796 0.09053600 -0.00000029
0.44112274 -0.62189589 -0.00000011
0.26386269 -0.75804086 -0.00000003
-0.03713248 0.47650523 -0.00000080
-0.08784730 -0.79259545 -0.00000000
0.30017649 -0.16817237 -0.00000039
0.62087818 -0.15244025 -0.00000113
-0.33380810 0.08638637 -0.00000051
-0.08446992 -0.19194928 -0.00000038
0.62739961 0.11950052 -0.00000083
-0.24541339 0.40495184 -0.00000067
-0.45144726 0.23108578 -0.00000041
-0.75949132 -0.66800733 0.00000000
-0.26344310 0.66895742 0.25721470
-0.37055506 -0.56439785 -0.00000015
0.70046928 -0.76670659 -0.00000008
-0.50500637 -0.78906293 -0.00000001
0.64405571 -0.50951952 -0.00000051
-0.61149318 0.33181221 0.27840044
0.52528790 -0.12436011 -0.00000088
-0.15924769 0.04050698 -0.00000053
0.19756178 0.04212288 -0.00000053
-0.37941375 -0.17398642 -0.00000039
0.15215185 -0.32926242 -0.00000029
0.76370702 -0.04860378 -0.00000179
0.08290401 0.48026415 0.00000294
-0.67773210 -0.13059864 -0.00000011
0.27024458 -0.34932913 -0.00000028
0.40117845 -0.04544047 -0.00000063
-0.29701960 -0.43173196 -0.00000023
0.07878392 0.34022766 -0.00000071
-0.68841476 0.03715127 -0.00000013
0.01072384 0.41891517 0.00000503
0.30498608 0.24336161 0.00000314
-0.58958247 0.20597890 -0.00000026
-0.73265702 -0.42050833 0.00000000
0.58975750 -0.06430455 -0.00000120
-0.60856651 -0.20676233 -0.00000017
0.63022188 0.04217430 0.00000050
0.61036000 -0.55035750 -0.00000032
0.39776815 0.22717703 -0.00000116
0.42490451 0.35494002 -0.00000117
-0.57963910 -0.01990264 -0.00000023
-0.21640639 0.28876621 -0.00000068
0.10874405 0.15786109 -0.00000060
-0.44517773 -0.06745444 -0.00000037
-0.67458372 0.14665632 0.04126422
0.34830999 0.20478559 0.00000300
-0.20931944 -0.27597579 -0.00000033
-0.42868121 0.12996421 -0.00000042
-0.66355099 0.25064325 0.22184648
-0.28553284 -0.08196920 -0.00000045
0.10309207 0.14618373 -0.00000059
0.05171635 0.19225195 0.00000810
0.66867705 -0.41104476 -0.00000078
-0.32920624 0.59854026 0.24817332
-0.54000784 0.08398347 -0.00000029
0.05253624 0.38792963 0.00000490
-0.26639448 -0.43613623 -0.00000023
-0.14463945 0.25402288 -0.00000066
0.68767364 -0.41650548 -0.00000083
0.22565409 -0.52397142 -0.00000017
-0.21892567 0.68886857 0.20941151
0.05147652 0.28542094 -0.00000068
0.29598154 0.14468091 0.00000508
0.12612135 -0.38568740 -0.00000026
-0.17144180 -0.14680299 -0.00000041
0.28996003 0.47895594 -0.00000080
-0.67318243 0.19540878 0.13325345
-0.06164195 0.49566530 -0.00000081
-0.18735263 0.41857615 -0.00000073
-0.65511533 -0.53805227 -0.00000006
-0.06020508 -0.54054663 -0.00000016
0.13873648 -0.31082363 -0.00000031
-0.08990823 0.18107076 -0.00000061
-0.64440265 -0.56218601 -0.00000006
-0.36098830 0.50791429 0.13385646
0.52465513 -0.12476105 -0.00000088
-0.63600721 -0.79691852 -0.00000000
-0.59850849 0.37343033 0.33402705
-0.11222791 -0.07724492 -0.00000045
0.02120913 0.37497468 0.00000559
0.03070801 0.16227547 -0.00000060
-0.47713297 0.44801067 0.24311691
-0.42890426 0.55082638 0.34916415
-0.43388226 -0.61700403 -0.00000011
-0.61797775 -0.14793143 -0.00000017
-0.30918017 -0.21522192 -0.00000037
-0.18598547 -0.78977871 -0.00000001
0.60878863 0.11943139 -0.00000047
0.58275663 -0.11470066 -0.00000108
-0.44872095 -0.05640375 -0.00000036
-0.60414803 -0.76316438 -0.00000002
0.58317498 0.19818162 -0.00000169
-0.35384129 -0.66751940 -0.00000008
0.26456312 0.27679346 -0.00000083
0.25816948 0.15863614 0.00000553
-0.23477288 0.57318582 0.01545986
-0.06433788 -0.51260223 -0.00000018
0.11058151 -0.04650191 -0.00000047
0.67337514 -0.37030177 -0.00000087
0.33832112 -0.58666316 -0.00000013
0.00156103 -0.73683321 -0.00000004
-0.57762160 0.39724605 0.33971691
-0.27129026 -0.19568617 -0.00000038
0.10229460 0.54774304 0.00000156
0.04131479 -0.43369103 -0.00000023
0.54953539 -0.58222325 -0.00000014
0.03805403 0.66974288 -0.00000092
-0.04199077 0.02595528 -0.00000052
0.38148823 -0.22890979 -0.00000036
-0.70429194 -0.50947015 -0.00000001
-0.37559442 0.58527306 0.31251823
-0.11496888 0.69275716 0.01500713
0.05260232 -0.42355378 -0.00000024
-0.09489621 0.01269715 -0.00000051
-0.30609563 -0.77578575 -0.00000002
0.53761120 -0.36159486 -0.00000045
0.36473025 0.15291407 0.00000361
-0.01153822 -0.33916165 -0.00000029
0.10650912 0.47319750 -0.00000080
0.29963546 0.10398235 0.00000574
0.08490995 0.38570910 0.00000445
0.17320389 0.22036598 0.00000581
0.58823694 0.12483483 -0.00000157
0.46151709 -0.51183627 -0.00000018
0.01749708 0.03836516 0.00001111
0.36446276 0.30161186 0.00000095
0.02890637 0.10318217 0.00000989
-0.43281155 0.43413597 0.13005878
-0.04093750 -0.77827740 -0.00000001
-0.22173152 0.63695885 0.11401638
0.22958852 0.02889345 -0.00000052
0.74780408 -0.69347994 -0.00000027
-0.00799648 -0.08079253 -0.00000045
0.11366210 -0.31884599 -0.00000030
-0.31581653 0.61218101 0.24866099
-0.09665967 0.67328960 -0.00000087
-0.30896287 -0.61461568 -0.00000012
-0.16657282 0.63562131 0.00426058
0.37288857 0.35742935 -0.00000133
-0.40935039 0.57972838 0.36732493
0.22561510 -0.27712961 -0.00000033
0.57802142 -0.02717921 -0.00000124
-0.16515007 -0.24273958 -0.00000035
0.09948606 0.59317981 -0.00000091
0.15411624 -0.04122848 -0.00000047
-0.40371750 -0.30538546 -0.00000031
-0.37386415 -0.64782723 -0.00000010
-0.44262479 0.54955743 0.37335412
-0.26480467 -0.01074964 -0.00000049
0.17764977 -0.54029172 -0.00000016
0.02647486 -0.23874487 -0.00000035
-0.46987900 0.52347335 0.37562738
0.06893176 0.72157050 -0.00000092
-0.20218288 -0.36717518 -0.00000027
-0.09050272 -0.74277097 -0.00000004
-0.35996502 0.62090717 0.35138176
-0.43890541 0.48304238 0.23690821
0.22682385 -0.31121265 -0.00000031
-0.63545031 -0.17247676 -0.00000014
0.54196105 0.18094834 -0.00000153
0.39346357 0.25440409 -0.00000120
0.00846715 0.34683806 0.00000624
0.64016971 -0.15525205 -0.00000119
0.37654183 -0.28950872 -0.00000032
0.27258437 -0.69767655 -0.00000006
-0.38976849 0.52157339 0.21630381
-0.35855057 0.36808193 -0.00000054
-0.39993081 -0.68851828 -0.00000007
0.24175245 0.32672267 -0.00000085
0.21016507 0.06914323 -0.00000054
-0.52070993 -0.21808634 -0.00000026
0.16122188 -0.59244429 -0.00000013
-0.20826958 -0.48316800 -0.00000020
-0.60360697 0.21500894 0.03616590
-0.32864990 -0.03821098 -0.00000048
0.20907182 -0.09614294 -0.00000044
-0.31705921 0.58567429 0.19958002
-0.74651097 -0.48772758 0.00000000
-0.05546983 -0.33668785 -0.00000029
-0.49698679 -0.12632171 -0.00000030
0.75223506 0.02294925 -0.00000149
0.70916275 -0.25531000 -0.00000121
-0.30838855 -0.52549767 -0.00000017
-0.24185803 -0.78813584 -0.00000001
-0.06873806 -0.60708962 -0.00000012
0.24358885 -0.77164773 -0.00000002
-0.46434782 0.51469309 0.34782422
0.45150389 -0.31504374 -0.00000030
-0.38350773 0.39479456 -0.00000052
-0.31233944 0.01490724 -0.00000051
0.16605861 0.04407231 -0.00000053
0.13126962 0.04865453 -0.00000053
-0.23675610 0.29826048 -0.00000066
-0.07684250 -0.41191248 -0.00000024
-0.01612039 -0.30920998 -0.00000031
0.12912484 -0.17646642 -0.00000039
-0.65248780 -0.62884748 -0.00000004
0.58940516 0.10012926 -0.00000152
0.56453078 -0.44179260 -0.00000038
0.02097653 -0.37254385 -0.00000027
0.25398216 -0.29640802 -0.00000031
-0.55047537 -0.69540637 -0.00000007
-0.17260172 0.64320169 0.03069940
0.09980146 0.29591733 -0.00000068
-0.62410387 0.17486384 -0.00000022
-0.35219586 0.51933091 0.13895440
-0.07830190 -0.45121727 -0.00000022
-0.65035878 -0.45887789 -0.00000008
0.21865542 0.23199289 -0.00000064
0.34773588 0.44121828 -0.00000141
-0.15666872 -0.16294497 -0.00000040
0.44111917 0.19885188 -0.00000124
0.35807444 0.16825332 -0.00000091
0.39713457 -0.47909053 -0.00000020
-0.06868527 0.26563353 -0.00000067
0.46963955 -0.42687972 -0.00000023
-0.34099156 0.52512404 0.12844204
0.57137219 -0.31737022 -0.00000065
-0.43476533 0.06703775 -0.00000040
0.29078137 0.19368360 -0.00000075
-0.39488815 0.58525096 0.34995764
-0.56673010 0.32347430 0.17524077
-0.23942967 -0.56664429 -0.00000015
-0.67902051 0.21837000 0.18920193
-0.23406990 0.18389553 -0.00000061
-0.04471757 -0.64841840 -0.00000009
-0.01973804 -0.76389577 -0.00000002
-0.03132017 -0.37261705 -0.00000027
0.61378873 0.09713939 -0.00000159
0.36089285 0.29072012 -0.00000116
0.08694747 -0.32651098 -0.00000030
0.03607173 0.61709183 0.00000143
-0.52849194 -0.07019870 -0.00000028
-0.52512331 0.47240836 0.38374671
-0.16028524 -0.46185965 -0.00000021
0.56621359 -0.75241993 -0.00000003
-0.20990422 -0.58845134 -0.00000013
0.10021539 -0.07431072 -0.00000045
0.77570733 -0.08693941 -0.00000175
-0.24304326 0.65361606 0.18777949
-0.72424053 -0.13296431 -0.00000006
0.51459468 0.08323160 0.00000199
-0.77602150 0.04316952 0.03728419
-0.66765212 -0.58527125 -0.00000003
-0.17210044 -0.73570491 -0.00000004
-0.56674141 0.34471754 0.21653204
-0.16449000 0.03019620 -0.00000052
0.08983448 0.49629501 -0.00000081
0.61863996 0.12183223 -0.00000166
-0.65882453 -0.61924281 -0.00000004
-0.04503503 0.66239682 -0.00000091
-0.54319824 -0.59946270 -0.00000013
-0.52175608 0.46118878 0.35540862
0.23611217 0.42193606 -0.00000102
0.09948912 0.27233779 -0.00000067
-0.00393263 0.67477247 -0.00000092
0.36249653 0.06660928 -0.00000073
-0.47253796 -0.09947643 -0.00000033
0.46343442 0.03402290 0.00000385
-0.79791595 -0.08442191 0.00000000
-0.44497468 0.38779944 0.06367011
-0.26478175 -0.29903195 -0.00000031
-0.09344704 0.75150750 0.08733130
0.27649388 0.26571369 -0.00000084
-0.25399812 0.15568475 -0.00000060
0.50763345 0.26406778 -0.00000158
0.23369435 0.24956911 0.00000439
0.28579061 -0.48004156 -0.00000020
-0.19739028 -0.75388992 -0.00000003
-0.01303959 -0.32134222 -0.00000030
-0.26333212 0.21688625 -0.00000061
0.28875091 0.25560868 0.00000323
-0.01029752 -0.72136669 -0.00000005
-0.43542726 0.22367384 -0.00000043
0.39933789 0.21372010 0.00000186
0.21940571 0.49665301 0.00000023
-0.41092922 0.25323998 -0.00000046
-0.29110626 -0.01576491 -0.00000049
0.42941819 -0.69655468 -0.00000006
-0.42427368 0.05737928 -0.00000041
0.02524723 -0.01920401 -0.00000049
-0.54971981 0.33341953 0.16151537
0.50321686 0.13413660 0.00000129
-0.05831056 -0.00654077 -0.00000050
0.73817283 -0.38486020 -0.00000104
-0.59085744 0.14184043 -0.00000025
-0.09505781 -0.34999214 -0.00000028
-0.28227918 0.10196018 -0.00000056
0.04370653 0.50480913 -0.00000082
0.71771445 -0.45620598 -0.00000085
-0.51068322 0.29426294 0.00960908
0.09771231 -0.51397271 -0.00000018
-0.54644556 0.50428889 0.48710492
-0.53617005 0.42513921 0.31337669
0.22729353 0.10987655 0.00000678
-0.69344076 -0.07142833 -0.00000010
-0.32389099 0.26085165 -0.00000056
-0.53742731 0.49762811 0.45664492
-0.21545167 0.51416128 -0.00000072
-0.50837482 -0.77376018 -0.00000002
0.59568773 0.08179726 0.00000046
0.71835612 -0.52321982 -0.00000069
-0.42206098 0.45707893 0.15374489
-0.39266234 0.43234572 0.04858266
-0.07789222 -0.52556941 -0.00000017
-0.74009743 -0.53126835 0.00000000
0.46249440 0.30137705 -0.00000093
-0.16623514 -0.31184884 -0.00000031
0.09022171 -0.71728635 -0.00000005
-0.43951696 0.36178735 0.00253360
0.47597489 0.24457076 -0.00000144
-0.39668659 0.57654525 0.33653874
0.53940466 -0.79428714 -0.00000000
-0.35257099 -0.19813642 -0.00000038
0.02697953 0.40671297 0.00000498
-0.05474777 0.28863451 -0.00000068
0.79621243 -0.66611569 -0.00000033
-0.71753605 -0.32242945 -0.00000003
-0.65208675 -0.64660399 -0.00000004
0.63262390 -0.37906019 -0.00000072
-0.18567666 -0.00139234 -0.00000050
0.01066768 0.19346553 0.00000870
0.04376348 -0.02488187 -0.00000048
0.07270292 0.36742430 -0.00000073
-0.37881301 0.38410880 -0.00000052
0.07381518 0.18988356 0.00000780
0.04215468 0.68114998 0.00000030
-0.29131849 0.64970186 0.27396066
-0.34737278 0.34801407 -0.00000055
0.19354824 0.43431592 -0.00000091
0.16568699 0.21725088 -0.00000064
0.55403850 -0.32664648 -0.00000058
-0.13616980 -0.46090587 -0.00000021
0.43696019 0.34518609 -0.00000151
0.53328848 -0.59481582 -0.00000013
-0.55786878 0.25230338 0.01976191
0.15252974 -0.08400242 -0.00000045
-0.66310254 -0.33256293 -0.00000009
0.45752186 0.10865168 -0.00000112
-0.22068645 -0.73669972 -0.00000004
-0.52030519 -0.69276328 -0.00000007
0.73649005 -0.29658064 -0.00000122
0.29063539 -0.57583774 -0.00000014
0.39975112 0.18911760 -0.00000109
-0.16321092 0.51185508 -0.00000077
-0.06372192 0.48110766 -0.00000080
-0.08487003 0.30886928 -0.00000069
0.20191647 0.59072451 -0.00000124
0.25373725 0.03876835 0.00000754
0.24433710 -0.29863562 -0.00000031
-0.44554170 -0.25811913 -0.00000033
0.66516663 -0.08427698 -0.00000140
0.26733724 -0.70327620 -0.00000006
0.46685005 0.24651823 -0.00000141
0.17784143 -0.72214671 -0.00000005
-0.19286057 -0.54260800 -0.00000016
0.44997082 -0.22018804 -0.00000045
0.10203514 -0.46616069 -0.00000021
-0.52641575 0.17519884 -0.00000032
0.28479792 -0.36420197 -0.00000027
-0.36006398 0.54464794 0.20342359
0.64658677 -0.03215092 -0.00000145
0.25234389 -0.05042522 -0.00000047
-0.30814669 -0.51853712 -0.00000018
0.33848240 0.03616249 0.00000621
0.16939926 0.42086623 -0.00000080
-0.28117458 0.52840820 0.01861524
0.41135574 0.35271183 -0.00000144
-0.15730973 0.66255435 0.03858799
0.02556081 0.38367325 -0.00000074
0.27497438 -0.55761712 -0.00000015
-0.28862751 0.13867678 -0.00000057
0.23235073 0.09041215 -0.00000056
-0.57595697 0.31344875 0.17368924
0.03453548 -0.02966192 -0.00000048
0.24690212 -0.61154510 -0.00000012
0.17418328 0.38712125 0.00000307
-0.36247569 -0.36568207 -0.00000027
-0.14613043 0.05734160 -0.00000054
-0.49034413 -0.15728246 -0.00000030
0.19939635 0.17960094 -0.00000061
-0.24453630 0.66024096 0.20355037
-0.35215912 0.42618212 -0.00000056
-0.13440778 0.10398689 -0.00000056
0.14126257 0.47725500 -0.00000082
0.08305227 0.62402541 -0.00000092
0.05881121 0.57050358 -0.00000086
0.30229016 0.16982055 -0.00000074
0.28313630 -0.15502241 -0.00000040
-0.76762095 -0.58077075 0.00000000
-0.44401725 0.24852881 -0.00000043
-0.35652570 0.55515957 0.21697086
0.64382072 -0.45652327 -0.00000061
-0.36580350 -0.71329171 -0.00000005
0.76246886 -0.67312394 -0.00000032
0.22576998 0.17043290 0.00000582
0.03511669 0.53256133 -0.00000083
-0.74875909 -0.60688200 0.00000000
0.15670302 -0.68038573 -0.00000007
0.17634565 -0.51204477 -0.00000018
-0.51703530 0.29395124 0.02134377
-0.26008765 -0.25678273 -0.00000034
-0.38814415 0.50864494 0.18803177
-0.29064804 0.50597441 -0.00000064
-0.58842037 -0.00762385 -0.00000022
-0.04545902 -0.03236158 -0.00000048
-0.51856634 0.45697010 0.34101611
0.74877500 -0.04592980 -0.00000175
0.04988322 0.39899418 -0.00000075
-0.06826662 -0.19898309 -0.00000038
-0.64418783 0.05996392 -0.00000018
-0.70995496 0.12705586 0.07190237
-0.44084079 0.27782436 -0.00000043
0.08946439 0.51287586 -0.00000082
0.05055944 0.08002273 -0.00000055
0.53505201 0.10535301 0.00000120
0.22277338 -0.53549585 -0.00000017
0.01457251 -0.26341356 -0.00000034
0.34160985 -0.51189539 -0.00000018
0.64556626 -0.08804545 -0.00000133
-0.56416079 -0.66182418 -0.00000009
-0.07664966 -0.58312531 -0.00000014
0.53017295 0.04034585 0.00000246
0.47752057 0.29690442 -0.00000114
-0.53048183 0.46124977 0.37247881
-0.57423843 0.40591318 0.34998217
0.42815437 -0.40184900 -0.00000025
-0.66393808 -0.30496673 -0.00000009
-0.01867622 0.36321670 -0.00000073
0.26818108 -0.20271391 -0.00000037
0.29905295 -0.70292830 -0.00000006
-0.17872521 0.41281555 -0.00000074
-0.25859402 -0.40626484 -0.00000025
-0.02081219 0.49418729 -0.00000081
0.01086901 0.08774978 -0.00000055
0.41609508 0.09676607 0.00000364
-0.32812739 0.14409932 -0.00000053
-0.50075943 -0.46119500 -0.00000021
0.45746223 -0.35281336 -0.00000028
0.44070272 0.30432729 -0.00000056
0.01561347 0.40858971 0.00000512
0.09350269 0.67043431 -0.00000105
0.66962828 -0.67174716 -0.00000027
-0.67976076 0.07263853 -0.00000014
-0.14340864 0.19971840 -0.00000062
-0.60622186 0.04410148 -0.00000021
-0.67387634 0.06259506 -0.00000015
-0.75670988 -0.46693236 0.00000000
-0.45719169 -0.38960057 -0.00000026
0.07042081 -0.07447603 -0.00000045
0.19771459 -0.06769054 -0.00000046
-0.43767596 0.55851023 0.38113270
-0.54855035 -0.44533915 -0.00000019
-0.52168942 0.52345362 0.47624232
-0.31207274 0.51052110 0.04389205
0.74820100 -0.49117320 -0.00000077
0.62069274 0.09656233 -0.00000161
-0.37114328 0.52624713 0.18919996
0.11855727 -0.52867284 -0.00000017
0.51460992 -0.63509524 -0.00000010
0.29761353 0.07160413 0.00000635
0.33058752 -0.26603356 -0.00000033
-0.12241137 0.46175981 -0.00000079
-0.68594103 0.11584635 0.00347357
0.31619438 0.46092924 -0.00000098
-0.49185769 -0.78465675 -0.00000001
-0.14618348 0.53990960 -0.00000080
0.31026739 -0.44974220 -0.00000022
0.06220667 0.13906653 -0.00000059
-0.17492921 0.42652533 -0.00000074
-0.66385351 -0.63757070 -0.00000003
-0.12628173 0.71277605 0.07587557
-0.48048336 0.39543593 0.14748853
0.49882644 -0.66455114 -0.00000008
-0.27162909 0.38588999 -0.00000063
0.66739490 0.10889006 -0.00000141
-0.05716405 0.04240763 -0.00000053
-0.61631750 -0.66150825 -0.00000007
-0.30857492 0.46276152 -0.00000061
0.47949242 -0.44601795 -0.00000022
-0.62667413 0.32279698 0.29037870
0.38544494 0.19616173 0.00000244
-0.45467790 0.21703635 -0.00000041
-0.00345731 0.72333683 -0.00000095
0.26483689 0.20544584 0.00000459
-0.29928591 -0.21398969 -0.00000037
0.10482448 -0.64991936 -0.00000009
-0.03144468 -0.15830649 -0.00000040
-0.21941170 -0.11310385 -0.00000043
-0.63302056 0.16723296 0.00049341
-0.09457175 0.54466635 -0.00000084
-0.17301035 -0.38130809 -0.00000026
0.44533462 0.05334597 -0.00000097
-0.76234526 -0.06024445 -0.00000003
-0.01033685 -0.79055995 -0.00000001
-0.18112222 -0.25877233 -0.00000034
0.16114597 0.32841465 -0.00000071
-0.38342245 -0.43840792 -0.00000023
-0.58406566 -0.21176554 -0.00000019
-0.22604721 0.60848467 0.06708356
0.32739871 0.21164360 -0.00000090
0.59262633 -0.12169790 -0.00000110
0.25077911 -0.61866278 -0.00000011
-0.37077869 0.28102548 -0.00000051
-0.50471763 0.36568212 0.13676585
0.02950818 -0.27274361 -0.00000033
0.28293017 -0.69826847 -0.00000006
-0.57136843 -0.11192356 -0.00000022
-0.11112879 0.06136553 -0.00000054
-0.43906095 0.41363323 0.10236880
-0.08348158 -0.22643829 -0.00000036
-0.02108036 -0.36542903 -0.00000027
0.45126283 -0.74037650 -0.00000004
-0.43576553 0.58262860 0.42427654
0.73778883 -0.39256745 -0.00000102
-0.06687815 -0.62490892 -0.00000011
-0.43421386 -0.22031614 -0.00000035
-0.65098713 -0.26444549 -0.00000011
-0.16012267 0.69908311 0.11501757
0.16362949 0.47262088 -0.00000089
0.10156702 0.05019041 -0.00000053
0.45700285 -0.29795885 -0.00000032
-0.49127347 0.49320364 0.35838530
0.46406168 -0.00538586 -0.00000091
0.04988359 -0.52905740 -0.00000017
-0.24061631 -0.49649937 -0.00000019
-0.75070711 -0.50346690 0.00000000
0.19102659 0.03668378 -0.00000052
-0.08247126 -0.41841585 -0.00000024
-0.41089583 0.39861143 0.01846931
-0.39448141 0.54352400 0.26810361
0.28449935 -0.51931786 -0.00000018
-0.72380331 -0.10457191 -0.00000006
-0.49751991 0.47598176 0.33706309
-0.71144244 -0.38669079 -0.00000002
0.17350698 0.02097961 0.00000904
-0.73470762 -0.36638826 -0.00000000
-0.20840222 -0.70278828 -0.00000006
0.58706713 0.13092225 -0.00000026
0.23642640 -0.28204791 -0.00000032
-0.63010613 -0.79034156 -0.00000001
0.14268669 -0.16320935 -0.00000040
-0.41275272 -0.24026603 -0.00000035
0.11159489 0.26114457 0.00000607
-0.40221094 0.32164470 -0.00000048
0.20301478 0.31865917 -0.00000071
-0.29072224 0.00819997 -0.00000051
0.44258271 0.09343739 -0.00000104
0.18551535 0.16105661 -0.00000060
-0.52884433 0.12046577 -0.00000031
-0.25089096 -0.15138774 -0.00000041
0.10987651 -0.14934116 -0.00000041
-0.32195748 0.61371143 0.26356434
-0.61107017 0.28391814 0.18453476
0.09335465 -0.41266973 -0.00000024
0.66899676 -0.26616111 -0.00000106
0.22035892 0.16860072 0.00000594
-0.47358353 0.53211358 0.39960982
0.04116198 -0.13233039 -0.00000042
0.29649163 -0.34640340 -0.00000028
0.05404214 0.70996212 -0.00000100
0.43277079 -0.56832540 -0.00000014
0.70709780 0.05340920 -0.00000117
0.10149653 0.62665853 0.00000016
-0.36037301 -0.51219645 -0.00000018
-0.08168820 0.01559911 -0.00000051
0.35714292 -0.31469567 -0.00000030
0.16902950 0.28255059 0.00000486
0.29207826 0.04615294 -0.00000053
-0.77580421 -0.74438630 0.00000000
0.14665668 -0.39871472 -0.00000025
0.26318397 -0.44932039 -0.00000022
0.35240979 0.26563700 0.00000183
0.39350853 -0.14656252 -0.00000041
0.48159468 -0.34719189 -0.00000030
-0.71455352 -0.51763927 0.00000000
0.11915114 0.20589672 0.00000686
0.53300817 -0.68299477 -0.00000007
0.35073456 0.06038430 0.00000554
-0.07151353 0.41954852 -0.00000076
0.45381055 -0.51088089 -0.00000018
0.66800393 -0.04832844 -0.00000148
0.15742853 -0.29234636 -0.00000032
0.33941370 0.09281409 -0.00000071
0.12207685 0.24385656 0.00000620
0.69610350 0.04330632 -0.00000175
-0.03413375 -0.67061151 -0.00000008
0.44594490 -0.47115391 -0.00000021
0.12400651 0.24547420 0.00000614
-0.24730790 -0.03317200 -0.00000048
-0.36230846 -0.43645824 -0.00000023
-0.60834021 0.28346487 0.17835067
0.60210383 0.12001238 -0.00000035
0.09382900 0.03844220 0.00000996
-0.57682517 -0.19620320 -0.00000020
0.64608079 -0.79719070 -0.00000000
0.06937739 -0.05092417 -0.00000047
0.32902505 0.12811000 0.00000474
0.41416934 -0.08025756 -0.00000061
0.08109639 -0.47317072 -0.00000020
0.00316515 -0.31780990 -0.00000030
-0.45634640 0.31307869 -0.00000042
-0.58455239 0.02483504 -0.00000023
0.23988089 -0.22815819 -0.00000036
0.04706899 0.68016237 0.00000024
-0.69619485 0.08540429 -0.00000013
0.00748257 0.71747645 0.00000023
-0.55519076 0.02423903 -0.00000027
0.08500371 0.33513581 -0.00000071
-0.34572486 -0.43878410 -0.00000023
-0.51227678 0.49202969 0.39690825
0.53095638 0.20139252 -0.00000045
-0.00719342 -0.70008147 -0.00000006
0.10913349 0.66683087 -0.00000070
-0.46954960 -0.21932812 -0.00000031
-0.60523671 -0.03024051 -0.00000020
-0.24119300 0.11817153 -0.00000057
-0.39608324 0.52385687 0.23300776
-0.67198519 -0.03172282 -0.00000013
0.29328074 0.39589980 0.00000062
-0.73786039 -0.16358716 -0.00000004
0.11875985 -0.69454210 -0.00000007
-0.09319093 0.37262886 -0.00000073
0.72395664 -0.28991271 -0.00000119
0.39298643 0.28874795 0.00000063
0.26398338 0.20700409 0.00000458
-0.56544543 0.36469401 0.25282266
-0.29545848 0.40608674 -0.00000061
0.05108934 0.63040769 -0.00000089
0.75520452 -0.28574181 -0.00000129
-0.07978589 0.32629676 -0.00000070
0.69450056 -0.57523778 -0.00000054
0.36247492 0.01159140 -0.00000062
0.33277630 -0.41134387 -0.00000024
0.00421132 0.50534772 -0.00000082
-0.26114877 -0.41048846 -0.00000024
0.00009487 0.69402089 -0.00000093
0.15365086 0.05044357 -0.00000053
-0.64174266 -0.46610920 -0.00000008
-0.42964580 -0.35326198 -0.00000028
0.06164855 0.32776780 -0.00000070
0.01757018 0.21886335 -0.00000064
-0.30734522 -0.50611869 -0.00000018
0.04475548 -0.48344679 -0.00000020
-0.61867800 0.13830763 -0.00000022
0.57200003 -0.56369308 -0.00000017
0.29587927 0.40879524 0.00000034
0.66828788 -0.67802177 -0.00000026
0.76189382 -0.16793899 -0.00000155
0.54984895 -0.08128487 -0.00000104
0.74676595 0.04578019 -0.00000192
0.28896950 0.10379820 -0.00000057
0.43242079 0.00343930 -0.00000083
0.60758643 0.14000202 -0.00000166
0.38636622 -0.19445710 -0.00000038
-0.66529833 -0.17926698 -0.00000011
0.29287666 -0.34096456 -0.00000029
0.25891198 -0.71981918 -0.00000005
0.62925329 -0.16791815 -0.00000113
0.44041154 0.03833095 -0.00000092
0.77567708 -0.77541868 -0.00000006
-0.76924647 -0.54935536 0.00000000
0.56402736 0.14822120 -0.00000013
0.56539885 -0.62968868 -0.00000011
-0.45656023 0.16787808 -0.00000040
-0.00142709 -0.68778800 -0.00000007
-0.55951459 -0.15912759 -0.00000023
-0.16635915 0.04460507 -0.00000053
0.42729749 -0.37799569 -0.00000026
0.60408184 -0.75981163 -0.00000003
-0.15648628 0.66427260 0.04032631
0.05380995 0.00707925 0.00001107
0.36692670 0.21222566 0.00000251
0.50016234 -0.72330327 -0.00000005
0.13593598 0.27850784 -0.00000067
0.18483742 0.09673304 -0.00000056
-0.12417642 0.05882279 -0.00000054
0.03156610 0.64683642 0.00000101
-0.56593889 -0.52600326 -0.00000015
0.09918961 0.37517963 -0.00000073
0.09149785 0.11294709 0.00000878
-0.38966778 0.41383676 0.00680770
-0.62005403 -0.01049433 -0.00000019
-0.50977161 -0.21602830 -0.00000027
-0.25392664 0.56428820 0.03538460
0.24748953 -0.52046692 -0.00000017
-0.44814360 -0.77928183 -0.00000001
0.25264218 -0.65350700 -0.00000009
0.61204732 0.12370063 -0.00000164
0.09324517 0.13592444 0.00000838
-0.51363795 0.53262427 0.47841658
0.57487757 0.15916884 -0.00000159
-0.60692429 0.36400818 0.33207200
0.59197850 -0.20884408 -0.00000093
-0.68790779 0.13171520 0.03812285
-0.50337258 -0.58033340 -0.00000014
-0.20817028 0.64331084 0.10001080
-0.64322473 -0.32929724 -0.00000011
-0.32564257 0.31808390 -0.00000056
-0.11152368 -0.25227699 -0.00000034
-0.11658788 -0.08116055 -0.00000045
-0.52087784 0.52882569 0.48510208
0.57871399 0.04058799 0.00000152
0.22984478 -0.18302090 -0.00000039
-0.18832988 -0.19866040 -0.00000038
-0.01243691 -0.43791032 -0.00000023
0.55112072 -0.69228794 -0.00000007
0.24680311 -0.72680733 -0.00000005
0.07300622 0.54377769 -0.00000084
-0.45190320 -0.73257974 -0.00000004
0.36668246 0.13103483 0.00000397
0.27493790 0.23907403 -0.00000079
0.63967542 -0.29334334 -0.00000091
0.36011313 -0.62218669 -0.00000011
0.31903134 0.42613287 -0.00000041
-0.72050941 0.10933469 0.05797964
-0.08341389 -0.63891931 -0.00000010
0.54947711 0.08650755 0.00000126
-0.13082714 -0.54466429 -0.00000016
0.52192348 -0.51661527 -0.00000018
0.01376477 0.25511397 0.00000765
-0.17058842 0.22429116 -0.00000064
0.32171961 0.07049598 -0.00000061
0.35684174 0.19343435 0.00000304
-0.47569282 0.47003847 0.28311295
-0.29607202 -0.40716753 -0.00000025
0.75649957 -0.53367272 -0.00000067
-0.56572425 -0.20138812 -0.00000021
-0.44701418 -0.23821336 -0.00000033
0.03013625 -0.35107257 -0.00000028
-0.44459094 0.45502582 0.19352544
-0.13693735 0.35291491 -0.00000072
-0.24870420 0.35319815 -0.00000065
-0.21743102 -0.52988494 -0.00000017
-0.08849791 -0.49095634 -0.00000019
0.56156121 0.05534804 0.00000159
0.13979050 0.43925614 -0.00000077
-0.03321794 -0.18154615 -0.00000039
0.08128371 -0.55553456 -0.00000015
-0.29650101 0.54592824 0.08242624
0.15840543 -0.38172744 -0.00000026
-0.26462577 0.11193153 -0.00000057
0.13670730 -0.37091027 -0.00000027
0.11551790 0.52156246 0.00000178
0.18484384 -0.32198507 -0.00000030
0.17490413 -0.39561532 -0.00000025
0.14531679 0.45196036 0.00000246
0.53177389 0.23010562 -0.00000098
0.45795721 0.12167451 -0.00000114
-0.21900685 0.53847979 -0.00000072
-0.02752477 -0.78251532 -0.00000001
0.07766627 -0.68105106 -0.00000007
0.35253165 -0.61524703 -0.00000012
-0.75034730 0.06618865 0.03212605
0.26223383 0.48717970 -0.00000123
0.24253656 0.40890149 0.00000136
0.72170802 -0.14385558 -0.00000147
0.07165909 0.53228778 -0.00000083
0.37942482 0.35097454 -0.00000134
-0.08863503 -0.70781062 -0.00000006
-0.22879534 -0.55159471 -0.00000016
0.27085610 0.04957973 0.00000711
0.24216421 -0.03867051 -0.00000048
-0.00418076 0.03499350 -0.00000052
0.16579598 0.33748347 0.00000401
0.32163142 -0.25234233 -0.00000034
-0.38529412 -0.04498173 -0.00000043
-0.16824709 0.17721615 -0.00000061
0.22449498 -0.76358495 -0.00000002
-0.77603845 -0.15033538 0.00000000
-0.10172923 0.36831996 -0.00000073
0.47647479 -0.18803484 -0.00000060
-0.49529653 0.29884721 -0.00000038
-0.60804725 0.27705949 0.16533779
-0.03108103 0.62346898 -0.00000089
0.23410623 -0.13720618 -0.00000041
-0.06237538 -0.05271744 -0.00000047
-0.57079674 0.45870234 0.44585056
0.33124168 0.44100014 -0.00000092
-0.28581911 0.58465795 0.13691471
0.70066896 -0.27300911 -0.00000115
-0.04141353 -0.72126587 -0.00000005
-0.49740000 0.46592757 0.31729764
0.20481665 -0.64594198 -0.00000010
0.28910353 0.40022844 -0.00000115
0.68314994 -0.73453154 -0.00000016
0.08962630 0.20630255 0.00000730
0.07127221 0.28640675 0.00000627
0.46525920 -0.42411255 -0.00000023
0.21042702 -0.14166101 -0.00000041
0.03616320 0.23054951 -0.00000064
0.71493843 -0.12299825 -0.00000149
-0.37500039 0.01639648 -0.00000046
0.21547277 -0.04467645 -0.00000047
0.27655377 0.18293456 0.00000477
-0.33800390 -0.67705962 -0.00000008
-0.31454399 0.54634374 0.11828567
-0.45025009 0.48583727 0.26437745
-0.49298885 -0.02231326 -0.00000032
0.54989183 -0.59254464 -0.00000013
-0.12117449 0.39380743 -0.00000075
0.50416650 0.10723099 0.00000176
-0.53287064 -0.12397477 -0.00000026
-0.51668647 0.36475512 0.15821695
-0.24893327 -0.71885982 -0.00000005
-0.31213888 -0.14270055 -0.00000041
-0.62187173 -0.71913264 -0.00000005
-0.05213349 0.37770747 -0.00000074
-0.46000264 -0.14637036 -0.00000034
0.40137544 -0.75529870 -0.00000003
-0.17878850 -0.32479888 -0.00000030
-0.50695612 0.18944417 -0.00000035
-0.21573769 0.64034389 0.10894819
-0.53970329 0.01855115 -0.00000028
0.41670449 -0.19335126 -0.00000040
0.34888454 0.17332649 -0.00000089
0.68187968 -0.15634907 -0.00000132
-0.12120419 0.23986009 -0.00000065
0.14287449 0.53019181 0.00000110
-0.67604787 -0.15956884 -0.00000010
0.15336572 0.58718621 -0.00000012
0.20603787 -0.42740407 -0.00000023
0.50695278 -0.08186942 -0.00000090
-0.72460742 -0.68800021 0.00000000
0.75872660 -0.18777724 -0.00000150
0.29632781 0.45933266 -0.00000128
0.16759800 0.33761608 -0.00000071
0.71022805 -0.43351162 -0.00000087
0.77232485 -0.34189084 -0.00000115
-0.00353601 0.53712743 -0.00000084
0.05898755 0.19868049 -0.00000062
0.73182151 0.05243100 -0.00000188
-0.53599816 0.04340618 -0.00000029
-0.30048442 0.34873845 -0.00000060
0.55488233 0.04472740 0.00000190
-0.24757212 0.01521481 -0.00000051
-0.59663664 -0.30094623 -0.00000016
-0.44560277 0.55110702 0.38214993
0.60099413 -0.52973234 -0.00000033
-0.56004186 0.41452040 0.33912361
0.11356471 -0.73381061 -0.00000004
-0.52501695 -0.57220237 -0.00000014
-0.06679607 0.45888963 -0.00000079
-0.50071754 0.46825273 0.32825985
-0.47773719 0.20258494 -0.00000038
-0.47594483 0.26497939 -0.00000039
0.48060716 -0.22585535 -0.00000054
0.00688492 0.48249173 -0.00000080
-0.19220375 0.38518935 -0.00000072
-0.21147990 0.12672365 -0.00000058
0.14044382 0.40626626 0.00000328
0.62655175 -0.67685041 -0.00000012
0.51907427 -0.34939497 -0.00000042
-0.60571917 0.25754589 0.12290590
-0.48866356 0.54130639 0.44676519
-0.45073900 0.52724823 0.34577722
0.01195436 0.11127148 0.00001001
0.30641198 -0.44356748 -0.00000022
-0.42905218 -0.07996207 -0.00000038
0.00966238 0.00514025 -0.00000050
0.26835968 0.40106401 0.00000101
-0.70563781 0.19109366 0.18792176
-0.36071074 0.24743148 -0.00000051
0.34209421 -0.07230075 -0.00000045
0.11130641 0.57841291 -0.00000092
0.20422956 0.58974174 -0.00000115
-0.36237349 -0.66776550 -0.00000008
0.52476937 0.21742084 -0.00000154
-0.47840504 0.45318353 0.25563759
-0.50839149 -0.64308063 -0.00000010
0.08145403 -0.71182797 -0.00000006
-0.45569203 0.19762683 -0.00000040
-0.30602956 -0.26962685 -0.00000033
0.24340962 0.18734790 0.00000528
-0.40007225 0.11435284 -0.00000045
-0.37337612 0.58510750 0.30788704
0.48516974 0.03162761 -0.00000105
0.42991338 0.03735909 -0.00000089
0.10406250 -0.07969937 -0.00000045
-0.28376087 -0.56819920 -0.00000014
-0.21674757 0.67243944 0.17326281
-0.23255149 0.64486560 0.15039717
-0.53146505 -0.51088091 -0.00000018
-0.50373248 -0.39356674 -0.00000024
0.46699846 -0.23755496 -0.00000047
0.11626267 0.05280101 0.00000939
0.08112566 0.62076954 0.00000066
0.71057037 -0.18507229 -0.00000135
-0.02586411 0.02442046 -0.00000052
0.66159101 -0.39379725 -0.00000079
0.63127477 -0.57395997 -0.00000034
-0.25208947 0.66022573 0.21819449
-0.09357921 0.37354908 -0.00000073
-0.10369567 -0.12537609 -0.00000042
0.48852771 -0.21873158 -0.00000058
-0.34250678 -0.43281050 -0.00000023
-0.08736678 0.36285939 -0.00000073
-0.12681483 0.38424657 -0.00000074
0.03898838 -0.29527664 -0.00000032
0.14840933 0.30924496 -0.00000069
-0.44969764 0.55592822 0.39947137
0.00377869 0.36861153 0.00000595
-0.68151928 0.24003697 0.23614878
0.32156502 0.19771656 0.00000364
-0.53635848 0.49954495 0.45829235
-0.57966810 0.04842007 -0.00000024
-0.61457296 -0.44055942 -0.00000012
-0.54214081 -0.46191219 -0.00000019
-0.27172802 0.52089162 -0.00000066
-0.12506391 0.63706600 -0.00000084
-0.15506288 -0.51214447 -0.00000018
-0.37247513 -0.45824589 -0.00000021
-0.12079883 -0.71599221 -0.00000005
-0.48772634 0.21201012 -0.00000037
-0.02504994 0.02525509 -0.00000052
0.17824207 0.11156525 -0.00000057
-0.24937715 0.50227458 -0.00000068
-0.24527492 0.02363221 -0.00000051
0.03525512 0.25174799 0.00000738
0.15280219 -0.59274933 -0.00000013
0.68183208 0.07953413 -0.00000178
-0.30237493 0.56762428 0.13598649
0.20734478 0.04114328 -0.00000053
-0.29775554 -0.34972448 -0.00000028
-0.46968483 0.50522575 0.33980018
-0.72382553 -0.59501457 0.00000000
0.23968187 0.33534957 -0.00000086
0.03735802 0.24087976 -0.00000065
0.10843375 -0.30988560 -0.00000031
0.04045195 -0.75539016 -0.00000003
-0.32397037 0.05918655 -0.00000052
0.24770918 0.31490180 0.00000295
0.03015269 0.25475207 -0.00000066
-0.16366597 -0.03715086 -0.00000048
0.34548253 0.26623894 0.00000195
-0.59626518 -0.51520123 -0.00000012
-0.00975939 -0.31748016 -0.00000030
-0.01345746 0.12746777 -0.00000058
-0.04402597 0.45676146 -0.00000079
0.55486858 0.00398635 0.00000264
-0.41248907 0.45862937 0.13816151
0.41377381 0.17427500 0.00000229
-0.15761868 0.16377809 -0.00000060
-0.29421782 -0.46557336 -0.00000021
-0.23287054 0.63040007 0.12291450
0.73497466 0.04940661 -0.00000164
-0.40972358 0.41188880 0.04198594
-0.08716660 0.67701946 -0.00000088
-0.31461782 -0.03907270 -0.00000048
0.00943710 0.08747965 0.00001044
0.53167874 -0.33845321 -0.00000048
0.01142715 0.08865467 0.00001039
0.34984324 0.36079240 -0.00000126
0.41177707 0.26124705 -0.00000127
0.69476586 -0.71598858 -0.00000021
0.32402864 -0.41579050 -0.00000024
-0.68464142 -0.50337695 -0.00000003
-0.20822115 0.29430027 -0.00000068
0.00769805 -0.64137116 -0.00000010
0.67745921 -0.15359752 -0.00000131
-0.13044790 0.39634715 -0.00000075
0.49017275 -0.66335269 -0.00000009
-0.36503255 0.58495790 0.29138716
-0.64552129 -0.62645248 -0.00000005
-0.38710069 -0.41396375 -0.00000024
0.47509415 0.21819011 0.00000032
0.66098458 -0.43740443 -0.00000070
0.41893870 -0.23500148 -0.00000035
0.78356582 -0.15943513 -0.00000160
0.20018396 0.11655338 -0.00000057
0.58245953 0.20296077 -0.00000147
-0.65187709 0.19811490 0.09712057
-0.13542601 0.14139420 -0.00000059
0.51122121 0.16285373 -0.00000139
-0.16360680 0.00664779 -0.00000050
0.65660912 -0.03295815 -0.00000148
0.69290058 -0.37228383 -0.00000093
-0.23349107 0.22723057 -0.00000064
-0.55976344 -0.72158582 -0.00000005
0.17001592 0.21223969 -0.00000063
-0.38206053 -0.17598103 -0.00000039
0.13490826 0.64294653 -0.00000113
0.19948376 0.12690056 0.00000693
-0.20008754 -0.76755641 -0.00000002
0.61047356 -0.48591988 -0.00000045
0.21942073 0.21549561 -0.00000063
0.35524140 0.19001654 0.00000313
0.40266182 0.01717502 -0.00000076
0.19076496 0.50781737 -0.00000104
-0.37676513 -0.14609136 -0.00000041
0.11176109 -0.66139150 -0.00000009
-0.16885661 0.06017648 -0.00000054
-0.32259281 0.48231691 0.00953713
0.76585454 -0.16017965 -0.00000158
0.38550017 -0.40168391 -0.00000025
-0.21773765 0.45001939 -0.00000070
0.52763708 -0.73744906 -0.00000004
-0.16502160 -0.50983220 -0.00000018
0.02907094 0.51343131 0.00000322
-0.33603790 -0.44557389 -0.00000022
-0.10611006 -0.36540502 -0.00000027
0.10970000 0.45425023 0.00000296
0.76368006 -0.75491488 -0.00000011
0.00386560 0.77101645 -0.00000098
0.40117739 0.00006703 0.00000566
-0.77352982 -0.43781730 0.00000000
-0.51554325 0.49712788 0.41315845
0.24035211 0.23122185 0.00000460
-0.07015828 -0.25298435 -0.00000034
-0.54376972 -0.59320914 -0.00000013
-0.71937537 0.00627196 -0.00000009
-0.32196286 -0.77902730 -0.00000001
-0.14728145 -0.43828522 -0.00000023
-0.01820103 0.11939683 -0.00000057
-0.10041233 0.15659838 -0.00000060
0.31221234 -0.15959061 -0.00000040
-0.30696377 0.38269724 -0.00000060
-0.66814267 -0.78787051 0.00000000
-0.20084673 -0.48162293 -0.00000020
0.69839782 -0.69585112 -0.00000026
0.18855934 0.39468519 -0.00000081
-0.05106392 -0.37486894 -0.00000027
0.20160305 0.05537694 0.00000806
-0.37971293 0.57131621 0.29340506
0.04101033 0.09286186 0.00000987
-0.19063191 0.30995959 -0.00000069
0.32948364 -0.67341077 -0.00000008
-0.21300152 -0.75621069 -0.00000003
0.38946482 0.14036434 -0.00000096
-0.27168728 0.20949642 -0.00000060
0.23906713 -0.17641584 -0.00000039
