ply
format ascii 1.0
element vertex 1408
property float x
property float y
property float z
end_header
-0.08484256 -0.04983088 0.00000000
-0.78289290 0.32685181 0.00000000
-0.55701633 0.57829300 0.00000000
0.79091288 -0.58882503 0.00000000
0.11164856 0.66694266 0.00000000
0.14683102 -0.13855516 0.00000000
-0.27134101 0.68969574 0.00000000
-0.34003199 -0.31874844 0.00000000
0.40577361 0.23975325 0.00000000
-0.35703058 -0.72851924 0.00000000
0.23172982 0.17074227 0.00000000
0.57688752 0.24499677 0.06980030
-0.05634569 -0.49885396 0.00000000
-0.15357604 -0.45141788 0.00000000
-0.30970944 -0.27416251 0.00000000
0.63201140 -0.18510129 0.00000000
0.18349632 -0.22195549 0.00000000
-0.60280876 0.57028394 0.00000000
0.32825017 -0.58101634 0.00000000
0.54037293 0.39609905 0.43526413
0.34702713 0.40494176 0.00000000
0.01133176 -0.39062246 0.00000000
-0.03804105 -0.27632937 0.00000000
-0.10153269 0.13063762 0.00000000
0.25075770 -0.02773079 0.00000000
0.43138782 0.41207285 0.13861539
-0.05597881 0.24721162 0.00000000
0.07972444 0.52504561 0.00000000
0.47580498 0.30235268 0.00000000
0.67228621 0.10295005 0.00000000
-0.70026761 -0.36731685 0.00000000
-0.78970087 -0.68914891 0.00000000
0.73565822 -0.71203651 0.00000000
0.14442083 0.39645260 0.00000000
0.13264326 -0.56887103 0.00000000
-0.32711875 0.09126539 0.00000000
-0.20349862 -0.42703469 0.00000000
0.51495686 0.23209446 0.00000000
-0.58049282 -0.46056962 0.00000000
-0.13579284 0.39221421 0.00000000
0.58761286 -0.33746199 0.00000000
-0.43780635 -0.24440258 0.00000000
-0.61544366 -0.19873596 0.00000000
0.44504991 0.28397466 0.00000000
-0.14740735 -0.67081995 0.00000000
0.27248354 -0.69163915 0.00000000
0.51016957 0.19615332 0.00000000
0.12223475 0.24600203 0.00000000
-0.28862424 0.22216633 0.00000000
-0.59480902 -0.05881267 0.00000000
-0.24434603 0.38313999 0.00000000
-0.44054798 -0.77130763 0.00000000
0.54228511 -0.09968727 0.00000000
-0.61278076 -0.79444676 0.00000000
0.23636265 -0.77768965 0.00000000
-0.22879087 -0.72939729 0.00000000
-0.26208409 -0.65246256 0.00000000
-0.11497342 0.08929697 0.00000000
0.72533882 0.11446594 0.12695533
0.77301638 -0.41822180 0.00000000
0.11933178 -0.75930849 0.00000000
-0.09811153 0.55707504 0.00000000
0.74262363 0.07805877 0.06596700
-0.59957866 0.24311448 0.00000000
-0.59040352 0.02716540 0.00000000
-0.36870124 -0.16035308 0.00000000
0.40932309 0.06394090 0.00000000
-0.06201068 0.76600333 0.00000000
0.36325197 -0.10813802 0.00000000
-0.69220796 0.29263869 0.00000000
0.36525207 0.53219382 0.31079519
0.59009148 0.26446760 0.17401231
-0.47951812 0.47746442 0.00000000
0.29777018 -0.32548443 0.00000000
-0.57812369 -0.27686223 0.00000000
-0.29576831 0.68681854 0.00000000
-0.49230115 0.76889316 0.00000000
0.10254666 0.32804761 0.00000000
-0.51714982 0.30185375 0.00000000
-0.63431609 0.04320351 0.00000000
0.52219837 -0.25711118 0.00000000
0.40891902 0.53129197 0.44718983
-0.65140579 0.64991985 0.00000000
0.27006833 0.11663155 0.00000000
0.65868241 -0.43477306 0.00000000
-0.01069308 0.50712975 0.00000000
0.17866381 0.08128124 0.00000000
0.15981255 -0.08541310 0.00000000
-0.56209689 -0.09477344 0.00000000
-0.23916941 -0.66461624 0.00000000
0.60094271 -0.43723744 0.00000000
0.51011579 0.31410129 0.07724040
-0.20185929 -0.64038602 0.00000000
0.13995764 0.66976525 0.03101307
0.00146440 -0.46462234 0.00000000
-0.13971456 -0.58192555 0.00000000
0.45797862 0.35161396 0.03059745
-0.71078722 -0.30027368 0.00000000
0.40761169 -0.24596546 0.00000000
-0.02329687 0.36853344 0.00000000
0.40859033 0.41051983 0.06095252
-0.30111790 -0.59293607 0.00000000
0.00469914 -0.48415429 0.00000000
-0.62794687 0.05285020 0.00000000
0.52508776 -0.78611755 0.00000000
0.28350767 0.51817681 0.00537558
-0.21187484 0.44943495 0.00000000
0.30442259 -0.79676579 0.00000000
0.48073787 -0.34111666 0.00000000
0.37990195 0.14923505 0.00000000
0.25058422 0.08137161 0.00000000
-0.43354265 0.67961106 0.00000000
-0.57397551 0.62959509 0.00000000
-0.33363836 0.33712148 0.00000000
0.18089523 0.62156607 0.00785314
0.51854462 0.40877316 0.40606783
0.34800510 -0.66677939 0.00000000
0.50674485 0.28295927 0.00000000
-0.67308154 0.02806333 0.00000000
0.15329255 0.29432761 0.00000000
-0.20826223 -0.72573057 0.00000000
0.71118167 -0.55618372 0.00000000
-0.30457340 -0.72648978 0.00000000
-0.04320167 -0.31873236 0.00000000
0.65550265 0.18565311 0.13126417
0.67485221 0.17587728 0.16179832
-0.31795057 0.68056458 0.00000000
-0.21169090 0.33507581 0.00000000
0.55469219 0.37883008 0.42585628
0.42426515 0.48562984 0.35050008
-0.33988687 0.29475744 0.00000000
0.47805496 -0.62276945 0.00000000
-0.55239198 -0.69638088 0.00000000
0.22685296 0.59040327 0.05503967
-0.01733463 0.75995571 0.00000000
0.04056334 -0.37348486 0.00000000
-0.11382474 0.48649896 0.00000000
-0.22045293 0.11291429 0.00000000
-0.37370310 -0.20015667 0.00000000
-0.05412133 -0.39155284 0.00000000
0.27602304 0.61618701 0.29409638
-0.40065509 0.08462459 0.00000000
-0.28659330 -0.07420121 0.00000000
-0.62164971 -0.15916023 0.00000000
0.17998717 0.54221165 0.00000000
0.40272214 0.28128190 0.00000000
0.76378334 -0.32487679 0.00000000
0.11257729 0.12563187 0.00000000
-0.22452352 -0.02108614 0.00000000
0.01269013 -0.26935514 0.00000000
-0.26994062 0.02445051 0.00000000
-0.76953751 -0.05262379 0.00000000
0.04848230 0.47257838 0.00000000
-0.36623831 0.41840618 0.00000000
-0.30253934 0.47826526 0.00000000
0.32341979 0.16438674 0.00000000
0.65862366 -0.29362642 0.00000000
0.03589722 -0.66278107 0.00000000
0.22056634 -0.05099643 0.00000000
-0.73488786 -0.51888944 0.00000000
-0.03171083 -0.72449476 0.00000000
0.57798614 -0.56414817 0.00000000
0.03229641 0.66550693 0.00000000
0.36025785 0.54563821 0.33774615
0.02416566 0.72203717 0.00000000
0.55895475 0.28618236 0.14396215
-0.79889981 -0.39745500 0.00000000
-0.61837250 0.59982472 0.00000000
0.58638286 0.23174348 0.05781476
0.59940591 -0.54659211 0.00000000
0.41745537 0.51738354 0.43005612
0.26502912 -0.21051631 0.00000000
-0.31426830 0.69285756 0.00000000
0.42933480 0.02602277 0.00000000
-0.73592724 0.76309950 0.00000000
0.27917331 -0.75781964 0.00000000
-0.79716726 -0.40368629 0.00000000
-0.35218820 0.26486297 0.00000000
0.45891091 -0.31986114 0.00000000
-0.71372083 0.64550307 0.00000000
-0.50700740 -0.52716176 0.00000000
-0.73449672 -0.78653808 0.00000000
0.05108671 -0.30408378 0.00000000
0.14211007 -0.48438630 0.00000000
-0.53674198 -0.04572060 0.00000000
-0.52799204 0.50495109 0.00000000
0.18710391 -0.44105920 0.00000000
-0.77872066 -0.64413755 0.00000000
-0.26950008 -0.74137669 0.00000000
0.79365553 -0.10869392 0.00000000
0.34690356 0.36486974 0.00000000
0.44748929 0.46641212 0.36327802
-0.66316086 0.21298755 0.00000000
0.42107384 0.50960276 0.41678084
0.68834976 -0.02101322 0.00000000
0.06440647 0.43000997 0.00000000
0.26545166 -0.21187270 0.00000000
0.34586005 0.55153602 0.31063635
-0.72348520 -0.22398299 0.00000000
0.55940710 -0.37591356 0.00000000
-0.52189217 0.71662590 0.00000000
0.33541306 0.52654748 0.19761848
-0.12396699 0.16568042 0.00000000
0.24791704 0.01270806 0.00000000
0.00328452 0.06938026 0.00000000
0.73511194 -0.11481762 0.00000000
0.33107498 -0.60730134 0.00000000
0.22446616 0.59600279 0.06528624
-0.68260136 -0.50198404 0.00000000
-0.29861287 -0.39610560 0.00000000
-0.15093086 -0.58985751 0.00000000
-0.63154613 0.36074543 0.00000000
0.44569103 0.44449494 0.28764012
0.57877937 0.14575249 0.00000000
0.14279033 -0.76829417 0.00000000
0.14427397 -0.04003041 0.00000000
-0.32306094 -0.60181856 0.00000000
-0.51640949 0.12737604 0.00000000
-0.40481083 0.56924287 0.00000000
-0.79784106 -0.64227891 0.00000000
0.01694406 0.67264758 0.00000000
-0.22415628 -0.30915364 0.00000000
-0.53274587 -0.60008747 0.00000000
0.73670157 -0.27932383 0.00000000
0.52460453 -0.21750880 0.00000000
-0.11964715 0.29661034 0.00000000
0.14779546 -0.36998281 0.00000000
-0.16053227 0.17744631 0.00000000
0.41378880 -0.43021244 0.00000000
-0.39281531 0.23474194 0.00000000
-0.40116920 0.18242894 0.00000000
-0.16495237 -0.36759160 0.00000000
-0.27662340 0.64880618 0.00000000
0.64968957 -0.58345087 0.00000000
0.26913931 0.53495296 0.01305490
-0.46966997 -0.26613402 0.00000000
0.40452182 0.25473628 0.00000000
0.73718551 -0.19279936 0.00000000
0.74189248 -0.02408809 0.00000000
-0.77504572 0.23237096 0.00000000
0.18172026 -0.10911079 0.00000000
-0.09471951 0.37737316 0.00000000
0.27632512 0.38170847 0.00000000
-0.59722090 0.56995320 0.00000000
0.45438063 0.30869621 0.00000000
-0.60256015 0.64806795 0.00000000
0.20141644 -0.06326367 0.00000000
-0.08195078 0.26664107 0.00000000
0.16236714 0.69441568 0.18110537
0.42674087 0.52327082 0.47844807
0.39635557 -0.37793322 0.00000000
0.65544047 -0.24577878 0.00000000
-0.03082329 -0.75164073 0.00000000
-0.76953354 -0.30059418 0.00000000
-0.00611676 0.14054227 0.00000000
-0.05637965 0.71353406 0.00000000
-0.46065199 0.76215105 0.00000000
-0.02324654 0.16477802 0.00000000
0.33712047 0.54088775 0.24880086
-0.34251480 0.05853822 0.00000000
0.69033069 -0.55357323 0.00000000
0.70891371 -0.64512110 0.00000000
-0.11972166 0.51109044 0.00000000
-0.69356465 0.15979017 0.00000000
-0.76165899 0.11213115 0.00000000
0.66906345 -0.60635330 0.00000000
0.05305296 -0.73369008 0.00000000
-0.61752538 0.17590350 0.00000000
-0.22184787 0.01771103 0.00000000
-0.08674352 -0.14548021 0.00000000
0.66912006 -0.03482915 0.00000000
-0.03077530 0.23711294 0.00000000
0.48802971 -0.79606652 0.00000000
0.45714035 -0.08706347 0.00000000
0.19044330 -0.30462041 0.00000000
0.51854909 0.40871441 0.40589472
-0.59666555 0.44398494 0.00000000
-0.77760055 -0.46366337 0.00000000
0.34914440 0.54682403 0.30608304
0.48655476 0.37973203 0.21141632
-0.70145626 0.09599054 0.00000000
0.27902420 -0.02908673 0.00000000
-0.33464046 0.59834915 0.00000000
-0.71627334 0.15922043 0.00000000
0.08397665 0.48818549 0.00000000
-0.07008978 0.66662033 0.00000000
0.04697658 0.57959265 0.00000000
-0.27188565 -0.18821899 0.00000000
-0.64016671 0.67439368 0.00000000
-0.45262799 0.54373360 0.00000000
0.14471174 -0.15567396 0.00000000
0.11238853 -0.77233731 0.00000000
0.54351891 0.39588677 0.44462084
-0.01690735 0.19359525 0.00000000
0.50224257 0.43995521 0.45352610
0.21411909 0.60328656 0.05551622
0.46192759 -0.75990429 0.00000000
-0.01843017 0.18007458 0.00000000
-0.30831882 0.61623114 0.00000000
-0.05562253 0.35541129 0.00000000
-0.67022804 -0.69949649 0.00000000
-0.75067933 -0.09400234 0.00000000
-0.22989656 -0.14127108 0.00000000
0.51085908 0.32362472 0.10998480
0.33382795 0.47408463 0.02523931
-0.64432663 0.24371627 0.00000000
0.48828483 0.39400257 0.26244827
-0.35860854 -0.33465812 0.00000000
0.26721517 0.39850730 0.00000000
0.69517337 0.13699610 0.10260353
-0.15132240 0.02707221 0.00000000
-0.38189471 -0.12792129 0.00000000
0.13304166 0.24684343 0.00000000
0.56322603 0.27803777 0.13160875
-0.04252843 -0.58779256 0.00000000
0.52423449 0.30591077 0.09614758
0.69814667 -0.25116060 0.00000000
0.10879778 -0.50156471 0.00000000
-0.29512572 0.23303472 0.00000000
0.07189969 0.72897001 0.00277695
0.67744631 -0.64864175 0.00000000
0.71982702 -0.38425764 0.00000000
-0.64899022 0.23098639 0.00000000
-0.09385892 0.22552258 0.00000000
0.44198827 0.47174829 0.36275227
-0.27618822 0.10042536 0.00000000
0.16019185 0.53591503 0.00000000
-0.30669855 0.62580707 0.00000000
-0.52878143 0.06130080 0.00000000
-0.39589460 -0.55923636 0.00000000
-0.74760212 0.40264881 0.00000000
-0.12940015 -0.10315860 0.00000000
-0.11700092 0.56412127 0.00000000
-0.67014472 -0.66375056 0.00000000
0.54948930 -0.79781253 0.00000000
0.44654750 -0.34077737 0.00000000
-0.07781364 0.29955112 0.00000000
-0.56536017 0.27921663 0.00000000
0.73522548 0.09671855 0.10188452
-0.53112625 0.05338379 0.00000000
-0.11961876 0.15501990 0.00000000
0.28538595 -0.48293114 0.00000000
0.33644656 0.55960239 0.30633991
0.61196343 0.23690905 0.15587566
-0.53725936 0.64384165 0.00000000
-0.60722642 -0.08218055 0.00000000
-0.67122460 0.08620861 0.00000000
-0.66922476 -0.13340396 0.00000000
0.70549518 -0.25912835 0.00000000
0.28736695 -0.30952495 0.00000000
-0.52373124 0.63623719 0.00000000
0.37739125 -0.65705736 0.00000000
-0.03713102 -0.22307294 0.00000000
0.41794197 0.00498483 0.00000000
0.20585481 0.03676308 0.00000000
0.41069839 0.01488997 0.00000000
0.56792690 0.33851840 0.33949706
-0.32020861 -0.11104023 0.00000000
0.53516685 -0.60794563 0.00000000
0.38959924 -0.70231631 0.00000000
-0.72600083 -0.35564418 0.00000000
0.32134760 -0.26645189 0.00000000
-0.46933119 0.32292971 0.00000000
-0.21284672 0.11336222 0.00000000
0.73579785 -0.14402992 0.00000000
0.66837619 -0.07667719 0.00000000
-0.66140605 0.52682432 0.00000000
0.34814822 -0.24185008 0.00000000
-0.09594242 0.09041017 0.00000000
0.32198630 -0.33086802 0.00000000
0.14869032 -0.69891316 0.00000000
-0.31636793 0.37913661 0.00000000
-0.30428344 -0.38679508 0.00000000
-0.49786268 -0.73610491 0.00000000
-0.28179417 -0.09387279 0.00000000
-0.50992352 0.64672189 0.00000000
-0.17312182 0.74524446 0.00000000
-0.61366662 0.23198069 0.00000000
-0.71401403 -0.56246024 0.00000000
0.10416566 0.26636602 0.00000000
-0.55036393 -0.12946207 0.00000000
-0.68055631 -0.41622952 0.00000000
0.41054492 0.51489607 0.40008245
0.50654218 -0.07291581 0.00000000
0.21596747 -0.03485168 0.00000000
-0.60130557 0.11240044 0.00000000
0.21692694 -0.21147575 0.00000000
-0.73538302 -0.45512573 0.00000000
0.70239839 -0.31540184 0.00000000
0.60245789 -0.50032118 0.00000000
0.73147075 0.09098832 0.07163347
-0.04162508 0.08873996 0.00000000
-0.42839612 -0.28976879 0.00000000
-0.05343758 0.27516778 0.00000000
0.05844751 0.24185692 0.00000000
0.74946558 0.05293272 0.00765222
-0.60282616 0.24256411 0.00000000
0.52920761 0.01373737 0.00000000
-0.00140284 0.06055039 0.00000000
-0.27868093 0.60173065 0.00000000
-0.57818614 0.00032712 0.00000000
-0.76612711 -0.57362898 0.00000000
0.38308628 0.50391730 0.27749044
0.51460236 0.29229488 0.02200101
-0.13839395 0.15723552 0.00000000
0.37586402 0.49019568 0.21069217
-0.73441215 0.37136814 0.00000000
-0.18936639 0.59875517 0.00000000
-0.74040452 0.25772169 0.00000000
0.56541284 -0.63258223 0.00000000
0.48427420 0.33409973 0.05860445
-0.14962533 0.68080477 0.00000000
-0.10231692 -0.59318961 0.00000000
-0.52063748 -0.73773624 0.00000000
0.71809987 0.08508854 0.01017215
-0.35309377 0.29712220 0.00000000
-0.16890234 -0.16120929 0.00000000
-0.68304616 -0.67461052 0.00000000
0.11445424 0.65843315 0.00000000
-0.27453083 -0.04555022 0.00000000
0.34269710 -0.55059122 0.00000000
-0.64471211 0.34320055 0.00000000
0.28007363 0.58202815 0.19806920
-0.57231504 0.03559858 0.00000000
0.69695462 -0.18598118 0.00000000
0.14723012 0.45861614 0.00000000
-0.21770038 -0.36490196 0.00000000
-0.25165952 0.42995875 0.00000000
0.62390704 -0.02985485 0.00000000
-0.65571318 0.05653978 0.00000000
0.56703637 -0.20140792 0.00000000
-0.53832608 0.39995282 0.00000000
-0.41349583 -0.66490801 0.00000000
0.34555426 0.20473537 0.00000000
0.24616618 -0.31662308 0.00000000
-0.47309712 0.27395958 0.00000000
0.12778149 -0.76806223 0.00000000
-0.41279853 0.31372761 0.00000000
0.39073598 -0.29228170 0.00000000
0.03065426 -0.15650406 0.00000000
-0.72750920 0.05949698 0.00000000
0.76498076 -0.79410069 0.00000000
-0.46483465 -0.62206827 0.00000000
-0.63638874 0.30803216 0.00000000
0.43200110 -0.31100990 0.00000000
-0.37341160 0.34741365 0.00000000
-0.43592126 0.21568891 0.00000000
0.26843729 0.57325230 0.13296675
0.34214950 0.52339497 0.20904903
0.19402779 0.08600066 0.00000000
-0.35070283 0.41971491 0.00000000
-0.27643938 -0.36406629 0.00000000
-0.63516314 -0.75805966 0.00000000
-0.02201134 0.78484054 0.00000000
0.10653921 0.22448513 0.00000000
-0.71020628 0.60028398 0.00000000
0.13224820 -0.78801353 0.00000000
-0.53521954 0.75393370 0.00000000
0.18342685 0.66265434 0.14697355
0.16715910 0.63870512 0.01870631
-0.29239326 0.04744726 0.00000000
0.10321453 0.72259133 0.08230783
0.36820872 0.36809221 0.00000000
0.43082996 -0.79642182 0.00000000
0.60906975 0.25323572 0.19871845
0.13796265 0.69247962 0.09709503
-0.36415394 -0.43531224 0.00000000
0.11754806 0.24114432 0.00000000
0.46306493 -0.41233308 0.00000000
-0.78689102 -0.68512959 0.00000000
0.09915922 0.72861784 0.08859480
-0.68695142 -0.17088521 0.00000000
-0.21356505 0.20025139 0.00000000
-0.49869528 -0.42253344 0.00000000
0.51297890 0.32219715 0.11219264
0.35367167 -0.56043176 0.00000000
0.76682368 -0.22795172 0.00000000
-0.57070792 -0.21018318 0.00000000
-0.60296257 0.32110443 0.00000000
0.55750174 -0.59355861 0.00000000
-0.65421927 -0.50432335 0.00000000
-0.57109818 -0.08537155 0.00000000
-0.47937922 0.51934952 0.00000000
-0.21976586 0.25971383 0.00000000
-0.17874362 -0.47762655 0.00000000
0.14399554 -0.47574018 0.00000000
0.53626874 -0.52533143 0.00000000
0.32172697 -0.30606435 0.00000000
0.20011598 0.60700392 0.02271117
-0.27590562 -0.07692019 0.00000000
0.79914379 -0.16162349 0.00000000
0.20596292 0.22233752 0.00000000
0.31458576 -0.30787248 0.00000000
-0.73187121 0.79273016 0.00000000
0.33277235 0.15961558 0.00000000
-0.14807457 -0.19352957 0.00000000
-0.04360378 -0.65928758 0.00000000
-0.59488437 0.19237931 0.00000000
0.75085660 0.06727144 0.05782019
-0.33098741 -0.39255156 0.00000000
-0.01804260 -0.58313450 0.00000000
-0.21411316 0.40216893 0.00000000
-0.10639902 0.18902697 0.00000000
-0.37343040 -0.22742698 0.00000000
-0.04826362 -0.00253734 0.00000000
0.46451895 0.37075497 0.11250480
-0.44453749 0.43655019 0.00000000
0.57164671 -0.25534808 0.00000000
0.53149559 -0.67209523 0.00000000
0.07643529 0.48075881 0.00000000
0.54982158 -0.10532911 0.00000000
0.55904217 0.31104116 0.22352491
-0.72437097 0.64298545 0.00000000
-0.29421703 -0.35402026 0.00000000
-0.26278036 0.20813759 0.00000000
-0.11495963 -0.09034663 0.00000000
0.15796913 0.69278472 0.16187661
0.09335181 -0.75118463 0.00000000
0.38674212 0.31630131 0.00000000
-0.55627624 -0.48204315 0.00000000
0.00815079 0.70089689 0.00000000
0.37608617 -0.17482569 0.00000000
-0.27605246 -0.16384307 0.00000000
0.42352556 -0.18428406 0.00000000
-0.62560417 0.24863061 0.00000000
-0.30329029 0.08857742 0.00000000
-0.70823450 0.14364390 0.00000000
0.73955151 0.00646200 0.00000000
0.59409591 0.25242863 0.14838719
0.09518746 -0.64509051 0.00000000
0.57442158 -0.09649279 0.00000000
-0.56659276 -0.06414332 0.00000000
-0.74653993 0.05579951 0.00000000
0.25658973 0.20081465 0.00000000
-0.60895941 0.73562403 0.00000000
0.52543973 0.30951658 0.11149182
-0.66162607 -0.22883604 0.00000000
-0.54220018 0.02740263 0.00000000
0.13993037 0.42165756 0.00000000
0.04359215 -0.78157661 0.00000000
-0.15157898 -0.37282041 0.00000000
-0.73788439 -0.37056901 0.00000000
-0.73002428 0.40508993 0.00000000
0.23554368 0.02183429 0.00000000
0.23356891 -0.32926252 0.00000000
-0.07897931 0.74158496 0.00000000
0.71468330 -0.03767109 0.00000000
0.58475034 -0.68158920 0.00000000
0.03357651 -0.01325578 0.00000000
0.16372334 -0.01168663 0.00000000
-0.11028281 0.72662764 0.00000000
-0.27416723 -0.02293121 0.00000000
-0.00235340 -0.03984375 0.00000000
-0.02443556 -0.37210326 0.00000000
0.55285014 0.27293291 0.08223488
0.53536305 0.34987949 0.27187327
0.64379477 -0.76600133 0.00000000
0.16230796 -0.06949299 0.00000000
-0.19947226 0.47305927 0.00000000
0.29345627 -0.02625577 0.00000000
-0.20902273 0.33832084 0.00000000
-0.05491735 -0.20575822 0.00000000
0.61979679 0.23122664 0.16273582
-0.30694606 -0.59905475 0.00000000
-0.31435898 -0.53092643 0.00000000
-0.77026925 0.45707627 0.00000000
-0.35741013 0.77280118 0.00000000
0.48928330 -0.09082694 0.00000000
0.29410307 0.57428879 0.21813066
0.62040828 -0.74924475 0.00000000
-0.75591227 -0.26924437 0.00000000
0.03782344 -0.50538738 0.00000000
-0.09877361 -0.71184100 0.00000000
0.02915908 -0.56619845 0.00000000
0.47316635 -0.20592963 0.00000000
0.78814712 -0.49636110 0.00000000
0.12501711 -0.22445573 0.00000000
-0.56788880 0.68113097 0.00000000
-0.55883514 -0.25998910 0.00000000
-0.67734794 0.61660361 0.00000000
-0.45204259 0.70907709 0.00000000
-0.31275229 0.21981373 0.00000000
-0.55504790 -0.00401739 0.00000000
-0.22110521 -0.41058423 0.00000000
-0.16102480 0.37814673 0.00000000
0.45053606 0.48451629 0.43073672
-0.77939666 0.78079926 0.00000000
0.49650884 0.46976083 0.53030093
-0.42440526 0.30502989 0.00000000
0.59620574 -0.48416941 0.00000000
0.04249852 -0.48932028 0.00000000
0.36079887 -0.41248020 0.00000000
-0.06682971 -0.45833989 0.00000000
-0.62333088 -0.43337215 0.00000000
-0.58149019 0.72344247 0.00000000
-0.67443139 -0.72079344 0.00000000
0.40722118 -0.27562326 0.00000000
-0.52703323 -0.79630105 0.00000000
0.12175874 -0.62761354 0.00000000
-0.55802683 -0.60724279 0.00000000
0.61812856 0.19565581 0.04396664
-0.41643984 -0.36458875 0.00000000
-0.63780708 -0.07214188 0.00000000
-0.79851382 0.45185551 0.00000000
-0.72629268 -0.70809037 0.00000000
0.03324666 0.49769387 0.00000000
-0.70915093 -0.26095010 0.00000000
0.52993775 -0.15550191 0.00000000
0.39096840 -0.58543910 0.00000000
-0.69921945 -0.08474024 0.00000000
0.57135476 0.05151709 0.00000000
-0.30230202 0.22567023 0.00000000
0.20531580 -0.78744343 0.00000000
-0.11894418 0.79887253 0.00000000
0.16095823 0.63723215 0.00000000
0.04458627 0.35213115 0.00000000
-0.19593238 -0.43360608 0.00000000
-0.34623105 -0.54362616 0.00000000
0.23204885 -0.71554366 0.00000000
-0.20294026 0.41845814 0.00000000
-0.67623978 -0.07881878 0.00000000
0.03527271 0.41920139 0.00000000
0.43796550 0.38812688 0.08322143
0.54803952 0.22175219 0.00000000
-0.09139543 0.22261875 0.00000000
-0.46137099 0.77650078 0.00000000
-0.13366293 -0.78779855 0.00000000
0.18062132 0.14445693 0.00000000
0.55677157 0.27009690 0.08569666
0.19482504 0.66458427 0.18948216
-0.70648594 0.44516088 0.00000000
-0.05622737 -0.78482372 0.00000000
-0.15320111 0.42542413 0.00000000
0.13904025 0.15513335 0.00000000
0.10410912 0.40598772 0.00000000
0.79615020 -0.11091816 0.00000000
0.38173681 0.43356932 0.04882008
0.11493219 0.00909482 0.00000000
-0.31891897 -0.63125846 0.00000000
0.69050789 0.15354337 0.14049898
0.40301976 -0.05833100 0.00000000
-0.48456293 -0.75099723 0.00000000
-0.56766203 0.27567901 0.00000000
0.55610160 0.30924843 0.20842868
0.49997512 0.04554826 0.00000000
0.58066688 -0.15718773 0.00000000
0.13819033 -0.67184542 0.00000000
-0.53582288 -0.59898814 0.00000000
-0.45053364 0.68094866 0.00000000
-0.60036382 0.69383616 0.00000000
-0.13709083 0.29212337 0.00000000
-0.01162054 -0.34394133 0.00000000
-0.32707153 -0.08965633 0.00000000
-0.36238625 -0.36391566 0.00000000
0.26695484 -0.69770644 0.00000000
0.18152525 0.43045381 0.00000000
-0.30481081 0.32485900 0.00000000
-0.30783821 -0.44831379 0.00000000
0.26280858 0.36893666 0.00000000
0.59109531 -0.54779610 0.00000000
0.52651359 0.31102936 0.11974154
0.23760031 0.60901849 0.14868799
-0.54640880 0.12574981 0.00000000
-0.40191618 0.53684423 0.00000000
-0.15835356 -0.09011340 0.00000000
-0.57909259 0.38026430 0.00000000
0.11327293 0.23293342 0.00000000
0.26506699 -0.47592626 0.00000000
0.57150562 0.29387178 0.20851597
0.55643433 -0.61119040 0.00000000
-0.63762336 -0.76318301 0.00000000
0.41631326 0.52142838 0.43931407
0.73033857 -0.33236279 0.00000000
0.58606496 0.25700473 0.13736837
0.38603933 -0.18629837 0.00000000
0.56448291 -0.10817740 0.00000000
-0.56730941 0.53831631 0.00000000
-0.59034458 -0.35990891 0.00000000
-0.43707000 0.59541606 0.00000000
0.13561604 0.69995502 0.11345279
0.13512091 0.25626290 0.00000000
0.16261489 -0.52816872 0.00000000
-0.07801170 -0.11161925 0.00000000
-0.55178340 0.61100223 0.00000000
0.44113765 -0.57509455 0.00000000
0.54703833 -0.78531688 0.00000000
0.79959603 -0.70514914 0.00000000
0.40661864 0.52704202 0.42629826
-0.53751441 0.27505472 0.00000000
0.27354242 0.55877821 0.10308562
-0.76857500 -0.79719931 0.00000000
0.31998362 0.02872666 0.00000000
-0.57181512 0.76029060 0.00000000
-0.09282351 -0.15056878 0.00000000
-0.61468105 -0.70718753 0.00000000
-0.16962621 0.58725508 0.00000000
0.28199016 0.05730933 0.00000000
-0.71301557 0.01499354 0.00000000
0.61442007 -0.32457311 0.00000000
0.42908501 -0.58656825 0.00000000
-0.21475794 0.57460772 0.00000000
-0.57702021 -0.37918622 0.00000000
0.14567880 0.67136459 0.05436087
0.11949735 0.01654648 0.00000000
0.24772016 0.15539626 0.00000000
0.63489931 -0.48552032 0.00000000
-0.71369382 -0.54959768 0.00000000
0.42661099 -0.18639652 0.00000000
-0.50900524 0.54445036 0.00000000
-0.43231933 -0.14074598 0.00000000
0.30071737 0.28602978 0.00000000
0.16056356 -0.06950323 0.00000000
0.45583383 -0.00621951 0.00000000
0.19041171 0.66429144 0.17447235
0.02928576 0.39242687 0.00000000
0.54437304 0.32677931 0.22693442
-0.42185544 -0.34994531 0.00000000
-0.50643415 0.01761685 0.00000000
-0.40089626 0.69176935 0.00000000
-0.06761418 -0.26945006 0.00000000
-0.74746400 -0.14562654 0.00000000
0.17508742 -0.53781994 0.00000000
-0.28944059 0.04389759 0.00000000
0.24964713 -0.76745683 0.00000000
0.21176075 0.63111685 0.13675593
-0.22752019 0.17826367 0.00000000
-0.61667406 0.55727020 0.00000000
0.45961495 0.32149627 0.00000000
-0.01100799 0.36385342 0.00000000
0.57104463 -0.24096791 0.00000000
-0.29960392 -0.61293759 0.00000000
-0.04742883 0.07034501 0.00000000
0.76650454 0.04339021 0.03156118
0.73151988 -0.62624822 0.00000000
-0.43500852 -0.24187495 0.00000000
0.57188625 0.09561949 0.00000000
0.19202810 0.14749214 0.00000000
0.73544831 0.04258983 0.00000000
0.07869949 -0.60073957 0.00000000
0.67449257 -0.73678301 0.00000000
0.53925267 -0.60273789 0.00000000
-0.34649636 -0.76631062 0.00000000
-0.52318408 -0.68185730 0.00000000
-0.46923943 0.04391642 0.00000000
-0.20729357 -0.33205515 0.00000000
-0.54091867 0.46519923 0.00000000
-0.30523176 -0.00050551 0.00000000
-0.27740288 0.48214792 0.00000000
0.54468003 0.27432361 0.06061283
0.74092115 0.06597633 0.02200178
-0.35623064 0.04854952 0.00000000
0.25140386 -0.43977377 0.00000000
-0.09799613 0.75992372 0.00000000
-0.41694946 -0.11795897 0.00000000
-0.29458063 0.44566098 0.00000000
-0.07966020 -0.45924763 0.00000000
0.46360531 0.07214612 0.00000000
0.07788008 -0.35185562 0.00000000
-0.63520483 -0.39173896 0.00000000
-0.55064794 0.71592067 0.00000000
-0.52282729 -0.35995332 0.00000000
0.45817290 -0.78348162 0.00000000
-0.49235982 -0.49742316 0.00000000
0.12358638 -0.12610879 0.00000000
0.29550662 0.56557874 0.19482737
0.07273169 0.70780323 0.00000000
-0.41595969 -0.32243469 0.00000000
0.25410681 -0.17963549 0.00000000
0.55010845 0.28304699 0.10574814
-0.59178041 0.30868033 0.00000000
-0.25566886 -0.09880317 0.00000000
-0.31415847 0.35757937 0.00000000
0.55080304 -0.08449104 0.00000000
0.10673562 0.22697277 0.00000000
-0.39254732 0.29231479 0.00000000
-0.61382987 -0.28040376 0.00000000
0.64791879 -0.04171928 0.00000000
-0.01055264 0.15376300 0.00000000
0.55178576 0.27766825 0.09394293
-0.72679604 -0.30526795 0.00000000
-0.05909012 -0.18873900 0.00000000
-0.09318489 0.12486824 0.00000000
0.47636366 -0.77178256 0.00000000
0.21211231 0.65724350 0.22120541
-0.43204274 0.25581444 0.00000000
0.54135974 -0.39890795 0.00000000
-0.33065425 0.34719725 0.00000000
-0.60653080 -0.14313397 0.00000000
-0.40725790 -0.23179825 0.00000000
0.08568685 -0.33237905 0.00000000
0.66653236 -0.08707103 0.00000000
-0.15105100 -0.74535862 0.00000000
0.10163535 -0.12518540 0.00000000
-0.46627666 -0.02787533 0.00000000
-0.38487273 -0.12118556 0.00000000
-0.51622042 0.20634048 0.00000000
-0.08950532 -0.37606387 0.00000000
-0.12091074 -0.64920223 0.00000000
0.31145770 0.47859012 0.00000000
0.37676530 -0.36783980 0.00000000
0.69893019 -0.26510593 0.00000000
0.17186208 -0.58735471 0.00000000
-0.31168212 -0.35124594 0.00000000
0.40725177 -0.40573356 0.00000000
0.43832625 0.20266976 0.00000000
0.02820969 0.43882442 0.00000000
-0.22879499 0.39432024 0.00000000
-0.71623166 -0.39101054 0.00000000
0.28141356 -0.07054252 0.00000000
0.79260386 -0.16283380 0.00000000
0.05724126 -0.37702455 0.00000000
-0.66023233 0.32553784 0.00000000
-0.57154109 0.00502997 0.00000000
-0.54047156 -0.29487693 0.00000000
-0.69127833 0.05986544 0.00000000
0.51149961 -0.11599283 0.00000000
0.28281551 -0.61283532 0.00000000
-0.01935862 -0.45479478 0.00000000
0.60774800 0.22813010 0.11443171
0.18155537 -0.24307559 0.00000000
-0.56557676 -0.56099843 0.00000000
-0.41201900 0.24708152 0.00000000
-0.59552461 0.11881531 0.00000000
-0.76298512 0.68912321 0.00000000
0.51892308 -0.19150230 0.00000000
0.31691361 0.52470542 0.13274169
-0.19944154 -0.16085038 0.00000000
-0.30826389 -0.12756096 0.00000000
0.54656886 0.15966712 0.00000000
-0.05179112 0.03643824 0.00000000
0.34771490 0.54776135 0.30451330
0.08519859 -0.42307744 0.00000000
0.51111249 -0.17684450 0.00000000
0.55375556 -0.37376864 0.00000000
-0.63476382 -0.30710782 0.00000000
-0.11994344 -0.69731932 0.00000000
-0.13052632 0.43019920 0.00000000
-0.46757602 0.76686994 0.00000000
0.00943950 -0.66238552 0.00000000
0.57388881 0.34477118 0.37845450
-0.51573048 0.70539447 0.00000000
0.04797765 -0.63826593 0.00000000
-0.61311261 -0.68174062 0.00000000
0.10236918 0.05765499 0.00000000
-0.32417106 0.21316646 0.00000000
-0.30749706 -0.75759628 0.00000000
-0.66752635 0.04248528 0.00000000
-0.69980141 0.17482523 0.00000000
0.04303193 0.52544707 0.00000000
-0.56431667 -0.14369971 0.00000000
0.44864060 0.37473033 0.07454172
-0.37642325 0.19696171 0.00000000
-0.66462785 -0.21759072 0.00000000
0.08348465 0.38646568 0.00000000
-0.01383722 -0.08239517 0.00000000
-0.21643395 -0.57351589 0.00000000
0.68352673 -0.78542999 0.00000000
0.35737934 0.50439844 0.19703552
-0.22675905 -0.04346100 0.00000000
0.18903178 -0.12811501 0.00000000
-0.44499337 -0.04998783 0.00000000
0.44292915 -0.34932394 0.00000000
0.36325084 -0.45881188 0.00000000
0.66037148 -0.60673460 0.00000000
0.76651053 -0.46200506 0.00000000
-0.63854653 -0.48562366 0.00000000
-0.26833585 -0.28829717 0.00000000
-0.68428012 -0.33532134 0.00000000
-0.12616374 0.66249112 0.00000000
0.64456989 -0.63599977 0.00000000
-0.75198107 -0.75966616 0.00000000
0.16709597 -0.51992064 0.00000000
-0.18552821 0.55775315 0.00000000
-0.19279500 -0.17002876 0.00000000
0.01768591 0.42688159 0.00000000
-0.75871631 -0.75206751 0.00000000
-0.77848607 -0.15757670 0.00000000
-0.28658148 0.54063484 0.00000000
0.28623400 -0.40932863 0.00000000
-0.39826606 0.67034617 0.00000000
0.22119333 0.63981807 0.19459175
-0.02799114 0.05106774 0.00000000
-0.42176233 0.04446011 0.00000000
0.10090511 -0.60614118 0.00000000
-0.68518196 -0.24905211 0.00000000
-0.63553773 0.30499771 0.00000000
-0.69532727 -0.00639754 0.00000000
0.18340188 -0.71929754 0.00000000
0.46256532 0.34444067 0.02234787
0.17202262 -0.73980339 0.00000000
0.59639828 0.09581716 0.00000000
0.44417210 -0.28123330 0.00000000
0.42434912 -0.53217583 0.00000000
-0.65085219 -0.18643584 0.00000000
-0.45185735 -0.09548476 0.00000000
0.47164397 0.12411597 0.00000000
-0.26292546 0.48090861 0.00000000
-0.42575264 -0.19085507 0.00000000
-0.66857010 0.71205948 0.00000000
-0.23345388 0.60043022 0.00000000
-0.24675975 -0.35416024 0.00000000
-0.59650808 0.03375824 0.00000000
0.37431456 -0.52042369 0.00000000
-0.12659323 0.18531319 0.00000000
-0.60681960 -0.53231119 0.00000000
-0.35393840 -0.64228254 0.00000000
-0.58792122 -0.09752981 0.00000000
0.41768634 0.17548302 0.00000000
-0.09252036 0.54098903 0.00000000
-0.46851581 0.36324853 0.00000000
-0.05478207 -0.76734023 0.00000000
0.05537418 0.30848612 0.00000000
0.57127589 0.02946622 0.00000000
0.55421509 0.28411103 0.12223938
0.15111063 0.14098203 0.00000000
-0.74328038 0.39064034 0.00000000
0.06798975 -0.71545360 0.00000000
-0.76781314 -0.79854986 0.00000000
-0.37573906 -0.59426308 0.00000000
-0.25154732 0.54766478 0.00000000
-0.34267873 0.54549239 0.00000000
0.58621899 0.18081371 0.00000000
-0.42941293 0.58417541 0.00000000
0.48064171 -0.01178795 0.00000000
0.13814125 -0.03454735 0.00000000
-0.15819823 -0.76430118 0.00000000
0.25672748 0.19847025 0.00000000
0.22562396 -0.06732669 0.00000000
0.79180460 -0.22497266 0.00000000
0.14730650 0.18522063 0.00000000
-0.03204029 -0.58693530 0.00000000
0.27505909 0.61146455 0.27596017
0.03233001 0.28675299 0.00000000
0.60100900 -0.21099332 0.00000000
0.79624404 -0.00341351 0.00000000
0.39832480 -0.24131112 0.00000000
0.56350227 0.32682238 0.28808200
-0.30731598 0.04891309 0.00000000
-0.29798168 0.01452233 0.00000000
-0.15680687 -0.45447134 0.00000000
0.15741380 -0.01193054 0.00000000
0.49507786 0.32599878 0.06722439
-0.24349522 -0.73185713 0.00000000
-0.08449381 -0.10034911 0.00000000
0.27572476 0.03838513 0.00000000
0.70031121 -0.23465140 0.00000000
-0.23325745 0.36940864 0.00000000
-0.62700019 -0.25197396 0.00000000
0.70593336 0.08720503 0.00000000
0.42943021 -0.23813092 0.00000000
-0.03145462 0.55619266 0.00000000
0.19643428 -0.17337450 0.00000000
-0.50998760 -0.66396318 0.00000000
0.18321732 0.61592122 0.00000000
-0.07778165 0.76630236 0.00000000
-0.35581195 -0.35165979 0.00000000
-0.24291790 0.27265039 0.00000000
0.48092089 0.41202832 0.29645301
0.48659089 -0.59717760 0.00000000
0.51689562 0.12095857 0.00000000
0.04657624 -0.45208103 0.00000000
-0.13196056 -0.16598203 0.00000000
0.50267138 0.25629817 0.00000000
-0.30890034 -0.33931009 0.00000000
0.38070892 -0.31606739 0.00000000
-0.74617382 0.78569893 0.00000000
0.52062485 -0.36023475 0.00000000
0.26182624 -0.02640697 0.00000000
0.66281224 0.00582279 0.00000000
0.24940383 -0.19931375 0.00000000
0.42494264 -0.78044276 0.00000000
-0.12950534 -0.14821353 0.00000000
0.18482139 -0.11348881 0.00000000
0.70091854 0.14167708 0.13585640
-0.43037046 0.77718262 0.00000000
0.12853017 0.68903077 0.05601152
0.13132139 -0.73929762 0.00000000
0.52960257 -0.01165904 0.00000000
-0.47755123 0.68084648 0.00000000
0.29388634 0.51006626 0.01260947
-0.64042987 0.64741999 0.00000000
-0.79139275 -0.73576617 0.00000000
-0.78841312 -0.73138232 0.00000000
-0.47856495 0.54459115 0.00000000
0.29233655 0.58324122 0.24104937
0.21368567 -0.78137842 0.00000000
-0.74022102 0.18179270 0.00000000
-0.44547024 -0.59849892 0.00000000
-0.13884345 0.31157377 0.00000000
-0.63409191 -0.10358810 0.00000000
-0.48866523 0.28053699 0.00000000
-0.09789233 -0.66428693 0.00000000
-0.29305567 0.20951861 0.00000000
0.00771131 -0.14307458 0.00000000
0.27185176 -0.63981481 0.00000000
-0.01464158 0.63200999 0.00000000
0.36979562 -0.44343941 0.00000000
0.54981441 0.29447786 0.14126764
0.41738909 0.24161434 0.00000000
-0.07859827 -0.12763178 0.00000000
0.53801783 -0.36617861 0.00000000
-0.37136864 0.51556271 0.00000000
-0.26422021 -0.69955653 0.00000000
0.54160049 0.36872408 0.35186969
0.16464422 0.67661528 0.13159537
0.54879336 -0.47379684 0.00000000
-0.34957806 -0.67560144 0.00000000
-0.53274340 -0.44257756 0.00000000
-0.34439258 0.24811313 0.00000000
0.05231792 -0.44232790 0.00000000
-0.18206507 0.79525170 0.00000000
0.07644742 0.41445128 0.00000000
-0.47320065 0.32277888 0.00000000
-0.18047131 -0.13349485 0.00000000
0.57194155 -0.03459399 0.00000000
-0.79490498 0.78551314 0.00000000
0.52596634 -0.54372801 0.00000000
0.37023355 0.22587780 0.00000000
0.37773948 0.49721652 0.23906598
-0.10064540 -0.64882535 0.00000000
0.47898382 0.37535149 0.17329862
-0.51768658 -0.65999685 0.00000000
-0.62734342 -0.63755196 0.00000000
-0.02689385 0.01254470 0.00000000
-0.65896196 -0.22857158 0.00000000
0.25913734 0.57628577 0.11298060
-0.11746024 -0.07012893 0.00000000
0.71408520 -0.14895421 0.00000000
-0.52367242 -0.05652766 0.00000000
-0.69850494 -0.00704241 0.00000000
0.20410504 -0.37865613 0.00000000
-0.79951409 -0.07692133 0.00000000
-0.29288526 -0.14054591 0.00000000
-0.47089929 -0.58236651 0.00000000
-0.14150372 -0.29006784 0.00000000
-0.20440614 -0.33846900 0.00000000
0.45044288 0.35995172 0.03315538
0.11782635 0.23418372 0.00000000
0.62330712 0.19228155 0.04972119
-0.35437755 0.44943594 0.00000000
0.36621098 -0.59303046 0.00000000
-0.52780642 -0.27250555 0.00000000
0.06724704 0.41416359 0.00000000
0.41808030 0.12188665 0.00000000
-0.06915318 -0.02102398 0.00000000
0.78291273 -0.43228231 0.00000000
-0.56503419 0.05354947 0.00000000
0.39503324 0.43249086 0.08778774
-0.12359899 -0.08906812 0.00000000
0.11014133 -0.59478147 0.00000000
-0.71584217 0.45435189 0.00000000
0.33283295 0.49571014 0.09103765
-0.67027263 -0.28906337 0.00000000
0.63084983 -0.20842763 0.00000000
0.19601172 0.61096055 0.02224032
-0.66699356 0.31947094 0.00000000
0.12741850 -0.19593182 0.00000000
0.17160688 -0.06443754 0.00000000
-0.23604253 -0.05854759 0.00000000
-0.19719708 -0.30202004 0.00000000
-0.25358346 -0.04991934 0.00000000
0.66863724 -0.42727753 0.00000000
-0.22182152 -0.66837046 0.00000000
0.37038275 0.52593536 0.30719823
-0.30033596 -0.41878964 0.00000000
0.44242228 0.41609881 0.18664863
0.59690627 -0.39376697 0.00000000
-0.13605553 0.51933643 0.00000000
0.40504694 0.29219812 0.00000000
0.63865320 -0.15396440 0.00000000
0.49418936 0.31428166 0.02702038
0.41976679 -0.38952367 0.00000000
-0.09571466 -0.68853522 0.00000000
0.52559098 0.37607680 0.32425982
-0.61676696 -0.07094617 0.00000000
-0.21395036 -0.19971908 0.00000000
-0.44675483 -0.66935228 0.00000000
-0.18597742 0.39270451 0.00000000
-0.21346613 0.12241015 0.00000000
0.04253559 0.04413566 0.00000000
-0.31582447 0.23298112 0.00000000
0.67134350 0.13128627 0.00839049
-0.58821612 -0.03310131 0.00000000
-0.71885600 -0.36099260 0.00000000
-0.13658125 -0.78979861 0.00000000
-0.48181450 -0.71129804 0.00000000
0.39233320 0.41219180 0.01443505
-0.06185471 -0.57420336 0.00000000
0.74873157 -0.68518447 0.00000000
0.34059415 0.17631316 0.00000000
0.73536628 0.06625083 0.00516070
-0.20192591 -0.67020000 0.00000000
-0.47868859 0.32186764 0.00000000
0.67441273 -0.21025934 0.00000000
-0.76137781 -0.29188338 0.00000000
-0.24455673 -0.45461880 0.00000000
-0.06549934 0.03651752 0.00000000
-0.46939964 0.59072551 0.00000000
-0.04573793 -0.77949063 0.00000000
-0.25725030 0.58468284 0.00000000
-0.19588097 0.70838378 0.00000000
0.40659817 0.04152025 0.00000000
0.54731786 0.29674172 0.14052551
-0.56424398 -0.14092831 0.00000000
-0.67116626 0.02688156 0.00000000
-0.01340929 0.39690278 0.00000000
0.34594883 -0.10177066 0.00000000
0.55774768 -0.37460352 0.00000000
0.07715146 -0.57783929 0.00000000
0.58899294 0.24095253 0.09551037
-0.66329583 0.63841038 0.00000000
-0.54532825 0.42633851 0.00000000
0.32350334 0.17505885 0.00000000
-0.63279737 -0.77408074 0.00000000
-0.02822971 -0.60890553 0.00000000
0.60267241 0.21859575 0.06783522
-0.02053647 -0.00462826 0.00000000
-0.61989864 0.61543213 0.00000000
0.40994966 -0.48628010 0.00000000
-0.08904364 0.40919048 0.00000000
-0.30607689 0.32752350 0.00000000
-0.18968170 -0.06492005 0.00000000
0.71403386 -0.47639412 0.00000000
0.62488407 -0.60332279 0.00000000
0.31655410 -0.60328031 0.00000000
-0.16337526 0.45208824 0.00000000
-0.34243828 0.42665826 0.00000000
0.34781973 0.34615936 0.00000000
-0.78907933 0.54551375 0.00000000
0.57156815 0.31248258 0.26807215
0.07623671 -0.27754225 0.00000000
-0.74227529 -0.32489018 0.00000000
0.30599214 0.35538612 0.00000000
0.34018305 -0.08104900 0.00000000
-0.77104717 -0.61116477 0.00000000
-0.17106543 -0.52336986 0.00000000
-0.77371434 0.77327267 0.00000000
0.11040180 -0.32648102 0.00000000
0.41986799 0.46898514 0.28338924
-0.38121767 -0.36147016 0.00000000
-0.70955086 -0.62456928 0.00000000
0.47168307 -0.24270398 0.00000000
-0.23732571 0.72021183 0.00000000
-0.44417444 0.40912936 0.00000000
-0.38461660 0.30094993 0.00000000
0.53898312 0.06212397 0.00000000
0.65213414 0.22434953 0.24393798
-0.25897494 0.27340895 0.00000000
0.74139711 0.07540417 0.05358868
0.51138407 -0.44658804 0.00000000
0.13901299 -0.20329602 0.00000000
0.11813238 0.03201400 0.00000000
0.07516448 -0.03196621 0.00000000
0.34754761 0.18483520 0.00000000
-0.34093357 0.07606359 0.00000000
0.03506666 -0.59149639 0.00000000
-0.47281024 -0.08869958 0.00000000
-0.25282386 0.51308421 0.00000000
-0.77420928 -0.23855937 0.00000000
-0.49490163 0.62668406 0.00000000
-0.68903406 0.02434425 0.00000000
0.51845099 -0.41817637 0.00000000
0.43374904 0.50006298 0.42678088
0.67432815 -0.10882347 0.00000000
-0.15203919 0.42852616 0.00000000
0.43300635 0.06930713 0.00000000
-0.10016611 0.75095682 0.00000000
0.47888759 0.34777324 0.08503444
0.74183575 -0.44027366 0.00000000
0.68113371 -0.32957310 0.00000000
0.33658009 0.03838119 0.00000000
-0.79636144 -0.28876460 0.00000000
0.35874801 -0.23547224 0.00000000
-0.22437943 -0.71750144 0.00000000
-0.42929858 -0.04062778 0.00000000
-0.42038617 0.51823287 0.00000000
-0.20005538 -0.13083727 0.00000000
-0.53510749 -0.23211920 0.00000000
0.03398050 0.07471968 0.00000000
0.32749410 0.54598805 0.23436548
-0.34810855 -0.21125357 0.00000000
-0.28765099 -0.14786708 0.00000000
0.20911676 -0.73087952 0.00000000
-0.46712844 0.13793666 0.00000000
0.05562093 -0.69396899 0.00000000
0.68102904 -0.30040535 0.00000000
-0.02950060 -0.78201082 0.00000000
-0.25674873 -0.25887880 0.00000000
0.05455793 -0.47058842 0.00000000
0.34098107 0.57615304 0.37358880
0.45328082 -0.50816131 0.00000000
-0.71424974 0.55869107 0.00000000
-0.33636139 0.34027549 0.00000000
-0.38689110 0.04940152 0.00000000
-0.37209046 0.11161357 0.00000000
0.38372114 -0.19158980 0.00000000
-0.49188692 -0.26514197 0.00000000
0.23341124 -0.02891893 0.00000000
0.21608144 -0.61555896 0.00000000
0.48291912 -0.07892543 0.00000000
-0.21840588 0.01263215 0.00000000
-0.72936891 -0.42592747 0.00000000
-0.23758192 0.07003670 0.00000000
-0.42340866 -0.25077332 0.00000000
0.35539748 -0.24962580 0.00000000
0.58213984 -0.30515831 0.00000000
-0.42103771 0.73786694 0.00000000
-0.66278669 -0.77024901 0.00000000
0.25897854 -0.03372490 0.00000000
-0.72171580 0.17500070 0.00000000
-0.55264065 -0.34609765 0.00000000
0.34909106 0.01757737 0.00000000
-0.07372221 0.59120974 0.00000000
-0.27188425 0.69526456 0.00000000
0.18350879 -0.13780324 0.00000000
-0.43848277 0.19559777 0.00000000
-0.44197564 -0.20863319 0.00000000
0.50056492 -0.77105263 0.00000000
-0.75136524 -0.62690787 0.00000000
-0.24325607 -0.57400772 0.00000000
-0.77398035 -0.74702755 0.00000000
0.63687307 -0.57854471 0.00000000
-0.30864157 0.19313801 0.00000000
-0.54341007 -0.34500881 0.00000000
0.66978430 -0.38255691 0.00000000
-0.79403300 0.26931394 0.00000000
0.37563855 0.16608341 0.00000000
-0.07158642 -0.05450464 0.00000000
-0.36377743 0.39668041 0.00000000
0.40928099 -0.45354655 0.00000000
-0.45275731 -0.62015472 0.00000000
0.78543135 -0.15062632 0.00000000
0.01827498 -0.19458557 0.00000000
-0.48055010 0.54836497 0.00000000
-0.42370179 -0.74887449 0.00000000
0.27139840 0.45346577 0.00000000
-0.10271572 -0.15543047 0.00000000
-0.39105072 0.49973392 0.00000000
0.61503198 0.21084432 0.08253229
-0.46177414 -0.12708590 0.00000000
0.28312761 0.01647495 0.00000000
0.19744265 0.62655217 0.07653156
-0.68323570 0.76531188 0.00000000
-0.05808983 0.50280223 0.00000000
0.05311181 0.74906931 0.00695956
0.07103511 0.03562745 0.00000000
-0.11207621 0.45511808 0.00000000
0.05001868 -0.39019063 0.00000000
-0.33648863 0.20129008 0.00000000
-0.50130538 -0.78512488 0.00000000
0.74890996 -0.49927643 0.00000000
0.06237424 0.14323645 0.00000000
-0.73333644 0.09939140 0.00000000
-0.73750163 -0.05137965 0.00000000
-0.41503089 -0.42033482 0.00000000
-0.28212500 -0.20748674 0.00000000
-0.70193752 0.55737514 0.00000000
0.24022649 0.58699048 0.08680818
0.41740602 -0.65241206 0.00000000
-0.19851787 0.65065726 0.00000000
-0.74879432 -0.56639861 0.00000000
-0.02565827 -0.54053968 0.00000000
-0.05259453 0.08353760 0.00000000
0.57718086 0.30070366 0.24840583
-0.06365144 -0.76726422 0.00000000
-0.67228762 0.78462460 0.00000000
0.72081659 -0.74267759 0.00000000
-0.17223852 -0.06451309 0.00000000
0.49610197 0.42411399 0.38341743
-0.17932666 -0.37073102 0.00000000
0.75350522 0.05178632 0.01687985
0.11259928 0.06976412 0.00000000
0.16124136 0.68142478 0.13608171
-0.67970223 -0.49416029 0.00000000
0.45377370 -0.75174819 0.00000000
-0.36616998 -0.16310232 0.00000000
-0.62033268 -0.60356361 0.00000000
-0.57576473 0.31135098 0.00000000
0.61749943 0.02258301 0.00000000
0.02703928 0.42460319 0.00000000
0.37249594 0.54686390 0.38068739
0.38619254 0.51236957 0.31435516
-0.07864882 0.20930607 0.00000000
-0.49493308 -0.40771219 0.00000000
-0.01058546 0.54924366 0.00000000
-0.18389639 0.09803172 0.00000000
0.31886426 0.19036526 0.00000000
-0.17415851 -0.68759757 0.00000000
0.70950360 -0.44243543 0.00000000
-0.24502463 -0.74638640 0.00000000
-0.27103453 0.00584912 0.00000000
-0.19666500 -0.26665016 0.00000000
-0.69793688 0.38931154 0.00000000
-0.04616330 -0.47318089 0.00000000
0.17372172 -0.10774216 0.00000000
-0.02821138 0.60920191 0.00000000
-0.08149015 -0.66874192 0.00000000
-0.55826568 0.47287526 0.00000000
0.22460160 -0.55633229 0.00000000
0.04950452 -0.50359243 0.00000000
0.60143876 -0.53450657 0.00000000
0.45502568 -0.02072523 0.00000000
-0.56333486 0.79341677 0.00000000
-0.54581757 0.50006733 0.00000000
0.31726893 0.48381217 0.00345120
0.50505771 0.37979607 0.27063342
-0.55069652 -0.78585485 0.00000000
-0.31324101 -0.70456863 0.00000000
-0.38602009 -0.01187558 0.00000000
0.24566873 -0.03188031 0.00000000
0.62297607 -0.46122200 0.00000000
0.46614673 -0.68856959 0.00000000
0.30545063 -0.06492470 0.00000000
0.16077111 0.14607069 0.00000000
-0.20667408 0.78336933 0.00000000
0.11355399 -0.03024628 0.00000000
-0.49259490 0.45924544 0.00000000
-0.04935049 0.47893216 0.00000000
-0.76623911 0.48080993 0.00000000
-0.30600858 -0.51838203 0.00000000
0.65813696 0.18825490 0.14796402
0.43906808 0.46393811 0.32852891
-0.11856030 0.54267340 0.00000000
0.20212305 0.62460823 0.08525913
-0.14705890 0.39648617 0.00000000
0.77959735 -0.41533406 0.00000000
-0.62678614 0.32377859 0.00000000
-0.08992861 0.76055276 0.00000000
0.56491989 0.32710401 0.29350152
-0.29260021 0.76939826 0.00000000
0.09480175 -0.30661353 0.00000000
0.67133273 0.15209574 0.07472524
0.47933494 0.45494151 0.42826193
0.31686519 0.57913087 0.30617131
0.63539472 0.16896144 0.01389654
-0.13014472 0.03637175 0.00000000
0.41053350 -0.73641046 0.00000000
0.23918593 -0.24125528 0.00000000
0.71230431 -0.78634282 0.00000000
0.35886386 -0.49691280 0.00000000
-0.42406902 0.51460000 0.00000000
-0.63139427 -0.19780159 0.00000000
-0.50015417 0.27585590 0.00000000
-0.56261151 -0.47568834 0.00000000
0.03222931 -0.54171677 0.00000000
0.19912128 0.24744504 0.00000000
-0.39699656 0.60636117 0.00000000
-0.64870957 -0.60498300 0.00000000
0.38782412 0.47263961 0.19284446
0.50161075 -0.69233365 0.00000000
-0.42701817 0.69506263 0.00000000
0.55188412 0.30162000 0.17064766
-0.79912095 -0.74224327 0.00000000
0.42657583 0.44920242 0.24168828
-0.48210151 0.67052132 0.00000000
-0.16843845 0.13495810 0.00000000
-0.01172973 -0.20745784 0.00000000
0.50038174 0.36674094 0.21408231
-0.45391844 -0.57392089 0.00000000
0.77574691 -0.69217089 0.00000000
-0.50340822 -0.39302422 0.00000000
-0.22150737 0.14701015 0.00000000
-0.52997588 -0.45002742 0.00000000
-0.21728036 -0.05297395 0.00000000
-0.70429696 0.01430302 0.00000000
0.74012375 -0.22394006 0.00000000
0.58198406 -0.76364391 0.00000000
-0.66115840 0.04397695 0.00000000
0.38690173 -0.75223806 0.00000000
0.61196515 -0.45135351 0.00000000
-0.19671289 -0.53154988 0.00000000
-0.34552309 -0.01536702 0.00000000
-0.64744583 0.15724842 0.00000000
0.56301128 -0.47097772 0.00000000
0.43540142 0.45936174 0.30223863
-0.75467957 -0.22345703 0.00000000
-0.40754109 0.13989808 0.00000000
-0.14731149 -0.16524706 0.00000000
-0.30024424 -0.63191618 0.00000000
0.38194290 -0.33491747 0.00000000
-0.02973786 -0.03309493 0.00000000
-0.57785612 0.00558737 0.00000000
0.28480831 -0.11170245 0.00000000
-0.28370597 0.10576592 0.00000000
-0.76297129 -0.13620427 0.00000000
0.18590875 -0.73522133 0.00000000
-0.58380973 0.24883458 0.00000000
0.27149937 -0.31812439 0.00000000
0.34134591 0.50482733 0.14726676
-0.59299686 0.63802352 0.00000000
0.15606999 -0.02784007 0.00000000
-0.58125394 -0.71895523 0.00000000
-0.06973313 0.09283799 0.00000000
-0.65868701 -0.09791601 0.00000000
-0.74161724 -0.68255503 0.00000000
-0.69250884 0.34772523 0.00000000
0.33607276 -0.38530322 0.00000000
0.45361490 0.37500533 0.09128367
0.58695960 -0.63870927 0.00000000
-0.70124647 -0.00486568 0.00000000
-0.02865357 0.74210051 0.00000000
0.70342084 -0.61914715 0.00000000
-0.46078619 0.42868079 0.00000000
0.53600328 0.32772505 0.20325645
0.45011357 -0.19921338 0.00000000
0.39185278 -0.63560579 0.00000000
-0.31258755 0.34693377 0.00000000
0.00680742 -0.30897797 0.00000000
