ply
format ascii 1.0
element vertex 1381
property float x
property float y
property float z
end_header
-0.66319666 -0.43784413 0.43897519
-0.25455803 -0.54655920 0.16849331
-0.19590977 0.10429180 0.00000748
-0.00732346 -0.17804147 0.00484744
-0.16898420 0.43157692 0.11185192
-0.15271202 0.00914581 0.10107002
-0.46823269 -0.09492006 0.30992718
-0.51131630 -0.75072285 0.00000000
-0.31587677 -0.55944700 0.00000000
-0.36546812 -0.35753471 0.00000000
-0.15306351 -0.14496148 0.10131355
-0.19024537 0.11092027 0.12591605
-0.05077139 0.31569177 0.00000000
-0.23268316 0.50281426 -0.00000047
-0.63217140 -0.40628860 0.41843945
-0.18498314 0.09784923 0.12243262
-0.14495703 0.21666748 0.00000656
-0.43473897 0.31116574 -0.00000099
-0.12276765 -0.09013427 0.08126056
-0.18368780 0.03293232 0.12157407
-0.37967950 -0.47581955 0.25131187
-0.72529672 -0.71384882 -0.00000022
-0.77319237 -0.51550376 -0.00000071
-0.18176794 -0.23034642 0.12031316
-0.57549098 -0.58866806 -0.00000000
-0.56339191 -0.16005058 0.37291424
-0.41249605 0.19727694 0.00000215
-0.07211894 -0.55262983 0.00000000
-0.25533213 0.21712301 0.16900109
-0.45600123 -0.25410586 0.30183049
-0.31866577 -0.79605745 0.00000000
-0.12339795 0.43373315 0.08167374
-0.00803349 0.70320491 0.00531587
-0.09250283 -0.48566607 0.00000000
-0.27297332 -0.57437383 0.18068248
-0.23619895 -0.65517744 0.15634134
-0.49636492 -0.49811393 0.32854701
-0.15412990 0.58643433 -0.00000028
-0.60495942 -0.20917560 0.40042823
-0.29158628 0.02557491 0.19299489
-0.04228864 0.27614048 0.00000000
-0.33035343 -0.37479987 0.21866268
-0.08243607 -0.38417319 0.05456487
-0.07745292 0.40541216 0.00000000
-0.11300131 0.18918864 0.07479617
-0.34642454 0.37120179 0.22930208
-0.09685383 0.04581223 0.06409676
-0.08190383 0.65588046 -0.00000009
-0.27826448 -0.08727417 0.00000000
-0.20004553 -0.10158772 0.00000000
-0.15085787 0.27932180 0.09985362
-0.56996792 0.22756117 -0.00000142
-0.53267151 0.14766018 0.00000067
-0.07094520 0.11595253 0.00000000
-0.21850088 0.54040022 0.00000014
-0.37710207 0.19586306 0.24960743
-0.16978294 0.57253028 0.11238064
-0.13253177 0.35471918 0.00000000
-0.22533450 -0.10565738 0.14915010
-0.31176511 -0.76003352 0.20635897
-0.60157307 -0.72108326 0.39818486
-0.08657012 0.44122797 0.00000408
-0.43167998 0.13528152 0.28573315
-0.66503225 -0.63965808 -0.00000029
-0.06666715 0.60538852 0.04412523
-0.49797873 0.19059606 0.32961744
-0.13153338 0.17684269 0.08705429
-0.62294287 -0.10971504 0.41233206
-0.00618020 0.53096841 0.00409071
-0.13700399 -0.38294236 0.09068366
-0.33532372 -0.75358717 0.00000000
-0.65617744 -0.34678233 0.43432949
-0.09870427 0.37760095 0.00000000
-0.31908229 0.01519187 0.21119528
-0.78109621 -0.20794634 -0.00000148
-0.65466314 -0.04521113 -0.00000130
-0.50398966 -0.33652483 -0.00000014
-0.14133492 -0.75810190 0.00000000
-0.14297233 -0.02083885 0.00000000
-0.02677370 0.66788704 0.01772165
-0.09459797 -0.36013404 0.06261489
-0.52957411 -0.51087650 0.00000000
-0.19810025 0.13064032 0.13112360
-0.38084292 0.26584805 0.25208234
-0.11529480 0.22177913 0.00000693
-0.46721282 -0.53520501 0.00000000
-0.36872254 0.22749394 0.24406099
-0.31831982 0.29823149 0.21069892
-0.05421360 -0.56758834 0.03588427
-0.16454574 0.55155905 -0.00000026
-0.00543710 0.20929518 0.00358863
-0.18001609 0.38285537 -0.00000003
-0.49250590 -0.73714595 0.00000000
-0.71626545 -0.62469810 -0.00000044
-0.54557410 -0.23451538 0.36112014
-0.21990281 -0.01751889 0.00000000
-0.36449609 -0.66662646 0.00000000
-0.48113973 -0.58986550 0.00000000
-0.77853229 -0.17084279 -0.00000157
-0.24137572 -0.79763310 0.15976787
-0.47272313 -0.04004248 0.31289964
-0.04692591 0.26279084 0.03106051
-0.47086742 -0.76606752 0.31166964
-0.54319109 0.11044295 0.00000109
-0.12891802 0.20635581 0.00000000
-0.53968268 -0.34751309 -0.00000027
-0.63417398 -0.57145443 0.41976428
-0.26484528 0.46755548 0.17530389
-0.28443612 -0.18436244 0.18826977
-0.13189253 0.15603418 0.08730037
-0.23035949 0.14018136 0.15247619
-0.21436840 0.05765125 0.14188274
-0.34915873 0.25154304 0.23110911
-0.62749574 0.08589655 -0.00000142
-0.12996752 0.01945444 0.08601506
-0.53087401 0.09456997 -0.00000102
-0.14280035 0.23239240 0.00000636
-0.63522812 -0.75556155 0.42046126
-0.43320592 0.00042772 -0.00000044
-0.35081324 0.02297085 0.23219933
-0.21768371 0.26819451 0.14408132
-0.46780823 -0.19549039 0.30964590
-0.29449022 -0.04779076 0.00000000
-0.05879767 0.18841610 0.03891849
-0.07378794 -0.76628567 0.00000000
-0.16567688 0.52083010 -0.00000021
-0.65062620 -0.61533599 0.43065395
-0.14321414 0.46641483 0.09479446
-0.65206860 -0.70898504 0.43160830
-0.27319157 -0.38800947 0.00000000
-0.15572106 0.57700849 0.10307266
-0.10484558 -0.23551160 0.06939784
-0.36345998 0.21456263 0.24057483
-0.15501267 -0.11086075 0.00000000
-0.23931536 -0.20003765 0.15840410
-0.21079275 0.12265904 0.00000000
-0.00540299 0.62566375 0.00000253
-0.62439317 -0.61999485 -0.00000015
-0.32319566 -0.50155907 0.00000000
-0.39175879 -0.44559719 0.00000000
-0.26812539 0.22093177 -0.00000012
-0.61404167 -0.06959552 0.40644035
-0.20037536 -0.02234042 0.13262951
-0.19179826 0.19065861 0.12694534
-0.46465099 -0.32787484 0.30755565
-0.43715474 -0.45861504 0.28935506
-0.05474554 -0.44644661 0.00000000
-0.67327517 -0.21258371 -0.00000108
-0.12996975 -0.56222226 0.08602767
-0.20982026 -0.28697108 0.00000000
-0.35133022 0.27483864 0.23254700
-0.19031229 0.40899848 0.12596622
-0.68624872 0.00352418 0.00000013
-0.41688782 -0.26273105 0.27594072
-0.07822784 0.39237388 0.00000000
-0.25727795 0.10957220 0.17029381
-0.00516443 -0.73099421 0.00341836
-0.38078938 0.12260139 0.25204380
-0.14278068 -0.52447533 0.09450729
-0.70688965 -0.07102575 -0.00000148
-0.04393220 0.02018489 0.00000000
-0.22245545 -0.58256805 0.00000000
-0.46044783 -0.55295892 0.30477285
-0.54709407 -0.55237456 0.00000000
-0.01710152 0.03592250 0.00000000
-0.11291586 -0.28259964 0.00000000
-0.32013010 -0.67543911 0.21189581
-0.22645940 0.48398588 0.14989577
-0.17173684 0.22100060 0.11367352
-0.13815233 -0.01743063 0.09144376
-0.33021334 -0.06749922 0.21857024
-0.25892393 0.23498046 0.17138372
-0.62584050 -0.29848334 0.41424943
-0.13421993 0.41985487 0.08884091
-0.53647668 0.06092324 0.35509761
-0.39873852 0.09320756 0.26392857
-0.05568155 0.52777560 0.03685591
-0.12482767 0.41134347 0.08261971
-0.45242362 -0.40505216 0.29946192
-0.33732447 -0.07043521 0.00000000
-0.12282471 -0.54110299 0.00000000
-0.44051441 -0.62563429 0.29157882
-0.11652863 -0.02657984 0.07713092
-0.27235203 0.05503116 0.18026367
-0.37514827 -0.07451353 0.24831331
-0.51370769 -0.30386633 -0.00000024
-0.09741101 -0.74068888 0.00000000
-0.45730110 0.24671155 0.30269250
-0.19920270 0.55261068 0.13185438
-0.65989610 -0.48022259 0.43679034
-0.21757671 0.47985852 0.14401508
-0.02409930 0.55031248 0.01594756
-0.73995445 -0.29330022 -0.00000123
-0.42487333 -0.40967594 0.28122597
-0.08405528 -0.42606836 0.00000000
-0.40837207 -0.34595150 0.00000000
-0.79408679 -0.09101324 -0.00000177
-0.22003612 -0.28121974 0.14564307
-0.29654301 -0.03679273 0.19628346
-0.02611108 0.42716205 0.01727705
-0.51858319 0.07384622 0.34325545
-0.05289331 0.65712010 0.00000000
-0.56260445 -0.34407385 -0.00000038
-0.10648562 -0.41767917 0.07048340
-0.65132489 -0.54402148 -0.00000040
-0.05716526 0.29166831 0.03783799
-0.36315691 -0.15152004 0.24037580
-0.55057086 0.24468685 -0.00000137
-0.20954410 0.15570253 0.13869114
-0.60159955 0.06963427 -0.00000128
-0.15208839 -0.63521485 0.10066811
-0.33403112 0.12500949 0.22109791
-0.02597090 0.09654824 0.01717849
-0.42191755 0.13116643 0.00000307
-0.55061084 -0.34712154 -0.00000032
-0.30253630 0.24623655 0.00000344
-0.61706007 0.03981286 -0.00000129
-0.59638969 -0.46265435 -0.00000031
-0.56643654 -0.11082970 -0.00000081
-0.46815592 0.20576711 -0.00000095
-0.02412590 -0.76117935 0.01596906
-0.63361301 -0.56269134 -0.00000030
-0.25724783 -0.56757780 0.17027370
-0.26514336 0.06867689 0.00000000
-0.41973252 0.10956179 0.27782142
-0.76742848 -0.58186875 -0.00000055
-0.04162539 0.72074233 0.02755165
-0.13336571 0.26464561 0.00000000
-0.28245376 0.25384969 0.18695469
-0.47715775 0.25260734 -0.00000002
-0.60972008 0.06139443 -0.00000130
-0.60179595 -0.06164695 0.39833476
-0.10579388 0.50805323 0.00000278
-0.21142002 -0.33514772 0.13994003
-0.27128281 0.09651254 0.00000646
-0.21007988 0.45769514 0.13905218
-0.48104903 0.17586728 0.31841050
-0.11292367 0.40010515 0.00000000
-0.02367040 -0.41577225 0.01566756
-0.65353052 -0.79701802 0.43257559
-0.59136110 -0.53147230 -0.00000017
-0.15259658 0.46651012 0.10100483
-0.03235112 0.26029455 0.00000761
-0.72948742 -0.65608119 -0.00000036
-0.47463054 0.09476973 0.00000267
-0.36962579 -0.20662615 0.00000000
-0.25803289 -0.44218609 0.17079333
-0.13233130 -0.18324955 0.08759079
-0.51191356 -0.27246212 0.33883961
-0.56525344 -0.46625896 -0.00000017
-0.23325892 -0.21357125 0.15439531
-0.22896827 0.35025659 -0.00000018
-0.58117615 0.00125917 0.38468454
-0.09309735 -0.25705678 0.06162163
-0.04922975 0.72138487 0.03258563
-0.03794669 0.66658246 0.02511711
-0.16742165 0.35470661 0.11081289
-0.11134992 0.44445013 0.07370310
-0.39248426 -0.42623299 0.25978741
-0.03021497 -0.50665803 0.01999945
-0.45404946 -0.61671434 0.30053774
-0.64515029 -0.75010940 -0.00000001
-0.28584135 -0.59869831 0.00000000
-0.17604497 0.15239750 0.00000706
-0.30508086 0.20334433 0.20193130
-0.24804361 -0.43179761 0.16418138
-0.13179067 -0.52487067 0.00000000
-0.58036142 0.07371893 0.38414681
-0.10078726 0.12050333 0.00000867
-0.47919807 0.21770924 0.00000052
-0.36858114 0.09587376 0.00000468
-0.54182587 -0.63983555 0.00000000
-0.12652249 -0.13759386 0.08374591
-0.13622355 0.15875046 0.00000756
-0.44941691 0.14979932 0.29747147
-0.11464096 -0.72059611 0.07588146
-0.45707053 -0.68417501 0.00000000
-0.73435963 -0.02554524 -0.00000167
-0.05804582 -0.64343634 0.00000000
-0.38171420 0.26621780 0.25266049
-0.30817036 0.42396649 0.20398125
-0.08104476 0.58022162 0.05364401
-0.19281505 0.47955904 0.12762607
-0.00132973 0.48481720 0.00000471
-0.12258390 0.29852134 0.00000000
-0.30757027 0.33111976 0.20358375
-0.48558229 -0.35340395 -0.00000003
-0.20161151 -0.46143442 0.13344773
-0.07855930 0.14664131 0.05198892
-0.26790118 -0.65278826 0.17732521
-0.10615572 0.43824873 0.00000382
-0.59285723 0.07383931 0.39241825
-0.45003301 -0.68446122 0.00000000
-0.63783839 -0.12642661 0.42219157
-0.47884661 -0.50361537 0.00000000
-0.71869807 -0.58058376 -0.00000055
-0.05873033 0.15269064 0.00000882
-0.49934166 -0.69496238 0.00000000
-0.47467965 -0.77425763 0.00000000
-0.05500222 0.35857617 0.03640626
-0.62784576 -0.28097307 -0.00000077
-0.51853920 0.17252079 -0.00000110
-0.34835018 -0.63925157 0.23057483
-0.04710886 0.59988665 0.03118160
-0.12771931 0.20720174 0.00000696
-0.40274939 0.17492156 -0.00000061
-0.14800499 0.36440053 0.09796528
-0.28245705 -0.27687791 0.18695982
-0.01755929 0.05373918 0.01160989
-0.34485964 0.37090768 0.22826625
-0.41356848 0.29738876 -0.00000088
-0.10207907 0.19856740 0.06755814
-0.07496544 0.22198588 0.00000000
-0.30641918 -0.59800686 0.20282047
-0.00988274 -0.52367726 0.00654144
-0.65931561 -0.31683962 -0.00000084
-0.40069179 -0.33889036 0.26522009
-0.63924701 -0.65281473 0.42312182
-0.45375364 -0.29938768 0.30034263
-0.00130987 0.34579125 0.00000000
-0.13213944 0.35640417 0.00000466
-0.19551558 -0.35699437 0.12941280
-0.19447911 0.57004672 -0.00000042
-0.13854818 0.53154593 0.09170620
-0.15543625 0.44548258 0.10288438
-0.10379427 -0.54240842 0.06870198
-0.13895550 0.05672272 0.00000905
-0.06601084 -0.35343914 0.04369292
-0.29932556 -0.57166247 0.19812517
-0.18026264 -0.50947970 0.00000000
-0.20599553 -0.44749632 0.00000000
-0.11723502 0.31279114 0.00000554
-0.28575449 0.04738289 0.00000000
-0.01484085 -0.01718184 0.00982324
-0.33725507 0.10090549 0.22323181
-0.37689202 0.34208997 0.24946886
-0.35014200 -0.58918803 0.00000000
-0.68408222 0.02188990 -0.00000154
-0.18356863 -0.42150867 0.12150505
-0.06669774 0.23526739 0.00000746
-0.13899647 -0.57786237 0.00000000
-0.00818864 -0.64333518 0.00000000
-0.11310625 0.51512442 0.07486301
-0.29361509 0.23199239 0.19434231
-0.12758296 0.07810683 0.08443769
-0.55388798 0.21617702 -0.00000133
-0.22802648 0.18969179 0.15093209
-0.69594473 0.04230443 -0.00000163
-0.21476103 0.22499217 0.00000538
-0.10392900 -0.72778019 0.06879116
-0.02756521 -0.63422094 0.01824556
-0.02289206 0.07987652 0.01515238
-0.25565389 -0.26334985 0.00000000
-0.32647791 -0.60538306 0.21609745
-0.40265873 0.08552134 0.00000420
-0.43501831 0.09944314 -0.00000062
-0.60230683 -0.04505992 0.39867297
-0.02021482 0.09627549 0.01338030
-0.20866672 0.40819137 0.13811568
-0.49147012 -0.36604491 -0.00000004
-0.04094236 0.49293742 0.00000000
-0.20758892 -0.30128308 0.13740420
-0.05619277 0.71896709 0.03719431
-0.36819580 -0.17695641 0.24371104
-0.61607506 0.16307614 -0.00000119
-0.39151947 -0.08506808 -0.00000011
-0.62604488 -0.41626262 -0.00000052
-0.36427753 0.20657378 0.00000292
-0.53657163 -0.41349840 0.35516070
-0.02352663 -0.51335803 0.01557240
-0.14800650 0.35238026 0.09796132
-0.64284225 -0.24440584 0.42550324
-0.24046545 0.09929041 0.00000000
-0.14899997 0.57561070 -0.00000024
-0.25373978 -0.31354980 0.16795170
-0.21243768 0.38419584 0.00000287
-0.55744049 0.14407999 0.00000025
-0.16050225 -0.11916501 0.00000000
-0.25979119 -0.44995232 0.17195716
-0.07317527 0.47535517 0.00000000
-0.36566135 -0.55743324 0.24203318
-0.53542848 0.06209754 0.35440379
-0.54251272 -0.05154911 0.35909436
-0.21036802 0.22255912 0.13923781
-0.54997460 -0.33906253 0.36403256
-0.03493884 0.36938699 0.02312620
-0.08214109 0.62095803 0.00000141
-0.47850650 0.04841920 0.00000337
-0.52087206 0.25412532 -0.00000088
-0.39550859 0.00153343 -0.00000028
-0.39631605 0.28147504 0.00000105
-0.28641642 0.43759933 0.18958170
-0.72960946 -0.58496823 -0.00000054
-0.17066160 -0.52644319 0.11296182
-0.17341033 0.37822855 0.11478147
-0.24387289 -0.77918810 0.00000000
-0.14682941 -0.15399346 0.00000000
-0.57614123 -0.33800980 0.38135264
-0.78266282 -0.11194326 -0.00000172
-0.50611856 -0.35545992 -0.00000012
-0.28788959 -0.61915753 0.19055564
-0.08986144 0.38802711 0.00000000
-0.15274664 0.40777722 0.10110011
-0.02515824 -0.02506675 0.01665237
-0.30995153 0.04831269 0.00000000
-0.55496683 -0.08609767 -0.00000080
-0.02507374 0.61309470 0.01659366
-0.47296886 -0.12676268 -0.00000038
-0.32732536 -0.18796561 0.21665839
-0.27406238 0.00670709 0.00000000
-0.41842317 -0.40968156 0.27695652
-0.05241472 0.63993496 0.03469358
-0.04539485 0.41196438 0.00000000
-0.03296918 -0.41598780 0.02182248
-0.74823589 0.04626118 -0.00000178
-0.15690157 0.12798248 0.10385398
-0.60065940 -0.76162150 0.00000000
-0.02941291 -0.72992044 0.01946856
-0.07449594 0.17244315 0.00000000
-0.22237011 0.29438551 -0.00000006
-0.56115087 -0.76174456 0.37142891
-0.33204197 -0.73043410 0.21978034
-0.28892975 0.21789306 0.19124495
-0.45410230 -0.55948104 0.00000000
-0.14830026 0.58103394 0.00000081
-0.34655766 -0.48089827 0.22938835
-0.40139728 -0.27668301 0.00000000
-0.28948611 0.06358113 0.00000668
-0.11458442 0.18628074 0.00000000
-0.12408616 0.64332468 -0.00000025
-0.20096842 0.26510166 0.00000000
-0.32075076 0.17818688 0.21230324
-0.07984807 0.36714133 0.05285186
-0.23278256 0.55993867 -0.00000057
-0.30669588 -0.73206943 0.00000000
-0.11768653 -0.36725720 0.00000000
-0.36187279 0.09520450 0.23952662
-0.18968008 -0.17226522 0.00000000
-0.24132405 0.38760595 0.00000225
-0.09302393 0.53411365 0.06157304
-0.66772316 -0.67755520 -0.00000024
-0.34623560 0.30852962 0.00000156
-0.04814298 0.66024068 0.00000137
-0.42114570 -0.32563172 0.27875887
-0.24729157 0.51873776 -0.00000005
-0.24284081 -0.00622150 0.00000000
-0.07571084 0.26776841 0.05010557
-0.01553537 -0.06060067 0.00000000
-0.05387967 0.53967391 0.03566324
-0.13619744 0.59234174 0.00000085
-0.26240699 0.20216910 0.17368909
-0.08890541 0.53728201 0.05884409
-0.00507619 0.50392179 0.00335488
-0.23648555 0.09573502 0.15652329
-0.41715362 -0.28439660 0.00000000
-0.65534132 -0.52444364 0.43377531
-0.57359769 -0.44592000 -0.00000025
-0.42782081 0.11692908 0.00000319
-0.23181772 -0.37382659 0.15344138
-0.13224697 0.16617553 0.00000000
-0.36212265 -0.54320518 0.00000000
-0.35760030 0.17506260 0.00000357
-0.61883440 0.05350080 0.40961313
-0.09889012 0.07903951 0.00000932
-0.33080877 0.28573888 0.00000224
-0.31194891 0.27902351 0.00000271
-0.29145668 -0.67278327 0.00000000
-0.12002246 0.26230816 0.00000625
-0.34094129 -0.18862445 0.22567084
-0.59228888 -0.52884023 0.39204038
-0.02617252 -0.17205854 0.01732373
-0.18305919 -0.23923002 0.12116785
-0.37454325 -0.03780274 -0.00000012
-0.63443290 -0.74334145 0.41993495
-0.05986388 0.33054903 0.00000614
-0.29626235 0.30656055 0.00000255
-0.05333210 0.42607395 0.00000000
-0.33807076 -0.70145122 0.00000000
-0.22509524 0.46757237 0.14899160
-0.01152309 0.23561541 0.00761756
-0.43606613 -0.23457657 0.28863521
-0.08278133 -0.20987358 0.00000000
-0.45626591 -0.52620807 0.00000000
-0.43835304 -0.34577843 0.00000000
-0.15817306 -0.35141016 0.10469558
-0.07340597 0.17967259 0.04857838
-0.07067606 0.16677966 0.00000000
-0.69522839 0.09477271 -0.00000172
-0.32955677 -0.08378333 0.21813559
-0.35497136 -0.02569036 0.23495807
-0.04839263 0.13571492 0.03203134
-0.08970111 -0.26736389 0.05937364
-0.53638396 0.21612069 -0.00000055
-0.10931449 -0.67517131 0.07235584
-0.25261252 0.35710823 -0.00000030
-0.14493997 0.38865873 0.09593656
-0.17048670 0.40187623 0.11284278
-0.58230286 -0.22394152 0.38543148
-0.27072083 -0.60454229 0.17919155
-0.28150253 -0.28201862 0.00000000
-0.20436788 0.21616294 0.00000000
-0.02528225 0.57872241 0.01673108
-0.26344027 0.20173101 0.17437304
-0.08894435 0.13045082 0.05886276
-0.14302598 -0.21518245 0.00000000
-0.25219531 -0.60364508 0.00000000
-0.00041176 0.19307644 0.00027254
-0.42788168 0.10661228 0.28321891
-0.18778852 0.27961574 0.12429284
-0.26249858 -0.56787392 0.17374920
-0.23472009 -0.33263366 0.15536247
-0.03498386 -0.13162430 0.02315600
-0.46974997 -0.24169390 0.31093101
-0.28086280 0.26072326 -0.00000025
-0.37180492 0.06991928 0.00000506
-0.47947773 0.18962627 -0.00000097
-0.33192530 0.33326828 0.21970344
-0.09219721 -0.61651985 0.06102582
-0.38496312 0.18338642 0.25480787
-0.12340122 0.14211652 0.08167992
-0.10181178 0.61408801 0.00000115
-0.61683154 -0.15778464 -0.00000094
-0.15225532 -0.44589297 0.10077860
-0.66405746 -0.22620933 -0.00000102
-0.64042727 -0.20021775 -0.00000097
-0.47924647 -0.39936377 0.31721638
-0.35199347 -0.67147120 0.00000000
-0.10759250 0.49157168 0.00000300
-0.27411402 0.07744451 0.18143775
-0.23470493 0.41631958 0.00000190
-0.55597464 -0.60222171 0.00000000
-0.23357093 0.27845470 -0.00000007
-0.30632942 0.40656484 -0.00000061
-0.49521405 -0.69826626 0.00000000
-0.47820359 -0.42125052 0.00000000
-0.45575008 -0.64052705 0.00000000
-0.03047710 0.22010264 0.00000824
-0.69300591 -0.19108645 -0.00000121
-0.14036023 -0.64322157 0.00000000
-0.22745791 -0.31531368 0.00000000
-0.30751672 0.22530086 -0.00000030
-0.42511419 -0.75977798 0.28138533
-0.41303096 -0.53250368 0.00000000
-0.30569322 -0.66338685 0.00000000
-0.30860282 -0.49604918 0.20426584
-0.25024939 0.27809937 0.00000391
-0.54358818 0.12871628 0.00000077
-0.19825385 0.52565873 0.00000078
-0.04525086 -0.15139884 0.00000000
-0.34808093 -0.04362101 0.23039714
-0.69166034 0.07750215 -0.00000121
-0.17724746 -0.52001531 0.11732103
-0.29756910 -0.38054481 0.19696256
-0.26487467 -0.55824402 0.00000000
-0.62782553 -0.27214308 -0.00000078
-0.04834385 0.39160008 0.00000540
-0.17530176 -0.26392809 0.00000000
-0.43952453 -0.11598819 0.29092476
-0.20202222 0.27763602 0.00000479
-0.21437301 -0.28789601 0.00000000
-0.69974787 -0.14624648 -0.00000131
-0.06672328 0.43212761 0.04416449
-0.48634674 -0.38988215 0.00000000
-0.65047188 -0.53124252 -0.00000042
-0.12347010 0.18435534 0.08172551
-0.32932888 0.36273208 0.21798541
-0.03037384 0.69407355 0.00000113
-0.25754764 0.30480981 -0.00000022
-0.03105213 -0.09438786 0.00000000
-0.08658992 0.12975286 0.05731432
-0.07502125 0.20580395 0.04965696
-0.71363424 -0.70825044 -0.00000023
-0.03457633 0.75947578 -0.00000008
-0.22818190 -0.50285633 0.00000000
-0.16728354 -0.27192178 0.11072586
-0.23051160 -0.22433727 0.00000000
-0.05814071 0.23578382 0.03847491
-0.08507115 0.60431479 -0.00000002
-0.18523028 0.15125471 0.12259714
-0.01138848 0.24220912 0.00753810
-0.37629303 0.34756964 0.24907240
-0.13056998 -0.10724597 0.08642496
-0.38076556 -0.66803165 0.00000000
-0.65914811 0.10111868 -0.00000098
-0.03262565 -0.09504614 0.00000000
-0.33111663 -0.59460714 0.21916785
-0.44801152 -0.69506486 0.29654120
-0.24761308 -0.57083438 0.16389641
-0.00679624 -0.20226553 0.00449847
-0.14681459 -0.37172875 0.00000000
-0.49941719 0.17806716 0.33056953
-0.52025907 -0.60824224 0.00000000
-0.00864241 -0.59347715 0.00572045
-0.30861898 0.19170635 0.00000423
-0.10129805 -0.69069497 0.00000000
-0.01574044 0.44976124 0.01041286
-0.23502075 0.45491415 -0.00000039
-0.06451699 0.28944161 0.04269646
-0.36955747 0.28387070 -0.00000066
-0.01936625 0.65591898 0.01281862
-0.44325080 -0.52329865 0.29339005
-0.10312486 -0.65066272 0.00000000
-0.33103942 0.05849769 -0.00000010
-0.32952654 0.00646235 0.21810853
-0.65143767 -0.10036825 0.43119321
-0.50182466 0.21951215 0.00000006
-0.44492598 -0.52344043 0.00000000
-0.71997604 -0.00674993 -0.00000165
-0.30751139 0.22209876 0.00000375
-0.26158591 -0.17055321 0.00000000
-0.36467115 -0.71240308 0.24137777
-0.18354881 -0.73859757 0.00000000
-0.08969930 0.42004454 0.00000000
-0.19104255 -0.12546007 0.00000000
-0.48441439 0.13134067 0.32063881
-0.20524437 -0.28318396 0.13585233
-0.13564264 0.52750025 0.08978094
-0.22100208 0.26760396 0.14628279
-0.00253730 0.41597176 0.00167279
-0.35692104 -0.78162716 0.23624792
-0.49076302 -0.47098073 0.32483912
-0.35550232 0.38884375 0.00000004
-0.07627845 -0.78215994 0.05048911
-0.33472335 -0.24663530 0.00000000
-0.30992083 0.21377358 -0.00000029
-0.28432719 -0.16452920 0.00000000
-0.31241676 -0.30742899 0.20679030
-0.51713350 -0.06495807 0.34229544
-0.20339182 -0.60836876 0.00000000
-0.02696079 0.34621587 0.00000640
-0.47264448 -0.53403700 0.31284599
-0.15947795 0.43286221 0.00000307
-0.27976614 -0.35784030 0.18517869
-0.07817122 0.70624106 0.05174237
-0.14377322 0.53501662 -0.00000015
-0.02541867 -0.76833381 0.00000000
-0.28533218 -0.54110194 0.18886288
-0.33289213 -0.16577184 0.00000000
-0.36046018 -0.37606374 0.23859050
-0.02713696 0.04789367 0.00001087
-0.15516006 0.14266470 0.00000752
-0.71022098 -0.17893844 -0.00000130
-0.44517422 0.02930015 0.29466047
-0.32990480 0.31204195 0.21836724
-0.36483978 -0.05366083 -0.00000005
-0.06082243 0.25433037 0.04025033
-0.53941353 -0.72754508 0.35704078
-0.61222900 -0.10555348 -0.00000101
-0.05965951 -0.02238724 0.03948895
-0.72922724 -0.46084200 -0.00000085
-0.13653405 0.58312450 0.09037221
-0.63014411 -0.47004717 0.41709731
-0.62080949 -0.47085792 -0.00000040
-0.51594111 -0.78744768 0.00000000
-0.24821924 -0.28710307 0.16429763
-0.55800131 -0.20241791 0.36934599
-0.08553224 0.34722659 0.05660798
-0.36763464 0.11713914 0.24334054
-0.11737862 0.29118147 0.07768691
-0.48385857 0.27066770 -0.00000113
-0.07377253 0.40441255 0.00000482
-0.04887086 0.38805733 0.00000544
-0.79590069 -0.05252356 -0.00000187
-0.32449876 -0.51931275 0.00000000
-0.01002965 0.61794126 0.00663569
-0.28011276 0.36051672 0.18540740
-0.24796641 0.46058509 -0.00000046
-0.69679897 -0.23949062 -0.00000114
-0.32166794 -0.28170306 0.00000000
-0.12228295 0.18795576 0.00000000
-0.73592762 -0.56337968 -0.00000059
-0.24066058 -0.30236024 0.00000000
-0.70410436 -0.31551623 -0.00000103
-0.38544181 -0.37115354 0.00000000
-0.45046205 0.08452088 0.00000330
-0.01643636 -0.74190796 0.00000000
-0.24149857 0.22402650 0.00000498
-0.43452414 -0.10717967 0.28761495
-0.38055552 -0.33838860 0.25189171
-0.41294161 0.12946517 0.27332993
-0.11054398 0.02199173 0.07316965
-0.64363375 -0.01464270 0.42602796
-0.57343661 0.01253096 -0.00000106
-0.05557641 0.14110298 0.00000904
-0.05664486 -0.38186875 0.00000000
-0.54831794 -0.25082668 0.36293628
-0.01180601 0.19720880 0.00000000
-0.35664120 0.29589692 0.23606299
-0.29389590 0.08532960 0.19453169
-0.15199631 -0.21063288 0.10060716
-0.58609797 -0.38312810 -0.00000041
-0.43991321 -0.53121651 0.00000000
-0.05146060 0.68523970 0.03406215
-0.43966483 0.22231085 -0.00000086
-0.22720256 0.39677650 0.15038499
-0.58121343 -0.50780002 -0.00000017
-0.32326299 0.20778128 0.21396681
-0.33452210 -0.33818296 0.00000000
-0.22817097 0.36552725 0.15102533
-0.31863584 0.14019512 -0.00000019
-0.65488069 -0.20515522 0.43347175
-0.69965624 -0.45982152 -0.00000076
-0.32915305 -0.59160981 0.21786815
-0.10824595 -0.77963553 0.00000000
-0.45346320 0.34241627 -0.00000113
-0.03023834 0.53264476 0.02001083
-0.40443183 0.30132677 0.00000056
-0.12404322 -0.71199906 0.00000000
-0.33478175 -0.08428065 0.00000000
-0.04905479 -0.55530026 0.00000000
-0.40455086 0.11389012 0.26777221
-0.06724947 0.27957322 0.04451278
-0.05397661 -0.59084809 0.03572740
-0.05764660 0.54010359 0.03815659
-0.25100405 -0.57792544 0.00000000
-0.42973399 -0.26897887 0.28444377
-0.36399576 0.37295328 -0.00000080
-0.47868801 -0.13061276 0.31684759
-0.04564728 -0.27106769 0.00000000
-0.00025932 0.75506934 0.00017164
-0.53186646 0.03582254 0.00000255
-0.30002965 -0.77039202 0.19859121
-0.50769247 -0.37935617 -0.00000008
-0.07086116 0.26382745 0.04690338
-0.46327592 -0.41351287 0.00000000
-0.29767054 -0.48188708 0.19702970
-0.31613968 0.00639597 0.20924727
-0.49121418 0.24941890 -0.00000112
-0.01372600 0.15882777 0.00000941
-0.00025130 0.45129253 0.00016633
-0.23118204 -0.46309212 0.00000000
-0.01575413 0.28927989 0.01042774
-0.01987891 -0.68617372 0.00000000
-0.24170562 0.25349376 0.15998672
-0.30405002 0.07535393 0.20125282
-0.11678817 0.15136420 0.07729363
-0.00628749 0.10401854 0.00416172
-0.41298397 -0.52880823 0.27335627
-0.04904974 0.41202569 0.00000000
-0.22399664 -0.04743367 0.00000000
-0.25146900 -0.77078289 0.16644866
-0.60507609 0.04824519 0.40050580
-0.16854527 0.08665347 0.00000816
-0.36431217 0.36871954 0.00000021
-0.45078581 0.16955467 0.00000187
-0.24311675 0.45063375 0.16092033
-0.34174696 0.19598562 -0.00000039
-0.68167569 -0.48392460 -0.00000064
-0.56211269 -0.06674680 -0.00000087
-0.20905319 0.00749386 0.13836360
-0.40623126 0.04948839 0.26888799
-0.10649868 0.35055882 0.00000000
-0.73071712 -0.36961871 -0.00000105
-0.16565099 0.46331245 0.10964318
-0.07818542 -0.00904072 0.00000000
-0.05850493 -0.18496267 0.03872472
-0.07535944 0.08109263 0.04988081
-0.15916816 -0.20883652 0.00000000
-0.69071598 0.04937523 -0.00000162
-0.19929170 -0.46369558 0.00000000
-0.26681047 0.47472705 0.17660461
-0.36771939 -0.64922048 0.00000000
-0.26692050 -0.62777823 0.17667609
-0.46154905 0.05274419 -0.00000065
-0.42465837 -0.70761701 0.28108362
-0.22774987 0.48662665 0.15074996
-0.55063758 0.02532214 0.00000237
-0.25762024 0.33746401 0.17051828
-0.10801599 -0.07157970 0.07149636
-0.50967625 -0.33819066 0.33735849
-0.33895029 -0.34128748 0.00000000
-0.48878731 -0.60450898 0.00000000
-0.21536875 -0.19783271 0.00000000
-0.22114158 -0.25100741 0.14637478
-0.13859885 -0.28681528 0.00000000
-0.17989014 0.29327672 0.00000489
-0.27666985 -0.46899319 0.00000000
-0.52323560 -0.44971259 0.34633327
-0.27025535 -0.60460431 0.17888344
-0.29534689 0.06466640 0.19549205
-0.35212855 -0.70623530 0.00000000
-0.03260499 -0.40163432 0.02158142
-0.56990601 0.17517931 -0.00000133
-0.39931573 0.36964825 -0.00000094
-0.01964125 0.18598992 0.01300065
-0.63514416 -0.05823513 -0.00000119
-0.09664089 0.36206749 0.06396712
-0.38805992 -0.17265666 0.00000000
-0.12600804 0.56667616 0.08340429
-0.33260878 0.05325608 -0.00000010
-0.23627170 -0.04481299 0.15638949
-0.20978733 -0.26157681 0.00000000
-0.70622819 -0.75430224 -0.00000011
-0.16500340 0.57183570 -0.00000030
-0.22022056 -0.45974822 0.00000000
-0.16097493 0.01493120 0.00000935
-0.25471580 0.39319958 0.16859693
-0.11740049 -0.35482744 0.00000000
-0.20370433 -0.77569997 0.00000000
-0.20352139 0.28641148 0.00000000
-0.38153958 0.34450073 -0.00000082
-0.41532373 0.29845412 -0.00000089
-0.03915040 0.70831394 0.02591310
-0.04788638 0.65526687 0.03169625
-0.13000262 -0.70723696 0.00000000
-0.56733908 0.02392086 0.37552753
-0.06779845 -0.02599287 0.04487615
-0.37374500 0.15661660 0.00000357
-0.10758434 0.12165039 0.07121064
-0.09361577 -0.74295356 0.00000000
-0.43513838 0.27874049 -0.00000094
-0.27450659 0.07424037 0.18169759
-0.27362047 0.20178769 0.18110648
-0.07913757 0.70052808 0.05238199
-0.38964547 -0.57478215 0.25790840
-0.47412468 -0.11439805 0.31382711
-0.12470787 -0.43036486 0.08254480
-0.23541459 -0.09686469 0.15582216
-0.66535132 -0.79556592 -0.00000001
-0.62390121 0.01690226 0.41296616
-0.43736286 0.16335515 0.28949275
-0.00011829 0.46409837 0.00007829
-0.39819178 -0.26410472 0.26356553
-0.07004221 -0.78511346 0.04636131
-0.72945479 -0.30631975 -0.00000116
-0.06368019 0.36197405 0.00000000
-0.13526027 0.50967991 0.08952745
-0.19370347 0.06677575 0.12820428
-0.42470525 -0.64122130 0.28111465
-0.45565864 -0.71103767 0.30160287
-0.04401947 -0.72004090 0.02913672
-0.02993383 0.69241882 0.01981206
-0.55491121 -0.55343134 0.36729948
-0.14991728 0.44164998 0.09923128
-0.16910776 0.31127084 0.11192805
-0.00626283 -0.72986235 0.00000000
-0.38920327 -0.34201189 0.00000000
-0.24088554 -0.31796792 0.15944341
-0.33752339 -0.02544626 0.00000000
-0.19849558 0.53926880 0.13138586
-0.59855432 -0.47101283 -0.00000031
-0.04680330 0.45788516 0.03097428
-0.16975848 -0.62680034 0.11236403
-0.02544938 -0.63242741 0.00000000
-0.08090346 0.47405509 0.00000000
-0.04945786 -0.72370370 0.00000000
-0.17284017 0.26995180 0.11440382
-0.33550812 0.38690713 0.22207620
-0.33675869 -0.49173834 0.00000000
-0.16402422 -0.48472560 0.00000000
-0.04999374 0.19768318 0.00000000
-0.71732988 -0.59268013 -0.00000052
-0.54629866 -0.51695677 0.36159883
-0.11375363 0.15868902 0.07529413
-0.17600326 -0.17872787 0.00000000
-0.59396795 0.06970906 0.39315372
-0.56661008 -0.78434841 0.37504231
-0.19005288 -0.78236669 0.00000000
-0.00012091 0.49677976 0.00000000
-0.19432744 -0.11582931 0.12862636
-0.05464468 0.64556860 0.03616962
-0.57543212 -0.34584165 -0.00000043
-0.16525617 0.32926019 0.10937893
-0.48565507 -0.51053827 0.00000000
-0.29893275 0.33764087 0.19786455
-0.44599032 0.07935731 0.00000347
-0.15524110 0.11225684 0.00000797
-0.12287583 -0.51506173 0.00000000
-0.60137768 -0.62362032 0.39805593
-0.55549586 0.01985346 0.36768621
-0.62325438 0.06345744 -0.00000136
-0.04931803 0.16534784 0.03263373
-0.05879675 0.59190962 0.03891788
-0.10092261 0.26555091 0.00000000
-0.30056010 -0.71863433 0.00000000
-0.04153221 0.52463931 0.02748638
-0.35714601 -0.74592226 0.23639684
-0.38840178 0.23397999 0.25708699
-0.19441158 -0.71275848 0.12868205
-0.37090463 -0.47802890 0.24550374
-0.62853072 -0.06460648 0.41603088
-0.14424219 0.20275827 0.09547467
-0.24177351 -0.71697423 0.16003117
-0.28133474 0.18212473 0.18621241
-0.50960221 -0.55067612 0.00000000
-0.25889260 0.00032349 0.17135340
-0.09019540 0.61348625 0.00000138
-0.31217678 -0.42806252 0.20663146
-0.35410501 -0.37994574 0.00000000
-0.25128546 0.35805664 -0.00000029
-0.53848470 0.02916830 0.35642610
-0.09306894 0.29488566 0.00000000
-0.39758572 -0.54954224 0.26316409
-0.47708060 0.11798062 0.31578443
-0.54257163 0.13398818 0.35913366
-0.33645856 0.03110570 0.00000638
-0.61731720 0.10058511 -0.00000017
-0.49534000 -0.41223915 0.32786888
-0.31992878 0.44484922 -0.00000021
-0.04860040 0.02155268 0.03216886
-0.15754043 -0.05781069 0.10427684
-0.08559319 0.51588963 0.05665458
-0.00367485 -0.14957066 0.00243240
-0.22868940 0.48509748 0.00000087
-0.31366362 -0.49457932 0.00000000
-0.37143137 -0.38200713 0.24585239
-0.16124993 0.50557232 0.00000182
-0.35616978 -0.62833466 0.00000000
-0.47542051 0.25268681 -0.00000106
-0.02614150 -0.43499504 0.01730320
-0.18979591 0.27038431 0.12562141
-0.41575941 -0.67873880 0.27519335
-0.02964507 0.50056580 0.00000000
-0.32489801 -0.53801533 0.21505171
-0.24296898 0.16338309 0.16082267
-0.54527027 -0.26277195 0.36091894
-0.28730650 0.14075524 0.19017025
-0.49218802 0.12589805 0.32578427
-0.36705358 0.33841564 -0.00000075
-0.17286257 -0.48568417 0.00000000
-0.23250531 -0.29069417 0.15389649
-0.58101566 -0.33168618 -0.00000048
-0.36984029 0.04171328 -0.00000024
-0.34346459 0.44614039 -0.00000069
-0.13243912 -0.78039702 0.00000000
-0.21052567 0.07535437 0.13933945
-0.22903359 -0.71482415 0.15159854
-0.24174500 -0.15129775 0.16001229
-0.16112817 0.58297163 0.10665195
-0.61044653 -0.49439288 -0.00000032
-0.17777986 0.46447113 0.11767400
-0.40833808 -0.16771591 0.27028183
-0.69711292 0.03888822 -0.00000163
-0.48731576 -0.06914984 0.32255862
-0.05933492 -0.20866446 0.00000000
-0.01841980 0.52916010 0.01219217
-0.55275525 -0.03062874 0.36587410
-0.40633317 -0.63536151 0.00000000
-0.51211721 -0.21140148 0.33897461
-0.38380248 0.12018499 0.25403823
-0.32166425 0.33684973 -0.00000055
-0.05328787 0.36326052 0.00000000
-0.20515831 -0.34280634 0.00000000
-0.56033522 -0.45049716 0.37089004
-0.26132313 -0.05381292 0.00000000
-0.40329158 -0.34064001 0.00000000
-0.09551009 0.51106787 0.00000289
-0.51448824 -0.60609813 0.34054276
-0.72398513 -0.12318365 -0.00000146
-0.40737566 0.00204982 0.26963962
-0.29198006 0.49513672 -0.00000071
-0.27404175 0.22136196 -0.00000015
-0.36148916 0.23159247 0.23927313
-0.11823227 -0.42007999 0.07825857
-0.06195366 -0.55104967 0.04100746
-0.17070085 0.17738894 0.00000676
-0.21350303 0.51189310 -0.00000040
-0.59281814 -0.44186243 -0.00000033
-0.47586952 0.08064390 0.31498267
-0.70007770 0.03755731 -0.00000071
-0.28825262 0.32126193 0.00000246
-0.18087077 0.21863545 0.00000000
-0.75541937 -0.24911149 -0.00000137
-0.07952406 -0.64864257 0.00000000
-0.74307542 -0.75636863 -0.00000011
-0.60583551 -0.08473742 0.40100853
-0.38673599 0.24600260 0.25598442
-0.19035669 0.44456806 -0.00000018
-0.47135813 -0.46345976 0.00000000
-0.32221297 -0.71978465 0.21327447
-0.53889037 -0.63408102 0.35669479
-0.41956123 0.10340652 -0.00000056
-0.42260950 0.19979719 0.27972774
-0.61683146 0.02716047 0.40828666
-0.05332599 0.58832805 0.00000237
-0.23068051 -0.19835390 0.15268865
-0.22214289 0.55209628 -0.00000051
-0.21784735 0.14275483 0.14418703
-0.45534663 0.25085624 0.00000043
-0.77349196 -0.65695182 -0.00000036
-0.46029828 -0.49431655 0.00000000
-0.77440026 -0.24883802 -0.00000138
-0.08355801 0.30211795 0.00000000
-0.08618601 0.23701537 0.00000714
-0.38766256 -0.72635769 0.25659590
-0.22447389 -0.47356793 0.14858045
-0.28697365 0.44533435 0.18995072
-0.69919721 -0.02703879 -0.00000152
-0.00359420 0.62506510 0.00000000
-0.33482971 -0.03208458 0.22162600
-0.37584475 0.20335078 0.00000275
-0.37910603 0.22614442 -0.00000060
-0.22635681 -0.48604147 0.14982677
-0.06171798 0.02875059 0.04085146
-0.14975580 0.19872326 0.09911654
-0.39642112 -0.35390124 0.26239324
-0.37435226 -0.36384819 0.00000000
-0.37261049 0.08475278 0.24662907
-0.21193670 -0.01543981 0.14028203
-0.02066427 0.77094525 -0.00000004
-0.57247494 -0.69399665 0.37892469
-0.19967041 0.49405315 0.00000128
-0.41954790 -0.27633139 0.00000000
-0.00904911 -0.39044474 0.00000000
-0.22497498 -0.66639791 0.00000000
-0.70114061 -0.19718913 -0.00000123
-0.54856801 0.09937467 0.00000117
-0.50871030 -0.13228072 -0.00000052
-0.19753628 0.00411436 0.13075031
-0.37861743 -0.76473552 0.25060888
-0.30736544 0.14716915 0.20344758
-0.24355725 -0.76227897 0.16121183
-0.17322849 0.56316802 0.11466170
-0.60889591 -0.22668637 0.40303380
-0.17219845 0.49019979 0.00000187
-0.27060731 0.06982422 0.00000000
-0.30780984 0.35277657 -0.00000052
-0.42192282 -0.19147705 0.27927369
-0.40865665 -0.60703354 0.00000000
-0.12567509 0.24792108 0.00000638
-0.52535896 -0.61723233 0.00000000
-0.31666183 0.14647947 0.20959594
-0.15079454 0.19335510 0.09981170
-0.54472431 -0.32385775 0.36055737
-0.28843930 -0.69057113 0.19091950
-0.11667720 -0.20722542 0.07722925
-0.03760175 0.26012921 0.00000000
-0.14931211 -0.19565978 0.00000000
-0.25969899 -0.35975976 0.17189613
-0.28194969 -0.12528627 0.18662399
-0.13446268 0.41201625 0.08900156
-0.30199093 0.15195209 0.00000503
-0.09007143 0.27652607 0.00000649
-0.55312329 -0.38155164 0.36611658
-0.24052477 -0.66272401 0.00000000
-0.18410291 0.38549695 0.12185550
-0.05765747 0.26083227 0.00000000
-0.32817632 0.15971415 0.21722264
-0.19539621 -0.70234903 0.00000000
-0.08890935 0.13158074 0.00000868
-0.37478592 0.08725904 -0.00000034
-0.22948032 0.01150205 0.15189424
-0.21401038 0.43327618 -0.00000027
-0.18598895 -0.30091178 0.12310707
-0.07301533 -0.29586150 0.00000000
-0.03085345 0.70669159 0.02042103
-0.02674815 0.09131354 0.01769288
-0.09252494 0.12617796 0.00000871
-0.27690315 0.03342479 0.18327575
-0.50946004 0.24134692 -0.00000119
-0.45777486 -0.46178916 0.30300381
-0.57315780 -0.37503066 -0.00000037
-0.08348149 -0.77791897 0.00000000
-0.44802018 -0.46555256 0.29654703
-0.23825776 -0.25108098 0.00000000
-0.06677731 0.51397436 0.04419655
-0.29802208 0.11024058 0.19726295
-0.25189179 0.12444658 0.00000633
-0.49309718 0.12789111 0.32638458
-0.28077331 -0.71650089 0.00000000
-0.43206835 -0.77389902 0.00000000
-0.33861161 -0.08971189 0.00000000
-0.13870887 0.52794993 0.00000188
-0.03738515 -0.50888080 0.02474543
-0.22916106 0.52624364 0.00000017
-0.23587768 -0.31100240 0.00000000
-0.32797696 -0.61043740 0.21708969
-0.33204282 -0.31509332 0.00000000
-0.26957123 0.43574589 0.17843196
-0.22448533 -0.19444882 0.14858802
-0.35453945 0.01465487 0.00000631
-0.24734676 -0.66387765 0.00000000
-0.72848737 -0.48140661 -0.00000080
-0.23728697 0.07236061 0.15705336
-0.11530205 0.31502304 0.00000553
-0.08529800 -0.64694178 0.05645920
-0.29309881 -0.48207493 0.00000000
-0.14706910 0.20083798 0.09733819
-0.24014835 -0.74345745 0.00000000
-0.06035217 0.50803634 0.03994349
-0.11721779 0.58610475 -0.00000012
-0.52992554 -0.75203322 0.35076052
-0.47548855 0.06765824 0.31472747
-0.65669817 -0.59425275 -0.00000034
-0.03608421 0.23566578 0.02387517
-0.08005282 0.05109686 0.00000000
-0.00673666 0.53376052 0.00445451
-0.20383652 -0.02878983 0.00000000
-0.14502238 -0.16468126 0.09599108
-0.16874154 0.62638678 -0.00000041
-0.55948132 0.08012074 0.00000128
-0.06121695 0.48818274 0.00000000
-0.33878446 0.15267083 0.22423985
-0.03525784 0.20270812 0.02333735
-0.47527061 -0.28375888 0.31458507
-0.35854585 -0.74714394 0.23732339
-0.06905830 -0.15101133 0.00000000
-0.61653620 -0.26510897 -0.00000075
-0.19766739 0.45854742 0.00000191
-0.58680515 -0.08405529 0.38841206
-0.65458609 -0.36929677 0.43327606
-0.24094978 0.49489056 0.15948690
-0.60823641 -0.06936928 0.40259777
-0.69846052 -0.62101022 -0.00000045
-0.10696831 -0.27546125 0.07080289
-0.16534034 -0.33595466 0.00000000
-0.31228792 -0.11308252 0.20670503
-0.13688394 0.39933694 0.00000000
-0.13214098 0.47082321 0.00000000
-0.44959529 -0.05764066 0.29759093
-0.03245076 0.45118740 0.00000474
-0.23260368 -0.39684575 0.15396161
-0.16313909 -0.08474174 0.10798262
-0.14968443 -0.10355316 0.09907692
-0.47136821 -0.46907464 0.31200142
-0.21979750 -0.54775335 0.00000000
-0.41102163 -0.79957107 0.00000000
-0.41412369 -0.12943845 0.27411153
-0.56254593 0.21063163 -0.00000136
-0.29060474 0.38715135 0.19235420
-0.10594981 0.46055663 0.07012485
-0.39820415 -0.28204107 0.00000000
-0.64765185 -0.32846050 0.42868640
-0.21976409 0.30063472 0.14545910
-0.11626941 -0.53435197 0.07695934
-0.47310193 -0.63261405 0.00000000
-0.09526670 0.50093389 0.06305415
-0.39714964 0.19789789 0.00000243
-0.43015851 0.05105047 -0.00000051
-0.34790752 0.13207897 0.00000448
-0.24326155 -0.21445106 0.00000000
-0.60803093 -0.49752660 -0.00000030
-0.22981337 0.18318423 0.00000578
-0.29434227 -0.78585220 0.00000000
-0.08747170 -0.77154896 0.00000000
-0.28586756 0.08430085 0.18921073
-0.18044849 -0.37693066 0.00000000
-0.01724040 0.04320355 0.00000000
-0.16399288 0.28168375 0.00000530
-0.17869616 0.12514214 0.00000743
-0.09208601 -0.06767241 0.06095221
-0.22139966 0.28534000 0.14654602
-0.21260774 -0.77183035 0.14072619
-0.30054969 0.39819719 0.19893694
-0.04665280 -0.19303327 0.00000000
-0.46669340 0.03668749 0.30890497
-0.21237666 0.36800001 0.00000314
-0.31470461 0.31479788 -0.00000049
-0.27773596 0.42523386 -0.00000052
-0.59057841 -0.69842165 0.00000000
-0.43842052 0.30293589 -0.00000012
-0.19583113 -0.11253838 0.12962166
-0.12789876 -0.47328778 0.00000000
-0.03900924 -0.72259700 0.00000000
-0.62483317 -0.65951335 -0.00000009
-0.03675952 0.51902984 0.02432712
-0.15742429 -0.49662079 0.00000000
-0.03542225 0.53651919 0.00000000
-0.43758903 -0.32599701 0.28964295
-0.01752741 -0.39106799 0.00000000
-0.33263174 -0.43765995 0.00000000
-0.04742627 0.65232984 0.03139170
-0.24830773 0.41856271 -0.00000039
-0.37992395 0.15703429 -0.00000048
-0.71605818 0.00465949 -0.00000165
-0.24172105 -0.63775289 0.15999644
-0.22715194 0.22724218 0.15035334
-0.20063663 0.00244711 0.13279238
-0.10879816 0.40570840 0.00000000
-0.68299217 -0.53374815 -0.00000056
-0.32684203 0.20102062 -0.00000034
-0.20875639 0.56941470 -0.00000048
-0.14097249 -0.64484754 0.00000000
-0.45323804 0.08670892 0.29999945
-0.00439583 -0.05393505 0.00000000
-0.51902945 0.17742812 0.34355117
-0.46280348 -0.13983689 0.30633336
-0.23949435 -0.35545726 0.00000000
-0.28124519 0.09530926 0.18615803
-0.26580428 -0.14975344 0.00000000
-0.44899662 0.00450582 0.00000467
-0.09286039 -0.38448993 0.00000000
-0.21404674 0.53143282 0.14167980
-0.51145058 -0.73697147 0.33853185
-0.27675842 0.14491104 0.00000563
-0.13168910 0.52087878 -0.00000007
-0.17405345 0.17891610 0.00000000
-0.36678834 0.33437762 0.24278059
-0.01862491 0.59411268 0.01232469
-0.27183540 -0.20795845 0.00000000
-0.39863044 -0.49543295 0.26385560
-0.05995800 -0.34858503 0.03968652
-0.03759263 -0.10422330 0.00000000
-0.46084141 0.16066886 0.00000183
-0.52841383 0.15885982 0.34976277
-0.01608303 0.40571633 0.01064544
-0.43876563 0.27119424 0.29042363
-0.24764983 -0.65482481 0.00000000
-0.10131309 0.46329577 0.06705967
-0.19322103 0.33056443 0.12789431
-0.46415131 -0.00806180 0.30722593
-0.06591389 -0.44309239 0.04362876
-0.41530308 0.24114598 0.27489226
-0.25609948 0.48412675 0.16951481
-0.17404944 -0.27815662 0.00000000
-0.12912465 -0.15158542 0.08546829
-0.20867308 0.05980694 0.13812182
-0.57724456 -0.37243383 -0.00000039
-0.54595829 -0.55683226 0.00000000
-0.07486568 -0.30250493 0.00000000
-0.12775376 -0.64627017 0.00000000
-0.29120518 0.23900059 0.19275116
-0.12962723 -0.45760422 0.00000000
-0.33349185 0.13597064 0.00000469
-0.19100061 0.48155130 -0.00000025
-0.50055853 -0.24445096 -0.00000029
-0.39976479 -0.27454444 0.00000000
-0.07267258 0.05366998 0.00000000
-0.35016091 0.08010627 0.00000530
-0.12050099 0.59740492 0.07976071
-0.43156682 0.17671204 -0.00000074
-0.68313582 0.03717953 -0.00000038
-0.56937660 -0.52697489 0.37687442
-0.16505269 0.40919641 0.10924953
-0.66578256 -0.14570733 -0.00000117
-0.12284834 0.58133840 0.00000129
-0.02124709 -0.02245264 0.01406356
-0.09659706 0.37803321 0.00000487
-0.27227402 0.19879597 0.18022022
-0.53003830 -0.39395590 0.35083625
-0.46970400 -0.46798404 0.00000000
-0.74704376 -0.79319895 -0.00000002
-0.49545660 -0.37197904 -0.00000004
-0.13265082 0.54508352 0.00000171
-0.12112172 0.08397618 0.00000000
-0.78148129 -0.39568125 -0.00000101
-0.34755700 -0.48491871 0.00000000
-0.67289608 -0.36115416 -0.00000082
-0.27453985 0.37850497 0.18171888
-0.00864924 0.38539864 0.00000000
-0.55318631 -0.67415179 0.00000000
-0.57267826 -0.07414504 0.37906130
-0.48479614 -0.77073586 0.00000000
-0.78322064 -0.04901285 -0.00000184
-0.24793628 0.38274932 0.16411130
-0.54324559 -0.54621503 0.00000000
-0.09353631 -0.19390168 0.00000000
-0.77799158 -0.18187342 -0.00000155
-0.48546679 0.21605916 0.32133568
-0.33331845 0.13256399 0.00000475
-0.28039455 0.30846208 -0.00000033
-0.03389333 -0.32719081 0.02243417
-0.39540705 0.19691423 0.26172139
-0.02864974 -0.39197810 0.01896342
-0.00036271 0.39621390 0.00000000
-0.09327075 0.41162158 0.00000000
-0.63149535 -0.52709552 0.41799146
-0.17658757 0.35078695 0.00000000
-0.26951640 0.11262708 0.00000624
-0.22646871 -0.33315858 0.14990084
-0.32481244 -0.45608280 0.21499507
-0.01581842 0.26808446 0.01046131
-0.48605872 0.10318022 0.00000231
-0.79629111 -0.71725312 -0.00000021
-0.28900404 0.39215161 0.19129355
-0.22041312 -0.63092490 0.14589261
-0.20827467 0.16084681 0.13785811
-0.43325721 0.04787597 0.28677257
-0.32259742 0.20744553 0.21352624
-0.62675187 -0.22944349 0.41485290
-0.18852604 -0.62823450 0.12478638
-0.09076099 0.30709566 0.06007518
-0.36354037 -0.23578030 0.24062935
-0.68988834 0.06506287 -0.00000165
-0.69929033 -0.19804896 -0.00000122
-0.68118392 -0.67827762 -0.00000029
-0.29056482 -0.57494123 0.19232639
-0.67164805 -0.68902690 -0.00000023
-0.63280139 -0.51121755 -0.00000038
-0.00612323 0.19016335 0.00405300
-0.63182552 -0.74783972 0.00000000
-0.62673742 0.03765667 0.41484420
-0.53447414 0.12872774 0.35377353
-0.30836884 -0.21538591 0.20411097
-0.25044162 0.38079322 -0.00000033
-0.09852569 -0.38887883 0.00000000
-0.16563157 -0.79691467 0.10963241
-0.55567516 0.01987164 0.36780700
-0.26555022 -0.04212940 0.17576909
-0.26252842 -0.54095448 0.17376895
-0.07124508 0.59136555 0.04715749
-0.65852667 -0.68391770 0.43588305
-0.08862452 -0.40997213 0.00000000
-0.42725080 -0.27484323 0.00000000
-0.27181222 0.20319013 0.17991456
-0.13098056 0.33526267 0.00000000
-0.27152929 -0.06008937 0.00000000
-0.29374173 0.01208027 0.00000739
-0.18158945 -0.05171097 0.12019502
-0.11318524 0.50521706 0.00000000
-0.03175287 -0.73587953 0.00000000
-0.63379672 -0.32906262 -0.00000071
-0.13510530 0.60014674 0.08942683
-0.14697814 0.61121084 -0.00000029
-0.16772731 -0.18537670 0.00000000
-0.35370686 0.17069916 0.23411793
-0.47799644 0.03043985 0.31639035
-0.19865578 0.14741777 0.00000679
-0.06339944 -0.68690710 0.04196442
-0.40470541 0.30579757 0.26787867
-0.62726863 -0.44231469 0.41519411
-0.44170279 0.01122401 -0.00000049
-0.02191974 -0.33010247 0.01450879
-0.41076331 0.30834402 -0.00000088
-0.26006508 0.44519267 0.17213894
-0.24285101 0.20000122 0.16074470
-0.11255157 -0.53024052 0.07449848
-0.02339468 0.28692833 0.00000734
-0.10468168 0.05105138 0.06927830
-0.06209072 -0.29464266 0.04109818
-0.15785584 -0.56035314 0.10448562
-0.28230458 -0.34217378 0.18685890
-0.18022714 0.08087831 0.11928421
-0.05729397 -0.63876131 0.00000000
-0.32654720 0.21074014 0.21614446
-0.42376356 0.08801787 0.28048924
-0.13196695 -0.52846865 0.00000000
-0.12292267 -0.70377356 0.00000000
-0.55540748 0.02787632 -0.00000101
-0.42973654 0.03751524 -0.00000049
-0.07538582 0.00213933 0.04988579
-0.65012774 -0.51950114 -0.00000044
-0.18808442 0.22409923 0.00000000
-0.60645224 -0.03855199 0.40141690
-0.17599742 0.34112739 0.11649378
-0.60139660 -0.46013924 -0.00000034
-0.29374551 -0.34126583 0.19443171
-0.38166304 0.20252470 -0.00000057
-0.21220819 0.50760834 0.14046276
-0.58408815 -0.67093053 0.38661166
-0.30644668 -0.55243533 0.00000000
-0.07807441 -0.42882229 0.00000000
-0.01192004 0.36950530 0.00788993
-0.16423838 0.22433270 0.10870336
-0.00758636 -0.35862410 0.00502145
-0.16909342 0.30773349 0.11192383
-0.00516297 0.70081046 0.00000141
-0.33140364 -0.71605120 0.21935782
-0.48977164 0.21293832 0.00000040
-0.13273481 0.39666323 0.08785788
-0.12525494 -0.05302902 0.08290691
-0.10803128 -0.02202257 0.00000000
-0.05609748 0.05430500 0.03711928
-0.27169797 0.31984824 0.17983646
-0.45854428 -0.67874955 0.30351289
-0.38138837 0.21075676 0.00000252
-0.68271275 -0.53209634 -0.00000056
-0.37528360 -0.31996794 0.00000000
-0.17120637 0.22028624 0.00000000
-0.19913574 -0.64242623 0.00000000
-0.13924769 -0.18006035 0.00000000
-0.05863899 0.21348547 0.00000000
-0.08496791 0.04958424 0.05624071
-0.10669725 0.10915568 0.07062348
-0.01504990 -0.33139848 0.00996161
-0.35944769 0.00454327 0.23792112
-0.08040327 -0.55375618 0.05321935
-0.51315210 -0.48345327 0.33965874
-0.21110974 0.53243289 0.00000042
-0.34142934 -0.58763210 0.00000000
-0.19325683 -0.29087054 0.12791772
-0.19770080 -0.49529501 0.00000000
-0.09904199 0.54238477 0.00000237
-0.76008555 -0.22456736 -0.00000143
-0.12490454 0.33663534 0.08266929
-0.70473758 0.02048962 -0.00000051
-0.20921414 0.47287766 0.13847943
-0.25111662 0.38426624 0.16621642
-0.10422735 0.56330452 -0.00000003
-0.35026112 -0.36202031 0.23183969
-0.10710111 0.28148553 0.07089079
