ply
format ascii 1.0
element vertex 1400
property float x
property float y
property float z
end_header
-0.20138059 -0.61025207 0.00000000
0.52091250 0.08619701 0.16424137
0.19795624 0.51373316 0.06241609
0.54420522 0.16270633 0.17158649
0.30685079 0.25686808 0.09674881
0.44943381 0.20367921 0.14170661
0.04269680 0.33227120 0.01346863
0.44539139 -0.30903496 0.14043045
-0.56435238 -0.76681061 0.00000000
-0.39175071 0.36691794 -0.00000029
-0.01078793 -0.52254683 0.00000000
0.53616031 0.20011427 0.16904878
-0.32919586 0.36952420 -0.00000064
-0.14470768 0.45768919 0.00000294
0.60333560 -0.14706264 0.19022913
0.60620176 -0.11433872 0.19113278
-0.15067460 0.47112411 0.00000260
0.32852143 0.01009181 0.10358170
-0.21450229 -0.17413332 0.00000000
-0.47626448 -0.75666761 0.00000000
0.02069930 0.59189664 0.00652928
0.00221556 -0.53228933 0.00069856
-0.12207315 0.47831745 0.00000298
-0.54127549 0.03564702 -0.00000096
-0.69220351 -0.18023228 -0.00000122
0.49688811 0.25370623 0.15666644
0.10137233 -0.47037781 0.03196237
-0.00819416 0.30998528 0.00000723
0.34775725 -0.54991929 0.10964674
-0.26518422 0.19037480 0.00000509
0.70498091 -0.56339348 0.22227778
0.60786206 0.00420780 0.19165613
-0.31140110 -0.30066608 0.00000000
0.21328913 0.23643600 0.06725522
0.03773345 0.13103332 0.01189724
0.06931965 0.63613614 0.02185625
-0.40523452 -0.73941229 0.00000000
-0.16427448 -0.79083184 0.00000000
0.07143473 0.69903027 0.02252305
0.24842535 -0.43484716 0.07832771
0.75049762 -0.54849250 0.23662894
0.20471678 -0.44514358 0.06454654
0.32023454 -0.24080413 0.10096892
-0.01842829 -0.06934736 0.00000000
-0.42614081 -0.35248828 0.00000000
-0.30975119 -0.21844725 0.00000000
0.71116854 -0.22295211 0.22422829
-0.28523694 0.33840307 0.00000223
0.34842250 0.25884906 0.10985917
-0.18160879 -0.34438960 0.00000000
-0.45424915 -0.49311316 0.00000000
0.51596996 -0.32408794 0.16268346
-0.03851810 -0.24528263 0.00000000
-0.07182446 -0.20362970 0.00000000
-0.19992043 -0.37003124 0.00000000
0.48032623 -0.04786490 0.15144491
0.08294277 0.24262232 0.02615159
-0.19746863 0.17987964 0.00000000
-0.55916168 -0.61157598 0.00000000
0.13770093 0.38501644 0.04342119
0.62147489 -0.21704084 0.19594842
-0.17391561 0.17524713 0.00000000
0.40347358 -0.65527540 0.12721392
-0.23416887 -0.37434670 0.00000000
0.43083395 0.00649454 0.13584023
0.09333085 0.40037182 0.02943176
-0.23431158 -0.34945303 0.00000000
0.62062056 -0.18270174 0.19567901
-0.57101635 0.06749457 0.00000127
0.56375385 0.19471782 0.17774887
-0.01984810 0.15038069 0.00000944
0.12175997 0.20438417 0.03839052
-0.61373765 0.03705481 -0.00000127
-0.41799792 0.26490408 0.00000091
0.07764907 0.30035339 0.02448250
-0.07489328 0.70741014 0.00000011
-0.10379302 0.08957635 0.00000909
-0.06222972 0.55549514 0.00000273
0.26695217 0.22110246 0.08417424
0.65647151 -0.16288239 0.20698258
0.24240841 0.40405177 0.07643035
0.09583786 0.31526088 0.03022345
0.36850648 -0.17652753 0.11618890
-0.19736102 0.54212312 -0.00000039
0.26101981 0.41793287 0.08230028
0.12721488 0.35307871 0.04011044
-0.67458734 -0.46538912 -0.00000064
0.68883506 -0.07479971 0.21718652
0.30143554 0.46235838 0.09504119
-0.09367455 0.16152827 0.00000000
-0.22480193 0.48939693 -0.00000041
0.63501982 -0.49476834 0.20021936
0.75389312 -0.27365792 0.23769919
0.16371421 -0.45038274 0.05161856
-0.29822022 -0.46314701 0.00000000
0.23217826 -0.72169199 0.07320506
-0.59841930 -0.27910837 -0.00000065
-0.37624928 -0.14736996 0.00000000
-0.48129713 -0.79553200 0.00000000
-0.60006902 -0.49109260 -0.00000028
-0.11924021 -0.19608659 0.00000000
0.01517177 0.33502272 0.00478361
0.32057206 -0.29668408 0.10107534
-0.72241200 -0.21616234 -0.00000129
-0.74420237 -0.69383941 -0.00000027
-0.77625451 -0.03444010 -0.00000184
0.16717744 -0.16644275 0.05271051
-0.52143089 0.10818575 0.00000154
0.11042381 0.29230887 0.03481627
0.67217210 -0.18298908 0.21193291
-0.00761698 0.08555733 0.00001060
0.41247956 -0.42761059 0.13005347
-0.00990158 0.51071115 0.00000419
-0.29165736 0.30004699 0.00000275
-0.10919202 0.66745623 -0.00000023
0.08892331 0.65940884 0.02803796
-0.35683750 0.30837133 -0.00000065
0.07641413 0.57904325 0.02409313
-0.63404047 -0.06068675 -0.00000118
-0.51508356 -0.53396993 0.00000000
0.07115255 0.33822904 0.02243417
-0.23314342 0.14492990 0.00000000
0.12671042 0.39654783 0.03995588
0.00458821 -0.09313858 0.00144665
-0.20084578 -0.02550780 0.00000000
0.59333020 0.06160658 0.18707426
0.31811954 -0.71247907 0.10030206
-0.66671625 0.12711411 -0.00000156
-0.40530141 -0.77617143 0.00000000
0.61086236 -0.34520178 0.19260249
0.06732347 -0.78544362 0.02122687
-0.70914860 -0.22147243 -0.00000122
-0.25976986 -0.75003612 0.00000000
-0.56359571 0.01249293 0.00000233
0.03587729 0.59317750 0.01131465
-0.08633766 -0.28702027 0.00000000
0.25273478 -0.30383692 0.07968646
-0.18118393 -0.65205805 0.00000000
-0.64327155 -0.58728224 -0.00000029
-0.41940340 0.17294932 0.00000242
0.56328475 -0.63806246 0.17760186
0.60678052 -0.01870641 0.19131515
-0.00444205 -0.65961303 0.00000000
0.45812459 0.08722755 0.14444875
0.34878921 -0.54763379 0.10997211
0.32063679 -0.31675640 0.10109574
0.03017263 -0.39262036 0.00951333
0.49674880 -0.17651502 0.15662299
-0.78838282 -0.33238019 -0.00000117
-0.57432586 0.06211270 -0.00000115
-0.31556651 0.36030919 0.00000128
0.10999497 -0.56179192 0.03468106
-0.24122538 -0.12589023 0.00000000
0.22010150 0.56442188 0.06939702
0.07959824 -0.27210137 0.02509707
0.05572798 -0.14844607 0.01757085
-0.43600282 0.24083066 0.00000097
0.03305352 -0.29427366 0.01042167
-0.09983943 0.56663129 0.00000198
-0.22152496 0.17815309 0.00000000
-0.43233606 0.03707403 -0.00000050
-0.68968153 -0.12976623 -0.00000130
0.12319478 0.31190828 0.03884292
-0.01726758 0.04839519 0.00001101
-0.62356855 0.07596953 -0.00000138
0.12823218 0.44337658 0.04043119
0.36050815 0.26594678 0.11366664
-0.43849354 0.30366198 -0.00000013
-0.29260761 0.40470644 -0.00000055
0.11993497 0.37320035 0.03781511
0.70263364 -0.24181404 0.22153731
0.51995501 -0.66911360 0.16394014
-0.46719271 -0.43868246 0.00000000
-0.37738976 0.26439966 0.00000170
-0.44284093 -0.33949371 0.00000000
0.49547595 -0.74117709 0.15622197
0.31455253 0.33920698 0.09917703
0.32408729 0.14509269 0.10218896
0.15606264 0.55504988 0.04920588
-0.71089064 -0.24618623 -0.00000118
-0.13403037 0.28325688 0.00000573
-0.50624378 0.24447885 -0.00000044
0.64145144 0.07775805 0.20224658
-0.60064942 -0.31595006 -0.00000059
0.52953419 0.03254508 0.16695979
-0.64685755 -0.00795640 -0.00000133
0.56068040 -0.28067427 0.17678035
-0.11544038 0.22739858 0.00000000
0.60210109 -0.45637759 0.18984024
-0.06989883 0.71320564 -0.00000014
-0.49679677 0.05505616 0.00000290
0.47108960 -0.44170283 0.14853303
0.16446258 -0.71036107 0.05185452
0.14438614 0.44067631 0.04552448
-0.00315999 -0.03067719 0.00000000
-0.57425814 -0.71654553 0.00000000
0.67717308 -0.19342092 0.21350970
-0.71940163 -0.27997299 -0.00000116
-0.61765400 0.14914475 -0.00000149
0.22443230 0.29119943 0.07076272
-0.06898338 0.25224389 0.00000718
-0.39892109 -0.18141445 0.00000000
0.06446317 0.70089390 0.02032550
-0.33056608 0.02407485 -0.00000004
-0.10529960 0.17910090 0.00000772
-0.18636448 0.28097842 0.00000497
0.30931175 0.15424431 0.09752485
0.06632940 0.44401055 0.02091345
0.39744044 0.29634479 0.12531114
0.12572705 0.11760813 0.03965001
-0.06963918 0.40904047 0.00000000
0.42761080 -0.13298796 0.13482414
-0.55903820 -0.09428002 -0.00000080
0.01079785 -0.12463756 0.00340453
-0.78906468 0.00013616 -0.00000179
-0.45961599 0.08569473 0.00000311
0.07286508 0.59413707 0.02297632
-0.59295380 -0.16130362 -0.00000083
0.01259128 -0.20891324 0.00396999
-0.78626782 -0.28556184 -0.00000129
0.63025967 -0.76307620 0.19871880
-0.21131168 0.48441726 0.00000121
-0.32713392 -0.43678194 0.00000000
-0.33928809 0.22727440 -0.00000044
-0.25391025 0.15868832 0.00000000
-0.49291400 -0.46879761 0.00000000
0.02563470 0.46919675 0.00808717
0.20374483 0.05382527 0.06424877
0.35670676 0.30237168 0.11246805
0.23389074 -0.06595294 0.07374500
0.31098176 0.06856572 0.09805852
-0.31490577 0.12539127 -0.00000015
0.03891860 0.71040502 0.01227174
-0.13894371 0.57964645 0.00000101
-0.34624708 -0.06902821 0.00000000
0.44666910 0.05976122 0.14083762
0.07416798 0.46342479 0.02338906
0.15593994 0.46313349 0.04916730
-0.25266704 0.45559085 -0.00000047
-0.44538055 0.10801451 0.00000301
0.52567216 -0.45905670 0.16574266
0.53214248 -0.34752719 0.16778259
-0.49068812 -0.40712473 0.00000000
-0.05494437 0.51205931 0.00000349
0.69563687 -0.36178263 0.21933140
0.44274358 -0.58000402 0.13959562
0.24520869 -0.47061602 0.07731351
0.57152861 0.04424865 0.18020037
0.60034832 -0.30159354 0.18928743
0.20785061 0.25781320 0.06553463
0.27922714 -0.19782333 0.08803942
0.66839631 -0.27804026 0.21074253
-0.61935472 -0.68070915 -0.00000003
-0.24557599 0.27618751 -0.00000012
0.38115632 0.26821800 0.12017917
-0.66408279 -0.47662700 -0.00000058
-0.21673342 -0.04136299 0.00000000
-0.40149422 0.09896457 0.00000400
0.06672230 0.03162793 0.02103732
0.20148983 -0.70574136 0.06352909
-0.15779878 -0.16894660 0.00000000
-0.29028851 -0.01552984 0.00000000
0.62876797 0.08312244 0.19824755
-0.15960979 0.34337811 0.00000444
0.40166691 -0.27684354 0.12664428
-0.02367753 -0.43169049 0.00000000
-0.24875176 0.40319120 -0.00000036
-0.12407035 -0.44396760 0.00000000
-0.17295894 -0.54308050 0.00000000
-0.38908541 -0.33455619 0.00000000
-0.19822584 -0.07138380 0.00000000
0.27754767 0.01084691 0.08751832
0.33883793 0.32555015 0.10683409
-0.42406370 -0.19334824 -0.00000005
0.22710777 -0.65638690 0.07160635
-0.41635875 0.20347806 0.00000197
0.14326700 -0.71073010 0.04517162
0.12138009 0.63525277 0.03827059
0.10348620 0.68491635 0.03262870
0.41916223 0.26187481 0.13216164
0.13477279 -0.31067389 0.04249343
-0.22164102 0.31899170 -0.00000010
0.33499924 -0.44748368 0.10562418
0.34463199 0.07466916 0.10866119
0.14839948 -0.56715367 0.04678988
0.02078115 0.54783540 0.00655574
-0.13230983 0.21439668 0.00000000
-0.09127480 0.69725712 -0.00000004
0.47194808 0.08934910 0.14880317
0.07935647 -0.21678820 0.02502084
-0.45284380 0.05851412 0.00000369
-0.14020433 0.08129419 0.00000000
-0.24300778 -0.26589570 0.00000000
0.33231871 0.24020800 0.10478237
-0.19040209 -0.64238718 0.00000000
0.29260198 -0.58077394 0.09225646
-0.52727894 0.12026246 -0.00000105
-0.61738901 -0.71241872 0.00000000
0.41050965 0.08082067 0.12943703
-0.66287464 -0.78674103 -0.00000002
0.52790328 -0.30697012 0.16644595
0.65414214 -0.38731183 0.20624839
-0.58564508 -0.29401418 -0.00000057
-0.48386858 -0.05281464 -0.00000056
-0.36090521 0.02425800 0.00000603
0.12842335 0.52270487 0.04049389
-0.76513147 -0.01700008 -0.00000182
0.09191421 0.18539517 0.02898832
-0.39964232 0.18143147 0.00000266
-0.31911050 -0.17902609 0.00000000
-0.19652003 -0.75913144 0.00000000
0.68247596 -0.71238732 0.21518226
-0.30071737 0.01490575 0.00000724
0.58487145 0.08017359 0.18440910
-0.46339257 -0.78184497 0.00000000
-0.51308364 -0.14481590 -0.00000052
0.20634635 -0.60953965 0.06506034
0.09521643 0.20527587 0.03002143
-0.23588978 0.44744324 0.00000136
-0.71382837 -0.42463436 -0.00000088
-0.14669547 0.21986236 0.00000000
0.02966662 0.71955564 0.00935463
-0.24934747 0.40581231 -0.00000037
0.22760451 -0.05950054 0.07176297
0.19060225 0.34487247 0.06010067
0.29215963 0.09342384 0.09212390
-0.31770095 -0.32565125 0.00000000
0.36929646 0.03350824 0.11644438
0.13072815 -0.51357943 0.04121816
-0.11886255 -0.65489075 0.00000000
-0.23070627 -0.23047519 0.00000000
0.15834787 0.27906553 0.04992657
-0.23820785 0.29541948 0.00000385
-0.58866929 0.08027391 -0.00000124
0.41026346 0.19372196 0.12935733
0.08363015 0.12678892 0.02637736
-0.09277163 -0.46608538 0.00000000
0.08867642 -0.07755494 0.02795939
0.34110533 -0.13106498 0.10754941
0.23094163 -0.44852614 0.07281515
0.08084867 0.21920698 0.02549133
-0.45068341 0.11013948 -0.00000070
-0.32117892 0.13694575 0.00000491
-0.35444411 0.43105950 -0.00000064
0.26127346 0.10561994 0.08237868
0.69101623 0.02127842 0.21787412
0.63974879 -0.57711890 0.20171046
0.07443066 0.35815492 0.02347345
-0.04228829 -0.08341457 0.00000000
-0.01593570 0.51707672 0.00000000
-0.59376158 0.06138499 0.00000094
-0.25773934 -0.63049156 0.00000000
-0.44527725 -0.44305958 0.00000000
0.20794555 0.18732322 0.06557120
-0.50684790 -0.62723328 0.00000000
-0.45762069 -0.29186149 -0.00000002
-0.22324484 -0.33505145 0.00000000
-0.40425821 0.26394700 -0.00000078
-0.50687975 -0.23062349 -0.00000034
0.36744610 -0.64363983 0.11585457
0.67441355 -0.24047321 0.21263969
0.42010372 0.10150586 0.13246142
0.36594410 -0.36056920 0.11538099
-0.08630593 -0.01426816 0.00000000
-0.18814268 -0.42805781 0.00000000
0.03248317 -0.35223828 0.01024184
-0.63429327 -0.56794645 -0.00000029
0.10272259 0.56663851 0.03239025
-0.01457306 -0.28951889 0.00000000
-0.05994221 0.56217445 0.00000266
-0.28172597 0.49253269 -0.00000027
0.09121820 0.51630277 0.02876081
0.03351104 0.29714031 0.01056592
0.24597224 0.14241925 0.07756111
0.63721571 -0.41218189 0.20091162
-0.53685587 -0.14201293 -0.00000063
-0.52716502 -0.30285620 -0.00000030
-0.34368059 -0.37001678 0.00000000
-0.37088560 -0.26545494 0.00000000
-0.60875932 0.02340847 0.00000128
0.14255568 0.56851947 0.04494863
0.54633256 -0.43223614 0.17225673
-0.19722384 0.32291612 0.00000418
-0.41858469 -0.64323731 0.00000000
0.28599847 -0.71333144 0.09017440
0.11460713 -0.46120499 0.03613526
0.49551274 -0.57769995 0.15623357
-0.09806746 0.55876663 0.00000000
-0.69698070 -0.34796847 -0.00000095
0.49394298 0.23065054 0.15573877
-0.02921311 0.65288697 0.00000177
0.03624656 0.00872970 0.01142842
0.26233667 0.26384128 0.08271377
0.08178014 0.56009391 0.02578501
-0.10664946 -0.01425252 0.00000000
-0.00399559 0.33024663 0.00000000
0.52160355 -0.54240124 0.16445992
0.55441323 -0.74293240 0.17480470
0.20630272 0.36921165 0.06504648
0.74538165 -0.35986233 0.23501567
0.40107551 0.02557300 0.12646369
0.11461017 0.43867126 0.03614023
-0.02632982 0.74368045 0.00000044
-0.35090142 0.03321897 -0.00000014
-0.66920803 -0.23785019 -0.00000102
-0.12381236 0.23872117 0.00000000
0.11961299 0.44502947 0.03771745
0.19713645 -0.72276859 0.06215649
-0.17744028 -0.55415547 0.00000000
-0.69575963 -0.31666154 -0.00000100
0.58779044 -0.01113407 0.18532769
0.16841726 -0.27220296 0.05310142
-0.03683666 0.73974578 -0.00000005
0.59534122 -0.78556123 0.18770917
0.46506430 -0.23225971 0.14663311
-0.76744569 0.02057674 -0.00000190
-0.09507413 0.65456268 0.00000060
-0.05509549 -0.45885166 0.00000000
-0.22820717 0.12897675 0.00000662
-0.27335487 0.37834250 0.00000179
0.06299617 0.26909982 0.01986966
-0.26931547 -0.47025392 0.00000000
0.67009554 0.08266243 0.21127789
0.29284839 0.38782260 0.09233562
0.30289977 -0.45290032 0.09550332
0.18672545 -0.75609702 0.05887393
0.19368890 -0.19407780 0.06106948
0.08331654 -0.25581066 0.02626944
-0.58653007 -0.78329931 0.00000000
0.06140198 0.72007323 0.01936003
0.08622334 0.16279533 0.02719441
0.09592284 -0.21940937 0.03024416
0.55046966 -0.04341212 0.17356071
0.37803084 0.37461687 0.11919132
0.17484550 0.44607944 0.05513108
-0.32233339 0.04181745 -0.00000004
-0.35390501 -0.47065815 0.00000000
0.07341046 -0.18459831 0.02314608
-0.65486423 -0.46121419 -0.00000057
0.40784822 -0.55126673 0.12859323
0.26249103 -0.50723858 0.08276257
-0.52691512 0.04901252 -0.00000092
-0.12043005 -0.32305871 0.00000000
-0.01535212 0.01312007 0.00000000
-0.00796771 -0.61363480 0.00000000
-0.13050559 -0.78381306 0.00000000
-0.74876595 0.02534506 -0.00000183
-0.13324616 -0.26742519 0.00000000
-0.18992202 0.03503758 0.00000861
-0.10290456 0.68754900 -0.00000024
-0.58813669 -0.69919001 0.00000000
0.59044999 0.14174303 0.18616674
-0.11994902 0.26576802 0.00000620
0.09080516 0.03629351 0.02863057
-0.79371361 -0.41082777 -0.00000097
-0.09607820 0.60182788 -0.00000006
-0.23985302 -0.35095770 0.00000000
-0.26771188 0.48034141 -0.00000058
-0.13761228 -0.65978631 0.00000000
-0.09016872 0.70223696 -0.00000021
0.45522727 -0.69116545 0.14353169
-0.00929735 0.25119951 0.00000000
0.17054117 0.49237024 0.05377318
-0.49759084 -0.69473515 0.00000000
-0.52960765 0.10127097 -0.00000103
-0.55377775 0.15169437 -0.00000122
-0.65225712 -0.47111774 -0.00000054
-0.01461154 -0.64713437 0.00000000
-0.46642586 0.07311353 -0.00000071
-0.11872709 -0.70471977 0.00000000
-0.21758612 0.18289363 0.00000597
-0.44599787 -0.58505717 0.00000000
0.25455281 -0.32231987 0.08025968
-0.60912399 0.12804339 -0.00000141
0.25514775 -0.19249559 0.08044726
0.54010124 -0.33254361 0.17029192
-0.50022770 -0.77059488 0.00000000
0.17765162 -0.16526197 0.05601298
-0.58945524 0.15141535 -0.00000049
-0.36811810 -0.69166742 0.00000000
0.23641644 -0.69525495 0.07454134
0.36581276 -0.75076862 0.11533958
0.62753922 0.10131507 0.19786011
0.28692262 -0.52890732 0.09046578
-0.41628883 -0.42800057 0.00000000
-0.14391543 0.63544739 -0.00000002
0.08686081 0.45440336 0.02739104
0.73362618 -0.06859481 0.23130888
-0.15592564 0.37644495 0.00000000
-0.44763763 0.16990673 -0.00000080
0.14753088 0.34786676 0.04651601
0.15432603 0.33628500 0.04866356
0.35789183 0.06299126 0.11284823
-0.20587342 0.48631624 0.00000129
-0.21550609 0.53123685 0.00000035
0.10113878 0.07880883 0.03188873
0.74788857 -0.04381954 0.23580570
0.26605973 -0.04294654 0.08388777
-0.33052591 0.44986042 -0.00000079
0.72129625 -0.43558983 0.22742176
-0.66289700 -0.62305954 -0.00000031
-0.41535079 -0.65754901 0.00000000
0.06100059 -0.52173004 0.01923329
-0.13514418 0.31411960 0.00000525
0.06517164 -0.50528846 0.02054841
0.70107669 0.03901046 0.22104655
-0.40659473 -0.33848651 0.00000000
0.44172083 -0.20122416 0.13927302
0.01829388 0.14055096 0.00576800
-0.56059669 0.05957748 -0.00000108
0.32210239 -0.71177743 0.10155785
0.06395228 0.23206469 0.02017166
-0.36987295 -0.41330432 0.00000000
0.41359210 0.26169080 0.13040551
-0.58155209 -0.76310446 0.00000000
-0.33540408 0.26779789 -0.00000049
-0.04297552 0.33425532 0.00000000
-0.00520893 0.76465904 0.00000045
-0.29836789 -0.74573725 0.00000000
-0.30227162 -0.38563491 0.00000000
-0.06750196 0.62815656 0.00000156
0.02276322 0.49876147 0.00717717
0.54134515 0.05227823 0.17068682
0.04896848 0.31427638 0.01544626
0.10460270 0.20350565 0.03298089
-0.33287980 0.04028537 -0.00000008
-0.29868480 0.33243322 0.00000207
0.14122869 -0.15327871 0.04452895
0.61692220 -0.54728204 0.19451334
-0.11717580 -0.01657650 0.00000000
0.30683313 0.25379611 0.09674714
-0.70180632 -0.09530025 -0.00000141
-0.43427679 -0.21251861 -0.00000006
0.21370801 0.29511921 0.06738141
0.14442889 0.57471577 0.04553781
0.69951292 -0.65533335 0.22055386
0.06999765 -0.53739586 0.02207003
-0.34837957 -0.42057460 0.00000000
-0.07796884 0.68879210 -0.00000014
-0.18043143 0.31542624 0.00000000
-0.55800146 0.02004758 0.00000231
-0.48049411 -0.30198762 -0.00000010
-0.20960564 0.33157782 0.00000380
0.20797372 0.09365175 0.06558148
0.55508112 0.09993162 0.17501451
0.00700553 0.02806700 0.00222026
-0.35576760 -0.17568309 0.00000000
0.23201340 0.50096509 0.07315373
0.31754681 -0.78680448 0.10012149
-0.67230911 0.10370316 -0.00000164
-0.19364687 -0.04685954 0.00000000
0.18971145 -0.30872290 0.05981541
-0.50048280 0.05327207 -0.00000082
0.17094578 -0.27549056 0.05389865
-0.22764620 0.41359812 -0.00000029
0.22290318 0.39653133 0.07028342
0.33989279 0.37036788 0.10716663
0.36493696 0.38283848 0.11506349
0.49136937 -0.24422201 0.15492696
-0.28262584 0.31046271 0.00000275
0.01888690 -0.45258638 0.00595498
0.12028634 0.65983085 0.03792571
-0.08692909 -0.71647757 0.00000000
0.02074751 0.10674371 0.00654162
-0.55833461 -0.50241889 -0.00000008
0.74908538 -0.64297503 0.23618379
0.12124543 0.12061719 0.03823697
0.27556125 0.40104543 0.08688325
0.49894199 -0.06019924 0.15731436
-0.76061648 -0.19884736 -0.00000148
-0.28692105 0.50551843 -0.00000070
0.12568988 -0.76985067 0.03962961
0.22398033 0.13487430 0.07062028
-0.08871012 -0.24620110 0.00000000
0.59845748 0.08032107 0.18869084
-0.24804915 0.06147984 0.00000733
-0.53692187 -0.12772683 -0.00000065
0.26910756 -0.02089921 0.08484875
0.37009903 -0.21587137 0.11669103
0.32311099 0.41241568 0.10187623
0.20804912 0.47594145 0.06559883
0.66515285 -0.06703993 0.20971965
-0.17740786 -0.15995902 0.00000000
-0.07283366 0.54335982 0.00000000
0.16811381 0.15830150 0.05300574
-0.75857110 -0.66149367 -0.00000035
0.62922945 -0.05694217 0.19839321
-0.66347951 -0.21131132 -0.00000104
-0.07132016 -0.32226230 0.00000000
-0.38044945 -0.70327726 0.00000000
-0.21038706 -0.31413524 0.00000000
-0.01835525 -0.20141389 0.00000000
-0.55809564 -0.57892259 0.00000000
0.05240740 0.17583325 0.01652388
-0.38076774 0.26581898 0.00000161
-0.29489894 0.25753863 0.00000340
0.43297927 0.19776275 0.13651643
-0.43941818 0.12634482 0.00000281
-0.25669600 -0.32044809 0.00000000
0.31261753 -0.17564108 0.09856730
0.18668332 0.08019010 0.05886914
-0.04152229 0.44911204 0.00000000
0.06879274 -0.71411246 0.02169013
-0.20500200 -0.28716484 0.00000000
0.01102223 0.54062737 0.00347527
-0.67434369 0.01036174 -0.00000148
-0.59093971 -0.41425219 -0.00000038
0.01246601 -0.35990398 0.00393049
-0.61872276 0.16940183 -0.00000153
0.63030112 -0.00282743 0.19873104
0.74096942 -0.55356092 0.23362476
-0.11009045 0.44848600 0.00000000
-0.56717094 -0.30044775 -0.00000048
0.38489818 0.26970954 0.12135887
0.29966426 0.24183355 0.09448719
-0.53019276 -0.59681481 0.00000000
-0.15399103 0.14314874 0.00000000
0.10878639 0.36206123 0.03430523
0.43165992 0.07045047 0.13610539
-0.37326475 -0.59552926 0.00000000
-0.78996206 -0.57135475 -0.00000057
-0.03277870 0.39520699 0.00000000
0.31011447 -0.63905335 0.09777809
-0.58105246 0.07855548 0.00000089
-0.44561278 -0.79547709 0.00000000
-0.48860074 -0.53997605 0.00000000
-0.16256688 0.50899610 -0.00000018
0.29478095 0.27864895 0.09294324
-0.01632617 0.34620933 0.00000656
-0.05232173 0.01219907 0.00001103
-0.12486524 -0.01716760 0.00000000
0.23660739 0.03540839 0.07460155
0.02951079 0.38410367 0.00930466
0.11142628 0.08051785 0.03514175
-0.68530007 -0.34203281 -0.00000091
-0.43522929 -0.26506254 0.00000000
-0.36817103 -0.01713545 -0.00000013
0.63966525 0.11739750 0.20168336
0.25784259 0.16980519 0.08130316
0.62888959 -0.03913756 0.19828603
-0.13186421 0.57018855 0.00000131
-0.18585139 0.50104034 -0.00000026
0.00510871 -0.02797179 0.00161076
-0.28219979 0.47035456 0.00000009
-0.53426606 -0.39074969 -0.00000018
-0.36533997 -0.12281827 0.00000000
0.63593301 -0.39356861 0.20050717
0.39373955 -0.21175490 0.12414481
0.46392702 -0.41378528 0.14627469
0.54791814 -0.76612761 0.17275682
-0.75012419 -0.72717445 -0.00000018
-0.73624782 -0.54865435 -0.00000063
-0.69165039 -0.11022838 -0.00000134
-0.62736260 -0.13068262 -0.00000103
-0.20274948 0.21591515 0.00000570
-0.17592602 -0.50056559 0.00000000
0.09967739 0.30196581 0.03142796
0.37835446 -0.67665559 0.11929394
-0.78884596 -0.68879366 -0.00000028
-0.34082894 0.06996489 -0.00000016
-0.41869126 0.01911640 0.00000500
0.51312432 -0.13751399 0.16178605
-0.17011571 0.31851946 0.00000466
-0.48848404 0.07629900 0.00000271
0.63609956 0.04083844 0.20055920
-0.07316609 -0.44478835 0.00000000
0.60501978 -0.00829627 0.19075999
0.48691361 -0.28573646 0.15352213
-0.23597607 0.17908463 0.00000000
0.24725967 0.37654316 0.07795995
0.16590658 -0.38057594 0.05230981
0.57783593 -0.77274119 0.18218980
0.12401162 0.21513243 0.03910770
0.03976480 0.30458213 0.01253771
0.50520377 0.05865183 0.15928853
-0.52993868 -0.22921883 -0.00000044
0.69269747 0.05099002 0.21840418
0.57479890 -0.38888950 0.18123195
-0.21857706 -0.35067610 0.00000000
0.64827427 -0.54722244 0.20439846
0.43249490 -0.24685855 0.13636420
-0.28986078 0.05674500 0.00000678
-0.01510812 0.54128852 0.00000000
-0.58351275 -0.11073006 -0.00000088
0.38499250 0.28526279 0.12138639
-0.60158527 -0.54220098 -0.00000019
-0.10134026 0.14461490 0.00000000
-0.13410856 -0.79743971 0.00000000
0.17170922 0.44429680 0.05414232
-0.30851054 0.13194577 0.00000523
-0.55586731 -0.09192401 -0.00000080
-0.52290352 0.21727529 -0.00000031
-0.15911357 0.24359343 0.00000595
-0.19051161 0.02801895 0.00000871
-0.69308635 -0.60619010 -0.00000047
0.19141454 -0.57590610 0.06035239
0.35965211 -0.17276778 0.11339715
-0.22885042 0.53193459 -0.00000050
0.06639793 -0.38956772 0.02093505
0.01765804 0.36708985 0.00557378
0.00336004 -0.30231537 0.00105941
0.04227165 -0.07908654 0.01332811
0.34533036 -0.74936127 0.10888155
0.18539663 0.36272386 0.05845493
0.05410036 0.07079392 0.01705767
-0.73379476 -0.04261559 -0.00000164
-0.02802468 0.56334651 0.00000313
0.07688129 -0.23693691 0.02424042
-0.50845375 -0.28864152 -0.00000025
-0.30132141 -0.63140461 0.00000000
0.64226084 -0.50263870 0.20250242
-0.47964143 -0.29766144 -0.00000011
-0.68730978 0.09810484 -0.00000169
-0.28354503 0.03358522 0.00000722
-0.20578620 0.57606408 -0.00000021
0.15409832 -0.26515281 0.04858670
0.67969771 -0.11085566 0.21430561
-0.70345184 -0.50007924 -0.00000070
-0.73902754 -0.66553132 -0.00000034
0.02968005 -0.39539735 0.00935802
0.69107275 -0.07162095 0.21789205
0.33992935 0.17882305 0.10717837
-0.23664165 0.26776064 -0.00000007
0.74111082 -0.49982878 0.23366927
-0.47492856 0.24016887 0.00000023
0.28051111 -0.63643358 0.08844425
0.53363361 -0.18035351 0.16825255
0.15800969 0.32067150 0.04981995
-0.74910555 -0.07157909 -0.00000166
0.19978153 0.53537745 0.06299116
-0.41521091 0.14787128 0.00000292
-0.10696353 0.14162382 0.00000000
0.62746981 0.05773759 0.19783828
0.30997128 0.20139471 0.09773274
0.67426158 -0.56484184 0.21259213
0.12025654 -0.77844056 0.03791650
-0.11729956 -0.47950200 0.00000000
-0.20871694 0.36832439 0.00000320
-0.51165421 -0.19589875 -0.00000042
0.27660373 -0.11597544 0.08721226
-0.01584985 -0.11288852 0.00000000
0.26844808 0.24192227 0.08464548
-0.62102484 -0.71639297 0.00000000
-0.37186684 -0.09217668 -0.00000001
0.51425079 -0.78393800 0.16214161
0.01455895 0.24200686 0.00459855
0.74608903 -0.74913819 0.23523919
0.27601871 0.44636088 0.08702854
-0.04313898 -0.09370956 0.00000000
0.34320572 -0.77870665 0.10821166
0.11424729 0.30617939 0.03602180
0.53380054 -0.38614330 0.16830541
-0.60282740 0.08124517 -0.00000130
0.24427366 0.51233319 0.07701888
0.11288430 -0.23463102 0.03559205
0.04993400 0.47391144 0.01574403
-0.28159518 0.08609500 0.00000646
0.16098652 -0.74450791 0.05075853
0.31966569 0.35330736 0.10078916
0.39083554 0.20067120 0.12323205
-0.47204734 -0.23323411 -0.00000019
0.07837837 0.48335335 0.02471623
-0.17919647 -0.06340346 0.00000000
-0.61233804 -0.56139051 -0.00000021
-0.06966594 0.39095716 0.00000000
0.24511236 0.35475184 0.07728621
-0.03879566 0.67708776 0.00000000
-0.22050102 0.09368933 0.00000727
0.11651142 0.53664401 0.03673564
-0.08977145 0.67373924 0.00000039
-0.59392983 -0.12394385 -0.00000090
0.11100056 0.25540869 0.03500491
-0.21141579 0.31412312 -0.00000004
0.01671298 0.38027102 0.00527561
-0.28973821 0.03610822 0.00000000
-0.07050765 0.46725920 0.00000000
-0.33463540 0.26686460 0.00000248
0.19492035 0.33337433 0.06146228
-0.29128708 0.35603096 0.00000182
-0.60409352 -0.78372094 0.00000000
-0.01606292 0.45622410 0.00000000
-0.46867364 -0.16646022 -0.00000029
-0.75531898 -0.22635603 -0.00000141
0.53944525 0.00465716 0.17008871
-0.30076170 0.12851365 -0.00000010
0.06293953 0.71466832 0.01984489
0.42864059 -0.39899712 0.13514899
-0.37790026 0.42065182 -0.00000094
-0.10125907 0.38924508 0.00000000
0.43948875 -0.59217032 0.13856938
0.63331455 -0.45181567 0.19968165
0.59873346 -0.70443422 0.18877872
-0.39063223 0.29349435 -0.00000077
0.61251644 0.11480690 0.19312425
0.58055459 0.13209988 0.18304714
0.17337791 0.15892631 0.05466550
-0.46335846 0.01062678 0.00000429
0.69729796 -0.47108717 0.21985527
0.47893066 -0.13647990 0.15100499
0.66883357 -0.20724261 0.21088031
-0.08357137 0.65477181 -0.00000010
0.09049180 0.68662700 0.02853165
-0.65330016 -0.50994328 -0.00000047
0.01060750 0.26806654 0.00334451
-0.57916048 -0.32065403 -0.00000049
-0.65447515 -0.47892540 -0.00000053
-0.08658840 -0.63392767 0.00000000
0.58980946 -0.55717778 0.18596487
0.12231930 0.29430660 0.03857296
0.01179153 0.10971573 0.00371783
0.06039306 0.39222379 0.01904710
0.76229916 -0.02879656 0.24034926
0.38604545 0.30679899 0.12171836
-0.01746900 0.45222144 0.00000000
-0.74996456 -0.66032838 -0.00000035
-0.23929994 0.30508359 0.00000367
0.11970455 -0.64096089 0.03774246
-0.25801702 0.14300115 0.00000000
0.34176417 0.27327513 0.10775677
-0.36896266 0.35406732 -0.00000079
0.17762793 -0.15964543 0.05600551
-0.10756398 0.13068965 0.00000842
0.25445154 0.42140378 0.08022746
0.66672455 -0.53926963 0.21021572
-0.40660597 -0.44667508 0.00000000
0.04877287 -0.67716616 0.01537793
-0.74123241 -0.52691108 -0.00000068
0.12593310 0.06689977 0.03971573
-0.60939631 -0.08484933 -0.00000104
-0.61167022 -0.71179817 0.00000000
0.14682988 -0.48266295 0.04629499
0.60539553 0.12712781 0.19087898
-0.02783839 -0.35857896 0.00000000
0.73302387 -0.51605120 0.23111952
-0.37833462 -0.77601815 0.00000000
0.75836145 -0.00964592 0.23910770
-0.22253366 0.52989403 -0.00000047
0.39452523 -0.24902426 0.12439253
-0.21956971 -0.26678098 0.00000000
0.53538242 -0.36198992 0.16880414
-0.62737670 -0.07795975 -0.00000113
-0.14156860 -0.73988453 0.00000000
-0.13699670 -0.79000628 0.00000000
-0.34229618 0.25729979 0.00000249
-0.17694912 -0.71019093 0.00000000
-0.27476980 0.51154255 -0.00000066
-0.62290184 -0.05986240 -0.00000114
-0.66331363 -0.79529654 -0.00000001
-0.16274244 0.23035832 0.00000609
0.19947137 -0.14596483 0.06289268
-0.03106961 0.38107287 0.00000000
0.18485354 0.57184163 0.05828406
-0.60215262 -0.29350486 -0.00000064
0.58894094 0.06251356 0.18569035
0.26290054 0.42513635 0.08289310
-0.15034488 0.58263280 0.00000074
0.08517876 0.49771488 0.02685659
-0.50846935 -0.04143726 -0.00000068
-0.45470535 -0.43232112 0.00000000
0.52464390 -0.43634364 0.16541843
-0.10558328 0.47635405 0.00000000
-0.25372390 0.46907569 -0.00000050
-0.05497629 0.12246247 0.00000000
-0.16221381 -0.06642544 0.00000000
-0.28814309 -0.22380753 0.00000000
-0.68584212 0.08589575 -0.00000124
0.19159156 -0.62933459 0.06040820
0.26973109 0.34235779 0.08504509
-0.19737258 0.26454404 0.00000000
0.40531172 0.34237323 0.12779342
-0.20738622 -0.44403997 0.00000000
-0.28402947 0.00040898 0.00000771
0.03876415 -0.09923804 0.01222221
-0.67365889 0.10199554 -0.00000164
-0.34123454 0.02696507 -0.00000009
0.34415291 0.12499511 0.10851554
-0.02935975 -0.20480295 0.00000000
-0.06629141 0.36188259 0.00000557
0.70978965 0.02908576 0.22379372
0.62607174 -0.55388800 0.19739815
-0.13187106 0.19110790 0.00000714
-0.57299104 0.11691663 0.00000041
-0.75733498 -0.79890071 -0.00000000
0.63678678 -0.70385776 0.20077670
-0.22606162 -0.45675781 0.00000000
0.07818495 -0.33286938 0.02465146
0.15464826 -0.11632788 0.04876010
0.15694136 -0.11620485 0.04948310
0.15120785 -0.40650894 0.04767535
0.04408051 0.49111789 0.01389844
0.44975782 -0.53842011 0.14180719
0.69403992 -0.33857003 0.21882787
-0.39976062 0.19938410 0.00000236
-0.65164534 -0.06723719 -0.00000125
0.00682820 -0.41875396 0.00215291
0.04313668 -0.65465939 0.01360086
-0.27181159 0.52707390 -0.00000066
-0.30815655 -0.54133225 0.00000000
0.37720883 0.12947609 0.11893719
-0.07427737 0.25510782 0.00000000
0.25771918 0.50148934 0.08125764
-0.07030351 0.36378432 0.00000548
-0.14266929 0.63781409 -0.00000003
-0.10201653 0.30894392 0.00000000
0.01759678 0.67817777 0.00554821
-0.00606814 0.04290146 0.00001126
-0.42378905 -0.67591512 0.00000000
0.53595008 -0.50681262 0.16898328
0.11904121 0.17735510 0.03753331
0.65700031 -0.09657852 0.20714924
-0.62047278 -0.37859892 -0.00000056
0.20313539 0.03124133 0.06405696
-0.55228776 -0.65523953 0.00000000
0.39465417 -0.15512116 0.12443314
0.02022988 0.00370178 0.00637842
-0.10086743 0.12076872 0.00000867
-0.28097771 0.03320798 0.00000726
0.35795153 0.20621828 0.11286062
0.00901401 0.48048424 0.00284675
0.01725734 0.63009061 0.00544351
0.15478868 -0.72082100 0.04880437
-0.20890425 0.10224587 0.00000000
0.39090442 0.07233966 0.12325061
-0.19902521 0.10422014 0.00000743
-0.47861919 0.20461556 -0.00000099
-0.48916828 0.23059483 -0.00000108
-0.55797252 0.10392863 -0.00000115
0.05292859 -0.02068763 0.01668821
0.27270628 -0.35209234 0.08598341
0.64522093 -0.11107558 0.20343529
0.48071299 -0.43039718 0.15156725
-0.23331917 0.16412811 0.00000000
0.69723373 -0.23783885 0.21983475
0.49245636 -0.45955693 0.15526990
-0.56491244 0.02423815 0.00000211
-0.66452683 -0.61500648 -0.00000033
-0.21375246 0.36643426 0.00000314
0.02604128 0.60750370 0.00821073
-0.52126842 -0.19728750 -0.00000046
-0.46737598 0.25488360 0.00000013
-0.61527612 -0.04327971 -0.00000114
0.53023304 -0.19722089 0.16718039
-0.07284300 0.14014731 0.00000000
0.17240926 -0.00364452 0.05436008
-0.11589162 -0.62437859 0.00000000
0.75838406 -0.10464635 0.23911495
0.63610934 -0.60358038 0.20056299
0.34697768 0.13171781 0.10940600
-0.08882913 0.49125342 0.00000329
-0.41429999 0.01642571 -0.00000038
-0.21717651 -0.37571301 0.00000000
-0.42547077 -0.60262384 0.00000000
-0.38171362 0.00788876 -0.00000023
-0.30397399 -0.13030693 0.00000000
0.74373087 -0.10160101 0.23449487
-0.36550063 0.40244867 -0.00000038
-0.03242824 -0.62879779 0.00000000
-0.57836156 0.11618103 -0.00000126
0.16444401 0.51612792 0.05185045
-0.43176856 -0.49907646 0.00000000
0.30282964 -0.66197932 0.09548121
0.36648070 0.21861303 0.11555322
-0.52140206 -0.76482120 0.00000000
0.20319598 -0.47846418 0.06406704
0.65003282 -0.43859979 0.20495281
0.64924441 -0.42926229 0.20470421
0.74928020 -0.35803640 0.23624486
-0.51754163 -0.57775868 0.00000000
-0.62410445 -0.14345570 -0.00000100
0.02897191 0.70706349 0.00913475
0.12985461 0.24964375 0.04094939
0.19683994 0.36790368 0.06206293
-0.46794237 0.32940924 -0.00000117
0.54614221 -0.00483973 0.17219624
0.34034792 0.18495344 0.10731481
0.67138685 0.02810552 0.21168509
0.03488001 -0.58634718 0.01099755
-0.09704333 0.37273109 0.00000494
-0.57404765 0.19219283 -0.00000087
0.25458532 -0.01808098 0.08026993
0.25380244 -0.04554803 0.08002309
0.16495451 0.51018944 0.05201151
0.27043791 0.23914568 0.08527288
0.13010395 -0.32293183 0.04102136
0.01148588 0.06089357 0.00362146
0.49277993 -0.23029192 0.15537168
0.60614791 -0.26685241 0.19111597
-0.07002204 0.34959487 0.00000000
0.68007045 -0.74885070 0.21442387
-0.32382407 -0.12777996 0.00000000
0.32156579 0.05444794 0.10139567
-0.48002190 -0.02758541 -0.00000059
-0.63605370 -0.30479014 -0.00000076
-0.09469413 -0.66107594 0.00000000
-0.06931113 -0.40319090 0.00000000
-0.47030074 0.15098379 -0.00000086
-0.16422908 -0.25337248 0.00000000
-0.35844314 -0.77702389 0.00000000
0.03799441 0.67581600 0.01197951
-0.09587223 0.32654829 0.00000566
0.49042385 -0.69894257 0.15462906
0.10608519 0.50490344 0.03344832
-0.09911211 0.22495575 0.00000000
0.27482029 -0.79359589 0.08664995
-0.61957478 -0.23369044 -0.00000082
-0.67834074 -0.11154418 -0.00000128
0.13416219 -0.43149960 0.04230091
-0.06286610 0.67537757 0.00000087
-0.00835428 -0.31525897 0.00000000
0.06785370 0.36810577 0.02139968
0.22769889 0.25729762 0.07179796
0.42097792 -0.41768380 0.13273298
0.34687980 0.03558188 0.10937691
0.00390711 0.74129087 0.00123273
-0.11416654 0.35256838 0.00000000
-0.55059878 -0.17066671 -0.00000063
-0.72034547 -0.18612256 -0.00000133
-0.20443958 0.34795553 0.00000363
-0.66586944 -0.06737698 -0.00000131
0.43092076 -0.20242156 0.13586783
0.53798339 -0.18660916 0.16962401
-0.41929031 -0.35956516 0.00000000
0.56275954 -0.18132395 0.17743578
-0.13166871 -0.33960874 0.00000000
-0.23051892 0.43645045 0.00000165
0.13523667 -0.25274106 0.04263969
0.12171534 0.08092633 0.03837645
0.23605140 -0.78299712 0.07442624
-0.72408351 -0.55185394 -0.00000062
0.54177039 0.14291334 0.17081922
0.46196052 -0.62712033 0.14565466
0.38492333 -0.72177039 0.12136508
0.07250440 0.50731885 0.02286040
-0.03741692 0.18849867 0.00000861
0.26152328 0.15048531 0.08246394
-0.24034655 -0.11443763 0.00000000
0.06883322 0.40286594 0.02170799
0.62211510 0.13753347 0.19615006
0.69376434 -0.44671122 0.21874110
-0.28427222 0.39147457 0.00000136
0.14289985 0.43294490 0.04505962
0.16021189 0.38491546 0.05051429
0.10840578 0.15251139 0.03417999
-0.14446779 -0.26683483 0.00000000
0.21988187 0.43991113 0.06932783
0.16765303 0.34009100 0.05286531
-0.02150507 -0.68598148 0.00000000
-0.31976779 0.02247234 0.00000684
0.36737809 0.08147050 0.11583868
-0.14785399 0.25569367 0.00000000
0.19186786 0.11142824 0.06050328
-0.04562911 0.70282003 0.00000075
0.53788187 -0.54385461 0.16959240
0.54085417 -0.61719920 0.17052958
0.45407459 -0.25272196 0.14316815
0.00538079 -0.59361143 0.00169655
-0.61993026 -0.11870432 -0.00000102
-0.61230814 0.09609004 -0.00000137
0.50377749 0.09371964 0.15884188
0.14501462 -0.38479029 0.04572264
-0.49408413 -0.66212869 0.00000000
-0.30997613 -0.74156861 0.00000000
0.09083343 0.65210250 0.02863940
0.04021178 -0.30033260 0.01267864
-0.57057079 0.07869279 0.00000109
-0.60548793 -0.59311575 -0.00000012
0.38548580 0.34819545 0.12154268
0.21687136 0.19254085 0.06837884
-0.54684831 0.01046041 -0.00000094
0.52958491 0.05425797 0.16697576
-0.74016908 -0.03130900 -0.00000169
0.01152045 0.04467608 0.00363236
-0.26645140 -0.16884971 0.00000000
-0.30426246 0.34725520 -0.00000050
0.35149222 0.42532651 0.11082390
0.12145699 0.27542882 0.03830137
0.65395803 -0.71425164 0.20619071
0.04755516 0.35563946 0.01500005
-0.28403113 0.28371905 -0.00000030
0.32243532 0.17744755 0.10166754
-0.51675021 0.15758114 -0.00000107
-0.19661345 0.29171910 0.00000000
-0.05448590 0.61397408 0.00000197
-0.00730194 -0.19812731 0.00000000
0.27991121 -0.36510500 0.08825510
0.29620329 -0.54190781 0.09339194
0.20290506 0.06279106 0.06397531
0.04284583 -0.03564765 0.01350915
0.37589941 0.21179830 0.11852284
0.07013760 0.24450623 0.02211416
-0.47371083 -0.31554915 -0.00000005
0.06784216 0.68122155 0.02139118
0.30261051 -0.00911354 0.09541212
0.73784174 0.00181814 0.23263837
0.75845566 -0.16788864 0.23913760
-0.06504247 0.03477662 0.00001050
0.55535357 -0.32841530 0.17510088
0.12492135 0.13561242 0.03938730
-0.06590343 -0.43618205 0.00000000
0.15716698 0.26507261 0.04955424
0.28497162 -0.62856081 0.08985063
-0.39676340 0.39885508 -0.00000092
-0.28758858 -0.06266005 0.00000000
0.07659897 -0.34464796 0.02415141
-0.54877685 -0.39957429 -0.00000022
0.40041628 -0.78779262 0.12624996
0.29179492 -0.18635099 0.09200200
0.68148808 -0.14213389 0.21487013
0.22522622 -0.02023177 0.07101310
-0.23251058 -0.41003014 0.00000000
-0.46976739 -0.40859948 0.00000000
-0.27703727 0.11420178 0.00000611
0.15718566 0.32816474 0.04956528
-0.41357302 -0.15075107 -0.00000008
0.62798898 0.13123989 0.19800207
-0.11948938 -0.49048438 0.00000000
0.01626835 0.16871579 0.00512936
-0.16785959 0.55042414 -0.00000028
0.72752649 -0.12640120 0.22938575
0.64823414 0.02506439 0.20438684
0.40852279 -0.65846686 0.12880592
-0.01032090 0.52571032 0.00000396
0.29033838 -0.64437158 0.09154276
-0.30451881 0.19402247 0.00000427
-0.12337394 0.10020389 0.00000864
-0.14747172 -0.39968753 0.00000000
-0.33369214 -0.28855759 0.00000000
-0.40447238 0.22604029 0.00000182
0.59369742 -0.65745811 0.18719083
0.50296095 -0.56680233 0.15858196
-0.43087220 0.01883140 -0.00000046
0.19856011 0.23145969 0.06261146
-0.20355657 0.33556434 0.00000385
-0.46507097 -0.10781517 -0.00000038
-0.11421074 -0.77306090 0.00000000
-0.09497476 0.22356731 0.00000721
-0.09131795 -0.65328498 0.00000000
-0.62740649 0.06760606 0.00000019
0.49953189 -0.76966671 0.15750079
-0.47397567 0.00078850 0.00000425
0.32833956 -0.68550705 0.10352440
-0.51588129 0.01052506 -0.00000081
-0.07018456 0.35769988 0.00000558
-0.59000300 -0.77311001 0.00000000
0.31695215 -0.02678676 0.09993399
0.21752590 0.16194185 0.06858522
0.28433137 0.33407087 0.08965140
-0.09233263 0.32198276 0.00000578
-0.64520010 -0.79363163 0.00000000
-0.12190067 0.53624741 -0.00000005
-0.49249939 0.14747427 0.00000144
0.13592668 -0.53126075 0.04285724
-0.13021163 -0.55811837 0.00000000
-0.08303874 0.53348598 0.00000274
-0.03010913 0.73555318 -0.00000001
0.24627990 -0.18923979 0.07765126
-0.51084977 -0.31056614 -0.00000022
-0.08705753 0.22727612 0.00000000
-0.12169324 0.06914285 0.00000000
0.15230830 -0.04261947 0.04802232
0.16548941 0.08300778 0.05218699
0.69225895 -0.42641963 0.21826644
0.69827754 -0.06954967 0.22016367
-0.04135370 0.48234564 0.00000414
0.15189663 0.15719650 0.04790028
-0.08240172 -0.00891118 0.00000000
-0.41475572 -0.34886896 0.00000000
-0.24875069 0.42940273 -0.00000041
0.44334553 -0.68533537 0.13978541
0.24749477 0.10651878 0.07804167
0.44569844 0.02852145 0.14052689
0.33561538 -0.15323905 0.10581845
-0.33342609 0.21723852 -0.00000039
0.60233528 0.04565336 0.18991566
-0.05341568 0.10142513 0.00000967
0.14069207 -0.44071232 0.04435976
-0.47307577 -0.40430651 0.00000000
-0.01674169 -0.62527435 0.00000000
0.54231575 -0.33536937 0.17099015
0.75675861 -0.49948544 0.23860294
0.26126509 0.27789381 0.08237589
-0.06586493 0.67363004 0.00000085
0.00485699 -0.21415715 0.00153139
-0.23430480 0.36288417 0.00000280
-0.02052394 0.28849887 0.00000736
-0.27305406 0.44166148 -0.00000053
-0.11994753 0.52233964 0.00000233
-0.63199431 -0.30775845 -0.00000074
-0.69132980 0.10549375 -0.00000172
-0.28772405 -0.62144701 0.00000000
-0.50965656 0.26712997 -0.00000089
-0.64426222 -0.14554217 -0.00000108
0.06935197 -0.11198686 0.02186645
-0.65297797 -0.56291282 -0.00000038
-0.09497376 0.60631724 -0.00000006
-0.69585035 -0.09618988 -0.00000139
0.41717617 0.26399086 0.13153544
-0.11907816 -0.68724153 0.00000000
-0.52672958 0.12441085 0.00000117
-0.06886323 0.01544032 0.00001073
0.58247338 -0.04881993 0.18365129
-0.71823776 -0.22393043 -0.00000126
0.15497195 -0.09366594 0.04886216
-0.23168645 0.31676261 0.00000362
-0.22023409 0.14600237 0.00000649
-0.52131332 -0.64199244 0.00000000
0.39475376 0.04517384 0.12446432
0.05293282 0.11033634 0.01668955
-0.27617991 -0.63666581 0.00000000
-0.58546857 -0.15036618 -0.00000082
0.12295894 0.35215983 0.03876856
-0.21967607 0.42849578 0.00000199
0.12047548 0.45132121 0.03798928
-0.66978889 -0.60439482 -0.00000038
-0.00328312 -0.33181824 0.00000000
0.24733267 -0.43006551 0.07798319
-0.18585913 -0.32903704 0.00000000
0.08445693 0.43364361 0.02662900
0.54780822 -0.53434280 0.17272211
0.02926672 0.54241694 0.00922770
0.44371400 0.14507945 0.13990108
-0.34333466 -0.41446011 0.00000000
-0.53832322 -0.51684291 0.00000000
0.31377067 -0.13584568 0.09893088
0.64145993 -0.30546898 0.20224968
-0.78819068 0.00454121 -0.00000185
-0.21097767 0.05114659 0.00000805
0.03629516 0.73625798 0.01144372
-0.63397655 -0.70701626 -0.00000004
0.28212447 0.50298506 0.08895248
0.55904917 -0.40542069 0.17626617
-0.13406169 -0.47535048 0.00000000
-0.51592366 -0.73795873 0.00000000
-0.61838973 -0.15012945 -0.00000096
0.58597869 -0.68253855 0.18475719
-0.74513773 -0.13319651 -0.00000153
0.49678056 0.15771672 0.15663263
0.65540367 0.05478648 0.20664667
-0.36836061 -0.56618397 0.00000000
-0.01539646 -0.19251639 0.00000000
0.48547112 -0.43502535 0.15306748
0.59142660 -0.50592245 0.18647469
-0.00160738 -0.30856943 0.00000000
0.16010603 -0.46534549 0.05048091
0.40785978 -0.53632759 0.12859687
-0.79935261 -0.28584194 -0.00000129
0.07906636 0.20393390 0.02492937
-0.07150893 -0.03573134 0.00000000
0.11870579 0.55958024 0.03742950
-0.54892950 0.13492613 -0.00000117
-0.20213604 -0.20978963 0.00000000
-0.71387691 -0.30914340 -0.00000109
0.13114177 0.49291228 0.04134855
-0.50537685 0.08912714 0.00000217
0.59415097 -0.42505567 0.18733358
0.29239214 0.15606470 0.09219605
0.17087279 -0.29742817 0.05387564
0.10235665 -0.69256608 0.03227272
0.20665476 -0.41200409 0.06515758
0.46509401 -0.46156104 0.14664264
0.25611861 -0.49351328 0.08075337
0.43158133 0.31420737 0.13607611
-0.18719220 0.12024402 0.00000000
-0.46083225 0.03471053 0.00000393
0.04974068 -0.29077122 0.01568308
0.36531328 0.01227563 0.11518195
-0.39649025 -0.61356026 0.00000000
0.38822001 -0.41652068 0.12240452
-0.03988302 0.67784476 0.00000123
-0.11526637 0.04830391 0.00000954
-0.73336959 -0.13650435 -0.00000147
0.01688834 -0.13654158 0.00532484
-0.29939614 -0.78181993 0.00000000
0.20901474 0.25947913 0.06590722
-0.22003827 -0.05072645 0.00000000
-0.47377328 0.26328943 -0.00000013
0.54455062 -0.10456026 0.17169453
0.03678199 -0.14996139 0.01159724
0.10485702 0.46664798 0.03306108
0.23540108 -0.60334044 0.07422120
-0.65512743 -0.24566009 -0.00000095
0.23991450 0.47002403 0.07564532
-0.14631842 0.60984535 0.00000037
-0.01925357 -0.11752075 0.00000000
-0.26758680 0.40532462 -0.00000044
0.13859732 0.24120292 0.04369929
0.24264633 0.39666174 0.07650537
0.13408369 0.46984758 0.04227615
0.08882524 0.55789841 0.02800631
-0.36355926 -0.64081300 0.00000000
-0.40701199 -0.42634623 0.00000000
0.46129575 0.15443254 0.14544449
-0.34908829 -0.77047953 0.00000000
-0.33172120 0.16153532 0.00000429
0.31548163 -0.67961501 0.09947034
-0.27863778 -0.72673906 0.00000000
-0.15580629 -0.19203912 0.00000000
-0.00686308 0.66322549 0.00000195
-0.42532673 -0.66369093 0.00000000
0.31408576 0.03657384 0.09903773
0.50358700 0.25439810 0.15877855
0.60739227 -0.60409847 0.19150868
0.16315707 0.21557927 0.05144966
-0.19982256 0.46109586 -0.00000025
0.52026080 0.23310014 0.16403573
0.72103522 -0.29866970 0.22733929
-0.24209907 0.41843951 -0.00000036
-0.36691576 0.13153526 -0.00000038
0.03870850 -0.74534495 0.01220467
0.68122206 -0.55951877 0.21478673
0.55617042 -0.62869389 0.17535874
0.50803090 0.03737942 0.16018392
-0.13987137 -0.79642398 0.00000000
-0.20139217 -0.69500846 0.00000000
0.47160703 -0.60577500 0.14869617
0.33950462 0.32769427 0.10704429
-0.18776345 0.11905490 0.00000000
0.16868168 -0.57356331 0.05318479
0.58264292 0.05854468 0.18370463
0.67177103 -0.15368071 0.21180642
-0.23952841 0.34104535 0.00000307
0.58622573 -0.58550275 0.18483497
0.62135279 -0.03945465 0.19590972
-0.08763105 0.45659390 0.00000000
-0.06259318 -0.18390803 0.00000000
-0.43347806 0.26111000 -0.00000090
-0.53863049 0.14880321 -0.00000115
0.20153180 0.12200799 0.06354233
-0.02704678 0.49563450 0.00000000
0.51661106 -0.19227980 0.16288545
0.75496146 -0.27780651 0.23803603
-0.31692388 0.02747399 0.00000000
-0.60225570 -0.60086531 -0.00000009
-0.26425466 -0.61759378 0.00000000
-0.19394540 0.50963101 -0.00000031
-0.23512002 0.14055170 0.00000000
-0.28586555 0.07567557 0.00000000
-0.73223112 -0.25759770 -0.00000126
0.07783475 0.35206136 0.02454105
0.19884859 -0.55436458 0.06269632
-0.52263801 -0.57971529 0.00000000
-0.13671787 -0.00296682 0.00000000
0.25879050 0.31377742 0.08159563
-0.36037471 0.27529882 0.00000184
0.36334405 0.36532772 0.11456067
0.00205996 0.73928261 0.00065038
0.17189265 0.52493884 0.05419867
0.23595544 0.16246139 0.07439599
0.58764800 -0.41161205 0.18528322
0.27205576 -0.57497549 0.08577830
0.17462616 -0.74625782 0.05505906
-0.30583585 -0.77173623 0.00000000
0.59295255 0.17155617 0.18695519
-0.01089799 -0.76947862 0.00000000
0.31259642 -0.22594975 0.09856064
0.06987592 0.71786359 0.02203155
0.44024909 -0.77413887 0.13880912
-0.27047045 -0.57096728 0.00000000
-0.25815530 -0.65855588 0.00000000
-0.43619037 -0.12081958 -0.00000023
-0.26303335 -0.04960668 0.00000000
-0.23352572 -0.66285075 0.00000000
0.63620866 0.02231689 0.20059554
0.35423523 0.21009245 0.11169268
-0.12508974 0.62612847 -0.00000023
-0.07494402 0.21005066 0.00000772
-0.16825060 -0.36975990 0.00000000
0.36186823 0.10249916 0.11410116
0.21896636 -0.27299748 0.06903939
-0.19035294 0.32411706 0.00000427
0.19858162 -0.14127283 0.06261215
-0.58546546 0.02880401 0.00000164
-0.05006847 0.09947504 0.00000000
-0.15478727 0.09852580 0.00000000
-0.21406986 0.54013191 -0.00000045
-0.09773162 0.53631350 0.00000248
-0.11209024 -0.33506142 0.00000000
0.12547343 -0.18143134 0.03956137
-0.57087595 -0.54988184 -0.00000005
0.37815898 -0.72301077 0.11923231
0.22920677 -0.33057094 0.07226816
-0.27757020 0.03805402 0.00000724
-0.67624833 -0.39239879 -0.00000078
0.64558507 -0.59729520 0.20355063
0.45683140 0.26818482 0.14403770
-0.16628323 -0.01140152 0.00000000
-0.08668701 0.67177588 -0.00000014
0.60494025 -0.12776211 0.19073505
-0.37208640 -0.55585050 0.00000000
0.25337057 -0.52280254 0.07988692
0.56700802 -0.13712725 0.17877525
0.69171070 -0.51657586 0.21809369
-0.69476366 -0.02169251 -0.00000151
0.05857803 0.52621896 0.01847285
-0.13997398 0.50078658 -0.00000007
0.29151804 -0.05186637 0.09191470
-0.05126571 0.71949834 -0.00000008
0.69198403 -0.41529458 0.21817974
-0.52261509 0.13729214 -0.00000106
0.11675736 -0.78846058 0.03681322
