ply
format ascii 1.0
element vertex 1377
property float x
property float y
property float z
end_header
-0.06736656 -0.41441079 -0.00000024
-0.04835190 -0.79322338 -0.00000000
-0.39850674 -0.69483949 -0.00000007
-0.16527407 0.19425370 -0.00000062
-0.17065719 0.59306775 -0.00000078
0.16759616 0.48587020 0.00000142
-0.08785708 0.40308730 -0.00000075
-0.31642369 0.12274076 -0.00000054
0.59654111 -0.63785685 -0.00000010
0.07597450 0.52430860 0.00000233
-0.44855283 0.29420607 -0.00000043
-0.55471084 0.32563088 0.02411402
0.05256639 0.26689437 -0.00000067
-0.55812821 0.59288346 0.10535505
0.07770436 0.63720086 -0.00000093
-0.15963006 -0.67918990 -0.00000008
-0.72468520 -0.52086556 0.00000000
-0.40744714 -0.60438006 -0.00000012
0.53033827 0.13544778 -0.00000140
-0.14962241 -0.75257326 -0.00000003
0.31231507 -0.27062492 -0.00000033
0.38091728 0.28121072 0.00000100
-0.75389678 0.35533898 0.09281648
0.03549195 -0.13028800 -0.00000042
0.06803438 0.16998346 -0.00000061
-0.25507836 -0.75968933 -0.00000003
0.13018965 0.29359514 -0.00000068
-0.74814296 -0.65414302 0.00000000
0.42096357 0.16653512 0.00000229
0.66867647 -0.62816086 -0.00000035
-0.62959662 -0.43215356 -0.00000010
0.37589493 0.07919220 0.00000472
-0.74699428 -0.02464621 -0.00000005
-0.08739837 -0.06863583 -0.00000046
0.11465810 0.67757765 -0.00000113
0.47638869 -0.51454744 -0.00000018
0.69203689 -0.45550691 -0.00000077
0.17689434 -0.47098349 -0.00000021
0.57188768 0.05417298 0.00000141
0.50926678 -0.63423341 -0.00000010
-0.63814524 0.49437416 0.09980484
-0.54919156 -0.22450027 -0.00000023
0.09256462 -0.60885383 -0.00000012
-0.71376115 0.23033610 0.04325039
0.58546750 -0.46127661 -0.00000041
-0.34604032 -0.48101963 -0.00000020
-0.02320469 0.72316459 -0.00000095
-0.52293611 0.46477976 0.05634213
-0.75559651 -0.77020310 0.00000000
0.73851488 -0.59286188 -0.00000052
0.02303344 -0.09298059 -0.00000044
0.58238773 -0.35954080 -0.00000060
0.45002019 -0.27911617 -0.00000034
-0.20814509 -0.53775480 -0.00000016
0.56101646 0.08519815 -0.00000140
-0.59393351 0.55539749 0.10485069
0.13455549 0.11551938 0.00000809
-0.43014815 -0.30319312 -0.00000031
0.75382689 -0.26920312 -0.00000133
-0.18640321 -0.68619832 -0.00000007
-0.08022835 -0.62381217 -0.00000011
0.36594752 0.36971224 -0.00000030
0.59291408 0.07233743 -0.00000148
-0.32477396 0.39025170 -0.00000058
-0.17070347 -0.75697588 -0.00000003
-0.27368373 0.04292648 -0.00000053
0.64708683 -0.06471396 -0.00000138
0.03419577 -0.10913621 -0.00000043
0.05842439 -0.39430570 -0.00000025
0.23224503 0.27533706 0.00000396
-0.21618715 0.56690814 -0.00000073
0.24244613 0.08423037 0.00000697
0.14046587 0.34309715 0.00000431
-0.79885531 -0.30480559 0.00000000
-0.39091979 -0.53272611 -0.00000017
-0.65547257 0.29269420 0.04447175
0.07642908 0.08738031 0.00000943
-0.05573680 0.21369119 -0.00000063
0.37299717 -0.73254960 -0.00000004
0.00299185 -0.32224673 -0.00000030
0.62168341 -0.02576559 -0.00000138
-0.64594471 0.64939698 0.14867540
-0.63011966 -0.34692186 -0.00000012
-0.79895869 -0.07133473 0.00000000
0.42628230 -0.56772811 -0.00000015
-0.75186981 0.18841269 0.04210546
0.51167602 -0.36865003 -0.00000036
0.45216670 -0.01211284 -0.00000086
0.20708865 -0.27889951 -0.00000033
-0.77827342 -0.13753722 0.00000000
0.40757348 -0.53342262 -0.00000017
-0.22928617 0.42238413 -0.00000069
-0.77701691 -0.12828652 -0.00000000
0.60051028 -0.40790701 -0.00000057
0.33994853 0.42978772 -0.00000137
-0.03824408 -0.32880529 -0.00000029
0.10931831 -0.56161945 -0.00000015
-0.09894176 0.15328900 -0.00000060
0.26169881 0.52133098 -0.00000129
-0.53589585 0.50856867 0.07337516
-0.38596536 -0.39167508 -0.00000026
-0.32590769 0.68782983 0.06415210
0.44567005 -0.57712524 -0.00000014
-0.26433002 -0.61636545 -0.00000011
0.56656375 -0.15955362 -0.00000094
0.75113211 -0.36580441 -0.00000109
-0.15334253 0.63937743 -0.00000081
0.19944754 -0.11276797 -0.00000043
0.59473843 -0.68688220 -0.00000007
0.70155367 -0.21855366 -0.00000126
0.56247125 -0.69752727 -0.00000006
-0.56520225 0.55325795 0.09558486
-0.69920186 -0.02743916 -0.00000010
0.41119298 0.26346491 0.00000074
-0.50956877 -0.38222679 -0.00000024
0.05701995 0.49187824 -0.00000081
0.31312600 0.13665734 -0.00000071
-0.56671236 -0.62230377 -0.00000011
-0.60386813 0.54551914 0.10486761
0.33448714 0.28338345 0.00000185
-0.47268004 0.24077694 -0.00000039
-0.69673520 0.63575587 0.15982579
-0.12316682 0.16862035 -0.00000061
0.48180397 -0.06452607 -0.00000086
-0.68598957 -0.79055240 0.00000000
-0.45038038 0.68891591 0.10183843
-0.08668822 -0.69810677 -0.00000006
0.05241879 0.32190930 -0.00000070
-0.51198414 0.69530128 0.12224528
-0.36326363 0.14698354 -0.00000049
0.00857032 -0.02779632 -0.00000048
0.57685841 0.20647385 -0.00000169
0.32891841 0.16681160 -0.00000082
-0.18725788 -0.45017204 -0.00000022
0.65772465 -0.62617579 -0.00000032
-0.44127625 0.69863119 0.10202184
-0.16560584 0.13958576 -0.00000059
0.72881963 -0.72158623 -0.00000020
0.42854445 -0.26015380 -0.00000034
-0.26796577 0.42643469 -0.00000065
0.49896538 0.18026556 -0.00000139
0.03220684 0.00589853 -0.00000050
0.10187942 -0.32165296 -0.00000030
0.23534601 0.09291134 -0.00000056
-0.59545184 -0.59583761 -0.00000011
-0.73680997 0.45711803 0.11823668
-0.44463024 0.32011160 -0.00000044
-0.53912737 0.25166794 -0.00000032
-0.29983104 -0.60383194 -0.00000012
0.36359340 0.02754986 0.00000589
-0.42644000 0.49480619 0.03639122
-0.43442757 -0.67424840 -0.00000008
-0.38918652 -0.34359174 -0.00000029
-0.58906429 0.32109535 0.03306387
-0.12333866 -0.36292495 -0.00000027
-0.65207219 -0.41449573 -0.00000008
0.12612680 -0.16356782 -0.00000040
-0.08169535 -0.58007349 -0.00000014
-0.22676176 0.53222238 -0.00000071
0.26498999 -0.70644511 -0.00000006
-0.31866178 -0.78920049 -0.00000001
-0.44936675 0.58242270 0.06957062
-0.15294868 -0.12333237 -0.00000042
0.46366316 -0.06455703 -0.00000080
-0.20302822 -0.65050931 -0.00000009
-0.61485692 -0.51866076 -0.00000010
0.14873778 -0.72289777 -0.00000005
0.54351121 0.21426104 -0.00000092
-0.69887527 0.12719879 0.00782592
-0.44435517 -0.10808058 -0.00000036
-0.78359840 0.12760197 0.03337656
-0.69684286 -0.43193387 -0.00000003
-0.57208251 0.49070501 0.07887483
-0.03601437 -0.72479094 -0.00000005
-0.53229029 0.53648911 0.08067322
0.25719238 0.51492488 -0.00000127
0.51424405 -0.18158872 -0.00000073
0.13615556 0.03914733 0.00000931
0.58121399 -0.35900067 -0.00000060
0.00426968 0.26963141 0.00000755
-0.09993745 0.28107139 -0.00000068
-0.73066503 0.64309904 0.17221382
0.52184285 0.03286445 -0.00000117
0.07883643 0.63874189 0.00000038
0.52004691 -0.04036318 -0.00000103
0.22093101 0.14946829 -0.00000059
-0.47557174 -0.17449167 -0.00000031
0.77314718 -0.28432854 -0.00000129
-0.75656657 0.42901015 0.11573009
-0.29347702 -0.66599088 -0.00000008
0.43180773 -0.35101225 -0.00000028
-0.42398402 0.02591762 -0.00000041
0.52296458 0.04517948 -0.00000120
-0.14779106 0.16861640 -0.00000061
0.09128116 -0.55332902 -0.00000015
-0.05185955 -0.26266103 -0.00000034
0.18399110 -0.15497627 -0.00000040
-0.21246797 -0.69215546 -0.00000007
-0.35490687 0.64360484 0.05958220
0.17939954 0.16010986 -0.00000060
-0.20379219 -0.34503058 -0.00000028
-0.46901982 0.09831005 -0.00000037
-0.40193543 0.19172681 -0.00000046
0.16979277 -0.72658415 -0.00000005
-0.34194598 0.66843629 0.06314507
-0.74454342 0.00096944 -0.00000006
-0.62445560 -0.33370631 -0.00000013
-0.46226561 0.30895018 -0.00000042
0.75494251 -0.26419869 -0.00000134
0.11258941 0.32967352 0.00000494
-0.03929332 -0.09181615 -0.00000044
0.53431848 -0.23542778 -0.00000069
0.42382570 -0.38020711 -0.00000026
-0.44772604 -0.43223587 -0.00000023
0.03585868 0.00817664 0.00001133
0.47890294 -0.26989107 -0.00000045
0.08686830 0.28929832 0.00000599
-0.72607862 0.75451451 0.20427815
-0.42335284 0.59821840 0.06650360
-0.33158559 0.40973231 -0.00000057
0.08391479 0.19026299 0.00000764
0.57727856 -0.23086358 -0.00000084
-0.33620671 0.31676568 -0.00000055
0.64515378 0.07992593 -0.00000166
-0.15179522 -0.44476658 -0.00000022
0.31604829 0.37746066 -0.00000119
-0.27916674 -0.14612567 -0.00000041
-0.06755438 0.09893520 -0.00000056
0.33300020 0.24528141 0.00000256
-0.74194342 -0.11943398 -0.00000004
-0.68846476 0.11796345 0.00192923
0.49782308 -0.54332383 -0.00000016
-0.44073431 -0.26733939 -0.00000033
-0.69661895 0.26258017 0.04778316
0.33054716 -0.76488508 -0.00000002
-0.77986142 0.24884392 0.06864546
0.17205510 0.04953952 0.00000860
-0.01545788 -0.25403393 -0.00000034
-0.46877859 -0.11778512 -0.00000033
0.21322178 0.21580068 0.00000528
-0.50586311 0.31277751 0.00559447
0.07699977 0.70427249 -0.00000106
0.11011957 0.04424716 -0.00000053
0.02395599 0.45799729 -0.00000079
-0.52688265 -0.62372998 -0.00000011
0.13993459 0.18452091 0.00000689
0.61664305 0.10233858 -0.00000032
-0.35780639 0.72297124 0.08427402
0.37743645 0.28357409 -0.00000120
0.18707578 -0.56553505 -0.00000015
-0.35383927 0.76591091 0.09597148
-0.27055622 0.65392581 0.03736220
0.15304278 0.16799265 -0.00000060
0.06361695 0.37176599 -0.00000073
-0.40024770 -0.01440542 -0.00000042
-0.27615781 -0.17085147 -0.00000039
0.22445927 0.37746173 -0.00000089
0.29561395 -0.51964697 -0.00000018
-0.12145269 0.66068680 -0.00000084
0.00719006 0.46195993 0.00000438
0.17557047 0.22368457 -0.00000064
-0.35472916 -0.15882334 -0.00000040
0.36045248 0.15527071 -0.00000090
-0.12571790 -0.15073992 -0.00000041
0.52643641 0.11475629 -0.00000135
0.58846997 0.09048614 -0.00000150
0.24860856 -0.54551711 -0.00000016
0.26118107 0.47727256 -0.00000022
0.10760469 0.39279388 0.00000399
-0.77773391 -0.27522086 0.00000000
-0.54305635 -0.12329592 -0.00000025
-0.69267190 0.08488069 -0.00000013
-0.24551752 0.31246329 -0.00000065
0.36665454 -0.65285103 -0.00000009
-0.49069806 -0.50753243 -0.00000018
0.01529046 0.33680007 0.00000630
-0.31155446 0.42870529 -0.00000060
0.16709511 -0.70638290 -0.00000006
0.00715706 -0.25387197 -0.00000034
-0.59293985 0.48265712 0.08271960
0.52796331 -0.58873687 -0.00000013
0.29612177 0.28742121 -0.00000095
-0.12057336 0.77784204 0.02953804
-0.71509492 0.08018823 -0.00000011
0.04359500 0.45061690 0.00000402
-0.29200482 -0.63802451 -0.00000010
0.52132848 -0.29299966 -0.00000054
-0.23911132 -0.09010575 -0.00000044
0.48285500 0.00878625 0.00000393
0.16154357 -0.01379695 -0.00000049
-0.75227700 0.01337698 -0.00000005
-0.27987836 -0.05935167 -0.00000046
0.20153539 -0.65027966 -0.00000009
0.11314440 -0.16885703 -0.00000039
-0.79239656 -0.67781899 0.00000000
0.29283859 0.15344861 -0.00000068
0.38038367 0.37588139 -0.00000069
0.11517236 -0.60512432 -0.00000012
-0.17504939 0.62435749 -0.00000078
-0.11864179 -0.25066113 -0.00000034
-0.72562447 -0.09027454 -0.00000006
-0.71575491 -0.76955033 0.00000000
-0.38446607 -0.01441249 -0.00000044
0.11894510 0.41945588 0.00000339
0.33185255 -0.04830517 -0.00000047
-0.22103779 0.00755661 -0.00000050
-0.07022457 -0.09352601 -0.00000044
-0.37854104 -0.64053181 -0.00000010
0.36087476 -0.09265226 -0.00000044
0.54387873 0.12885680 0.00000061
-0.63354618 -0.78473249 -0.00000001
0.04928484 -0.59106671 -0.00000013
0.49757025 -0.68175983 -0.00000007
0.18878668 0.23742786 0.00000529
0.38165467 0.38091447 -0.00000081
0.73144271 -0.78417511 -0.00000004
-0.17525227 -0.05238514 -0.00000047
0.27306001 -0.40757352 -0.00000025
0.30955625 0.26314296 0.00000269
0.01413281 -0.38302230 -0.00000026
0.00661121 -0.24439886 -0.00000035
0.74723916 -0.05153698 -0.00000173
-0.13620359 0.35349757 -0.00000072
-0.70961682 0.48720077 0.11910393
-0.67690215 0.73514075 0.18370292
-0.15960106 0.19685597 -0.00000062
-0.20981349 0.68759682 0.02923657
-0.06526568 0.08352332 -0.00000055
-0.10629594 0.33152361 -0.00000071
0.31011840 0.46506820 -0.00000094
0.17805516 -0.63388921 -0.00000010
-0.76491197 0.41400380 0.11373083
-0.07643906 0.02014362 -0.00000051
0.00781583 0.01792023 0.00001159
-0.74755187 0.32572056 0.08202214
0.17374271 0.30178378 0.00000447
0.61836679 0.12091117 -0.00000165
0.75760888 -0.76673244 -0.00000008
0.48350541 0.29687719 -0.00000125
-0.64010075 0.51959878 0.10796290
0.16125450 0.37328381 0.00000350
0.33405034 -0.54569410 -0.00000016
0.29903998 0.17961743 -0.00000075
0.14745277 0.55954016 0.00000049
-0.00567887 0.19227622 -0.00000062
0.67804126 0.11059325 -0.00000183
0.21931569 -0.28582681 -0.00000032
0.60138258 -0.79597216 -0.00000000
-0.57183076 -0.41414206 -0.00000017
-0.59433118 0.42931826 0.06712764
0.26309548 0.16203541 0.00000540
-0.16785004 0.01842091 -0.00000051
0.77978110 -0.49714552 -0.00000076
0.09043045 0.52366582 0.00000213
-0.76241908 -0.34452434 0.00000000
-0.55667410 0.13016264 -0.00000028
0.46023962 -0.44523964 -0.00000022
0.47199550 0.17842140 -0.00000130
-0.52201522 0.26644830 -0.00000035
-0.63850434 -0.26393101 -0.00000012
-0.09311399 0.28274692 -0.00000068
0.21840815 0.47156165 -0.00000106
0.25141841 -0.21678629 -0.00000036
-0.37442322 0.21500252 -0.00000049
0.67700807 0.02366121 -0.00000165
0.23155267 0.02055718 0.00000817
0.35062393 -0.15091203 -0.00000041
0.10101650 0.47660315 -0.00000080
0.34922278 -0.27546029 -0.00000033
-0.25132591 0.22005755 -0.00000063
-0.53076467 -0.36071548 -0.00000022
0.67639780 -0.37546398 -0.00000087
0.66319999 -0.60991217 -0.00000037
0.49576382 -0.01864816 -0.00000099
0.06804510 0.24428036 -0.00000065
0.51722409 -0.29703171 -0.00000052
-0.19295999 0.34305143 -0.00000071
-0.29918903 0.37427396 -0.00000060
-0.52882834 -0.33219777 -0.00000023
-0.56534573 0.53672363 0.09066520
0.64555126 -0.52498540 -0.00000048
-0.64513455 -0.64668614 -0.00000005
-0.57672718 0.73714221 0.15423624
0.63640906 0.12742870 -0.00000115
0.47852202 -0.47111826 -0.00000021
0.35750764 0.07989023 -0.00000074
-0.00237643 0.09627069 -0.00000056
0.02667884 -0.49977306 -0.00000019
-0.49320624 -0.01029257 -0.00000033
-0.22052593 0.02605998 -0.00000052
-0.21413033 -0.47569219 -0.00000020
-0.53562794 -0.56108446 -0.00000015
0.43974752 0.25027124 0.00000042
0.32897074 -0.70013978 -0.00000006
-0.42502274 -0.13132045 -0.00000038
-0.03697588 0.54784256 -0.00000084
-0.65592159 0.35490398 0.06327868
0.45329301 -0.31249597 -0.00000030
-0.15100536 -0.79495164 -0.00000000
0.20050634 0.03719871 -0.00000052
0.18983878 -0.05042208 -0.00000047
0.39747967 0.26886096 -0.00000124
0.57658198 -0.09647835 -0.00000110
-0.24889864 0.50146964 -0.00000068
-0.07523410 -0.45073041 -0.00000022
0.03246446 0.16224866 -0.00000060
0.50344831 -0.25192913 -0.00000056
-0.06446823 0.24909153 -0.00000066
-0.78458149 0.23040999 0.06452928
0.26293563 -0.31194862 -0.00000031
-0.10785627 0.42798288 -0.00000077
0.54193267 -0.14419236 -0.00000089
0.24695524 -0.77702075 -0.00000001
-0.08412632 -0.59523964 -0.00000013
0.26780482 0.46554608 -0.00000014
-0.03524689 0.66930757 -0.00000092
0.23863445 0.23858447 0.00000450
-0.33779405 -0.00747182 -0.00000049
0.56003036 0.02509094 0.00000216
0.29837764 0.12217391 0.00000544
-0.00160150 -0.72097132 -0.00000005
0.16519280 -0.21824841 -0.00000036
0.11099937 -0.27626449 -0.00000033
0.66766353 -0.63467339 -0.00000034
0.65274745 -0.05796537 -0.00000142
-0.02174640 -0.22465412 -0.00000036
-0.00710936 0.29894577 -0.00000069
0.59013570 -0.41830571 -0.00000051
0.40288753 -0.69272594 -0.00000007
0.44025712 0.02613099 0.00000444
0.34499556 0.31428486 0.00000110
0.31621703 0.25370584 0.00000274
-0.33582224 -0.65524467 -0.00000009
-0.41288423 -0.04877918 -0.00000040
-0.16153783 -0.57024859 -0.00000014
0.13674266 -0.36527524 -0.00000027
-0.53728223 -0.54721687 -0.00000016
-0.65803430 0.58913195 0.13421576
0.45959061 0.31766731 -0.00000153
0.05458928 0.51940052 0.00000274
0.42000505 -0.18417342 -0.00000042
0.39825373 -0.43581247 -0.00000023
-0.06669149 0.11837379 -0.00000057
0.38608088 0.02189676 -0.00000072
0.58294847 0.19228091 -0.00000168
-0.74944011 -0.34801741 0.00000000
0.37343876 -0.41145968 -0.00000024
-0.05366620 0.02870822 -0.00000052
-0.11280421 -0.63590833 -0.00000010
-0.49961170 -0.24212950 -0.00000028
0.01164811 -0.25820546 -0.00000034
0.36830630 0.16092132 -0.00000093
-0.13425825 0.27291078 -0.00000067
-0.76314970 -0.07987124 -0.00000002
-0.61511870 0.42300274 0.07147142
-0.50389374 0.46103868 0.04950369
-0.30651381 0.12859393 -0.00000055
0.10146462 0.60150106 -0.00000094
-0.00394272 0.55699084 -0.00000085
-0.53999973 -0.49739467 -0.00000019
0.66986844 -0.67826581 -0.00000026
0.67118065 -0.64708303 -0.00000033
0.14405939 -0.43422078 -0.00000023
0.13210701 -0.12853232 -0.00000042
-0.07883716 -0.62660167 -0.00000011
0.34635703 -0.30708367 -0.00000031
0.51322309 -0.52834911 -0.00000017
-0.41851701 -0.14677528 -0.00000038
-0.71880804 -0.37820048 -0.00000002
0.19243617 0.49522746 0.00000078
0.68904743 -0.66351391 -0.00000034
-0.15321757 -0.17814429 -0.00000039
0.56159720 -0.03279436 -0.00000117
-0.29952625 -0.65584552 -0.00000009
-0.56060968 0.05458964 -0.00000027
-0.28399352 0.34370976 -0.00000061
0.10357215 -0.19511163 -0.00000038
-0.26837967 0.21163819 -0.00000061
0.14887664 -0.73698123 -0.00000004
0.18038822 -0.45668216 -0.00000021
0.10290097 0.03328210 0.00000991
-0.18292013 0.44502103 -0.00000074
-0.47110161 0.15707971 -0.00000038
0.45294668 -0.03065417 -0.00000083
0.10447057 -0.67044790 -0.00000008
0.34860067 0.19196556 0.00000322
-0.72094752 -0.19471779 -0.00000005
0.30544671 0.15546958 -0.00000072
0.15587200 0.59479379 -0.00000110
0.51000021 -0.53700506 -0.00000016
0.10166972 -0.06564974 -0.00000046
0.54897135 -0.71400312 -0.00000005
0.36930323 -0.48650895 -0.00000020
-0.33295847 -0.61604374 -0.00000011
-0.31416848 -0.42349307 -0.00000024
-0.46956184 -0.31450282 -0.00000029
-0.45782149 -0.12424879 -0.00000034
-0.38158242 0.04510660 -0.00000045
-0.47474711 0.06962783 -0.00000036
-0.14913050 -0.56844745 -0.00000014
-0.34928465 -0.69702186 -0.00000006
0.06424162 -0.77865783 -0.00000001
-0.38151407 -0.57510451 -0.00000014
0.37663206 0.29639128 -0.00000122
-0.33068340 -0.16048440 -0.00000040
-0.37763177 0.03576707 -0.00000046
0.01165256 0.01203290 0.00001163
0.18150590 -0.13605461 -0.00000041
0.20613555 0.47929755 0.00000080
0.55616320 -0.71909851 -0.00000005
0.17476726 0.34894477 0.00000369
-0.20099801 0.32530563 -0.00000070
0.05318879 0.27558084 0.00000672
-0.05478794 -0.60739891 -0.00000012
0.74725433 -0.30927005 -0.00000123
0.29059287 0.25071948 -0.00000086
-0.51255062 0.14900866 -0.00000033
-0.00900179 0.40361930 -0.00000075
0.40919045 -0.45681077 -0.00000021
0.79293712 -0.35951311 -0.00000110
0.60170274 -0.13001631 -0.00000111
-0.48138013 0.64679135 0.09849944
-0.73421749 -0.27770548 -0.00000002
0.23716151 -0.14352117 -0.00000041
0.17454420 -0.31299035 -0.00000030
0.08033301 0.23810791 -0.00000065
0.14216167 0.38927484 -0.00000074
0.40930618 -0.69575321 -0.00000007
0.73247143 -0.77589953 -0.00000006
0.08886989 0.14371750 -0.00000059
-0.31462059 -0.08072745 -0.00000045
0.63244559 -0.13502785 -0.00000120
0.31845742 -0.62195241 -0.00000011
0.19876814 0.18115536 0.00000606
-0.47336954 -0.02687111 -0.00000034
-0.60472481 -0.06362914 -0.00000020
0.21560511 0.53684001 -0.00000042
0.78120915 -0.74488720 -0.00000014
-0.26405251 -0.47457840 -0.00000020
0.04387501 -0.00351222 -0.00000050
-0.63200069 0.09477856 -0.00000020
0.57162283 -0.75000444 -0.00000003
-0.47843026 -0.74150851 -0.00000004
0.55199200 -0.36421580 -0.00000050
-0.07864585 0.35517766 -0.00000072
-0.47944196 0.25016894 -0.00000039
-0.25090818 -0.15626222 -0.00000040
-0.06764549 -0.78250862 -0.00000001
0.60547646 -0.29841196 -0.00000080
-0.31190979 0.12954848 -0.00000054
-0.66267698 0.57059970 0.13004686
-0.10728531 -0.06024499 -0.00000046
0.10757851 0.09513165 -0.00000056
-0.43856168 0.04847409 -0.00000039
-0.02495175 0.28499857 -0.00000068
-0.48072107 -0.37881280 -0.00000026
-0.71382998 -0.10549930 -0.00000007
0.57504851 -0.41500813 -0.00000047
0.63605235 -0.28434058 -0.00000092
-0.67915408 0.25095794 0.03905269
0.25761441 0.41800536 -0.00000108
-0.48273098 -0.45598735 -0.00000022
-0.18930603 -0.26642765 -0.00000033
-0.67406720 0.51398562 0.11647312
0.09108306 -0.05784219 -0.00000046
0.38341844 -0.67735238 -0.00000008
0.54456679 0.01267174 -0.00000121
0.11138846 0.56882374 -0.00000091
-0.21587029 -0.38780604 -0.00000026
-0.38919277 0.01373618 -0.00000044
-0.05766916 -0.23709544 -0.00000035
-0.61525732 -0.72305401 -0.00000005
-0.12252245 0.50642460 -0.00000082
0.43086785 -0.36826040 -0.00000027
-0.48698304 0.49503065 0.05463057
-0.39632693 0.25970396 -0.00000048
-0.72763320 -0.05041810 -0.00000007
0.33699997 0.40791244 -0.00000131
0.69468418 -0.04520654 -0.00000157
0.16325764 0.19925749 -0.00000062
-0.67874253 0.76769911 0.19402758
0.45347908 -0.48230248 -0.00000020
-0.74432079 0.07056657 0.00446832
-0.31145975 0.02965079 -0.00000052
0.58115791 -0.58990619 -0.00000015
0.24120837 -0.76804953 -0.00000002
-0.38251330 0.13321344 -0.00000047
-0.30816772 0.30869946 -0.00000058
-0.35025449 -0.32033695 -0.00000030
-0.01150147 0.67316304 -0.00000092
-0.16582541 -0.37424850 -0.00000027
0.51294286 0.21718405 -0.00000039
-0.63582931 0.70633715 0.16272965
-0.75294928 -0.40579031 0.00000000
0.66531310 -0.05683048 -0.00000146
0.65328307 0.01777423 -0.00000157
-0.49290647 -0.24270053 -0.00000028
-0.25848168 0.02031226 -0.00000051
-0.10880656 0.32609907 -0.00000070
0.49906529 0.26315416 -0.00000095
0.02811532 0.49022401 0.00000361
0.45243250 -0.16731915 -0.00000056
0.59561339 -0.46843337 -0.00000043
-0.01984225 0.48051942 -0.00000080
0.47488170 -0.57512318 -0.00000014
0.07136829 0.44984611 -0.00000078
0.29435463 -0.56526204 -0.00000015
-0.22434837 0.56241310 -0.00000072
-0.16904232 -0.49098343 -0.00000019
-0.22454878 -0.49643868 -0.00000019
-0.78000266 -0.01292890 -0.00000002
-0.60177492 -0.63003712 -0.00000010
-0.37413596 0.49236880 0.01996059
0.58856287 -0.31689945 -0.00000071
0.07363522 -0.30447704 -0.00000031
0.28276655 -0.28041035 -0.00000032
-0.10956476 -0.77380606 -0.00000002
0.73300935 -0.20348136 -0.00000139
-0.48876923 0.43726229 0.03782762
-0.46519257 0.44048789 0.03171925
-0.06603058 0.32885679 -0.00000071
-0.23306193 0.09658178 -0.00000056
-0.18390719 0.33415991 -0.00000071
0.45778983 -0.23693748 -0.00000044
0.27784230 -0.69627484 -0.00000006
0.38340087 -0.53019967 -0.00000017
-0.23499848 -0.77501370 -0.00000002
-0.41992135 0.57544206 0.05863736
-0.54531565 -0.36827845 -0.00000020
0.24182507 0.19571361 -0.00000062
-0.05041131 0.47265485 -0.00000080
0.09724282 0.57363293 0.00000120
0.09719372 -0.39085564 -0.00000026
-0.06404093 -0.20576797 -0.00000037
-0.45695428 -0.27665181 -0.00000032
0.28312622 -0.46898837 -0.00000021
0.06019698 -0.28437803 -0.00000032
0.16717398 -0.57232627 -0.00000014
-0.55363801 0.20456268 -0.00000030
0.34710974 0.17334518 -0.00000089
-0.33654553 -0.39641550 -0.00000025
-0.62515728 0.00965181 -0.00000019
0.60343406 -0.04882058 -0.00000128
-0.30465273 -0.31816954 -0.00000030
-0.70414267 0.34986072 0.07623850
-0.31269137 0.23168787 -0.00000056
-0.04495933 0.50807387 -0.00000082
0.43221997 0.06191078 -0.00000094
-0.62729296 0.34329149 0.05120033
-0.62052566 -0.66428664 -0.00000007
-0.70285326 0.03393196 -0.00000011
-0.10109475 -0.39354495 -0.00000025
-0.15944349 0.30970071 -0.00000069
-0.62648819 0.25107111 0.02327900
-0.67978478 -0.45505430 -0.00000004
0.42725917 -0.60229420 -0.00000012
0.16275015 0.40234886 0.00000301
-0.00708611 -0.25289344 -0.00000034
-0.21045414 0.10572721 -0.00000057
-0.36022112 0.01927242 -0.00000047
0.25402574 0.50038308 -0.00000123
0.03303740 -0.67463430 -0.00000008
-0.28234212 0.37397431 -0.00000062
0.34711414 -0.33427870 -0.00000029
0.20408131 0.19690596 0.00000572
-0.35481604 0.16693645 -0.00000051
0.39820616 0.01930614 0.00000537
-0.30390605 0.00282914 -0.00000050
-0.13714097 0.52124952 -0.00000080
-0.41424366 0.49418500 0.03254404
0.16773644 0.45599465 -0.00000087
-0.15758698 -0.09560167 -0.00000044
0.44969385 -0.79152382 -0.00000001
0.74498053 -0.36509653 -0.00000109
-0.61467303 -0.20190929 -0.00000016
0.59820580 -0.46722528 -0.00000044
0.05162327 0.45741149 -0.00000079
-0.50892509 0.33313705 0.01262440
0.00816730 0.74951132 -0.00000097
-0.23392736 -0.07509519 -0.00000045
-0.11870193 0.76746714 0.02586234
0.44050234 0.14805398 -0.00000114
-0.54372880 -0.42897078 -0.00000019
-0.22565895 0.51089741 -0.00000071
-0.08146555 0.12558496 -0.00000058
0.13677339 0.64961453 -0.00000114
0.42916364 0.16991170 0.00000207
-0.57998623 0.67814375 0.13750627
-0.08016507 0.00311000 -0.00000050
-0.64521191 0.09098868 -0.00000018
-0.36150611 -0.56163348 -0.00000015
-0.08529039 -0.09414899 -0.00000044
-0.65225898 -0.41235805 -0.00000008
0.59153323 -0.65379662 -0.00000009
0.13710212 -0.76945551 -0.00000002
0.22036219 -0.64237323 -0.00000010
-0.46297767 0.75474890 0.12537902
0.36385109 -0.41734049 -0.00000024
0.45476393 0.16128636 0.00000173
0.28846594 -0.65847514 -0.00000009
0.43502734 0.08870001 -0.00000100
-0.48790277 -0.45958878 -0.00000021
-0.04582130 0.62690092 -0.00000089
-0.25935303 -0.54657855 -0.00000016
0.43622334 0.23397673 -0.00000129
0.04688859 -0.48478126 -0.00000020
-0.68594169 -0.04291724 -0.00000011
0.54315532 -0.47856664 -0.00000024
0.25394555 0.40628745 0.00000119
-0.19917574 0.78312401 0.05471583
0.44563530 0.08246103 -0.00000103
0.76802022 -0.08053214 -0.00000174
-0.69379274 0.72209817 0.18485793
0.37149711 -0.29570370 -0.00000032
0.05669908 -0.04218206 -0.00000047
0.57512984 0.00614051 0.00000221
-0.60035138 -0.02319502 -0.00000021
-0.01753911 -0.15349713 -0.00000040
0.24558459 0.19822449 -0.00000062
0.33246374 -0.58998684 -0.00000013
0.75398821 -0.25721068 -0.00000135
-0.56594509 0.63458559 0.12021801
0.34454091 -0.55759056 -0.00000015
0.58119794 -0.23592400 -0.00000084
0.07475458 -0.32068923 -0.00000030
-0.17700262 -0.16387725 -0.00000040
-0.37724009 0.76699920 0.10332186
0.23984852 0.02527685 0.00000797
0.55437959 0.01782978 -0.00000125
-0.20352835 -0.50389345 -0.00000019
0.20762059 -0.00151282 -0.00000050
-0.15913824 0.18302398 -0.00000061
-0.04922472 -0.62375908 -0.00000011
-0.30952908 0.06600678 -0.00000054
0.54768714 -0.53865035 -0.00000016
-0.79083876 0.09520188 0.02582493
-0.56872182 -0.02625566 -0.00000024
0.11598431 0.19746580 -0.00000062
0.23148899 0.27409084 0.00000400
-0.42368828 0.69120227 0.09451306
-0.53236907 -0.60649134 -0.00000012
0.39715027 -0.07704600 -0.00000056
0.26336544 0.28010558 -0.00000083
0.20667495 -0.51507217 -0.00000018
0.49904178 -0.19631156 -0.00000065
0.56899423 -0.31342679 -0.00000065
0.51811236 0.18959391 0.00000001
0.00057026 0.52141674 -0.00000083
0.43058628 0.28571125 -0.00000137
0.43587005 0.05252689 -0.00000094
0.13320222 -0.66503710 -0.00000008
0.03400390 0.68742096 0.00000032
0.27678934 0.37017606 0.00000140
-0.22231330 -0.12170860 -0.00000042
0.29630506 0.47195047 -0.00000080
-0.45618129 -0.79734904 -0.00000000
0.54031955 -0.58060969 -0.00000014
-0.14254986 -0.17683951 -0.00000039
-0.04304770 -0.61245825 -0.00000012
-0.17750546 0.18290532 -0.00000061
-0.41995801 -0.62034321 -0.00000011
0.32029225 0.17214117 -0.00000080
0.44709398 0.12214377 0.00000258
-0.72688340 -0.67937108 0.00000000
0.55298477 0.17406736 -0.00000038
0.11153307 0.01739224 0.00001003
0.22686761 0.54580370 -0.00000079
-0.38036565 -0.68220690 -0.00000007
0.07601876 0.11948402 0.00000891
-0.72049486 0.67155128 0.17770108
0.30965386 0.11283784 -0.00000065
-0.62489010 -0.13760734 -0.00000016
0.06799383 0.58151327 -0.00000086
-0.42447887 -0.65296156 -0.00000009
-0.01275992 -0.49078214 -0.00000019
0.55802902 -0.44956498 -0.00000035
-0.19578748 -0.69849308 -0.00000006
-0.57490641 0.00506177 -0.00000024
-0.64521904 -0.53972654 -0.00000007
0.56028250 0.14585459 -0.00000002
0.24234019 0.17343725 -0.00000061
0.24987120 0.47557197 0.00000003
-0.21485740 -0.42896604 -0.00000023
0.33379837 0.36884594 -0.00000123
0.45176715 0.21247666 -0.00000130
0.41161514 -0.78615813 -0.00000001
0.01607364 0.60026034 -0.00000088
0.69390520 0.10116576 -0.00000186
0.47143691 -0.74758678 -0.00000003
0.66583950 0.00972499 -0.00000159
-0.22671020 -0.29891334 -0.00000031
0.42301181 -0.44228963 -0.00000022
0.22666792 0.02952397 -0.00000052
-0.67497398 0.24454395 0.03587288
0.02009919 0.47589350 0.00000396
0.39812251 0.24824331 -0.00000120
0.65334437 0.13045362 -0.00000179
0.37206348 -0.53530104 -0.00000017
-0.69025702 -0.13839028 -0.00000009
0.40692230 -0.11201358 -0.00000052
0.20574745 0.57378201 -0.00000122
0.17641072 0.27788149 -0.00000067
-0.43185639 0.46336918 0.02858118
-0.23167894 -0.61574262 -0.00000012
0.67902487 -0.03928214 -0.00000154
0.67865846 -0.57187565 -0.00000050
0.08782014 -0.61078036 -0.00000012
0.14163371 -0.69116090 -0.00000007
-0.59639879 0.19202722 -0.00000025
0.31463206 0.12252734 0.00000512
0.01753477 0.50615701 -0.00000082
0.14265574 0.44262277 -0.00000078
0.07402952 -0.23760640 -0.00000035
-0.48083186 -0.30179486 -0.00000029
0.23883931 0.46359599 -0.00000111
-0.50950671 0.46894290 0.05356086
0.10357103 -0.24442731 -0.00000035
0.65368881 0.04564147 -0.00000001
-0.54194941 0.03684227 -0.00000028
0.02721790 -0.72390415 -0.00000005
0.09437823 0.37402219 -0.00000073
0.55189104 -0.67213802 -0.00000008
0.36145366 0.06667951 -0.00000073
0.33693047 -0.53678697 -0.00000016
-0.50510273 -0.00629151 -0.00000031
0.34719724 -0.20092829 -0.00000037
0.26649420 -0.28463471 -0.00000032
0.39806130 -0.40722616 -0.00000025
0.15945333 0.35963109 -0.00000072
-0.08792001 -0.57752149 -0.00000014
-0.55351083 0.71579482 0.14086053
-0.13905332 0.47689634 -0.00000079
0.13541615 -0.19528949 -0.00000038
-0.74917878 -0.62713730 0.00000000
-0.15143689 0.48351229 -0.00000078
0.01946954 0.27554319 0.00000723
-0.68087963 0.77162701 0.19584797
-0.56281469 -0.63594641 -0.00000010
0.47861294 -0.49698642 -0.00000019
-0.03348382 -0.22138558 -0.00000036
-0.79642407 -0.63343486 0.00000000
-0.07367826 -0.59001139 -0.00000013
-0.01332433 -0.46636146 -0.00000021
-0.55505461 -0.75491452 -0.00000003
0.16652919 0.24598451 -0.00000065
0.25428556 -0.15714070 -0.00000040
0.19930035 0.06333667 0.00000796
-0.23876847 0.47910344 -0.00000069
0.27776717 0.05479200 -0.00000053
-0.35651855 0.44455575 0.00032173
-0.07903335 -0.58349780 -0.00000014
0.31422668 0.04673113 0.00000649
-0.11135843 0.75986230 0.02137563
0.27545350 -0.34846084 -0.00000028
0.78954014 -0.68565645 -0.00000029
-0.15140314 0.14899733 -0.00000059
0.70278646 -0.78532152 -0.00000004
-0.72442954 -0.68448227 0.00000000
-0.73991946 -0.65757550 0.00000000
-0.57421798 0.59349248 0.11036717
-0.01794074 0.05551321 -0.00000053
-0.30595583 -0.41839381 -0.00000024
0.40337596 0.37922185 -0.00000119
-0.45489734 -0.18413031 -0.00000033
-0.05373261 -0.15489037 -0.00000040
-0.55998171 0.48245338 0.07276606
0.04335891 0.27033405 -0.00000067
0.73905177 -0.64417559 -0.00000039
-0.42149153 0.52990363 0.04544037
0.41260494 -0.17116329 -0.00000043
0.70487336 0.08677944 -0.00000173
-0.18285994 -0.00210315 -0.00000050
0.63745778 -0.54173067 -0.00000042
0.04284053 0.32205325 -0.00000070
-0.61807995 -0.48858318 -0.00000010
0.58547445 0.19098019 -0.00000169
-0.14841569 0.06213353 -0.00000054
-0.17414080 -0.08051045 -0.00000045
0.10934213 -0.07147723 -0.00000046
-0.18991515 0.08913173 -0.00000056
-0.13794171 0.25292195 -0.00000066
-0.48540285 -0.69991759 -0.00000006
0.56719378 -0.02496275 -0.00000121
0.39211840 0.08193103 0.00000436
0.60245284 -0.20187789 -0.00000097
-0.79357949 0.05231409 0.01377486
-0.17850477 0.32490032 -0.00000070
0.53476950 -0.59793674 -0.00000013
0.27715761 0.43237458 0.00000028
0.59119517 -0.26003989 -0.00000082
-0.75791112 -0.22974685 -0.00000000
-0.64697080 0.60426757 0.13543796
0.20508150 0.58525700 -0.00000108
0.23812239 0.27744385 -0.00000074
-0.55454444 0.20466063 -0.00000030
-0.03120985 -0.44478241 -0.00000022
-0.76255735 0.22579381 0.05653320
-0.28808249 0.41858153 -0.00000062
0.60717956 -0.72130833 -0.00000005
0.19826664 0.38367335 0.00000267
-0.60911878 0.55086346 0.10804767
-0.53010412 0.57503014 0.09158504
0.47966785 0.18612997 -0.00000134
0.00576018 0.67252475 -0.00000092
-0.52146624 0.13419417 -0.00000032
0.50664586 -0.48414931 -0.00000020
-0.30882389 0.35242820 -0.00000059
0.36550707 0.25844416 -0.00000111
-0.44604023 -0.07232885 -0.00000036
0.41291476 -0.57542024 -0.00000014
0.00308870 0.10629952 0.00001023
0.31746986 0.21745096 -0.00000088
0.43252171 -0.50377444 -0.00000019
-0.33647490 -0.49636397 -0.00000019
0.20146843 0.31692242 0.00000380
0.23253282 0.55898251 -0.00000114
-0.10451659 -0.12216622 -0.00000042
0.28464212 -0.26993462 -0.00000033
0.47738458 0.21924634 -0.00000140
0.13784579 -0.13580850 -0.00000042
-0.23891798 -0.77921324 -0.00000001
0.47568514 0.29235956 -0.00000102
-0.19101358 -0.47858825 -0.00000020
-0.45817762 0.60388671 0.07865756
-0.23272837 0.44341494 -0.00000069
-0.78993285 -0.07403858 0.00000000
0.23553176 0.33801150 0.00000277
-0.46067327 -0.33360440 -0.00000029
0.76621022 -0.77071211 -0.00000007
-0.01554315 0.06789100 -0.00000054
0.03934417 -0.33396916 -0.00000029
-0.34231748 0.75234894 0.08844265
0.16096180 0.45696458 0.00000207
-0.01491588 0.35243086 -0.00000072
-0.32213719 -0.18140840 -0.00000039
-0.54636072 -0.69994352 -0.00000006
0.24831968 0.24652521 -0.00000072
-0.79146277 -0.42670457 0.00000000
0.56797404 -0.66083449 -0.00000009
0.28232784 0.08016943 0.00000644
0.23919911 -0.65536619 -0.00000009
-0.20722074 0.43702447 -0.00000071
0.31129754 0.29623453 -0.00000101
-0.62226070 0.02654862 -0.00000019
-0.06503592 -0.13572522 -0.00000042
0.58097289 0.16401204 -0.00000074
-0.05789089 0.38122217 -0.00000074
0.10608360 0.54832874 -0.00000085
-0.02651665 -0.31107003 -0.00000031
-0.21555546 -0.19957771 -0.00000038
0.68940639 -0.23845006 -0.00000118
-0.39169476 -0.58899591 -0.00000013
0.29149131 0.29169088 0.00000253
-0.55431126 -0.39053343 -0.00000019
-0.30569806 0.24827152 -0.00000057
-0.07990356 -0.04165911 -0.00000047
0.04301711 0.37914130 -0.00000074
0.25424149 -0.00009886 -0.00000050
-0.76706975 0.34654621 0.09413121
0.07253045 0.41271907 -0.00000076
0.41786518 -0.61788118 -0.00000011
-0.30738000 -0.70848661 -0.00000006
0.10448024 -0.39738596 -0.00000025
-0.11836056 0.31912262 -0.00000070
-0.74963540 -0.37727788 0.00000000
0.19651363 -0.21685508 -0.00000036
-0.05986952 -0.77271083 -0.00000002
-0.76960274 -0.24568438 0.00000000
-0.00563275 -0.00890861 -0.00000049
-0.63515083 -0.05611026 -0.00000017
-0.18131403 0.55266440 -0.00000076
0.17530164 0.30960282 0.00000432
-0.18405821 -0.14900652 -0.00000041
0.58168543 -0.69734188 -0.00000006
0.29640993 0.39710054 0.00000054
0.22381298 -0.70535871 -0.00000006
-0.16738139 -0.26249726 -0.00000034
-0.53211860 -0.79898957 -0.00000000
-0.24715033 -0.63097332 -0.00000011
0.42600545 -0.00163781 -0.00000080
-0.43314927 -0.17252677 -0.00000036
0.72371031 -0.61267154 -0.00000047
-0.23362662 -0.33950720 -0.00000029
0.66528094 0.06662097 -0.00000061
-0.01656998 0.76103929 -0.00000098
-0.31927504 -0.60303744 -0.00000012
0.75949388 -0.22407032 -0.00000143
0.36160390 -0.12589695 -0.00000042
-0.09531340 0.69756473 -0.00000088
-0.11550286 -0.31942597 -0.00000030
0.02916856 0.59443375 -0.00000087
0.51134853 -0.60961470 -0.00000012
0.22356170 0.29205225 -0.00000072
0.51048344 0.01500429 0.00000329
0.07666499 0.28643112 -0.00000068
0.52759599 0.11276672 -0.00000135
-0.00872018 0.00750925 -0.00000050
-0.49135105 -0.24445579 -0.00000028
0.79427404 -0.11552518 -0.00000171
0.62804204 0.08508768 -0.00000162
-0.04796555 -0.00169634 -0.00000050
0.62755869 -0.59398210 -0.00000029
-0.09733288 -0.47473407 -0.00000020
-0.39297429 -0.41721622 -0.00000024
0.28650711 0.38232048 -0.00000110
0.33799373 -0.46823899 -0.00000021
0.03626942 -0.62032538 -0.00000011
-0.41433245 0.68471338 0.08975730
-0.69431009 0.11484408 0.00274743
0.21525367 0.43816454 -0.00000098
0.17609433 -0.44833241 -0.00000022
-0.36518158 -0.39691883 -0.00000025
0.75520948 -0.24575367 -0.00000138
0.34091826 -0.08887772 -0.00000044
0.45835255 -0.65095489 -0.00000009
-0.35750551 0.62902612 0.05598641
0.11609248 0.51351130 -0.00000082
-0.56462418 0.73190065 0.14903030
-0.47585527 0.69314700 0.11075464
0.13415993 0.42840759 0.00000301
-0.13215293 -0.28930339 -0.00000032
-0.54436944 0.47146673 0.06478242
0.35534315 0.02252142 0.00000614
-0.52864926 0.34984483 0.02355942
-0.34298262 0.03691925 -0.00000049
-0.32579625 0.11359311 -0.00000053
0.00682461 -0.57855069 -0.00000014
-0.23914784 0.17953347 -0.00000061
0.54179319 -0.01285079 -0.00000115
-0.21461603 0.41050703 -0.00000070
0.06275428 -0.09805451 -0.00000044
-0.42309153 -0.51709291 -0.00000018
-0.06587993 -0.18305887 -0.00000039
-0.26727512 -0.64331480 -0.00000010
0.07132397 -0.70503991 -0.00000006
-0.38614060 0.21925820 -0.00000048
0.72865003 -0.39707783 -0.00000100
-0.64485629 0.04196626 -0.00000017
-0.54172840 -0.56351202 -0.00000015
0.06026249 0.08161786 -0.00000055
0.49267419 -0.25291211 -0.00000052
0.23522094 0.13690687 -0.00000059
-0.39166397 -0.68000908 -0.00000007
-0.06763728 0.74161844 0.00277690
-0.65238841 -0.46745540 -0.00000007
0.49415193 -0.13473738 -0.00000076
0.46572705 -0.75514900 -0.00000003
0.65699419 -0.17512765 -0.00000120
-0.24095443 -0.57028783 -0.00000014
0.37344321 0.24577918 -0.00000111
-0.35324299 0.41594450 -0.00000055
-0.24923557 0.14718722 -0.00000059
-0.04533174 -0.38498199 -0.00000026
-0.27741743 0.36226137 -0.00000062
-0.64100035 0.43420636 0.08260254
0.00776224 0.06687401 -0.00000054
-0.49863215 -0.56897312 -0.00000014
-0.24858726 -0.54690622 -0.00000016
0.73487097 0.04519064 -0.00000188
-0.26761581 0.42695871 -0.00000065
-0.34061179 0.41452692 -0.00000057
0.24492637 -0.18390517 -0.00000039
0.49466843 0.04689340 -0.00000111
-0.05939893 -0.45799963 -0.00000021
0.05891825 0.58140090 0.00000166
0.03463050 0.56147121 -0.00000085
0.31051078 -0.77539828 -0.00000002
0.56804907 -0.36797297 -0.00000054
0.10998689 -0.11315674 -0.00000043
-0.53399641 -0.27657835 -0.00000023
0.01570779 0.30584735 0.00000679
-0.36394403 0.51461633 0.02357904
-0.43569935 -0.05287171 -0.00000038
0.08545236 0.59573266 0.00000103
-0.73764973 0.56278066 0.15020300
0.30789184 -0.47447880 -0.00000020
-0.25463443 0.14222976 -0.00000059
0.57750400 -0.42377479 -0.00000046
-0.01743286 0.12078750 -0.00000058
-0.24016797 0.73731120 0.05326906
0.15847728 -0.20427774 -0.00000037
0.22926287 -0.41503381 -0.00000024
-0.62504552 0.42160392 0.07403110
-0.52789458 0.43568660 0.04909815
-0.48266771 -0.41988279 -0.00000024
0.53268207 -0.35090473 -0.00000046
-0.19370275 -0.09256207 -0.00000044
-0.51485859 0.35380929 0.02061007
0.77382358 -0.24081340 -0.00000140
0.41123631 -0.08455084 -0.00000059
-0.51757500 -0.25932927 -0.00000025
-0.42308614 0.49490390 0.03541389
-0.26036269 0.38282743 -0.00000065
-0.77622681 -0.41484925 0.00000000
0.75486262 -0.30373064 -0.00000124
-0.27047967 -0.61534789 -0.00000012
-0.13391930 -0.67678213 -0.00000008
0.24641201 0.19463541 0.00000512
0.56675727 -0.06065498 -0.00000114
0.20971234 0.48008711 0.00000072
-0.09813162 0.79064937 0.02664624
0.02159739 0.71997990 -0.00000095
-0.79996092 -0.08471919 0.00000000
0.25954141 0.49755547 -0.00000055
-0.25644672 -0.67693613 -0.00000008
-0.26635035 -0.19600397 -0.00000038
-0.02411462 -0.62215364 -0.00000011
-0.52448613 0.63599400 0.10819688
0.58628823 -0.07114745 -0.00000118
0.72518315 -0.26641130 -0.00000124
0.18425528 0.04715130 0.00000845
-0.69092918 -0.48390746 -0.00000003
0.75294441 -0.11959198 -0.00000162
-0.16745784 0.50844062 -0.00000077
0.26774923 -0.79003985 -0.00000001
0.68032384 -0.49930782 -0.00000064
-0.42119012 0.53271788 0.04619459
0.15035572 -0.15085652 -0.00000041
0.26958344 0.49894656 -0.00000128
0.30071634 -0.07044692 -0.00000046
0.32898245 0.42862415 -0.00000133
0.17177182 0.30921966 -0.00000069
-0.38934819 -0.01170189 -0.00000044
0.16286791 0.12055119 -0.00000058
-0.48971065 0.48296097 0.05182657
-0.34568485 0.63170458 0.05324238
0.23002441 0.11027554 -0.00000057
0.70590655 -0.66956817 -0.00000033
0.22397252 0.01757923 0.00000833
0.38371472 0.10598707 -0.00000087
-0.73410674 -0.18439452 -0.00000004
0.27197312 -0.17854317 -0.00000039
0.24046073 -0.29666016 -0.00000031
0.07572808 0.63351019 -0.00000092
-0.70754106 0.02471825 -0.00000010
-0.65363576 0.28370808 0.04122327
0.02953414 -0.27008645 -0.00000033
-0.56811586 -0.00927055 -0.00000025
-0.63168603 -0.01351724 -0.00000018
0.32153037 -0.35629481 -0.00000028
-0.64231810 -0.02319936 -0.00000016
0.72993185 -0.04789368 -0.00000168
0.30105595 0.00351531 0.00000740
0.22655329 0.51384245 -0.00000021
0.69877403 -0.42337773 -0.00000085
0.25968478 -0.31857623 -0.00000030
-0.19726018 -0.78778761 -0.00000001
-0.27398418 -0.26044929 -0.00000034
-0.03260665 0.29339478 -0.00000068
0.25555548 0.38828255 0.00000148
0.05747443 -0.64268221 -0.00000010
0.38350259 0.17883678 0.00000279
-0.17711657 -0.75135388 -0.00000003
-0.49312736 -0.49650455 -0.00000019
-0.29127402 -0.75399609 -0.00000003
-0.18708075 -0.39062309 -0.00000026
-0.01648777 0.02727878 -0.00000052
0.61340946 0.13398014 -0.00000166
0.70475166 -0.47475809 -0.00000077
-0.26162810 -0.22891628 -0.00000036
-0.49973412 -0.74823593 -0.00000003
-0.21724590 -0.65529897 -0.00000009
-0.09821743 -0.53045735 -0.00000017
-0.15947356 0.18107237 -0.00000061
-0.02510011 -0.54237179 -0.00000016
0.04260099 -0.59273205 -0.00000013
0.01704011 -0.51234260 -0.00000018
0.30920264 0.48170057 -0.00000137
-0.60404843 -0.55993170 -0.00000011
0.38043503 0.08872390 -0.00000083
0.08859455 0.57543358 0.00000131
-0.71309665 0.59290380 0.15187477
-0.48362416 0.06110078 -0.00000035
0.22997931 -0.32008448 -0.00000030
0.64482763 -0.69495829 -0.00000015
0.45322903 -0.72866822 -0.00000004
0.13848155 -0.42154959 -0.00000024
0.03691591 0.04997982 0.00001063
0.16619746 0.01339596 0.00000927
0.65868815 0.12726198 -0.00000157
0.20027360 -0.72003347 -0.00000005
-0.17584212 0.55556136 -0.00000077
-0.58343806 0.08189680 -0.00000025
-0.24651310 0.66731246 0.03416364
0.11912029 -0.22519337 -0.00000036
-0.71949130 -0.39661092 -0.00000001
0.17703773 -0.51994394 -0.00000018
0.62551386 0.07922426 -0.00000007
-0.33803790 -0.68781289 -0.00000007
-0.19113019 0.17416577 -0.00000061
-0.44813943 -0.46210173 -0.00000021
0.07770668 -0.72948203 -0.00000004
0.04169468 0.43634271 -0.00000077
-0.27377854 0.11845566 -0.00000057
-0.48755654 0.57034250 0.07740742
-0.76405719 0.38518952 0.10482571
0.03584408 0.13083792 -0.00000058
0.37194761 0.24916094 0.00000175
0.00563795 0.52730513 0.00000335
0.02050508 0.52546413 -0.00000083
-0.48508111 -0.29921667 -0.00000028
0.01949420 -0.35327457 -0.00000028
-0.37072075 0.57806299 0.04465647
-0.75683631 -0.16389618 -0.00000002
0.72831048 -0.56659081 -0.00000058
0.28886249 0.27730049 -0.00000090
0.00812905 -0.38368179 -0.00000026
0.03086751 0.58765117 -0.00000087
0.01320193 -0.61596549 -0.00000012
-0.42504367 -0.13780641 -0.00000037
0.16096090 0.06236716 -0.00000054
0.07378239 0.55891127 -0.00000085
0.12067803 -0.56101185 -0.00000015
0.10142454 0.56798902 0.00000122
0.37938704 0.00256866 0.00000603
-0.26666742 0.74338273 0.06304519
-0.31202377 0.72688992 0.07170859
-0.32265430 0.30263716 -0.00000056
-0.61569198 -0.66462975 -0.00000007
0.73942731 -0.71485991 -0.00000021
-0.40208716 -0.44946267 -0.00000022
0.69512936 -0.20290164 -0.00000127
-0.76233231 -0.74731293 0.00000000
0.05526549 -0.57053061 -0.00000014
-0.67519365 -0.45622779 -0.00000005
-0.00790612 0.70048106 -0.00000094
0.01344311 0.16289304 0.00000915
0.16960093 -0.63724519 -0.00000010
-0.67586451 0.34899643 0.06749140
-0.10698556 -0.76455906 -0.00000002
0.50970502 0.20184495 -0.00000146
0.13561153 0.19533314 -0.00000062
0.44480151 -0.69931250 -0.00000006
-0.42578310 0.01590393 -0.00000040
0.12772391 -0.43441687 -0.00000023
0.19925975 0.56507709 -0.00000061
-0.23114055 0.28139861 -0.00000066
0.48129763 0.08436065 -0.00000114
0.62734551 0.13172947 -0.00000105
-0.68651228 0.35027032 0.07106968
-0.62426365 -0.46166890 -0.00000010
-0.26373551 0.49769980 -0.00000066
-0.23895655 0.03088675 -0.00000052
-0.22017106 -0.64544283 -0.00000010
0.35506814 0.38739127 -0.00000133
0.25014537 0.43208657 0.00000080
-0.15796219 -0.16088469 -0.00000040
0.47207046 0.29453070 -0.00000152
-0.54098409 -0.72160225 -0.00000005
-0.15812645 -0.18069431 -0.00000039
0.10858276 -0.59143251 -0.00000013
-0.63980476 -0.43919865 -0.00000009
0.79041122 -0.40740013 -0.00000098
-0.46696816 -0.67272835 -0.00000008
-0.31602845 -0.00069816 -0.00000050
0.12596427 0.01636859 0.00000983
-0.19570425 0.60989178 0.00167865
0.14193928 0.21020028 -0.00000063
0.34869455 0.25143559 -0.00000105
0.25913402 0.01602557 0.00000783
-0.35548619 -0.40120961 -0.00000025
0.46543084 -0.39749101 -0.00000025
-0.45983136 0.60506750 0.07950834
-0.08689420 -0.31694317 -0.00000030
-0.56879253 0.47670518 0.07368532
0.60004949 -0.46037897 -0.00000046
0.48950894 0.15593539 -0.00000131
0.15093077 -0.17164981 -0.00000039
0.14726914 -0.37230580 -0.00000027
0.79814029 -0.52765981 -0.00000068
-0.20647522 0.00516730 -0.00000050
0.51494812 0.19066714 -0.00000146
-0.42472403 -0.70114572 -0.00000006
0.66671125 0.12493988 -0.00000168
0.16614409 0.06933026 0.00000837
0.65382659 -0.44416397 -0.00000067
0.60488618 -0.02351939 -0.00000133
-0.73931744 0.71649924 0.19684162
-0.67257116 -0.13572439 -0.00000011
-0.13394616 0.06780140 -0.00000054
-0.73865386 0.33368546 0.08174206
-0.73136173 -0.56344520 0.00000000
-0.30379322 0.47694754 -0.00000062
-0.17573256 -0.77471144 -0.00000002
0.01661587 0.53462720 0.00000306
0.64423308 -0.30933260 -0.00000090
0.02835256 0.44633045 -0.00000078
-0.58798766 0.76039140 0.16459422
-0.00116346 0.66589614 -0.00000092
0.31362665 -0.18021047 -0.00000039
-0.54761980 0.19703642 -0.00000031
0.38243941 -0.40378442 -0.00000025
-0.05711774 -0.08609158 -0.00000045
0.01924177 -0.78110765 -0.00000001
0.16401302 0.50891861 0.00000108
-0.79693481 -0.24864304 0.00000000
0.26163291 -0.26035225 -0.00000034
-0.55360868 0.36034324 0.03420206
-0.00117942 0.58170056 -0.00000086
-0.11159704 0.49843771 -0.00000081
-0.58699428 -0.51301008 -0.00000013
0.77996726 -0.69864454 -0.00000025
-0.73002085 -0.55729060 0.00000000
0.68492122 -0.30982532 -0.00000103
0.22017892 0.03883617 0.00000805
-0.54117993 0.37859593 0.03595009
0.40792212 -0.68152170 -0.00000007
0.75900066 -0.79550276 -0.00000001
0.04094897 -0.70666809 -0.00000006
0.24783071 0.04331770 -0.00000053
0.71631803 -0.01751631 -0.00000170
0.74612955 -0.62133712 -0.00000045
-0.23225519 -0.76814130 -0.00000002
-0.39188910 -0.28963883 -0.00000032
0.04905430 -0.04994475 -0.00000047
-0.20173435 -0.40350083 -0.00000025
-0.33469293 0.75489030 0.08691693
-0.69638379 -0.28538557 -0.00000006
-0.59786238 0.50830871 0.09189637
0.04491330 0.42541797 0.00000441
0.76756275 -0.39967043 -0.00000100
0.04093759 0.41653877 -0.00000076
0.08642500 -0.79831508 -0.00000000
0.76687006 -0.21389584 -0.00000147
-0.46735449 0.08149921 -0.00000037
-0.37194222 -0.77028553 -0.00000002
-0.43425094 0.21506576 -0.00000043
0.00099617 0.35861386 0.00000616
0.11354630 0.22168625 -0.00000064
0.33291204 0.03972198 0.00000626
0.44794505 0.09579417 -0.00000106
-0.76901266 -0.00844465 -0.00000003
-0.30546301 0.61770408 0.03696757
-0.09561760 -0.70703645 -0.00000006
0.33667362 0.09410244 -0.00000070
-0.27475801 -0.58251351 -0.00000014
0.44978837 0.31352363 -0.00000090
0.12231574 0.47223369 0.00000248
-0.50652768 0.34164152 0.01445742
-0.39646711 -0.17203945 -0.00000039
0.56457014 0.07798526 0.00000112
-0.69459670 -0.44408173 -0.00000003
-0.69037171 -0.59593851 -0.00000001
-0.22506108 -0.59234432 -0.00000013
0.16825205 -0.25698000 -0.00000034
0.02229976 0.64065672 0.00000125
0.42549081 -0.12105676 -0.00000057
0.32247700 0.41932428 -0.00000129
0.18691663 -0.29476604 -0.00000032
0.37266243 -0.41851056 -0.00000024
-0.05145103 -0.10580190 -0.00000043
-0.66974548 0.14157868 0.00339871
-0.14020218 0.37268560 -0.00000073
0.70587174 -0.70881922 -0.00000023
0.64242068 -0.57857805 -0.00000037
-0.29374807 -0.59332584 -0.00000013
0.49066401 0.20879221 0.00000019
0.64467091 -0.62357451 -0.00000029
0.46522441 0.26459626 -0.00000032
-0.60939254 0.54080685 0.10511138
0.29407662 0.02633274 -0.00000052
0.36941016 -0.76585365 -0.00000002
0.05048721 0.26543577 -0.00000067
-0.02596761 0.26969252 -0.00000067
-0.36910322 -0.29745611 -0.00000031
-0.10101685 0.36692219 -0.00000073
0.67121507 -0.48694330 -0.00000064
-0.19491816 0.78731255 0.05469509
0.40539352 -0.30364678 -0.00000031
0.25276831 0.06984737 -0.00000054
-0.30042339 0.59204190 0.02775248
-0.00467816 0.62088437 -0.00000089
-0.04123014 -0.31142985 -0.00000031
0.03806864 0.18946989 0.00000835
-0.04148424 0.39172237 -0.00000074
0.02992262 0.13135270 -0.00000058
-0.37159980 0.43820313 0.00294163
