ply
format ascii 1.0
element vertex 1400
property float x
property float y
property float z
end_header
0.06636961 0.20521792 0.41903109
-0.14306908 0.00563443 0.00000976
-0.33719938 0.29780573 -0.00000055
0.08650382 -0.63334814 0.54613353
-0.20872518 0.34951371 0.00000352
0.01600473 0.60443392 0.10104378
-0.21374828 0.43609492 -0.00000027
0.06280849 0.14393625 0.39655820
0.04555619 -0.71431396 0.28761460
0.03364925 0.45527748 0.21245276
-0.68948566 -0.53725838 -0.00000058
0.00279982 0.14902857 0.01767637
0.09123185 -0.76497757 0.57598349
0.09593708 -0.24976663 0.60568480
-0.13517662 0.25797882 0.00000609
0.00984874 -0.18512191 0.06217907
0.07225422 0.00928957 0.45616652
0.00197331 0.51400215 0.01245832
0.02453061 -0.48595649 0.15487167
0.01877750 0.22698784 0.11854991
-0.39591689 -0.49383682 0.00000000
-0.31318765 -0.22442867 0.00000000
0.06818253 -0.46275730 0.43046381
0.04332657 0.05180949 0.27358625
-0.79046878 -0.43432436 -0.00000091
0.10783554 -0.72102902 0.68080809
0.02508916 0.35435812 0.15842708
0.05738135 -0.35815144 0.36227161
0.01785022 0.29334780 0.11269562
0.05796855 0.24027582 0.36597524
0.08404900 0.13037209 0.53062845
-0.59120353 0.16168223 -0.00000069
-0.26905883 0.50877601 -0.00000030
0.05437156 -0.03046876 0.34326950
0.11344924 -0.62877168 0.71624826
-0.06538508 0.65784157 0.00000112
0.01047618 -0.20951656 0.06614037
-0.66295472 -0.46955166 -0.00000059
-0.14692061 0.04899349 0.00000905
-0.20798917 0.26444791 0.00000000
0.00974848 0.40661931 0.06154611
0.09961473 -0.29713987 0.62890323
-0.17370676 0.44341531 -0.00000011
-0.60304599 0.06241217 0.00000074
0.05193968 0.18985052 0.32794277
-0.36580419 -0.57076691 0.00000000
0.00380573 0.28976968 0.02402708
0.09058583 0.10181007 0.57189728
-0.11358980 0.61091381 0.00000098
0.02672313 -0.25578747 0.16871390
0.06620221 -0.05067576 0.41795940
0.05390359 0.21657194 0.34031243
-0.01782686 0.38508017 0.00000595
0.06934281 0.27508599 0.43778320
-0.53093276 -0.52844169 0.00000000
-0.15768690 0.15061323 0.00000000
0.02562798 0.52742048 0.16180964
-0.15841317 0.13450896 0.00000759
0.08648694 -0.69002435 0.54602698
0.10665656 -0.62074300 0.67336343
-0.64768889 -0.13053558 -0.00000112
0.00097391 -0.45415898 0.00614869
-0.05922102 -0.66376670 0.00000000
-0.44244509 0.34926774 -0.00000109
0.00260691 0.06586672 0.01652838
-0.00942134 -0.21567200 0.00000000
0.00208403 -0.47528885 0.01315735
-0.13210024 0.34740400 0.00000480
0.04496292 0.44327544 0.28387254
0.00637778 -0.66213675 0.04026552
-0.45605948 -0.58963537 0.00000000
-0.09448324 0.61568436 -0.00000008
-0.67166014 -0.18767579 -0.00000112
-0.43379508 0.12747644 -0.00000066
0.07816683 0.10105568 0.49349323
0.01954864 0.45564176 0.12344082
0.05360094 -0.59611282 0.33840436
-0.69852156 -0.37341688 -0.00000091
0.03183753 0.20752710 0.20100321
-0.11668723 0.66788230 -0.00000026
0.07612712 -0.15683189 0.48061889
0.07557320 0.07171976 0.47711935
-0.03898349 -0.55212615 0.00000000
0.01263977 -0.52438726 0.07979996
-0.52200280 -0.45283489 -0.00000001
-0.68954160 0.09089535 -0.00000169
0.03869071 0.00546494 0.24432535
0.08268583 0.26050894 0.52202101
-0.04302392 0.54542485 0.00000000
0.03690449 0.30744371 0.23299211
-0.64062675 -0.65599130 -0.00000016
0.04849704 0.42589721 0.30617731
-0.06225406 0.04920418 0.00000000
0.04201372 0.04065784 0.26529954
0.00223405 0.23040691 0.01415857
0.10534133 -0.20445143 0.66505559
0.07180639 0.05884146 0.45336784
-0.24456941 -0.60184266 0.00000000
-0.40873270 0.17867168 0.00000253
0.04764328 0.17766529 0.30079002
-0.57617426 0.17947859 -0.00000136
0.01113894 -0.00870418 0.07032460
0.07994551 -0.21854174 0.50472595
-0.60351616 -0.77821082 0.00000000
0.11869699 -0.75519099 0.74938149
0.04000678 -0.41177233 0.25257898
0.03266909 0.30832852 0.20628217
0.03460248 0.32231009 0.21845878
-0.41967695 0.18495515 -0.00000070
-0.11171796 0.15228253 0.00000000
0.02489854 0.29089383 0.15722987
-0.45203099 0.19586386 0.00000141
0.10121052 -0.02110180 0.63897478
0.06725377 0.07112532 0.42462769
0.00390096 -0.16193391 0.02462832
-0.27515587 0.03623411 0.00000000
0.07423842 0.20676764 0.46869109
-0.18922317 -0.40744352 0.00000000
0.05616532 0.31550322 0.35459020
-0.28918635 -0.27020022 0.00000000
0.04138865 -0.13531445 0.26130325
0.01617161 0.20262193 0.10214680
-0.27157973 -0.30499525 0.00000000
-0.39095498 -0.10570080 -0.00000007
0.00666397 0.00853630 0.04214548
-0.64086563 0.02429633 0.00000065
-0.29768462 0.39745117 0.00000101
0.06246468 0.23307818 0.39436041
-0.12185453 0.17535239 0.00000000
-0.23880132 0.32344400 -0.00000018
0.02236254 0.64937873 0.14118243
-0.13217232 0.53356676 0.00000191
0.08724210 0.04035022 0.55080905
-0.65601938 0.05705077 -0.00000149
-0.68214716 -0.51568902 -0.00000059
0.09749831 0.16986648 0.61553739
-0.53911353 0.15116164 -0.00000115
0.08700068 -0.70535643 0.54927044
0.00510332 -0.22381703 0.03221930
0.03179518 -0.15664273 0.20073583
-0.00065140 -0.19941652 0.00000000
0.09675560 -0.65701152 0.61085676
-0.03745234 -0.03070766 0.00000000
0.08311906 -0.76673694 0.52476418
0.00186970 -0.26647270 0.01180415
-0.13951314 0.47257839 0.00000279
-0.13499105 0.06631501 0.00000000
0.00412980 0.02376432 0.02614620
-0.32529953 0.16545393 0.00000435
-0.53993770 -0.46809838 -0.00000006
-0.04335263 -0.10234223 0.00000000
-0.12475543 0.09231375 0.00000873
0.04414004 0.21113859 0.27867286
0.08739041 0.01611136 0.55174805
0.08583183 -0.41993794 0.54188984
0.08795539 -0.17647254 0.55529372
-0.30014469 0.13526856 0.00000534
-0.49705035 -0.65671605 0.00000000
0.03662246 -0.36268608 0.23121236
-0.31340540 0.13679196 0.00000506
0.09006698 -0.28258866 0.56862588
-0.27662722 -0.39642683 0.00000000
0.01770633 0.44483571 0.11178719
-0.09746922 -0.36247948 0.00000000
-0.00809840 0.01714149 0.00001162
-0.77499096 -0.39795474 -0.00000101
-0.47431036 0.31499957 -0.00000117
-0.05058011 0.14033203 0.00000000
0.00697597 0.21239718 0.04404209
0.00300672 0.55908703 0.01898263
-0.72825680 -0.56910270 -0.00000058
-0.57464718 -0.48650473 -0.00000018
-0.12611175 0.03845390 0.00000000
0.11615372 -0.56366744 0.73332175
-0.20277331 0.44454856 -0.00000024
0.00623719 0.15986152 0.03943656
0.07890153 0.19623129 0.49813052
-0.52442009 -0.35719939 -0.00000019
0.05221820 0.20304823 0.32967231
0.01857481 0.30810934 0.11727027
0.01600579 0.04391260 0.10111540
-0.58144727 0.12610329 -0.00000129
-0.24070802 0.33903694 -0.00000021
-0.11653409 0.04358544 0.00000000
-0.45566702 -0.01273872 -0.00000051
0.01618896 0.66196117 0.10220621
0.07155271 -0.69612003 0.45174114
0.04627583 -0.26669694 0.29215798
-0.69691150 -0.39149961 -0.00000087
-0.44690091 -0.48489105 0.00000000
0.07847867 -0.43749461 0.49546755
0.07835167 -0.76669678 0.49466574
0.06632741 -0.18838090 0.41875133
0.02290708 0.19278822 0.14466765
-0.28928269 0.16475431 0.00000506
-0.50557496 -0.19316803 -0.00000040
-0.14814982 0.23052480 0.00000631
-0.03164848 0.26216523 0.00000000
0.10477504 -0.55586803 0.66148427
0.01518890 -0.78291907 0.09589368
0.00477657 0.43425379 0.03018928
0.06409031 -0.74502454 0.40462802
0.07079583 0.27013628 0.44696448
-0.00080337 0.78805272 0.00000000
0.07044545 -0.11640927 0.44474873
0.00647819 0.00495452 0.04097305
0.11915516 -0.31420359 0.75226717
-0.06898889 0.69380654 0.00000045
-0.11779411 0.26321323 0.00000000
0.02661269 -0.76870603 0.16801667
-0.19161471 -0.48267630 0.00000000
0.04265813 -0.37936598 0.26931803
-0.32250155 -0.77171374 0.00000000
-0.12534105 -0.58259019 0.00000000
0.07687107 -0.77324726 0.48531809
-0.02138375 0.72719519 0.00000077
0.01370949 0.68185006 0.08655570
-0.52716019 -0.69832255 0.00000000
-0.28918464 0.01016186 0.00000000
0.07489432 -0.24548330 0.47283689
-0.79677127 -0.19635276 -0.00000151
0.11609321 -0.41458485 0.73293735
0.00244448 -0.27069811 0.01543299
-0.30518698 0.29548790 -0.00000041
-0.26554596 -0.36824351 0.00000000
0.10903508 -0.78299391 0.68838226
0.10183175 -0.21797147 0.64289891
-0.46113784 -0.26224034 -0.00000009
-0.42019069 0.19546223 -0.00000072
-0.73507180 -0.45722509 -0.00000086
-0.48033166 -0.60567320 0.00000000
-0.74316686 -0.47313801 -0.00000082
0.01936347 0.55171948 0.12224884
-0.08373101 -0.01564907 0.00000000
-0.47789785 0.22280127 -0.00000102
0.09518210 0.10499830 0.60092351
0.05715588 -0.50122030 0.36084813
-0.70008534 -0.00592177 -0.00000156
0.03753652 -0.51156454 0.23698318
0.03212305 0.55182970 0.20280753
-0.30654553 -0.37480227 0.00000000
0.04211994 -0.65052543 0.26592017
-0.39521354 0.30053156 -0.00000080
0.07770390 -0.10475970 0.49057288
0.02525359 0.09605666 0.15949021
0.03861409 -0.23104062 0.24378631
-0.13317053 0.39650863 0.00000000
-0.63787008 -0.77791985 0.00000000
-0.78829735 -0.08949571 -0.00000178
0.03630848 -0.72674807 0.22923006
0.08823418 -0.31130272 0.55705526
-0.21182574 -0.02115348 0.00000000
0.07026457 0.09886322 0.44360442
-0.17911381 0.40835317 0.00000310
0.06061285 -0.63522563 0.38267338
-0.09886650 0.58656921 0.00000167
0.04938408 -0.45773952 0.31178164
0.04645319 0.10377379 0.29331869
-0.63498046 0.09824122 -0.00000147
0.01053393 0.60993870 0.06651748
0.08679252 -0.53457220 0.54795614
-0.77617486 -0.64486102 -0.00000039
0.09769282 -0.30049977 0.61676976
0.10766414 -0.05190579 0.67971835
-0.33531624 -0.12926929 0.00000000
0.11127502 -0.23194150 0.70251667
-0.03879757 0.40522844 0.00000000
-0.70645031 -0.16765280 -0.00000130
-0.50430771 -0.49447048 0.00000000
0.00718242 0.52905438 0.04536780
0.04477295 -0.03421493 0.28266971
-0.58341309 0.13458932 -0.00000009
0.03940481 0.35035679 0.24877673
-0.23989784 0.42360538 -0.00000036
-0.35202251 -0.01638001 -0.00000006
0.00762146 0.65033212 0.04811733
-0.07315903 -0.51194390 0.00000000
0.00309951 0.57593999 0.01956847
-0.41191654 -0.65545563 0.00000000
-0.22762001 0.51278348 0.00000043
0.08841129 0.23371657 0.55816759
-0.38405941 0.40511355 -0.00000094
0.01869086 -0.12564557 0.11800295
0.04020447 0.41857556 0.25383726
0.04211976 0.38769736 0.26593125
-0.38756131 0.32342354 0.00000052
-0.74768024 -0.31967437 -0.00000120
-0.03476511 0.31656899 0.00000673
-0.77969478 -0.42519477 -0.00000094
-0.34526346 0.41366204 -0.00000018
0.02216433 -0.44992374 0.13993236
0.11234089 -0.37856672 0.70924735
-0.40621366 -0.20801510 0.00000000
-0.15201792 0.58488846 0.00000067
-0.59593963 0.01473800 -0.00000116
-0.54293728 -0.00711843 -0.00000089
-0.43568053 -0.51721304 0.00000000
-0.51283072 0.20237004 -0.00000113
-0.10425158 -0.22052196 0.00000000
0.07963837 -0.68504487 0.50278916
-0.15142198 -0.07574410 0.00000000
0.05098979 -0.15406840 0.32191916
-0.04270695 0.67975088 0.00000116
0.04950825 -0.00344687 0.31256556
0.09738790 0.06798537 0.61485205
-0.05310162 0.36189938 0.00000000
0.07939373 0.21786157 0.50123764
0.00731746 -0.37428861 0.04619805
-0.23255423 0.25524549 0.00000463
-0.58962123 -0.02942814 -0.00000105
-0.35648007 -0.03689030 -0.00000004
0.02405432 0.44464209 0.15186447
0.10162088 -0.01497790 0.64156544
0.03855827 -0.63655515 0.24343393
0.04790204 0.46255203 0.30242373
-0.13735291 0.14799856 0.00000000
0.02209223 0.05708882 0.13953685
-0.36440844 0.01659589 0.00000609
-0.08538672 -0.05231919 0.00000000
0.02835999 0.23459792 0.17908697
-0.44362539 -0.11986247 -0.00000027
0.01688104 -0.08594949 0.10657685
-0.56221684 -0.72497665 0.00000000
0.05485969 -0.30231753 0.34635134
0.10650737 0.06404323 0.67241984
-0.19571897 0.14808842 0.00000000
0.07174822 -0.32209277 0.45297549
-0.05410160 0.69206035 0.00000076
-0.55957270 -0.46702066 -0.00000015
0.08393048 0.14498140 0.52987999
-0.66450396 -0.26576766 -0.00000095
-0.04728295 -0.34813040 0.00000000
-0.32456824 0.41549284 -0.00000071
0.05881511 -0.35917324 0.37132353
-0.46781437 0.32456367 -0.00000116
0.05858058 0.12424212 0.36984038
0.11151019 -0.08211577 0.70399969
-0.77989186 -0.74348357 -0.00000014
-0.15085726 0.20239200 0.00000669
-0.18395615 -0.05727577 0.00000000
0.08847794 0.13802263 0.55858928
0.01016867 0.23453969 0.06424808
-0.22252010 0.40522508 0.00000232
0.00606309 -0.75490331 0.03827875
0.09375636 -0.39343630 0.59191897
0.02328708 0.29906662 0.14702075
0.00115959 0.22188112 0.00732099
-0.14839880 -0.39302915 0.00000000
-0.49444738 0.21394365 -0.00000107
0.07131637 0.25845413 0.45024296
0.05433247 0.05097804 0.34306328
-0.43658860 -0.58793327 0.00000000
0.10287525 -0.23835840 0.64948697
-0.15818283 0.07121356 0.00000000
0.03218715 0.58270136 0.20320745
-0.45946522 -0.05408345 -0.00000045
-0.74778778 -0.38285857 -0.00000104
0.08748751 -0.38020267 0.55234211
-0.21170215 0.29902341 0.00000430
-0.57134640 -0.02986963 -0.00000097
0.04030585 -0.13167365 0.25446709
-0.20868275 0.25816384 0.00000000
0.03249873 0.20749504 0.20521678
0.08054131 -0.44562218 0.50848983
-0.22017152 0.03595193 0.00000000
-0.42721761 -0.08750290 -0.00000025
-0.58539189 -0.14427983 -0.00000083
-0.63468238 0.06554354 0.00000008
-0.44663028 0.20086054 0.00000143
-0.46275474 -0.01725718 -0.00000053
0.07286866 0.14359079 0.46004418
-0.04686596 -0.25099525 0.00000000
-0.43382034 0.13267487 0.00000282
-0.06055433 0.39468254 0.00000000
0.06344924 0.19984860 0.40059661
-0.37945638 0.37657267 -0.00000087
0.12253954 -0.17513947 0.77363199
0.11200907 -0.36944407 0.70715239
-0.22941788 0.51850229 0.00000030
0.09500244 -0.28007130 0.59978452
0.05018018 0.04129714 0.31680759
-0.78117589 -0.12897190 -0.00000168
-0.36300082 0.21169607 0.00000286
0.04910939 0.13798190 0.31004634
-0.19800465 0.21200749 0.00000000
0.01943735 -0.14196198 0.12271583
-0.47342756 -0.00020915 -0.00000061
0.06566007 -0.34497155 0.41453856
-0.46890685 0.04281249 -0.00000066
-0.57482088 -0.79976185 0.00000000
-0.65053225 -0.31559516 -0.00000080
0.09133827 -0.59674937 0.57665525
-0.46990938 0.31276922 -0.00000114
-0.05559584 0.24996096 0.00000000
-0.37298408 -0.05011259 -0.00000009
-0.18176574 0.56697000 0.00000040
-0.00334030 0.16298726 0.00000950
0.04012472 -0.77401500 0.25332358
-0.16677623 0.27713465 0.00000533
0.00018587 0.14393123 0.00123715
0.00007921 -0.48793750 0.00050007
-0.53592548 -0.31008870 -0.00000032
-0.14424788 -0.01192441 0.00000000
-0.53220194 -0.14897465 -0.00000059
-0.17208055 -0.78658183 0.00000000
0.00813456 0.46767693 0.05138445
0.00631834 0.06314105 0.03989023
0.04025565 0.11382096 0.25419402
0.06685739 -0.07971348 0.42209606
0.00120655 0.52905699 0.00764309
0.01270045 0.50963358 0.08018306
-0.42524505 -0.77695435 0.00000000
0.01018409 -0.10814169 0.06429626
-0.54963495 0.00260395 -0.00000094
0.08665584 0.14967581 0.54709577
-0.29388910 0.15045028 -0.00000011
-0.44341599 0.17621945 0.00000190
-0.11342888 -0.07364786 0.00000000
-0.23148147 -0.38286259 0.00000000
0.04942417 0.13585579 0.31203366
-0.51256080 0.04281450 0.00000281
0.00586658 -0.78500172 0.03703809
0.08193328 -0.65478886 0.51727790
0.10129500 -0.31206886 0.63951129
-0.13700898 -0.00163619 0.00000000
-0.06805755 -0.04438829 0.00000000
0.00558931 -0.07588095 0.03528754
-0.10542595 -0.50190845 0.00000000
-0.50409451 0.01479092 -0.00000076
0.08639318 0.13817807 0.54542767
-0.28424182 -0.66510186 0.00000000
-0.51302363 0.20647069 -0.00000114
-0.64470744 -0.32836896 -0.00000076
0.03135457 -0.31204520 0.19795403
-0.42591394 0.01853687 -0.00000044
-0.23256685 -0.37653837 0.00000000
-0.54844881 -0.64971741 0.00000000
-0.34372147 0.23739292 -0.00000047
-0.43001230 -0.46227630 0.00000000
-0.34360665 0.15642687 -0.00000033
-0.09218315 0.66929308 -0.00000016
0.01927534 0.46083339 0.12169299
0.06247246 0.08782626 0.39441111
0.08914842 -0.17650537 0.56282562
0.09750530 -0.08060655 0.61558355
-0.29110743 -0.58344758 0.00000000
-0.17763329 -0.59290071 0.00000000
0.06541920 0.28749773 0.41301241
0.09166601 0.06304242 0.57873271
-0.23047159 0.15026347 0.00000627
0.12438827 -0.47251229 0.78530847
-0.20533856 -0.59814206 0.00000000
-0.44846944 -0.55409442 0.00000000
-0.55921785 -0.46080144 -0.00000016
-0.42739740 -0.06081618 -0.00000030
0.00721680 0.51806274 0.04556260
-0.03694046 -0.21734537 0.00000000
-0.39314462 0.01117043 -0.00000028
0.00299163 0.28187233 0.01893601
-0.26575335 0.15777039 0.00000000
-0.04719895 -0.18165557 0.00000000
0.01610514 -0.39663068 0.10167823
0.08968720 0.02093102 0.56624612
0.07700641 0.26943263 0.48616537
0.04754685 -0.11777542 0.30018244
-0.17884730 0.36596518 0.00000000
-0.02933449 0.00217869 0.00000000
-0.59565561 -0.66335315 0.00000000
-0.76000080 -0.18829946 -0.00000150
-0.17886706 -0.62991098 0.00000000
-0.52040469 0.06765719 0.00000224
-0.24259597 -0.46053357 0.00000000
-0.26480921 0.53515649 -0.00000066
0.07080256 -0.14041982 0.44700351
0.02517904 -0.12152660 0.15896545
-0.15068474 0.34900701 0.00000000
0.08863401 -0.42138404 0.55958069
0.01643170 -0.53178531 0.10373994
-0.15946083 0.58701902 -0.00000030
0.01033589 -0.39406351 0.06525462
-0.54956239 0.19305817 -0.00000042
-0.26357411 -0.36721595 0.00000000
-0.23464197 -0.20612713 0.00000000
0.01332682 -0.07177706 0.08413761
-0.13789508 0.18621728 0.00000713
0.00976376 -0.48290251 0.06164258
-0.06267298 0.02097431 0.00000000
-0.49109851 -0.14008895 -0.00000043
0.00699382 -0.31283421 0.04415484
0.00586268 0.00924046 0.03708702
0.03516083 -0.50546451 0.22198449
0.04783960 0.02663665 0.30203073
-0.06938655 0.69962267 0.00000034
-0.60509095 0.02666835 -0.00000122
-0.09462591 -0.09411551 0.00000000
0.00704760 0.28236853 0.04454068
-0.09245338 -0.16297897 0.00000000
-0.77489424 -0.70022433 -0.00000025
-0.39728198 0.04856932 0.00000492
-0.03909756 0.02651678 0.00001101
0.02152880 0.09670118 0.13597613
0.08420379 -0.32151748 0.53161058
-0.18724157 0.16913554 0.00000664
0.04550166 -0.21825515 0.28727037
-0.48576410 0.02672908 0.00000359
-0.50050538 -0.29635564 -0.00000020
0.10796807 0.03645002 0.68164378
0.03072493 -0.43507542 0.19397887
-0.63555151 -0.21899332 -0.00000091
-0.46524909 0.33070564 -0.00000116
0.00375420 -0.37941749 0.02370177
-0.64576758 -0.40027981 -0.00000063
0.00286577 0.21854515 0.01809276
0.07230540 0.08481589 0.45648884
0.03090551 0.45816734 0.19511748
0.11908469 -0.30785067 0.75182216
0.07508322 0.22129290 0.47403455
-0.59694284 0.15600749 -0.00000071
-0.49103020 -0.31619771 -0.00000012
0.00085665 0.46365389 0.00540840
-0.27032405 0.00209170 0.00000789
0.12111940 -0.46012279 0.76467056
0.06629138 0.23792353 0.41851922
0.01518638 -0.59205507 0.09587772
0.00574462 0.14005762 0.03626809
-0.41446575 0.06184955 0.00000437
-0.32457233 0.12061151 0.00000512
-0.21843670 0.37276157 -0.00000018
0.05341496 -0.25130694 0.33723022
0.11771777 -0.08937181 0.74318972
0.00552509 -0.08652295 0.03488214
0.11961308 -0.00919568 0.75515438
-0.09291598 -0.18678495 0.00000000
0.06355370 -0.27347843 0.40124017
0.12051303 -0.50883003 0.76084306
-0.37895243 -0.33158448 0.00000000
-0.08362087 -0.51115358 0.00000000
0.04469096 -0.38277963 0.28215205
0.00222588 0.60724384 0.01407034
0.07186316 -0.36611591 0.45370111
-0.38300824 0.09118755 0.00000448
-0.22060167 0.10663205 0.00000707
0.12408523 -0.20774927 0.78339108
-0.24576179 -0.68946283 0.00000000
0.04748351 -0.66447804 0.29978256
0.01587064 0.10453825 0.10019774
-0.05295432 0.07862347 0.00001002
0.04536108 0.50521936 0.28637889
-0.48709287 0.04080818 -0.00000074
-0.27379176 -0.73228705 0.00000000
0.03920515 -0.11048058 0.24751796
-0.07080769 -0.05077509 0.00000000
-0.13633362 -0.69908365 0.00000000
0.00480127 0.34952427 0.03035341
-0.29557545 -0.39746999 0.00000000
-0.09166857 0.12336361 0.00000000
0.03868457 0.46746346 0.24423720
0.09479209 -0.40568269 0.59845795
0.01055187 0.11440819 0.06661819
0.03483534 -0.15455551 0.21992958
-0.26161497 0.14763309 0.00000000
-0.48422661 0.25875819 -0.00000111
0.09541199 0.13556821 0.60237126
-0.15133052 -0.39639348 0.00000000
-0.13006247 -0.27428751 0.00000000
-0.01473561 0.62851593 0.00000000
-0.20161311 -0.37984687 0.00000000
0.03722306 0.29045589 0.23503150
-0.23725329 -0.63983779 0.00000000
-0.20889369 0.09820376 0.00000000
0.11587617 0.01691640 0.73156206
0.03399910 0.42448605 0.21466473
-0.04507629 -0.72115900 0.00000000
0.07794612 0.15296870 0.49209924
0.00538038 -0.61436024 0.03396850
-0.32155015 0.35330625 0.00000129
-0.22003348 -0.32816811 0.00000000
0.07382093 -0.58920512 0.46606131
-0.23223414 -0.24956684 0.00000000
0.03397447 0.26069886 0.21452768
-0.44331449 -0.70292012 0.00000000
-0.12853424 0.25298911 0.00000627
-0.04835207 0.63414577 0.00000176
-0.27611800 -0.31173114 0.00000000
-0.09182951 -0.49686922 0.00000000
-0.73762382 -0.37541152 -0.00000106
-0.17072930 -0.65771442 0.00000000
-0.23084695 0.42228511 0.00000188
0.00584956 -0.19310571 0.03693062
0.07473909 -0.23934907 0.47185680
-0.17580488 -0.19577287 0.00000000
-0.21526172 0.18199306 0.00000602
-0.08479087 -0.17240293 0.00000000
0.03691467 0.36802909 0.23307594
-0.75906078 -0.53238482 -0.00000067
-0.39034895 0.40548511 -0.00000091
0.03227610 0.07745833 0.20382395
0.08101631 -0.50626591 0.51148864
-0.72008639 -0.79072411 -0.00000002
-0.15617382 -0.33732720 0.00000000
-0.17740320 -0.57006542 0.00000000
-0.62196222 -0.07347292 -0.00000111
-0.31025999 0.37132278 0.00000120
-0.49733338 0.07037211 0.00000264
-0.00599341 0.37236143 0.00000632
0.08767565 -0.47989885 0.55353098
-0.31283263 -0.77278202 0.00000000
0.04441371 -0.42076097 0.28040170
0.08982759 -0.26808696 0.56711439
0.01796213 -0.45642598 0.11340216
-0.62607297 -0.30046276 -0.00000073
-0.04084118 0.10482759 0.00000981
-0.48355512 -0.78779741 0.00000000
0.02070685 0.23916001 0.13077347
-0.76771070 -0.49152006 -0.00000077
0.05034504 0.12568860 0.31784744
-0.58390497 -0.31881763 -0.00000051
0.07138487 0.01795757 0.45067802
-0.36162666 0.26634733 0.00000197
-0.05193171 0.46415187 0.00000425
0.03924388 0.08739453 0.24776247
0.03192588 -0.64100905 0.20156100
0.12452301 -0.42965963 0.78615846
0.03939112 0.32205453 0.24871394
-0.11798480 0.56241060 -0.00000008
-0.69869348 -0.07033174 -0.00000144
0.08764037 -0.71309770 0.55330902
0.08013320 -0.79517978 0.50591322
0.03446308 0.15509585 0.21762246
-0.29927340 -0.17904279 0.00000000
-0.02902791 -0.67587409 0.00000000
-0.01929210 -0.39866395 0.00000000
-0.66550583 0.10859723 -0.00000162
0.03584303 0.33883157 0.22631447
-0.45987846 -0.77478060 0.00000000
-0.48154743 0.21270720 -0.00000102
-0.67843540 -0.12007737 -0.00000127
0.11094819 -0.64915251 0.70045840
-0.46459151 -0.01587405 -0.00000054
-0.05429251 -0.36415772 0.00000000
-0.15469906 0.29531724 0.00000000
-0.20115342 0.13388970 0.00000696
0.03142123 -0.38266483 0.19837490
0.00934747 -0.72033301 0.05901436
-0.70255205 0.05208886 -0.00000100
-0.06998464 -0.17499471 0.00000000
0.09195591 -0.70074221 0.58055476
-0.57258978 0.01294993 -0.00000105
0.04556975 -0.72980546 0.28770022
0.02298011 0.11884381 0.14508271
-0.56017639 -0.13141734 -0.00000074
-0.49436690 0.14620774 0.00000143
-0.12708199 0.65113429 -0.00000028
0.08735392 -0.64480477 0.55150055
0.00075625 0.22178287 0.00477454
-0.09541914 0.29638520 0.00000000
-0.06322595 -0.08493614 0.00000000
0.08739806 0.12749833 0.55178358
-0.12583311 0.34873132 0.00000487
0.07640010 -0.57293163 0.48234466
0.08183138 -0.53338816 0.51663455
0.08666951 0.17278078 0.54717188
-0.71139453 -0.77531868 -0.00000006
-0.34702779 -0.57344751 0.00000000
0.01118767 -0.32766638 0.07063230
-0.23446037 -0.59125279 0.00000000
-0.00453545 0.59530424 0.00000000
0.01128321 0.31811140 0.07127588
0.03042789 -0.46862337 0.19210355
0.07427872 -0.16641585 0.46894956
0.07173743 -0.60231333 0.45290735
0.05388163 0.09465049 0.34021235
-0.01298079 0.22314282 0.00000846
-0.14881426 0.03983330 0.00000000
-0.06350498 0.05385422 0.00001023
0.05237878 0.42945846 0.33068728
-0.07642989 0.57772120 0.00000000
0.01970239 -0.20253132 0.12438914
-0.02333048 0.51125875 0.00000000
0.01255639 0.28691232 0.07927357
0.06081660 -0.66774590 0.38395975
-0.00098061 0.35954035 0.00000659
0.03892849 0.33245353 0.24579238
0.11933687 -0.09193906 0.75341148
-0.65914650 -0.10834724 -0.00000121
-0.00648851 0.52829044 0.00000000
0.02677007 0.57460166 0.16900823
-0.43801132 -0.15169484 -0.00000019
-0.27914017 0.10014851 0.00000629
0.06516778 -0.78555354 0.41143050
0.09970891 -0.78454893 0.62950257
0.02274490 0.45340466 0.14361844
-0.52062596 0.05532374 0.00000244
0.04672944 -0.61411397 0.29502180
-0.01658973 -0.46916364 0.00000000
-0.42036319 0.25315087 -0.00000083
-0.57780389 -0.51755338 -0.00000014
0.04162229 0.22161796 0.26277763
0.09700305 0.14016771 0.61241028
-0.57455925 -0.54951114 -0.00000007
0.01864435 0.57996423 0.11771898
-0.66073367 -0.19451133 -0.00000106
-0.51376728 0.05025479 0.00000266
-0.73108461 -0.10544190 -0.00000152
0.05627720 -0.32346561 0.35530071
-0.25023167 0.18515682 0.00000545
-0.55776296 -0.61694651 0.00000000
-0.76097978 -0.35954977 -0.00000110
-0.07099992 0.64500806 -0.00000003
0.05973841 -0.56088245 0.37715271
-0.03604663 0.13625115 0.00000000
-0.47243454 0.02066081 0.00000395
-0.06350338 -0.60875799 0.00000000
-0.31012585 0.45534711 -0.00000071
0.00911632 0.17605332 0.05761046
-0.22593841 -0.76976489 0.00000000
0.00387712 0.31771135 0.02452251
0.00464419 -0.49446195 0.02932064
0.12486279 -0.36200929 0.78830255
0.06140422 -0.52503223 0.38766960
0.04337879 -0.23695473 0.27386784
-0.40050127 0.26249682 0.00000129
0.00913343 0.52731346 0.05768434
0.11587544 -0.59326342 0.73156531
-0.49198038 -0.50092747 0.00000000
-0.48672444 -0.53790071 0.00000000
0.06415567 -0.43768298 0.40504062
0.04737297 0.26902505 0.29908248
-0.33678182 0.21439278 0.00000331
-0.23732462 -0.19911394 0.00000000
0.08161899 0.06928737 0.51530945
-0.43616762 -0.43817935 0.00000000
-0.39594284 0.30867256 0.00000060
-0.16209197 -0.63738488 0.00000000
0.02558018 0.19934404 0.16154185
-0.71764004 -0.01476470 -0.00000162
-0.37470427 -0.60049224 0.00000000
-0.63543892 0.10064731 -0.00000052
-0.31868270 0.47954945 -0.00000079
0.08947097 0.11959902 0.56485869
0.03417164 0.17874720 0.21573938
0.05709293 0.41038751 0.36044538
-0.58960036 -0.53141079 -0.00000016
0.06140539 0.02112565 0.38771501
-0.16169240 0.22162367 0.00000000
0.07557429 -0.67380659 0.47713101
-0.55120279 0.14079443 -0.00000119
-0.19114735 0.35296968 0.00000380
0.05595248 0.31659806 0.35324647
-0.02205399 0.03149340 0.00000000
-0.09040012 0.07902529 0.00000945
0.04364255 0.17834313 0.27556782
0.02125467 -0.13702698 0.13418931
-0.16261546 0.17164334 0.00000697
0.01112218 0.57432907 0.07023441
-0.17943920 0.13194152 0.00000731
0.00637564 -0.30874899 0.04025196
0.12228583 0.00779522 0.77202897
-0.41578134 -0.64423087 0.00000000
0.10030429 0.06608117 0.63325260
0.09136344 0.11777271 0.57680634
-0.69053248 -0.58252961 -0.00000050
-0.17938256 -0.79316892 0.00000000
-0.55179520 -0.58238525 0.00000000
-0.54657651 0.09445482 -0.00000109
-0.10685075 0.19450832 0.00000000
-0.03808283 0.21479768 0.00000820
0.10976407 -0.40454304 0.69297952
0.10164092 0.08369614 0.64169085
0.08944345 0.09517847 0.56468524
0.03120197 -0.47485500 0.19699060
0.05013869 0.19659305 0.31654391
-0.28343961 -0.43616056 0.00000000
-0.78234598 -0.00141797 -0.00000192
-0.70433106 0.08480214 -0.00000174
-0.43303388 -0.10899277 -0.00000024
-0.41385148 0.30132278 -0.00000088
-0.41971378 0.24765106 -0.00000081
-0.07107689 0.03750786 0.00000000
0.06035721 -0.47299421 0.38105946
-0.23583107 0.13870099 0.00000000
-0.34918804 0.18437492 0.00000358
0.03499681 -0.40936944 0.22094900
-0.05225925 0.69648065 0.00000073
0.11886641 -0.75098004 0.75045104
-0.18730223 0.41656800 -0.00000012
0.01363958 0.63626013 0.08611164
0.10766264 0.10242885 0.67970816
0.01062066 0.10397060 0.06705250
0.05067269 -0.60858696 0.31991717
-0.72705825 -0.77172598 -0.00000007
0.02788887 -0.77367312 0.17607367
0.03095106 0.16431454 0.19545078
-0.52787856 0.18067738 0.00000021
-0.21125842 0.57341280 -0.00000027
0.01386722 0.26139044 0.08754938
0.00613608 0.49787415 0.03876543
0.11694169 -0.70341324 0.73829875
-0.14151986 0.46570784 0.00000287
-0.57776234 0.01015982 -0.00000107
-0.03985726 -0.36758365 0.00000000
0.05806704 0.07201988 0.36663564
-0.39693611 -0.11942245 -0.00000007
-0.11761358 0.02323854 0.00000000
0.08080453 -0.73688469 0.51015161
0.12169092 -0.35948542 0.76827720
0.11132807 -0.78582505 0.70285893
-0.27415999 0.40738380 0.00000129
-0.70313469 -0.64442392 -0.00000039
0.09098103 0.20116402 0.57439122
-0.44250383 -0.64555717 0.00000000
-0.47537458 0.05393881 -0.00000071
-0.10213642 0.17540172 0.00000000
-0.22238728 -0.11705521 0.00000000
-0.03932142 0.43129866 0.00000000
0.00031364 0.11693631 0.00204634
0.05990430 0.07710003 0.37819783
0.00088976 -0.25297807 0.00561743
-0.03370150 0.49921684 0.00000000
-0.43052553 -0.48612886 0.00000000
0.08327171 0.01068339 0.52572254
-0.44625199 0.13681112 -0.00000073
-0.46917183 -0.35810737 0.00000000
0.00416727 0.15923675 0.02636955
0.02079207 -0.53514477 0.13126875
-0.08382033 0.69484203 -0.00000017
0.06131808 0.34061537 0.38712742
-0.25449924 0.22161902 -0.00000006
0.03904558 -0.58906886 0.24651048
-0.77832590 -0.39417696 -0.00000101
-0.36221335 -0.44941778 0.00000000
0.12290480 -0.28517089 0.77593972
-0.42640320 -0.69254404 0.00000000
0.08183638 -0.71935481 0.51666613
-0.44747898 0.16957261 0.00000194
0.10039189 0.06201241 0.63381561
-0.03503264 -0.56167310 0.00000000
0.02748804 0.29165142 0.17354308
0.01488783 0.04836176 0.09399288
-0.19100471 0.28333136 0.00000487
0.04135270 -0.38285203 0.26107629
0.02584797 0.47513083 0.16318784
0.00574069 0.06228887 0.03631176
0.03616603 0.56038498 0.22832730
0.08858909 -0.44009240 0.55929731
-0.51452624 -0.54249514 0.00000000
-0.33014977 0.32797587 0.00000154
0.03847496 0.05165267 0.24295888
-0.31627545 0.16706157 -0.00000023
-0.48049186 -0.04866744 -0.00000055
-0.67660418 -0.67552879 -0.00000028
-0.26936300 0.46270589 -0.00000055
0.07551269 0.26070284 0.47673529
0.00846557 0.07402288 0.05351230
0.03927434 0.01910935 0.24795474
0.01548502 0.04427121 0.09776318
0.10393264 -0.17644547 0.65616185
0.07891940 -0.32761001 0.49824906
0.07647851 -0.25490598 0.48283834
-0.44161030 -0.47793060 0.00000000
0.02867291 0.15638194 0.18102367
0.09992820 -0.61958084 0.63088573
-0.30260928 0.00200292 0.00000000
-0.08191222 0.60869853 -0.00000001
0.11797785 0.00363402 0.74483062
-0.62123989 -0.26615586 -0.00000077
0.04155008 -0.51417120 0.26232240
0.02071700 0.14592909 0.13084659
0.08495614 0.11287467 0.53637046
-0.06964781 0.19197728 0.00000807
-0.30123949 -0.15974746 0.00000000
0.07524479 -0.58616237 0.47505071
0.05386286 -0.44744171 0.34005798
-0.00090934 0.39246410 0.00000610
0.00904568 0.68067477 0.05711517
0.02951432 0.16911405 0.18638037
-0.22346564 -0.29267255 0.00000000
-0.01553112 -0.00704152 0.00000000
-0.04174812 -0.31562539 0.00000000
-0.42051899 0.12199252 -0.00000060
-0.73376816 -0.38264448 -0.00000104
-0.39808927 -0.01776340 -0.00000025
-0.11706744 0.37259524 0.00000000
-0.39882704 -0.22043342 0.00000000
0.06457462 -0.71202289 0.40768566
0.02102298 0.37475379 0.13275599
-0.03149202 -0.43632404 0.00000000
0.01139941 0.45340916 0.07196906
-0.06343973 -0.07723159 0.00000000
-0.03676077 0.10495518 0.00000987
-0.33682493 -0.48852630 0.00000000
0.03484560 0.19149628 0.21999436
0.07027702 -0.13343106 0.44368555
0.06826480 -0.33994234 0.43098327
-0.01814445 -0.68693095 0.00000000
0.08874371 -0.45273257 0.56027360
-0.14825679 0.00482103 0.00000969
-0.13235998 0.31846606 0.00000523
0.00286859 -0.46176211 0.01811055
-0.38617066 0.39926331 -0.00000094
0.02881938 0.08423190 0.18200158
0.12147179 -0.18834861 0.76689105
-0.67170287 -0.73164985 -0.00000016
-0.08047106 0.42133844 0.00000447
0.07943796 -0.50742457 0.50152392
-0.18489697 0.18042619 0.00000650
-0.77028044 0.00078015 -0.00000187
0.02942884 -0.05461210 0.18579612
-0.12096004 0.65390803 0.00000012
0.08989304 -0.37488536 0.56752875
0.01451276 -0.54699163 0.09162494
0.06673711 -0.19423912 0.42133794
-0.18937799 0.31460622 0.00000000
-0.18448679 -0.34579230 0.00000000
-0.35950299 0.39958638 -0.00000083
0.00548453 0.22043024 0.03467928
0.01025070 -0.22984411 0.06471681
-0.24080898 0.01395139 0.00000000
0.00235139 -0.47735146 0.01484526
-0.33380597 -0.62462835 0.00000000
0.04716270 0.49494052 0.29775290
-0.34571812 -0.40148721 0.00000000
-0.70255375 -0.10624095 -0.00000140
-0.20123871 -0.22208901 0.00000000
-0.36894186 0.03066864 -0.00000021
0.07660217 -0.43500024 0.48362040
-0.39849458 -0.57268637 0.00000000
-0.06276507 -0.29655235 0.00000000
-0.24047087 -0.29409708 0.00000000
0.00894666 0.19664611 0.05648387
-0.10380108 -0.41553007 0.00000000
-0.42615179 0.08871901 0.00000370
0.04060286 -0.12418914 0.25634227
-0.00335338 -0.63866785 0.00000000
0.08298886 -0.11849807 0.52393820
0.04670945 0.23657475 0.29492123
0.02781657 -0.68998760 0.17561721
0.09924191 0.06024319 0.62654561
0.11623862 0.02004432 0.73385028
0.01014802 0.00372036 0.06406853
0.00140754 0.42430273 0.00892207
0.00575007 -0.53228129 0.03630252
-0.18760454 0.19672180 0.00000622
0.00750190 -0.45068144 0.04736254
0.00781966 -0.69723938 0.04936867
-0.01987797 0.41420627 0.00000000
-0.06152379 -0.32877634 0.00000000
0.05617415 -0.45275767 0.35465006
0.01765893 0.10035269 0.11148793
0.03726499 -0.58744469 0.23526893
0.10502611 -0.77245509 0.66307181
0.04949437 -0.78782253 0.31247792
0.02192001 0.17529593 0.13843813
0.06636980 -0.45255165 0.41901936
0.03368547 0.20130826 0.21266998
0.07168283 -0.12273406 0.45256065
-0.55202882 0.19098996 -0.00000043
0.01845766 -0.42862791 0.11653064
-0.44921341 -0.79073011 0.00000000
0.02812617 0.07148131 0.17757190
-0.22834131 -0.34524994 0.00000000
0.00848068 0.69058293 0.05354742
-0.43102103 -0.56562231 0.00000000
0.05527730 0.23569874 0.34900656
0.07936356 0.26277414 0.50104980
0.03814513 0.41924215 0.24083744
0.01197986 -0.46444003 0.07563370
0.05624109 -0.35331583 0.35507270
-0.52228878 -0.73894486 0.00000000
-0.75723376 -0.43784543 -0.00000091
0.02527153 0.12100214 0.15960104
-0.13629019 0.58399274 0.00000099
-0.54436354 0.02018863 -0.00000094
-0.14756009 0.27092104 0.00000571
-0.03348660 0.59391659 0.00000000
0.06304309 0.16756515 0.39801274
-0.28690093 -0.39403155 0.00000000
-0.02520701 0.03743228 0.00001106
-0.30645665 0.24730350 -0.00000033
0.05005597 0.13519510 0.31602236
0.11556248 0.00526128 0.72958761
-0.22161988 0.52591680 -0.00000046
0.05803336 -0.38245776 0.36638805
-0.46972772 -0.28463303 -0.00000009
-0.16532141 0.23434534 0.00000599
-0.47223648 -0.71424268 0.00000000
0.04561668 -0.11116059 0.28799651
-0.19801149 -0.48428057 0.00000000
-0.35752005 -0.29902445 0.00000000
0.01995618 0.24650185 0.12599140
-0.27156753 -0.48556219 0.00000000
0.07478210 0.00587276 0.47212568
0.03133233 0.34931646 0.19783910
-0.64928090 -0.00624123 -0.00000135
0.02972359 0.56431024 0.18765461
0.08874824 -0.67900445 0.56030348
0.00577050 0.38406859 0.03643150
0.11485381 0.03594615 0.72511059
-0.18135771 0.10784287 0.00000765
0.04927382 0.36206002 0.31109472
-0.42070859 -0.39070884 0.00000000
0.12391675 -0.42221385 0.78233074
0.03548188 -0.25808250 0.22401144
0.02770022 -0.29703757 0.17488265
-0.41282387 0.30759594 -0.00000089
-0.19901883 0.52710519 0.00000074
0.01985478 0.01770227 0.12541599
0.04262384 -0.01473688 0.26910149
0.09099155 -0.67228074 0.57446638
0.06899371 0.24733241 0.43559106
-0.17015175 0.55048565 -0.00000029
-0.25192090 0.28463693 -0.00000016
0.03524409 0.05840872 0.22256223
0.06700493 0.23488473 0.42302404
0.08023880 0.08569959 0.50657425
-0.47676415 0.13256323 -0.00000085
0.01339084 -0.38660373 0.08454179
-0.36880157 0.42825215 -0.00000087
-0.17232134 -0.35685196 0.00000000
0.00879356 -0.11935279 0.05551727
0.02204061 0.30959862 0.13918646
0.08796420 0.01217051 0.55534732
0.11531034 -0.27288752 0.72799301
-0.36464837 0.38617117 -0.00000082
0.06975288 -0.67004208 0.44037811
0.10446673 0.00457262 0.65953176
-0.09564817 -0.08067160 0.00000000
-0.27466962 -0.14630923 0.00000000
-0.75109781 -0.79680815 -0.00000001
-0.44146646 0.32513456 -0.00000055
0.07671516 0.30239527 0.48432632
0.01157392 0.61899925 0.07307080
-0.27172433 -0.11185525 0.00000000
-0.54034268 -0.76560818 0.00000000
-0.34396396 0.29284306 -0.00000057
0.04470265 -0.38584108 0.28222587
-0.31159182 0.21328821 0.00000382
0.05991367 -0.54333437 0.37825918
-0.31138867 -0.74347920 0.00000000
-0.09228135 -0.17074802 0.00000000
0.03549043 0.52581010 0.22406241
-0.24916469 0.38069606 -0.00000032
0.04759835 -0.05749124 0.30050759
-0.27422406 -0.35537605 0.00000000
0.05482853 -0.33326749 0.34615464
0.04762152 0.20273416 0.30065236
0.09583723 0.13770478 0.60505023
0.07483585 0.14415652 0.47248183
0.02736652 -0.47040114 0.17277588
0.05308517 -0.16575273 0.33514808
-0.21178746 -0.79372500 0.00000000
-0.18747387 -0.07902827 0.00000000
-0.18637399 0.51756707 0.00000114
-0.37610975 -0.16889232 0.00000000
-0.76690610 -0.63146491 -0.00000042
0.02260352 -0.38041440 0.14270514
0.10241203 -0.03638458 0.64656039
0.05206965 -0.39867456 0.32873675
0.09354386 -0.44123676 0.59057797
0.08083382 0.16523558 0.51032984
0.08755792 0.23679626 0.55277990
-0.65046192 -0.56979326 -0.00000035
0.08489629 -0.33071610 0.53598258
-0.60512098 0.02939947 -0.00000122
-0.68702687 -0.70669573 -0.00000023
0.07356539 -0.63687945 0.46444803
-0.26983149 -0.56822288 0.00000000
0.10115195 -0.16033829 0.63860652
0.04661755 0.47301002 0.29431115
0.07348796 -0.74833690 0.46395914
0.06001323 0.09041021 0.37888541
-0.42136171 0.24205481 0.00000123
-0.31866897 -0.60526251 0.00000000
-0.22382718 0.06621757 0.00000000
0.03999852 0.38533030 0.25254103
-0.39594795 -0.54740461 0.00000000
0.09007403 0.16859617 0.56866546
0.00875826 0.41502749 0.05529441
0.01890134 0.56879503 0.11934252
0.06518166 -0.52343668 0.41151816
-0.07450917 0.03336862 0.00001038
-0.10041430 0.43111257 0.00000402
0.02695922 -0.06069362 0.17020442
0.02177431 0.25245035 0.13751091
0.07289199 0.14801527 0.46019137
-0.22097266 0.42552453 0.00000201
-0.22236867 0.14819412 0.00000642
0.03252947 -0.10282151 0.20537167
0.10876189 -0.03132185 0.68664851
0.00649623 0.64138407 0.04102503
-0.08839992 -0.08711635 0.00000000
-0.18888744 -0.03644902 0.00000000
-0.00042832 -0.30804246 0.00000000
0.03107795 0.09158083 0.19620765
0.10448247 -0.41570578 0.65963566
0.09945672 0.05708152 0.62791287
0.10035778 -0.05342144 0.63359162
0.07494044 0.03187998 0.47312503
-0.68774309 -0.77821021 -0.00000005
0.11380613 -0.45348922 0.71849873
-0.33778835 0.14272341 -0.00000028
-0.30537415 0.06614454 0.00000639
0.00039754 -0.13843562 0.00250980
0.09535772 -0.45194449 0.60202941
-0.26002518 0.26871861 0.00000388
0.03519051 -0.64795901 0.22217189
-0.09483045 0.51005428 0.00000292
0.01985812 -0.66718370 0.12537233
-0.42051470 0.09925994 -0.00000056
-0.09862294 -0.43323995 0.00000000
-0.39009811 0.33236061 0.00000032
-0.58274227 0.18153660 -0.00000139
-0.05449238 0.10483810 0.00000000
0.11674626 -0.64366499 0.73706398
0.07020501 -0.07963079 0.44323037
-0.47360277 0.12944728 0.00000211
-0.01582524 -0.78870631 0.00000000
0.08486006 -0.75825605 0.53575583
-0.00154767 -0.35703551 0.00000000
0.01419001 0.45686959 0.08961259
0.09284370 0.18864801 0.58615266
-0.71826760 -0.47134759 -0.00000082
-0.68830205 -0.02784813 -0.00000147
-0.56469329 0.18020678 -0.00000131
-0.04685396 -0.20929828 0.00000000
-0.45918419 0.31722262 -0.00000111
0.01011364 -0.46822842 0.06385152
0.09963526 -0.34700842 0.62903338
-0.79068538 -0.35181733 -0.00000112
-0.60964720 -0.56484128 -0.00000019
-0.30095519 -0.15399302 0.00000000
-0.27210696 -0.11725584 0.00000000
-0.57930072 -0.67097441 0.00000000
0.03120445 -0.21803097 0.19700632
0.02523450 0.04487524 0.15931558
0.01263894 0.42617814 0.07982387
-0.22515708 -0.23524902 0.00000000
-0.40395391 0.13035333 0.00000343
-0.13563588 0.53311976 0.00000185
-0.16674551 -0.44221545 0.00000000
-0.56530055 -0.58595620 0.00000000
0.01958799 0.00623565 0.12366686
-0.06085859 0.36905092 0.00000000
0.05116339 0.15762512 0.32301352
-0.20928694 0.56329840 -0.00000047
-0.01510434 0.33666884 0.00000672
-0.18434342 0.16803784 0.00000670
-0.57728153 -0.55334359 -0.00000007
0.10148268 -0.66731011 0.64070007
0.04203167 -0.31085645 0.26536287
0.00610783 0.65361201 0.03857199
-0.29367123 0.35043966 -0.00000046
0.00921098 0.66848285 0.05815253
0.01848790 -0.71407572 0.11672155
-0.59375551 -0.29400631 -0.00000060
0.04590467 0.03924120 0.28986260
0.02645376 0.43356708 0.16703316
-0.02026699 0.52670352 0.00000379
-0.05840737 -0.03079279 0.00000000
-0.01258357 0.76030751 0.00000000
-0.51260085 -0.31190718 -0.00000022
0.01227996 0.61221518 0.07752832
0.06417293 0.05097092 0.40514701
0.01807037 0.17601912 0.11413597
-0.11396729 -0.44799108 0.00000000
0.00740049 -0.38504749 0.04672231
0.01684769 0.69128082 0.10636475
0.05692597 -0.21886935 0.35939663
-0.23838447 -0.44510863 0.00000000
0.12103532 -0.01570826 0.76413338
0.02035645 -0.02623267 0.12851852
-0.11883227 -0.43606334 0.00000000
-0.05375194 0.64094182 0.00000000
-0.01505363 0.15152111 0.00000950
0.00614280 0.05228306 0.03878199
0.02114292 -0.46932347 0.13348378
-0.24579975 -0.27783579 0.00000000
-0.22956498 0.25311410 -0.00000001
0.02755290 -0.54895240 0.17395258
0.12407249 -0.54089243 0.78331592
-0.08538849 0.61705426 -0.00000004
0.10946257 -0.17872334 0.69107366
-0.06945571 0.71310411 -0.00000014
-0.23518956 -0.13545169 0.00000000
-0.66690746 -0.69609296 -0.00000020
0.08373648 0.23404329 0.52865747
0.04417763 -0.68604196 0.27891120
-0.09491191 0.18743214 0.00000000
-0.27412896 -0.76403913 0.00000000
0.05817066 -0.66753711 0.36725488
-0.21219106 0.44315508 0.00000189
-0.20148365 0.35021355 0.00000364
0.04029624 0.26539082 0.25440548
-0.18430562 0.58366077 0.00000007
0.04688258 0.46482222 0.29598439
-0.77806506 -0.49063777 -0.00000077
0.04692492 0.20243009 0.29628531
0.01672776 0.48800214 0.10562993
0.05583729 -0.50443489 0.35252338
-0.57710787 -0.28394003 -0.00000055
-0.69650931 -0.00681245 -0.00000155
-0.26030502 -0.00295277 0.00000000
0.07240734 0.01665727 0.45713314
0.04924191 -0.49184765 0.31088404
0.00183293 -0.77262517 0.01157204
-0.09754161 -0.30025009 0.00000000
0.09563357 0.11294651 0.60377257
0.01769268 0.54858857 0.11170082
-0.03600167 -0.45492580 0.00000000
-0.57641463 0.14342861 -0.00000130
-0.12821240 0.51140039 -0.00000004
-0.03539889 -0.39019886 0.00000000
-0.16708468 0.34817869 0.00000000
0.05805128 0.14668936 0.36649850
0.11536530 0.01380196 0.72833688
-0.26604470 0.15058884 0.00000000
-0.18453033 -0.78963023 0.00000000
-0.76268298 -0.68563891 -0.00000029
-0.04621260 0.46595836 0.00000000
-0.50061500 0.22524306 -0.00000001
-0.43199768 -0.56820077 0.00000000
0.07314940 0.06772548 0.46181734
0.02172772 -0.69372037 0.13717590
-0.10705292 -0.12253001 0.00000000
-0.40855435 0.15280382 -0.00000060
-0.16805220 -0.11768760 0.00000000
0.03253349 -0.23667091 0.20539703
0.10723423 0.09838108 0.67700258
-0.12484219 0.51689549 0.00000233
-0.52468206 -0.24017087 -0.00000040
0.06728183 0.01602306 0.42481108
-0.33795055 0.26517969 0.00000244
-0.17167908 -0.28872582 0.00000000
0.01589425 0.56125590 0.10036090
-0.26821436 0.14739580 0.00000000
0.00476802 -0.21898741 0.03010242
0.04589112 -0.46155497 0.28972916
-0.55939162 -0.16180393 -0.00000069
-0.22501085 0.15307691 0.00000631
-0.57968985 -0.46904879 -0.00000023
-0.45936118 0.12166129 0.00000251
0.03236472 0.01278828 0.20433154
-0.46470827 -0.43731936 0.00000000
-0.42247959 0.19972307 -0.00000074
-0.18968066 0.49163640 0.00000151
0.07833872 -0.29388249 0.49458273
0.03179154 -0.57673531 0.20071284
-0.34036831 0.01284892 0.00000661
0.05542288 -0.45291613 0.34990702
-0.44958080 -0.79753633 0.00000000
-0.36251188 -0.04291194 -0.00000006
0.01703905 -0.39244378 0.10757438
0.03092259 0.12557592 0.19527478
-0.67197875 -0.20236675 -0.00000110
0.08664557 -0.74546434 0.54702848
0.05421529 -0.73241231 0.34228302
0.11291525 0.00474941 0.71287682
0.00084366 -0.74699773 0.00532640
-0.73439633 -0.00508433 -0.00000171
-0.19304462 0.08806767 0.00000777
0.00332856 0.45813727 0.02101456
-0.23249614 0.36930506 -0.00000023
-0.25555532 0.04682641 0.00000000
-0.46817265 -0.33315170 0.00000000
0.04241474 -0.56008656 0.26778140
-0.77563884 -0.41125054 -0.00000097
-0.07656822 -0.79017350 0.00000000
0.02073305 0.57294819 0.13090487
-0.15958335 0.08086503 0.00000000
-0.32825307 0.02387407 0.00000666
-0.13803037 0.36769449 0.00000000
0.02854515 0.55774411 0.18022108
-0.28870467 -0.14710752 0.00000000
0.01385013 0.44114367 0.08744144
0.06694413 -0.11000424 0.42264396
-0.47860055 0.27982207 -0.00000050
-0.07883697 -0.42469281 0.00000000
0.08948325 -0.65280139 0.56494389
0.00179009 0.26915739 0.01135216
0.03075911 0.45340616 0.19420875
0.02899926 -0.23426428 0.18308403
0.02300731 0.20113816 0.14525447
-0.04099126 0.30251278 0.00000000
0.02954736 0.33382130 0.18654439
0.03098647 0.11775957 0.19563008
0.06536070 0.16813241 0.41266649
-0.35763317 -0.28718687 0.00000000
0.00483588 0.12758231 0.03059346
-0.06822078 0.42697022 0.00000000
-0.43069273 0.07871787 -0.00000056
-0.11522412 0.23479368 0.00000000
-0.17313784 0.06513427 0.00000000
-0.40103204 -0.55841431 0.00000000
0.02847445 -0.51980773 0.17977070
0.05448623 0.31942241 0.34398967
0.09726019 0.06015113 0.61404672
0.00504056 0.02998483 0.03182309
-0.70890305 -0.51547438 -0.00000070
0.08260780 -0.33712563 0.52153488
-0.57047962 -0.27191359 -0.00000054
0.08489721 -0.26524618 0.53598770
-0.17979789 0.21563881 0.00000000
0.00702066 0.47043687 0.04435228
-0.06746356 0.00732394 0.00000000
0.03415836 0.32689263 0.21565493
0.00038420 0.05984746 0.00242559
-0.59919037 -0.62949257 -0.00000003
0.04028740 -0.34077983 0.25435060
0.01347985 0.67331681 0.08510704
-0.59686121 -0.48478090 -0.00000028
-0.02719659 0.62210095 0.00000000
-0.03778221 0.33731950 0.00000637
-0.78348247 -0.14996709 -0.00000163
-0.78388763 -0.65840173 -0.00000035
-0.13824762 0.03163564 0.00000000
0.00718935 -0.30003606 0.04538924
-0.56439513 -0.32843547 -0.00000041
0.06826689 -0.48290604 0.43099647
0.08179427 -0.47896115 0.51640023
-0.24195458 0.45972730 -0.00000043
0.04031820 -0.35127930 0.25454509
-0.38756269 0.35944159 -0.00000008
0.02741135 0.09478777 0.17311189
0.03037231 0.28782944 0.19178520
-0.07646626 -0.66359560 0.00000000
-0.39158346 0.37873022 -0.00000048
-0.64619437 0.14623088 -0.00000160
0.02052751 -0.17188915 0.12959846
0.06567755 0.07036083 0.41467776
0.06292863 -0.37676147 0.39729384
0.00259051 -0.37084152 0.01635493
0.03480358 0.05353774 0.21978183
0.06714930 0.18877035 0.42395476
-0.12612976 0.00862214 0.00000997
0.10279917 -0.45935042 0.64900910
0.02540601 0.39430680 0.16039842
-0.65792352 -0.77063761 -0.00000003
-0.21400572 -0.51092955 0.00000000
0.03983600 0.01156936 0.25155476
-0.44234954 -0.37280162 0.00000000
0.00047863 0.53039593 0.00302179
-0.23962668 -0.48767390 0.00000000
-0.20210016 -0.45829454 0.00000000
0.04807591 -0.56649740 0.30352261
0.04023303 0.17937846 0.25404484
0.10574666 -0.16149656 0.66761404
-0.33999240 0.29328913 0.00000194
-0.37588208 0.40624896 -0.00000091
0.11699298 -0.45317197 0.73861862
-0.16832490 0.21274453 0.00000627
-0.43773003 -0.58109327 0.00000000
-0.12154651 -0.56057417 0.00000000
-0.51834649 0.14644518 -0.00000106
-0.20817250 -0.48423938 0.00000000
0.10013490 -0.43962062 0.63218873
0.02543808 -0.43974490 0.16060087
-0.65802384 -0.33465855 -0.00000080
0.07876198 0.17321227 0.49726246
-0.02744309 0.49735223 0.00000000
0.03639558 0.56547461 0.22977640
0.11984244 -0.69687760 0.75661228
0.04008023 0.10042256 0.25304268
0.03731031 0.15320735 0.23559677
0.08879631 -0.19749114 0.56060289
-0.40733714 -0.15015732 -0.00000006
0.06459439 -0.25694761 0.40781044
0.03639756 0.36887600 0.22981154
-0.79256067 -0.74610974 -0.00000013
-0.45049955 -0.61094896 0.00000000
0.02609379 0.10280735 0.16479360
0.06435757 -0.54605918 0.40631532
0.04517279 0.31661895 0.28519172
-0.23576346 0.33698179 0.00000321
0.06841829 -0.03270892 0.43194987
0.01205903 0.26308447 0.07617888
0.03434892 0.20974543 0.21689649
0.04924562 0.13474606 0.31090647
-0.38143084 -0.47401586 0.00000000
0.09902526 -0.05761973 0.62517916
-0.41662477 0.30885152 -0.00000091
-0.06201573 0.15399725 0.00000000
-0.43697798 -0.69326456 0.00000000
0.10913898 0.01568956 0.68902860
0.06813063 -0.79515340 0.43013620
0.00432882 -0.26589076 0.02732959
-0.19871743 -0.42093167 0.00000000
-0.18271631 0.03250409 0.00000876
-0.01958168 -0.59213885 0.00000000
-0.60686050 -0.08162638 -0.00000103
0.07636088 -0.52373786 0.48209709
-0.24678357 0.37499944 0.00000236
-0.10287574 -0.52972128 0.00000000
-0.13436623 0.27411902 0.00000586
0.05424603 0.18250603 0.34250261
-0.34713323 -0.34899196 0.00000000
0.04548725 0.43291164 0.28718363
0.00711250 0.38843896 0.04494008
0.06156712 0.34478778 0.38869270
0.05455428 0.17472957 0.34444937
-0.05722313 0.72114581 -0.00000010
