ply
format ascii 1.0
element vertex 1381
property float x
property float y
property float z
end_header
-0.42491234 -0.27637758 0.22593806
-0.16676448 -0.17332278 0.00000000
-0.24275622 -0.55524011 0.00000000
-0.54169217 0.10371842 -0.00000108
-0.21834626 -0.64844728 0.00000000
-0.03815092 0.27565318 0.02028591
-0.04935503 -0.66550115 0.00000000
-0.46858001 -0.26621771 0.24915779
-0.44421064 0.06153148 0.00000380
-0.14460335 0.55119649 -0.00000018
-0.27391889 0.46840699 0.14565162
-0.53596169 -0.54328281 0.28498623
-0.58231375 0.01868780 0.30963304
-0.31224927 -0.09064436 0.16603169
-0.22276235 0.29355456 0.00000418
-0.17846211 -0.65054624 0.09489331
-0.40306312 -0.65345162 0.21431996
-0.49709733 -0.75417935 0.00000000
-0.48580726 0.15934736 -0.00000094
-0.49076015 -0.48874623 0.26095110
-0.55869854 0.23340075 -0.00000138
-0.18354271 -0.61359216 0.00000000
-0.02100416 0.38878407 0.01116212
-0.36539409 0.17174658 0.19429141
-0.04338866 0.70137099 0.00000081
-0.35151133 0.07257598 0.18690914
-0.35337268 -0.58827786 0.18789817
-0.36914196 0.14308262 -0.00000041
-0.62332641 -0.35914644 -0.00000061
-0.09907081 0.38341657 0.00000475
-0.02670004 0.66041047 0.00000169
-0.18342201 -0.61906276 0.00000000
-0.04205455 0.50346767 0.00000381
-0.13943231 0.51102170 -0.00000008
-0.39751816 -0.65864090 0.00000000
-0.00704138 0.72194448 0.00000106
-0.19572144 -0.28481010 0.00000000
-0.59380976 -0.10338395 -0.00000094
-0.21198226 0.53394061 0.11271745
-0.41055142 0.31683745 -0.00000090
-0.37520861 0.06576948 0.00000506
-0.41479005 -0.48774912 0.22055550
-0.29927982 0.18007778 0.15913153
-0.02346260 0.31205635 0.01247572
-0.65504932 -0.19746551 -0.00000103
-0.57800068 0.01132973 0.30733941
-0.22820868 0.25060598 0.12134048
-0.08506075 -0.43981219 0.04522919
-0.50504617 -0.23349418 0.26854827
-0.45219129 -0.68626615 0.24044279
-0.27079945 0.44758270 0.14399284
-0.09075076 -0.71015768 0.04825473
-0.14843319 -0.26671533 0.07892609
-0.33760733 0.04305308 0.17950973
-0.01527857 -0.54027283 0.00812405
-0.24415689 0.25385794 0.12982543
-0.24628849 -0.64166050 0.13095849
-0.37828494 -0.05053111 0.20114527
-0.28540544 -0.11292526 0.15175808
-0.25404704 0.26064627 0.13508034
-0.65298656 -0.52049235 0.34721254
-0.32692385 0.18491703 0.00000400
-0.27220610 0.26148556 0.00000377
-0.10323965 0.15539086 0.00000811
-0.04146780 0.27110472 0.02204959
-0.35325875 0.14112746 0.18783433
-0.17398308 -0.76175208 0.00000000
-0.51314099 -0.60651475 0.27285146
-0.58413262 -0.68065715 0.00000000
-0.60567862 -0.34707608 -0.00000056
-0.70309419 -0.13083579 -0.00000136
-0.43620107 0.08128410 0.00000363
-0.08926836 -0.25227800 0.00000000
-0.30675450 0.27126310 0.16311091
-0.21977946 -0.64462388 0.11686290
-0.29490714 -0.45500282 0.00000000
-0.07250182 0.36491883 0.03854547
-0.60878874 -0.32815794 0.32371167
-0.09026407 0.42730534 0.04799594
-0.05561718 0.44546516 0.02957321
-0.19300620 0.24303229 0.10262133
-0.06640440 0.42809132 0.00000000
-0.74153525 0.05566040 -0.00000185
-0.01646207 0.47465078 0.00000000
-0.00788263 0.10242194 0.00000000
-0.44036425 -0.28546832 0.23415438
-0.06354313 0.04444495 0.00001037
-0.38337291 -0.54301123 0.00000000
-0.13599231 0.35554344 0.00000461
-0.26902119 0.18324177 -0.00000006
-0.22682060 0.35887339 -0.00000019
-0.21535122 -0.31481457 0.00000000
-0.42104836 0.12988755 0.00000311
-0.28040847 0.34749827 0.14909982
-0.74021149 -0.54171469 -0.00000065
-0.13480581 0.04369808 0.07167015
-0.09110036 -0.70727259 0.04844061
-0.03936636 0.59162269 0.00000000
-0.22404366 -0.32400593 0.00000000
-0.05881679 0.48951610 0.00000377
-0.67876295 -0.28804882 0.36091954
-0.10909046 0.55841975 0.05800663
-0.79737391 -0.77557806 -0.00000006
-0.40687093 -0.44427595 0.00000000
-0.01485209 0.37613406 0.00789727
-0.16739121 -0.20978018 0.00000000
-0.27060154 -0.52898432 0.14388643
-0.62788385 0.02189470 -0.00000130
-0.26475456 -0.29506265 0.14077742
-0.67596753 -0.70692410 -0.00000022
-0.03518054 0.07742910 0.01869524
-0.69771075 -0.75932405 0.37099286
-0.05765606 0.70701418 0.03065709
-0.65657874 -0.36441132 0.34912321
-0.51435529 -0.17492707 -0.00000047
-0.16039045 0.15138439 0.00000731
-0.58238286 -0.43023714 -0.00000031
-0.22480869 -0.04881654 0.11953709
-0.24161692 -0.05855407 0.12847449
-0.03911885 0.03695201 0.00000000
-0.01168046 0.39079725 0.00000000
-0.47662906 -0.68043503 0.25343704
-0.24951394 0.35730504 0.13267429
-0.20304873 -0.34350916 0.00000000
-0.20838167 0.24130247 0.00000000
-0.48378156 -0.22377785 -0.00000025
-0.00793791 -0.59292905 0.00000000
-0.28514025 -0.35382350 0.15161707
-0.38788040 0.38878022 -0.00000058
-0.00674830 -0.77351918 0.00358826
-0.17723408 -0.19739645 0.00000000
-0.48880789 0.17500623 -0.00000098
-0.03946803 0.02479466 0.02097424
-0.14427870 0.42812123 0.00000000
-0.59314609 -0.14363941 0.31539447
-0.30722016 0.08697680 0.00000601
-0.37682218 0.13828853 0.20036804
-0.22299866 -0.27277398 0.11857464
-0.10305555 0.54877985 0.05479762
-0.57690934 0.21542199 -0.00000131
-0.32352182 -0.67355917 0.17202563
-0.00741994 -0.32228439 0.00000000
-0.76311626 -0.61014904 -0.00000047
-0.66581194 0.01175992 0.00000038
-0.43273120 0.01428065 0.23009652
-0.30390423 0.25402637 0.16159201
-0.22945239 -0.24368106 0.00000000
-0.21433848 -0.19188628 0.11396978
-0.48994596 -0.41395942 0.26051839
-0.67192103 -0.76362258 0.35727965
-0.18546130 0.45171256 0.09861545
-0.48498284 -0.61517450 0.00000000
-0.31046780 0.00922336 0.16507752
-0.25424037 -0.72791434 0.13518673
-0.06642159 0.56507277 0.03531822
-0.23489207 -0.03077052 0.00000000
-0.31202615 -0.68265848 0.16591306
-0.54401028 -0.23848705 0.28926689
-0.52754956 0.02262289 0.28051201
-0.46471970 0.07761841 0.24710299
-0.39023589 0.31898976 0.20750052
-0.43859322 0.03674486 0.23320933
-0.29240304 0.34752429 0.00000194
-0.38986663 0.36147061 -0.00000016
-0.06792131 0.15201413 0.00000869
-0.04470597 0.17243839 0.00000874
-0.44967777 0.08309740 0.23910448
-0.37642824 0.00820020 0.00000600
-0.42301924 0.03299421 -0.00000045
-0.59990380 -0.33401290 -0.00000056
-0.10699170 0.58360771 0.00000156
-0.39213835 0.06199338 0.20851197
-0.03690293 0.72051703 -0.00000002
-0.08101443 0.56146566 0.00000000
-0.22392216 0.57320354 -0.00000055
-0.29026773 0.30482692 0.15434440
-0.58083677 0.00227938 0.30884960
-0.46822236 0.25795264 0.24896901
-0.10191880 0.05962306 0.05419308
-0.31581932 0.47811493 -0.00000078
-0.14673268 0.50684327 0.00000208
-0.69683416 -0.74966141 0.37052679
-0.45268380 -0.29535571 0.00000000
-0.25497736 0.20671872 0.13557401
-0.14974028 -0.60844967 0.00000000
-0.40234689 -0.41422127 0.21393912
-0.23678665 0.36344839 0.12590402
-0.69272627 -0.00871068 0.36834528
-0.25089812 0.22709729 0.13340991
-0.09110046 0.11227309 0.04843108
-0.16974108 -0.10043255 0.09025609
-0.04492813 -0.47477179 0.00000000
-0.40642385 -0.46098362 0.21610696
-0.35212061 -0.30948158 0.18723240
-0.04776838 0.69929290 -0.00000003
-0.12167386 -0.13481907 0.06469740
-0.12014983 0.00552274 0.06388704
-0.44448139 -0.22651675 -0.00000008
-0.34223975 -0.57370595 0.18197847
-0.07001069 -0.59979520 0.00000000
-0.10147015 -0.71307606 0.05395453
-0.30467083 0.30933383 0.00000235
-0.25088397 0.43396637 0.13340169
-0.26251064 -0.21775548 0.13958427
-0.40741063 0.21164543 0.21663325
-0.15455610 0.48401173 -0.00000010
-0.07025453 -0.74609231 0.03735630
-0.40807166 0.16315033 0.21698460
-0.60839743 -0.74762602 0.00000000
-0.56621930 0.17450593 -0.00000043
-0.19281950 0.02702779 0.00000869
-0.62595683 -0.23601175 -0.00000084
-0.25442464 0.50904280 -0.00000003
-0.04043804 -0.35443178 0.00000000
-0.14145245 -0.69382480 0.00000000
-0.17851601 0.52110837 -0.00000027
-0.39684286 -0.35682436 0.21101248
-0.33095879 0.43810874 -0.00000031
-0.03382055 0.50828640 0.01797917
-0.55681872 -0.45128507 0.29607695
-0.18189851 0.24207476 0.00000000
-0.60109438 0.17182272 -0.00000145
-0.13521923 0.11846450 0.00000818
-0.29749083 0.24011401 0.15818499
-0.27661236 0.05745174 0.00000696
-0.21882923 0.34673904 -0.00000013
-0.04031003 0.37738443 0.00000573
-0.15406241 0.08199405 0.08191042
-0.33207822 -0.65439818 0.00000000
-0.25362820 0.19383141 0.13485634
-0.12674545 0.42012174 0.00000000
-0.09005183 0.51028425 0.00000000
-0.50303814 -0.68167914 0.00000000
-0.51203325 0.15945883 0.27226474
-0.25130618 -0.06662581 0.13362654
-0.45141766 0.32337370 -0.00000108
-0.03309728 0.65171772 0.00000172
-0.42010444 -0.55259233 0.00000000
-0.41389540 -0.23284454 0.00000000
-0.06914270 0.43044555 0.00000450
-0.45580950 -0.40179775 0.00000000
-0.56951608 -0.36805555 -0.00000037
-0.69069431 -0.09135978 -0.00000137
-0.03194349 0.17963851 0.01697563
-0.11016043 0.51468391 0.00000262
-0.05280648 0.14610108 0.00000000
-0.08688595 0.22528776 0.04619189
-0.64359606 -0.62559082 -0.00000023
-0.40554338 -0.41221099 0.21563879
-0.55932097 -0.41204890 -0.00000024
-0.36752911 0.18753383 0.19542356
-0.12323716 0.49917143 0.06552616
-0.54600092 -0.67031369 0.29032407
-0.15280832 -0.76270491 0.08125247
-0.20415883 0.43722434 0.10855757
-0.50762526 0.10323769 0.26992068
-0.18873325 -0.77045304 0.10035476
-0.40125382 -0.70978832 0.21335791
-0.00119423 0.79423120 0.00000007
-0.08877721 -0.33186087 0.00000000
-0.38096492 0.05364162 0.00000515
-0.45402419 0.25896798 0.24141952
-0.51439817 -0.70472949 0.27351993
-0.23452211 0.47472584 0.00000093
-0.15717318 0.28962898 0.00000528
-0.11085452 0.33118660 0.00000000
-0.07587655 0.46389730 0.00000390
-0.00040698 -0.12623551 0.00000000
-0.41752098 -0.21868138 0.22200799
-0.20342885 -0.26885105 0.10816882
-0.54060974 0.12144341 -0.00000111
-0.44506374 -0.65196773 0.23665287
-0.70219177 -0.29148819 0.37337736
-0.14096156 0.12873428 0.00000000
-0.53810358 -0.31256835 0.28612585
-0.21677942 -0.22423497 0.00000000
-0.28153757 -0.58123633 0.14970142
-0.28515830 0.32541742 0.15162514
-0.03589644 0.70086905 0.00000095
-0.37440028 0.10695873 0.19908013
-0.56203539 0.19503991 -0.00000133
-0.13167395 -0.47576933 0.00000000
-0.01094784 -0.06577636 0.00000000
-0.26021502 0.17440894 0.13836389
-0.43557679 -0.07291207 -0.00000032
-0.36826235 -0.17615407 0.00000000
-0.10002995 0.62004737 0.05318901
-0.15436549 0.18424804 0.08208046
-0.01391336 -0.35665769 0.00000000
-0.66186873 -0.27658035 0.35193639
-0.75069893 0.00399140 -0.00000112
-0.35466875 -0.03706108 0.18858773
-0.19324210 0.56328084 0.10275284
-0.45426621 0.07021663 0.00000347
-0.46078679 -0.08494051 -0.00000040
-0.47412740 -0.74278592 0.25210683
-0.76034181 -0.62746945 -0.00000043
-0.08874371 0.33630944 0.04718158
-0.05280762 0.42292074 0.00000486
-0.48250670 -0.23769988 0.25656320
-0.16033810 -0.74373118 0.08525626
-0.31157046 -0.45366160 0.00000000
-0.42442022 0.36765487 -0.00000105
-0.37947961 0.10228454 0.20177665
-0.48309398 0.00090440 0.25687213
-0.12025243 -0.48752862 0.06394159
-0.26120862 -0.74615735 0.00000000
-0.34943550 -0.20301048 0.18580466
-0.78990509 -0.52403322 -0.00000069
-0.39673787 0.16395251 0.21095801
-0.33738988 -0.09220089 0.00000000
-0.03887250 -0.31925406 0.00000000
-0.42616473 -0.70754377 0.00000000
-0.20160373 0.27670844 0.10719368
-0.09413082 -0.49736780 0.00000000
-0.45218397 -0.44006256 0.00000000
-0.16755453 0.29035054 0.08908826
-0.63269020 0.04521057 0.00000046
-0.11251413 0.05238559 0.00000952
-0.04244642 -0.26757040 0.00000000
-0.16457395 -0.36480366 0.08750859
-0.09523242 0.66876749 0.05063814
-0.40023858 0.31989747 0.00000033
-0.47300418 -0.14783118 -0.00000034
-0.11735728 0.12600576 0.06239330
-0.10757851 0.03102669 0.00000991
-0.00152413 0.41531506 0.00080411
-0.08578410 0.62822783 0.00000122
-0.47469528 -0.61765239 0.25240879
-0.19853139 -0.13100035 0.10556471
-0.60099846 0.00833377 0.31956853
-0.22969382 0.52614616 0.12213572
-0.54108295 0.11086170 0.28771015
-0.20428579 0.37089478 0.10862488
-0.18168734 0.34176896 0.00000000
-0.33058501 0.19380566 0.17578222
-0.68857189 -0.44048373 0.36613467
-0.37241543 -0.65231978 0.19802373
-0.00711603 -0.37311655 0.00000000
-0.30914116 -0.09860695 0.00000000
-0.59953287 0.14883922 -0.00000064
-0.49677534 -0.52974654 0.26414947
-0.63555714 -0.35412893 0.33794532
-0.48188327 -0.13096105 -0.00000041
-0.64837014 -0.12239805 0.34475917
-0.36613139 0.34547319 0.00000056
-0.27759787 0.18054511 0.00000502
-0.61074904 -0.23009498 -0.00000079
-0.18585243 0.40451534 -0.00000009
-0.11640445 0.67037111 -0.00000007
-0.57635024 0.13009321 0.30646434
-0.12848585 0.63400538 0.06831976
-0.20063755 -0.34940237 0.00000000
-0.02162943 -0.03943439 0.00000000
-0.53237221 -0.10274927 -0.00000068
-0.17325774 0.24723252 0.09212600
-0.30313235 0.04062266 0.00000000
-0.00371644 0.47714934 0.00197613
-0.23112055 0.46416319 0.12289298
-0.77729809 -0.78379607 -0.00000004
-0.00316985 -0.18807501 0.00168550
-0.27567288 -0.02449532 0.14658300
-0.25699497 0.24458190 0.00000434
-0.21349242 -0.28556680 0.11351991
-0.47868894 -0.19543535 0.25453329
-0.30436270 0.12934308 0.16183868
-0.49987077 -0.72306792 0.26579531
-0.31318775 0.12747616 0.16652613
-0.22807120 -0.15033759 0.12127185
-0.01294744 0.56269495 0.00688085
-0.43051874 0.12128813 0.22892040
-0.42994035 -0.47645278 0.22861134
-0.06291878 0.02920783 0.03344418
-0.50331590 -0.51432558 0.26762737
-0.66312226 -0.79499031 -0.00000001
-0.07305481 0.62283355 0.03884383
-0.40746192 -0.70084223 0.21665893
-0.32907482 -0.51871435 0.17497831
-0.51482856 -0.11239151 0.27375029
-0.72060589 -0.57020341 -0.00000057
-0.43154893 -0.20008997 0.22946721
-0.63844925 -0.32345626 -0.00000074
-0.03529099 0.33161592 0.01875817
-0.55547536 0.23830618 -0.00000128
-0.20026621 0.25744797 0.10648207
-0.18382115 -0.17057956 0.00000000
-0.13962906 -0.74751774 0.00000000
-0.08513784 0.05501502 0.04527018
-0.19572126 0.45971361 -0.00000023
-0.67189556 -0.50350600 0.35726711
-0.10141788 0.32469750 0.00000000
-0.57853312 0.10957348 0.30762442
-0.15411228 -0.33079318 0.08194582
-0.73816573 0.01179697 -0.00000176
-0.11909831 0.53212044 -0.00000003
-0.18346216 0.06819953 0.09755197
-0.13051678 0.04458495 0.06939943
-0.25658469 -0.16348484 0.13643328
-0.03517015 0.02460632 0.00001110
-0.07752335 0.37290739 0.00000524
-0.02780598 0.18672830 0.00000000
-0.10930752 0.52996293 0.05811960
-0.21799399 0.44542253 0.11591425
-0.51195933 0.17875079 0.27222482
-0.05478848 0.16830319 0.02913257
-0.44645896 -0.46238547 0.00000000
-0.14920296 0.49822950 -0.00000010
-0.08503440 -0.43720179 0.04521517
-0.15956301 -0.56783177 0.00000000
-0.12195983 -0.20476159 0.00000000
-0.66489613 -0.25270919 -0.00000098
-0.08372209 -0.62595295 0.04451739
-0.19079917 -0.19141570 0.00000000
-0.10030210 0.68272145 0.00000003
-0.11435667 0.48523979 0.06080365
-0.14444176 -0.79173275 0.00000000
-0.21074225 0.23786375 0.00000000
-0.12359472 -0.06528589 0.06571878
-0.04508265 0.56234138 0.02397171
-0.59097232 0.18107594 -0.00000143
-0.29265137 0.22922383 0.15560777
-0.45808959 -0.76966929 0.24357908
-0.07351552 0.13435658 0.00000000
-0.70560234 0.06848706 -0.00000133
-0.25283663 -0.03047440 0.13444033
-0.26293853 -0.77678735 0.13981179
-0.26347963 -0.50395741 0.14009951
-0.69109395 -0.54903947 -0.00000056
-0.09408555 0.56409564 0.00000000
-0.19692314 -0.73430834 0.00000000
-0.00336434 0.04585974 0.00178891
-0.36648995 0.36062302 0.00000030
-0.02140958 0.04600425 0.01137205
-0.64932840 0.09628665 -0.00000153
-0.20768203 -0.21735372 0.11043036
-0.35621350 0.26497518 0.18941004
-0.24657954 -0.26840532 0.00000000
-0.49152784 0.17214462 0.00000105
-0.06679692 0.27404375 0.00000000
-0.61206273 -0.75411659 0.32545117
-0.14567850 0.50416659 0.00000214
-0.54783288 -0.64584540 0.00000000
-0.09803787 -0.28479505 0.00000000
-0.70570526 -0.66735828 -0.00000033
-0.39124629 0.32073583 -0.00000082
-0.52315687 -0.39136759 0.27817791
-0.75861671 -0.28299609 -0.00000129
-0.02869055 0.05117728 0.00000000
-0.18725021 0.53025104 0.09956599
-0.33764207 -0.78996634 0.00000000
-0.40512229 0.03548389 0.21541593
-0.31057077 -0.18476992 0.16513919
-0.16319492 -0.08471077 0.00000000
-0.08474104 0.40659348 0.00000462
-0.23456190 0.11498997 0.00000000
-0.26109357 0.20805814 -0.00000007
-0.41487697 -0.17976901 0.22060219
-0.12208387 0.04967321 0.00000000
-0.19306287 -0.15338929 0.00000000
-0.28358892 -0.25307877 0.15079218
-0.38319403 -0.42667357 0.20375501
-0.56587419 -0.52676155 0.30089185
-0.47455514 -0.59710205 0.25233428
-0.56371669 0.01869672 0.29974397
-0.34084109 -0.26458238 0.18123476
-0.02962808 0.35278592 0.01574728
-0.39049516 -0.73029755 0.20763723
-0.19246811 0.27876231 0.10233580
-0.62279617 0.03888679 0.00000075
-0.67556400 -0.11990832 0.35921914
-0.35612715 -0.60384591 0.18936279
-0.58964140 -0.72108695 0.31352914
-0.10068714 0.23535613 0.00000695
-0.35695713 -0.60681974 0.18980411
-0.15465130 0.02254560 0.08223244
-0.48628535 -0.24468231 0.25857242
-0.09166522 0.65924403 -0.00000014
-0.40114737 0.06475960 -0.00000041
-0.12120631 0.41682263 0.06444879
-0.03402286 0.46608012 0.01808605
-0.28968008 0.39427262 0.15403094
-0.15741377 -0.33868550 0.00000000
-0.53970412 0.19338109 -0.00000023
-0.11091999 -0.67865826 0.05897927
-0.17799723 0.43357233 0.09464382
-0.28668167 0.33758334 0.15243543
-0.57641443 0.07661950 0.00000101
-0.01024832 0.30303967 0.00000000
-0.19906788 0.33925957 -0.00000004
-0.15282633 -0.31194413 0.00000000
-0.22364638 -0.26905014 0.00000000
-0.53107889 -0.16117150 0.28239103
-0.11648211 0.01533376 0.06193681
-0.04064683 0.30475129 0.02160568
-0.01630275 0.61658293 0.00000251
-0.31760213 0.15951971 0.16887865
-0.52113499 0.12956540 0.00000119
-0.69589602 -0.57044256 -0.00000055
-0.31262244 0.39179608 0.16623060
-0.17744176 0.38122379 0.09434744
-0.23111263 -0.47260116 0.12288907
-0.42908868 -0.33751950 0.00000000
-0.46102431 0.08030317 0.24513800
-0.12976421 -0.71747350 0.00000000
-0.66529783 -0.10181610 0.35376029
-0.70372199 -0.26317744 -0.00000112
-0.25014472 -0.32884856 0.13300896
-0.06367215 0.45003768 0.00000429
-0.74610736 -0.16523643 -0.00000148
-0.02145408 -0.62801628 0.01140774
-0.59621817 -0.73464749 0.00000000
-0.05589073 -0.75356831 0.02971867
-0.01300399 -0.72457746 0.00000000
-0.45523740 0.04585548 0.00000386
-0.08497529 -0.56644454 0.04518375
-0.70895760 0.00564102 -0.00000035
-0.18554163 -0.47610878 0.00000000
-0.20196085 0.35288480 0.10738857
-0.52991051 0.19365847 0.28177074
-0.58477473 -0.00989602 0.31094352
-0.14093214 -0.17670071 0.07493757
-0.12325467 -0.02886039 0.06553797
-0.13819173 0.45180662 0.00000314
-0.12792285 -0.78895712 0.00000000
-0.21448721 0.08029235 0.00000756
-0.09729251 -0.29288106 0.00000000
-0.05064412 0.55256405 0.02692579
-0.40638296 -0.50860785 0.00000000
-0.14416468 0.33622057 0.07665152
-0.39879997 0.23980072 0.21205298
-0.56125765 0.01802290 0.00000228
-0.23406001 0.35981366 0.00000286
-0.53928089 -0.54526655 0.28675116
-0.56022485 0.05510135 0.29788965
-0.09017833 -0.31771771 0.04795035
-0.39046706 0.16257918 0.20762359
-0.21496238 -0.27875276 0.11430153
-0.56042023 0.15622876 -0.00000125
-0.58181363 -0.33439197 0.30936801
-0.69243593 -0.03647674 -0.00000148
-0.69384585 -0.47858802 0.36893886
-0.41240937 -0.31284506 0.00000000
-0.32614545 0.07297568 0.17342118
-0.20391165 -0.79259078 0.10842554
-0.43884636 -0.68525078 0.23334692
-0.32989117 0.01718157 -0.00000002
-0.16544865 -0.27067427 0.00000000
-0.20254576 -0.42560719 0.00000000
-0.08776963 -0.40603863 0.04666957
-0.28996406 0.42836864 -0.00000058
-0.03500988 0.42962060 0.01861030
-0.27253619 0.37918064 0.00000180
-0.39543165 0.08921878 0.21026322
-0.04673646 0.74872457 -0.00000004
-0.77381232 -0.08762338 -0.00000173
-0.32206503 0.10094620 0.17124615
-0.61210797 -0.21039146 0.32547699
-0.08224612 0.02321422 0.00001041
-0.48686639 -0.67966453 0.25888051
-0.46431479 -0.10204560 0.24689031
-0.08356078 0.34153218 0.04442565
-0.41339581 -0.73466835 0.21981415
-0.27924374 -0.30131473 0.14848173
-0.24876887 0.38970347 0.13227820
-0.44422447 -0.47367636 0.23620661
-0.31285481 -0.11284199 0.00000000
-0.48911536 -0.17332017 0.26007746
-0.11921298 0.00568007 0.00000000
-0.10628199 0.40144137 0.05651312
-0.57095276 -0.12631291 0.30359352
-0.04341122 -0.52489020 0.00000000
-0.15905834 -0.25497070 0.08457578
-0.24091561 0.24264824 0.12809729
-0.29072711 -0.00620442 0.00000000
-0.68967253 -0.52229237 0.36671960
-0.12117282 0.33771779 0.06442569
-0.50641432 -0.29271871 0.26927558
-0.69646721 -0.10351774 0.37033415
-0.04791594 0.15773458 0.00000891
-0.53041660 0.02641014 0.28203943
-0.16143799 0.50519402 0.08583974
-0.08046150 0.53328017 0.00000000
-0.75556134 -0.28940348 -0.00000128
-0.17751336 0.00216372 0.09437908
-0.51808871 0.08207137 0.27548229
-0.01402778 0.41076891 0.00745281
-0.03113578 0.71347723 0.01655577
-0.54674585 -0.40525057 -0.00000020
-0.67974287 -0.68375969 -0.00000028
-0.32061722 0.30168333 0.17048013
-0.18923875 -0.72126107 0.10062355
-0.62657693 -0.23935433 0.33317057
-0.18979755 0.52332946 0.00000098
-0.50196899 0.07207160 0.26691295
-0.03520575 -0.16608425 0.00000000
-0.20201641 0.37992021 0.10741819
-0.16212381 0.35128117 0.08620149
-0.31551882 0.17653453 -0.00000024
-0.12196432 -0.43863071 0.00000000
-0.68253868 -0.00730669 -0.00000149
-0.51647287 -0.33104289 0.27462396
-0.39900649 0.02778395 0.00000524
-0.46396337 -0.62208618 0.24670233
-0.01498789 -0.42411686 0.00796948
-0.72923758 0.03372576 -0.00000176
-0.18943197 -0.17140978 0.10072629
-0.44486496 0.10700046 0.23654876
-0.30242206 0.22319570 -0.00000027
-0.17027677 0.29495197 0.09054093
-0.03248471 0.70586237 0.00000092
-0.38665061 -0.75752520 0.00000000
-0.10536784 0.65899654 0.05602713
-0.58602919 0.04730217 0.31160930
-0.14012849 -0.78547066 0.00000000
-0.79323235 -0.21110611 -0.00000147
-0.30075047 0.13009035 0.15991260
-0.47332869 -0.62258572 0.00000000
-0.26162987 -0.56730083 0.13911594
-0.64777509 -0.24278970 0.34444239
-0.19563366 0.12413467 0.00000000
-0.16502280 -0.28387098 0.08774725
-0.53592695 -0.04940117 0.28496926
-0.27569886 0.17190945 0.14659720
-0.36411120 -0.33667482 0.19360813
-0.29916606 0.47498583 -0.00000070
-0.75649098 -0.71607309 -0.00000021
-0.22671879 0.25846456 0.00000469
-0.11100704 0.09792348 0.00000886
-0.62027574 -0.06340910 0.32982053
-0.25849520 -0.63562836 0.13744915
-0.32464179 -0.15120172 0.17262114
-0.55752906 -0.58907820 0.00000000
-0.59491238 0.10497464 0.31633408
-0.01762780 0.02693567 0.00000000
-0.23010248 0.52345034 0.00000020
-0.35875789 -0.78631234 0.19076163
-0.12081192 0.30149107 0.06423318
-0.77368428 -0.63808801 -0.00000040
-0.56354248 -0.67833235 0.00000000
-0.40376925 0.03775733 0.21469647
-0.25396098 0.36776327 0.13503663
-0.29938057 -0.28140537 0.00000000
-0.79798861 -0.60803822 -0.00000048
-0.08180815 -0.25331592 0.00000000
-0.65758482 -0.24050982 -0.00000097
-0.59162029 -0.59051988 -0.00000007
-0.64215799 -0.41694711 -0.00000059
-0.69325965 -0.40661846 -0.00000083
-0.12207216 0.39921148 0.00000000
-0.52142934 -0.06111193 0.27726032
-0.10302387 -0.73334373 0.00000000
-0.32647891 -0.73324265 0.00000000
-0.24719366 -0.05273871 0.00000000
-0.71478708 -0.63459353 -0.00000041
-0.04200052 -0.78233328 0.00000000
-0.12378927 -0.26496714 0.06582222
-0.09303613 0.04763496 0.00000000
-0.11814665 -0.74970159 0.06282189
-0.34488065 0.28524814 -0.00000056
-0.40580176 -0.21446729 0.21577646
-0.65503032 -0.15844385 -0.00000110
-0.08781255 0.62508701 -0.00000007
-0.02436601 -0.14001774 0.00000000
-0.11010752 0.25296000 0.05854035
-0.27543468 0.21354798 0.14645685
-0.05432101 0.70922995 0.02888371
-0.49474736 0.19048835 0.26307330
-0.25506134 -0.49698053 0.13562327
-0.08063486 -0.74770833 0.04287581
-0.55907952 0.06717213 0.29727907
-0.28997900 0.39254377 -0.00000052
-0.13230949 0.34428598 0.07034769
-0.49923627 -0.38762462 0.26545847
-0.66335049 0.10327507 -0.00000110
-0.59892285 -0.36916718 -0.00000049
-0.15033317 0.00554366 0.00000000
-0.40874031 -0.20222768 0.00000000
-0.68378013 -0.36928940 -0.00000085
-0.78409791 -0.51524057 -0.00000071
-0.39936530 -0.08595516 0.21235436
-0.09777584 0.55216565 0.05199021
-0.00032139 0.33266736 0.00000000
-0.58156579 0.08981722 0.30923751
-0.04149227 0.06043320 0.02206260
-0.23443088 -0.06816864 0.00000000
-0.16813906 0.09884500 0.08940425
-0.48150978 -0.22478792 -0.00000024
-0.31984559 -0.41783458 0.17007087
-0.60326881 0.06254257 0.32077771
-0.11366653 0.47169247 0.06043645
-0.21223808 -0.31748106 0.00000000
-0.76436293 -0.46593315 -0.00000084
-0.12071226 0.60147807 0.06418649
-0.78358355 -0.60675349 -0.00000048
-0.62112562 -0.05411685 0.33027247
-0.08348419 0.39873548 0.04439089
-0.11689718 0.47291305 0.00000000
-0.44284230 0.27434444 -0.00000096
-0.15568132 0.42877643 0.08278029
-0.39948465 0.11683625 0.21241843
-0.04303972 0.50444377 0.02288138
-0.26798754 -0.30017029 0.00000000
-0.52765308 0.02219772 0.28056704
-0.24493000 0.08101509 0.13022900
-0.49229166 -0.48092450 0.26176548
-0.25555244 0.21224491 0.13588474
-0.62922733 -0.70925470 0.33457830
-0.17569411 -0.66606776 0.09342149
-0.46436385 0.22864794 0.24691740
-0.11152158 -0.09128316 0.05929915
-0.37227620 0.31475604 0.19795028
-0.12726849 0.40858078 0.06767222
-0.50035925 -0.59859080 0.26605504
-0.01654128 -0.27126583 0.00000000
-0.23135657 -0.07411788 0.00000000
-0.01398079 0.30681068 0.00000719
-0.50181200 0.09866085 0.26682955
-0.09174618 -0.44567559 0.00000000
-0.33123744 0.41810745 0.17612982
-0.22980001 0.10154867 0.00000701
-0.70400821 -0.53107001 0.37434229
-0.54731063 0.23720110 -0.00000111
-0.23532698 -0.04241798 0.00000000
-0.54059256 -0.56241536 0.00000000
-0.08453293 0.47216226 0.04494853
-0.45230079 -0.27942598 -0.00000002
-0.43083114 -0.59951620 0.00000000
-0.77694394 -0.58039290 -0.00000055
-0.42526533 0.28552598 0.22612747
-0.16715534 -0.07961621 0.08888118
-0.23198979 0.09305658 0.00000000
-0.47457661 -0.18992488 0.25234663
-0.10121161 0.15141723 0.00000000
-0.14400866 0.04167588 0.00000000
-0.55835648 0.13943032 0.00000031
-0.28264269 0.47022300 0.15029039
-0.25786020 0.08238132 0.00000000
-0.13325171 -0.74904659 0.07085367
-0.24951564 0.24161423 -0.00000008
-0.12105432 -0.65784952 0.06436798
-0.48822858 0.23558505 0.00000005
-0.33226492 -0.23063953 0.00000000
-0.21481784 -0.43711305 0.11422467
-0.40225826 -0.72578998 0.21389200
-0.27255174 0.50263884 -0.00000064
-0.02440261 -0.52056125 0.01297555
-0.71161605 -0.25159506 -0.00000118
-0.20021800 -0.68402525 0.10646152
-0.70697107 -0.01299153 -0.00000158
-0.38945969 -0.76342489 0.20708664
-0.72631788 -0.50356349 -0.00000074
-0.06020110 -0.06820661 0.03201061
-0.33373540 0.31162158 0.17745597
-0.26109788 -0.73484716 0.00000000
-0.28225985 0.08085442 0.00000653
-0.47606723 -0.50876931 0.00000000
-0.28559811 0.21591569 0.15186112
-0.00094248 -0.16955726 0.00050115
-0.15325839 0.23383406 0.00000000
-0.76457359 -0.07564231 -0.00000172
-0.47182512 -0.08723389 -0.00000045
-0.26746464 0.01762810 0.14221068
-0.38453977 -0.03965320 -0.00000016
-0.46318924 -0.40819184 0.00000000
-0.02184795 -0.40817501 0.01161717
-0.15067796 -0.21973509 0.00000000
-0.07169823 -0.07641161 0.03812396
-0.09709671 0.12240151 0.00000870
-0.46193559 -0.10030781 -0.00000038
-0.36107954 0.06683084 0.00000531
-0.26674783 0.34031526 0.14183557
-0.10923094 0.63506021 0.05808089
-0.17242328 0.49266570 -0.00000019
-0.67162222 -0.47638360 0.35712187
-0.78073155 -0.64851686 -0.00000038
-0.34553845 0.12448060 0.18372871
-0.31688248 0.38071497 -0.00000061
-0.48707816 0.04054485 0.25899486
-0.04100373 0.40292147 0.02180283
-0.16127804 0.28056694 0.00000000
-0.55644234 -0.64646188 0.29587623
-0.24197655 -0.10578328 0.12866572
-0.34267131 -0.13450249 0.00000000
-0.11487536 0.62650031 0.06108288
-0.13375082 -0.67394836 0.07111906
-0.41812701 0.20099602 0.22232948
-0.62096633 0.06564234 0.00000034
-0.52292625 0.14085202 0.27805689
-0.42019189 -0.12737309 0.22342848
-0.78977899 -0.42238546 -0.00000094
-0.21700356 0.53450330 0.00000027
-0.31843137 -0.35011774 0.16931889
-0.26023483 -0.53619175 0.13837416
-0.56083665 -0.65440711 0.29821282
-0.35449602 0.09299025 -0.00000026
-0.56600339 0.12602133 -0.00000122
-0.23700432 0.00942806 0.00000000
-0.36043657 0.22375686 0.19165547
-0.45640288 0.32310619 -0.00000080
-0.01591415 0.42173220 0.00846200
-0.21423384 0.00509318 0.11390514
-0.09999646 0.08990478 0.00000000
-0.07645216 0.43597472 0.00000000
-0.71929044 -0.68182849 -0.00000030
-0.26626601 -0.73508118 0.14158111
-0.09024619 0.34874415 0.00000000
-0.32322964 -0.66323531 0.17187026
-0.68863235 -0.12505529 0.36616803
-0.30071567 -0.54961414 0.15989895
-0.38375682 -0.30723682 0.20405426
-0.38514678 0.22236595 0.00000225
-0.63257937 -0.23657569 0.33636229
-0.68903399 -0.17151078 0.36638142
-0.53214238 -0.12730834 0.28295663
-0.19855695 -0.67030763 0.00000000
-0.53888837 -0.64766993 0.00000000
-0.37172725 -0.78255688 0.00000000
-0.07310861 0.68878019 0.03887371
-0.16750330 0.39242236 0.00000000
-0.13733885 0.31367256 0.07302153
-0.36266051 0.42237061 -0.00000066
-0.19812922 -0.64078144 0.00000000
-0.21323121 0.57458687 -0.00000051
-0.06428891 0.18758345 0.03418421
-0.14096496 -0.35855368 0.00000000
-0.60127638 0.17513614 -0.00000111
-0.44157613 -0.08671647 0.23479939
-0.04443199 0.16270439 0.00000889
-0.12537566 -0.47464835 0.00000000
-0.46711730 -0.66260359 0.24837937
-0.64965698 -0.58994499 -0.00000032
-0.51616348 0.06023304 -0.00000090
-0.30815947 0.00114125 0.00000000
-0.46515477 -0.03323943 0.24733716
-0.49812187 -0.71614327 0.00000000
-0.02992818 -0.63144052 0.01591365
-0.20336419 -0.58345110 0.00000000
-0.57352133 0.03591579 0.00000175
-0.23135551 0.37968671 0.12301886
-0.60217689 0.08702257 0.32019717
-0.65329537 -0.79051865 0.00000000
-0.43851973 0.18806708 0.00000180
-0.22106175 0.01818894 0.11753608
-0.27532150 0.47134861 0.14639718
-0.13634403 -0.52815090 0.07249794
-0.23809603 -0.54090039 0.00000000
-0.02132049 0.56418507 0.01133670
-0.05176087 -0.45634801 0.02752271
-0.10482974 -0.21618109 0.05574091
-0.33060133 -0.13778121 0.17579000
-0.02584612 -0.60867202 0.00000000
-0.32873908 0.42731323 -0.00000074
-0.08169454 -0.14433289 0.04343928
-0.25339854 0.20715939 0.13473941
-0.14469380 -0.73096782 0.07693775
-0.27686909 0.46326893 0.00000031
-0.67164616 -0.04664265 0.35713610
-0.04202402 -0.12311006 0.00000000
-0.61317941 0.08184333 -0.00000135
-0.29651315 0.38585555 0.00000122
-0.07455127 -0.31279266 0.03964100
-0.71574242 -0.62773836 -0.00000043
-0.31575519 0.46227397 -0.00000042
-0.15890830 0.49650637 0.08449640
-0.16792888 0.33246353 0.08929250
-0.30010227 0.13818287 0.00000529
-0.42699704 -0.35655692 0.00000000
-0.32175987 0.42853303 0.17109029
-0.08666998 0.29653215 0.04607822
-0.03072868 0.74975426 0.00000025
-0.10801711 0.18867792 0.00000000
-0.75140642 -0.38593288 -0.00000104
-0.10425773 -0.32972082 0.00000000
-0.01803156 -0.24104345 0.00958788
-0.28487811 -0.00956103 0.15147768
-0.23797079 0.44563626 -0.00000039
-0.39404901 -0.10855028 0.20952742
-0.48073397 0.05740932 -0.00000074
-0.06572606 0.46610615 0.00000000
-0.51036507 -0.22502738 0.27137654
-0.69604846 -0.31515740 0.37011068
-0.66402276 -0.30707315 -0.00000088
-0.46544805 -0.26635959 0.24749241
-0.07748902 0.23298409 0.04119522
-0.53098182 -0.17695267 0.28233936
-0.03051028 0.71233783 0.00000000
-0.25067618 -0.26741395 0.13329156
-0.72612147 0.02811494 -0.00000173
-0.31256794 0.04598276 -0.00000000
-0.07792381 0.67672860 0.04143455
-0.04453968 0.29399671 0.00000000
-0.27373553 0.21361464 0.14554888
-0.34032205 -0.18447172 0.18095878
-0.71111255 0.02626710 -0.00000073
-0.49078790 0.22536912 -0.00000108
-0.60021990 -0.72164554 0.31915410
-0.05764605 -0.66518363 0.03065202
-0.11761105 0.52461951 0.06253493
-0.09469791 0.34968389 0.00000000
-0.21236215 -0.03830013 0.11291891
-0.18450776 -0.72978825 0.00000000
-0.04011800 0.16921750 0.02133186
-0.51447864 -0.48431628 0.00000000
-0.13055826 0.26282778 0.00000609
-0.06270823 0.70216780 0.03334352
-0.10364456 -0.55394815 0.00000000
-0.78934241 -0.79979728 -0.00000000
-0.54911824 -0.15294339 0.29198323
-0.06896683 0.54122229 0.03666865
-0.73953984 -0.53038305 -0.00000067
-0.16909523 -0.40114343 0.08991268
-0.09721842 0.06188745 0.05168345
-0.11353786 0.17407333 0.06036312
-0.13453255 -0.75277022 0.07153473
-0.22063393 -0.59966087 0.00000000
-0.61414005 -0.67993922 -0.00000000
-0.02197805 0.19512653 0.01168635
-0.51202302 0.16682676 0.27225933
-0.43763991 -0.57004521 0.00000000
-0.63214344 -0.35060540 -0.00000066
-0.46305294 -0.10164431 -0.00000038
-0.35004385 -0.18154050 0.00000000
-0.49399627 0.10838020 -0.00000089
-0.45167912 0.00538749 0.24017179
-0.40281719 -0.41708787 0.00000000
-0.17731915 0.24954532 0.00000558
-0.16963139 -0.63820308 0.00000000
-0.16225684 0.46952624 0.08627685
-0.10974751 0.46488817 0.05835241
-0.05438895 0.09845089 0.00000000
-0.49296112 -0.27043774 0.26212210
-0.57748371 -0.40685681 -0.00000033
-0.78404909 -0.10870707 -0.00000173
-0.40398867 -0.77630439 0.00000000
-0.46879733 0.03395274 0.24927045
-0.24756650 -0.08825452 0.00000000
-0.22663417 -0.12565217 0.12050774
-0.46434445 -0.04334342 0.24690626
-0.18539119 -0.36823001 0.00000000
-0.22998820 0.06084188 0.12228340
-0.02878971 0.56907814 0.00000000
-0.05152464 0.50037327 0.00000372
-0.65486581 -0.17935101 -0.00000106
-0.49596597 0.08838202 0.26371855
-0.17218280 -0.69892183 0.00000000
-0.32998459 0.46684701 -0.00000077
-0.10066435 -0.75299377 0.00000000
-0.42553956 -0.47790054 0.00000000
-0.41790733 -0.11765355 -0.00000016
-0.26217376 0.16984236 0.13940002
-0.38936292 -0.50074434 0.00000000
-0.05436405 0.06579298 0.02890689
-0.63176442 -0.59066438 -0.00000024
-0.24838559 -0.09401503 0.00000000
-0.09682532 -0.34404140 0.00000000
-0.09866539 0.35460005 0.05246316
-0.12883608 0.35947452 0.00000466
-0.20337332 0.31446886 0.00000420
-0.44608217 -0.23252802 -0.00000008
-0.00401063 -0.11332230 0.00000000
-0.63529117 -0.37415341 0.33780384
-0.16036515 0.14992302 0.00000000
-0.09344115 -0.69239666 0.00000000
-0.16624901 -0.01543608 0.00000000
-0.08120806 0.52322782 0.00000293
-0.18101284 0.27480711 0.09624961
-0.48533142 -0.59222643 0.00000000
-0.53413988 -0.43686308 0.28401783
-0.20320459 0.06641000 0.10804958
-0.33563063 -0.54866707 0.17846422
-0.61544123 -0.67299752 0.32724794
-0.31186638 -0.32203244 0.00000000
-0.41152934 0.05954023 0.21881842
-0.30724020 -0.26560107 0.16336823
-0.24705244 0.04022484 0.13135692
-0.20539035 -0.57348942 0.10921181
-0.02813946 0.36848527 0.00000000
-0.13119511 -0.51751896 0.00000000
-0.05225991 0.29629618 0.00000677
-0.73261925 -0.27777204 -0.00000122
-0.50603438 -0.30732856 -0.00000020
-0.11646551 0.28557907 0.06192173
-0.20470225 -0.77327084 0.10884593
-0.79810557 -0.34044607 -0.00000115
-0.46946910 0.30243107 -0.00000070
-0.51032192 0.20787125 -0.00000113
-0.31393645 0.39995717 0.16692948
-0.66858139 -0.40458027 0.35550524
-0.28967275 0.31926481 0.15402560
-0.59753425 -0.51126253 -0.00000023
-0.12427636 0.45160748 0.06608123
-0.52117214 -0.74058788 0.00000000
-0.56886166 -0.39115606 0.30248080
-0.46750981 0.07712879 0.24858664
-0.07706960 0.00625399 0.04096846
-0.31368507 0.36752243 0.16679519
-0.00685697 -0.13984358 0.00000000
-0.05039124 0.12915391 0.00000000
-0.29642826 0.04663014 0.00000000
-0.26038227 -0.57592411 0.00000000
-0.03880099 0.28203334 0.00000718
-0.16750856 0.19488402 0.00000000
-0.16987757 -0.45768846 0.00000000
-0.36072157 -0.47162528 0.19180577
-0.50241847 -0.78369283 0.26714999
-0.57906263 -0.43765558 0.30790489
-0.49843890 0.07347770 -0.00000084
-0.36947882 -0.33439553 0.00000000
-0.28749308 -0.21765619 0.00000000
-0.29906288 -0.50069491 0.00000000
-0.09603408 0.37637582 0.05106401
-0.00278666 -0.39798327 0.00000000
-0.55393336 -0.62715849 0.29454217
-0.02407943 -0.57514066 0.01280371
-0.55233765 -0.78435109 0.00000000
-0.37375612 0.21628274 -0.00000056
-0.05331647 0.72544405 0.00000022
-0.09375895 0.23741457 0.04984679
-0.30268513 0.04986974 0.16094641
-0.25365618 -0.56396161 0.13487611
-0.23463094 0.39134415 0.12476056
-0.39125181 0.31292410 -0.00000081
-0.21641055 0.40012745 0.11507214
-0.08743120 0.57544254 0.00000000
-0.09239389 0.64108463 0.04912783
-0.53229401 -0.48508807 0.28303617
-0.02640609 0.46064151 0.01403577
-0.55451781 0.07060737 0.29485342
-0.24163272 0.29806999 -0.00000014
-0.31833337 0.34445820 0.16926804
-0.32385909 -0.48179690 0.17220496
-0.14310685 0.27855722 0.00000000
-0.57520714 -0.21228302 0.30585547
-0.73043847 -0.28744455 -0.00000119
-0.24257407 0.51964423 0.00000002
-0.27558189 0.33894027 -0.00000036
-0.13985441 0.14132721 0.00000777
-0.41338112 -0.63979490 0.00000000
-0.62571425 -0.46177790 -0.00000044
-0.23795442 0.10189819 0.12652704
-0.18734044 0.48133110 0.09961475
-0.05678892 0.52603811 0.00000000
-0.17619573 0.45440942 0.09368626
-0.27666835 -0.59616520 0.14711232
-0.02382759 0.46751550 0.00000000
-0.14986326 -0.20461995 0.07968650
-0.40737444 -0.65234318 0.21661242
-0.53056817 0.01541506 0.28211703
-0.50319526 -0.31379756 -0.00000018
-0.03196001 -0.01525483 0.00000000
-0.34534174 0.27288556 0.00000217
-0.00640573 -0.30329296 0.00000000
-0.09148798 0.08010318 0.00000000
-0.46530081 0.10074884 -0.00000075
-0.08308878 0.09477414 0.00000932
-0.01972724 -0.61953815 0.01048953
-0.16663153 0.43438970 -0.00000006
-0.13354538 0.14854550 0.07100165
-0.56929797 0.04597181 0.00000166
-0.07398066 0.48024654 0.03933759
-0.26610526 0.00378061 0.00000793
-0.26037454 -0.79042972 0.13844845
-0.35266771 -0.08595162 0.18752355
-0.69114523 -0.34337751 0.36750337
-0.64529215 -0.00545938 0.34312284
-0.51708811 -0.02710423 0.27495203
-0.48847476 -0.54914740 0.00000000
-0.37555581 -0.00462356 -0.00000018
-0.07651771 0.15400091 0.04067743
-0.16345467 -0.46020909 0.00000000
-0.66491882 -0.19214705 0.35355849
-0.17421048 0.29607922 0.09262764
-0.58142469 -0.18666614 -0.00000074
-0.12599452 -0.50331001 0.06699482
-0.00495681 -0.23458970 0.00000000
-0.15041808 0.12736747 0.00000782
-0.21893716 0.53734679 0.00000018
-0.29005967 -0.53883419 0.00000000
-0.16657925 0.35180253 0.00000000
-0.73007154 -0.26905614 -0.00000123
-0.00759184 -0.72365782 0.00403679
-0.19046770 0.15826456 0.10127702
-0.62497256 0.04321315 0.33231833
-0.06870307 0.10672649 0.03653135
-0.59098256 -0.10362496 -0.00000092
-0.53768328 -0.78437826 0.28590128
-0.06221040 0.58604382 0.00000227
-0.13516965 0.03390132 0.00000945
-0.26692024 -0.37717198 0.14192898
-0.32386319 0.32839309 0.17220840
-0.06867278 0.40947882 0.00000482
-0.18282890 0.60113087 -0.00000043
-0.66427003 -0.32595164 0.35321306
-0.20563741 0.48864659 0.10934394
-0.54612777 0.08728839 0.00000142
-0.58979535 0.02866909 -0.00000115
-0.51980369 0.05230070 0.27639624
-0.12009471 0.67301042 -0.00000029
-0.37448269 -0.64435269 0.19912295
-0.56109709 -0.67479391 0.00000000
-0.28834592 -0.40538790 0.15332161
-0.44913435 -0.01858492 -0.00000047
-0.15539279 -0.33437888 0.00000000
-0.15170334 0.37449688 0.08066082
-0.17890140 0.32437726 0.00000443
-0.28088076 -0.45039222 0.14935218
-0.50163947 -0.15114631 -0.00000046
-0.52877507 -0.25909228 0.28116571
-0.34870215 0.08824317 -0.00000023
-0.00432506 -0.56570531 0.00229976
-0.52759230 -0.13763683 -0.00000059
-0.12532759 0.27208630 0.00000603
-0.37726900 -0.14382125 0.20060477
-0.25539576 -0.54214638 0.13580109
-0.43694269 -0.67260850 0.23233468
-0.03605669 0.56236025 0.01917235
-0.38976341 0.14656794 0.20724596
-0.25370322 0.22215178 0.00000478
-0.23040685 0.46446259 -0.00000039
-0.07061328 0.54602738 0.00000274
-0.04982772 0.40546959 0.02649480
-0.00085188 -0.07748023 0.00000000
-0.04943266 -0.62637578 0.02628473
-0.63594511 0.02318802 0.33815277
-0.36030892 -0.77877908 0.00000000
-0.22615372 -0.25948169 0.12025227
-0.05305947 -0.00668806 0.00000000
-0.03840265 0.72084803 0.00000058
-0.59312209 -0.54129289 -0.00000016
-0.35670474 -0.04009180 0.18967033
-0.17810148 -0.08673457 0.09470155
-0.35164981 0.23655157 0.00000266
-0.48151030 0.08030091 0.25603152
-0.69454166 -0.11213525 -0.00000135
-0.48611386 -0.07503934 0.25848175
-0.44922175 -0.54329490 0.00000000
-0.23551697 -0.46150535 0.00000000
-0.33815426 -0.33224887 0.17980610
-0.32869419 -0.23950393 0.17477592
-0.24187599 0.33488056 0.00000312
-0.16706531 0.58369621 0.08883360
-0.00842751 -0.73169996 0.00448114
-0.50626014 -0.14954751 0.26919403
-0.32058117 0.22243448 0.17045944
-0.14796116 -0.39854428 0.00000000
-0.31529655 -0.63255080 0.16765202
-0.19771797 0.53985122 -0.00000038
-0.16818470 0.46067432 0.08942889
-0.40834744 0.09587621 0.00000392
-0.24979648 0.19787519 0.13281888
-0.05000435 0.71090923 -0.00000006
-0.22793766 0.50715623 0.12120129
-0.76640902 -0.64160655 -0.00000040
-0.38716095 0.29642082 0.20586496
-0.14252725 0.01773327 0.00000000
-0.08743521 0.22784049 0.04649175
-0.74091429 -0.55242746 -0.00000062
-0.16288798 -0.13073459 0.08661211
-0.22235383 -0.14578021 0.00000000
-0.79892003 -0.56449518 -0.00000059
-0.73805104 -0.68149604 -0.00000030
-0.23217401 -0.32748362 0.00000000
-0.46495460 -0.41767429 0.24722956
-0.45990112 0.20253881 0.24454309
-0.35305081 0.32398205 -0.00000067
-0.07804558 -0.13835136 0.04149902
-0.41369936 -0.00859069 0.21997653
-0.09775284 0.59703355 0.05197663
-0.26885383 0.04159238 0.00000732
-0.13909918 -0.71847883 0.07396294
-0.40568737 -0.70922272 0.00000000
-0.33645992 -0.12844106 0.17890518
-0.12853937 0.49377260 0.06834812
-0.56199960 -0.41901327 0.29883191
-0.39981469 -0.33292571 0.21259268
-0.48273066 -0.72883674 0.00000000
-0.26797331 -0.19426923 0.00000000
-0.03020820 0.38410258 0.00000000
-0.59922751 -0.13567845 -0.00000090
-0.09107138 0.47107741 0.00000356
-0.20541223 0.33583872 -0.00000006
-0.18613660 0.27448517 0.00000507
-0.18719794 0.43603397 -0.00000016
-0.04195411 -0.45234009 0.02230817
-0.07851599 0.01970045 0.04173780
-0.52707298 -0.04913203 0.28026128
-0.22539165 0.47583512 0.00000109
-0.48755916 -0.76475465 0.00000000
-0.03134022 0.35896324 0.00000000
-0.17941559 0.39467247 -0.00000005
-0.17506601 0.12931009 0.09308751
-0.13202293 0.54325841 0.00000175
-0.07474443 0.33026898 0.03973740
-0.37045924 -0.42423828 0.00000000
-0.24778479 0.36056354 -0.00000028
-0.28254415 -0.68989720 0.15023665
-0.37176860 -0.50863413 0.19767979
-0.01927544 0.33040196 0.00000675
-0.00563024 -0.04250597 0.00000000
-0.57191587 -0.78684825 0.00000000
-0.65782433 -0.78337517 0.34978393
-0.78041325 -0.31940440 -0.00000120
-0.18020421 -0.14338968 0.09581963
-0.58817480 -0.22576655 0.31275080
-0.44837716 -0.26842816 -0.00000002
-0.17712416 -0.73568417 0.09418188
-0.32457178 0.23422482 0.17258169
-0.06304082 -0.49237537 0.00000000
-0.62382974 -0.67100901 0.33170838
-0.42167105 -0.63808982 0.22421432
-0.51217820 0.18438958 -0.00000110
-0.30515714 0.09722534 0.16226101
-0.64216621 -0.27736018 -0.00000084
-0.14426943 0.42008008 0.07670864
-0.32460435 0.26090112 0.17259952
-0.31862850 -0.36458651 0.16942371
-0.67324796 -0.71932693 0.35798539
-0.49914093 0.22936546 -0.00000005
-0.34226583 -0.44845614 0.18199234
-0.36690192 0.02842687 0.19509274
-0.26746461 0.46415979 -0.00000055
-0.60514166 -0.17661120 0.32177285
-0.54151309 0.00388293 0.00000290
-0.51558647 0.04245702 -0.00000086
-0.15229100 0.63002866 -0.00000009
-0.21075519 0.17071840 0.11206445
-0.65103724 -0.31489663 -0.00000081
-0.61593093 -0.42308216 -0.00000047
-0.45331316 -0.62578802 0.24103932
-0.73951652 -0.40976568 -0.00000098
-0.37482855 0.15593507 0.00000356
-0.64860203 -0.27827484 0.34488200
-0.37549039 0.10300817 0.19965538
-0.52518097 -0.55961968 0.00000000
-0.26770042 0.37432463 0.14234475
-0.54935584 0.15193565 -0.00000120
-0.01313907 -0.08067860 0.00000000
-0.35225803 0.35704360 0.18730705
-0.34474810 0.08423783 0.18331292
-0.36533390 -0.25852495 0.19425828
-0.08283006 0.58917645 0.04404122
-0.39558466 0.11013609 0.21034465
-0.05509710 0.45198972 0.02929199
-0.72523472 -0.30469044 -0.00000114
-0.01584938 0.29608129 0.00842756
-0.54080315 0.15042305 -0.00000116
-0.69771007 -0.17396499 0.37099475
-0.50883397 -0.71188273 0.27056129
-0.66470904 0.12862948 -0.00000155
-0.12508849 -0.73042553 0.06651306
-0.06543920 0.66610636 0.03479503
-0.69803266 -0.18376176 0.37116624
-0.26403549 -0.19859776 0.14039507
-0.42433683 0.14317625 -0.00000065
-0.18009503 0.11152174 0.09576158
-0.50368536 0.26642781 -0.00000076
-0.06365010 0.38147270 0.03384454
-0.00193917 0.65256356 0.00000218
-0.56066310 -0.67658133 0.00000000
-0.04029484 0.62054078 0.00000208
-0.13787575 0.35295476 0.00000463
-0.17309898 0.25889959 0.09204158
-0.52462185 -0.67979833 0.27895615
-0.43701538 0.30459160 0.23237545
-0.48158256 -0.04992636 0.25607237
-0.75220050 -0.25934245 -0.00000134
-0.16264068 0.16276988 0.00000000
-0.50913227 -0.41522836 -0.00000002
-0.56329586 -0.39967272 0.29952124
-0.44105867 0.25532432 0.00000063
-0.29752774 -0.37580073 0.00000000
-0.00633972 0.77833091 0.00337100
-0.22863079 0.53776136 0.12157050
-0.08906947 -0.40384486 0.04736073
-0.14271255 0.47214848 -0.00000003
-0.02405600 -0.41818791 0.00000000
-0.04199168 0.44891652 0.00000000
-0.24350124 -0.62549091 0.12947644
-0.02305553 0.14601421 0.00000000
-0.47540236 -0.41179391 0.00000000
-0.63015937 -0.57677925 0.33507440
-0.13371717 0.06428508 0.00000000
-0.33095662 0.22838788 0.17597675
-0.06624560 0.04653333 0.00001030
-0.37037327 -0.41040171 0.00000000
-0.05984292 0.37826864 0.00000542
-0.29265068 0.22036980 0.15561125
-0.56364567 -0.37783643 0.29970731
-0.13478368 -0.71210779 0.07166826
-0.16752710 0.16700140 0.00000697
-0.57971749 -0.10649977 0.30825411
-0.45567608 -0.77649330 0.00000000
-0.21757181 -0.00276361 0.00000000
-0.11641791 -0.65892202 0.00000000
-0.29020152 0.22240247 0.00000408
-0.29974575 0.21930945 -0.00000025
-0.65407781 0.04913667 0.34779466
-0.25602843 -0.52742173 0.00000000
-0.59618140 0.03458116 0.31700754
-0.56415492 -0.68915682 0.29997716
-0.04560128 0.32201510 0.00000000
-0.10775937 0.19017577 0.00000752
-0.13689337 -0.42852225 0.00000000
-0.72286900 -0.39215810 -0.00000098
-0.57516185 -0.70148373 0.00000000
-0.49790133 -0.67920155 0.00000000
-0.60510945 -0.77198079 0.32175383
-0.14402593 0.25972622 0.07658262
-0.27780809 -0.16215712 0.14771835
-0.01273176 0.59323458 0.00676667
-0.05183445 -0.42770501 0.00000000
-0.50419491 -0.00721138 -0.00000072
-0.00198849 0.68120736 0.00105542
-0.64306494 -0.20697849 0.34193794
-0.07056023 -0.50428318 0.00000000
-0.54566950 -0.23350718 0.29014917
-0.15861347 0.08594609 0.08433050
-0.09980727 0.57528203 -0.00000003
-0.19372560 0.16352605 0.10300256
-0.71877109 -0.58014414 -0.00000055
-0.34055178 -0.78525605 0.18108093
-0.22936828 -0.48397560 0.12196155
-0.52334185 -0.13477091 0.27827705
-0.27643820 -0.65514615 0.14698994
-0.64243542 0.02329654 0.34160311
-0.44522921 -0.06057319 0.23674194
-0.12089432 0.57634662 0.06428322
-0.09099353 0.49134158 0.00000326
-0.12096794 0.38602179 0.06432205
-0.09497888 -0.13601698 0.00000000
-0.02497529 -0.03857577 0.00000000
-0.40396597 -0.60934125 0.21480003
-0.15731087 -0.03944325 0.00000000
-0.44012171 -0.71513555 0.00000000
-0.26925048 0.24374001 0.14316858
-0.32333131 0.24354235 0.17192224
-0.27385764 -0.04349488 0.14561779
-0.79414015 -0.16012176 -0.00000160
-0.03698356 0.18984849 0.01966520
-0.08080347 -0.34727106 0.00000000
-0.11481144 -0.28948259 0.06104846
-0.18976596 -0.64070634 0.10090388
-0.00933200 0.42922632 0.00495615
-0.00521760 0.70226960 0.00277284
-0.24178497 -0.21570714 0.00000000
-0.30411002 0.47743038 -0.00000073
-0.27607277 0.08434545 0.00000000
-0.19874471 0.38313388 0.10567852
-0.35585356 0.10340737 -0.00000029
-0.29965795 0.20944457 0.15933317
-0.32627812 -0.71543702 0.00000000
-0.25750875 0.45873498 -0.00000050
-0.15687729 0.03208133 0.08340640
-0.43431183 0.20590025 0.00000158
-0.54505445 -0.20523949 0.28982221
-0.26231507 0.36995528 0.13947900
-0.27862139 0.48360866 0.14815214
-0.66145951 -0.63661129 -0.00000028
-0.31462794 0.30643485 0.00000220
-0.23497300 -0.57215165 0.00000000
-0.47556861 0.01546014 -0.00000064
-0.67527711 0.01325058 0.35906699
-0.22618587 0.04656799 0.12026937
-0.46876736 0.16294374 0.24925871
-0.18414528 -0.17790858 0.00000000
-0.58450644 0.02680023 -0.00000113
-0.07612990 -0.12849263 0.00000000
-0.30497821 0.19533474 0.16216616
-0.53756384 0.11966733 0.28583901
-0.63769827 -0.71418874 0.33908254
-0.56001452 -0.17407713 0.29777712
-0.58390310 -0.61215895 0.00000000
-0.49302097 0.05330242 0.26215186
-0.26105617 0.33016771 0.13881163
-0.48481793 -0.12512550 -0.00000043
-0.29244785 -0.10936733 0.00000000
-0.43818517 -0.77374561 0.00000000
-0.34108311 -0.26426909 0.00000000
-0.00612896 -0.13557492 0.00325894
-0.25209743 0.20554945 0.13404257
-0.46544352 -0.43879543 0.24748948
