ply
format ascii 1.0
element vertex 1380
property float x
property float y
property float z
end_header
-0.62544917 0.11968228 0.05473113
-0.44105709 0.02801707 0.03859566
-0.60883580 -0.73405672 0.00000000
-0.10779515 -0.04469505 0.00943273
-0.43496216 0.35474518 -0.00000107
-0.43109001 -0.11821870 0.03772320
-0.45820980 -0.38032634 0.04009614
-0.20910731 -0.17446504 0.01829816
-0.47816320 0.06442671 0.00000310
-0.75066070 -0.04915924 0.06568896
-0.26022057 0.03514913 0.00000000
-0.53962751 -0.60466425 0.00000000
-0.24335701 -0.63584146 0.00000000
-0.35390246 0.39131564 0.03096849
-0.04140452 0.23411581 0.00361517
-0.06105642 0.18260847 0.00534281
-0.34933038 0.06416624 -0.00000019
-0.63141671 0.11465517 -0.00000068
-0.32846585 0.07663019 -0.00000012
-0.74935686 -0.05792741 -0.00000168
-0.36632017 -0.31837545 0.00000000
-0.22170090 -0.19385157 0.00000000
-0.27382965 -0.55864038 0.00000000
-0.39798640 0.03352970 0.00000516
-0.39599359 -0.65513045 0.00000000
-0.56185326 0.01014455 -0.00000100
-0.58146157 -0.63364379 0.05088142
-0.05093847 -0.41728778 0.00000000
-0.09447181 0.49759424 0.00826359
-0.12122185 0.37840630 0.00000449
-0.53276201 -0.49679702 0.00000000
-0.36377981 0.42867479 -0.00000078
-0.49096205 0.11832648 0.04296300
-0.20365435 -0.10709463 0.01782099
-0.15046595 -0.48871283 0.01316669
-0.01454931 -0.47112585 0.00127315
-0.06721687 0.48171745 0.00588188
-0.08320825 0.30656787 0.00727492
-0.17249015 0.29721900 0.00000000
-0.73008369 -0.62220849 0.06388713
-0.56714041 -0.65685638 0.04962824
-0.48274069 0.24143955 -0.00000107
-0.44066978 -0.44000981 0.03856129
-0.21723158 0.20320056 0.00000000
-0.56088281 -0.07977555 -0.00000084
-0.06560724 0.21323430 0.00000000
-0.78944860 -0.36411481 0.06908250
-0.59924475 -0.25620670 0.05243821
-0.57586524 -0.00554982 -0.00000103
-0.62249643 0.05599944 0.05447156
-0.52262970 -0.17112125 -0.00000051
-0.25945680 -0.00996313 0.00000000
-0.25035555 -0.23424162 0.02190763
-0.60963898 -0.38196692 0.05334760
-0.11118305 0.26925423 0.00000000
-0.42331778 -0.12477376 0.03704305
-0.13854818 0.51239726 0.01212150
-0.05005217 0.43868356 0.00000466
-0.50156575 -0.51398172 0.04389005
-0.51235936 0.05073623 -0.00000086
-0.16048703 -0.65057726 0.01404359
-0.51233924 0.12262369 -0.00000099
-0.32451415 0.32857920 0.00000164
-0.10023696 -0.73338545 0.00000000
-0.17502798 0.62378688 -0.00000042
-0.27550900 -0.50459043 0.02410871
-0.44708387 -0.77642067 0.00000000
-0.52828359 -0.78085033 0.00000000
-0.35710782 0.34750479 0.03124978
-0.00534347 0.26600637 0.00045959
-0.57418727 -0.20592880 -0.00000067
-0.06243314 0.55701866 0.00546047
-0.10966942 0.08345798 0.00959674
-0.12345264 -0.40411021 0.00000000
-0.13862442 0.18642663 0.00000000
-0.17758100 0.38305725 -0.00000002
-0.44459058 -0.26588844 -0.00000001
-0.15445252 0.09157074 0.00000830
-0.39083669 -0.34387653 0.00000000
-0.78191766 -0.47634949 -0.00000081
-0.38910419 0.02903915 0.03404926
-0.18825247 0.00601395 0.01647324
-0.21708110 0.19103468 0.01898970
-0.51191446 -0.75706616 0.00000000
-0.56306352 -0.18576076 0.04927210
-0.64507954 0.05933624 -0.00000002
-0.62129526 -0.15116895 -0.00000097
-0.08155113 0.06786769 0.00713622
-0.16039473 0.37012451 0.00000403
-0.04729763 -0.25834001 0.00000000
-0.51863879 0.19916600 -0.00000115
-0.10324648 0.20272320 0.00903469
-0.23294765 0.48539843 -0.00000044
-0.16867184 0.16472269 0.00000698
-0.06064449 0.04044664 0.00529612
-0.19986454 0.26630095 0.01748936
-0.14149049 -0.40036935 0.01238128
-0.37885029 -0.42326263 0.03315170
-0.68528301 -0.63305993 -0.00000039
-0.36717531 -0.33974586 0.00000000
-0.12906410 0.60052220 0.01129295
-0.21267597 0.58219424 0.01861093
-0.28118612 -0.59359193 0.02460550
-0.14637005 0.44411431 0.00000313
-0.01528534 0.69676666 0.00000000
-0.33359470 0.01939310 -0.00000004
-0.24127513 0.23523960 0.02111307
-0.28660963 -0.41209668 0.00000000
-0.61965190 0.15187631 -0.00000107
-0.65408461 0.07082467 -0.00000038
-0.10933338 -0.32916369 0.00956734
-0.13530368 0.30620198 0.01183989
-0.40495679 -0.70033714 0.00000000
-0.02583650 0.22415243 0.00226085
-0.43871399 0.30199142 0.03839107
-0.66379087 0.11414538 0.05808725
-0.63968652 0.08156907 -0.00000146
-0.12104005 0.40298559 0.00000413
-0.66277749 -0.74120378 0.05799717
-0.43162920 -0.57327916 0.03777018
-0.34872458 -0.15368432 0.03051552
-0.58757561 -0.12197047 -0.00000088
-0.22365161 -0.02971258 0.01957088
-0.34425122 0.27819519 0.03012459
-0.11541424 -0.71878423 0.01009945
-0.12511713 0.16063679 0.00000770
-0.03868646 0.59064655 0.00000256
-0.18800146 -0.27557399 0.00000000
-0.18208970 0.38464530 -0.00000004
-0.06354542 -0.00504719 0.00556061
-0.00889863 0.68145438 0.00000164
-0.18725008 0.28299113 0.01638552
-0.23119588 0.13867252 0.02022423
-0.17080737 0.45871256 0.01494680
-0.18918246 0.46475283 -0.00000021
-0.45482281 0.11918466 0.00000264
-0.02087429 0.66134341 0.00000000
-0.52387300 -0.48242500 0.04584207
-0.24018168 -0.36544097 0.00000000
-0.12079431 0.38294840 0.01056560
-0.36556110 -0.63926166 0.00000000
-0.68487689 -0.12038540 0.05993210
-0.08302919 0.15595069 0.00726556
-0.16582006 -0.21784898 0.00000000
-0.04864825 0.30095519 0.00425702
-0.10657027 -0.76248708 0.00000000
-0.03556569 -0.27835210 0.00000000
-0.78107177 -0.79849429 -0.00000000
-0.32641898 -0.23522752 0.02856365
-0.66356783 -0.32711595 0.05806701
-0.22275689 0.54038634 0.01949304
-0.14025369 -0.64602052 0.00000000
-0.59400442 -0.52877947 -0.00000019
-0.16585696 -0.76313730 0.01451349
-0.25915983 0.51637967 -0.00000060
-0.46671146 -0.47121171 0.00000000
-0.44444693 0.24613089 0.00000072
-0.57337958 -0.64356346 0.00000000
-0.38888316 -0.37240240 0.03402964
-0.49722580 -0.51894663 0.04351028
-0.18064679 0.37294558 -0.00000002
-0.16160143 -0.35605510 0.00000000
-0.14847849 0.25656663 0.00000591
-0.50387852 -0.64012040 0.04409243
-0.03363994 -0.28611672 0.00000000
-0.52452454 -0.36370759 0.04589926
-0.04305537 0.49750141 0.00376363
-0.33425169 0.39143701 0.02924854
-0.04170633 0.29297905 0.00364247
-0.15609221 -0.19317871 0.01365902
-0.38697162 -0.37632373 0.00000000
-0.36693161 -0.08343038 -0.00000000
-0.24828135 0.43121431 0.02172458
-0.06403383 -0.12499993 0.00560335
-0.07207777 0.04140682 0.00630724
-0.50685115 -0.26065096 -0.00000029
-0.29353018 0.04810297 0.02568568
-0.17879001 -0.60773341 0.01564521
-0.36407722 -0.24100589 0.03185897
-0.39288107 -0.68224936 0.03437948
-0.50090101 -0.12854170 0.04383235
-0.67721023 0.05145300 0.05926037
-0.14191172 -0.79476169 0.00000000
-0.69447420 -0.23737561 0.06077177
-0.02976812 0.46975086 0.00260489
-0.60315419 -0.13006081 -0.00000093
-0.07331748 0.34748458 0.00000000
-0.06657329 -0.57614526 0.00582557
-0.28804599 0.41875782 -0.00000056
-0.20985752 0.16069871 0.01836381
-0.53848010 -0.66263231 0.00000000
-0.48621288 -0.70179898 0.00000000
-0.78879435 -0.17977490 -0.00000155
-0.25611266 0.02577132 0.00000000
-0.01677222 -0.06659385 0.00000000
-0.58429460 -0.06621418 -0.00000096
-0.15051976 0.34944521 0.01316666
-0.70136617 0.05458610 -0.00000168
-0.47402807 -0.12994551 0.04148070
-0.05376807 -0.72821379 0.00000000
-0.43065714 0.33536872 -0.00000051
-0.20749262 0.56094348 -0.00000046
-0.26204326 -0.54776976 0.00000000
-0.29351792 -0.20626044 0.00000000
-0.17411472 0.16427086 0.00000000
-0.57254247 -0.54369115 -0.00000007
-0.10630075 0.43325794 0.00929788
-0.54628417 -0.41972674 -0.00000018
-0.04630468 0.18632459 0.00000000
-0.34060748 0.31521466 0.02980578
-0.58853883 -0.63092812 0.05150073
-0.06614423 -0.27186277 0.00578802
-0.37889003 -0.66893849 0.00000000
-0.17584548 -0.22514597 0.00000000
-0.05194584 -0.07281772 0.00454558
-0.06638135 0.62808631 0.00000000
-0.20394108 -0.14404182 0.00000000
-0.71412277 0.02849920 -0.00000168
-0.70084905 0.03555781 0.06132910
-0.79191046 -0.21974309 0.06929829
-0.43405091 0.00404081 0.03798251
-0.28623112 0.04215105 0.00000705
-0.77813549 -0.28482734 -0.00000129
-0.56695908 -0.04318103 0.04961324
-0.69717688 -0.67630929 -0.00000031
-0.35298769 -0.01365750 -0.00000007
-0.54766508 -0.03340159 -0.00000086
-0.17924050 -0.40314234 0.00000000
-0.07234612 0.72045693 0.00633088
-0.23670992 0.17163069 0.02070732
-0.38781132 0.16869506 0.03393246
-0.79814703 -0.60689373 -0.00000048
-0.32419280 0.15316501 0.00000458
-0.43086203 0.10815055 0.00000328
-0.32775419 -0.64575708 0.00000000
-0.23900832 0.18032759 0.02091468
-0.44311690 -0.27228031 0.00000000
-0.00477493 -0.29820508 0.00000000
-0.59893382 -0.19606038 0.05241110
-0.58975809 -0.43396288 0.05160774
-0.62037209 -0.26669930 0.05428704
-0.23635097 0.32157506 0.02067842
-0.39709897 -0.75232284 0.00000000
-0.10417479 0.50152314 0.00911593
-0.26558901 0.20125102 0.02323538
-0.26134750 0.49992669 0.02287004
-0.20630515 -0.21390446 0.01805296
-0.07569833 0.01130836 0.00000000
-0.38756223 0.36338129 0.03391487
-0.15622263 0.63250624 0.01367078
-0.11686594 -0.41186902 0.01022648
-0.50521904 -0.77221231 0.00000000
-0.69550004 -0.34793392 -0.00000094
-0.10546599 -0.23420726 0.00922892
-0.56734664 -0.49351538 0.04964641
-0.01694338 -0.70188870 0.00148265
-0.09216588 0.14364028 0.00806508
-0.11360727 0.35116719 0.00000502
-0.05345677 0.10992475 0.00000000
-0.18759273 0.21388944 0.00000596
-0.09560632 -0.43396456 0.00000000
-0.21641029 0.10619119 0.01892971
-0.64356664 -0.41331554 0.05631656
-0.17760580 0.16410366 0.01554159
-0.15066198 0.40709211 0.01317998
-0.10853270 -0.10090141 0.00000000
-0.13922454 0.40448209 0.01217893
-0.15754690 -0.53583159 0.00000000
-0.16241852 0.48272532 0.00000218
-0.13527414 -0.62591731 0.00000000
-0.16582381 0.28549568 0.00000522
-0.23927926 0.00470760 0.02092967
-0.13905908 -0.09908117 0.01216852
-0.46589155 0.26406612 0.04076821
-0.36529749 0.06292824 0.03196003
-0.03955303 -0.59929559 0.00000000
-0.38296249 0.15188647 0.00000347
-0.42431643 -0.43113949 0.00000000
-0.21017283 0.57499753 0.01839187
-0.03693619 0.41823643 0.00000517
-0.35456003 0.39025784 0.00000004
-0.34038911 -0.13698684 0.02978612
-0.69634109 -0.63562372 0.06093445
-0.42772083 -0.56232200 0.03742817
-0.60496747 -0.46248950 0.05293867
-0.16740669 0.52674309 0.01464763
-0.38933287 -0.44872016 0.03406899
-0.65432293 0.09518902 0.05725868
-0.00128022 0.48052919 0.00010722
-0.52436767 -0.55753418 0.04588536
-0.59641402 -0.62226525 0.05218989
-0.47695695 -0.42849439 0.04173663
-0.67962004 -0.03414054 -0.00000143
-0.43294246 -0.12714030 -0.00000021
-0.41369457 0.32982030 -0.00000009
-0.62052845 -0.14613346 -0.00000098
-0.64240422 -0.08253799 -0.00000118
-0.11756242 -0.64458310 0.00000000
-0.19969848 -0.45470328 0.01747483
-0.42408736 0.10947051 0.00000339
-0.25756105 0.06038457 0.02253053
-0.26085170 0.31809971 0.02282636
-0.15039671 -0.58391312 0.00000000
-0.30186974 -0.61967767 0.02641544
-0.38468703 0.22258683 0.03366303
-0.42539143 -0.20507854 0.03722438
-0.61801359 -0.15640816 -0.00000095
-0.64022678 -0.70130975 -0.00000008
-0.38595187 -0.65136848 0.00000000
-0.17775732 -0.43778710 0.00000000
-0.28865630 -0.22941162 0.02525918
-0.58040767 -0.44158488 0.05078947
-0.46225338 -0.53640955 0.04044998
-0.63153286 -0.39353860 -0.00000059
-0.38705729 0.09434018 0.03386514
-0.47218080 -0.02249878 -0.00000056
-0.19784954 -0.25937428 0.00000000
-0.46975896 0.07542308 0.04110744
-0.25837051 -0.73287723 0.00000000
-0.28115287 0.19761215 0.02460272
-0.15342890 0.08082065 0.01341721
-0.11148416 0.34437746 0.00000515
-0.68006861 -0.51484625 0.05951068
-0.68514389 -0.50615186 -0.00000062
-0.51480032 -0.20566539 -0.00000042
-0.16891060 0.09729766 0.00000799
-0.65061122 -0.79992617 0.05693244
-0.45431992 0.33429218 0.03975664
-0.39096104 0.23175992 0.00000198
-0.01453028 0.29325052 0.00000000
-0.45282355 0.01574263 0.00000440
-0.64542974 -0.21007877 0.05647993
-0.53975270 -0.01447042 0.04723245
-0.31742546 0.22578766 0.00000350
-0.26164437 -0.79528684 0.02289547
-0.12045361 0.63007933 0.00000053
-0.19997581 -0.54234508 0.01749910
-0.21837100 0.19249977 0.01910879
-0.77640645 -0.56569706 0.06794075
-0.12764243 -0.57210569 0.01116949
-0.13410043 0.33446404 0.01172941
-0.40778030 -0.27093095 0.00000000
-0.73151835 0.05327037 0.06401398
-0.45258507 -0.58263623 0.00000000
-0.72300087 -0.13418533 0.06326831
-0.38375521 0.15301070 -0.00000049
-0.12846691 -0.39260799 0.01124164
-0.16923853 -0.60620266 0.01480940
-0.47215912 0.25678949 0.04131666
-0.29107944 0.13802465 0.00000547
-0.65631509 -0.20752439 -0.00000102
-0.44679317 0.05041367 0.03909282
-0.32999875 -0.48152617 0.02887690
-0.32318533 -0.37397717 0.02828068
-0.74548837 -0.35298858 0.06523579
-0.22241409 -0.53572618 0.00000000
-0.16783358 -0.59370261 0.01468646
-0.66406931 0.11840406 -0.00000137
-0.06279917 0.27164753 0.00000000
-0.02784376 0.54166448 0.00000000
-0.18652402 0.23555045 0.00000565
-0.58679551 -0.77602106 0.00000000
-0.33068611 -0.10105746 0.00000000
-0.27240639 -0.31110734 0.02383722
-0.62502618 -0.00357480 0.05469475
-0.16579660 0.37542730 0.00000387
-0.00665775 0.50657054 0.00000000
-0.34832052 0.33528518 0.03048078
-0.21295764 0.58487778 0.01863558
-0.10380836 0.01673481 0.00907346
-0.08280133 0.45471765 0.00000393
-0.09622337 0.67109592 0.00841978
-0.04642473 0.57989549 0.00000260
-0.78380062 -0.78432754 -0.00000004
-0.34094629 0.18094403 0.00000379
-0.22561213 0.45730973 0.01974277
-0.17274642 -0.23756017 0.01511636
-0.34010167 -0.19318025 0.02976096
-0.21324124 0.16481012 0.00000000
-0.20532569 -0.18810060 0.00000000
-0.07591600 0.19316493 0.00663499
-0.34169278 0.03742992 0.02989355
-0.43376788 -0.21641203 -0.00000005
-0.51225039 -0.03462804 0.04482569
-0.23138523 0.48137148 0.00000088
-0.37083588 -0.72724745 0.00000000
-0.28065098 -0.16158372 0.00000000
-0.42187818 -0.48602192 0.00000000
-0.31595698 0.13818884 0.02764278
-0.55790911 0.21028163 0.04882169
-0.51082598 -0.66878852 0.00000000
-0.33411590 0.06657022 0.00000584
-0.02583963 0.11833390 0.00226112
-0.05350058 0.44981961 0.00468163
-0.05392093 0.29711480 0.00471155
-0.15067210 -0.09252970 0.00000000
-0.07537291 0.21167211 0.00658774
-0.37573495 -0.20828350 0.00000000
-0.55154690 -0.74486442 0.00000000
-0.16239121 -0.20374248 0.00000000
-0.33274358 -0.40543525 0.02911709
-0.08565781 0.23011227 0.00000000
-0.17793177 0.61097555 0.01557034
-0.79241872 -0.43801694 -0.00000090
-0.24899592 -0.03634531 0.00000000
-0.51722278 -0.23969053 -0.00000037
-0.39193989 -0.06756242 0.03429726
-0.39970788 -0.12057484 0.03497695
-0.08907291 0.30070465 0.00000615
-0.14272452 -0.47978513 0.01248926
-0.11938811 -0.52201392 0.00000000
-0.23060525 -0.28391853 0.00000000
-0.37270941 -0.33837237 0.00000000
-0.02580638 0.76963686 0.00225820
-0.01357569 -0.08523997 0.00118796
-0.52532202 0.01386231 0.04596550
-0.19385539 0.20577377 0.00000000
-0.24534130 -0.12990034 0.00000000
-0.51752424 0.07984502 0.04528416
-0.48743483 -0.20204681 -0.00000031
-0.31856296 0.04205722 -0.00000002
-0.37574608 0.19210482 0.03288056
-0.24687151 0.00628043 0.02160276
-0.11741398 -0.08272108 0.01027444
-0.58866569 -0.54443959 -0.00000014
-0.21435094 0.32826325 0.00000376
-0.10348239 0.40136677 0.00000442
-0.39947213 -0.23988596 0.00000000
-0.14848494 0.01897481 0.00000947
-0.39028614 -0.34586548 0.00000000
-0.33627816 -0.46344933 0.00000000
-0.48576220 -0.52587716 0.04250715
-0.75810804 -0.03133778 -0.00000177
-0.02328752 0.54160353 0.00203780
-0.50954669 -0.45336436 0.00000000
-0.32994285 -0.52129561 0.02887201
-0.34698481 0.21539299 -0.00000045
-0.27947282 -0.16704842 0.02445557
-0.79258886 -0.03649955 0.06935811
-0.00608360 0.32172340 0.00000000
-0.58298729 -0.52770140 -0.00000014
-0.22473916 0.04095990 0.00000799
-0.04776315 0.45619175 0.00417957
-0.63037727 -0.32758738 -0.00000070
-0.27286481 -0.68332448 0.02387733
-0.76694643 -0.67185246 -0.00000032
-0.28485146 -0.56601376 0.02492623
-0.00540758 0.27782050 0.00000000
-0.27617721 0.19951507 0.02416730
-0.09916591 0.29597957 0.00000606
-0.04206691 -0.20987919 0.00368111
-0.24335956 0.17146405 0.00000000
-0.20976331 0.05379675 0.01835557
-0.11573986 0.08711348 0.00000000
-0.45135404 -0.16037425 -0.00000023
-0.47676645 0.03365717 -0.00000068
-0.09684496 0.65667373 -0.00000016
-0.33789131 0.12451465 0.02956236
-0.27885270 0.49672915 -0.00000065
-0.03118842 0.46380952 0.00000457
-0.18752841 0.06596372 0.01640137
-0.00266217 0.23602658 0.00022447
-0.09784392 0.38315070 0.00856194
-0.03133062 0.42074839 0.00274162
-0.44387056 -0.01219065 -0.00000046
-0.66969679 -0.24534573 -0.00000101
-0.06748668 -0.36668953 0.00000000
-0.42215573 -0.22212592 0.00000000
-0.24501193 -0.30812400 0.00000000
-0.42259684 -0.68791862 0.00000000
-0.43852841 -0.76492987 0.03837390
-0.11645378 0.64522241 0.01019001
-0.74614520 -0.34138901 -0.00000115
-0.06909413 0.42902253 0.00604150
-0.14304975 0.22962987 0.00000640
-0.33441496 0.21374147 0.00000337
-0.75295780 -0.73877490 0.06588844
-0.17374043 0.23178438 0.01519715
-0.22019516 0.04292340 0.00000000
-0.03404965 -0.55694857 0.00297955
-0.59806950 -0.60218862 0.05233480
-0.42908970 0.29249058 0.00000024
-0.13763462 0.52963607 0.01204184
-0.44956319 0.00813512 0.03934000
-0.32973728 -0.36154082 0.02885402
-0.28186519 -0.28848894 0.00000000
-0.56865083 0.12903969 0.04976156
-0.11012206 -0.41249127 0.00000000
-0.32223914 0.42487122 -0.00000071
-0.20605089 0.41956856 0.00000240
-0.12536458 0.37476119 0.00000449
-0.06536687 0.73021777 -0.00000016
-0.72129375 -0.66715238 0.06311786
-0.11797568 0.66425929 -0.00000026
-0.13245394 -0.47322036 0.01159053
-0.73438834 -0.52352775 0.06426406
-0.10640714 -0.64541174 0.00000000
-0.16128063 0.27539517 0.01411304
-0.31635194 0.05166989 -0.00000003
-0.31579451 0.11501740 0.02763407
-0.61144772 -0.26780412 0.05350607
-0.55147262 -0.34340039 0.04825752
-0.28141871 0.22685375 0.00000417
-0.16582303 -0.35949613 0.01451052
-0.14620954 -0.04333239 0.00000000
-0.78631658 -0.40530915 0.06880833
-0.70884721 0.00791203 -0.00000038
-0.13316915 -0.03199971 0.01165311
-0.19259707 -0.56063183 0.01685342
-0.15514908 0.45100715 0.01357342
-0.50737529 -0.05012771 0.04439904
-0.71746543 -0.42266821 -0.00000090
-0.43779912 -0.08432705 0.03831037
-0.16202678 0.50870009 0.01417642
-0.07715929 -0.01083624 0.00000000
-0.35485675 -0.04933859 0.03105214
-0.37854076 0.23893830 0.00000210
-0.74957562 -0.48271736 -0.00000079
-0.12978468 -0.00343665 0.01135695
-0.45866508 -0.19761885 0.04013617
-0.27655283 0.38922127 0.02419833
-0.03903193 0.20039880 0.00000841
-0.34254503 0.07480764 0.02997494
-0.29287310 0.46799872 -0.00000066
-0.00068740 0.24001767 0.00005170
-0.56824305 0.04619282 -0.00000109
-0.49242275 -0.66981642 0.04308999
-0.09666220 0.45727605 0.00000368
-0.17739186 -0.47976158 0.01552287
-0.31518408 0.37452917 0.00000105
-0.46867011 0.17252692 0.04101232
-0.18743140 0.00913815 0.01640139
-0.14333124 -0.21252270 0.00000000
-0.11757082 -0.35798494 0.00000000
-0.48171342 -0.56698765 0.04215285
-0.23167851 -0.24017306 0.02027328
-0.57292487 -0.41372513 -0.00000030
-0.12700477 0.22737788 0.00000000
-0.51599488 -0.35832383 -0.00000015
-0.38354422 0.18771280 -0.00000055
-0.10660385 0.33187313 0.00000541
-0.23089535 -0.66540206 0.02020475
-0.11998783 0.06341167 0.00000924
-0.50226350 0.02291487 0.00000334
-0.76848165 -0.72778448 0.06724688
-0.50157231 -0.27734735 0.04389085
-0.68798107 0.02574842 -0.00000028
-0.48441881 -0.10965179 -0.00000046
-0.63972967 0.08414219 -0.00000146
-0.07661991 0.40430398 0.00000478
-0.22890955 -0.05874042 0.00000000
-0.25486468 0.28050547 0.00000378
-0.67425116 0.04271257 -0.00000154
-0.45819256 0.33053706 0.04009553
-0.61547531 -0.07861612 0.05385883
-0.02981898 0.24342431 0.00260934
-0.21259917 0.15927428 0.01860372
-0.10058370 0.64537409 0.00000065
-0.75646384 -0.10376018 -0.00000163
-0.58516796 0.10394875 0.05120694
-0.10734501 0.48319931 0.00000313
-0.55386827 -0.53043905 0.04846686
-0.60174379 -0.41160188 0.05265664
-0.65094106 -0.52904904 0.05696171
-0.18081225 0.05243509 0.01581336
-0.57131051 -0.34149549 0.04999354
-0.67985547 -0.31208299 -0.00000094
-0.13239855 0.30220001 0.00000000
-0.08931643 0.09241131 0.00000927
-0.34889562 -0.50403376 0.03053049
-0.21949989 -0.45200556 0.01920758
-0.66754288 -0.42987944 -0.00000067
-0.58290785 -0.77140920 0.05100798
-0.29613902 0.10806007 -0.00000004
-0.35410271 0.43679895 0.03098683
-0.49039131 -0.35010998 -0.00000006
-0.07395370 0.30584851 0.00646495
-0.34427450 0.25052552 -0.00000050
-0.01536852 -0.19244459 0.00134484
-0.28483350 0.20881345 -0.00000017
-0.08582282 0.33433149 0.00750416
-0.68426729 -0.46989156 0.05987818
-0.24714757 0.05207098 0.00000749
-0.04997583 0.17016813 0.00000000
-0.45818560 0.17793163 0.04009483
-0.32304218 0.37768657 0.00000085
-0.00542874 0.69853409 0.00000144
-0.51628611 -0.46336423 0.04517817
-0.73636343 -0.56854970 -0.00000058
-0.76575193 -0.64869980 0.06700822
-0.63168418 0.15877097 -0.00000142
-0.44302572 -0.31207385 0.03876745
-0.71688347 -0.60603299 0.06273209
-0.38650314 0.36975647 0.03382152
-0.05268524 -0.22771128 0.00461028
-0.47277080 -0.04610850 -0.00000052
-0.67596956 -0.25380991 0.05915240
-0.49989396 0.27781388 0.04374456
-0.39304716 -0.68589258 0.00000000
-0.63565509 -0.03814737 -0.00000123
-0.46347207 0.13693917 -0.00000081
-0.04097573 0.55085520 0.00000000
-0.03717396 0.23884533 0.00324498
-0.54067095 -0.59142557 0.04731200
-0.37217798 -0.19949699 0.03256784
-0.42099001 0.15770577 0.03683980
-0.11090709 0.42658836 0.00970504
-0.10844828 0.01685788 0.00001011
-0.28703788 -0.58777355 0.02511756
-0.37147515 0.13981983 0.03250210
-0.44174490 -0.08282350 0.03865567
-0.12292995 0.62876263 0.01075733
-0.44083385 -0.57190867 0.03857564
-0.31155770 0.17142954 0.00000452
-0.55758721 -0.74988873 0.04879227
-0.29270094 0.29413051 0.02561345
-0.64855228 -0.24135084 0.05675314
-0.30239906 -0.57723849 0.00000000
-0.21259469 0.04986881 0.01860333
-0.61934187 -0.39980518 0.05419667
-0.01569242 0.73371980 0.00137318
-0.39571810 -0.29781204 0.03462774
-0.46351504 0.28006613 0.04056049
-0.75109556 -0.08134566 0.06572696
-0.07118935 -0.58687509 0.00000000
-0.13980122 -0.67369806 0.01223346
-0.00805249 -0.79888892 0.00070464
-0.20835366 -0.65349380 0.01823221
-0.55090853 0.01636409 0.04820504
-0.41272953 0.08898835 -0.00000050
-0.19303851 0.37252626 0.00000343
-0.12219784 0.60154154 0.00000097
-0.09101320 0.66278594 -0.00000015
-0.43045880 0.03451687 0.03766285
-0.14409332 -0.65294542 0.01260904
-0.50094897 -0.60639619 0.00000000
-0.00506301 -0.73951869 0.00000000
-0.08250875 0.47294264 0.00721621
-0.47583171 0.29580116 0.04163880
-0.19750131 -0.07370937 0.00000000
-0.18857686 0.38748674 0.00000327
-0.52566453 0.09994542 -0.00000101
-0.21192079 -0.41676972 0.00000000
-0.45882701 0.12876328 0.00000240
-0.00765584 0.69126849 0.00066840
-0.05504169 0.66086307 0.00481514
-0.65524026 -0.34493294 0.05733823
-0.03029999 -0.26945041 0.00265143
-0.31949647 0.32399640 -0.00000052
-0.51660870 -0.46400291 0.04520640
-0.67004766 -0.03330506 0.05863454
-0.24687487 -0.21437091 0.02160305
-0.14372554 0.45234930 0.01257686
-0.14647574 0.31391029 0.01281219
-0.18827209 -0.29874474 0.01647495
-0.46938975 0.03246086 0.04107506
-0.49587294 0.18011609 -0.00000102
-0.06421119 0.03508236 0.00000000
-0.04494657 -0.49702732 0.00393310
-0.53955849 0.07975291 -0.00000103
-0.20973636 -0.22100011 0.00000000
-0.16275145 -0.50175912 0.00000000
-0.21948288 -0.56152551 0.00000000
-0.06307922 0.49049376 0.00551981
-0.05367235 0.59217667 0.00469426
-0.06991174 0.22673573 0.00611000
-0.75539353 -0.18394391 -0.00000148
-0.29366746 0.30384262 0.00000265
-0.10810339 -0.68619249 0.00945970
-0.24865335 0.24119622 0.02175875
-0.25671189 0.51202640 0.02246391
-0.22984504 -0.67966009 0.02011284
-0.31833127 -0.44444437 0.02785592
-0.05838725 0.59466536 0.00510924
-0.28976261 -0.55442113 0.02535599
-0.09096642 0.48090321 0.00795655
-0.08501240 -0.67393065 0.00743910
-0.24320015 -0.04218082 0.02128149
-0.37504334 0.40230553 0.03281941
-0.01400058 0.03447131 0.00121376
-0.02712911 0.18809952 0.00000000
-0.50470346 -0.38640544 -0.00000006
-0.73269608 -0.32318220 0.06411643
-0.51734724 -0.60882584 0.04527103
-0.48578760 -0.72012593 0.04250937
-0.23428177 0.00043446 0.02049222
-0.54938587 -0.60652183 0.00000000
-0.40481620 0.01878503 0.03542421
-0.22535621 0.39553788 -0.00000025
-0.02539284 0.74360350 0.00222154
-0.34799856 0.00100813 0.00000666
-0.62969203 -0.20598976 0.05510273
-0.38656859 -0.16265756 0.03382710
-0.28663831 -0.77884019 0.00000000
-0.45847576 0.34006660 -0.00000114
-0.60136121 -0.64630391 -0.00000001
-0.50276033 -0.15088291 0.04399502
-0.20076394 -0.31700712 0.01756807
-0.18082074 -0.72008781 0.01582291
-0.74948562 -0.39902066 0.06558545
-0.01305940 0.07940912 0.00000000
-0.00181411 -0.40588908 0.00000000
-0.64849645 -0.76130438 0.05674740
-0.17808703 0.00010299 0.01558370
-0.05158681 0.08466349 0.00000995
-0.52337294 -0.07378191 0.04579896
-0.01527527 0.16814621 0.00000000
-0.59587429 -0.19366671 -0.00000079
-0.20502608 0.56375704 -0.00000046
-0.58373805 -0.50315865 -0.00000019
-0.00709936 -0.68870102 0.00000000
-0.45672487 -0.45937577 0.03996620
-0.70513425 -0.57409320 -0.00000056
-0.41621996 -0.02932325 -0.00000031
-0.73210904 -0.03794918 0.06406552
-0.19633233 0.20373907 0.01718027
-0.76580075 -0.37769950 0.06701316
-0.40507065 -0.12434360 0.03544624
-0.58373652 -0.17391312 0.05108122
-0.03899070 0.26140244 0.00000000
-0.25901521 0.12514822 0.02266541
-0.55842229 -0.53730782 -0.00000002
-0.08107236 0.61635423 -0.00000002
-0.29787551 0.06736900 0.02605895
-0.29176283 0.25774625 0.00000345
-0.38365065 -0.72664619 0.03357177
-0.25214377 0.10537097 0.02206411
-0.50978340 0.06526798 -0.00000088
-0.36388218 -0.31103391 0.03184190
-0.32768890 -0.77102164 0.02867477
-0.45076485 -0.16768446 -0.00000021
-0.20891726 0.33224374 -0.00000006
-0.13675651 0.35473674 0.01196703
-0.53184289 -0.45128271 -0.00000006
-0.05069120 -0.03407516 0.00000000
-0.08529224 -0.51815977 0.00746359
-0.40715974 0.38905163 0.03562989
-0.19360279 0.02981826 0.00000863
-0.20017248 0.32034858 0.00000417
-0.14371335 -0.49725325 0.00000000
-0.04785164 -0.39319765 0.00000000
-0.48064738 -0.29796570 0.04205968
-0.63472710 0.06357591 0.00000011
-0.61969877 0.09204836 -0.00000008
-0.40000231 -0.17884068 0.03500263
-0.08887193 0.25172494 0.00000688
-0.44540127 -0.04405954 -0.00000041
-0.00151159 0.01821800 0.00012048
-0.38135862 -0.09226741 -0.00000005
-0.56375997 -0.06530229 -0.00000088
-0.25516008 -0.25871651 0.00000000
-0.64346629 -0.70706548 -0.00000008
-0.54424020 0.19122992 -0.00000028
-0.05543763 0.14429641 0.00000900
-0.07352543 -0.13612889 0.00000000
-0.13714629 0.44076446 0.00000332
-0.66954189 -0.49321364 -0.00000057
-0.56692524 0.08830503 0.04960819
-0.01791191 -0.13262119 0.00000000
-0.66080765 -0.54493704 -0.00000044
-0.51185243 0.24520601 0.04479066
-0.16516756 0.01461611 0.00000929
-0.59861980 -0.08786340 -0.00000099
-0.25374395 0.48494573 0.00000039
-0.50669391 0.14181506 0.04433732
-0.78415523 -0.49189526 0.06861899
-0.23238579 0.30806724 -0.00000012
-0.00710906 0.36340429 0.00000644
-0.16210739 -0.79776899 0.00000000
-0.46891049 -0.72237192 0.00000000
-0.48516608 0.08639838 0.04245209
-0.13806304 -0.18532264 0.00000000
-0.50287306 0.13546042 0.04400536
-0.27938608 0.26899592 0.02444822
-0.30706574 0.39451641 0.02686911
-0.74046683 -0.45782194 -0.00000086
-0.26247691 0.15239239 0.02296833
-0.00047107 0.15013907 0.00000974
-0.24058668 0.12221486 0.02105280
-0.00574083 -0.68778807 0.00050236
-0.04842790 0.06716411 0.00422733
-0.47187929 0.20785190 0.04129130
-0.22553388 0.48184346 0.01973448
-0.62226414 0.01436569 0.05445308
-0.63734426 -0.18042819 0.05577242
-0.43487480 0.04348304 0.03805468
-0.20755418 -0.26893611 0.01816225
-0.24157669 -0.58621745 0.00000000
-0.07206250 0.03693479 0.00000000
-0.35863259 0.41303037 0.03138332
-0.19503429 0.12628979 0.00000716
-0.44597931 0.19499558 0.00000154
-0.43466224 0.35521978 -0.00000107
-0.21450554 0.34870738 -0.00000012
-0.07718896 0.21335428 0.00000763
-0.14211702 -0.40637023 0.01243610
-0.46229540 0.27582425 0.04045367
-0.58431611 -0.34483905 0.05113166
-0.26309621 -0.56688029 0.00000000
-0.57695814 0.15527681 0.05048752
-0.53918289 -0.36240813 -0.00000025
-0.17444972 0.43610197 -0.00000010
-0.55620927 0.08955924 0.04867029
-0.35005320 0.06056591 0.00000563
-0.39258923 -0.09966596 -0.00000009
-0.66540381 0.07577993 -0.00000068
-0.77278206 -0.53357362 0.06762367
-0.12138674 -0.46310356 0.01062208
-0.11539196 0.59973603 -0.00000014
-0.18169046 -0.19006591 0.01589902
-0.33544917 -0.23037714 0.02935384
-0.36387457 0.32281795 -0.00000071
-0.28203140 0.50775352 0.02468010
-0.24037557 0.48671207 0.02103361
-0.36738814 -0.70033747 0.03214870
-0.11510430 0.14789913 0.00000000
-0.57214362 -0.78167416 0.00000000
-0.20822528 -0.17165654 0.00000000
-0.34104638 -0.63183143 0.02984363
-0.29321940 0.12459024 -0.00000006
-0.14714087 -0.29086795 0.00000000
-0.04833548 0.45468622 0.00422965
-0.51731386 -0.12973194 0.04526864
-0.29017253 0.47799641 -0.00000019
-0.64044525 -0.37686185 -0.00000065
-0.49846752 -0.43042696 0.04361894
-0.53238071 -0.32158220 -0.00000029
-0.02652011 0.53171661 0.00232067
-0.32738926 0.16520886 -0.00000028
-0.44512058 0.18799328 0.03895152
-0.41701480 0.05525611 0.03649177
-0.14957486 -0.35130278 0.01308871
-0.07205956 0.59982210 0.00000192
-0.01076711 -0.48543066 0.00000000
-0.53170009 0.03519409 0.00000256
-0.33774720 0.24844528 0.02955195
-0.30346453 -0.67476759 0.02655499
-0.25211788 0.07466500 0.00000708
-0.31691671 0.25895557 0.02772892
-0.34067341 0.15261313 0.02981129
-0.69983046 -0.49012447 0.06124009
-0.46070077 0.29646213 0.04031446
-0.28628277 0.02200830 0.00000735
-0.22279213 -0.01111503 0.00000000
-0.52323383 -0.10348309 0.04578674
-0.62648126 -0.06534196 -0.00000114
-0.70524305 -0.21366897 -0.00000122
-0.71193452 -0.57671885 -0.00000056
-0.75407727 -0.73617747 0.06598641
-0.04543103 0.22320698 0.00000000
-0.37881877 0.35991918 0.03314876
-0.72790828 0.05929709 -0.00000180
-0.77628944 -0.17096665 0.06793149
-0.05770158 -0.39604828 0.00000000
-0.49302443 0.05355233 0.04313932
-0.16333398 0.49206120 0.01429286
-0.33619451 0.12376855 0.02941929
-0.34717018 0.25905962 0.03037999
-0.60964128 0.03960849 -0.00000126
-0.28211761 -0.54344604 0.02468701
-0.77407042 -0.46842722 -0.00000083
-0.24533572 0.29408647 0.02146433
-0.49834823 0.24647309 -0.00000032
-0.27527754 0.01037505 0.00000769
-0.47233851 0.29685115 -0.00000067
-0.42580218 -0.25307872 0.00000000
-0.64901679 0.09648027 0.05679350
-0.69306524 -0.30586178 0.06064836
-0.14645830 0.09017898 0.00000844
-0.46364010 0.11190358 0.00000259
-0.49518533 -0.09053538 -0.00000054
-0.19134289 -0.47783286 0.01674367
-0.50898474 0.14868979 0.04454021
-0.36139658 0.18261493 0.03162072
-0.03740871 0.38486201 0.00327349
-0.09606886 0.52305438 0.00840375
-0.02558210 0.20094994 0.00222989
-0.57350272 -0.49365428 0.05018513
-0.55687588 -0.43803177 -0.00000019
-0.57035344 0.21868783 -0.00000141
-0.01783183 -0.63868036 0.00156039
-0.04261874 -0.24964758 0.00372940
-0.14661724 -0.43216683 0.00000000
-0.23705931 0.48702858 0.02074335
-0.14475273 -0.45269050 0.01266674
-0.71865196 -0.19006579 -0.00000132
-0.15316917 -0.19169412 0.00000000
-0.67887793 -0.26014613 0.05940690
-0.08148563 -0.13014601 0.00000000
-0.27956961 0.15196138 0.02446409
-0.29312664 0.04011486 0.02565036
-0.07997970 -0.12618546 0.00699871
-0.01265578 0.70155391 0.00000129
-0.40371520 0.33431970 -0.00000090
-0.05068971 0.73154598 -0.00000010
-0.46161919 -0.27155349 -0.00000008
-0.43732353 -0.34518167 0.03826847
-0.30510649 -0.60677631 0.00000000
-0.65714400 0.02493167 0.05750357
-0.13474985 0.05169373 0.00000000
-0.69126925 -0.50944624 0.06049086
-0.02505550 -0.69463831 0.00000000
-0.46759278 -0.35643175 0.00000000
-0.34233392 -0.18667362 0.02995630
-0.06560914 -0.46539743 0.00000000
-0.08582695 0.57503784 0.00000000
-0.39774994 -0.18162451 0.03480554
-0.26373495 0.48877986 -0.00000058
-0.57655418 -0.33968719 -0.00000045
-0.26644563 -0.62072202 0.00000000
-0.26863417 -0.18161365 0.02350712
-0.31081359 0.35452799 0.02719858
-0.45710218 -0.05932089 0.03999963
-0.48243714 0.16467155 0.00000135
-0.47479164 0.31147683 0.04154824
-0.70166288 -0.18336891 -0.00000126
-0.07891593 0.66990826 0.00690490
-0.01090598 0.24935407 0.00000000
-0.38155883 -0.47943049 0.03338872
-0.57820202 0.09588172 0.05059534
-0.08981149 -0.06476434 0.00785905
-0.21252212 -0.39987112 0.01859698
-0.52842159 -0.46483210 -0.00000002
-0.17346465 -0.57825193 0.00000000
-0.59275266 -0.31386536 0.05186999
-0.28712430 -0.70477313 0.02512512
-0.47348221 -0.30285936 0.04143265
-0.75342868 -0.26927989 0.06593082
-0.03452219 0.21109668 0.00000000
-0.60404377 -0.49721222 0.05285778
-0.43078789 -0.42908419 0.00000000
-0.35251480 0.05832147 0.00000562
-0.34921573 0.09312403 0.00000510
-0.44950279 -0.67533460 0.00000000
-0.33533807 -0.02019323 0.02934412
-0.20221810 0.32295949 0.00000409
-0.14793229 -0.01390818 0.00000000
-0.38366578 0.38996863 -0.00000052
-0.25824332 -0.61534108 0.00000000
-0.23970326 0.20169122 0.00000536
-0.23176840 -0.00885417 0.02028114
-0.41096584 0.34499997 -0.00000095
-0.75693035 -0.70161685 0.06623615
-0.57407116 -0.40516854 -0.00000032
-0.65780767 0.10684263 -0.00000158
-0.17836235 0.45478564 0.01560526
-0.78684762 -0.21170649 0.06885528
-0.07084542 0.52587814 0.00619941
-0.19593471 -0.16076881 0.01714548
-0.02135378 0.66586561 0.00186859
-0.21189906 0.46699696 0.00000149
-0.42064460 -0.47622682 0.03680896
-0.39400045 0.18567309 0.03447799
-0.78761120 0.00861355 -0.00000191
-0.04303748 -0.29855303 0.00376604
-0.74262876 -0.45197573 -0.00000087
-0.11680322 -0.15508484 0.00000000
-0.16486374 0.61916080 -0.00000038
-0.03222330 -0.37478670 0.00281973
-0.59476614 0.11196723 0.05204542
-0.12358268 0.29353041 0.01080828
-0.49176586 0.04858957 -0.00000077
-0.28176388 -0.30457984 0.00000000
-0.40088348 0.31018580 -0.00000085
-0.34721313 -0.12799759 0.00000000
-0.02755314 0.35408823 0.00240471
-0.13955539 -0.59493806 0.00000000
-0.62355749 -0.65623064 -0.00000009
-0.56734917 -0.37741335 -0.00000034
-0.65555321 -0.07484650 -0.00000125
-0.09394223 0.08041457 0.00000000
-0.60373047 -0.21500937 0.05283082
-0.05022863 0.39826505 0.00439531
-0.30163626 0.47357811 0.02639567
-0.51156077 -0.51494904 0.04476468
-0.17490394 0.45034230 0.01530528
-0.71758147 -0.47265133 0.06279350
-0.39442088 -0.48431672 0.00000000
-0.01279955 0.47435673 0.00112004
-0.38452552 -0.46719058 0.03364832
-0.02466468 -0.48708794 0.00000000
-0.58911100 -0.21436220 -0.00000072
-0.57174236 0.16143198 -0.00000131
-0.18369584 -0.48752183 0.00000000
-0.17535864 0.13513372 0.00000000
-0.52732847 -0.09163508 -0.00000067
-0.23873572 0.02412311 0.00000000
-0.30987517 0.00223164 0.02711596
-0.43664834 0.25552115 0.03821023
-0.56871414 -0.21939693 -0.00000063
-0.48651016 -0.36637737 0.04257262
-0.00632920 0.61722662 0.00000000
-0.18080106 0.11337021 0.00000757
-0.55280471 -0.17623302 -0.00000063
-0.02053293 0.46748867 0.00179201
-0.30531777 0.07794394 -0.00000003
-0.44849135 0.24507208 0.03924490
-0.18255404 -0.24843829 0.00000000
-0.26192064 -0.69160111 0.00000000
-0.05504827 -0.57884561 0.00481706
-0.69041493 0.02220337 -0.00000157
-0.50456042 -0.44957210 0.04415211
-0.25812136 0.37373876 0.02258751
-0.27654156 0.30233505 0.00000300
-0.29359775 0.46181554 0.00000001
-0.42665670 0.15250008 0.03733569
-0.00099313 -0.75208828 0.00008690
-0.71809217 -0.16050800 0.06283871
-0.36581647 0.03856520 0.00000569
-0.02253760 0.11646140 0.00197218
-0.05399708 -0.35030794 0.00472507
-0.24094821 -0.52423053 0.00000000
-0.50193485 -0.38633218 0.04392240
-0.18350708 0.34515240 0.01605364
-0.19700738 -0.58636956 0.01723934
-0.24575540 0.15957309 0.00000000
-0.62381645 0.14597909 -0.00000151
-0.04748600 0.38994429 0.00414977
-0.42144411 0.33075067 -0.00000097
-0.75893428 -0.30386680 0.06641250
-0.69622433 0.00784299 0.06092383
-0.56658342 -0.37514022 -0.00000034
-0.45067448 -0.30345838 0.00000000
-0.19833540 0.50258296 -0.00000032
-0.31022425 0.35795040 0.02714491
-0.05709921 -0.54364499 0.00499653
-0.27483004 0.38440275 0.00000166
-0.25687445 -0.79993713 0.00000000
-0.27681811 0.36019427 0.02422104
-0.59153692 -0.37601073 0.05176350
-0.54648174 0.14848771 0.04782158
-0.23852745 -0.14022556 0.02087260
-0.62336648 0.02770880 0.05454957
-0.45276016 0.14245681 0.03961999
-0.34548627 0.03950687 0.03023228
-0.18736500 0.37510949 0.00000350
-0.24503767 0.12820659 0.00000638
-0.68576294 -0.51528256 0.06000899
-0.25820382 -0.61960451 0.00000000
-0.49817926 0.26377498 -0.00000061
-0.05710777 0.45902421 0.00000000
-0.64146295 -0.04790626 0.05613306
-0.55512854 -0.51497408 0.04857717
-0.38987767 0.08200732 -0.00000039
-0.43949530 -0.10657816 0.03845877
-0.09578486 0.68878228 0.00838196
-0.20996968 -0.59454709 0.00000000
-0.28967677 -0.43743965 0.00000000
-0.71521650 -0.64101990 0.06258613
-0.30041895 0.32295151 0.02628607
-0.32114084 -0.02904077 0.02810178
-0.59978796 -0.79394242 0.05248509
-0.17543220 0.21721412 0.00000000
-0.26610820 0.06746544 0.00000000
-0.28668262 -0.74699988 0.00000000
-0.42794636 -0.51487255 0.03744791
-0.16776679 0.09947946 0.00000798
-0.18493990 -0.66834552 0.01618337
-0.34464518 -0.47370984 0.00000000
-0.63073906 0.16893140 -0.00000157
-0.04397799 -0.14682344 0.00000000
-0.56565136 -0.29905587 -0.00000047
-0.43389921 0.15671701 0.03796949
-0.28241879 -0.58016967 0.00000000
-0.64612217 0.08093369 0.05653987
-0.09746176 -0.11898225 0.00000000
-0.32368504 0.29127443 0.00000228
-0.26736117 -0.37700510 0.02339573
-0.07676504 0.45115060 0.00671319
-0.73693871 -0.12648600 -0.00000151
-0.26355853 -0.49611593 0.00000000
-0.00642273 -0.40488004 0.00056203
-0.02914471 -0.04670654 0.00000000
-0.05468787 0.15744416 0.00000000
-0.04544693 0.20526361 0.00000000
-0.04408804 -0.38081593 0.00000000
-0.70349330 -0.29752669 -0.00000106
-0.08261269 0.04143393 0.00721879
-0.00745241 -0.61054370 0.00065213
-0.61588805 -0.00497943 -0.00000121
-0.23017686 -0.03013461 0.00000000
-0.34391276 -0.17530359 0.00000000
-0.46037841 -0.53629118 0.04028591
-0.59889701 -0.46496881 0.05240744
-0.12539142 0.17236042 0.01096475
-0.06743426 0.12071005 0.00000917
-0.17952098 -0.61524186 0.00000000
-0.09043364 0.45561053 0.00000380
-0.02257183 0.58243012 0.00000000
-0.12869666 0.65920420 0.01126183
-0.37969538 -0.29907568 0.03322565
-0.35874511 -0.18456352 0.00000000
-0.64058565 -0.72758682 0.05605518
-0.73909473 0.05612697 -0.00000177
-0.01787378 0.40145654 0.00156406
-0.06379301 -0.33828090 0.00000000
-0.24745585 0.28267109 0.00000389
-0.13788108 0.42453899 0.01206166
-0.17412728 -0.04192569 0.00000000
-0.75102814 -0.07933805 0.06572107
-0.19641127 -0.47611403 0.01718718
-0.60951168 -0.77168839 0.05333598
-0.46677499 -0.61027547 0.00000000
-0.14577572 0.65207573 -0.00000033
-0.02436932 0.60585892 0.00213246
-0.38888209 -0.10858185 -0.00000005
-0.26127859 0.10524300 0.02285656
-0.22282237 -0.04163748 0.00000000
-0.28776163 -0.19570181 0.02518089
-0.75097639 -0.35307248 -0.00000112
-0.28623093 0.50201815 -0.00000052
-0.37066672 0.12691693 0.03243596
-0.06780037 0.02979608 0.00001053
-0.23783860 0.34236654 0.02081252
-0.74468466 -0.06293511 -0.00000165
-0.47352967 -0.63153291 0.00000000
-0.01853162 0.48109346 0.00000000
-0.21099475 -0.70237325 0.00000000
-0.34959598 -0.32297695 0.03059177
-0.46124898 -0.02482016 -0.00000051
-0.65680778 0.01278555 0.05747599
-0.38443005 0.38799332 -0.00000050
-0.14167927 -0.62805857 0.00000000
-0.08106903 -0.50516576 0.00709403
-0.09046796 -0.16972024 0.00000000
-0.25145295 0.08626949 0.02200366
-0.62495899 -0.03239661 0.05468883
-0.12783212 0.07223992 0.00000899
-0.74273461 0.02815413 0.06499548
-0.05412413 0.55864322 0.00473619
-0.09512856 0.43227051 0.00000408
-0.14551728 0.26606847 0.01273365
-0.03645811 0.27580729 0.00319031
-0.67135906 -0.00713323 -0.00000144
-0.78299595 -0.48961193 0.06851755
-0.50122993 0.12414120 0.04385877
-0.26644526 -0.47432738 0.02331558
-0.48036913 -0.04421499 0.04203574
-0.78659949 -0.09946893 0.06883385
-0.02613833 0.06726256 0.00000000
-0.70308873 -0.61847589 0.06152495
-0.37179310 0.14824345 -0.00000043
-0.02181150 0.28557376 0.00000000
-0.25838766 0.23830835 0.02261060
-0.03014175 0.16247801 0.00262837
-0.72960783 -0.32855077 0.06384617
-0.11526293 -0.70752114 0.01008621
-0.38912899 -0.01065705 0.03405137
-0.05363243 -0.43800028 0.00000000
-0.38706807 -0.69827632 0.03387081
-0.52292069 0.06032522 0.00000231
-0.18672445 -0.68752052 0.01633953
-0.36306966 -0.70334088 0.00000000
-0.25255962 0.14555592 0.02209409
-0.63054292 0.09172645 0.05517647
-0.17441902 0.32538970 0.00000449
-0.49313855 0.14471260 -0.00000095
-0.27284689 0.13131730 0.02386941
-0.37962056 -0.20799449 0.03321911
-0.79691742 -0.69626463 -0.00000026
-0.30850749 0.03799415 0.02698901
-0.21288223 -0.49999285 0.01862849
-0.63029317 -0.16731841 -0.00000098
-0.09651437 0.05827745 0.00844559
-0.77093709 -0.37268183 -0.00000107
-0.18633793 -0.33710692 0.00000000
-0.04595625 -0.25686483 0.00402145
-0.14027217 0.29947665 0.00000000
-0.16345064 0.45082158 0.01430002
-0.38930933 0.11248159 0.00000401
-0.04546533 -0.40658067 0.00397849
-0.00887677 0.21505186 0.00000000
-0.44566048 -0.01632420 -0.00000046
-0.69752217 -0.16719274 0.06103861
-0.74217329 -0.72860191 -0.00000018
-0.68855756 -0.66790872 -0.00000033
-0.40240288 -0.55941667 0.00000000
-0.22578783 -0.21259446 0.01975781
-0.05389208 -0.23759926 0.00000000
-0.16095528 -0.56543132 0.01408457
-0.19174445 -0.00059269 0.01677881
-0.38848489 0.31356538 -0.00000080
-0.13675524 0.54307730 0.01196704
-0.51512194 0.13593772 0.00000120
-0.12813199 0.10771024 0.01120363
-0.14836291 0.07687227 0.01298266
-0.06181183 -0.03663349 0.00540891
-0.23587853 0.48122675 0.00000080
-0.31532096 0.38048947 0.02759307
-0.28432003 -0.50853403 0.02487973
-0.18742144 -0.07776528 0.00000000
-0.45668989 -0.53651622 0.03996314
-0.01061324 -0.76730035 0.00092872
-0.28241358 0.23008210 0.02470848
-0.65332291 0.06805306 -0.00000149
-0.06550352 0.19526406 0.00573196
-0.08432133 0.70356410 0.00737881
-0.58506506 -0.48432212 -0.00000023
-0.38471522 -0.66340139 0.00000000
-0.34447180 0.15729868 0.00000412
-0.02382430 0.19382547 0.00207594
-0.42712176 -0.43687325 0.00000000
-0.41144712 -0.58136361 0.00000000
-0.11263331 0.31326749 0.00985030
-0.46732530 -0.16883711 0.04089407
-0.06291061 0.38550184 0.00000527
-0.00448243 -0.29844074 0.00000000
-0.68932203 -0.77174496 0.06031991
-0.26281182 -0.00354565 0.00000000
-0.07572230 -0.25091118 0.00000000
-0.33630425 0.02135490 -0.00000006
-0.34103912 0.37657647 -0.00000071
-0.22306026 0.18756955 0.00000582
-0.15082850 0.23997929 0.00000000
-0.18372806 0.12502959 0.00000735
-0.27150087 -0.19354722 0.02375798
-0.52225983 -0.72944637 0.00000000
-0.08446737 -0.46721617 0.00739141
-0.45108711 0.23636529 0.00000075
-0.16101007 0.23445397 0.00000605
-0.38311930 0.38987131 -0.00000091
-0.43112495 -0.22800102 0.03772608
-0.03860415 0.05811204 0.00336742
-0.27016924 0.21515851 0.02363652
-0.06434739 0.31021408 0.00563079
-0.24883080 -0.39317076 0.00000000
-0.10607476 0.54374518 0.00000224
-0.08828153 -0.13850900 0.00000000
-0.03010725 0.38209693 0.00263457
-0.17098506 -0.65093245 0.00000000
-0.39186496 0.05250436 0.03428520
-0.75767875 -0.47461685 -0.00000081
-0.59679084 -0.05262705 -0.00000104
-0.57369049 0.11492115 0.00000043
-0.15613810 -0.78812374 0.01366303
-0.14652269 0.33257709 0.01282163
-0.74872769 0.00570378 0.06551921
-0.09376350 -0.29262447 0.00820488
-0.25749036 0.34677500 0.02253225
-0.18951612 0.51399168 0.00000114
-0.45899894 -0.26624079 -0.00000007
-0.45720410 -0.07890810 0.04000851
-0.48484763 0.18876115 -0.00000099
-0.12095289 -0.08725712 0.00000000
-0.25041952 0.54028444 -0.00000047
-0.02521273 0.67061073 0.00220627
-0.21557283 0.29477956 -0.00000003
-0.01396444 0.65527242 0.00122197
-0.08994590 0.37866413 0.00000000
-0.12950770 0.17892070 0.01133271
-0.24938380 0.23067340 0.00000472
-0.40419905 -0.64357602 0.03536987
-0.08111842 0.46132721 0.00709836
-0.32118002 0.16023779 -0.00000024
-0.65473407 -0.03454678 -0.00000132
-0.18435079 0.59216247 -0.00000042
-0.12666283 0.14691060 0.01108377
-0.20651598 0.58481537 0.01807174
-0.09749187 0.32742000 0.00000562
-0.61974683 -0.04416829 0.05423269
-0.13759315 -0.75348496 0.01204024
-0.42014903 -0.54702188 0.00000000
-0.25284311 0.30525178 0.00000341
-0.23187938 0.43111860 0.00000171
-0.20551143 0.16902943 0.00000000
-0.71400000 0.07383775 -0.00000158
-0.49144027 -0.34228095 0.04300409
-0.23557730 -0.27026898 0.00000000
-0.10761888 0.27196113 0.00941081
-0.13703531 0.63846007 0.00000007
-0.03687108 0.38674164 0.00322644
-0.64605523 -0.25833202 -0.00000089
-0.63396919 -0.13609999 0.05547714
-0.79599802 -0.06101386 -0.00000185
-0.15092366 0.56269764 0.01320695
-0.23901700 0.28570548 0.00000400
-0.34527546 -0.07805292 0.00000000
-0.01930712 0.01930333 0.00001142
-0.69944482 0.02595132 -0.00000162
-0.35041430 0.14000122 -0.00000033
-0.21717353 0.42415409 0.01900425
-0.28144432 0.45994182 0.02462772
-0.48095527 -0.05543684 0.04208702
-0.64203437 0.03281437 -0.00000138
-0.43138554 -0.37736646 0.00000000
-0.35327977 -0.72440999 0.03091413
-0.06355545 0.12604497 0.00555218
-0.49349476 0.06696013 0.04318455
-0.12590967 0.00083786 0.00000000
-0.23591037 0.18916171 0.00000000
-0.07448035 0.12230228 0.00650827
-0.13640757 0.37752746 0.01193199
-0.03804562 0.11359640 0.00000972
-0.10024990 0.07141527 0.00000942
-0.01735742 -0.43808244 0.00151888
-0.08272862 0.53171700 0.00000000
-0.63371605 -0.01911778 0.05545518
-0.60785889 -0.73765256 0.00000000
-0.42102873 0.02199892 0.03683725
-0.23826094 -0.64384707 0.00000000
-0.55097370 0.08934236 0.00000129
-0.24113689 0.52998524 -0.00000055
-0.34795703 -0.28744205 0.00000000
-0.46583267 0.16037847 0.00000174
-0.71316777 -0.12954312 -0.00000140
-0.53750436 0.03814107 0.04703221
-0.57169293 -0.11131184 -0.00000083
-0.12411556 -0.68616768 0.00000000
-0.35432535 -0.21621452 0.03100562
-0.56310623 -0.60139861 0.00000000
-0.30960227 0.07376106 0.00000619
-0.52468826 -0.73556114 0.00000000
-0.12591554 0.22033261 0.01101135
-0.41861523 -0.27432907 0.03663138
-0.45341358 0.22556992 0.03967538
-0.12018658 0.14054343 0.01050875
-0.24600312 -0.46314446 0.00000000
-0.74260374 -0.69278810 -0.00000027
-0.11359366 0.35270987 0.00000000
-0.41285018 -0.29813325 0.03612690
-0.07383894 0.31558959 0.00000615
-0.24500171 0.26263988 0.00000427
-0.33768745 -0.67328306 0.02954971
-0.00358917 0.66043128 0.00031407
-0.08114178 -0.07549803 0.00000000
-0.06402223 0.15537166 0.00000000
-0.22037431 0.00274395 0.01927508
-0.52035781 -0.44468873 0.04553450
-0.28441729 0.49768940 -0.00000041
-0.36900724 0.15645144 -0.00000044
-0.62366427 -0.05930604 0.05457548
-0.37247443 0.06705644 0.00000509
-0.12422598 0.36216069 0.01086562
-0.10972965 0.43351167 0.00000384
-0.66146629 -0.01329510 0.05788361
-0.09021803 0.63704725 0.00789355
-0.77884234 -0.12438684 0.06815500
-0.16845331 0.04700542 0.01474069
-0.07854854 0.43666651 0.00000000
-0.54967603 0.16751037 0.00000001
-0.54031695 -0.26157995 -0.00000043
-0.35997823 -0.45406750 0.00000000
-0.15597943 0.42993071 0.01364916
-0.24996198 -0.42472445 0.02187319
-0.17066264 -0.60765690 0.00000000
-0.17633664 0.58128800 0.01543020
-0.25895099 0.12582101 0.00000621
-0.41190544 -0.78372355 0.03604423
-0.13499196 0.28436543 0.01180668
-0.04173550 0.34449176 0.00000620
-0.17959284 0.28716237 0.01571019
-0.48165010 0.00371543 0.04214288
-0.53035702 0.01052807 0.00000300
-0.13110358 0.07626898 0.01147236
-0.43889900 0.24453947 0.03840531
-0.49633237 -0.60759788 0.04343210
-0.15252803 0.13582869 0.01334713
-0.09538132 0.63687777 0.00834656
-0.45261293 -0.57726063 0.03960638
-0.56166055 0.14826695 0.04914846
-0.66925042 -0.38178769 0.05856420
-0.65398060 -0.14202565 0.05722833
-0.35349787 0.26206264 -0.00000056
-0.17023520 -0.24422679 0.00000000
-0.38619645 0.23830132 -0.00000066
-0.38272738 0.12728145 0.03349139
-0.42845080 0.26561643 -0.00000088
-0.55925282 -0.35998514 0.04893834
-0.13202367 0.47199892 0.00000000
-0.57322241 0.18337705 -0.00000071
-0.09982825 -0.74468844 0.00873558
-0.19738638 -0.22085596 0.00000000
-0.32870855 0.28013539 0.02876445
-0.02857344 0.15007380 0.00000000
-0.37163009 0.24570479 0.03251754
-0.50686460 -0.16078880 0.04435417
-0.30939346 0.08674625 0.02706739
-0.43936350 -0.21101960 -0.00000009
-0.28664060 0.11536785 0.00000593
-0.22470382 -0.27800111 0.01966295
