ply
format ascii 1.0
element vertex 1374
property float x
property float y
property float z
end_header
-0.30498928 0.67223932 -0.00000062
-0.15803088 0.12712077 -0.00000058
0.26973691 -0.56377128 -0.00000015
-0.38104464 -0.08334044 -0.00000043
-0.10034618 -0.37397131 -0.00000027
-0.75953315 0.10048433 -0.00000005
-0.16228470 -0.69295533 -0.00000007
-0.39474641 -0.59323766 -0.00000013
-0.76188214 0.53240474 -0.00000005
-0.66034358 0.12693345 -0.00000017
-0.02276705 0.06769134 -0.00000054
-0.55073967 -0.73082438 -0.00000004
0.39229355 0.11581304 0.26418930
-0.56445678 0.56066551 -0.00000029
-0.21086144 -0.17512673 -0.00000039
0.70642840 0.04126570 -0.00000094
0.74700637 -0.63417714 -0.00000021
-0.06232317 -0.17248380 -0.00000039
-0.69228500 0.49200527 -0.00000013
0.32627192 0.08388107 -0.00000058
-0.23082138 -0.51030258 -0.00000018
0.18740142 0.43675062 -0.00000081
-0.14658542 0.78585445 -0.00000082
-0.54775662 -0.47897767 -0.00000018
0.34148698 -0.32782381 -0.00000030
0.44319672 -0.13596212 -0.00000047
-0.21935297 -0.24888648 -0.00000034
0.48543182 0.30680131 0.00702787
0.00629731 -0.18750562 -0.00000038
-0.51957431 0.71776716 -0.00000035
0.19263862 -0.50455767 -0.00000018
0.57799189 -0.24573596 -0.00000050
0.78237018 -0.13394591 -0.00000083
-0.50033843 -0.65124242 -0.00000009
-0.54902035 0.40269490 -0.00000031
-0.15953624 0.57847121 -0.00000079
-0.26756281 -0.15236304 -0.00000040
0.61422813 -0.57614238 -0.00000019
0.10976184 -0.07009210 -0.00000046
0.39298472 -0.74414861 -0.00000003
-0.65774159 0.32577588 -0.00000018
0.42704004 -0.78803006 -0.00000001
-0.04977062 0.74542630 -0.00000094
-0.14897214 0.19368554 -0.00000062
0.22581001 0.55567507 0.01675588
0.58794257 -0.23723113 -0.00000052
0.16648756 0.44555429 -0.00000080
0.43477586 0.00434162 -0.00000061
-0.57553441 0.51936619 -0.00000028
-0.34436400 0.07593463 -0.00000050
0.15441088 0.32372285 -0.00000070
0.14237346 0.37903901 0.25214423
-0.45452385 0.16139663 -0.00000040
-0.15873642 0.39570126 -0.00000075
0.16646171 0.55215752 0.07365549
0.51089849 0.09758972 -0.00000080
-0.66337616 0.28181296 -0.00000017
-0.62316198 0.49902371 -0.00000022
0.24946663 -0.63061688 -0.00000011
-0.58153856 -0.16992166 -0.00000020
-0.27052451 0.76651104 -0.00000066
0.11407721 0.14395103 -0.00000059
-0.05047416 -0.27885159 -0.00000033
-0.19688731 0.17313926 -0.00000061
-0.40428805 -0.04230480 -0.00000041
0.32801502 0.12205431 0.31671730
-0.06291937 0.37976203 -0.00000074
0.30161403 0.41003600 0.07996328
0.35255104 -0.11495066 -0.00000043
-0.67242414 0.00176921 -0.00000014
0.11782168 0.07834752 -0.00000055
0.25343496 -0.64191905 -0.00000010
-0.56337245 -0.21763153 -0.00000021
-0.69016485 -0.28290831 -0.00000007
-0.54078234 0.23600947 -0.00000032
-0.23766036 0.35199779 -0.00000066
-0.71391578 0.60517024 -0.00000011
-0.26769608 0.30757693 -0.00000062
0.44907258 0.28035049 0.06387699
-0.34581956 0.56680699 -0.00000057
-0.17291984 0.43150184 -0.00000075
0.50832961 0.15116337 -0.00000085
-0.00441307 -0.69108886 -0.00000007
0.77619134 -0.62662375 -0.00000022
0.54433768 -0.20183521 -0.00000051
0.13118326 -0.69464659 -0.00000007
0.25253837 -0.18960369 -0.00000038
-0.30489578 -0.28021232 -0.00000032
0.29046584 0.07065000 -0.00000054
0.11342721 -0.61909468 -0.00000011
0.39535608 -0.07781158 -0.00000049
0.62580297 0.15742033 0.01518263
0.43877918 -0.72920484 -0.00000004
-0.30241303 0.36871513 -0.00000060
-0.66674420 -0.48143248 -0.00000005
-0.50384749 0.42384141 -0.00000037
-0.38417186 -0.48515660 -0.00000020
-0.05427237 -0.19968403 -0.00000038
-0.30434232 -0.07508972 -0.00000045
0.24973807 -0.14692396 -0.00000041
-0.49177433 0.49941337 -0.00000039
-0.76759041 0.53229908 -0.00000004
-0.47208970 -0.46267781 -0.00000021
0.35516354 0.36266488 0.07437125
0.17188475 -0.53613552 -0.00000016
0.23298664 -0.54847167 -0.00000016
-0.53636722 0.12926633 -0.00000030
-0.76735383 -0.65754215 0.00000000
-0.63821981 -0.60387493 -0.00000006
-0.30250375 0.77509566 -0.00000062
0.24410220 0.53712757 0.01698696
0.24692043 0.54007279 0.01177049
-0.10985780 -0.37541319 -0.00000027
-0.44915636 0.60787526 -0.00000044
0.19358527 0.06150833 -0.00000054
-0.09309740 -0.47473036 -0.00000020
-0.27286127 0.63192870 -0.00000066
0.42026759 0.19975748 0.16289265
-0.32578770 -0.53961245 -0.00000016
-0.54481875 -0.29343662 -0.00000022
-0.16289578 0.00360191 -0.00000050
-0.38243308 0.47934477 -0.00000052
-0.08591698 -0.55752008 -0.00000015
-0.58323913 -0.44494745 -0.00000015
-0.77289285 0.72306121 -0.00000003
-0.73420642 0.09457104 -0.00000008
-0.13361420 0.26746751 -0.00000067
-0.32558242 -0.32118002 -0.00000030
-0.17605364 0.62943926 -0.00000078
0.46994293 -0.17741739 -0.00000046
-0.12609517 0.27121884 -0.00000067
0.73317268 -0.63465951 -0.00000021
-0.23230290 0.46943091 -0.00000069
0.05177457 -0.25318421 -0.00000034
-0.50472798 -0.06251511 -0.00000030
0.11701604 0.52751198 0.14071419
0.66904974 -0.59842174 -0.00000022
-0.52901392 -0.58385085 -0.00000014
0.25672526 -0.63384613 -0.00000010
0.18996600 -0.66129296 -0.00000009
0.30383249 0.25453590 0.21869742
0.64491455 -0.16446419 -0.00000066
0.11244065 -0.57590991 -0.00000014
-0.75769740 -0.73326486 0.00000000
0.32372692 -0.59501285 -0.00000013
0.20644298 -0.02743387 -0.00000048
0.57924826 -0.04077935 -0.00000072
0.48005814 -0.57286185 -0.00000014
0.08484692 -0.20936962 -0.00000037
0.28637215 -0.05604041 -0.00000046
0.55417350 0.12658429 0.10792372
-0.29570837 -0.46637884 -0.00000021
0.48773305 -0.52777189 -0.00000017
0.16705627 0.32600980 0.27780030
-0.38593593 0.15647196 -0.00000047
-0.54670330 0.02184390 -0.00000027
0.69828799 -0.43496702 -0.00000043
0.14324596 0.46537280 0.17321528
0.59514498 -0.57757547 -0.00000017
-0.15834428 0.21376339 -0.00000063
0.05517327 0.70956918 -0.00000096
-0.17588836 -0.75679350 -0.00000003
-0.69598331 0.43776819 -0.00000013
0.06058934 -0.50032653 -0.00000019
-0.64666188 0.11993262 -0.00000019
-0.46052935 0.43640407 -0.00000042
0.54358520 0.12757082 -0.00000086
0.01090668 0.05428454 -0.00000053
0.56144389 -0.66802383 -0.00000008
0.49449462 -0.08816615 -0.00000058
-0.69414960 0.74609148 -0.00000013
-0.17466339 -0.72520015 -0.00000005
-0.39919198 0.78284173 -0.00000050
0.19201800 -0.44434329 -0.00000022
-0.37162182 0.36820783 -0.00000052
-0.29915412 0.50535106 -0.00000063
-0.28131792 -0.65406876 -0.00000009
0.07665503 0.48337346 -0.00000080
0.62668809 0.11514933 -0.00000094
0.44195268 0.19442049 0.14809606
-0.17237063 -0.53074637 -0.00000017
0.25212122 0.45361063 -0.00000090
0.04752211 -0.04304925 -0.00000047
-0.54021776 -0.36301518 -0.00000021
0.59922554 0.06402078 0.12377327
0.12345386 0.54329093 0.12060622
0.51533488 -0.49118962 -0.00000019
0.04541700 0.34247408 -0.00000071
-0.69155805 -0.30356608 -0.00000006
0.54965362 0.19112900 -0.00000094
-0.31830441 -0.27103162 -0.00000033
0.32955424 0.20269133 0.24234098
0.60891513 -0.41458916 -0.00000035
0.28755233 0.15573454 -0.00000062
0.20094692 0.33437839 -0.00000072
0.64517472 -0.42483553 -0.00000038
0.73398092 -0.47194259 -0.00000041
0.56821297 0.02678346 -0.00000078
-0.32803980 0.27915272 -0.00000055
-0.56600695 0.03033408 -0.00000026
-0.55752505 0.67025370 -0.00000030
0.38628068 0.15308090 -0.00000072
-0.65561768 0.22855049 -0.00000018
0.24617040 0.39907157 -0.00000083
0.47510463 0.18275368 0.12864995
-0.64754532 0.28539869 -0.00000019
0.28626689 -0.60324521 -0.00000012
0.62489211 -0.60929800 -0.00000016
0.33685062 0.13077244 -0.00000065
0.04387022 -0.62980649 -0.00000011
-0.56134221 -0.16805055 -0.00000022
-0.22241250 -0.25968293 -0.00000034
-0.40073426 0.76264313 -0.00000050
-0.41934047 0.40668546 -0.00000048
0.08833074 -0.10708029 -0.00000043
-0.08790985 0.06838023 -0.00000054
0.57338045 -0.09616192 -0.00000066
0.25370961 0.17183588 0.33891279
0.21617064 0.42361549 0.14500685
-0.23582412 -0.46890775 -0.00000021
0.43123102 0.20131205 0.15156266
0.78477903 -0.36243182 -0.00000055
-0.31412951 -0.70807782 -0.00000006
0.33774411 -0.61822272 -0.00000011
0.16498113 0.42400932 -0.00000077
0.56926095 0.17004656 0.05493062
0.15475376 0.25535355 0.35288477
-0.61121790 0.12428888 -0.00000022
0.33164259 0.31487501 0.13891438
-0.73125351 -0.07700271 -0.00000006
0.18308536 0.03766213 -0.00000052
0.24868853 -0.54151620 -0.00000016
0.53778598 -0.57960523 -0.00000014
-0.07913648 0.34840211 -0.00000072
0.13355759 -0.52547004 -0.00000017
-0.29930157 0.68741121 -0.00000063
0.57998007 -0.50895996 -0.00000022
-0.54863717 0.30408273 -0.00000031
-0.19362661 0.66641651 -0.00000076
-0.12989372 0.64436528 -0.00000083
-0.52870858 -0.21742216 -0.00000025
-0.30388761 -0.18835081 -0.00000038
-0.74725059 -0.22398954 -0.00000002
0.02974595 0.03763744 -0.00000052
0.55343825 0.21413096 0.02935107
-0.29795099 0.24905889 -0.00000058
0.02421178 -0.19544769 -0.00000038
0.61476771 0.05253916 -0.00000086
-0.23056728 0.69576921 -0.00000071
-0.05526295 -0.28062299 -0.00000032
-0.43966588 -0.06038702 -0.00000037
0.55356133 -0.22284967 -0.00000050
0.56132283 -0.34246803 -0.00000038
0.23347111 -0.42760271 -0.00000023
0.18570519 -0.47479157 -0.00000020
-0.50514882 -0.35198524 -0.00000025
-0.01062660 0.14530402 -0.00000059
-0.37851789 -0.50794575 -0.00000018
0.07882628 -0.08573026 -0.00000045
0.25127477 0.07751065 -0.00000055
0.67493352 -0.42790086 -0.00000041
0.31543241 0.33238615 0.13773688
0.11989942 -0.50034397 -0.00000019
0.18878756 -0.40917177 -0.00000024
-0.56952754 0.69492765 -0.00000029
-0.23540116 0.74358092 -0.00000071
-0.02661194 0.72848262 -0.00000096
-0.63004308 -0.33400826 -0.00000012
0.25428229 0.43028451 -0.00000088
0.02869136 -0.35904866 -0.00000028
-0.36417509 -0.25108439 -0.00000034
0.04925634 -0.63171637 -0.00000011
0.06486853 -0.07274736 -0.00000045
0.04628972 0.22523976 -0.00000064
-0.18286115 -0.66401668 -0.00000008
0.30019682 0.39809903 0.09205011
0.56241915 0.04106002 -0.00000079
0.22986442 0.19546316 0.33910980
0.29740410 0.18274848 -0.00000066
0.53231560 -0.71761679 -0.00000005
0.25904331 -0.60427422 -0.00000012
0.09099279 0.23500567 -0.00000065
-0.15997942 0.71648209 -0.00000080
-0.10480014 -0.69378040 -0.00000007
0.16025695 0.38816389 -0.00000074
-0.65970391 0.01226292 -0.00000015
0.23643447 -0.20393750 -0.00000037
-0.50713208 0.70226716 -0.00000037
-0.59760547 0.75738630 -0.00000025
-0.70690152 0.00811382 -0.00000010
-0.78910729 -0.53073331 0.00000000
0.55896271 -0.76338167 -0.00000002
-0.78614077 0.09518867 -0.00000002
0.56122583 -0.77060259 -0.00000002
-0.52184513 -0.70338224 -0.00000006
-0.28774220 0.05651349 -0.00000054
0.10351079 0.39996220 0.26838062
-0.41712447 0.03430382 -0.00000041
-0.01678419 0.48119451 -0.00000080
0.21435635 0.55158641 0.03082317
0.24746762 -0.77160063 -0.00000002
-0.24317585 -0.61837649 -0.00000011
-0.51249240 -0.69350486 -0.00000007
0.01158470 0.12989330 -0.00000058
0.54222728 0.10003671 0.14276429
0.17430233 -0.35737071 -0.00000028
0.32839194 -0.33584282 -0.00000029
0.50372098 0.18742200 -0.00000088
-0.21135854 -0.47165838 -0.00000021
0.13658497 0.57002368 0.08452622
-0.15325741 -0.30134906 -0.00000031
0.19583371 -0.76064932 -0.00000002
0.47719139 -0.79300317 -0.00000000
0.50282317 -0.53708855 -0.00000016
-0.72854443 0.55741973 -0.00000009
0.30772967 0.19462980 0.26939020
0.60279406 -0.17194555 -0.00000061
0.25901780 0.08379696 -0.00000055
-0.69598345 -0.35856328 -0.00000005
0.37136968 -0.14563234 -0.00000041
0.26829408 -0.74672664 -0.00000003
-0.68874716 0.59677958 -0.00000014
-0.11443403 0.26414406 -0.00000067
-0.03153081 0.79630499 -0.00000096
-0.68467095 -0.55091216 -0.00000002
-0.39953893 -0.52289648 -0.00000017
0.09384716 0.02356021 -0.00000051
0.36237318 0.30780744 0.11749708
-0.64896397 -0.09803517 -0.00000014
-0.70718378 0.37511303 -0.00000012
0.38096964 -0.57101756 -0.00000014
-0.67655623 -0.44855620 -0.00000005
-0.19132717 -0.00426195 -0.00000050
-0.47145990 0.40224328 -0.00000041
-0.17169859 -0.03362584 -0.00000048
0.29433621 -0.62318830 -0.00000011
0.04387618 0.29372629 -0.00000068
-0.15332269 -0.14849665 -0.00000041
-0.21635808 -0.54178944 -0.00000016
-0.69249635 -0.43218930 -0.00000004
-0.34814629 -0.42662946 -0.00000023
0.76247013 -0.23158890 -0.00000071
-0.55845539 0.60492672 -0.00000030
-0.25813164 -0.48062665 -0.00000020
0.04805270 0.71867041 -0.00000096
0.71589549 -0.26935247 -0.00000062
-0.63973655 0.01382467 -0.00000017
0.46761879 0.26026473 0.06527043
-0.05541303 0.34089517 -0.00000071
-0.44284450 -0.63462494 -0.00000010
-0.53609643 0.55042749 -0.00000033
0.28224282 0.49461469 -0.00000098
-0.22267147 0.10704073 -0.00000057
0.43001104 0.36997299 0.00001256
-0.45904104 0.04565594 -0.00000037
0.38845442 0.18699955 -0.00000076
0.49565451 -0.52167273 -0.00000017
-0.67382485 0.32509021 -0.00000016
-0.77868720 0.06930635 -0.00000003
0.67155489 -0.63458090 -0.00000019
0.37872338 -0.14838057 -0.00000041
-0.07928214 0.70011215 -0.00000090
0.02959917 -0.25576783 -0.00000034
-0.13956171 -0.17452131 -0.00000039
0.06014105 -0.79502298 -0.00000000
0.26799960 0.40606520 0.11398152
-0.46537727 -0.08717156 -0.00000034
0.16607944 0.60803004 -0.00000097
0.65121906 -0.13971251 -0.00000069
0.05857289 0.14731521 -0.00000059
-0.61813115 -0.45457648 -0.00000011
0.57268999 -0.77979567 -0.00000001
-0.79315754 0.22293901 -0.00000001
-0.73660909 0.41737973 -0.00000008
-0.70158442 0.19570797 -0.00000012
-0.14025712 -0.39704757 -0.00000025
-0.76937729 0.66348454 -0.00000004
-0.00693586 -0.76299001 -0.00000002
-0.33595086 0.70830640 -0.00000058
-0.07911098 0.50828706 -0.00000082
0.09753553 -0.18104871 -0.00000039
-0.04380897 -0.30415981 -0.00000031
0.17625887 0.25801036 -0.00000066
0.19072265 -0.71982170 -0.00000005
0.15706446 0.53427736 0.09834415
-0.27334337 0.75588622 -0.00000066
0.15771293 0.53400970 -0.00000088
-0.78380031 0.61943469 -0.00000002
-0.35852030 0.33190380 -0.00000053
-0.38248722 -0.23740249 -0.00000035
-0.11025130 0.42084048 -0.00000076
-0.66980872 0.44359635 -0.00000016
-0.78593332 0.78565709 -0.00000002
0.07169753 0.61896138 0.09896151
-0.79883658 -0.68862824 0.00000000
-0.48493341 -0.25250193 -0.00000029
-0.14294337 0.62609135 -0.00000082
0.19298377 0.19626154 0.37176694
0.41950282 -0.24649577 -0.00000035
0.19311535 0.53593870 0.06421098
0.12297915 0.02240121 -0.00000051
0.18272791 -0.08136250 -0.00000045
-0.74409037 0.01847954 -0.00000006
-0.00765614 -0.64885046 -0.00000009
-0.26022052 0.57421244 -0.00000067
-0.23449596 0.40984709 -0.00000068
-0.70642034 -0.17504031 -0.00000007
-0.39093033 -0.43702075 -0.00000023
0.05468549 0.72044919 -0.00000097
-0.04029856 0.38349346 -0.00000074
0.41741944 -0.02519072 -0.00000056
-0.41068317 -0.31485798 -0.00000030
-0.24214975 -0.13761885 -0.00000041
0.72167658 -0.15964467 -0.00000075
-0.38197268 -0.04930888 -0.00000044
0.22913822 0.21059692 0.32606975
0.54034372 0.24811105 -0.00000099
0.51560702 -0.74681951 -0.00000003
-0.40823769 -0.44194582 -0.00000022
0.07537526 0.50817857 0.19590055
0.77188725 -0.58211625 -0.00000027
0.57673800 -0.28915170 -0.00000045
0.42184703 -0.56161144 -0.00000015
-0.16629578 0.61728730 -0.00000079
-0.17889413 0.58217683 -0.00000077
-0.59871390 -0.58051664 -0.00000011
0.18785948 0.60090713 0.01016540
-0.29103846 0.33620179 -0.00000060
-0.08129156 -0.00381434 -0.00000050
0.79843717 -0.23600240 -0.00000070
-0.57533427 -0.39758813 -0.00000017
-0.68785499 -0.33933896 -0.00000006
-0.42429436 0.45733931 -0.00000047
-0.24908897 -0.40510949 -0.00000025
-0.48310292 0.50205969 -0.00000040
0.27072374 0.43710935 0.08341799
-0.41851301 0.01615330 -0.00000041
0.44130275 -0.48334364 -0.00000020
0.21424783 -0.07345724 -0.00000045
0.73056756 -0.57648914 -0.00000028
0.27480588 0.47898817 0.04181892
-0.16599238 -0.57802006 -0.00000014
0.05025599 0.49575599 -0.00000081
0.19804729 0.49295782 -0.00000088
-0.73114840 -0.63316185 0.00000000
-0.58351110 0.47533819 -0.00000027
-0.40388977 0.56062762 -0.00000050
0.02820434 -0.04294440 -0.00000047
-0.46918568 -0.21241466 -0.00000031
0.20259051 -0.52470631 -0.00000017
-0.10308697 -0.31783856 -0.00000030
0.59780027 0.12977525 0.06554920
0.19092186 0.21734889 -0.00000064
-0.17937209 0.79179580 -0.00000078
0.02644203 0.47377963 -0.00000080
0.10232316 0.41814766 -0.00000076
0.31668543 -0.27626258 -0.00000033
-0.31131415 -0.31510007 -0.00000030
-0.32010076 -0.22281683 -0.00000036
0.77566029 -0.56951834 -0.00000029
-0.06871423 -0.20333279 -0.00000037
0.36511643 0.41912891 -0.00000098
0.79418818 -0.68611598 -0.00000014
0.61005262 0.14883531 0.03720847
-0.33895243 0.25054315 -0.00000054
-0.13520748 -0.15170828 -0.00000041
0.08102370 0.50002961 0.19816379
-0.71115941 0.38360942 -0.00000011
-0.63038120 -0.50037349 -0.00000009
0.33026195 0.24379053 0.20450225
-0.64139814 0.54517004 -0.00000020
-0.16127203 -0.09829004 -0.00000044
-0.66307431 -0.44305418 -0.00000006
0.11434241 0.07121578 -0.00000054
0.06291817 0.59218039 -0.00000087
-0.19568481 -0.35925582 -0.00000028
0.13373192 0.59723109 0.06248320
-0.55583312 0.19096784 -0.00000030
-0.38587951 0.48571956 -0.00000052
0.31432729 -0.13765693 -0.00000041
-0.00828273 -0.71604686 -0.00000005
0.03185521 0.00116615 -0.00000050
0.62175231 -0.66515297 -0.00000010
0.17195544 0.52046704 -0.00000089
0.36491654 0.39740781 -0.00000096
0.28892817 -0.00113427 -0.00000050
0.32959549 0.32248868 0.13387610
0.60072546 -0.17266983 -0.00000060
0.46374629 0.12937984 0.18723877
-0.76399456 0.31109107 -0.00000005
0.07098083 0.07015538 -0.00000054
-0.53908727 -0.29730358 -0.00000022
0.55469991 -0.10968150 -0.00000062
0.01651376 -0.65451230 -0.00000009
-0.50764467 0.30732287 -0.00000037
0.06033891 0.60308164 0.12361440
0.21371054 0.20680456 -0.00000063
0.13147309 -0.69150357 -0.00000007
-0.66608178 0.06753308 -0.00000016
-0.60308178 0.58034773 -0.00000025
0.35298789 -0.21301980 -0.00000037
0.31903410 0.02699922 -0.00000052
0.00156623 -0.40057577 -0.00000025
0.71625581 -0.24879049 -0.00000065
0.05474722 0.69755715 0.04316709
-0.13781198 -0.63853582 -0.00000010
0.30941076 0.48891442 -0.00000100
0.00611847 0.40421769 -0.00000075
0.53172766 -0.02494843 -0.00000069
0.61123394 0.05351917 0.12240949
-0.25451036 -0.13003725 -0.00000042
-0.56041666 0.72529547 -0.00000030
0.21803452 0.17258400 0.37052429
0.24667182 -0.34104166 -0.00000029
0.47519951 0.20189898 0.11123574
-0.45160173 -0.33174966 -0.00000029
0.68680440 -0.06797635 -0.00000081
0.00358727 -0.64596052 -0.00000010
0.49733287 0.16980483 0.12025121
-0.43204223 -0.36002204 -0.00000027
-0.55951509 -0.01844623 -0.00000025
-0.79488887 -0.40286298 0.00000000
0.66919182 0.10603735 -0.00000097
-0.77625632 0.71743049 -0.00000003
0.19717096 0.08706236 -0.00000055
-0.02473948 0.02667683 -0.00000052
-0.10322339 0.67859265 -0.00000087
0.24379888 -0.26411687 -0.00000033
0.12344997 0.02611525 -0.00000052
-0.68466988 -0.25970031 -0.00000008
-0.33397276 -0.76708942 -0.00000002
0.48691525 -0.78925793 -0.00000001
0.38381974 -0.01264569 -0.00000054
0.53133076 -0.40398839 -0.00000028
0.34553348 -0.49315522 -0.00000019
-0.04697276 0.32400734 -0.00000070
-0.70459169 -0.37588886 -0.00000003
-0.07137345 -0.32863103 -0.00000029
-0.03349671 0.76373018 -0.00000096
0.59109809 -0.76142477 -0.00000002
0.64541710 0.11681829 -0.00000096
-0.06829079 0.79723101 -0.00000091
0.36135070 0.23042983 0.18845666
-0.79526887 0.00333475 -0.00000001
0.12143448 -0.71942635 -0.00000005
-0.19218289 -0.11150192 -0.00000043
-0.20258045 0.24461060 -0.00000065
-0.10439821 -0.00872603 -0.00000049
-0.71845231 -0.02089728 -0.00000008
-0.09230335 -0.47409033 -0.00000020
-0.00099824 -0.27244712 -0.00000033
-0.27790418 0.07957196 -0.00000055
0.34664421 0.33641750 0.10583846
-0.36676526 0.00121815 -0.00000046
-0.74870178 0.67734658 -0.00000006
-0.14809831 -0.12021009 -0.00000042
-0.65230387 0.30434608 -0.00000018
0.50690931 0.09623428 -0.00000079
-0.63040136 -0.22568743 -0.00000014
0.18072530 0.37554339 0.22059678
-0.75615106 -0.33577265 0.00000000
-0.23427420 0.17792738 -0.00000061
0.41708888 0.32599622 0.05151154
-0.61205541 0.67221264 -0.00000023
-0.32028856 0.18872509 -0.00000055
0.22842109 -0.62170488 -0.00000011
0.69264470 0.03648096 0.06414616
-0.39029991 0.67781084 -0.00000051
0.05542804 0.24543368 -0.00000065
-0.19265952 0.76771654 -0.00000076
0.05714890 -0.52746659 -0.00000017
-0.23036985 0.27624333 -0.00000066
-0.36137533 0.36256243 -0.00000053
0.22741114 0.03029425 -0.00000052
-0.22631727 0.50377404 -0.00000070
0.40167391 -0.59460456 -0.00000013
-0.51711155 0.75345429 -0.00000035
0.15949507 -0.32394745 -0.00000030
-0.68184116 -0.70214706 0.00000000
-0.62353378 -0.41673500 -0.00000011
0.48976339 0.02595467 -0.00000070
-0.45648580 -0.19091359 -0.00000033
-0.02735898 -0.44535505 -0.00000022
-0.41011382 0.61045623 -0.00000049
0.46677070 -0.30947182 -0.00000031
-0.72788150 -0.05192018 -0.00000007
0.52665170 -0.46464869 -0.00000021
0.39122632 -0.43797287 -0.00000023
-0.23898933 0.17187243 -0.00000061
0.61038065 -0.54606149 -0.00000022
0.20388542 -0.02186148 -0.00000049
0.16379544 0.19566898 0.39872088
0.26271769 -0.08580787 -0.00000045
0.39694725 -0.64177663 -0.00000010
0.37225961 -0.46666226 -0.00000021
-0.20836708 0.33936018 -0.00000069
-0.11332979 -0.57778887 -0.00000014
-0.59220855 -0.23101154 -0.00000018
0.57600372 -0.09639181 -0.00000066
0.56570491 -0.31157057 -0.00000042
0.15850399 0.22161256 0.38002893
-0.18782261 -0.54013836 -0.00000016
-0.23550085 0.33517445 -0.00000066
-0.25143496 0.08567962 -0.00000055
-0.77492875 0.47829954 -0.00000003
0.77159490 -0.75535127 -0.00000006
0.14257626 0.42820029 0.20746562
0.27616487 -0.38506435 -0.00000026
0.11055591 0.49080925 0.17978012
0.30106261 0.38209927 0.10574780
0.07459864 0.52746566 -0.00000083
-0.32074937 0.51691280 -0.00000060
0.66358058 -0.18235986 -0.00000066
0.09657871 -0.69120665 -0.00000007
0.16734576 0.54169630 0.08232376
0.22758396 0.56079390 0.01051726
-0.39111363 0.29294354 -0.00000049
0.34225695 0.21499242 0.21971057
0.23946590 0.31097379 -0.00000073
0.52344908 -0.59216197 -0.00000013
0.44754801 -0.70216744 -0.00000006
-0.41816551 0.77008724 -0.00000048
0.25099275 -0.00601571 -0.00000050
0.25071923 0.53565514 0.01233060
0.33651545 0.42521578 -0.00000096
0.35103489 0.23683886 0.19199267
0.54669499 -0.78327246 -0.00000001
-0.04483111 -0.31588991 -0.00000030
-0.70075298 -0.55841573 -0.00000000
0.50769785 0.09754731 -0.00000079
0.49407723 0.00860721 -0.00000068
-0.45169514 0.08634192 -0.00000039
0.01440561 0.45471504 -0.00000078
-0.70602513 0.77752657 -0.00000012
0.24030241 0.34208745 0.19695546
0.63045432 -0.28964976 -0.00000051
0.04228875 0.07499357 -0.00000055
0.26258077 -0.57695662 -0.00000014
-0.44915175 -0.31055994 -0.00000031
-0.00790147 0.04929131 -0.00000053
-0.41672198 -0.17921206 -0.00000038
0.00511995 -0.32090995 -0.00000030
0.01572645 -0.33659275 -0.00000029
-0.41690212 0.31231648 -0.00000047
0.22245880 0.20944073 0.33316158
-0.33217809 -0.25546093 -0.00000034
0.05025170 0.02842744 -0.00000052
0.43796362 0.14966820 0.19221164
0.31011400 0.48647611 0.00308439
0.10435969 0.54423937 -0.00000084
0.18449664 -0.29460913 -0.00000032
-0.64913032 0.65074039 -0.00000019
-0.12828487 0.69900733 -0.00000084
0.39582931 -0.46847758 -0.00000021
0.56682920 0.09057464 -0.00000085
-0.26263403 0.25173599 -0.00000062
0.30921939 0.03845511 -0.00000052
-0.73248273 0.54462822 -0.00000008
0.42349177 0.11104850 -0.00000072
-0.27378022 0.68378868 -0.00000066
0.65771587 -0.66532813 -0.00000014
-0.34870395 0.43750973 -0.00000056
-0.13028694 -0.52292071 -0.00000017
-0.23992679 -0.78651355 -0.00000001
0.67160664 0.10551170 0.02070820
-0.04956404 0.02244787 -0.00000051
-0.41163735 -0.70279887 -0.00000006
0.05270793 -0.73339965 -0.00000004
0.21530170 0.44017276 -0.00000085
0.01471669 -0.21919910 -0.00000036
-0.29492998 -0.53599244 -0.00000017
0.51836186 -0.01368461 -0.00000068
-0.78929113 0.78951019 -0.00000001
0.67771239 0.06325313 0.05342997
0.03309300 -0.56035235 -0.00000015
-0.04398838 0.70953737 -0.00000094
-0.71183109 -0.76231660 0.00000000
0.43415286 0.25136175 0.10361835
-0.56686975 0.46771659 -0.00000029
0.32733306 0.17985315 0.26502176
-0.75571459 -0.63011911 0.00000000
-0.06393507 0.57576591 -0.00000086
0.35823504 -0.77808121 -0.00000001
-0.68729221 0.62058516 -0.00000014
-0.22467890 -0.62970777 -0.00000011
0.61921922 0.13595882 0.04056627
0.54507401 -0.16324258 -0.00000055
0.69383786 0.07940710 0.02421398
-0.52194507 0.25611900 -0.00000034
0.38791429 -0.68573440 -0.00000007
-0.67638899 -0.45007668 -0.00000005
-0.48777713 0.27578684 -0.00000038
0.36105486 0.09733297 -0.00000064
0.37737598 0.37567967 -0.00000095
-0.75804876 -0.16333427 -0.00000001
0.27588858 -0.27267136 -0.00000033
-0.47007606 0.76189787 -0.00000041
0.07512575 0.09611158 -0.00000056
0.43580598 -0.40916456 -0.00000024
-0.36151284 -0.25192887 -0.00000034
-0.69254218 0.60058719 -0.00000013
0.49045335 -0.38654324 -0.00000026
0.34738325 -0.20608669 -0.00000037
-0.35948095 0.13655910 -0.00000050
-0.50078333 -0.47447338 -0.00000020
0.35938645 -0.32185815 -0.00000030
0.44638633 0.29107736 -0.00000093
-0.77481005 -0.35723534 0.00000000
-0.66304155 0.09612207 -0.00000016
0.11849034 0.20790427 -0.00000063
0.25328222 0.14936428 0.35963827
0.54903919 -0.68667073 -0.00000007
0.15637758 0.46753424 -0.00000081
0.27743202 -0.63999333 -0.00000010
-0.25918042 -0.11303018 -0.00000043
0.33234103 -0.17742043 -0.00000039
0.16024392 -0.62692471 -0.00000011
0.03074702 0.53965571 -0.00000084
0.63645395 -0.65471835 -0.00000013
0.29919480 0.18312793 -0.00000066
0.26986608 -0.02984857 -0.00000048
-0.59147276 0.35576215 -0.00000026
0.45549711 0.23143030 -0.00000088
0.29683767 0.21366251 -0.00000069
0.40792432 0.23402704 0.14304726
-0.14342263 0.44148105 -0.00000078
-0.21676724 -0.50056189 -0.00000019
0.10913346 0.25977959 -0.00000066
0.28758991 0.20578945 0.27751776
0.58498077 -0.27753814 -0.00000047
-0.36400511 0.03710205 -0.00000047
0.21635029 0.57801345 0.00509946
-0.10078167 -0.73339368 -0.00000004
0.42182269 0.17995104 -0.00000079
-0.07448378 -0.22786871 -0.00000036
0.22489770 -0.60171819 -0.00000012
-0.07671101 -0.79949246 -0.00000000
0.75346524 -0.71898575 -0.00000010
-0.29730598 0.63529874 -0.00000063
-0.03694198 0.76136002 -0.00000095
-0.62311362 0.10409393 -0.00000021
0.15685411 0.30355085 -0.00000069
-0.70476291 0.00577566 -0.00000010
0.28641543 -0.55521512 -0.00000015
0.22354704 0.33187988 -0.00000074
0.25806853 0.16409761 0.34197141
-0.17374871 -0.09945455 -0.00000044
0.18004468 0.33563314 -0.00000071
0.39339662 0.21348715 -0.00000079
0.38722224 0.31587299 0.08770620
-0.31702496 0.39330998 -0.00000059
-0.32922149 -0.19160746 -0.00000038
-0.79423833 0.31313478 -0.00000001
0.67781635 0.00910805 -0.00000088
-0.45769943 -0.37990467 -0.00000026
-0.27336818 -0.65204172 -0.00000009
0.23449139 -0.77037723 -0.00000002
-0.60640193 0.38271472 -0.00000024
0.08471688 0.59410584 0.10967435
-0.12937260 0.72793074 -0.00000084
-0.58150046 -0.79104094 -0.00000001
0.48929246 -0.08309765 -0.00000058
-0.07609979 0.64006712 -0.00000089
0.02530291 -0.64507216 -0.00000010
0.36528496 0.13743697 0.26906264
-0.24530350 -0.45764275 -0.00000021
-0.44356047 -0.71580246 -0.00000005
-0.70364116 -0.42847860 -0.00000002
0.34435216 0.29798472 0.14269832
0.15881348 0.63463017 0.00593223
-0.79571949 -0.28845241 0.00000000
0.21304725 -0.46254488 -0.00000021
-0.65475221 -0.23533010 -0.00000011
-0.42235482 -0.13931542 -0.00000038
-0.46248323 0.13012736 -0.00000038
-0.38010447 0.79669325 -0.00000052
-0.02403052 -0.32410613 -0.00000030
-0.20488597 0.24243161 -0.00000065
0.25034961 -0.30743909 -0.00000031
-0.04567850 -0.30623036 -0.00000031
0.13484830 0.51007177 0.14035951
-0.62548181 0.19870442 -0.00000022
0.40616774 -0.78711841 -0.00000001
0.03538194 -0.64838478 -0.00000009
-0.73468700 0.74035715 -0.00000008
0.61721522 -0.41147919 -0.00000037
-0.68709348 0.46691457 -0.00000014
0.31530801 -0.16114057 -0.00000040
-0.60469605 -0.59594877 -0.00000010
0.34931278 0.11198667 0.30655329
0.68572951 -0.23311860 -0.00000063
-0.42916360 0.76308586 -0.00000046
0.74874247 -0.08303867 -0.00000086
-0.69506103 -0.40795670 -0.00000004
0.42675943 0.16447583 -0.00000078
-0.16483835 -0.74910921 -0.00000003
0.04697487 0.25483306 -0.00000066
0.16294803 -0.66417749 -0.00000008
0.16299156 0.57500233 0.05611958
0.18746003 0.53700470 0.06836476
-0.48971305 0.64210762 -0.00000039
0.69420932 -0.33320102 -0.00000053
-0.77112020 -0.25572957 0.00000000
-0.47015754 0.40793438 -0.00000041
-0.79715161 -0.22960566 0.00000000
0.17925354 0.23179454 -0.00000064
0.31364694 -0.06796573 -0.00000046
0.66494969 -0.37532107 -0.00000046
-0.68442595 0.27057407 -0.00000014
-0.26671679 0.41449651 -0.00000064
0.57348327 -0.19216757 -0.00000055
0.50429471 0.20366856 -0.00000090
0.22904715 0.22921256 -0.00000064
-0.71533122 -0.47774921 -0.00000000
0.14644866 0.34474824 0.27949187
0.48223883 0.23074529 0.07875581
-0.03057782 0.41384932 -0.00000076
0.22558559 -0.04321264 -0.00000047
-0.64131385 -0.48141488 -0.00000008
0.01512870 0.76532584 0.01768851
0.02214070 -0.31557605 -0.00000030
-0.39621373 -0.59111452 -0.00000013
0.44961306 0.26669444 0.07574783
-0.75527158 0.44479704 -0.00000006
0.36897699 0.17783490 -0.00000073
-0.65222729 0.79846663 -0.00000018
-0.37970212 -0.15909983 -0.00000040
0.37188686 -0.76739106 -0.00000002
0.54083740 -0.73511422 -0.00000004
-0.25659546 -0.66869897 -0.00000008
0.21423435 0.17273238 -0.00000061
0.12733355 0.03854089 -0.00000052
0.16373270 -0.26087483 -0.00000034
-0.22257531 -0.03785110 -0.00000048
-0.13099772 -0.27164808 -0.00000033
-0.35328645 0.79209948 -0.00000056
-0.61090706 0.70480361 -0.00000024
0.65539717 0.07528767 0.06273496
-0.43999167 -0.77676546 -0.00000001
0.23815443 -0.30722916 -0.00000031
0.56137697 0.17421699 -0.00000093
-0.48634669 -0.55739774 -0.00000015
-0.74691028 0.39044167 -0.00000007
0.29962937 0.33445048 0.15017173
-0.52776276 -0.33964522 -0.00000023
0.21465967 -0.17250915 -0.00000039
-0.01783869 0.45704324 -0.00000079
-0.71129146 0.29602175 -0.00000011
-0.17132079 0.49104121 -0.00000076
0.59562657 -0.79811913 -0.00000000
0.65149892 0.07991735 -0.00000093
0.29850417 0.34813087 0.13880808
0.69882467 0.06568138 0.03212352
0.08262825 0.67507528 0.03828046
-0.71627609 -0.04803830 -0.00000008
-0.08138867 -0.79650920 -0.00000000
0.13607841 0.63706028 0.02431017
-0.63811785 0.59621098 -0.00000020
-0.53422073 0.30077558 -0.00000033
-0.21530296 0.34760638 -0.00000069
-0.49013243 0.52943854 -0.00000039
-0.12726663 -0.36643854 -0.00000027
-0.68860480 0.61867034 -0.00000014
-0.13789743 -0.10651700 -0.00000043
0.06646288 0.44121525 -0.00000078
0.34044766 0.19692125 0.23770402
0.19515259 -0.36325136 -0.00000027
0.64321252 0.10378423 -0.00000094
-0.05802787 -0.53474002 -0.00000017
0.13738442 -0.42293558 -0.00000024
-0.73172141 -0.39780021 -0.00000000
-0.08444148 0.15817048 -0.00000060
0.09088230 -0.37575786 -0.00000027
-0.16901807 -0.09839585 -0.00000044
0.49695852 0.18844659 -0.00000088
-0.74253242 -0.70755963 0.00000000
-0.08257224 -0.54676079 -0.00000016
-0.53370650 -0.20646038 -0.00000025
0.69931766 -0.58288463 -0.00000027
0.19993423 0.27886547 0.29071282
0.50115203 -0.27641913 -0.00000039
-0.12800872 0.65542415 -0.00000084
-0.23604850 0.19045521 -0.00000062
0.31832692 -0.56860176 -0.00000014
0.66747960 -0.50960223 -0.00000031
-0.71634063 0.41665832 -0.00000010
0.02186724 -0.16436316 -0.00000040
-0.69921508 0.35771723 -0.00000013
-0.64061668 0.18971203 -0.00000020
-0.63885643 -0.75323782 -0.00000003
0.04443220 -0.46609371 -0.00000021
-0.14754200 -0.29317123 -0.00000032
0.33779397 0.15279375 -0.00000067
0.51246769 0.07915311 0.18860123
0.34684176 -0.03575744 -0.00000048
0.33640980 0.17324039 0.26279174
-0.35220422 -0.55768033 -0.00000015
0.10616334 0.02000895 -0.00000051
0.17477161 0.28112417 0.31144257
-0.39906619 0.26317037 -0.00000048
0.19189419 -0.12986396 -0.00000042
0.14569334 0.33868743 0.28566102
0.40060891 -0.34773047 -0.00000028
-0.59871129 0.07376712 -0.00000023
0.59060781 0.13251780 0.06957678
0.17194557 0.36451542 0.23852432
0.75548588 -0.47829942 -0.00000040
0.33827219 0.14039678 0.29083233
-0.46378277 0.22424142 -0.00000040
-0.62567837 0.68418779 -0.00000022
0.70270068 -0.46318615 -0.00000040
0.35144613 0.06738200 -0.00000059
-0.73218476 -0.18845031 -0.00000004
-0.21847191 0.25452422 -0.00000066
-0.66977882 -0.12290944 -0.00000012
0.62129654 -0.44808305 -0.00000033
0.79475678 -0.28477094 -0.00000064
-0.34503184 -0.61551445 -0.00000012
-0.11100484 -0.51087530 -0.00000018
-0.37630572 0.19687121 -0.00000049
0.69410668 -0.23314974 -0.00000064
-0.51030448 -0.61033781 -0.00000012
-0.37679858 0.77558772 -0.00000053
0.14694684 -0.18914529 -0.00000038
-0.64821225 -0.28615247 -0.00000011
-0.41666181 -0.11381831 -0.00000039
0.15771893 0.52414578 0.10692172
0.74947546 -0.38519928 -0.00000052
0.53696441 0.16064088 0.09267513
0.11868746 0.41960823 0.23686330
-0.29584580 -0.41459333 -0.00000024
0.04765349 0.39777601 -0.00000075
0.75477689 -0.77240638 -0.00000003
0.25735035 0.38029471 -0.00000083
0.36888799 -0.65760483 -0.00000009
-0.04208150 0.66828606 -0.00000092
-0.69398016 -0.63225207 0.00000000
-0.34154809 -0.06231499 -0.00000046
-0.43622907 0.73377774 -0.00000045
0.57427577 0.08319698 0.12899891
0.43194254 -0.58616051 -0.00000013
-0.30227029 0.04232727 -0.00000053
-0.12729873 -0.17106807 -0.00000039
-0.35819394 0.29224500 -0.00000052
0.67894566 -0.77958829 -0.00000003
0.49644577 0.25162914 -0.00000094
-0.16524041 -0.57003064 -0.00000014
0.17345914 0.51126030 0.10433806
0.15610366 -0.34394875 -0.00000029
-0.04994991 -0.15457404 -0.00000040
0.15703352 -0.12434899 -0.00000042
0.03757657 -0.69724551 -0.00000006
0.52075586 -0.65703034 -0.00000009
0.03569569 0.67344692 -0.00000092
-0.30605434 0.18014748 -0.00000056
-0.46708740 0.51836463 -0.00000042
0.34876204 -0.35857056 -0.00000028
-0.63276014 0.05643061 -0.00000019
-0.37415673 -0.64527764 -0.00000010
-0.61094717 0.32401441 -0.00000024
-0.33186783 0.62224246 -0.00000059
0.31535267 -0.23505119 -0.00000035
0.70331479 -0.77970866 -0.00000003
-0.16749167 -0.20302557 -0.00000037
-0.63965283 0.76533552 -0.00000020
0.72539481 -0.11816356 -0.00000079
0.43086953 0.12494450 0.22100979
-0.73911444 0.21919378 -0.00000008
0.42558963 0.37121852 0.00288704
-0.38764534 -0.60938778 -0.00000012
0.14770359 0.51455404 0.12466768
0.11678332 0.68149894 0.00155283
0.43696551 0.23118887 0.11933101
-0.28577851 -0.44885087 -0.00000022
-0.55080816 -0.43816540 -0.00000019
0.32078352 -0.00255947 -0.00000050
0.17128843 -0.35272287 -0.00000028
-0.13809491 0.54044892 -0.00000081
-0.39522963 0.29402158 -0.00000049
0.07829553 0.49993630 0.20071742
-0.39729351 -0.71729074 -0.00000005
-0.19686828 -0.71960154 -0.00000005
-0.53304484 0.26398205 -0.00000033
0.56963877 -0.20633950 -0.00000053
0.20328158 -0.07115240 -0.00000046
-0.30296668 0.31506965 -0.00000059
0.17383257 0.07659283 -0.00000055
0.16861579 -0.15709051 -0.00000040
-0.54167063 -0.74809795 -0.00000003
-0.31114482 0.61456521 -0.00000061
0.12581009 0.36495667 0.27988100
-0.34948419 0.25179172 -0.00000053
-0.72271508 0.03148217 -0.00000009
0.00910632 -0.08655681 -0.00000045
0.02398747 -0.05204301 -0.00000047
-0.18583940 0.48066794 -0.00000074
-0.46410324 -0.02752743 -0.00000035
0.10548749 -0.12814898 -0.00000042
0.03386897 -0.38065408 -0.00000026
-0.14969849 -0.70308831 -0.00000006
0.04915692 0.18617228 -0.00000062
0.57054064 -0.36538646 -0.00000037
-0.75901323 -0.67172219 0.00000000
-0.70482521 0.02593143 -0.00000011
0.09984311 0.67804438 0.02001204
-0.21162362 -0.21606122 -0.00000036
0.60673098 -0.41702792 -0.00000035
-0.53465190 0.03591116 -0.00000029
0.11416804 0.37347466 0.28270844
-0.25801709 0.11574800 -0.00000057
-0.07313794 -0.41885690 -0.00000024
0.06809698 0.55761896 0.15774026
-0.14091797 0.54789128 -0.00000080
0.21873590 0.27738941 -0.00000068
-0.21983909 0.27123883 -0.00000067
-0.79508280 0.45651204 -0.00000001
-0.43521624 -0.06654789 -0.00000038
0.36490649 -0.31762891 -0.00000030
0.22683267 -0.22009784 -0.00000036
-0.27633025 0.18836819 -0.00000059
0.13342160 0.24373011 -0.00000065
0.60279168 -0.38807090 -0.00000038
-0.01654759 0.37657923 -0.00000074
-0.33412918 0.31719045 -0.00000056
0.48845320 -0.37561766 -0.00000027
0.35328406 0.34587210 0.09127144
0.14745203 0.65106555 0.00133984
0.54141383 -0.15539984 -0.00000056
-0.24171194 -0.23083740 -0.00000036
0.21753842 0.56737848 0.01364976
-0.30587045 -0.05868035 -0.00000046
-0.53482881 -0.08083288 -0.00000027
0.07033549 -0.49240153 -0.00000019
-0.74342735 -0.31782434 -0.00000000
-0.67789624 0.12845959 -0.00000015
-0.78524080 -0.20790229 0.00000000
0.07678133 0.54424669 0.16198330
0.61660849 -0.13575855 -0.00000066
0.20283386 0.54697672 -0.00000095
0.56538097 -0.32585306 -0.00000040
0.53566865 0.21950573 0.04056958
0.64062426 0.04627741 0.10236293
0.15840608 0.22928003 0.37317785
0.27787929 -0.20877680 -0.00000037
-0.00126208 -0.50912578 -0.00000018
0.26532104 0.08376089 -0.00000055
0.42476495 0.33234386 0.03881874
-0.02367907 0.73469437 -0.00000096
-0.33596690 0.18874484 -0.00000053
0.01323853 -0.24956640 -0.00000034
0.02719332 0.72284277 0.04521983
-0.46204693 0.10547657 -0.00000038
-0.22146931 0.08803109 -0.00000056
-0.78062186 0.16406530 -0.00000002
0.23552287 -0.08064464 -0.00000045
-0.20981778 -0.12323744 -0.00000042
0.06516005 0.66048921 0.06729227
-0.22909756 0.26856894 -0.00000066
-0.03777283 0.62087285 -0.00000089
0.28469849 -0.64624042 -0.00000010
-0.52635689 -0.39228427 -0.00000022
0.78703183 -0.62157123 -0.00000022
-0.04566294 -0.47543699 -0.00000020
0.10705948 0.40532046 -0.00000075
0.17551457 0.49107244 -0.00000086
0.13547879 -0.51577452 -0.00000018
0.54471455 0.20439176 0.04606177
-0.08468183 -0.64531254 -0.00000010
-0.67591596 0.79678852 -0.00000016
0.66490419 -0.68057629 -0.00000013
-0.42507609 -0.68138126 -0.00000007
-0.50062990 -0.25831726 -0.00000027
0.02092564 0.26939129 -0.00000067
0.36566629 -0.55709927 -0.00000015
0.74933385 -0.67510078 -0.00000016
0.45122265 0.33114018 -0.00000098
0.40709916 0.19166893 -0.00000079
-0.30340639 0.62231616 -0.00000062
0.21141555 -0.14393014 -0.00000041
0.43040957 -0.46489290 -0.00000021
0.79354336 -0.41668129 -0.00000048
-0.58860332 -0.41308410 -0.00000015
-0.33188460 0.14963134 -0.00000053
0.14265028 -0.31861291 -0.00000030
0.68305596 -0.61711092 -0.00000022
-0.32267000 0.43153701 -0.00000059
0.23995550 0.25760952 0.27372899
-0.44892935 -0.78002114 -0.00000001
-0.42816419 -0.33949424 -0.00000029
-0.65287965 0.79415729 -0.00000018
0.40713640 -0.77754478 -0.00000001
-0.34114374 0.27617319 -0.00000054
-0.76281667 0.44037803 -0.00000005
0.04464782 -0.04299671 -0.00000047
0.21779868 -0.24555607 -0.00000035
-0.15298245 -0.18125979 -0.00000039
-0.57774208 -0.21712458 -0.00000020
0.49801508 0.08761623 0.19402230
-0.15688969 0.70075716 -0.00000080
-0.52360123 -0.36632494 -0.00000023
0.29342327 0.17303009 0.30188810
-0.49816611 0.16849352 -0.00000035
0.22913195 0.21501184 -0.00000063
-0.57319592 -0.08714277 -0.00000023
-0.06058450 -0.44918066 -0.00000022
-0.51148847 0.35568189 -0.00000036
-0.77333112 0.11390914 -0.00000003
0.41902495 0.06348549 -0.00000066
0.22666947 -0.17944421 -0.00000039
0.15611416 -0.31700068 -0.00000030
0.41732593 0.23580816 0.13292582
-0.17644152 0.46830089 -0.00000075
0.40658386 -0.61642485 -0.00000011
-0.48706676 -0.67381821 -0.00000008
0.29869210 0.25066341 -0.00000073
0.60391612 -0.67246195 -0.00000008
0.31229876 -0.35686753 -0.00000028
-0.37759419 -0.52606575 -0.00000017
-0.42388491 0.50564046 -0.00000047
-0.44360041 -0.46904713 -0.00000021
0.12294653 -0.28302731 -0.00000032
0.18227382 0.54244318 0.06813643
-0.59641462 0.39427592 -0.00000025
-0.06483846 -0.01501942 -0.00000049
-0.29967219 -0.51541916 -0.00000018
0.14439634 0.33955822 0.28604677
0.77649531 -0.54757140 -0.00000032
0.71533271 -0.66226575 -0.00000017
-0.44773520 0.75866666 -0.00000044
-0.63997828 0.04458427 -0.00000018
0.17016435 0.17438677 -0.00000061
0.46995465 -0.56968213 -0.00000014
0.63177156 0.06813984 -0.00000089
0.16867867 -0.09678249 -0.00000044
0.07659769 0.72062376 0.00251296
0.14529247 0.53213720 -0.00000087
-0.64239151 0.60632408 -0.00000020
-0.74800707 0.69402040 -0.00000006
0.78590714 -0.50241214 -0.00000037
-0.70584548 -0.47046537 -0.00000001
-0.79633403 -0.11767353 0.00000000
-0.22798610 0.21734583 -0.00000064
0.14345411 0.25570216 0.36279628
-0.68002323 -0.32113819 -0.00000007
0.48259643 0.27483605 0.03852579
-0.72050954 -0.78279379 0.00000000
0.71216807 -0.27338706 -0.00000061
-0.14664311 -0.19541707 -0.00000038
0.66632769 -0.23038650 -0.00000061
-0.44847218 -0.44874151 -0.00000022
0.01917285 0.17595187 -0.00000061
-0.04568329 -0.17084513 -0.00000039
-0.74324420 -0.61529952 0.00000000
-0.75824134 -0.50861699 0.00000000
-0.48576503 0.01855442 -0.00000034
-0.03929461 0.05644075 -0.00000054
0.38096603 -0.04928882 -0.00000050
0.50496329 -0.14317456 -0.00000053
-0.40079323 0.49144527 -0.00000050
-0.34879718 -0.28370351 -0.00000032
0.04435498 0.60741251 -0.00000088
0.34660669 0.16714295 0.25908147
0.30074371 0.05392476 -0.00000053
-0.42370361 -0.35821091 -0.00000028
0.67384358 -0.04877121 -0.00000081
0.56571232 -0.35876172 -0.00000037
0.33645712 -0.73573526 -0.00000004
-0.37724802 0.44336220 -0.00000053
0.00337161 0.60592466 -0.00000088
-0.23430582 0.05985432 -0.00000054
0.46149035 -0.67888018 -0.00000008
0.50728841 -0.47845471 -0.00000020
-0.06865458 -0.76229121 -0.00000002
-0.04768732 -0.37791184 -0.00000026
-0.14840821 -0.63731015 -0.00000010
-0.16110787 0.32486075 -0.00000070
-0.58418980 0.54033047 -0.00000027
-0.26498307 -0.58857621 -0.00000013
0.02586783 -0.04007442 -0.00000047
-0.29285763 -0.39418029 -0.00000025
-0.32589783 -0.74670902 -0.00000003
0.08204026 -0.73858097 -0.00000004
-0.71472126 -0.19904596 -0.00000005
-0.14545414 0.39459701 -0.00000075
-0.79965497 -0.72349308 0.00000000
0.13655040 0.32863995 -0.00000071
0.14629961 0.11455513 -0.00000057
0.07097490 -0.37681930 -0.00000026
-0.52995362 0.33895548 -0.00000034
-0.35201661 -0.27705625 -0.00000033
0.05616880 0.34845484 -0.00000072
-0.45734428 0.39967158 -0.00000043
0.15001769 -0.01606503 -0.00000049
0.69915371 -0.39768367 -0.00000047
-0.66664654 0.24912204 -0.00000017
-0.28242948 -0.01450094 -0.00000049
0.23066325 -0.58847334 -0.00000013
-0.63111080 -0.74201314 -0.00000004
-0.40997590 0.67270258 -0.00000049
0.73250030 -0.65012377 -0.00000019
-0.52794077 -0.71201526 -0.00000005
0.18383374 -0.32630158 -0.00000030
-0.03657133 -0.22221002 -0.00000036
-0.13287577 0.05454202 -0.00000053
0.38573236 -0.43608929 -0.00000023
-0.70223926 0.27878752 -0.00000012
-0.78186000 -0.55465805 0.00000000
0.07624372 -0.16022776 -0.00000040
0.32611285 -0.66986988 -0.00000008
0.12323672 -0.76539962 -0.00000002
-0.70715273 0.21368352 -0.00000012
0.34625331 -0.17746195 -0.00000039
0.20925251 -0.05915938 -0.00000046
0.46443240 0.26755595 0.06155516
-0.79606293 -0.32558683 0.00000000
-0.52610735 -0.67020780 -0.00000008
-0.64962161 0.71926386 -0.00000019
0.17096286 0.61341710 0.01413574
0.30131172 0.40188631 0.08761316
-0.21240751 0.79829443 -0.00000073
-0.33374204 -0.02217750 -0.00000049
-0.44715741 0.52467199 -0.00000044
0.59686888 -0.24828256 -0.00000052
-0.11341507 -0.32094355 -0.00000030
-0.40011667 0.47934903 -0.00000050
-0.52533468 0.03871501 -0.00000030
0.19324265 -0.09431884 -0.00000044
-0.54141205 -0.16901336 -0.00000024
-0.35743752 0.01953745 -0.00000048
0.48303447 0.18899054 -0.00000086
0.40756207 0.30424852 0.07981797
-0.65027672 0.72351649 -0.00000019
-0.63099788 0.60067673 -0.00000021
0.56480374 -0.05105730 -0.00000069
0.00448145 0.55249188 -0.00000085
-0.68314895 0.71588813 -0.00000015
-0.18179347 -0.79203847 -0.00000000
-0.32464653 -0.15231527 -0.00000040
0.20496620 0.22154363 0.33803956
-0.26865509 -0.51483354 -0.00000018
-0.63293300 -0.19317043 -0.00000014
-0.53062409 0.17914594 -0.00000032
-0.08053813 0.76244859 -0.00000090
0.14614779 0.61457700 0.03554593
0.21567733 0.36343732 0.19991958
0.60130956 -0.75411723 -0.00000003
0.51975313 0.08678919 -0.00000079
0.32015123 0.44298354 0.03336467
0.58813162 -0.20731910 -0.00000055
-0.37198808 0.01066379 -0.00000046
-0.46488051 -0.63536527 -0.00000010
-0.54383829 -0.30415295 -0.00000022
0.20754527 -0.52322501 -0.00000017
-0.08725206 0.30647213 -0.00000069
-0.04652234 0.00077199 -0.00000050
-0.67790478 -0.38687573 -0.00000006
0.18908559 -0.59655826 -0.00000013
-0.58785022 0.11244275 -0.00000025
0.22883328 0.21514545 0.32222895
-0.15978236 -0.47967323 -0.00000020
-0.74928761 0.19533337 -0.00000006
-0.19298232 0.43449183 -0.00000073
-0.57370195 0.24710922 -0.00000028
0.70444001 -0.07295359 -0.00000082
-0.67955199 0.71320446 -0.00000015
0.21278227 -0.72568145 -0.00000005
-0.00875656 -0.45985565 -0.00000021
0.09460999 -0.14389780 -0.00000041
-0.27897268 0.38492807 -0.00000063
-0.02248107 0.66317542 -0.00000091
0.29667551 0.17582694 0.29641319
0.27665729 0.41987900 0.09364267
0.28178061 -0.11686893 -0.00000043
0.02508933 0.20959751 -0.00000063
-0.74857112 -0.31259000 0.00000000
-0.33026590 -0.64703567 -0.00000010
0.32011630 0.09093744 -0.00000059
0.68592312 -0.71701504 -0.00000010
0.04871781 0.74577809 0.00497983
-0.11251562 0.01160468 -0.00000051
-0.68565005 0.02864863 -0.00000013
-0.67194752 0.48365553 -0.00000016
-0.55557390 0.76595246 -0.00000031
-0.09572934 0.76866969 -0.00000088
0.28073839 0.43496738 0.07629246
0.32941607 0.11764293 0.31944191
-0.75125481 0.63830360 -0.00000006
-0.01405062 -0.21268643 -0.00000037
-0.73715927 -0.48049076 0.00000000
0.45964643 0.15139545 0.17102330
-0.71576339 0.50353230 -0.00000011
-0.28515124 0.04580510 -0.00000053
-0.42240265 -0.06198849 -0.00000039
-0.04861379 0.27507294 -0.00000067
-0.22573350 0.48946873 -0.00000070
-0.72518598 0.31174917 -0.00000009
-0.61538996 0.43786583 -0.00000023
0.60259631 0.07866338 0.10746945
-0.48509248 -0.64679021 -0.00000010
0.39831740 -0.08357580 -0.00000048
-0.11175200 0.67851192 -0.00000086
-0.66097896 -0.72663595 -0.00000002
0.60466382 -0.05300118 -0.00000074
-0.66320373 0.18390447 -0.00000017
-0.30658432 -0.39784457 -0.00000025
-0.57976310 0.56247690 -0.00000028
-0.24801788 0.72008136 -0.00000069
0.52504367 -0.13134552 -0.00000057
-0.20373872 -0.60688227 -0.00000012
-0.10009070 -0.39217005 -0.00000025
-0.65063151 -0.61591138 -0.00000005
-0.49700638 -0.18327933 -0.00000029
-0.29736112 0.39393456 -0.00000061
0.25974397 0.43610067 -0.00000089
-0.23364821 -0.15190264 -0.00000041
0.49875935 0.15097279 -0.00000084
0.05618348 -0.57564450 -0.00000014
0.04103163 -0.06541015 -0.00000046
-0.49743534 -0.02757161 -0.00000032
-0.55083943 -0.37553110 -0.00000020
0.43799860 -0.62099718 -0.00000011
-0.35092523 0.75716322 -0.00000056
-0.36973535 -0.17750195 -0.00000039
-0.62293468 -0.02286708 -0.00000018
-0.51729168 -0.70370366 -0.00000006
-0.42728916 0.74214655 -0.00000047
0.48157759 0.27449235 -0.00000095
-0.24384053 -0.03942355 -0.00000048
-0.15312594 0.13807876 -0.00000059
-0.09815882 0.08461217 -0.00000055
0.47390385 0.31114723 0.01352831
0.27412875 -0.50400508 -0.00000018
-0.59114846 0.20921686 -0.00000026
0.48557744 -0.47297434 -0.00000020
-0.42160708 0.77552820 -0.00000047
0.24884888 0.07952419 -0.00000055
0.51024443 0.03419957 -0.00000073
-0.03423956 -0.50735561 -0.00000018
-0.74850566 -0.74354486 0.00000000
0.54386566 -0.14528811 -0.00000057
0.79978572 -0.34017773 -0.00000057
-0.19283903 -0.72404232 -0.00000005
-0.32638341 0.40873838 -0.00000058
0.42027332 0.09028758 -0.00000069
0.70721921 -0.62706329 -0.00000022
-0.35034094 -0.03192802 -0.00000047
0.77667967 -0.78713850 -0.00000002
-0.36868180 -0.65712567 -0.00000009
0.68607692 0.05401336 -0.00000094
-0.07892401 0.56854289 -0.00000086
0.35598164 0.40365768 0.03652839
0.58882869 -0.73070793 -0.00000004
0.15069378 -0.42927722 -0.00000023
-0.39051947 0.71932397 -0.00000051
0.71470756 -0.56264364 -0.00000030
0.56898810 -0.70992815 -0.00000006
-0.73068995 -0.61951646 0.00000000
-0.71942854 -0.13146725 -0.00000006
0.02572604 0.36985537 -0.00000073
-0.27587006 -0.70121771 -0.00000006
0.00909204 -0.75119473 -0.00000003
0.49388591 -0.23175451 -0.00000043
0.32906470 0.17382987 0.26890607
0.19655681 0.33939101 0.23898899
0.31699516 -0.63446842 -0.00000010
0.39318122 -0.74591529 -0.00000003
-0.60755779 -0.48976960 -0.00000012
-0.72680012 -0.00502149 -0.00000008
0.08381055 0.61019499 0.09593263
-0.51224137 -0.52205558 -0.00000017
-0.55379190 -0.70691427 -0.00000006
0.00711792 0.71483335 -0.00000095
0.05801302 0.11228390 -0.00000057
-0.28244483 0.76345624 -0.00000065
