ply
format ascii 1.0
element vertex 1408
property float x
property float y
property float z
end_header
-0.24950398 -0.45497945 0.00000000
-0.63346518 0.47200215 0.00000000
-0.56891520 -0.69617417 0.00000000
0.09836108 -0.49201494 0.00000000
-0.64558789 -0.16693414 0.00000000
-0.04219630 -0.48328999 0.00000000
0.48828576 -0.23120356 0.00000000
0.50453443 -0.75586932 0.00000000
0.47698837 0.29499496 0.00000000
0.18805694 -0.63327408 0.00000000
-0.52143910 -0.05570450 0.00000000
-0.18799743 -0.23548938 0.00000000
0.40557546 0.25512625 0.00000000
0.61495741 0.05022131 0.00000000
-0.00521385 -0.01277519 0.00000000
-0.52467341 -0.51945833 0.00000000
-0.25907508 -0.08698718 0.00000000
-0.46573452 -0.24756596 0.00000000
-0.33277441 0.10950223 0.00000000
0.37202234 -0.23779355 0.00000000
-0.70810391 0.54421145 0.00000000
-0.02957417 -0.12750254 0.00000000
-0.62368432 0.32498168 0.00000000
-0.74728965 0.64909420 0.00000000
0.65236270 0.18728275 0.02436944
0.70622727 -0.14317413 0.00000000
0.38311517 0.64998734 0.14328178
0.40956503 -0.76827568 0.00000000
-0.13186963 -0.02868370 0.00000000
-0.61425342 -0.22017051 0.00000000
-0.43386700 0.13962549 0.00000000
0.02017063 0.02527557 0.00000000
-0.19105339 0.72382551 0.00000000
-0.15865994 0.54170959 0.00000000
0.63568794 -0.62254942 0.00000000
-0.77855010 0.34170946 0.00000000
-0.51726622 -0.34047175 0.00000000
-0.78714446 0.63864065 0.00000000
-0.76842643 0.76529412 0.00000000
0.11608228 -0.61156175 0.00000000
-0.19618135 0.52131354 0.00000000
-0.58688046 -0.45338560 0.00000000
0.56126316 -0.62140670 0.00000000
-0.14159806 0.32417121 0.00000000
-0.38998782 0.13838630 0.00000000
0.58604205 -0.60285182 0.00000000
0.60105185 0.57640630 0.23201294
-0.21114115 -0.58884964 0.00000000
0.65204601 -0.32166945 0.00000000
0.29302068 -0.15140026 0.00000000
-0.74795056 -0.49292049 0.00000000
-0.32503170 0.45631340 0.00000000
0.61760160 -0.01886665 0.00000000
0.04908184 0.72664658 0.00000000
-0.72718883 -0.76256129 0.00000000
0.03525555 0.20151077 0.00000000
-0.26318178 0.41649541 0.00000000
0.70464099 -0.51782085 0.00000000
-0.75474017 0.68409367 0.00000000
-0.75603863 0.61377009 0.00000000
-0.24994553 0.78763250 0.00000000
0.39456186 -0.10685576 0.00000000
0.50382025 0.56614776 0.16594176
-0.42299720 -0.78969091 0.00000000
0.27875535 0.10966241 0.00000000
0.46542131 0.24856127 0.00000000
-0.04220890 -0.25265989 0.00000000
0.01383283 0.72556960 0.00000000
0.69618582 -0.18317226 0.00000000
0.70699393 0.20986361 0.07182933
0.59948036 -0.04674147 0.00000000
-0.22931882 0.53861908 0.00000000
-0.09817664 -0.55682451 0.00000000
0.01700020 -0.37815878 0.00000000
-0.61738749 -0.20278639 0.00000000
-0.76379139 0.21840167 0.00000000
-0.57689619 -0.26751988 0.00000000
0.21362710 -0.20025941 0.00000000
0.13929473 0.74736417 0.05326726
-0.14356095 -0.32762058 0.00000000
0.00195296 0.41744731 0.00000000
0.40437616 0.38865908 0.00000000
0.08268297 0.47039735 0.00000000
-0.54489922 -0.62462362 0.00000000
-0.59852788 0.75911776 0.00000000
-0.78008421 0.10922510 0.00000000
0.70059573 0.55653307 0.28098420
0.71867928 0.24387844 0.09991982
0.57864753 -0.44863942 0.00000000
-0.75417553 -0.70724482 0.00000000
0.53605421 0.28292048 0.01166377
-0.58283637 -0.67915848 0.00000000
0.76527400 -0.24617989 0.00000000
-0.15513451 -0.78029690 0.00000000
-0.62233566 0.14443497 0.00000000
-0.73056128 0.22212309 0.00000000
-0.13311130 0.60852446 0.00000000
0.61042192 -0.10505152 0.00000000
0.35142122 0.07338047 0.00000000
0.03823269 0.42193687 0.00000000
0.71821586 0.29472863 0.13089101
0.44270940 -0.42342264 0.00000000
-0.46900647 -0.79310052 0.00000000
-0.58737852 0.17616147 0.00000000
0.14102098 -0.40464041 0.00000000
0.47371110 0.55740407 0.14206000
-0.05551080 0.19395837 0.00000000
0.28943662 -0.08398835 0.00000000
0.63006013 0.12715981 0.00000000
0.77204051 -0.33969438 0.00000000
-0.13870294 0.02090366 0.00000000
-0.01950390 0.45357554 0.00000000
-0.26120385 -0.64111788 0.00000000
-0.33989910 0.15207287 0.00000000
-0.26355151 0.42993728 0.00000000
-0.61166395 0.07392021 0.00000000
-0.49027126 -0.64198573 0.00000000
0.03775489 0.75373558 0.00000000
0.42825088 0.32790694 0.00000000
0.49599083 0.03613419 0.00000000
-0.34761542 0.59372614 0.00000000
0.44961076 0.37021454 0.01218660
-0.73455681 -0.65078031 0.00000000
-0.69407455 0.44571658 0.00000000
0.77716654 0.12208000 0.06100439
0.52985921 -0.36960608 0.00000000
-0.34669066 -0.36106991 0.00000000
0.06208693 0.17632192 0.00000000
-0.22243209 -0.27116825 0.00000000
-0.10519802 -0.57747848 0.00000000
-0.78727384 0.61123505 0.00000000
0.42096954 -0.31984533 0.00000000
-0.16636612 -0.45465890 0.00000000
-0.72744618 -0.29162206 0.00000000
-0.66007752 -0.23932752 0.00000000
0.59649986 -0.64567811 0.00000000
0.77734873 -0.77167253 0.00000000
0.61980778 0.25143916 0.04379390
0.00922619 -0.34572438 0.00000000
-0.16408420 0.19501617 0.00000000
0.03945510 0.61367495 0.00000000
0.46148632 -0.25108553 0.00000000
0.46538364 -0.19300539 0.00000000
0.47557770 0.41091978 0.05316794
-0.38423595 0.50021068 0.00000000
-0.28150388 0.72858617 0.00000000
-0.15956261 -0.03435440 0.00000000
0.35035404 -0.00913265 0.00000000
0.11235634 0.72401030 0.02235406
0.03651759 -0.10109214 0.00000000
0.61743194 0.08011089 0.00000000
-0.55920353 0.74757746 0.00000000
-0.56219038 0.00833912 0.00000000
0.41724512 -0.72048390 0.00000000
0.67391220 -0.65408370 0.00000000
0.31836733 0.40238738 0.00000000
0.00953850 -0.06101208 0.00000000
0.26775248 -0.08592918 0.00000000
-0.06238880 0.34853407 0.00000000
-0.56250380 0.64490439 0.00000000
-0.44307670 0.08401939 0.00000000
-0.53681570 0.52449594 0.00000000
-0.62542700 -0.24948469 0.00000000
0.66208565 0.37257201 0.14423742
-0.22600957 0.24987332 0.00000000
0.50244687 0.11785769 0.00000000
0.74871027 -0.25411223 0.00000000
0.14349573 -0.73211922 0.00000000
-0.12492152 -0.20304104 0.00000000
0.65419912 0.19947037 0.03298958
-0.35185706 0.70969488 0.00000000
0.25343976 0.73076304 0.11322471
0.35419744 0.49293361 0.02897061
-0.53145555 -0.36039936 0.00000000
0.21709970 0.41443365 0.00000000
0.00920866 -0.34786479 0.00000000
0.22035679 -0.46251877 0.00000000
-0.49045898 -0.20061371 0.00000000
0.56741994 -0.27271023 0.00000000
0.12374556 -0.53932760 0.00000000
0.49700082 -0.23502753 0.00000000
-0.44904224 0.56383682 0.00000000
-0.52990794 0.19483463 0.00000000
0.12146599 0.72746346 0.03007603
0.31071352 -0.77836376 0.00000000
-0.02414886 -0.31441506 0.00000000
-0.32894589 -0.06519727 0.00000000
0.32819011 0.63626713 0.10108744
-0.38701987 0.21328419 0.00000000
-0.33001988 -0.74450553 0.00000000
0.66625278 0.14998799 0.00998331
0.41864690 0.01649562 0.00000000
-0.57276070 -0.58088200 0.00000000
0.35758228 -0.77926005 0.00000000
-0.36079994 0.10299579 0.00000000
-0.20985820 0.41012126 0.00000000
-0.34705569 0.12006250 0.00000000
-0.59838695 0.08927920 0.00000000
-0.58838318 0.50805822 0.00000000
0.01539914 -0.25840181 0.00000000
-0.47064372 -0.18211119 0.00000000
-0.54997769 0.15626616 0.00000000
-0.11927825 -0.39545115 0.00000000
0.51035967 -0.11521385 0.00000000
-0.24200453 -0.48830502 0.00000000
-0.10612297 0.63684599 0.00000000
-0.57842242 0.64200689 0.00000000
-0.28973674 -0.13561326 0.00000000
0.65520356 0.64183885 0.30551818
-0.75915751 0.18495172 0.00000000
-0.71482258 0.06477383 0.00000000
-0.13030021 0.13321018 0.00000000
0.09125113 0.08314737 0.00000000
0.40357291 0.00071408 0.00000000
-0.30619528 0.40040337 0.00000000
-0.62234583 0.27527865 0.00000000
-0.02052280 0.69726014 0.00000000
-0.25615540 0.66384437 0.00000000
-0.77219102 -0.46284307 0.00000000
0.78063086 -0.77862842 0.00000000
-0.09483682 -0.31498189 0.00000000
-0.32780934 0.58922406 0.00000000
-0.19304301 0.28607447 0.00000000
0.12957344 0.40994256 0.00000000
0.63535742 0.54696939 0.23500550
-0.63545973 -0.41677234 0.00000000
-0.12744059 -0.58089041 0.00000000
-0.38590023 0.21110967 0.00000000
0.52104471 0.49184422 0.13085685
-0.67127091 0.63777069 0.00000000
-0.25052360 -0.66532161 0.00000000
0.07977015 -0.56424206 0.00000000
0.42218825 0.27247022 0.00000000
-0.65656769 0.26728202 0.00000000
0.04526911 -0.27923809 0.00000000
-0.07553279 0.07131786 0.00000000
-0.17446291 -0.75787085 0.00000000
0.37337807 0.53473478 0.06645423
-0.13272331 -0.65326163 0.00000000
0.48559686 0.07048230 0.00000000
0.00734792 -0.34693951 0.00000000
0.57775374 -0.67171527 0.00000000
-0.31434973 -0.74376560 0.00000000
-0.23663409 0.09206979 0.00000000
-0.01359522 -0.13157110 0.00000000
-0.63614212 0.08051766 0.00000000
0.47084426 -0.79191783 0.00000000
-0.78815597 -0.08759440 0.00000000
-0.00796274 -0.65117232 0.00000000
-0.21376137 -0.73009124 0.00000000
-0.69827528 -0.12261690 0.00000000
-0.19852077 0.28498262 0.00000000
-0.55483231 -0.14868358 0.00000000
0.63614598 -0.47586285 0.00000000
-0.72794964 -0.21590727 0.00000000
0.21639704 0.71894056 0.08318862
-0.15941777 0.27991233 0.00000000
-0.13680255 -0.76267968 0.00000000
0.32266505 0.57499885 0.06003159
-0.52060712 -0.74602234 0.00000000
-0.66100861 -0.51259758 0.00000000
0.75597383 0.31398507 0.16593601
0.17993324 0.69306067 0.04486771
-0.31344857 -0.13025531 0.00000000
-0.11962360 0.02763480 0.00000000
-0.60891959 -0.01037810 0.00000000
0.54022703 0.46299314 0.12491377
0.67443838 -0.38508758 0.00000000
0.20619622 0.68774555 0.05774371
0.77068680 0.15883111 0.07961126
0.42352381 -0.78659678 0.00000000
0.52135954 0.12063879 0.00000000
-0.13304524 0.36567712 0.00000000
-0.63918931 0.51597361 0.00000000
-0.58124757 -0.06806095 0.00000000
-0.02632348 -0.13287821 0.00000000
0.19709455 0.33116705 0.00000000
-0.27576481 -0.32346480 0.00000000
-0.56617862 -0.28884739 0.00000000
0.35590673 0.68623242 0.14883644
-0.03718174 -0.11875404 0.00000000
0.17934840 0.67315756 0.03227440
-0.75335353 -0.62950972 0.00000000
-0.39716362 0.02893150 0.00000000
0.68514198 0.34431859 0.14104293
0.08585512 0.75927037 0.02773788
0.41207776 0.17717566 0.00000000
-0.04880401 0.23432617 0.00000000
-0.64995330 -0.23419906 0.00000000
0.47227311 -0.55179502 0.00000000
0.34823047 -0.57025598 0.00000000
0.19465699 0.58269588 0.00000000
0.57034422 -0.37243304 0.00000000
0.40047096 -0.02709669 0.00000000
0.37518908 -0.59508000 0.00000000
0.36331280 0.30653506 0.00000000
0.63246963 -0.44756620 0.00000000
-0.18873799 -0.52549201 0.00000000
0.38017544 -0.63262447 0.00000000
0.34469591 0.18573769 0.00000000
0.73279389 -0.03989908 0.00000000
0.57067263 -0.64189803 0.00000000
0.00199868 0.45264492 0.00000000
0.24757845 0.31324703 0.00000000
-0.12662921 -0.48226023 0.00000000
0.66838960 -0.71041044 0.00000000
0.13854071 0.72631623 0.03986616
-0.60340620 0.02882096 0.00000000
0.48088761 -0.47944282 0.00000000
0.06065045 0.73335079 0.00000000
0.03029818 -0.56505250 0.00000000
-0.19797346 0.64820088 0.00000000
0.40465516 0.62729096 0.14257093
-0.23771959 0.56222473 0.00000000
0.74356216 0.29264030 0.14518696
-0.65870247 -0.51148716 0.00000000
-0.13654709 0.42324969 0.00000000
-0.62621632 -0.66143850 0.00000000
0.55309538 -0.55850457 0.00000000
0.18877480 -0.57108564 0.00000000
-0.79991305 0.26613179 0.00000000
-0.58356825 -0.75361057 0.00000000
0.35886162 -0.41548314 0.00000000
0.12852568 -0.32259137 0.00000000
0.46792250 -0.20925064 0.00000000
-0.72601858 -0.14759404 0.00000000
0.21553823 -0.23857176 0.00000000
-0.33336960 0.59503982 0.00000000
0.63736394 -0.16801244 0.00000000
0.45842848 0.47721286 0.08337515
0.56493331 -0.64650082 0.00000000
0.05782829 -0.45111677 0.00000000
-0.13388344 0.13431272 0.00000000
0.00712265 -0.34425898 0.00000000
-0.56296206 -0.45581581 0.00000000
-0.62295435 0.47206316 0.00000000
0.63005826 -0.37740720 0.00000000
0.52524898 0.72590819 0.27731403
-0.18794777 -0.54001434 0.00000000
0.20976699 0.09378005 0.00000000
0.17286989 0.58770584 0.00000000
-0.76552941 0.54640448 0.00000000
0.01318255 -0.68639438 0.00000000
-0.50821026 -0.48242003 0.00000000
0.18715279 0.66315822 0.03092523
-0.78802887 0.44187426 0.00000000
-0.43405733 0.43296591 0.00000000
-0.67142942 0.70112892 0.00000000
-0.33145481 0.79928912 0.00000000
0.17975298 -0.30397105 0.00000000
0.53595484 0.24656427 0.00000000
0.17586041 -0.27782039 0.00000000
-0.77867987 0.72815254 0.00000000
0.70895018 0.25179785 0.09880745
0.17686511 -0.07310141 0.00000000
0.39729847 0.17768775 0.00000000
-0.42848664 -0.07761166 0.00000000
0.45533361 0.23432741 0.00000000
-0.30501777 -0.12996621 0.00000000
0.68300113 0.19279227 0.04658847
-0.20464965 0.02777170 0.00000000
-0.28768786 -0.13030423 0.00000000
-0.06019176 0.74077319 0.00000000
0.09695499 -0.59630359 0.00000000
0.43301009 0.33783316 0.00000000
0.72492248 -0.38219309 0.00000000
-0.55514894 0.57586858 0.00000000
0.13174896 0.22402913 0.00000000
0.12814271 0.18498097 0.00000000
0.72568179 -0.01505367 0.00000000
0.01905789 0.53071956 0.00000000
-0.42449105 0.45383047 0.00000000
0.24008235 -0.63004159 0.00000000
0.27350711 -0.01055383 0.00000000
-0.17122739 -0.17005406 0.00000000
0.16314509 0.47150555 0.00000000
0.61881759 -0.13489413 0.00000000
0.34224831 0.32661435 0.00000000
0.75529949 0.09165592 0.02886265
0.63183291 -0.09081576 0.00000000
-0.03908403 0.12536073 0.00000000
-0.35046237 -0.54836090 0.00000000
-0.29889245 0.10066885 0.00000000
-0.64266705 -0.53416781 0.00000000
0.16589419 0.37293883 0.00000000
0.34232293 -0.15131418 0.00000000
0.05029530 0.08131119 0.00000000
-0.03667191 0.68718544 0.00000000
0.47525604 -0.46246732 0.00000000
-0.42101058 -0.07086049 0.00000000
0.63958753 -0.20067984 0.00000000
0.03160953 -0.16175451 0.00000000
-0.45735712 0.13487023 0.00000000
0.55056040 0.06427590 0.00000000
0.14005815 -0.30804288 0.00000000
-0.03636617 -0.22082980 0.00000000
0.18448983 0.52525870 0.00000000
0.08945593 -0.61755813 0.00000000
-0.33397840 0.63045831 0.00000000
-0.49737112 0.30967915 0.00000000
-0.48488164 0.52747487 0.00000000
-0.29131974 0.11235634 0.00000000
-0.32723316 -0.72525086 0.00000000
-0.31717122 0.34335387 0.00000000
-0.27409523 -0.17746102 0.00000000
0.29063791 -0.15713338 0.00000000
-0.08411080 0.72295224 0.00000000
0.65392139 -0.20388233 0.00000000
0.45205147 -0.48938314 0.00000000
0.49594455 0.35439486 0.03094269
0.33449196 -0.79435733 0.00000000
-0.00864754 -0.64891239 0.00000000
-0.58141830 -0.27041200 0.00000000
-0.35244788 0.34165539 0.00000000
0.67428585 -0.47419483 0.00000000
-0.57801460 0.35687291 0.00000000
0.40295474 0.56579578 0.10372634
-0.54607127 0.36103404 0.00000000
0.24874500 0.37021693 0.00000000
0.02805982 -0.08829195 0.00000000
-0.38978871 0.57794822 0.00000000
-0.04316505 -0.68288317 0.00000000
-0.72430880 0.69425150 0.00000000
-0.34709246 0.71412969 0.00000000
-0.01645727 0.22168535 0.00000000
0.63936716 -0.43693049 0.00000000
-0.28412632 -0.19545097 0.00000000
-0.76111280 -0.42406459 0.00000000
0.64900019 -0.64536994 0.00000000
-0.25039701 0.29014466 0.00000000
0.61243143 -0.66073210 0.00000000
-0.64401031 0.47232908 0.00000000
-0.06135855 0.28297967 0.00000000
0.58996311 -0.26055666 0.00000000
0.26295690 -0.38040137 0.00000000
-0.01246318 0.56657529 0.00000000
0.24846928 0.20132800 0.00000000
-0.08557572 -0.04777729 0.00000000
0.69529932 -0.42707046 0.00000000
-0.18180314 -0.65370938 0.00000000
-0.36971937 -0.64053280 0.00000000
0.43865221 0.25793228 0.00000000
-0.55045073 0.53866558 0.00000000
0.19945787 -0.00665535 0.00000000
0.72080261 -0.59613947 0.00000000
0.64656402 -0.24954779 0.00000000
-0.34998221 -0.62018638 0.00000000
0.14693105 0.24592345 0.00000000
-0.74277693 -0.00996862 0.00000000
-0.62644074 0.00437796 0.00000000
-0.78253418 0.29954250 0.00000000
0.25941536 -0.53983356 0.00000000
0.64623718 -0.12629954 0.00000000
0.12521878 0.34933084 0.00000000
-0.25567391 -0.17891979 0.00000000
-0.44410709 -0.45363791 0.00000000
0.51341046 0.27144104 0.00000000
0.51383690 0.46638963 0.11078028
0.27140188 0.08707210 0.00000000
-0.63605795 -0.37572169 0.00000000
0.34358678 0.05905485 0.00000000
0.05937242 -0.76708048 0.00000000
0.09890523 0.60850973 0.00000000
-0.07062208 0.39538098 0.00000000
-0.74400594 -0.65487348 0.00000000
0.17960681 0.55780864 0.00000000
0.20273070 0.47542464 0.00000000
-0.47534183 -0.60589716 0.00000000
0.58408718 0.18811911 0.00000000
0.03066775 -0.52371457 0.00000000
-0.40418928 -0.35920923 0.00000000
-0.08256288 -0.42442930 0.00000000
0.25305744 0.26611390 0.00000000
-0.64670804 0.34781976 0.00000000
0.28400944 -0.44154014 0.00000000
-0.76800588 0.62512021 0.00000000
-0.42627547 0.63290692 0.00000000
-0.42030944 -0.73526490 0.00000000
0.13847329 -0.36511949 0.00000000
-0.38512198 -0.67972433 0.00000000
0.25007267 -0.22758432 0.00000000
-0.62840362 0.50873658 0.00000000
0.38724149 0.61958422 0.12713010
0.43301598 0.15444412 0.00000000
0.13863400 0.26713463 0.00000000
-0.73075336 0.34150002 0.00000000
0.61572332 0.37086610 0.11469136
0.57159873 -0.56274701 0.00000000
0.08643820 0.73284525 0.01185355
-0.59207695 -0.30754339 0.00000000
-0.34163009 0.43678973 0.00000000
0.63238630 0.41343404 0.15109877
0.05899951 -0.48810866 0.00000000
-0.53218802 -0.43740054 0.00000000
0.27918949 0.06433088 0.00000000
-0.39844263 -0.24114975 0.00000000
0.19808537 0.76962193 0.10308549
0.08179172 -0.06427983 0.00000000
0.03358507 0.63325850 0.00000000
0.68123835 0.22515502 0.06539733
0.58768593 0.02332432 0.00000000
0.46687125 -0.19264038 0.00000000
-0.24377472 -0.32169144 0.00000000
0.44329117 0.14406541 0.00000000
0.16494017 0.13810587 0.00000000
-0.48885467 -0.15160270 0.00000000
0.57577648 0.49775505 0.16813199
-0.35653822 -0.18551083 0.00000000
-0.66619623 0.48229169 0.00000000
0.53835715 -0.59767688 0.00000000
-0.60668159 0.38419363 0.00000000
-0.77353760 0.12007590 0.00000000
0.39401734 0.08872229 0.00000000
-0.24439596 0.40515779 0.00000000
0.73820473 -0.10051175 0.00000000
0.27942694 -0.40295456 0.00000000
0.63068256 -0.59580597 0.00000000
0.48361916 0.18823518 0.00000000
-0.61582877 -0.67534493 0.00000000
-0.15391112 0.70650430 0.00000000
-0.67054787 0.14087041 0.00000000
0.23419957 0.67968954 0.07000473
-0.78271760 -0.56919959 0.00000000
0.01525198 -0.76920478 0.00000000
0.73059645 0.48342300 0.25448592
0.23557664 0.14471756 0.00000000
-0.18236466 0.58393228 0.00000000
-0.73152543 -0.22568235 0.00000000
-0.64784531 0.11068257 0.00000000
0.02942452 -0.70866997 0.00000000
0.21414903 -0.05864558 0.00000000
-0.16937272 0.18753467 0.00000000
0.66570536 0.57402882 0.27029226
-0.70284274 -0.47250175 0.00000000
-0.76516602 -0.20216682 0.00000000
0.53695272 -0.15979011 0.00000000
-0.41720201 0.23886483 0.00000000
-0.54714283 -0.33946969 0.00000000
-0.55926221 0.70160046 0.00000000
0.21911251 -0.14811175 0.00000000
-0.30077661 0.57982267 0.00000000
-0.09461428 0.37408801 0.00000000
-0.31159359 -0.79118817 0.00000000
-0.39045835 0.45142764 0.00000000
0.66244354 0.48778373 0.21527467
0.70591600 0.11370583 0.01206154
0.02633681 -0.39896960 0.00000000
-0.31222133 0.72122406 0.00000000
0.09266057 -0.59896188 0.00000000
0.78792370 -0.59636251 0.00000000
0.27278631 0.60517080 0.04791843
0.70744911 -0.22927723 0.00000000
0.10247125 0.42309723 0.00000000
0.69179649 -0.13648595 0.00000000
-0.17532667 -0.32422925 0.00000000
-0.14104301 0.37305422 0.00000000
-0.79489689 -0.61799953 0.00000000
0.20606799 -0.27354298 0.00000000
0.70735602 -0.65894585 0.00000000
0.70097069 0.35551899 0.15765689
0.58940359 -0.13370264 0.00000000
-0.69276394 -0.67728976 0.00000000
0.11451529 0.40616281 0.00000000
0.50964915 0.70266364 0.25343742
0.54877959 -0.11956578 0.00000000
-0.42363814 -0.30520622 0.00000000
-0.37814481 -0.31110971 0.00000000
0.62642191 0.44642979 0.16771411
-0.25821651 0.01530263 0.00000000
0.72595540 -0.65838689 0.00000000
-0.18902638 0.42405036 0.00000000
0.18199858 -0.29636942 0.00000000
0.77809459 -0.60529489 0.00000000
0.24397937 -0.39484530 0.00000000
0.65398487 -0.31340996 0.00000000
-0.36963294 0.22814598 0.00000000
-0.26250164 0.74749136 0.00000000
-0.02737475 -0.56262999 0.00000000
-0.72030613 -0.50115484 0.00000000
-0.51646665 -0.54365429 0.00000000
0.04996350 0.09742159 0.00000000
0.03750509 -0.43958379 0.00000000
0.24072341 -0.00165861 0.00000000
-0.58298294 -0.44466249 0.00000000
-0.56107142 -0.42993796 0.00000000
0.42798760 0.72593670 0.21754772
0.46794975 -0.06500677 0.00000000
0.68908468 0.23660708 0.07725945
0.09514490 0.17363317 0.00000000
-0.42854178 -0.36917301 0.00000000
0.71029418 -0.38241968 0.00000000
-0.11096223 0.58576766 0.00000000
0.18304684 -0.55942991 0.00000000
-0.59329124 0.54101199 0.00000000
-0.07153313 -0.38164360 0.00000000
0.57500015 0.66231833 0.26880762
0.61872430 0.45807531 0.17014078
0.73974310 -0.67145180 0.00000000
0.03503777 0.06732625 0.00000000
-0.69913963 -0.61728672 0.00000000
-0.43638630 -0.12604064 0.00000000
0.45597978 0.55078435 0.12709213
0.36947002 -0.59753916 0.00000000
0.41449427 -0.61623671 0.00000000
0.68352800 0.02209006 0.00000000
0.48276933 -0.62764477 0.00000000
-0.03863978 0.08985875 0.00000000
0.54200319 -0.21592864 0.00000000
-0.53106836 -0.69561874 0.00000000
0.69733196 0.24529088 0.08766646
0.58176072 -0.50053790 0.00000000
0.70047779 -0.12014670 0.00000000
0.25642521 0.72136119 0.10928070
0.48964237 -0.14094367 0.00000000
0.24389566 -0.54602077 0.00000000
-0.38985555 -0.39490168 0.00000000
-0.21124125 -0.10944265 0.00000000
-0.52354954 0.32181693 0.00000000
0.76877759 0.11080126 0.04891526
-0.64142599 -0.47336736 0.00000000
-0.38280593 0.69824852 0.00000000
-0.76875357 0.24822401 0.00000000
-0.09415117 -0.03925261 0.00000000
0.25870585 -0.73539624 0.00000000
0.37805716 0.71451352 0.17983535
0.54081452 0.03300058 0.00000000
0.63761537 -0.41330232 0.00000000
-0.58228882 0.52701895 0.00000000
-0.26878140 -0.54028919 0.00000000
0.10643583 -0.09393115 0.00000000
-0.33633091 0.27681520 0.00000000
0.02682436 0.02683443 0.00000000
-0.79724949 0.56387027 0.00000000
-0.25905662 -0.65580860 0.00000000
0.42801315 0.50407761 0.08119272
0.36097363 -0.11144803 0.00000000
0.03586731 -0.20460180 0.00000000
-0.05394658 -0.06497488 0.00000000
-0.32693922 -0.73443322 0.00000000
0.01031422 0.12036364 0.00000000
0.63672697 0.28756549 0.07639935
-0.29594221 0.37213644 0.00000000
-0.24950538 0.72564022 0.00000000
0.21940209 0.50463610 0.00000000
0.10997589 -0.07141537 0.00000000
-0.38464358 0.58506396 0.00000000
-0.71959168 0.14298961 0.00000000
0.44915248 -0.59411729 0.00000000
-0.73464147 -0.45840289 0.00000000
-0.18688046 -0.73942024 0.00000000
0.26992375 0.22779557 0.00000000
-0.59930471 -0.45836304 0.00000000
-0.69687499 -0.42475586 0.00000000
0.33806013 -0.68188010 0.00000000
0.46079468 -0.73822411 0.00000000
-0.01356681 0.66556304 0.00000000
0.40225561 0.55390939 0.09599041
-0.41705974 -0.69558235 0.00000000
-0.16799332 -0.62772623 0.00000000
-0.70065307 -0.58542759 0.00000000
0.58486369 0.66004309 0.27347193
0.52035570 -0.14193533 0.00000000
0.08757103 -0.06539059 0.00000000
-0.28563501 0.44327178 0.00000000
0.05851797 -0.10186430 0.00000000
0.49031601 0.68676161 0.23177932
-0.69694032 0.31898803 0.00000000
-0.31779579 -0.55650230 0.00000000
-0.28862909 0.19523505 0.00000000
0.01482087 0.75975650 0.00000000
0.06405440 -0.67026025 0.00000000
-0.75692467 0.78654205 0.00000000
0.64977399 -0.01216740 0.00000000
-0.10043881 -0.09871612 0.00000000
0.07744652 -0.06123102 0.00000000
-0.74587298 -0.07311096 0.00000000
0.72386884 0.43833080 0.22263363
0.18560170 -0.21725023 0.00000000
0.11577247 0.45649897 0.00000000
-0.73065759 0.28259612 0.00000000
0.28060861 -0.67698956 0.00000000
-0.14253353 -0.26773436 0.00000000
0.38308189 -0.58510316 0.00000000
0.09047696 -0.61966163 0.00000000
-0.03242907 -0.07108877 0.00000000
0.27502414 -0.13877618 0.00000000
0.00877565 -0.07265896 0.00000000
0.11296574 -0.57063042 0.00000000
0.63268761 -0.51136860 0.00000000
-0.33866186 0.79166976 0.00000000
-0.02081643 0.10803507 0.00000000
-0.45313397 0.49999941 0.00000000
0.68160354 0.25011041 0.08096111
0.33676207 0.23852797 0.00000000
0.24341577 0.74717540 0.11715150
0.59978282 -0.41722848 0.00000000
-0.78345401 -0.65940827 0.00000000
0.29555283 -0.23537781 0.00000000
-0.72246097 -0.75565784 0.00000000
0.71749713 0.47568999 0.24168085
0.04920351 0.23705701 0.00000000
0.57317366 0.24496852 0.01115205
-0.56983874 -0.33337416 0.00000000
-0.49134989 -0.77644922 0.00000000
-0.00615409 -0.44403506 0.00000000
0.58571184 0.65624909 0.27166118
0.51350735 -0.21679936 0.00000000
0.41359011 -0.43701006 0.00000000
-0.04885292 0.60637296 0.00000000
0.30370992 0.73199807 0.14488350
0.54744507 -0.67639026 0.00000000
0.23226152 -0.06357850 0.00000000
-0.19479514 -0.14957186 0.00000000
-0.37342300 0.08103279 0.00000000
0.01166985 0.72997206 0.00000000
-0.30805139 -0.59601159 0.00000000
0.02364378 0.70881117 0.00000000
0.23637600 -0.78524559 0.00000000
0.04226180 -0.76781610 0.00000000
-0.36301297 0.25323031 0.00000000
0.42186526 -0.69082015 0.00000000
0.74559462 -0.12715646 0.00000000
0.50667278 -0.65392748 0.00000000
0.13501219 0.69641356 0.01931704
-0.68147618 0.29435166 0.00000000
-0.53328521 -0.72318859 0.00000000
0.14677584 0.33566733 0.00000000
0.28128551 0.49989911 0.00000000
0.26846146 0.33484450 0.00000000
-0.35966080 -0.17823947 0.00000000
-0.06742500 -0.78017649 0.00000000
-0.27878068 -0.26317953 0.00000000
-0.29137460 0.29357060 0.00000000
-0.01287546 -0.03050646 0.00000000
-0.72169069 -0.18717413 0.00000000
-0.04984330 -0.10422870 0.00000000
-0.59086838 0.34980836 0.00000000
0.72066179 0.46452369 0.23676244
0.76015086 -0.62717091 0.00000000
-0.00218261 0.76595440 0.00000000
0.58050920 -0.53768742 0.00000000
-0.74108318 0.56147866 0.00000000
-0.36658889 -0.41764259 0.00000000
-0.66743256 0.69530016 0.00000000
0.76594458 0.19331247 0.09789099
-0.64430151 -0.62876836 0.00000000
-0.72688594 -0.32784626 0.00000000
-0.04647374 -0.10567944 0.00000000
-0.06713644 -0.72332004 0.00000000
0.14278421 -0.64590495 0.00000000
-0.16233934 0.27492370 0.00000000
0.66089738 -0.46559971 0.00000000
0.48827575 -0.03762313 0.00000000
0.12951504 0.25417206 0.00000000
0.28174848 -0.03033625 0.00000000
-0.57027695 0.34732640 0.00000000
-0.19554898 -0.29498725 0.00000000
0.67476791 0.18659026 0.03771558
0.22018521 -0.32045367 0.00000000
0.31971315 -0.14808882 0.00000000
-0.50015955 -0.39183263 0.00000000
0.68342758 -0.37275163 0.00000000
-0.22170422 -0.66747573 0.00000000
-0.55921274 -0.17503468 0.00000000
-0.14505243 -0.70135686 0.00000000
-0.58256349 -0.32122491 0.00000000
0.15699977 -0.44808688 0.00000000
0.32873692 0.08274479 0.00000000
0.45128208 0.04956031 0.00000000
-0.29776445 0.00243348 0.00000000
0.72253090 0.45809913 0.23396231
0.46053141 0.31120862 0.00000000
-0.46494456 -0.75553749 0.00000000
-0.72841697 0.41807892 0.00000000
-0.35356641 0.36666124 0.00000000
0.25890315 0.50812431 0.00000000
0.70009172 -0.32995611 0.00000000
-0.18695299 -0.68087375 0.00000000
0.74052731 0.17335364 0.06999971
0.67028712 -0.28509075 0.00000000
0.43764252 -0.58055463 0.00000000
-0.22148342 0.11754541 0.00000000
0.08616013 -0.55356448 0.00000000
0.71318038 -0.17060754 0.00000000
-0.40104116 0.35552729 0.00000000
-0.10983337 0.27552966 0.00000000
-0.03871569 -0.25717760 0.00000000
-0.63123404 -0.64254282 0.00000000
0.27277639 -0.13986627 0.00000000
-0.53359694 0.20549388 0.00000000
0.05666160 0.56434072 0.00000000
0.51583886 0.09873369 0.00000000
-0.67878468 0.09682077 0.00000000
-0.17853533 0.76727832 0.00000000
0.46463764 0.07180987 0.00000000
-0.00769381 0.70729687 0.00000000
0.32831423 -0.12858644 0.00000000
-0.58224677 -0.73652115 0.00000000
-0.61038852 0.37048906 0.00000000
-0.74841406 -0.14522881 0.00000000
0.51698812 -0.49999765 0.00000000
-0.46870185 -0.46915476 0.00000000
0.35272374 -0.46912594 0.00000000
0.60262924 0.36351059 0.10212163
0.46135232 -0.29652076 0.00000000
0.66342830 0.39712716 0.16015600
0.35834743 -0.64882672 0.00000000
0.13924704 0.36317245 0.00000000
0.08874522 -0.73421653 0.00000000
0.04132788 -0.40268353 0.00000000
0.55802070 -0.31445484 0.00000000
0.14832471 -0.37846924 0.00000000
-0.33571908 0.56606128 0.00000000
-0.27081431 0.24242791 0.00000000
-0.65272611 0.02057801 0.00000000
-0.72842836 -0.09590163 0.00000000
-0.54494404 -0.43448921 0.00000000
-0.41762521 -0.16327916 0.00000000
0.71998702 0.07071920 0.00000000
0.29829214 -0.50530176 0.00000000
-0.76540953 -0.23503696 0.00000000
-0.76094022 0.33851140 0.00000000
-0.24251395 0.66424195 0.00000000
0.44576572 0.11560618 0.00000000
0.77414639 -0.74201611 0.00000000
0.66737510 0.15876208 0.01606633
-0.20785175 0.52903619 0.00000000
0.08111341 0.44361113 0.00000000
-0.73577997 0.38102406 0.00000000
-0.20297995 0.13366639 0.00000000
0.59154723 -0.51750262 0.00000000
0.33113153 0.37938114 0.00000000
-0.47610825 0.63383197 0.00000000
-0.07234535 -0.65925471 0.00000000
0.66335951 -0.36986435 0.00000000
-0.73157968 -0.58909361 0.00000000
0.64185715 0.15609231 0.00000000
-0.57520157 -0.69664751 0.00000000
-0.78645074 -0.04737496 0.00000000
0.32691666 -0.63613894 0.00000000
-0.34321541 -0.12417705 0.00000000
0.09638676 -0.32442273 0.00000000
0.73823888 0.33538394 0.16818810
-0.30842443 -0.68206414 0.00000000
-0.65882413 0.72028585 0.00000000
0.26728813 -0.73536602 0.00000000
-0.44984231 0.36794612 0.00000000
0.78569586 -0.21216652 0.00000000
-0.56517834 -0.36603137 0.00000000
0.61076951 -0.54556893 0.00000000
-0.43189360 -0.11815020 0.00000000
-0.52326187 -0.05072452 0.00000000
0.45123689 0.51538977 0.10242087
-0.48792369 0.40898319 0.00000000
-0.63060233 -0.09507233 0.00000000
-0.64868031 0.03167780 0.00000000
0.55861992 -0.69097731 0.00000000
0.34797052 0.33181727 0.00000000
-0.73564865 -0.35439926 0.00000000
0.74163894 0.31754805 0.15931484
-0.28836837 -0.62205578 0.00000000
-0.01751519 0.26176347 0.00000000
-0.22830960 0.05286867 0.00000000
-0.31081229 0.65655661 0.00000000
0.60188003 -0.50767275 0.00000000
0.57217262 0.30011087 0.04443103
-0.08319470 -0.72374256 0.00000000
-0.56435325 0.62491589 0.00000000
-0.48930239 0.13481597 0.00000000
0.71090598 -0.64853502 0.00000000
0.13512305 -0.78721549 0.00000000
-0.40058028 0.00082330 0.00000000
0.76691694 0.02818759 0.00000000
0.47476147 -0.26610393 0.00000000
0.73517954 -0.43877125 0.00000000
-0.19316890 -0.18811819 0.00000000
-0.05385498 -0.70354233 0.00000000
0.17088512 -0.66529780 0.00000000
-0.15857257 0.53712074 0.00000000
-0.04421930 0.11539400 0.00000000
-0.13406252 -0.54256116 0.00000000
0.42771691 0.27535150 0.00000000
0.59663724 0.70319864 0.30723540
-0.33955048 -0.06913000 0.00000000
0.17896121 -0.55923223 0.00000000
-0.50112301 -0.67348360 0.00000000
0.46502292 -0.79465654 0.00000000
0.76489836 -0.78933267 0.00000000
-0.33401002 -0.07522656 0.00000000
-0.79075246 -0.77410282 0.00000000
-0.66949661 0.55114251 0.00000000
-0.72482161 0.26673636 0.00000000
0.30380020 0.56331132 0.04125199
0.25401557 0.61514844 0.04251359
0.51263700 -0.66877684 0.00000000
-0.45156157 0.61377452 0.00000000
-0.41147596 0.68237613 0.00000000
0.57313553 -0.17227227 0.00000000
-0.34534822 -0.52364375 0.00000000
-0.32927346 -0.54452632 0.00000000
-0.08029044 0.60398635 0.00000000
0.13531836 -0.33336696 0.00000000
0.73039741 -0.31834511 0.00000000
-0.35282546 -0.56364638 0.00000000
-0.56581437 0.60661611 0.00000000
-0.74194448 -0.57453503 0.00000000
0.23044469 0.74591830 0.10840583
0.42189055 -0.24431098 0.00000000
0.59033080 0.51479145 0.18754996
0.44103960 -0.42639487 0.00000000
-0.45947548 -0.79924305 0.00000000
0.29732711 -0.75092864 0.00000000
-0.78683381 -0.30470632 0.00000000
-0.16572481 0.33977961 0.00000000
-0.11500345 0.37951917 0.00000000
0.71403798 0.46301924 0.23176622
0.69629058 0.31467320 0.12967353
-0.00069762 -0.01512688 0.00000000
-0.01659570 0.32789332 0.00000000
0.38303807 0.70865701 0.17929713
0.34517234 -0.51834731 0.00000000
-0.72009510 -0.14418657 0.00000000
-0.35748072 0.56426381 0.00000000
-0.35667678 -0.61418345 0.00000000
0.68826071 0.68963036 0.35521370
0.52294584 0.22553338 0.00000000
0.48669143 -0.27491824 0.00000000
-0.71233770 -0.72820557 0.00000000
0.31162718 0.09445487 0.00000000
0.26775446 0.02025491 0.00000000
0.35984731 0.03575024 0.00000000
0.05013618 -0.53253376 0.00000000
-0.53982227 -0.17879155 0.00000000
-0.30702213 0.02963998 0.00000000
0.28863542 -0.21802645 0.00000000
-0.46889973 0.53122432 0.00000000
-0.51302143 -0.53529837 0.00000000
-0.03590372 0.59603026 0.00000000
0.69151502 0.39948968 0.17887221
0.12617523 -0.35766071 0.00000000
-0.67558447 -0.59288495 0.00000000
0.13136641 0.03280386 0.00000000
-0.41300139 -0.51947151 0.00000000
-0.16901950 0.41254038 0.00000000
0.25214838 0.16568447 0.00000000
-0.11725945 -0.21801315 0.00000000
0.47784960 0.49018702 0.10328752
-0.09844795 0.01481267 0.00000000
0.62743785 -0.60001872 0.00000000
-0.19457581 -0.43519722 0.00000000
-0.23855431 -0.50656907 0.00000000
-0.23187422 0.62996220 0.00000000
0.28622080 0.38846041 0.00000000
-0.37055143 -0.11251027 0.00000000
-0.05968336 0.13519391 0.00000000
0.52180363 -0.07531854 0.00000000
-0.14297289 -0.18526836 0.00000000
0.55677596 0.50363863 0.16006941
-0.53094951 0.62693590 0.00000000
0.41988542 -0.61201393 0.00000000
0.20646704 0.36705730 0.00000000
0.21968712 -0.74702620 0.00000000
-0.23660917 0.27014528 0.00000000
-0.40755631 -0.13399842 0.00000000
0.36718967 0.37092086 0.00000000
-0.43138789 0.65348262 0.00000000
0.48558096 0.41084785 0.05927242
0.38659793 -0.61223331 0.00000000
0.68959112 0.64189583 0.32669028
-0.30092901 -0.00012730 0.00000000
0.37565501 -0.65739183 0.00000000
0.06719524 -0.67889176 0.00000000
-0.15734417 -0.58269344 0.00000000
0.48878835 0.45508007 0.08843208
0.74654384 -0.79087636 0.00000000
0.64118485 0.01327516 0.00000000
-0.50791680 -0.58595601 0.00000000
-0.08518037 -0.76642486 0.00000000
-0.73562986 -0.77771248 0.00000000
0.48660872 -0.07368007 0.00000000
0.28422311 0.45464351 0.00000000
0.60399267 0.09118419 0.00000000
0.09471903 0.61044895 0.00000000
0.23079694 -0.62966219 0.00000000
-0.66609841 0.35528873 0.00000000
0.61114345 -0.37571759 0.00000000
0.56910844 -0.45008799 0.00000000
-0.39141155 0.67767199 0.00000000
0.77738627 -0.43984534 0.00000000
-0.20442111 -0.09671488 0.00000000
0.11625418 -0.26486157 0.00000000
-0.42858191 0.24774870 0.00000000
0.51070245 0.53779447 0.15274402
0.17287339 -0.30070972 0.00000000
-0.09766756 -0.35567955 0.00000000
-0.27224583 -0.13078557 0.00000000
-0.61308765 0.68294785 0.00000000
-0.47596726 0.03884149 0.00000000
0.39097510 -0.12520934 0.00000000
-0.73642856 0.30050516 0.00000000
-0.03211952 0.61825376 0.00000000
-0.39693380 -0.70158819 0.00000000
0.26098732 0.12022374 0.00000000
-0.06142624 -0.15724131 0.00000000
-0.63206425 0.30696431 0.00000000
0.30033754 0.70204210 0.12439742
-0.69261956 0.37707488 0.00000000
0.44796824 0.67394869 0.19787356
-0.01429173 0.47938902 0.00000000
0.04897115 -0.51667397 0.00000000
-0.48935850 0.52693221 0.00000000
-0.64958306 0.34463409 0.00000000
-0.25045136 -0.17070726 0.00000000
0.14581953 -0.14737693 0.00000000
-0.59957302 -0.40795777 0.00000000
0.17481958 0.58969949 0.00000000
-0.69052042 0.23243707 0.00000000
-0.19152149 0.65990038 0.00000000
0.51012716 0.42503610 0.08308129
-0.25123165 -0.31151023 0.00000000
0.03451299 -0.39748589 0.00000000
-0.46036796 -0.26069343 0.00000000
0.25387376 -0.44452932 0.00000000
-0.15307576 0.21464896 0.00000000
-0.20339169 -0.40984898 0.00000000
0.56964311 -0.12763831 0.00000000
0.37764853 0.21196103 0.00000000
-0.32611125 -0.48696380 0.00000000
-0.12592331 0.66820283 0.00000000
0.52970245 -0.12888142 0.00000000
0.15174874 -0.50083997 0.00000000
-0.05143394 -0.56601244 0.00000000
-0.27949774 0.16112466 0.00000000
0.58185041 0.48729157 0.16543387
-0.74495464 -0.74744853 0.00000000
-0.57658872 -0.16932373 0.00000000
0.26993378 -0.35690381 0.00000000
-0.79934266 -0.54594064 0.00000000
-0.19747457 -0.61545231 0.00000000
0.79996611 -0.01904497 0.00000000
0.48876846 0.54398678 0.14306806
0.46232391 -0.70937889 0.00000000
0.17328474 0.43815124 0.00000000
-0.21242523 0.65995488 0.00000000
-0.39343106 0.52484411 0.00000000
0.31736355 -0.14578342 0.00000000
0.12758916 0.05569472 0.00000000
0.30437372 -0.61870064 0.00000000
0.72078824 0.20589803 0.07787075
0.54711210 -0.66495173 0.00000000
0.21822498 -0.40634564 0.00000000
0.50656812 0.25923056 0.00000000
0.60627321 -0.72603785 0.00000000
0.10138648 0.25574731 0.00000000
0.12236524 -0.50840774 0.00000000
0.39863149 -0.14208353 0.00000000
-0.59688470 -0.55763299 0.00000000
-0.03061461 0.78241433 0.00000000
-0.71092479 0.56779089 0.00000000
-0.42480007 -0.60792759 0.00000000
0.32112457 0.25148550 0.00000000
0.62022788 -0.28577256 0.00000000
0.48935523 0.56041026 0.15352382
-0.08008625 -0.02304267 0.00000000
-0.74778445 -0.12932192 0.00000000
-0.02676063 -0.40963602 0.00000000
-0.11791612 -0.46873901 0.00000000
-0.34210719 -0.12921144 0.00000000
0.27113304 0.70673322 0.10932975
0.00402474 -0.11494062 0.00000000
-0.40519482 0.74006149 0.00000000
-0.24508118 0.07123388 0.00000000
0.23397887 -0.16851495 0.00000000
0.27361950 -0.12567826 0.00000000
0.46447239 -0.44423105 0.00000000
0.57721599 -0.31897369 0.00000000
0.05349232 -0.08904959 0.00000000
0.70275122 0.01102856 0.00000000
-0.09025626 0.04611609 0.00000000
0.14245486 -0.68621314 0.00000000
0.21194122 0.19786425 0.00000000
0.16130979 0.55398561 0.00000000
0.13476424 0.57384362 0.00000000
-0.73677353 -0.62887550 0.00000000
0.67794860 0.35468922 0.14299589
-0.66747577 -0.73490416 0.00000000
-0.06839921 0.05045156 0.00000000
0.50777982 -0.02531660 0.00000000
-0.64083912 -0.13731136 0.00000000
-0.23516322 -0.24672832 0.00000000
-0.71939109 0.17593642 0.00000000
-0.38406171 0.64671269 0.00000000
-0.00248930 -0.53248382 0.00000000
0.04141262 0.71000712 0.00000000
-0.22952286 -0.70496818 0.00000000
0.68720253 0.23324793 0.07403779
-0.45555500 0.03369104 0.00000000
-0.26807497 -0.36917739 0.00000000
0.63490481 -0.72274359 0.00000000
-0.08591546 0.55155149 0.00000000
-0.68728580 -0.04962450 0.00000000
-0.56942984 0.50712529 0.00000000
0.43437362 -0.67738413 0.00000000
0.44510266 0.37082849 0.00979299
0.04128839 0.54942117 0.00000000
0.54288740 0.56990812 0.19226663
-0.61183417 0.27762308 0.00000000
-0.16808136 0.51533323 0.00000000
-0.43139886 -0.34764523 0.00000000
0.44056341 0.66408967 0.18726194
-0.17160942 -0.21598222 0.00000000
0.03437988 -0.45988033 0.00000000
-0.33785344 -0.50151537 0.00000000
-0.31892728 0.51236895 0.00000000
0.11651786 -0.16624579 0.00000000
0.02181318 -0.22103189 0.00000000
0.71379548 0.31771091 0.14230043
0.50012756 0.60846571 0.18968372
0.29010528 -0.16464972 0.00000000
0.04002535 -0.58999824 0.00000000
-0.32600720 -0.72409349 0.00000000
-0.50253502 -0.02503556 0.00000000
-0.27259268 0.00749980 0.00000000
0.17253134 -0.55819656 0.00000000
-0.60391031 0.50683124 0.00000000
-0.17539603 0.54765806 0.00000000
-0.39372530 -0.72922671 0.00000000
-0.28384693 -0.03835496 0.00000000
-0.62562788 -0.06674204 0.00000000
-0.40283504 0.15404806 0.00000000
-0.53087949 -0.21723217 0.00000000
0.30653175 0.27291228 0.00000000
-0.10758884 0.60033623 0.00000000
-0.30368328 0.54609517 0.00000000
-0.61497796 -0.05481705 0.00000000
-0.20902690 -0.32977921 0.00000000
-0.61739933 -0.49647709 0.00000000
0.02858607 0.07329221 0.00000000
0.18943202 -0.07130308 0.00000000
-0.78818516 0.65931077 0.00000000
-0.49433797 0.74818707 0.00000000
-0.46433656 -0.32046396 0.00000000
-0.72587971 -0.08107084 0.00000000
0.39122253 0.12859993 0.00000000
-0.28756070 0.23235006 0.00000000
-0.60609015 0.75848290 0.00000000
0.41246802 0.73762093 0.21519026
0.75392292 -0.72644093 0.00000000
-0.60536346 0.64482174 0.00000000
0.05963579 0.15125780 0.00000000
-0.53837023 0.41384759 0.00000000
0.39567598 0.29649668 0.00000000
0.56232823 0.66616016 0.26338001
-0.61723130 0.32167061 0.00000000
0.43068822 0.57713315 0.12774200
-0.79097220 0.38305340 0.00000000
0.55085439 -0.51617579 0.00000000
-0.16307229 -0.39672111 0.00000000
-0.14645175 -0.19749318 0.00000000
-0.43708830 -0.30630396 0.00000000
0.09457198 -0.11835078 0.00000000
-0.49170952 -0.54062800 0.00000000
-0.15720402 0.65811191 0.00000000
-0.72668524 -0.22556419 0.00000000
0.60503578 0.13026865 0.00000000
0.47526208 -0.63678324 0.00000000
0.53319999 -0.50634511 0.00000000
-0.64847453 0.76778391 0.00000000
-0.37051197 -0.07979741 0.00000000
-0.30936545 0.12499755 0.00000000
0.69454337 -0.35260225 0.00000000
-0.41237306 -0.60673859 0.00000000
-0.28646977 0.09962554 0.00000000
-0.59280997 0.37440188 0.00000000
-0.12690529 0.75136811 0.00000000
-0.33889004 0.50936863 0.00000000
-0.21261222 0.52942177 0.00000000
-0.15684416 0.61828768 0.00000000
-0.55592805 -0.54676972 0.00000000
-0.56738215 -0.24465834 0.00000000
0.64948264 -0.74874308 0.00000000
-0.05615233 -0.08360721 0.00000000
0.26759226 0.34867770 0.00000000
-0.22958104 0.78665495 0.00000000
-0.06029707 0.09666452 0.00000000
0.51597939 -0.30834830 0.00000000
0.41835329 0.49674945 0.07075071
0.26142337 -0.62482400 0.00000000
-0.77312348 0.18077990 0.00000000
-0.31758105 0.03723379 0.00000000
-0.63188494 0.36055923 0.00000000
0.02055113 -0.57923217 0.00000000
0.70905547 0.64218449 0.33883189
0.33711737 0.35901992 0.00000000
0.48190156 -0.38610397 0.00000000
0.72829349 -0.70371876 0.00000000
-0.64767995 0.06137748 0.00000000
-0.67485350 -0.57198317 0.00000000
0.57696332 -0.65266487 0.00000000
-0.35694265 -0.31414960 0.00000000
-0.08769442 0.74306369 0.00000000
0.01138993 0.49889878 0.00000000
0.04099717 -0.03027952 0.00000000
-0.74030651 -0.76617325 0.00000000
0.20138172 -0.46922691 0.00000000
0.07961325 0.66727338 0.00000000
0.50092993 -0.36097814 0.00000000
0.74735192 0.07606002 0.01439120
0.14840293 0.46624471 0.00000000
-0.66834139 0.63750034 0.00000000
-0.47184994 -0.12154115 0.00000000
0.66266449 -0.73761502 0.00000000
-0.45177799 -0.08671830 0.00000000
0.54828680 -0.33503852 0.00000000
0.70624563 -0.48374029 0.00000000
0.38099067 0.09935413 0.00000000
-0.60431442 0.27950975 0.00000000
-0.21231451 -0.05578669 0.00000000
0.02645901 -0.58718634 0.00000000
-0.51205146 -0.36205896 0.00000000
-0.08727325 -0.59175527 0.00000000
-0.21966244 0.34858070 0.00000000
0.47761211 0.19807975 0.00000000
-0.78604265 -0.48554049 0.00000000
-0.74925384 -0.47856307 0.00000000
0.41227489 0.71307403 0.19998320
0.14654478 -0.17740907 0.00000000
0.77716047 0.08067968 0.03555317
0.41659323 0.43461971 0.03147962
-0.33225666 0.38724820 0.00000000
-0.19101056 0.66249083 0.00000000
0.47814108 0.49136976 0.10419369
0.07484917 0.60900307 0.00000000
-0.35386330 0.46958034 0.00000000
0.64035388 -0.23846020 0.00000000
0.37412564 0.67981025 0.15608755
-0.66866350 0.50832464 0.00000000
0.04951231 0.36143923 0.00000000
-0.44366977 0.48170721 0.00000000
0.27484796 0.39176016 0.00000000
-0.40376493 -0.29319862 0.00000000
0.72634474 0.37544741 0.18550292
-0.54108457 0.68017765 0.00000000
-0.09922232 0.56844875 0.00000000
0.76372359 -0.48632952 0.00000000
0.40033642 -0.65647132 0.00000000
0.05152765 0.09660946 0.00000000
-0.74540457 0.48101310 0.00000000
-0.50252039 0.76347045 0.00000000
-0.64677341 -0.69761643 0.00000000
-0.17057828 -0.76487046 0.00000000
-0.50658572 -0.02266117 0.00000000
0.64159077 -0.03958879 0.00000000
0.33318788 -0.58573464 0.00000000
-0.19009555 0.67633635 0.00000000
0.05982984 0.16722429 0.00000000
0.76907179 -0.15586845 0.00000000
-0.78444389 -0.50996281 0.00000000
-0.71066078 0.37518106 0.00000000
0.43714660 0.56490336 0.12419448
-0.45491354 0.28658899 0.00000000
0.47525193 0.68733787 0.22287407
0.45182302 0.71198209 0.22362115
-0.25464460 0.14354638 0.00000000
-0.73775817 -0.57751298 0.00000000
0.48148218 -0.09384890 0.00000000
-0.34421330 0.02161451 0.00000000
-0.64699726 0.78301681 0.00000000
0.70348863 -0.58979293 0.00000000
-0.31414894 -0.02883520 0.00000000
0.31902031 0.52541563 0.02731401
-0.74205781 0.23158061 0.00000000
0.27052192 0.43206839 0.00000000
-0.46954643 -0.24188146 0.00000000
-0.26710603 0.14502663 0.00000000
-0.56465503 -0.45984399 0.00000000
0.53931239 0.45499597 0.11943595
-0.18758728 -0.32531476 0.00000000
-0.29108222 -0.65019550 0.00000000
0.18434678 -0.21877414 0.00000000
-0.69384179 -0.71254835 0.00000000
0.71214087 0.35847239 0.16633822
0.23327040 -0.04406131 0.00000000
0.04166773 -0.36281948 0.00000000
-0.76432562 -0.71602359 0.00000000
-0.15950083 0.51444939 0.00000000
-0.55926760 -0.41004308 0.00000000
0.21633442 -0.40844198 0.00000000
0.21322896 -0.15177124 0.00000000
0.70663215 0.61630414 0.32143436
-0.16068598 -0.65594864 0.00000000
-0.06226834 0.17074708 0.00000000
-0.04610125 -0.60485383 0.00000000
-0.76723848 -0.55982172 0.00000000
0.07594631 -0.04579384 0.00000000
0.53432262 0.36345030 0.06009860
0.14960929 -0.74151672 0.00000000
0.47186975 -0.67800156 0.00000000
-0.57123162 0.65007410 0.00000000
-0.29165588 0.71110074 0.00000000
0.38227666 -0.25380435 0.00000000
0.78978259 -0.02834059 0.00000000
0.12119440 0.63759176 0.00000000
-0.22094012 -0.62756428 0.00000000
-0.58921144 -0.55629782 0.00000000
0.17152189 0.15529187 0.00000000
0.76925600 -0.66286836 0.00000000
-0.46303878 0.03507607 0.00000000
0.17430883 0.04562780 0.00000000
-0.35323138 0.59920159 0.00000000
-0.67880108 0.30619856 0.00000000
0.38811418 -0.64553350 0.00000000
-0.44534111 0.01657713 0.00000000
-0.75669737 0.74703993 0.00000000
-0.53478827 0.39302002 0.00000000
-0.62232676 -0.79035913 0.00000000
0.14186343 -0.76038690 0.00000000
-0.57715643 0.49221461 0.00000000
-0.08997754 0.78760503 0.00000000
-0.20365062 -0.39598345 0.00000000
0.78934209 -0.40469686 0.00000000
0.08877070 -0.34450352 0.00000000
0.66851830 0.36800039 0.14538134
-0.47732315 -0.28701557 0.00000000
-0.38579056 0.44015286 0.00000000
-0.43943967 -0.30475714 0.00000000
0.79454355 -0.19505022 0.00000000
0.63411418 0.35423224 0.11577133
0.75701374 0.14221261 0.06099198
-0.37161069 -0.03462343 0.00000000
-0.35439000 -0.00472518 0.00000000
0.12602213 0.06857204 0.00000000
-0.16221904 -0.54403453 0.00000000
0.17458499 0.23741876 0.00000000
0.78889958 -0.21339984 0.00000000
0.64888356 0.43166796 0.17244696
-0.06375185 -0.36489536 0.00000000
0.63434477 -0.26197513 0.00000000
-0.10700399 -0.22427934 0.00000000
-0.67885224 -0.05540209 0.00000000
-0.35261924 0.44354955 0.00000000
0.02784097 0.43909986 0.00000000
-0.12343309 0.32394062 0.00000000
0.11617239 -0.72131277 0.00000000
-0.78042436 -0.69417244 0.00000000
0.41501211 0.20691658 0.00000000
0.47929453 -0.07254380 0.00000000
0.21135818 -0.26883511 0.00000000
0.08395929 0.02039899 0.00000000
-0.40708015 -0.01289679 0.00000000
0.39621071 0.13288827 0.00000000
0.67998815 0.45719295 0.20725548
0.12424823 -0.71092226 0.00000000
-0.35026250 0.27870283 0.00000000
0.25082466 0.59133086 0.02591230
-0.31407612 0.59405808 0.00000000
-0.66654475 -0.47306097 0.00000000
0.40098595 0.00139956 0.00000000
0.38655722 -0.10404141 0.00000000
-0.24110816 0.36675657 0.00000000
0.35880705 -0.45116008 0.00000000
-0.67155946 0.52829451 0.00000000
0.69357856 -0.10496407 0.00000000
0.12028289 -0.33441866 0.00000000
-0.13025750 -0.22523661 0.00000000
-0.01683414 0.11750615 0.00000000
0.34459729 -0.24788406 0.00000000
0.05169379 -0.21681097 0.00000000
-0.28458271 -0.52681494 0.00000000
0.20064593 0.56845503 0.00000000
0.25279114 -0.28655550 0.00000000
-0.22130826 -0.37860365 0.00000000
0.51982131 0.58236783 0.18574722
-0.37726904 -0.55811354 0.00000000
-0.23534659 0.76383141 0.00000000
0.07989628 0.76720443 0.02895201
-0.66106656 0.36009969 0.00000000
0.15736106 0.32412457 0.00000000
0.65878287 -0.67867974 0.00000000
0.64205716 -0.49022578 0.00000000
-0.60679844 0.40087536 0.00000000
-0.19333957 -0.15615223 0.00000000
0.07614366 -0.05542996 0.00000000
-0.20009188 -0.73641626 0.00000000
-0.31070057 0.72016658 0.00000000
0.44259604 0.70880824 0.21599870
0.76118264 0.22370756 0.11364690
0.10250586 -0.62502426 0.00000000
0.42049476 0.18402823 0.00000000
0.30301841 0.62016954 0.07572044
-0.11039589 -0.29058275 0.00000000
0.64363681 0.56205170 0.24936532
-0.39371313 -0.43895243 0.00000000
0.30205714 0.72352110 0.13865701
-0.34932776 0.32128122 0.00000000
-0.45044035 -0.69115715 0.00000000
0.12262517 0.15521926 0.00000000
0.70144741 -0.20465834 0.00000000
-0.00932881 0.60744370 0.00000000
-0.34029888 0.40968862 0.00000000
-0.14863432 0.08930526 0.00000000
0.04132782 -0.28787074 0.00000000
0.48906974 -0.14204741 0.00000000
-0.04827066 -0.50665703 0.00000000
-0.56606193 -0.13334376 0.00000000
-0.48145073 0.02029162 0.00000000
-0.14583461 -0.16122039 0.00000000
0.00101952 -0.26817342 0.00000000
