ply
format ascii 1.0
element vertex 1380
property float x
property float y
property float z
end_header
-0.14633362 0.17578512 0.23418921
-0.09031862 0.61254116 -0.00000005
-0.06599141 0.01762552 0.10561120
-0.05386286 0.10338252 0.08618435
-0.41683523 -0.07411350 0.66709643
-0.02514813 0.21153969 0.04023153
-0.32534082 -0.13027095 0.00000000
-0.33899622 0.11825849 0.54252419
-0.21543987 -0.19500667 0.00000000
-0.23686065 -0.00253641 0.00000000
-0.18764769 0.22060711 0.00000000
-0.02093420 -0.23046789 0.03350263
-0.42299827 -0.11831815 0.67695950
-0.10095756 -0.58946303 0.16157027
-0.39388794 -0.78957849 0.00000000
-0.42957718 0.30481737 -0.00000096
-0.64738110 -0.67735657 -0.00000015
-0.51840415 0.12986005 -0.00000103
-0.18900324 0.03184488 0.00000867
-0.55984472 -0.25210696 -0.00000053
-0.10500865 -0.70215921 0.00000000
-0.08587680 -0.40426317 0.13743536
-0.41443910 0.16672985 -0.00000065
-0.02004680 -0.60991828 0.03208246
-0.63784518 0.02900709 0.00000063
-0.12229272 -0.34690133 0.00000000
-0.25078083 0.11999706 0.40134525
-0.20489253 0.25666183 0.32790646
-0.39832069 -0.42826791 0.00000000
-0.70338717 -0.48703698 -0.00000073
-0.12830721 0.08773491 0.20534004
-0.14632492 0.12669629 0.23416367
-0.42062105 0.08122513 0.00000393
-0.72684329 -0.62715513 -0.00000043
-0.46509344 -0.47510109 0.00000000
-0.10153595 0.24602110 0.00000678
-0.56891366 0.17741331 -0.00000133
-0.53009240 -0.72378949 0.00000000
-0.41815994 -0.18815618 -0.00000004
-0.06671398 0.72728190 -0.00000016
-0.13760710 0.37116126 0.22021894
-0.03319789 0.39064372 0.00000000
-0.25277123 0.11266609 0.00000000
-0.18059298 -0.25077947 0.00000000
-0.08955490 -0.16339344 0.14332171
-0.22308140 -0.38752391 0.35701459
-0.70039202 0.08481237 -0.00000150
-0.43750570 -0.19606703 -0.00000011
-0.21287469 0.14987416 0.34067354
-0.15947329 0.45817468 0.25521730
-0.07980978 -0.54200794 0.00000000
-0.02981112 0.41846572 0.04770906
-0.12001951 0.32354917 0.19207676
-0.22836776 0.23774744 0.36547590
-0.66885661 -0.49211144 -0.00000057
-0.17217464 0.41629608 -0.00000006
-0.21088070 -0.62372453 0.33748885
-0.70623766 -0.28804910 -0.00000109
-0.22572883 0.51037742 -0.00000045
-0.49372286 0.00444725 0.00000381
-0.04600903 0.68564844 0.07363207
-0.24118323 0.02888688 0.38597597
-0.02719584 -0.61877359 0.00000000
-0.28486844 -0.58013359 0.45589720
-0.76076849 -0.18231250 -0.00000151
-0.12105130 -0.65727891 0.19372785
-0.24850867 0.10365087 0.39770227
-0.50358598 0.10262128 0.00000198
-0.01127291 -0.43052244 0.01804092
-0.08650187 0.09931331 0.00000921
-0.41409104 -0.54046730 0.00000000
-0.06268512 0.72592606 0.00000003
-0.26768839 0.27716222 0.42840379
-0.43613804 -0.77976894 0.00000000
-0.00260957 0.74097377 0.00417629
-0.01757511 0.02431196 0.02810632
-0.73792590 -0.09406666 -0.00000157
-0.31067645 0.11865041 0.49719879
-0.30099232 0.10139246 0.00000589
-0.57681432 -0.58553853 -0.00000001
-0.03243521 0.65616098 0.05190621
-0.23426776 0.52683401 0.00000006
-0.15968049 -0.40117572 0.25554916
-0.09734698 -0.72335482 0.00000000
-0.16180936 0.20365780 0.00000000
-0.56252777 0.15325025 0.00000000
-0.26262200 0.20650971 -0.00000007
-0.15417750 -0.01189784 0.24674229
-0.31570598 -0.11460051 0.50525018
-0.07936004 0.59712799 0.00000185
-0.23460957 -0.27404003 0.37546401
-0.14314956 0.16674424 0.22909345
-0.04419276 0.62509686 0.00000196
-0.78661947 -0.04389933 -0.00000187
-0.02525121 0.07012620 0.04039261
-0.32419016 -0.62511162 0.00000000
-0.33516123 0.12056100 -0.00000023
-0.16850591 0.21983784 0.26967362
-0.12854249 0.35431514 0.20571692
-0.11728168 0.07222541 0.00000000
-0.38571521 0.15222349 0.00000341
-0.13860996 0.18901278 0.22182839
-0.10323482 0.24026589 0.16520429
-0.10802146 -0.65936058 0.17287517
-0.01253484 -0.49892134 0.02006048
-0.00432404 0.08346148 0.00001068
-0.18703730 0.05316961 0.29931921
-0.11775019 0.12050127 0.00000000
-0.07897259 -0.45641600 0.00000000
-0.37957668 -0.48614142 0.00000000
-0.30553293 0.21136330 -0.00000026
-0.25311631 -0.15970780 0.40508225
-0.06211885 -0.45530383 0.09941364
-0.68934582 -0.74354570 -0.00000014
-0.63803961 -0.22825411 -0.00000091
-0.40070405 -0.18497928 0.00000000
-0.03727499 -0.04470755 0.05965408
-0.40499817 0.01662205 0.00000531
-0.01204808 0.69683875 0.01928149
-0.17462578 -0.59981674 0.00000000
-0.19350460 -0.35899439 0.30968052
-0.50185688 -0.70664313 0.00000000
-0.28627380 0.09657939 0.45814301
-0.23092693 -0.67915075 0.00000000
-0.35468805 -0.27546190 0.00000000
-0.29831218 0.25125463 0.00000344
-0.30626886 -0.13723403 0.49014708
-0.19460987 0.02326983 0.31143775
-0.05070363 0.54005323 0.00000000
-0.03742636 0.17479998 0.05989633
-0.55930015 0.19653465 -0.00000132
-0.03758861 0.32388275 0.06014468
-0.01793790 0.61068582 0.02870742
-0.39123853 -0.19188043 0.62613146
-0.00080711 0.39154176 0.00129169
-0.16989853 0.12148035 0.27190210
-0.41841322 -0.74041180 0.66961965
-0.30927552 -0.15921714 0.49495884
-0.38036260 -0.78900189 0.00000000
-0.18802046 -0.12162476 0.30090382
-0.09029201 -0.05139684 0.14450135
-0.53280269 0.18934587 -0.00000119
-0.15818818 0.16902744 0.25316111
-0.70711304 0.02272492 -0.00000164
-0.37973818 -0.60792617 0.60772533
-0.07486410 -0.58283313 0.11981086
-0.36939521 -0.32371644 0.00000000
-0.51935991 0.25599341 -0.00000089
-0.28305304 -0.00424597 0.00000000
-0.71772999 -0.63518400 -0.00000041
-0.34251568 -0.43616548 0.54815536
-0.25531836 0.22984100 -0.00000008
-0.06272772 0.65688106 0.10038842
-0.56409167 0.10205515 0.00000083
-0.01146415 0.57489109 0.00000000
-0.79434774 -0.79916347 -0.00000000
-0.24111819 0.24184193 0.00000469
-0.09239283 0.16014928 0.14785027
-0.08274644 0.38305832 0.13241808
-0.28616567 -0.23729071 0.00000000
-0.20717349 0.27517298 0.33155303
-0.46290308 0.14010460 0.00000213
-0.67419977 -0.05756258 -0.00000136
-0.11594380 -0.50224052 0.00000000
-0.29957154 -0.62258063 0.00000000
-0.08889872 -0.13226445 0.00000000
-0.12141902 0.36160756 0.19431661
-0.34202868 -0.18998013 0.00000000
-0.53273885 -0.64055506 0.00000000
-0.02413322 0.69801970 0.03862229
-0.24007674 -0.16831363 0.38421386
-0.23529491 0.30095490 0.00000382
-0.05032960 0.68027178 0.08054594
-0.29480013 -0.40850526 0.47179199
-0.61817032 -0.40508366 -0.00000051
-0.25016918 0.01155328 0.40035693
-0.06346618 0.37446270 0.10156121
-0.30431675 0.11023940 0.00000568
-0.63786493 -0.12431280 -0.00000109
-0.18546118 0.01184713 0.29680814
-0.03109027 0.36527629 0.00000605
-0.14452251 0.03476553 0.23127651
-0.54029732 0.09194102 0.00000145
-0.39782313 0.14515950 -0.00000054
-0.12162808 0.15695551 0.19463904
-0.08402548 -0.23405838 0.13447254
-0.77513615 -0.08054081 -0.00000175
-0.20561475 -0.08486806 0.32906146
-0.49239211 -0.09440950 -0.00000052
-0.20147131 0.25430963 0.00000515
-0.35370121 -0.43566787 0.56605657
-0.08741671 -0.44999894 0.13989979
-0.06509532 0.50449170 0.10417712
-0.31577984 -0.01765152 0.50536863
-0.08067130 0.00384343 0.12908654
-0.16440621 -0.01074082 0.00000000
-0.05417310 0.57248813 0.00000260
-0.63063667 0.06584349 -0.00000139
-0.72885869 -0.79274573 -0.00000002
-0.76809469 -0.52770968 -0.00000068
-0.19425660 0.41820461 0.31088477
-0.37237986 0.00851981 -0.00000019
-0.15712870 0.45214791 0.25146473
-0.25843740 -0.62957217 0.41359754
-0.09169680 -0.73988273 0.14674954
-0.40284888 0.11907472 -0.00000052
-0.30932226 -0.45178405 0.49503294
-0.69607948 -0.28758022 -0.00000105
-0.04087925 -0.26644514 0.00000000
-0.37385637 -0.50227071 0.59831250
-0.02586978 -0.52761221 0.00000000
-0.25678670 -0.04557588 0.00000000
-0.10349763 0.08525756 0.16563534
-0.05313733 0.28695112 0.00000000
-0.01938875 0.43926522 0.03102933
-0.47910917 0.04951597 -0.00000072
-0.21923681 0.44078279 -0.00000030
-0.38103605 -0.08918683 0.60980377
-0.23800203 0.03713358 0.00000000
-0.13670491 0.25025564 0.21877124
-0.13113694 0.42069036 0.20986538
-0.03156223 -0.01187289 0.05051150
-0.25856232 -0.53178062 0.00000000
-0.42674969 -0.70063214 0.00000000
-0.15231451 -0.00148407 0.24376081
-0.07165769 -0.44590824 0.00000000
-0.23950155 -0.54046038 0.38329303
-0.39807734 0.15660831 -0.00000056
-0.64087122 -0.38956551 -0.00000063
-0.60644448 -0.62334403 -0.00000007
-0.37052591 0.05789053 0.59298258
-0.48554373 0.22087804 0.00000035
-0.20218534 0.31821471 -0.00000001
-0.05739787 0.38553687 0.09185829
-0.16573172 0.46387191 0.00000243
-0.40425449 -0.77056357 0.64696022
-0.02011890 -0.10941624 0.03219785
-0.15927306 0.36251390 0.00000416
-0.34262639 -0.41244176 0.54833259
-0.41261122 0.08530138 0.00000401
-0.13332868 0.32268224 0.21337006
-0.26339806 0.16221530 0.00000000
-0.09198535 -0.36389532 0.00000000
-0.41150388 -0.66659001 0.65856233
-0.32020747 -0.79749967 0.51245302
-0.29445067 -0.74667711 0.00000000
-0.28998301 0.25081393 0.00000360
-0.19976047 -0.60735580 0.00000000
-0.28195412 -0.53376539 0.45123319
-0.32993349 -0.01432961 0.52801997
-0.01415489 -0.03676919 0.02265317
-0.16322812 -0.06861070 0.00000000
-0.01658202 -0.33556569 0.02653750
-0.14394780 0.40781239 0.23037153
-0.36597673 -0.70092245 0.58570147
-0.78021285 -0.11801529 -0.00000170
-0.16399366 -0.07561556 0.00000000
-0.31407066 -0.46608299 0.50263220
-0.74741053 -0.70991375 -0.00000023
-0.78728574 -0.58347258 -0.00000054
-0.29392837 0.20334930 0.47039708
-0.39765123 -0.59798032 0.00000000
-0.12713567 -0.35256903 0.20346514
-0.35095199 0.25936829 0.00000229
-0.77146736 -0.05717613 -0.00000178
-0.27491567 0.21283858 0.43997061
-0.13188308 -0.14546846 0.21106279
-0.23800816 0.15369231 0.00000610
-0.17538912 -0.42220204 0.28068890
-0.08222335 0.42114113 0.00000000
-0.11640445 0.03611986 0.18627568
-0.09863971 0.00875664 0.15784378
-0.53410106 -0.35152259 -0.00000024
-0.01174538 -0.60926980 0.00000000
-0.68275518 -0.14424806 -0.00000124
-0.33792667 -0.42875600 0.00000000
-0.05582109 -0.27056099 0.08933485
-0.10566409 -0.64084733 0.16910250
-0.39765408 -0.64775074 0.63639745
-0.09620543 0.29232286 0.15396506
-0.67146237 -0.61941436 -0.00000036
-0.02120887 0.18558615 0.03392632
-0.00932743 0.74507684 0.01492635
-0.53668592 -0.27970292 -0.00000038
-0.29661794 -0.20735566 0.47470168
-0.25225355 -0.67364269 0.40370105
-0.38501948 0.11314911 -0.00000043
-0.25073727 0.19497357 0.40127189
-0.20349001 -0.10363282 0.32566101
-0.43496529 0.24142306 0.00000098
-0.48157447 0.12612689 0.00000201
-0.11569142 -0.02078855 0.18515002
-0.36222669 0.20401440 0.00000300
-0.31228990 -0.71438020 0.00000000
-0.20509006 -0.67658335 0.32822163
-0.24837152 0.17400649 0.39748498
-0.26963276 0.23749840 0.43151441
-0.17644377 -0.16303977 0.28237674
-0.01067127 -0.26162527 0.01707807
-0.56779514 -0.21731900 -0.00000062
-0.76981162 -0.61901099 -0.00000045
-0.36720057 -0.64562532 0.58766027
-0.36898871 0.15462055 0.00000369
-0.39900501 -0.39531429 0.63856026
-0.79424451 -0.01873747 -0.00000194
-0.24064470 0.29166532 0.00000387
-0.15857878 -0.01128398 0.25378600
-0.11230614 0.14647288 0.17973228
-0.35541049 -0.53491934 0.56879183
-0.02667125 0.62606390 0.00000000
-0.16229742 0.18937235 0.00000000
-0.38083807 -0.61037734 0.60948556
-0.03920212 0.11924364 0.06273822
-0.07282353 -0.79968848 0.11654518
-0.34932655 -0.08365981 0.55905625
-0.73939772 -0.57953202 -0.00000055
-0.42137898 -0.42388988 0.67436703
-0.39419177 0.38493972 -0.00000095
-0.34885466 0.25466136 0.00000241
-0.72476562 -0.62373162 -0.00000044
-0.26771597 -0.46762903 0.42844677
-0.46196491 0.13708686 -0.00000080
-0.00969127 0.76996542 0.01550973
-0.27643481 0.01355286 0.44239365
-0.39388162 -0.19626847 0.63036143
-0.15210442 0.43280792 -0.00000000
-0.36609799 -0.71219926 0.58589550
-0.12549900 0.08010175 0.20084585
-0.07392801 0.61677562 0.00000163
-0.31847053 -0.63175341 0.50967329
-0.11221422 0.57296955 0.17958586
-0.37404386 0.01479542 0.59861380
-0.17813700 -0.42812888 0.28508655
-0.22093514 -0.50524347 0.00000000
-0.68297444 -0.46099236 -0.00000069
-0.28234118 -0.61393276 0.45185263
-0.70882474 -0.34007546 -0.00000101
-0.08102107 -0.27934603 0.00000000
-0.22771461 -0.33923053 0.36442947
-0.12983417 0.50568812 -0.00000003
-0.31947578 0.07817594 -0.00000009
-0.26804263 -0.52425555 0.42896955
-0.12432340 0.58907376 0.00000114
-0.35932033 -0.76280328 0.00000000
-0.18803253 0.08646125 0.30092348
-0.51259406 -0.59371729 0.00000000
-0.11866660 0.57400998 0.18991218
-0.02940915 0.63399826 0.04706576
-0.45055882 -0.04000432 -0.00000044
-0.23033076 0.29457359 0.36861760
-0.27683677 0.20727713 0.00000458
-0.40834213 -0.61346427 0.65350250
-0.17794187 0.57237998 -0.00000036
-0.19287491 0.33122320 0.30867071
-0.11825481 -0.28130232 0.00000000
-0.00224745 -0.15170601 0.00359677
-0.01157823 -0.16848442 0.01852955
-0.45666577 0.07893025 0.00000328
-0.64964291 -0.57646861 -0.00000034
-0.12549601 -0.68749720 0.00000000
-0.02177192 0.42773067 0.03483410
-0.00010149 -0.36996446 0.00016243
-0.23265279 -0.29366985 0.37233242
-0.19135083 0.54289508 -0.00000036
-0.03700176 -0.54612882 0.05921681
-0.41837816 -0.37074184 0.66956474
-0.15680626 -0.65295201 0.00000000
-0.07222101 0.44069134 0.00000430
-0.27105893 0.24134842 0.43379840
-0.33668839 -0.56250073 0.00000000
-0.09041794 0.20812303 0.00000751
-0.05618415 -0.53542814 0.08991588
-0.11858265 -0.46229404 0.18977707
-0.12012414 0.44547462 0.19224451
-0.30741121 0.14968528 0.49197596
-0.17937593 0.31217183 0.28706575
-0.06981813 -0.66394226 0.00000000
-0.38196982 -0.17896558 0.61129796
-0.55989388 -0.25964228 -0.00000052
-0.22294437 -0.26090692 0.35679527
-0.01122080 0.70801065 0.01795552
-0.74820455 -0.12163739 -0.00000156
-0.30416931 0.13718011 -0.00000013
-0.40465040 -0.77297262 0.64759382
-0.10442848 0.22317030 0.00000708
-0.11243884 0.21398517 0.17994465
-0.70741006 -0.49097741 -0.00000074
-0.05652579 0.17474071 0.09046264
-0.09648256 -0.79109950 0.15440857
-0.27286369 -0.33033552 0.00000000
-0.01265860 0.57033344 0.02025284
-0.31649388 -0.07992398 0.50651122
-0.15225759 0.11782696 0.24366974
-0.21753738 -0.21222305 0.34814205
-0.09133440 0.15121679 0.00000000
-0.31294325 -0.25875299 0.50082840
-0.17340802 -0.17936984 0.27751839
-0.29331382 -0.37230259 0.00000000
-0.09569350 -0.56186136 0.15314578
-0.13319205 0.06100662 0.21315763
-0.36712720 0.07471362 0.58754459
-0.40353397 -0.79962162 0.64580701
-0.00761328 -0.22357503 0.01218413
-0.12956634 0.44652975 0.00000000
-0.26721181 0.36288078 0.00000217
-0.06079771 0.07273210 0.09729932
-0.14350434 0.18055047 0.00000000
-0.09011531 -0.16913976 0.14421856
-0.34825152 0.03538261 0.55733607
-0.58261443 0.15608791 -0.00000043
-0.03948441 0.44121043 0.00000000
-0.32907343 0.04768970 0.52664370
-0.33227697 -0.31978747 0.53176973
-0.57514278 -0.13695671 -0.00000080
-0.22658952 0.13446204 0.00000656
-0.26256254 -0.46416261 0.00000000
-0.62535966 -0.14225551 -0.00000100
-0.20969291 0.40196501 0.33558928
-0.11494801 0.38537553 0.18395480
-0.07310277 -0.53459185 0.11699207
-0.04531187 0.05534153 0.07249781
-0.18858976 -0.07300730 0.30181492
-0.19461117 -0.17674654 0.31145144
-0.25999261 0.06569746 0.41608756
-0.31992803 0.11620218 0.51200534
-0.20393842 -0.22327456 0.00000000
-0.31460472 -0.74562787 0.50348649
-0.40605231 -0.15786825 0.64983936
-0.17751637 0.18751517 0.28408571
-0.01578364 0.12497175 0.02525979
-0.13181683 0.60533116 -0.00000022
-0.06954289 0.23554629 0.11129492
-0.25561298 -0.03462166 0.40907820
-0.26045815 0.02951739 0.41683252
-0.02846889 0.34105794 0.00000000
-0.16825576 0.01692585 0.26927283
-0.36895261 -0.20194113 0.59046530
-0.18684383 0.16446576 0.00000671
-0.24257427 -0.44486686 0.38821054
-0.18597581 -0.11725060 0.29763160
-0.68287595 -0.64935220 -0.00000035
-0.05871420 0.13180359 0.00000000
-0.24579437 0.53361190 -0.00000027
-0.08987149 0.39671631 0.00000000
-0.04719680 0.08925751 0.07553273
-0.21715617 -0.71394242 0.34753198
-0.48220007 0.17259332 -0.00000095
-0.22304527 -0.42309039 0.35695676
-0.07907796 0.30251300 0.12654474
-0.10855062 0.47702031 0.17372244
-0.21122106 -0.49116174 0.33803355
-0.29892277 0.19788723 0.47839128
-0.34983926 -0.53501154 0.00000000
-0.27786749 0.00998284 0.44469418
-0.13646500 0.26034514 0.21839580
-0.01796512 -0.48990267 0.02875098
-0.37045442 -0.02137370 -0.00000013
-0.34945265 -0.69876717 0.00000000
-0.59827749 -0.65757054 0.00000000
-0.34091025 -0.34694182 0.00000000
-0.19557636 -0.13356398 0.00000000
-0.57181284 -0.09628361 -0.00000086
-0.73018645 -0.13787295 -0.00000146
-0.39382125 0.03723609 -0.00000033
-0.11369105 0.53768695 0.00000220
-0.27660080 -0.21387257 0.44266644
-0.05021826 0.06848579 0.00001021
-0.16300648 -0.65016098 0.00000000
-0.00051375 0.74054422 0.00082058
-0.15378808 0.15116842 0.00000741
-0.19442977 -0.01809888 0.31116131
-0.41226629 -0.60063851 0.65978269
-0.52721619 -0.26546422 -0.00000037
-0.30861776 0.09505902 0.49390322
-0.06207998 0.62730996 0.09935170
-0.03917096 0.11724119 0.00000000
-0.02303736 0.71618814 0.03686854
-0.16680356 0.42552096 -0.00000005
-0.52458240 -0.14980010 -0.00000056
-0.14793496 0.23051328 0.00000631
-0.08154159 -0.57949032 0.13049737
-0.10390462 -0.32987938 0.00000000
-0.10126119 0.12224931 0.00000000
-0.23705319 0.17676694 0.37937582
-0.53362024 -0.26713153 -0.00000039
-0.24018806 0.24524052 0.38439005
-0.31094529 -0.43120254 0.00000000
-0.15736431 -0.23353899 0.25184239
-0.02154657 0.12701461 0.03446517
-0.36949544 -0.66254827 0.59133288
-0.28875122 -0.41428744 0.46211137
-0.13836120 0.12167415 0.22141820
-0.06115207 -0.66748683 0.09786643
-0.64249005 0.05151203 -0.00000142
-0.14230026 0.20141867 0.00000000
-0.22229455 -0.57472664 0.35575533
-0.64515339 -0.04425315 -0.00000126
-0.71883388 -0.13775998 -0.00000141
-0.13783925 -0.28146242 0.22059491
-0.32385182 0.07835682 0.51828716
-0.40405617 -0.59186530 0.00000000
-0.41777594 -0.57963299 0.66860029
-0.19970277 0.15257797 0.00000670
-0.44824255 0.04847062 0.00000395
-0.67517085 -0.30445884 -0.00000093
-0.31503101 -0.10941645 0.00000000
-0.05415854 0.07065167 0.00001012
-0.17359655 0.08766705 0.27780914
-0.18782258 0.20823432 0.30058778
-0.36068884 0.18908795 -0.00000046
-0.54861293 -0.10436919 -0.00000074
-0.02542716 0.29374505 0.04068036
-0.55014913 -0.72080992 0.00000000
-0.00760055 0.08273734 0.01214440
-0.09128369 0.64431504 0.00000085
-0.16407842 0.00029787 0.26258751
-0.11479544 -0.64678982 0.00000000
-0.28636959 0.10892899 0.45830109
-0.04291283 -0.25530430 0.00000000
-0.62395182 -0.78782106 0.00000000
-0.47685373 -0.14785754 -0.00000036
-0.15835121 -0.65062322 0.25342181
-0.31136117 -0.23593426 0.49829651
-0.10087053 0.15291035 0.00000000
-0.23600006 -0.34998810 0.00000000
-0.60571687 -0.32476130 -0.00000060
-0.74155646 -0.26480285 -0.00000128
-0.19309676 0.30421893 0.30902493
-0.18240342 0.32416038 0.00000439
-0.08518848 0.31243246 0.13632444
-0.14587551 0.14170443 0.23345598
-0.03229387 0.03220157 0.05168240
-0.15992049 0.38995631 0.00000000
-0.48992972 0.22806364 0.00000015
-0.30866065 -0.54043928 0.00000000
-0.28655788 -0.02095174 0.45860212
-0.57264476 -0.55670131 -0.00000005
-0.28746813 0.12155940 0.46005526
-0.11844888 0.32277768 0.00000537
-0.52285825 -0.69224358 0.00000000
-0.38479271 -0.60828479 0.61581449
-0.09272749 -0.03745684 0.14839904
-0.08849155 0.47136075 0.00000359
-0.72548764 -0.06331191 -0.00000157
-0.29268045 0.15670545 0.46839839
-0.07473990 0.29765233 0.00000000
-0.26557732 -0.45322230 0.42502411
-0.46858410 0.30375976 -0.00000112
-0.37705455 -0.29290550 0.60343134
-0.05737947 0.65368892 0.09182912
-0.27235459 -0.03680059 0.43587129
-0.62180721 0.13267406 -0.00000147
-0.43958633 -0.71365587 0.00000000
-0.06193768 -0.39118328 0.09912370
-0.35085145 -0.63697739 0.00000000
-0.04081523 0.11507248 0.00000966
-0.01323293 -0.24530703 0.02117769
-0.15815085 -0.61660900 0.25310115
-0.09367472 -0.11828822 0.14991497
-0.30204442 0.14484009 0.48338453
-0.31104213 -0.09547029 0.49778626
-0.40095413 -0.76029580 0.64167842
-0.21809113 0.24321618 0.34902931
-0.28017570 0.11835510 0.00000000
-0.30276158 -0.72342143 0.48453299
-0.07383686 0.11535042 0.00000000
-0.09669343 -0.67898779 0.15474605
-0.23288840 0.46166446 -0.00000040
-0.51663998 -0.75285121 0.00000000
-0.26545788 0.27335494 0.00000370
-0.20591325 0.24365538 0.32953509
-0.27212699 -0.04179426 0.43550703
-0.12877215 0.16009842 0.00000000
-0.22056239 -0.29117816 0.00000000
-0.16820058 0.01124181 0.00000000
-0.11285616 -0.62142874 0.18061253
-0.25777605 -0.33284567 0.41253924
-0.02120729 -0.27026798 0.00000000
-0.03935075 0.58284020 0.06297199
-0.44954068 -0.19637780 -0.00000016
-0.49010501 -0.45817992 0.00000000
-0.19507063 -0.21044200 0.31218675
-0.45273030 0.14194438 -0.00000077
-0.38426329 0.39108480 -0.00000055
-0.28240102 -0.74282468 0.45194841
-0.04879264 -0.69072128 0.07808667
-0.28630366 0.07345689 0.45819548
-0.00266024 0.45291074 0.00424796
-0.03358533 0.20868438 0.00000836
-0.03506139 0.08588323 0.00001018
-0.24848785 0.03871498 0.39766690
-0.04741602 0.49770969 0.07587752
-0.36409967 -0.06311829 0.58269904
-0.25231605 -0.58599170 0.40380108
-0.55846658 -0.59219741 0.00000000
-0.00244917 0.03519957 0.00001144
-0.20281705 -0.20464785 0.32458396
-0.58855631 -0.59113916 -0.00000005
-0.48741418 -0.56162305 0.00000000
-0.23125537 0.25249648 0.00000470
-0.01037233 0.34014784 0.01659965
-0.25892807 0.13591005 0.41438404
-0.23204805 0.04335352 0.00000785
-0.18574943 0.42343595 0.29727045
-0.12697776 0.43584650 0.20320932
-0.00938074 0.12259200 0.01499455
-0.04922153 0.54273442 0.07877306
-0.29283190 0.10712611 0.46864330
-0.36193682 -0.68531374 0.57923615
-0.34531150 -0.56669621 0.55262944
-0.57133032 -0.35927309 -0.00000039
-0.35272787 -0.71567909 0.56449816
-0.28890961 -0.37109472 0.46236496
-0.21946069 -0.52866935 0.00000000
-0.22315303 0.13448619 0.35712296
-0.37105962 0.01971178 0.59383554
-0.65337864 -0.64798007 -0.00000023
-0.30823944 -0.75810735 0.49329965
-0.04247160 -0.40025690 0.06797062
-0.45803434 -0.40586234 0.00000000
-0.23596025 -0.54349618 0.37762561
-0.71775878 -0.09836268 -0.00000148
-0.59756292 -0.33707099 -0.00000054
-0.70451926 -0.29816481 -0.00000107
-0.23074694 0.24212433 0.00000489
-0.34666722 0.10428787 -0.00000025
-0.25085836 -0.18441109 0.40146860
-0.30947360 -0.47434672 0.00000000
-0.10399171 -0.44865730 0.16642606
-0.27014654 0.22689489 0.43233634
-0.24796977 -0.41949901 0.00000000
-0.52653136 -0.35377855 -0.00000021
-0.00372267 -0.79887912 0.00595768
-0.20177415 0.06298009 0.00000801
-0.26678013 -0.56764226 0.42694907
-0.73014895 -0.20646233 -0.00000134
-0.16479683 0.10944420 0.26372636
-0.10136737 0.18668976 0.00000000
-0.12895833 0.62518815 0.00000044
-0.27524069 -0.40752261 0.44048928
-0.34843469 -0.07077219 0.55762897
-0.04795604 -0.34902144 0.07674779
-0.13948004 -0.44900151 0.22322080
-0.16174852 0.12624786 0.25884824
-0.04109219 0.40911591 0.06576304
-0.02234780 0.66576286 0.03576230
-0.70566271 -0.03428000 -0.00000154
-0.01015155 0.76186362 0.01624579
-0.15684539 -0.38962128 0.25101192
-0.14803370 -0.64368798 0.23690989
-0.17761965 -0.41023955 0.00000000
-0.16653370 -0.02231776 0.00000000
-0.12537162 0.47235072 0.00000302
-0.53968269 -0.39294096 -0.00000019
-0.78137034 -0.37819794 -0.00000105
-0.27983816 0.07095094 0.44784817
-0.09849767 -0.43700274 0.15763350
-0.08506201 -0.51394044 0.00000000
-0.29798762 -0.51759628 0.47689295
-0.70523460 -0.32140120 -0.00000103
-0.31563755 -0.20772846 0.00000000
-0.33595924 0.18542820 -0.00000035
-0.74301716 -0.61476230 -0.00000046
-0.24253210 -0.29644362 0.00000000
-0.35880198 -0.44832103 0.57421975
-0.08698826 -0.64991312 0.13921411
-0.50852243 -0.60853976 0.00000000
-0.08962493 -0.01067120 0.00000000
-0.47632353 0.24843577 0.00000007
-0.41009741 -0.48940885 0.65631201
-0.15194198 0.13441813 0.00000769
-0.36386489 0.29574521 -0.00000066
-0.35372436 0.04179685 0.56609213
-0.01947421 0.44589406 0.03115729
-0.24639958 -0.31016455 0.39433251
-0.01181046 0.42649483 0.00000000
-0.38279451 -0.19762339 0.61261774
-0.43232743 0.36664359 -0.00000106
-0.07306252 0.33392488 0.11691832
-0.31409996 -0.19201975 0.50267974
-0.51843776 0.25549412 -0.00000125
-0.63772767 -0.40688933 -0.00000059
-0.15779383 0.28866549 0.00000000
-0.03001621 -0.20112713 0.04803729
-0.15271072 0.44600907 0.24439379
-0.43238065 0.01910952 0.00000474
-0.08891074 0.10798494 0.14227602
-0.37527992 -0.69297624 0.60059014
-0.43052942 0.08982413 0.00000360
-0.03685580 0.68235469 0.05898333
-0.10456157 0.26234922 0.00000000
-0.10996457 -0.07250525 0.00000000
-0.10581793 0.15761642 0.16933608
-0.30347990 -0.22290533 0.48568345
-0.16026183 -0.14544309 0.25647951
-0.28930544 -0.02059622 0.00000000
-0.11937492 0.51012973 0.00000000
-0.01504468 0.53135478 0.02407718
-0.19349784 0.42750167 0.30967071
-0.75884333 -0.64833832 -0.00000038
-0.07380040 0.03282036 0.00000000
-0.01501000 0.38398539 0.00000601
-0.40160576 -0.68236257 0.64272153
-0.07085653 0.55138952 0.00000000
-0.35824087 -0.12567501 0.57332253
-0.11476851 0.08383417 0.18367301
-0.31433520 -0.69536959 0.50305515
-0.64080621 -0.30768908 -0.00000078
-0.10246410 0.48000252 0.16397798
-0.71362847 -0.66547301 -0.00000034
-0.23815031 0.27830779 -0.00000009
-0.00811512 0.35402595 0.00000657
-0.01190356 0.34036871 0.01903812
-0.29243169 -0.06882593 0.00000000
-0.29699070 -0.45271946 0.00000000
-0.30856235 0.13222736 0.49381572
-0.08888583 -0.15205400 0.14225093
-0.46186544 0.06964077 0.00000333
-0.34962155 0.37353405 -0.00000074
-0.14128714 0.29847505 0.00000000
-0.79581867 -0.27456257 -0.00000131
-0.19342347 -0.63528301 0.30955068
-0.00399342 0.36515458 0.00639099
-0.24766203 -0.02628746 0.39635361
-0.02385735 0.21363751 0.03816579
-0.33487314 0.13804655 -0.00000026
-0.39067219 -0.37265559 0.00000000
-0.46219474 -0.37341031 0.00000000
-0.23279561 -0.60240891 0.37256099
-0.32806887 -0.53580089 0.52503461
-0.22451803 0.06187117 0.00000000
-0.16347775 0.35387317 0.26162293
-0.07864940 0.44785505 0.00000000
-0.01498002 0.78464374 -0.00000003
-0.12481549 0.13460582 0.19975197
-0.16294555 0.13980618 0.00000000
-0.75142597 0.02193757 -0.00000143
-0.47359087 0.02199034 0.00000390
-0.01172745 0.52851955 0.00000390
-0.54590951 -0.71148394 0.00000000
-0.14263781 -0.57438704 0.00000000
-0.10506447 -0.32752989 0.16814287
-0.34063299 -0.00535277 0.54514337
-0.04312731 -0.77077250 0.00000000
-0.21146683 0.35257879 0.33842812
-0.32130375 -0.48798211 0.00000000
-0.45580798 -0.47327437 0.00000000
-0.30810902 -0.79310392 0.49309091
-0.16244820 0.48436636 0.25997956
-0.38134030 -0.37436039 0.61029000
-0.29456352 0.15073469 -0.00000011
-0.08051090 -0.46906447 0.12884788
-0.35222300 -0.39138118 0.00000000
-0.70003316 -0.14254618 -0.00000132
-0.14645048 0.37443652 0.23437672
-0.26184223 0.13783590 0.41904785
-0.21159672 -0.28583976 0.00000000
-0.21370980 0.39619430 0.00000264
-0.33890055 -0.32379503 0.00000000
-0.05076104 0.45676725 0.00000438
-0.09768454 -0.68793345 0.15633220
-0.33924775 -0.76341164 0.54292465
-0.23369287 -0.12268181 0.00000000
-0.79232382 -0.74497193 -0.00000014
-0.00481557 0.22253270 0.00769108
-0.38622981 0.28517687 -0.00000074
-0.31777177 -0.52791450 0.50855527
-0.40697167 0.15063995 -0.00000059
-0.04083220 0.75122587 0.00000003
-0.04997912 0.23426616 0.00000773
-0.39917617 -0.26530442 0.63883461
-0.45081337 -0.59007343 0.00000000
-0.09570696 0.45017724 0.15316753
-0.00082986 -0.09401498 0.00132809
-0.21199230 0.23746567 0.33926880
-0.18442112 -0.47607890 0.00000000
-0.31923677 -0.12428805 0.51090080
-0.05782811 0.02664019 0.09254685
-0.02217316 0.53567583 0.03548544
-0.04284920 0.50812340 0.00000373
-0.22810117 0.23045864 0.36504520
-0.14425229 0.19341540 0.00000000
-0.46126083 0.32064906 -0.00000085
-0.44524000 0.08070924 0.00000346
-0.39619282 -0.28100041 0.63406004
-0.04293416 0.10780184 0.06871089
-0.14638354 0.27108277 0.00000000
-0.08212853 0.33557989 0.13142786
-0.23079912 0.03655220 0.36935703
-0.21994336 0.05272695 0.00000000
-0.20606372 -0.50073556 0.00000000
-0.47835743 0.11680971 0.00000223
-0.72580429 -0.72091864 -0.00000020
-0.08783696 0.36109595 0.14056447
-0.52603063 -0.38473355 -0.00000015
-0.01532750 0.13879785 0.02451234
-0.24858295 0.32429825 0.00000317
-0.17028633 0.34282941 0.00000429
-0.45450222 -0.11193075 -0.00000033
-0.17971991 0.38636437 -0.00000004
-0.24776052 0.19609532 0.00000000
-0.27031361 0.02067604 0.43259724
-0.73790411 -0.06890624 -0.00000161
-0.29307632 -0.39080013 0.46903327
-0.12247056 0.49632445 0.19599771
-0.16892067 0.62585957 -0.00000041
-0.00971568 0.02557187 0.01554876
-0.28376453 -0.55098311 0.00000000
-0.63402777 -0.19551278 -0.00000095
-0.01959215 -0.74144058 0.00000000
-0.27765722 0.19442567 0.44435574
-0.43470329 0.31249910 -0.00000099
-0.01231819 0.44532020 0.01970460
-0.03289433 0.49973895 0.05263668
-0.58276075 0.13827973 -0.00000132
-0.09265460 0.36401216 0.14828239
-0.19706566 0.35034095 0.31537839
-0.25460668 -0.07385395 0.00000000
-0.75161679 -0.46902719 -0.00000083
-0.13855422 -0.69116708 0.00000000
-0.08904401 -0.47390096 0.14250408
-0.05834464 0.20199691 0.09337349
-0.23843190 -0.24048269 0.38158129
-0.13549450 -0.75257050 0.00000000
-0.52191934 -0.08449464 -0.00000066
-0.73637625 -0.08132210 -0.00000158
-0.19773279 0.05604697 0.00000818
-0.15570614 0.12553202 0.00000000
-0.32222937 0.23204699 -0.00000037
-0.26727627 0.23606354 0.42774293
-0.20663038 0.26105978 0.33068770
-0.34422334 0.12876179 -0.00000028
-0.71103672 -0.59615222 -0.00000051
-0.20541684 0.40499999 -0.00000018
-0.08212545 -0.06015596 0.00000000
-0.04367201 0.31237160 0.00000666
-0.06965051 0.61771644 0.11146748
-0.50414040 0.01086215 0.00000350
-0.46642215 0.01311810 -0.00000060
-0.76323348 -0.49603886 -0.00000076
-0.01000793 -0.32098663 0.00000000
-0.51410920 -0.54137016 0.00000000
-0.44034989 0.09606175 0.00000330
-0.27889248 0.44839207 0.00000052
-0.03994156 0.43767364 0.06392159
-0.41299130 -0.48911086 0.66094333
-0.26958134 0.11877796 0.00000000
-0.16203813 -0.06514290 0.25932227
-0.15277866 0.05827793 0.00000000
-0.27328832 0.19941587 0.43736619
-0.48574500 0.19884319 -0.00000101
-0.09034187 0.01487484 0.14456387
-0.10209403 0.15078028 0.00000820
-0.03025104 -0.65069968 0.04841311
-0.75189916 -0.76813538 -0.00000008
-0.40671979 0.11757378 0.00000359
-0.00513814 -0.29988276 0.00822296
-0.27596967 -0.43054810 0.44165587
-0.02496734 -0.26311618 0.03995719
-0.40198791 -0.39269141 0.64333404
-0.57664501 -0.34655400 -0.00000043
-0.10286509 0.59133067 0.16462365
-0.05000302 -0.51733034 0.08002374
-0.19300538 0.27040344 0.30888242
-0.18579112 -0.12905780 0.29733603
-0.24181370 0.24750374 0.38699466
-0.56335316 -0.37445185 -0.00000033
-0.30048653 0.00178047 0.48088672
-0.14247976 -0.00112707 0.00000000
-0.15716438 0.22136207 0.00000631
-0.63081394 0.04594696 0.00000048
-0.22622113 0.10456239 0.00000000
-0.23949041 0.33345750 -0.00000020
-0.00034123 0.08773622 0.00052652
-0.10244014 -0.41200815 0.16394295
-0.72165275 -0.64801535 -0.00000038
-0.37934117 0.08838469 -0.00000036
-0.06851746 0.66706983 0.10965417
-0.59718831 -0.68810615 0.00000000
-0.14508128 0.33601365 0.00000477
-0.01390218 -0.09063610 0.02224875
-0.08786655 -0.34245468 0.14061970
-0.02176855 0.24962790 0.00000793
-0.01837391 0.25573470 0.02939111
-0.33940861 0.09415183 0.54318412
-0.16271971 0.29437450 0.26041362
-0.28032709 0.34281299 -0.00000039
-0.35211927 0.42079520 -0.00000043
-0.39177417 -0.03007241 -0.00000020
-0.14400601 -0.23973280 0.00000000
-0.03753570 -0.35510544 0.06007131
-0.38535835 -0.48447387 0.00000000
-0.44859538 0.08464239 -0.00000065
-0.33200448 0.19483109 -0.00000035
-0.32927966 -0.33405785 0.52697283
-0.12048906 -0.06757084 0.00000000
-0.62100577 -0.46317386 -0.00000042
-0.61340419 -0.00504483 -0.00000119
-0.78175542 -0.79952555 -0.00000000
-0.32185994 -0.60134021 0.00000000
-0.22022346 0.35815870 0.35244139
-0.12401143 0.49192379 0.19846580
-0.54531024 -0.25616360 -0.00000046
-0.13468079 -0.01927909 0.21554019
-0.36660419 -0.07654937 -0.00000002
-0.01527807 -0.31684347 0.00000000
-0.55401754 -0.43402995 -0.00000018
-0.08945811 -0.03866894 0.00000000
-0.09073187 0.52544934 0.00000275
-0.17412433 -0.08515369 0.27866477
-0.30315848 0.19623534 0.00000426
-0.24931174 -0.77968425 0.00000000
-0.00524370 0.01477749 0.00837055
-0.03598364 0.68224992 0.00000122
-0.11226775 -0.06934528 0.17967084
-0.37699504 -0.34357299 0.60333597
-0.76402385 -0.15003537 -0.00000158
-0.28649073 0.07483536 0.45848952
-0.51527711 0.21284898 -0.00000116
-0.16099543 -0.56300496 0.00000000
-0.30903145 0.29197956 0.00000255
-0.42776154 0.36786774 -0.00000106
-0.44017546 0.00751854 -0.00000048
-0.11120670 -0.18942897 0.17797277
-0.40652808 -0.03057327 -0.00000027
-0.00546487 -0.65521094 0.00000000
-0.16770273 0.22281066 0.26838065
-0.20555429 -0.57668216 0.32896458
-0.70840866 0.06986731 -0.00000173
-0.00029913 0.62792525 0.00000258
-0.15833906 -0.69071662 0.25340236
-0.03993316 -0.06968658 0.06390816
-0.07971591 0.37666476 0.12756776
-0.20692830 -0.79698739 0.33116351
-0.47795516 -0.65857501 0.00000000
-0.38653698 0.17774028 0.00000297
-0.17298448 0.52710984 0.00000124
-0.53452159 0.01605415 -0.00000090
-0.01833918 -0.56156648 0.00000000
-0.50311283 -0.29147162 -0.00000022
-0.04435349 -0.17925936 0.00000000
-0.12257327 0.25441247 0.19615448
-0.00257468 0.26143582 0.00410578
-0.07227874 0.15567004 0.00000857
-0.34288609 -0.22795112 0.00000000
-0.29963908 -0.18482231 0.00000000
-0.16516923 -0.55508690 0.00000000
-0.23681736 -0.26637527 0.37899735
-0.20797126 0.32659363 0.33283143
-0.08702884 -0.48917376 0.13927905
-0.02673380 -0.10050473 0.04278418
-0.16797455 0.00549229 0.26882279
-0.02478904 -0.01565439 0.00000000
-0.72166740 -0.64724419 -0.00000038
-0.61724992 -0.41145373 -0.00000049
-0.00916972 0.45125559 0.00000000
-0.14487782 -0.37633699 0.23185929
-0.37320455 -0.45470551 0.59726945
-0.36956109 0.31355870 -0.00000072
-0.19702512 0.41983229 0.00000257
-0.00322222 0.38833756 0.00515677
-0.33294036 -0.05546723 0.00000000
-0.37871075 -0.16992513 0.60608219
-0.43732421 -0.12842593 -0.00000023
-0.73065072 -0.15072892 -0.00000144
-0.12192814 0.64912708 -0.00000025
-0.09290016 0.58235201 0.14867465
-0.27367989 0.26155495 -0.00000022
-0.47734407 -0.01190510 -0.00000060
-0.11190286 0.17949101 0.17907517
-0.40064151 -0.32970904 0.64117951
-0.26766405 -0.60723227 0.42836368
-0.26122573 -0.03463700 0.41806078
-0.77848583 -0.24687777 -0.00000138
-0.06127998 0.53423187 0.09806681
-0.35985565 -0.52574204 0.57590585
-0.10728248 -0.71411529 0.17169252
-0.55146232 -0.20492253 -0.00000058
-0.15927416 -0.40643881 0.00000000
-0.02554180 -0.38725973 0.00000000
-0.05541054 0.44895023 0.00000000
-0.19351298 -0.16235554 0.00000000
-0.49719752 0.20827860 -0.00000108
-0.01313707 0.33240389 0.02102428
-0.45379209 0.03636125 0.00000404
-0.30901512 -0.10706460 0.49454222
-0.02718387 -0.65536549 0.00000000
-0.07823968 -0.75138870 0.12521307
-0.34502752 -0.67216332 0.55217472
-0.49460125 0.07660181 -0.00000083
-0.02858145 0.50615275 0.00000000
-0.30622128 -0.55959572 0.00000000
-0.47023268 -0.72855376 0.00000000
-0.68542437 0.00171211 0.00000017
-0.38019013 0.12663512 0.00000395
-0.27325600 0.15306779 0.43731053
-0.13688190 -0.07396852 0.21906279
-0.23035969 -0.06878920 0.36866303
-0.00696687 -0.09377712 0.01114963
-0.05344976 0.12281301 0.08553983
-0.12977450 0.30407914 0.20768120
-0.22324526 0.10922336 0.35727760
-0.70042067 -0.00402741 -0.00000157
-0.16994621 -0.68114947 0.27197819
-0.16472397 -0.34659571 0.26362062
-0.65071981 -0.29333999 -0.00000084
-0.04913942 0.38343674 0.07864165
-0.34747564 -0.16716394 0.00000000
-0.13553784 -0.74890285 0.00000000
-0.16972886 0.56749734 0.00000062
-0.04844735 0.02057977 0.00001096
-0.17507895 -0.05746980 0.28019251
-0.19492686 -0.71594896 0.00000000
-0.16669154 -0.25695139 0.26676949
-0.33003842 0.45051328 -0.00000050
-0.62450235 -0.30458918 -0.00000071
-0.02006252 0.60489901 0.03210761
-0.11215830 -0.44891697 0.00000000
-0.15282622 0.39307606 0.24457699
-0.39822058 -0.21584381 0.00000000
-0.30334006 -0.71494707 0.48545877
-0.30271431 0.00396639 0.00000000
-0.00689443 0.46898877 0.00000000
-0.26888492 0.31231276 0.00000298
-0.78944508 -0.51904607 -0.00000070
-0.15982930 0.05616069 0.00000000
-0.18940234 -0.54129645 0.30311535
-0.55769888 -0.20688000 -0.00000060
-0.58724055 -0.44165644 -0.00000031
-0.33987154 -0.26193600 0.54392413
-0.35261943 0.11394176 0.56432662
-0.25003726 0.05579563 0.40015509
-0.62004100 -0.71802873 0.00000000
-0.12028955 0.35275707 0.19250900
-0.04344450 0.46248533 0.06952042
-0.65582901 -0.57712468 -0.00000036
-0.24044238 -0.26085313 0.38479880
-0.14679699 0.52060289 0.23493162
-0.17364201 -0.55627352 0.00000000
-0.16059256 0.54992612 -0.00000024
-0.03353848 -0.07237060 0.05367425
-0.40931679 -0.35648392 0.65506316
-0.33905792 0.03020368 0.00000635
-0.21029516 0.35223619 0.33655299
-0.02667716 0.69361823 0.04269194
-0.30747181 0.12654677 -0.00000012
-0.14516073 0.00768088 0.00000969
-0.41523598 0.30496834 -0.00000090
-0.23942290 -0.38462131 0.00000000
-0.13637977 0.03069753 0.21824456
-0.32028202 0.10125501 -0.00000013
-0.71840650 -0.25686891 -0.00000120
-0.73010879 -0.06860659 -0.00000158
-0.28836082 -0.37538907 0.46148666
-0.11504365 0.05409036 0.18411333
-0.36475062 -0.22725701 0.00000000
-0.20946426 0.17928492 0.33522280
-0.30264966 0.41232980 0.00000066
-0.12998270 0.39864931 0.00000406
-0.35431350 -0.19042586 0.56703705
-0.74065427 -0.09230311 -0.00000158
-0.57690076 0.07438751 -0.00000118
-0.39088190 -0.03910231 0.62556109
-0.05199698 0.30861728 0.00000000
-0.67941712 -0.78092202 -0.00000005
-0.55424256 0.15417849 0.00000014
-0.46705661 0.25870234 0.00000007
-0.77296257 -0.22994037 -0.00000143
-0.39608643 0.21668289 0.00000214
-0.18616817 -0.15009655 0.29793946
-0.12109333 -0.06620394 0.19379510
-0.30270766 -0.05522008 0.00000000
-0.35216652 -0.22248574 0.00000000
-0.17438566 0.48295073 0.00000195
-0.27658906 0.38774302 -0.00000045
-0.54567645 -0.23406253 -0.00000050
-0.11244742 -0.51760611 0.17995839
-0.35863148 -0.74348002 0.57394615
-0.27785397 -0.75686467 0.00000000
-0.00590030 0.13395978 0.00944271
-0.02924313 -0.37197739 0.04680006
-0.18522891 0.24231386 0.29643094
-0.13092868 -0.23788164 0.20953538
-0.12434906 0.30358130 0.19899809
-0.08948501 -0.58435266 0.14320985
-0.34614835 0.12215827 -0.00000028
-0.22198713 0.05148121 0.00000788
-0.54325624 -0.02405554 -0.00000086
-0.16573341 -0.62428651 0.26523612
-0.09449429 0.32296329 0.15122659
-0.21898233 -0.48182611 0.35045451
-0.18646934 0.14147531 0.00000000
-0.01125222 -0.07528511 0.01800780
-0.03798101 0.02766092 0.06078398
-0.38675991 -0.40099150 0.61896342
-0.25229512 -0.08418575 0.40376821
-0.04322665 0.03918630 0.00001076
-0.14397548 -0.11061889 0.00000000
-0.16146767 0.22239849 0.25840178
-0.11358318 0.19208232 0.00000000
-0.17245992 -0.29299130 0.00000000
-0.22454305 0.30279827 0.35935504
-0.13773958 0.11341777 0.22043541
-0.55520628 -0.11453906 -0.00000075
-0.63525620 -0.71761109 -0.00000003
-0.05588608 -0.66017391 0.00000000
-0.56178324 0.04289006 0.00000186
-0.07102519 0.48252415 0.11366718
-0.01039856 0.31283122 0.01662873
-0.12958692 -0.06556115 0.00000000
-0.24379754 -0.64466268 0.39016824
-0.43385153 -0.76384188 0.00000000
-0.56699368 -0.66709350 0.00000000
-0.15958028 0.13633129 0.00000755
-0.04015618 0.57002595 0.06426066
-0.01835643 0.09110654 0.02937723
-0.07362992 0.59132480 0.11783601
-0.18207942 -0.32915167 0.29139591
-0.29716624 0.30821208 -0.00000040
-0.05046663 -0.74478325 0.00000000
-0.43148572 0.33571475 -0.00000053
-0.72932392 -0.28789731 -0.00000119
-0.47665719 -0.08682492 -0.00000047
-0.07293509 -0.17237378 0.11672372
-0.32386722 -0.28470917 0.51831093
-0.41727888 0.36222285 -0.00000070
-0.31550126 0.36065335 0.00000128
-0.05065816 -0.56792197 0.08107221
-0.16267674 0.28398231 0.00000000
-0.00675567 0.52263208 0.01081163
-0.32619799 0.08620522 0.00000566
-0.25830637 0.13908760 0.41338909
-0.30724101 0.18489828 0.49170366
-0.16467666 0.27715895 0.00000536
-0.34070795 -0.23368930 0.54526278
-0.01746273 0.71567703 0.00000000
-0.00813894 0.14063870 0.01300764
-0.47051446 0.24829610 -0.00000103
-0.16155687 0.19505160 0.25854367
-0.25939408 0.00423366 0.41512952
-0.46207937 0.29241524 -0.00000040
-0.01747680 0.38314098 0.02796948
-0.24742248 -0.01600558 0.39597026
-0.38040599 0.04472133 -0.00000029
-0.05146302 0.51598928 0.08236028
-0.59521652 -0.09117217 -0.00000096
-0.08395669 0.56414700 0.00000000
-0.33544970 -0.45457640 0.53684701
-0.00984282 0.23089208 0.01573705
-0.21780508 0.37459339 -0.00000018
-0.23550066 -0.00397010 0.37689073
-0.09730359 0.22050196 0.15571124
-0.19854614 0.24487723 0.00000000
-0.66229420 -0.74187556 -0.00000010
-0.58869329 -0.44031788 -0.00000032
-0.15801869 0.27190976 0.25288344
-0.00302646 0.23595957 0.00000000
-0.37668894 0.02068663 0.60284499
-0.23668943 -0.72680034 0.37879258
-0.19202521 -0.61890461 0.00000000
-0.06956235 0.36624243 0.00000000
-0.03561146 0.24436866 0.00000000
-0.12624634 0.09031709 0.00000000
-0.38498633 -0.10868879 -0.00000004
-0.51664469 0.11330434 0.00000155
-0.32578587 0.05157723 0.52138234
-0.22427077 -0.11042245 0.35891828
-0.09132061 -0.10505463 0.14614750
-0.20489247 -0.55503114 0.32790542
-0.42181541 -0.49207642 0.67506526
-0.15150169 0.00180353 0.24244528
-0.13704884 0.40583847 0.21933052
-0.41501204 0.10178562 -0.00000054
-0.20321910 0.17816700 0.00000626
-0.10809129 0.03203220 0.00000989
-0.18709969 -0.45875369 0.00000000
-0.13282678 0.25250428 0.21256458
-0.09147557 0.42810113 0.14639560
-0.04676702 0.44849542 0.00000000
-0.12624425 0.20272495 0.20202814
-0.00994724 0.41700971 0.00000559
-0.09492300 0.61163001 0.15191301
-0.01591835 0.45066703 0.02547538
-0.32746337 -0.40881704 0.52406588
-0.61081931 -0.06264473 -0.00000108
-0.06654914 0.40378798 0.10650379
-0.01762814 -0.57022713 0.02821169
-0.08083247 0.08779363 0.00000000
-0.61115560 0.02870714 -0.00000124
-0.03840873 -0.48984038 0.06146850
-0.01304951 -0.70729461 0.02088415
-0.02158643 -0.36546227 0.00000000
-0.62258010 -0.69142587 -0.00000002
-0.38907742 0.14277580 0.00000351
-0.63230166 -0.26788663 -0.00000081
-0.29416483 0.22666706 0.47077679
-0.04028563 0.59399129 0.06447225
-0.25736357 -0.35206385 0.41187907
-0.49278295 0.06433950 -0.00000080
-0.18155123 -0.36028537 0.29055061
-0.46649759 -0.06907506 -0.00000045
-0.21904973 0.47672749 -0.00000036
-0.28648950 -0.06337168 0.45849258
-0.02225323 0.72717021 0.00000076
-0.31657192 0.01529685 0.00000699
-0.16130663 0.08959543 0.25813986
-0.22515170 0.49271027 0.00000081
-0.05216903 0.55706965 0.08349018
-0.36091727 -0.58352992 0.57760472
-0.04623166 0.54225159 0.00000000
-0.17096575 0.47668069 0.27361091
-0.07366614 -0.05569763 0.11789367
-0.33264395 0.05649331 0.53235794
-0.28076657 -0.47290217 0.00000000
-0.14159414 0.16364815 0.22659347
-0.27202937 0.27939542 0.00000347
-0.22246801 0.29754389 0.35603175
-0.41203373 -0.28968501 0.00000000
-0.07023385 -0.76626890 0.00000000
-0.25738455 0.09987119 0.41191372
-0.14868030 0.03854375 0.23794469
-0.03761394 0.38874746 0.06019652
-0.06335470 0.65174479 0.10139181
-0.77028723 -0.41214059 -0.00000097
-0.11036865 0.46085659 0.00000342
-0.50890845 -0.73851647 0.00000000
-0.16326975 -0.01589061 0.26129332
-0.36548502 -0.18947980 0.58491584
-0.32804525 -0.07704131 0.52499790
-0.44244337 0.00298676 -0.00000048
-0.37448936 0.01880074 0.00000586
-0.24732360 0.11171263 0.39580588
-0.77540559 -0.22028536 -0.00000145
-0.17780794 0.05164767 0.28454810
-0.19295812 -0.26045891 0.00000000
-0.73935781 0.03169057 -0.00000180
-0.25159569 0.34292939 -0.00000027
-0.25153001 0.27700541 0.00000391
-0.31648896 -0.13997811 0.50650320
-0.21380540 -0.61407636 0.34216947
-0.52544787 -0.51745669 0.00000000
-0.08965010 -0.03057403 0.00000000
-0.60681733 0.00203286 -0.00000118
-0.26007994 -0.39005232 0.41622624
-0.10909713 0.31824604 0.17458868
-0.12348351 -0.09081651 0.19762029
-0.22893253 0.30002600 0.36637793
-0.34128713 -0.55130968 0.00000000
-0.09417395 0.49310434 0.15071047
-0.45702066 -0.69972086 0.00000000
-0.37858113 -0.49006052 0.00000000
-0.02855322 -0.50551419 0.04569594
-0.36703380 -0.18590079 0.58739450
-0.19844174 0.08055189 0.31757225
-0.11511796 -0.08780810 0.18423226
-0.04407825 0.27671722 0.00000718
-0.47507474 0.26638608 -0.00000021
-0.54048147 0.10009157 0.00000131
-0.17088819 0.20594743 0.27348616
-0.03075990 -0.68072603 0.00000000
-0.01018319 0.18242604 0.00000911
-0.14029888 -0.07679418 0.22453124
-0.18590791 0.36288992 0.29752143
-0.37827338 -0.41693235 0.60538165
-0.07221910 0.00111426 0.11555934
-0.62676194 -0.13887723 -0.00000102
-0.21730623 0.04407528 0.00000000
-0.39474412 -0.23659905 0.00000000
-0.01887932 -0.56639144 0.03021404
-0.30049817 -0.71740507 0.48091067
-0.70378275 -0.79066812 -0.00000002
-0.01129997 -0.29422284 0.01808422
-0.19274297 0.39639381 0.30846161
-0.20177355 0.41183826 -0.00000017
-0.23553353 0.03133651 0.00000000
-0.38882811 -0.65997579 0.62227250
-0.26629401 -0.66232803 0.00000000
-0.06090735 -0.68601138 0.00000000
-0.18455493 -0.18170448 0.00000000
-0.52478467 -0.71667076 0.00000000
-0.01145891 0.58039740 0.01833858
-0.12865947 0.31791025 0.20589710
-0.10044718 0.18047065 0.16074123
-0.32122755 0.12405305 0.51408539
-0.38787644 -0.67024854 0.00000000
-0.58850467 0.09036557 0.00000055
-0.17417552 0.19687230 0.27873918
-0.14550711 -0.17015971 0.23286638
-0.43006997 -0.29080980 0.00000000
-0.48170281 -0.11559996 -0.00000044
-0.31775005 -0.77533985 0.50852021
-0.05417071 0.25675588 0.00000000
-0.12738483 -0.20496804 0.20386390
-0.77177665 -0.01078974 -0.00000186
-0.26157996 -0.38755163 0.41862685
-0.24285107 0.10105310 0.38865450
-0.20394276 -0.68571819 0.00000000
-0.27666271 -0.33886069 0.44276523
-0.00761510 0.67206326 0.01218388
-0.10467138 0.38832177 0.16751395
-0.44523288 -0.24610468 -0.00000005
-0.11194957 0.68695421 -0.00000028
-0.07583304 0.05958496 0.00000000
-0.10516729 0.03247486 0.00000000
-0.30482645 -0.43095317 0.48783795
-0.07024630 -0.72173485 0.00000000
-0.47848933 0.15481705 -0.00000090
-0.16594156 0.30127150 0.26556446
-0.30052630 0.09116813 0.48095317
-0.15433585 -0.64043032 0.00000000
-0.76729472 -0.69927918 -0.00000025
-0.10698526 -0.17814180 0.00000000
-0.75284539 -0.00352119 -0.00000179
-0.07711935 0.36408043 0.00000000
-0.00867369 -0.47030060 0.00000000
-0.12256585 0.05314387 0.00000000
-0.03048241 0.13707893 0.00000948
-0.37097549 0.03930420 0.59370328
-0.70688449 -0.61185013 -0.00000047
-0.11131273 0.53378769 0.17814304
-0.27535125 0.31347655 -0.00000032
-0.02164577 0.29607421 0.03464141
-0.05362869 0.52171182 0.08582110
-0.28519934 -0.44813862 0.45642690
-0.21754342 0.38530878 0.34815310
-0.40429074 -0.07853813 0.64702036
-0.14563167 -0.09392917 0.00000000
-0.32684260 -0.18494402 0.52307293
-0.00462816 0.65776626 0.00740681
-0.07452733 0.06608336 0.11925528
-0.02874948 -0.21026141 0.04601004
-0.71518135 -0.49251123 -0.00000077
-0.29193606 0.23269598 0.46720944
-0.23056492 0.29835328 0.36899043
-0.39177960 -0.63730063 0.00000000
-0.32452854 -0.52843056 0.51936872
-0.21550627 -0.71701429 0.00000000
-0.06782765 0.60613568 0.10854826
-0.50857267 -0.72538604 0.00000000
-0.16018936 0.08512634 0.25636358
-0.32110573 -0.57893386 0.51389077
-0.30024614 -0.21229874 0.00000000
-0.14680100 -0.25743520 0.23493710
-0.61846396 -0.43982073 -0.00000045
-0.18456152 0.48875217 0.00000165
-0.04795415 -0.40347922 0.07674477
-0.59866374 -0.50015880 -0.00000026
-0.07032446 0.05846439 0.11254572
-0.24913271 -0.59361195 0.39870652
-0.15081623 0.44249083 0.24136167
-0.32516185 0.01263289 0.52038357
-0.09480606 0.33652478 0.15172553
-0.15069865 -0.05370302 0.00000000
-0.29857135 0.14107161 0.47782873
-0.16558062 -0.12332913 0.26499160
-0.39613469 -0.45700386 0.63396647
-0.17691831 -0.40454047 0.00000000
-0.47115386 -0.70539936 0.00000000
-0.21168320 0.10622295 0.00000000
-0.31237397 0.11049824 0.49991531
-0.35737709 0.32978569 -0.00000069
-0.01202524 0.44526985 0.01924493
-0.01186640 -0.74391265 0.01899073
-0.35976231 0.11714755 0.57575802
-0.38768117 -0.58696592 0.62043719
-0.15828052 -0.32665139 0.00000000
-0.18187579 -0.53556884 0.29107003
-0.66310040 -0.14485102 -0.00000116
-0.43623350 -0.41959883 0.00000000
-0.06447439 0.13114518 0.10318340
-0.04347134 0.10204578 0.06957058
-0.21830778 -0.10679389 0.00000000
-0.37696309 0.13187557 -0.00000043
-0.17078531 0.31127332 0.27332176
-0.48860156 -0.19551257 -0.00000033
-0.17606870 0.05721270 0.00000849
-0.22636295 0.05826877 0.00000771
-0.00643017 0.04856793 0.00001117
-0.01352560 0.69485526 0.02164382
-0.23907626 -0.46489673 0.38261240
