ply
format ascii 1.0
element vertex 1395
property float x
property float y
property float z
end_header
0.10794237 -0.00511229 0.00000000
0.58439838 -0.12955404 -0.00000085
0.07189037 -0.58061564 0.00000000
-0.43694773 -0.50948519 0.00000000
0.37280068 -0.58537808 0.00000000
0.13570159 0.14925316 0.00000000
-0.67669350 -0.58307024 -0.00000022
-0.04901760 0.04858490 0.00000000
0.70958507 -0.63312281 -0.00000042
0.19007768 -0.64973502 0.00000000
0.56828140 -0.01606820 -0.00000098
-0.37347305 0.45989246 0.29973511
0.00597737 -0.06666012 0.00000000
0.33867552 0.42674873 -0.00000079
0.49118303 -0.42456334 0.00000000
0.69525130 -0.25233859 -0.00000111
-0.28322400 -0.44517235 0.00000000
0.39354924 -0.61623184 0.00000000
0.49814509 -0.20816737 -0.00000034
-0.44739943 -0.69010258 0.00000000
-0.22784381 -0.56164193 0.00000000
-0.67272884 0.14007920 0.11506531
-0.52581326 0.28812905 0.12525184
-0.16601279 -0.04785586 0.00000000
0.05981813 0.08177702 0.00000000
-0.36375684 -0.70278471 0.00000000
0.08371514 0.60439826 -0.00000001
0.54470975 0.13226233 0.00000069
-0.42016468 -0.33688808 0.00000000
-0.61796626 0.18386932 0.01649386
0.43672608 -0.22605607 -0.00000005
-0.45115176 0.39969002 0.45673306
-0.01688117 -0.11884222 0.00000000
-0.31778544 0.50415645 0.19711102
0.03694404 0.55960471 0.00000000
0.08543561 0.17622563 0.00000807
-0.10946838 0.24274518 0.00000000
-0.68978109 -0.66632495 -0.00000017
-0.57575538 -0.66652957 0.00000000
-0.40715269 -0.39468150 0.00000000
0.53306500 0.14841125 -0.00000112
0.31385808 -0.08258409 0.00000000
-0.77601224 -0.65088889 -0.00000019
0.38827294 0.21542954 -0.00000062
-0.35132772 -0.62005052 0.00000000
-0.45860612 0.35083288 0.08479528
-0.58629335 -0.61500832 -0.00000000
0.59394485 -0.77624874 0.00000000
-0.31413269 -0.60966758 0.00000000
0.07310531 -0.64192306 0.00000000
-0.21737280 0.54925010 -0.00000024
0.53961653 -0.27805130 -0.00000040
-0.60419586 0.21690655 0.18957571
-0.77401512 -0.39117842 -0.00000051
0.07316651 -0.41587845 0.00000000
-0.39016580 0.41184510 0.01806400
-0.16548997 -0.21089708 0.00000000
-0.43779032 -0.37908947 0.00000000
-0.45518637 0.35425221 0.08479137
0.36188253 -0.67160208 0.00000000
-0.26324387 0.56624859 0.26493938
0.05834404 0.73676824 -0.00000014
0.13302967 -0.42863549 0.00000000
0.51288312 -0.23900615 -0.00000035
-0.49406743 0.12202154 -0.00000046
0.19064643 0.08826025 0.00000000
-0.28291321 0.23607774 -0.00000011
0.25129611 0.33016502 0.00000302
-0.49017931 0.34175870 0.28691412
-0.53855627 0.26173254 0.00259684
-0.25848879 0.25621997 -0.00000007
0.60529619 -0.78283214 0.00000000
-0.26195253 -0.73305661 0.00000000
0.10834048 0.52064421 0.00000000
0.38338333 -0.12600550 0.00000000
-0.17679997 -0.42772789 0.00000000
0.59686267 -0.22383231 -0.00000074
-0.47739222 0.36347956 0.36716927
-0.09384827 0.31457658 0.00000000
-0.15014730 -0.22706276 0.00000000
0.21657148 0.42204384 -0.00000026
0.30280929 0.13870908 0.00000523
-0.17461524 0.64570201 0.18251278
0.21443326 -0.43886530 0.00000000
-0.28102372 -0.22520414 0.00000000
-0.27174773 -0.34862901 0.00000000
-0.10148144 -0.18443572 0.00000000
0.08078087 0.38726081 0.00000497
0.53090777 0.10357565 0.00000144
-0.38956898 -0.60820509 0.00000000
0.33375201 -0.34383924 0.00000000
-0.25235055 -0.76763880 0.00000000
0.50841664 0.07381241 0.00000237
-0.39156609 0.41949267 0.09934483
0.43269519 0.10411636 -0.00000062
-0.45837217 0.32637218 -0.00000056
0.39210478 -0.36668987 0.00000000
0.76241883 -0.00891060 -0.00000182
-0.46658844 -0.32273205 -0.00000000
0.10600090 -0.09964410 0.00000000
0.07269766 0.05927376 0.00000000
-0.24011028 0.57535547 0.13893141
-0.17114943 0.63070051 0.01661338
-0.36586892 0.48471327 0.45439886
0.01161217 0.08823577 0.00001050
-0.00545962 0.72925759 0.00000000
0.22649950 0.46741079 0.00000121
0.47395959 -0.13608684 -0.00000037
-0.20794497 -0.08719163 0.00000000
-0.44283316 0.30379379 -0.00000051
0.70425755 -0.78084567 -0.00000005
0.41654254 0.21268214 0.00000181
-0.22758888 -0.16639595 0.00000000
0.43090531 -0.08356032 -0.00000028
0.73013768 -0.32439471 -0.00000113
0.27321862 0.25015489 0.00000394
-0.33325125 0.45304633 -0.00000040
-0.03364211 0.76886050 0.02247365
0.39197362 -0.51206881 0.00000000
-0.36721000 -0.62692135 0.00000000
0.22046591 0.33161780 -0.00000011
0.37373255 0.31727338 0.00000089
-0.42534926 0.39079545 0.14503483
0.25946662 0.24689546 0.00000426
0.36844710 -0.18302314 0.00000000
-0.54674432 -0.71488675 0.00000000
0.71965848 -0.36703324 -0.00000101
-0.05248469 0.06529256 0.00000000
0.09365147 -0.74994953 0.00000000
-0.05982654 -0.45243052 0.00000000
-0.42018754 0.01293887 -0.00000020
-0.51855228 -0.06682722 -0.00000034
0.46148023 0.05411492 0.00000360
0.59506978 -0.14563154 -0.00000087
0.57850297 -0.44880645 -0.00000026
-0.58461580 -0.05576265 -0.00000049
0.29640691 -0.00761326 0.00000000
-0.23279238 0.55329531 -0.00000028
0.07379732 0.34756035 0.00000567
-0.54551999 -0.39861208 -0.00000010
-0.60418260 -0.44931937 -0.00000019
0.19880499 0.27947175 0.00000000
-0.67664423 -0.40278945 -0.00000038
0.46750877 0.15811006 0.00000174
0.29554609 -0.14858240 0.00000000
-0.15274752 0.66945259 0.19942668
0.53809867 0.06997949 0.00000186
0.31980604 0.38258412 -0.00000063
0.21327717 -0.03710717 0.00000000
0.41875988 0.07055371 -0.00000050
0.34060433 -0.12523585 0.00000000
-0.07560139 0.45585212 0.00000000
-0.14776895 0.54858314 -0.00000009
0.29953354 0.17892961 -0.00000018
-0.45009895 0.09906888 -0.00000034
-0.48425072 -0.44708102 0.00000000
0.24451601 0.10373181 0.00000675
0.23577059 0.37320933 0.00000260
-0.27358244 -0.05620466 0.00000000
0.33201518 0.30005558 -0.00000053
-0.35939609 -0.49281553 0.00000000
0.24037871 -0.48548559 0.00000000
-0.21957242 -0.76035022 0.00000000
0.78973639 -0.14806847 -0.00000163
0.05548063 0.58598313 0.00000000
-0.23038304 -0.20417664 0.00000000
-0.03753764 -0.13994958 0.00000000
0.30598800 -0.60553541 0.00000000
0.00159295 -0.25450298 0.00000000
0.28636765 0.19173821 -0.00000015
0.49751233 0.25571581 -0.00000046
-0.32107452 0.50710661 0.25316055
-0.19912583 0.62824819 0.24590701
-0.48476346 0.35054113 0.31715728
-0.47554565 -0.21717807 -0.00000012
0.02674733 0.72099657 0.00000078
-0.35644869 0.43926784 -0.00000044
0.35025433 0.40794729 -0.00000018
0.30822469 -0.21979465 0.00000000
-0.26563030 0.54310045 0.07842865
0.76611206 -0.41790019 -0.00000096
0.65849954 -0.10372266 -0.00000121
-0.76115557 0.02034067 -0.00000094
0.74967808 -0.38328087 -0.00000104
-0.77287192 -0.41655337 -0.00000048
-0.73665662 0.06655203 0.02883123
-0.60671303 -0.35856821 -0.00000027
-0.19886699 -0.57023891 0.00000000
0.78330463 -0.62597856 -0.00000044
-0.69587029 -0.36448983 -0.00000046
0.34098177 0.28330601 0.00000208
0.43250674 -0.29933017 0.00000000
-0.44362583 -0.62172277 0.00000000
0.06649472 0.38804117 0.00000000
-0.07378104 -0.10620907 0.00000000
0.60925060 -0.33208297 -0.00000060
-0.62735636 -0.74636159 0.00000000
0.27702146 0.42975209 0.00000086
0.39661406 -0.54247693 0.00000000
0.05127016 0.31659912 0.00000648
0.29893679 0.32203876 -0.00000043
-0.20242038 -0.64405294 0.00000000
-0.24474649 -0.50508886 0.00000000
-0.22308301 -0.38229476 0.00000000
0.13158388 -0.79418649 0.00000000
-0.55505148 -0.19339206 -0.00000031
0.22283487 -0.50420413 0.00000000
0.20935279 0.37687242 0.00000305
0.38630906 0.21333090 0.00000238
0.33466090 0.30248330 -0.00000055
-0.53975146 0.22771896 -0.00000065
-0.05368249 0.51491118 0.00000000
0.05662728 0.25429732 0.00000733
-0.14252671 0.67072977 0.11908236
-0.29588447 0.54385036 0.35695123
-0.58048141 0.24318133 0.21257576
-0.56006435 0.27821135 0.34384972
0.43206856 0.34489477 -0.00000070
-0.34329675 0.49271155 0.32347558
-0.71070524 -0.68473718 -0.00000014
-0.34908907 -0.77887297 0.00000000
-0.44099106 -0.69739189 0.00000000
-0.29685185 -0.22989619 0.00000000
0.49029945 0.19879263 0.00000063
-0.74787652 -0.39228599 -0.00000051
0.19775360 0.32825110 -0.00000001
-0.43491094 -0.40256329 0.00000000
-0.27301556 0.54490312 0.16096782
-0.43691296 0.38086905 0.15974367
-0.19217800 0.63104531 0.20861951
0.04600471 0.72338785 0.00000040
0.07537969 0.56760809 0.00000235
-0.41470269 -0.70985543 0.00000000
-0.08276756 0.22120493 0.00000000
0.17307319 0.12956307 0.00000745
0.21517329 0.16702084 0.00000000
-0.58830816 0.23470786 0.20676616
-0.42988826 0.39382696 0.21304404
-0.35659721 -0.01700255 -0.00000004
-0.37857837 0.30331098 -0.00000037
0.34411932 -0.34184098 0.00000000
-0.56845905 0.13946115 -0.00000063
-0.07251273 -0.00958689 0.00000000
0.64610438 0.13955478 -0.00000159
-0.40577509 0.45225462 0.52130379
-0.71275974 -0.21839920 -0.00000062
0.75349827 -0.06240069 -0.00000169
-0.47817931 0.33471878 0.11587006
-0.22088450 -0.23120877 0.00000000
0.01149764 0.67130293 0.00000176
-0.44053297 0.40006067 0.36466974
0.62825416 -0.17116131 -0.00000096
-0.36633519 0.24312336 -0.00000029
0.09172720 0.36128675 0.00000520
0.33472616 0.17310112 -0.00000032
0.62654588 0.11979399 -0.00000067
0.20173844 -0.70235427 0.00000000
0.24757981 0.10857500 0.00000664
-0.28433012 0.53099568 0.13767525
-0.56012638 0.26185497 0.19747068
-0.37062177 -0.06106096 -0.00000003
-0.36862794 0.47350105 0.37846072
0.24272748 0.49712842 0.00000040
0.28578759 0.31442567 0.00000262
0.11128912 0.10595370 0.00000000
0.32862165 0.03715113 0.00000643
-0.11316443 0.06776282 0.00000000
0.48763241 -0.40846842 0.00000000
-0.52586357 0.04314848 -0.00000045
-0.53408706 -0.05972673 -0.00000038
0.05150682 0.01913574 0.00000000
0.66736753 -0.25716869 -0.00000098
-0.35984634 0.45272446 0.11292738
-0.63955878 -0.20757744 -0.00000047
-0.27988456 0.13726579 -0.00000001
0.65967175 -0.27797922 -0.00000091
-0.66048129 0.14478674 0.04732991
0.25204026 0.35111368 0.00000266
-0.31206337 0.43542593 -0.00000034
0.60594441 0.04384385 0.00000099
-0.11893567 -0.63519357 0.00000000
0.07773942 0.43404648 0.00000432
-0.47167604 -0.61270561 0.00000000
0.24401909 -0.45460982 0.00000000
-0.22464328 -0.50775827 0.00000000
-0.46834823 0.38782136 0.50459508
-0.44908253 0.36930320 0.16516732
-0.53923286 -0.34215613 -0.00000014
-0.33577422 -0.33464495 0.00000000
0.12726862 -0.11490880 0.00000000
-0.59798874 -0.16463833 -0.00000042
-0.23463785 0.15094677 0.00000000
-0.45892148 0.38188186 0.36655400
0.55302374 -0.49359845 -0.00000007
0.43932789 -0.48587227 0.00000000
0.11215188 0.59415043 0.00000128
0.21492665 0.44045283 -0.00000028
0.00628931 -0.55395022 0.00000000
-0.57461573 -0.28669129 -0.00000027
0.46082710 -0.40336503 0.00000000
0.70872389 0.09105213 -0.00000177
0.52354170 -0.62935212 0.00000000
-0.47475942 -0.07545297 -0.00000024
0.27346800 0.14516251 0.00000569
0.44009024 -0.62737853 0.00000000
0.03172103 0.15282531 0.00000923
0.24760686 -0.33153912 0.00000000
-0.31016131 0.51994857 0.27048697
0.28889423 -0.18525980 0.00000000
0.16308384 0.43359171 -0.00000005
0.24851413 0.41015213 -0.00000037
0.30765053 0.19309881 0.00000423
0.48836509 0.19345558 0.00000075
-0.05495021 -0.21709185 0.00000000
-0.46820358 -0.04961675 -0.00000025
0.53983660 -0.66584480 0.00000000
-0.44366939 0.40456953 0.43335038
-0.23025132 -0.77029877 0.00000000
0.08346649 0.63133630 0.00000121
-0.53012211 -0.08473487 -0.00000035
0.20045019 -0.58722499 0.00000000
0.30652108 -0.74208468 0.00000000
-0.39996485 0.42843075 0.25508907
0.21045189 0.16423586 0.00000636
-0.34272020 0.05455467 -0.00000007
0.30463823 0.27181186 -0.00000037
0.31839077 0.11503188 -0.00000015
0.69656584 -0.79591786 -0.00000001
-0.20066218 0.12765255 0.00000000
-0.02548647 -0.22813667 0.00000000
0.06521128 -0.15009430 0.00000000
0.12066038 0.09918538 0.00000869
0.06646039 -0.36875468 0.00000000
0.19875809 -0.74766801 0.00000000
-0.22307272 0.22248857 0.00000000
-0.15326604 -0.29634628 0.00000000
0.08498336 0.54825132 0.00000249
0.08893573 0.37733356 0.00000500
-0.51366979 -0.76596788 0.00000000
0.23898785 0.01666643 0.00000814
0.30713347 -0.45243657 0.00000000
-0.23357263 0.58904114 0.20314475
-0.32542736 0.16467260 -0.00000013
-0.20918680 0.23454985 0.00000000
-0.40359547 0.42461299 0.25340807
0.73422355 -0.41318317 -0.00000097
-0.43646237 0.23837725 -0.00000043
-0.27908332 0.26769064 -0.00000013
-0.15903967 0.40067525 0.00000000
-0.14807231 0.37213994 0.00000000
0.59030585 0.03451011 -0.00000117
0.52975566 -0.01491048 -0.00000082
-0.66586936 -0.76953417 -0.00000003
-0.47064173 0.32860979 -0.00000059
-0.25621032 -0.76000420 0.00000000
-0.08531937 0.72458745 0.08898977
-0.30065650 0.50496669 0.05051273
-0.00090962 -0.75336566 0.00000000
0.49763671 0.08177686 -0.00000085
-0.18371152 -0.78267585 0.00000000
-0.07306154 0.64464496 -0.00000002
0.20540956 0.22681297 0.00000000
-0.65847417 -0.44699981 -0.00000030
0.01452978 0.39286876 0.00000000
0.20273731 0.42776881 -0.00000021
0.79076046 -0.43668048 -0.00000091
-0.44108586 0.40809877 0.44184585
0.44765077 -0.55200646 0.00000000
-0.34771821 -0.17811766 0.00000000
-0.35646427 0.00465732 -0.00000006
0.01255873 0.65188770 0.00000000
-0.31947704 0.51348800 0.29613624
-0.51538206 0.11407428 -0.00000049
0.12966810 0.08114757 0.00000000
-0.47968818 0.32718962 0.06178732
-0.77202272 -0.10253515 -0.00000085
-0.07697379 -0.25527939 0.00000000
-0.65804932 0.14991472 0.07154924
-0.57316953 0.25079285 0.21526740
0.14980826 -0.02174437 0.00000000
-0.38893798 -0.03065820 -0.00000010
0.42125222 0.36749791 -0.00000087
-0.37497888 -0.67272805 0.00000000
0.17327282 0.51195343 0.00000148
-0.58165746 -0.12232727 -0.00000043
0.79749071 -0.08475364 -0.00000179
-0.76333791 -0.27307858 -0.00000066
0.15576020 -0.17549826 0.00000000
0.66497789 -0.61063806 -0.00000034
0.37625684 -0.77704329 0.00000000
0.20432891 0.22519768 0.00000000
-0.17515905 -0.25980636 0.00000000
0.11165458 0.47545074 0.00000318
-0.66728996 -0.60913054 -0.00000018
0.16893173 -0.39235485 0.00000000
0.39837196 0.38985337 -0.00000080
0.26356247 0.14291013 0.00000000
-0.25850774 -0.19713004 0.00000000
0.72243135 -0.10206682 -0.00000149
0.46985889 -0.64309944 0.00000000
0.29618558 0.40471999 0.00000091
0.15877965 0.37753519 0.00000394
-0.24763385 0.58197370 0.26597286
0.29792255 -0.20296638 0.00000000
-0.75139889 -0.37220318 -0.00000053
-0.21255250 0.60484485 0.15628307
0.32260188 0.39687423 0.00000054
0.57169098 -0.72522350 0.00000000
0.02874460 -0.59526409 0.00000000
-0.09060550 0.08037155 0.00000000
-0.22233117 0.04626218 0.00000000
-0.49126311 0.32337572 0.13150823
0.66576019 -0.45176039 -0.00000063
0.44818730 0.33848150 -0.00000110
-0.62049549 0.20445719 0.22416466
0.23636076 0.12601034 0.00000000
0.13805406 0.14109216 0.00000000
-0.23556150 -0.25632674 0.00000000
-0.57439311 -0.02718035 -0.00000049
0.35878634 -0.41106200 0.00000000
-0.15211264 -0.71710364 0.00000000
-0.31579223 0.50842107 0.21751584
-0.29466872 -0.65811072 0.00000000
0.13285330 0.11774156 0.00000000
0.63022156 0.00014874 -0.00000128
-0.39572345 -0.61968715 0.00000000
0.21786797 -0.07648450 0.00000000
0.19959590 0.01109861 0.00000882
0.49109232 -0.45616030 0.00000000
-0.73225969 -0.65796405 -0.00000018
0.61667015 0.14004622 -0.00000082
-0.24945930 0.28298160 -0.00000008
0.14842991 -0.24365980 0.00000000
-0.72348384 -0.41039126 -0.00000047
-0.55084678 -0.62724200 0.00000000
-0.05088343 0.72253652 -0.00000004
-0.09011015 -0.08953627 0.00000000
-0.33565063 -0.71919220 0.00000000
0.67468091 -0.68655166 -0.00000025
0.70334761 -0.59900491 -0.00000050
-0.56476776 0.24777090 0.11264306
-0.11469023 0.06446661 0.00000000
0.75618172 -0.37480847 -0.00000106
-0.37337563 -0.72755621 0.00000000
0.35379333 0.00341671 -0.00000010
-0.17008973 -0.38942900 0.00000000
0.19335652 0.22692011 0.00000568
-0.06046519 0.74206700 0.02273992
-0.60845716 0.22378279 0.28962913
0.33491084 -0.15505860 0.00000000
-0.49414676 -0.04158503 -0.00000031
0.60681690 -0.24227571 -0.00000075
-0.68813961 -0.00928693 -0.00000075
0.75489430 -0.02244349 -0.00000177
0.41119593 -0.53591682 0.00000000
-0.54570114 -0.42226176 -0.00000008
0.50621202 -0.27226381 -0.00000026
0.62177999 0.05659388 0.00000048
0.46028549 -0.22041324 -0.00000016
-0.44633876 -0.40720373 0.00000000
0.03522742 0.63122508 0.00000200
0.72772857 -0.29077117 -0.00000118
-0.45926860 0.38853178 0.42941115
0.53802993 0.08522320 -0.00000103
-0.15563358 0.06494859 0.00000000
0.50372207 -0.73449209 0.00000000
0.16251454 -0.11042060 0.00000000
-0.57408767 0.03047990 -0.00000054
0.58593783 -0.23205339 -0.00000068
0.46030406 -0.71778852 0.00000000
-0.44941633 -0.36548672 0.00000000
0.22358698 -0.20231075 0.00000000
-0.01690925 0.62280901 0.00000000
-0.42080046 0.38129546 0.01882836
-0.40545088 0.42745552 0.29561141
0.24543588 -0.26625254 0.00000000
0.57331876 -0.52659574 -0.00000010
-0.62625735 -0.71358263 0.00000000
0.19108169 -0.09822786 0.00000000
0.68992777 0.08708266 -0.00000134
-0.65629528 -0.16240033 -0.00000055
-0.73284126 -0.33683599 -0.00000056
-0.39809904 0.45067073 0.43811804
0.07303193 -0.60785400 0.00000000
-0.48073603 0.35010985 0.27710287
-0.03004905 -0.42537359 0.00000000
-0.58352760 -0.41619121 -0.00000017
0.14195780 0.57483651 0.00000104
0.78596764 -0.29835464 -0.00000125
-0.59657930 -0.56268845 -0.00000007
-0.39094128 0.08257145 -0.00000020
0.02096958 0.20941734 0.00000854
-0.09869506 -0.23201961 0.00000000
0.53586933 -0.74007353 0.00000000
-0.40447040 0.44208281 0.41820599
-0.50311009 0.33153745 0.31125515
-0.50943457 -0.44532249 0.00000000
0.59050480 -0.65465592 0.00000000
0.05082771 0.41398950 0.00000502
0.22278095 0.35899039 0.00000309
-0.46614534 0.35940929 0.22956897
-0.51987930 -0.34299672 -0.00000010
-0.31588974 -0.24037913 0.00000000
-0.05077324 -0.26150959 0.00000000
-0.02120855 -0.12021679 0.00000000
-0.44182201 -0.05011558 -0.00000019
-0.05870448 0.39865520 0.00000000
-0.61711913 -0.41671680 -0.00000024
0.68501179 0.10155741 -0.00000149
0.15378143 0.44427320 0.00000299
-0.39624543 -0.67330133 0.00000000
0.34504534 0.41731461 -0.00000080
0.07546495 -0.54317451 0.00000000
0.31784627 0.17834073 0.00000428
0.07688820 0.06042352 0.00000000
-0.14434806 0.15803902 0.00000000
-0.28530069 -0.37785816 0.00000000
0.27244321 0.11135812 0.00000000
0.14249227 0.34044845 0.00000474
0.18169899 0.55473296 0.00000061
-0.61300627 -0.37850667 -0.00000027
-0.18406598 0.61931730 0.03038827
0.26723298 0.01298317 0.00000777
0.05756716 0.00832757 0.00000000
0.20293077 -0.49054075 0.00000000
-0.79981651 -0.02078366 -0.00000097
0.03195523 0.28684034 0.00000000
-0.58679173 -0.46422712 -0.00000013
0.08235660 -0.58568099 0.00000000
0.18510314 -0.68296253 0.00000000
0.03117030 0.64539734 0.00000185
-0.24328183 0.23073696 -0.00000002
0.63589206 -0.27975735 -0.00000081
-0.47324663 -0.04733777 -0.00000026
0.06626980 0.31395477 0.00000000
-0.79704324 -0.02571961 -0.00000097
-0.61575428 0.21307105 0.25895426
-0.32687404 -0.75320747 0.00000000
-0.41839288 -0.38459788 0.00000000
-0.02908641 0.36507743 0.00000000
-0.12890294 0.52536423 -0.00000003
-0.23384828 0.48876094 -0.00000022
-0.08616527 0.07041201 0.00000000
0.33405943 -0.37118668 0.00000000
0.01703154 -0.05838362 0.00000000
-0.35431481 0.47594619 0.27184563
-0.16323588 -0.23565213 0.00000000
0.05183600 0.11586251 0.00000948
-0.14790826 0.56901507 -0.00000011
-0.77114876 -0.56313194 -0.00000030
0.68661941 0.01815478 -0.00000013
-0.50787606 0.29484324 0.02443035
0.01091993 0.11772597 0.00001007
-0.43261548 -0.20095387 -0.00000004
-0.27603156 0.41762513 -0.00000025
-0.49738632 0.06599748 -0.00000041
-0.51286270 0.31912611 0.28737100
0.50569313 -0.61411025 0.00000000
0.05380180 0.60881716 0.00000206
0.05512212 0.72626184 -0.00000010
0.37995705 -0.75237085 0.00000000
-0.27390576 0.53652099 0.09366469
-0.40878086 0.15245283 -0.00000030
-0.06483545 0.24661185 0.00000000
-0.75059585 -0.38414557 -0.00000052
-0.62943638 0.17272790 0.01944687
0.29251538 0.09584642 0.00000615
-0.75181420 0.00735546 -0.00000090
0.34708364 0.11390465 -0.00000027
0.05084221 0.41551662 0.00000000
0.23249244 0.02087626 0.00000000
-0.60567994 0.05547902 -0.00000063
-0.10792062 -0.33219331 0.00000000
0.72045837 -0.59983948 -0.00000050
-0.71182936 -0.20949884 -0.00000063
0.25160024 -0.31571674 0.00000000
-0.38425320 0.43179184 0.14413855
0.39728694 -0.11896899 -0.00000007
0.44852425 -0.51225090 0.00000000
-0.66213068 0.08984196 -0.00000079
0.15948029 -0.63455408 0.00000000
0.59334506 0.05232058 -0.00000121
-0.38696749 0.41871857 0.05107941
-0.52597433 0.28564987 0.10442726
-0.48362469 0.33825266 0.19653477
-0.44396505 0.22645554 -0.00000044
-0.71248356 -0.17532065 -0.00000066
-0.41794655 0.42087180 0.34872112
0.37041625 -0.76939566 0.00000000
0.03066069 -0.03477451 0.00000000
0.08417999 0.43974166 0.00000413
-0.51097182 -0.69101527 0.00000000
-0.68144851 0.13228587 0.12338714
0.17376807 0.09593421 0.00000000
-0.43063813 -0.66090469 0.00000000
0.10656234 -0.09466206 0.00000000
-0.38443125 -0.12575020 -0.00000000
-0.40804078 -0.00571540 -0.00000016
-0.37031396 0.46121831 0.28326629
0.18626629 0.49240962 0.00000156
-0.08216317 0.43981535 0.00000000
0.05493379 -0.63209956 0.00000000
0.54474838 -0.73696491 0.00000000
0.07580317 0.08228278 0.00000962
0.42024227 -0.62667652 0.00000000
0.28222947 0.09011917 0.00000000
0.50301595 0.01186035 -0.00000075
-0.21735254 -0.50838801 0.00000000
-0.51068422 -0.33533501 -0.00000009
0.00976606 -0.77546337 0.00000000
0.19284701 -0.11802999 0.00000000
-0.02009141 -0.52560444 0.00000000
-0.01171538 0.23075491 0.00000000
-0.05258955 0.62630455 0.00000000
-0.58548552 0.24250927 0.25149256
0.63862657 -0.52576844 -0.00000038
-0.67495511 0.13198402 0.06234238
0.00595874 0.33362632 0.00000000
-0.26586605 -0.69452356 0.00000000
0.39952421 0.39809759 -0.00000099
0.19854166 -0.02089046 0.00000000
-0.28583080 -0.11927014 0.00000000
0.04175484 0.74732552 -0.00000009
0.47184113 -0.55775846 0.00000000
0.38080986 -0.16332532 0.00000000
0.53729492 0.05910680 -0.00000098
0.54044752 -0.18299443 -0.00000057
0.38427956 0.12478456 -0.00000045
-0.23369423 -0.63128536 0.00000000
-0.56331376 0.04234014 -0.00000053
0.14833438 0.31942308 0.00000000
-0.17757107 -0.55584455 0.00000000
-0.36092984 0.08476488 -0.00000014
0.11050223 0.13941210 0.00000824
0.20724955 -0.07029651 0.00000000
-0.76787883 -0.00134689 -0.00000093
0.11767000 0.49886822 0.00000000
0.08036478 -0.35808117 0.00000000
0.09559774 0.68544190 -0.00000021
0.26262706 0.00955307 0.00000789
-0.38160609 -0.76485770 0.00000000
-0.66546373 -0.60152484 -0.00000018
-0.49387267 0.31793474 0.10607247
0.50389404 -0.61405495 0.00000000
-0.10733265 0.21900523 0.00000000
-0.40399887 0.27234345 -0.00000040
0.24545656 -0.27278044 0.00000000
0.44134360 0.05862083 -0.00000057
-0.07263164 -0.33153574 0.00000000
0.50767437 -0.12783501 -0.00000053
-0.58814061 -0.54680808 -0.00000006
-0.20627459 0.35166125 -0.00000004
0.56027078 0.12552507 -0.00000120
-0.60713533 -0.23733528 -0.00000038
0.51577143 0.00783480 -0.00000080
0.78008334 -0.17850523 -0.00000155
0.10931879 -0.43087168 0.00000000
0.56639967 0.05878994 -0.00000111
0.56693067 0.13556242 0.00000021
0.49735068 0.13690026 -0.00000095
-0.47004260 0.38081757 0.45689868
0.43157050 0.20760589 0.00000161
0.21743663 0.44619679 -0.00000030
0.20641607 -0.27004666 0.00000000
-0.30749305 0.52637229 0.30422362
-0.44840843 0.40533026 0.48275696
0.40253358 -0.50844265 0.00000000
0.31951209 0.18304717 0.00000417
-0.37911282 -0.10371726 -0.00000001
0.23117772 0.21431714 0.00000530
0.13761645 -0.08323188 0.00000000
0.22006692 -0.57254978 0.00000000
-0.43435748 0.39248188 0.24110961
-0.59294529 -0.50808592 -0.00000011
0.17851624 0.60571683 -0.00000018
0.37047558 0.30189838 -0.00000070
-0.18545992 -0.43338503 0.00000000
-0.32751486 0.25918630 -0.00000022
-0.46072360 -0.77905495 0.00000000
0.28534591 0.09993666 0.00000000
0.73968078 -0.56862229 -0.00000058
-0.16130067 0.64045956 0.01580721
-0.40371464 -0.31446511 0.00000000
0.11425552 0.24880067 0.00000654
-0.21911093 -0.27064097 0.00000000
-0.79212162 -0.29613833 -0.00000063
-0.10082387 -0.59813295 0.00000000
0.71736900 0.06400991 -0.00000148
-0.06347261 0.20313422 0.00000000
0.41664940 -0.76685194 0.00000000
0.21073662 -0.70039115 0.00000000
0.68778792 0.08092476 -0.00000120
-0.55565542 0.25459300 0.09206869
-0.11932165 -0.31842590 0.00000000
-0.67080812 0.06519911 -0.00000078
0.07310698 -0.12278726 0.00000000
-0.62711165 0.18679149 0.12490206
0.68176530 -0.36018200 -0.00000086
0.57356876 -0.55183214 -0.00000006
0.12500349 0.47225241 0.00000303
0.43698104 0.00787317 -0.00000046
0.02884323 0.09489952 0.00000000
0.39826514 -0.42352992 0.00000000
-0.50255996 0.27406372 -0.00000061
0.41557355 -0.40456871 0.00000000
-0.65763057 0.14612121 0.03370873
0.63412830 -0.42427619 -0.00000054
0.39345834 -0.01164709 -0.00000024
-0.30042144 0.53404018 0.30958014
0.45334937 0.16502765 -0.00000081
0.00924865 0.08855195 0.00000000
0.38404658 -0.22004389 0.00000000
0.25680723 0.45260466 -0.00000048
-0.00678717 0.57574944 0.00000000
0.18838123 0.43821620 -0.00000016
-0.60463727 -0.10877903 -0.00000049
0.74226977 -0.11504136 -0.00000155
-0.28078800 0.52899549 0.08788607
-0.27176155 0.56581882 0.33759632
-0.40671364 0.42285445 0.26562219
-0.43154822 0.39710858 0.25743631
-0.27068373 -0.68625606 0.00000000
0.21282208 0.02795409 0.00000000
0.60734103 -0.52225375 -0.00000025
-0.42143559 0.29715488 -0.00000045
-0.37355564 0.38671112 -0.00000043
-0.26434478 0.42417362 -0.00000023
0.03252239 -0.09903955 0.00000000
0.06065018 0.00115271 0.00001107
0.07701760 0.17909201 0.00000000
0.17054742 0.54851988 0.00000093
-0.05937295 -0.03643437 0.00000000
-0.53530701 0.28345092 0.16851280
0.14357104 0.04063597 0.00000000
-0.17987874 -0.68689589 0.00000000
0.65188312 -0.56130555 -0.00000038
-0.38389517 0.43628448 0.18128145
-0.46174013 -0.60820151 0.00000000
0.06965561 0.68679293 0.00000055
0.15456283 0.46909673 -0.00000007
0.66418807 0.09044813 -0.00000158
-0.13933045 0.06802439 0.00000000
-0.66512904 -0.44180825 -0.00000032
-0.37103688 0.45178047 0.20497689
-0.39947364 0.45176144 0.46026488
0.20199105 -0.79291828 0.00000000
0.12759544 0.48820696 0.00000000
0.31542724 -0.68739141 0.00000000
0.14716777 -0.08567647 0.00000000
-0.56399625 -0.51763686 -0.00000004
-0.45425557 -0.70978985 0.00000000
-0.24363643 0.55971627 0.03011486
-0.42371518 0.38560146 0.08369520
-0.28458565 -0.34941806 0.00000000
0.23322140 -0.15337003 0.00000000
-0.73300104 -0.42425848 -0.00000047
-0.28662584 0.27456405 -0.00000015
0.64932600 -0.76731877 -0.00000000
-0.32696784 0.50052106 0.24694212
0.22080297 -0.34807468 0.00000000
0.03949753 0.06960939 0.00000000
0.57359905 -0.16039735 -0.00000075
0.01698507 -0.61886059 0.00000000
0.24350760 0.13136466 0.00000636
-0.62157323 -0.23377960 -0.00000041
0.01481021 -0.31216842 0.00000000
0.25944098 0.15412008 0.00000000
0.18103783 0.11283987 0.00000000
0.11888917 -0.15435003 0.00000000
0.33602835 0.38661314 0.00000045
0.02958607 -0.01669304 0.00000000
-0.70120701 0.00701443 -0.00000080
0.14061722 0.40196194 0.00000000
-0.40139412 -0.62759898 0.00000000
-0.19975362 -0.71157370 0.00000000
0.24063186 -0.58034856 0.00000000
0.46990919 -0.76087061 0.00000000
-0.64561707 0.17008777 0.14108785
0.43593308 -0.32102047 0.00000000
0.00688931 -0.30127462 0.00000000
-0.36481516 0.48023018 0.40465924
0.55858205 -0.29823995 -0.00000044
0.62043456 -0.34713282 -0.00000062
0.48890521 -0.30473715 -0.00000013
-0.63993753 -0.07426782 -0.00000059
0.00971047 0.15008617 0.00000960
0.27805320 0.06814155 0.00000000
0.00026694 0.60140542 0.00000000
0.39494213 -0.44434049 0.00000000
0.06213458 0.21755918 0.00000780
-0.59425408 -0.49848121 -0.00000012
0.01217529 -0.23931132 0.00000000
0.05735800 0.50356754 0.00000000
0.00725423 -0.68701865 0.00000000
0.60562908 -0.18209615 -0.00000085
-0.61630175 0.21253658 0.25907108
-0.78474475 -0.43213665 -0.00000046
0.11821493 0.32421796 0.00000000
0.09832901 -0.65279808 0.00000000
-0.41734643 0.38682229 0.03744919
-0.41676898 -0.65123828 0.00000000
0.73236269 -0.51477180 -0.00000071
0.68330353 -0.43458932 -0.00000073
-0.57767408 -0.17596106 -0.00000037
-0.67787365 0.11982708 -0.00000085
-0.32442924 0.50281875 0.24477788
0.02794019 -0.01711125 0.00000000
0.32739386 0.32364424 0.00000167
-0.09859678 0.65353798 -0.00000008
0.44933574 0.00263840 0.00000469
-0.36068741 0.04753198 -0.00000010
0.03665394 0.36704964 0.00000594
0.36871814 -0.15171750 0.00000000
0.46874582 0.25522153 -0.00000104
0.06896188 0.52541235 0.00000308
0.06186039 0.17271126 0.00000000
0.37403691 0.04729608 0.00000539
-0.29283938 0.20098248 -0.00000010
-0.54572311 0.21473866 -0.00000065
0.69587097 -0.38395155 -0.00000088
0.32391971 -0.26582724 0.00000000
0.48460659 -0.23100645 -0.00000025
0.66544058 -0.79682452 -0.00000001
0.58588633 -0.34941437 -0.00000047
0.24259276 0.22735766 0.00000491
0.61672946 -0.66006394 -0.00000005
-0.45513815 -0.71708883 0.00000000
-0.37035530 -0.64609222 0.00000000
0.09737681 0.19442557 0.00000000
-0.15955591 -0.34977396 0.00000000
0.05348481 -0.62480734 0.00000000
-0.55956352 -0.43451433 -0.00000010
-0.71928896 -0.57507264 -0.00000028
0.15763514 0.46462721 -0.00000008
0.01210754 0.74802624 0.00000000
0.01607822 0.48180535 0.00000000
-0.00532584 0.47320362 0.00000000
-0.38141924 -0.40883802 0.00000000
0.22936627 0.13248182 0.00000000
0.29845111 0.27134903 0.00000310
0.27328798 -0.60425284 0.00000000
-0.74661028 -0.55753865 -0.00000030
0.66860796 -0.65665099 -0.00000028
0.00811759 -0.47505684 0.00000000
0.11834285 0.64648290 -0.00000023
-0.68925509 -0.09701559 -0.00000068
0.06282170 -0.35352480 0.00000000
0.72744036 -0.19221958 -0.00000135
0.06346764 -0.31387985 0.00000000
-0.48738353 -0.65856109 0.00000000
-0.52077893 0.16832914 -0.00000055
0.57520379 -0.52346789 -0.00000012
0.07798745 0.59148464 0.00000000
-0.43236393 -0.45039595 0.00000000
-0.57895909 -0.34617199 -0.00000022
-0.00663897 0.05889262 0.00000000
0.77331926 -0.22166612 -0.00000145
-0.21556360 0.06183762 0.00000000
0.04026023 0.38441405 0.00000563
-0.50933341 -0.19813962 -0.00000020
-0.70218813 0.10520020 0.06637837
0.04823097 0.42268689 0.00000000
0.00258704 -0.36895011 0.00000000
0.38246768 0.11117278 0.00000416
0.70769689 -0.73709547 -0.00000016
-0.76770801 -0.79642268 -0.00000000
-0.40367248 0.08716849 -0.00000023
-0.41304039 0.39302004 0.05444316
0.29290258 -0.62298351 0.00000000
-0.65911980 0.16287954 0.19763440
-0.20072925 -0.41332408 0.00000000
-0.20305866 -0.16923145 0.00000000
0.71349809 -0.05999042 -0.00000152
-0.26811853 0.06390316 0.00000000
-0.40409476 0.42560349 0.26679139
0.21132815 -0.47904899 0.00000000
-0.38755029 0.22479798 -0.00000032
0.14435889 0.47458798 0.00000266
-0.67296618 -0.32908569 -0.00000044
-0.04731241 -0.21677563 0.00000000
-0.04513211 -0.31166927 0.00000000
-0.11362988 -0.67940547 0.00000000
0.23429825 -0.37026586 0.00000000
-0.50063884 0.34791130 0.43614746
0.06878973 0.26806743 0.00000694
0.68692485 -0.76077786 -0.00000010
0.43710539 -0.47260176 0.00000000
-0.22233995 0.22886220 0.00000000
0.33475476 0.21465713 0.00000335
0.02796812 0.51646006 0.00000383
-0.21156766 -0.45830797 0.00000000
-0.41774782 0.38517942 0.02629645
0.41148891 -0.22480360 0.00000000
-0.51264126 0.30779333 0.18357447
-0.00246485 -0.06407937 0.00000000
0.19606462 -0.59186750 0.00000000
-0.29624265 -0.24470905 0.00000000
-0.59339841 0.20911339 0.02256805
0.27622965 0.17883222 -0.00000008
-0.33144006 -0.10926022 0.00000000
0.01516115 0.77392817 -0.00000002
0.21906574 0.31222652 -0.00000007
0.74470517 0.00203672 -0.00000177
0.10452695 0.40623101 0.00000000
-0.10479816 -0.60611647 0.00000000
0.30456154 -0.07221513 0.00000000
0.01500264 0.41601347 0.00000553
-0.67218680 0.07766614 -0.00000080
0.16613004 0.20787952 0.00000638
-0.65473934 0.16843641 0.20820253
0.15783962 -0.09535455 0.00000000
0.64350832 0.05061571 -0.00000142
-0.37859740 0.45250995 0.27944924
-0.22860417 0.59137884 0.17951144
0.27053800 -0.34880485 0.00000000
-0.43999449 0.40550220 0.40871572
-0.64597164 -0.66874154 -0.00000008
-0.53811898 -0.77554085 0.00000000
-0.27915579 0.21222178 -0.00000008
0.29164678 0.32853240 -0.00000041
0.20351792 0.37559952 0.00000318
0.52598562 -0.06668954 -0.00000071
0.08719464 -0.01920374 0.00000000
0.00576948 -0.17633995 0.00000000
0.19636849 -0.09795019 0.00000000
-0.15024065 -0.72969342 0.00000000
0.47016741 0.26478276 -0.00000106
-0.67311565 -0.24905953 -0.00000051
0.08718990 0.33193138 0.00000000
-0.47047687 -0.40421948 0.00000000
0.70316380 -0.54163587 -0.00000063
-0.37075081 0.04626742 -0.00000012
0.23666710 0.50373945 -0.00000049
-0.31584086 0.24646056 -0.00000018
0.59980100 -0.01605303 -0.00000112
-0.44834819 0.38862032 0.33210401
0.16040147 -0.39320916 0.00000000
0.18341703 0.23177145 0.00000000
0.16957623 -0.02644469 0.00000000
-0.70723346 -0.21116568 -0.00000062
-0.38204661 -0.24109020 0.00000000
0.34088294 0.11377504 -0.00000024
0.35316725 0.40201304 -0.00000080
0.05681306 -0.37830776 0.00000000
0.58780344 -0.09126236 -0.00000093
-0.16498418 0.64475933 0.08752455
-0.70588390 -0.49650912 -0.00000036
0.03994155 0.67833018 0.00000122
-0.49642364 -0.59788797 0.00000000
0.12766515 0.58515842 -0.00000017
0.76508655 -0.76717669 -0.00000008
0.08487714 0.29989123 0.00000000
-0.74750404 -0.48716908 -0.00000039
-0.53185761 0.15986957 -0.00000057
-0.28101920 -0.00906745 0.00000000
-0.09574744 -0.42063668 0.00000000
0.55106208 0.02072461 -0.00000097
-0.13966369 0.50516058 -0.00000004
-0.23008035 -0.66476673 0.00000000
-0.73751013 -0.36671172 -0.00000054
0.00616677 -0.73149766 0.00000000
-0.67372990 -0.04281482 -0.00000069
0.19390492 0.51212202 0.00000109
0.33782098 -0.34169284 0.00000000
0.73886698 -0.65508783 -0.00000036
-0.43885518 0.39448707 0.29952769
0.74933257 0.00529402 -0.00000112
-0.55903733 0.24554214 0.04114214
-0.20367335 0.41337854 -0.00000009
-0.25541093 0.05195618 0.00000000
0.22199897 -0.44876165 0.00000000
0.14231426 0.47513987 0.00000269
0.30015694 0.44153463 -0.00000065
0.31919593 -0.02223756 0.00000000
-0.43145631 0.39310841 0.22067546
0.06187384 -0.74474422 0.00000000
0.25068605 0.09818217 0.00000000
-0.22507384 -0.78319858 0.00000000
-0.11583979 -0.19843811 0.00000000
0.30527506 0.33669741 -0.00000048
-0.44320962 -0.27164059 0.00000000
0.45497139 -0.45744146 0.00000000
0.08295057 0.11744607 0.00000000
0.24242070 0.01716820 0.00000000
0.49407839 -0.39683296 0.00000000
0.48713711 -0.07796105 -0.00000053
0.70262537 -0.64036973 -0.00000040
0.74795843 -0.66226680 -0.00000034
0.02155740 -0.40581591 0.00000000
0.32800424 -0.65912722 0.00000000
-0.25598305 0.54526995 0.01125263
-0.57680075 -0.28396188 -0.00000027
-0.18171962 -0.58123398 0.00000000
-0.52618198 0.29480283 0.18851758
0.33235473 0.19578844 0.00000371
0.16899453 -0.05567839 0.00000000
-0.06131258 0.16338553 0.00000000
-0.55357803 -0.03661647 -0.00000044
0.49930300 0.20720402 0.00000031
0.11596068 0.22508338 0.00000687
-0.48446221 -0.03568624 -0.00000030
-0.74301563 -0.55446905 -0.00000031
0.05325527 -0.47944235 0.00000000
-0.58503494 0.16872452 -0.00000069
-0.01486487 0.61361721 0.00000000
-0.63249279 -0.42391762 -0.00000027
-0.30135491 0.51149111 0.11539859
-0.04000137 0.01060742 0.00000000
-0.13334971 0.25676900 0.00000000
0.00350679 -0.38142593 0.00000000
0.00614315 -0.12149163 0.00000000
-0.42068457 0.41228091 0.29614254
-0.18923002 -0.61140545 0.00000000
0.44952772 -0.22084297 -0.00000011
0.05966526 -0.40951111 0.00000000
0.06119361 0.25691041 0.00000000
0.27967061 -0.19730750 0.00000000
-0.31276163 -0.03887645 0.00000000
0.56270766 -0.05043186 -0.00000090
-0.24959105 -0.01859607 0.00000000
-0.13156333 -0.63327465 0.00000000
0.19568406 0.10788203 0.00000743
-0.32730642 0.45544836 -0.00000039
-0.41849852 0.38697049 0.04913022
-0.65409471 -0.02130045 -0.00000067
-0.10211526 0.06500143 0.00000000
-0.48113629 0.20443539 -0.00000050
-0.27598192 -0.30074076 0.00000000
0.03288784 -0.56044026 0.00000000
0.66834621 0.08861386 -0.00000159
0.33676986 -0.52454970 0.00000000
-0.66457143 0.14409389 0.07784923
-0.16484651 -0.04114336 0.00000000
-0.68265617 0.11382810 -0.00000085
0.27450506 0.39007263 -0.00000045
-0.05653114 -0.21492311 0.00000000
-0.00694016 -0.55580990 0.00000000
0.60581139 0.09789512 0.00000009
-0.66371959 0.13764059 0.01222407
-0.32874157 -0.75003431 0.00000000
0.47223098 -0.75251369 0.00000000
0.31984084 -0.71237095 0.00000000
0.05543612 -0.35533489 0.00000000
0.08871250 0.62913728 0.00000115
-0.21625678 -0.72643188 0.00000000
0.10400903 0.46802973 0.00000341
0.08442673 0.21532719 0.00000000
0.29219425 0.29755564 -0.00000036
-0.28738563 0.53982366 0.24442940
0.18763822 0.07388705 0.00000806
-0.73501695 -0.67409549 -0.00000016
0.54571344 -0.76052949 0.00000000
0.34000881 -0.27943125 0.00000000
-0.20792937 0.59314401 0.00963793
0.12925282 -0.65303703 0.00000000
0.10247098 0.33290336 0.00000546
0.51203624 0.07150648 -0.00000090
-0.10431455 0.21630195 0.00000000
-0.37248575 0.24335463 -0.00000030
-0.77194181 -0.41296836 -0.00000048
0.00786074 -0.21522535 0.00000000
0.74071211 -0.19906249 -0.00000140
-0.63652582 0.16438671 0.00820200
-0.53471945 0.29227205 0.24247853
-0.10474253 0.25832336 0.00000000
0.29213586 -0.25445305 0.00000000
0.51744872 0.22556030 -0.00000034
-0.50857984 -0.64206595 0.00000000
-0.29575431 0.54676750 0.38198782
0.56302928 0.16512746 -0.00000021
-0.22029527 0.13231783 0.00000000
-0.56493849 0.25701572 0.19722700
0.29883882 0.19476593 0.00000437
0.77391166 -0.17433096 -0.00000156
0.14090541 0.10014775 0.00000000
-0.62368478 0.18382745 0.06748977
0.04556281 -0.24998584 0.00000000
0.07063242 0.20826595 0.00000781
0.05791068 0.25882817 0.00000000
0.49355940 -0.62827414 0.00000000
-0.70266822 0.00109053 -0.00000079
0.34364049 -0.29255534 0.00000000
0.05759539 -0.65184971 0.00000000
-0.68365098 -0.32977632 -0.00000046
0.11650559 -0.63479625 0.00000000
-0.15613346 -0.63332337 0.00000000
0.76150788 -0.32017645 -0.00000120
0.30050135 0.04007575 0.00000000
-0.28325520 0.55220276 0.31853015
-0.66544098 -0.10802793 -0.00000062
0.09008489 0.20329343 0.00000000
-0.39894361 0.45756464 0.50763573
0.29558025 -0.05669363 0.00000000
-0.44881819 -0.12004472 -0.00000014
-0.39918779 0.15075493 -0.00000028
-0.53495882 0.29660907 0.28359013
-0.50569752 -0.66668593 0.00000000
0.00120102 -0.18350412 0.00000000
0.04451673 0.53198880 0.00000335
0.00875705 0.51011622 0.00000422
0.19818960 0.32511345 -0.00000001
0.52134968 -0.18267031 -0.00000049
0.00606721 -0.26667477 0.00000000
-0.52328492 0.32038471 0.39230456
0.00289761 0.02629121 0.00000000
-0.15949870 0.64852422 0.07206762
-0.17145751 0.60444458 -0.00000019
-0.54384932 0.20350081 -0.00000063
0.63793342 -0.50368597 -0.00000042
0.22355120 0.19420027 0.00000000
0.23841961 0.31331635 0.00000355
0.03162718 0.29233824 0.00000714
-0.49992725 -0.52917347 0.00000000
-0.44680991 0.40627657 0.47689785
0.10428808 0.12645790 0.00000853
0.60591900 -0.08030140 -0.00000103
-0.17726576 0.41317154 -0.00000004
-0.01035975 0.33682091 0.00000000
-0.79254196 -0.00760403 -0.00000098
-0.31261040 -0.19327263 0.00000000
-0.10058726 0.27426281 0.00000000
-0.02273837 0.46099189 0.00000000
0.71368733 -0.15568143 -0.00000136
0.03387408 0.62526063 0.00000211
0.38483120 0.18468996 -0.00000055
-0.30431007 -0.75937588 0.00000000
-0.55050860 0.02631893 -0.00000049
0.61793712 -0.03336084 -0.00000116
-0.34356740 -0.34435283 0.00000000
-0.32016471 0.52087992 0.36871827
-0.75797801 -0.64829352 -0.00000019
0.27611194 0.12016032 0.00000603
-0.28640249 -0.71617592 0.00000000
-0.59033737 -0.34624431 -0.00000025
0.54179584 -0.17610653 -0.00000059
0.50985651 0.02456828 -0.00000081
-0.43057177 -0.12780863 -0.00000010
-0.62197576 -0.69531457 -0.00000001
-0.04460031 0.67147091 0.00000000
-0.65703340 -0.40452515 -0.00000034
-0.25495231 -0.79055894 0.00000000
-0.31360610 -0.45896159 0.00000000
0.33881216 -0.39463768 0.00000000
-0.48607770 -0.18466178 -0.00000017
0.20558545 0.51005966 0.00000090
-0.39195007 0.45938801 0.46119008
-0.21337850 -0.58003421 0.00000000
-0.29949474 -0.40273161 0.00000000
-0.71754580 0.08999886 0.06778302
0.25482147 0.44708489 0.00000100
-0.53627410 -0.73353070 0.00000000
0.03724857 0.03510779 0.00000000
0.43578568 -0.43965037 0.00000000
0.01933425 0.59502486 0.00000000
0.14717446 0.64868993 -0.00000036
0.18312471 -0.00236756 0.00000000
-0.02440688 0.70976931 0.00000000
-0.26762544 0.26204117 -0.00000010
-0.10988943 0.69708773 0.06267205
-0.07042041 0.54306105 0.00000000
0.23851641 -0.30306678 0.00000000
-0.05785631 0.14772408 0.00000000
-0.51945842 0.09110686 -0.00000048
-0.71063503 -0.09616949 -0.00000072
0.12520123 0.15045647 0.00000000
0.31554728 0.32050191 0.00000195
0.09632219 0.53675067 0.00000250
-0.11170821 0.40828811 0.00000000
0.01194478 -0.17753694 0.00000000
0.37089621 -0.60845325 0.00000000
-0.49457285 0.33198057 0.23854223
-0.21796501 -0.68636964 0.00000000
0.48681631 -0.79394337 0.00000000
-0.04810856 0.35411125 0.00000000
0.60218944 0.06042725 -0.00000126
0.32097336 -0.14509172 0.00000000
0.43157405 0.25030181 -0.00000087
0.42693581 -0.51011744 0.00000000
-0.14323531 0.42030784 0.00000000
-0.08868902 -0.09152468 0.00000000
0.07728574 0.24647046 0.00000000
-0.76977575 -0.08151877 -0.00000086
0.43567158 -0.12430863 -0.00000023
-0.55812972 -0.28536965 -0.00000023
0.50134743 0.07458515 -0.00000086
-0.56396851 -0.69906681 0.00000000
0.47146002 -0.02838330 -0.00000055
-0.20025249 -0.12448020 0.00000000
-0.56117455 -0.68363225 0.00000000
-0.00225388 0.67751646 0.00000000
-0.15564910 0.65766799 0.11962726
-0.38039669 -0.34345790 0.00000000
0.17613866 0.53519071 -0.00000028
0.50196842 -0.26000675 -0.00000027
-0.05190792 -0.62706090 0.00000000
-0.55317366 0.27057945 0.21338698
0.36944049 -0.30945671 0.00000000
0.17710866 0.58769080 -0.00000038
0.29031869 -0.52316790 0.00000000
0.32127553 -0.67991909 0.00000000
0.14966395 -0.68550333 0.00000000
-0.10540495 -0.50670272 0.00000000
0.19390767 0.35023072 -0.00000003
0.27047169 0.18829677 -0.00000007
-0.72291559 -0.70360791 -0.00000012
-0.29482077 0.54246355 0.33493738
0.16003259 0.35588434 0.00000000
0.06901458 0.63484879 0.00000143
0.21755672 0.55193724 -0.00000003
-0.28345908 0.19133226 -0.00000007
-0.38051605 -0.23517101 0.00000000
0.73348653 -0.58435315 -0.00000054
-0.35375799 0.46369474 0.15678377
0.33738044 0.21753408 -0.00000041
-0.20073509 -0.68872957 0.00000000
-0.13428505 -0.45036837 0.00000000
0.07958327 0.07775939 0.00000000
-0.69017467 -0.10558464 -0.00000067
-0.33961232 0.28600801 -0.00000027
-0.52547555 -0.01638527 -0.00000040
0.45204063 0.30569533 -0.00000042
0.32831049 -0.42710286 0.00000000
-0.55723875 -0.20353940 -0.00000030
0.75702170 -0.21503160 -0.00000144
-0.44036793 -0.26847651 0.00000000
-0.18515501 0.24569323 0.00000000
-0.32262141 0.51703402 0.35623855
0.29234865 0.27031757 0.00000323
0.26560599 -0.63836276 0.00000000
-0.51790255 0.27689534 -0.00000064
-0.50310653 -0.18952873 -0.00000020
-0.24345312 -0.68607092 0.00000000
0.23011551 0.38877390 0.00000245
0.37664561 0.22731892 -0.00000060
0.01819018 -0.58438182 0.00000000
-0.57530517 -0.47922423 -0.00000010
0.74951353 -0.77527786 -0.00000006
0.42776203 0.22279801 0.00000143
0.04658738 0.25580590 0.00000746
-0.48905038 0.33923778 0.25412598
-0.14984981 -0.26696196 0.00000000
0.71028312 -0.71708362 -0.00000021
-0.25428088 -0.44559733 0.00000000
-0.50973125 -0.39693654 -0.00000003
-0.21150778 -0.21160337 0.00000000
0.02958612 0.11057017 0.00000990
-0.05506654 -0.62714249 0.00000000
-0.64688156 0.02595788 -0.00000070
0.46614390 0.26761465 -0.00000105
-0.33817033 0.48998113 0.25289440
0.02865063 -0.21795998 0.00000000
-0.30146670 -0.39404229 0.00000000
0.18812331 -0.63688353 0.00000000
-0.56571696 -0.02229379 -0.00000048
-0.48762570 -0.43121748 0.00000000
0.29255836 -0.25215292 0.00000000
-0.20268018 -0.02982732 0.00000000
-0.77864162 -0.22031042 -0.00000072
0.77261208 -0.67285672 -0.00000032
-0.59742903 -0.77438661 0.00000000
-0.53854278 0.04280432 -0.00000048
0.03088986 0.49069309 0.00000417
-0.64666786 0.16297972 0.08667302
0.08025314 0.36073328 0.00000000
0.16735778 0.12651280 0.00000758
-0.22367309 -0.01777844 0.00000000
-0.48161617 -0.69671319 0.00000000
-0.51937846 -0.10805507 -0.00000031
-0.50267917 0.30504204 0.06936446
0.39858248 -0.16374510 0.00000000
0.29778826 0.00527168 0.00000000
-0.53501084 -0.34205419 -0.00000013
0.33921668 -0.12377324 0.00000000
0.68905310 -0.02953772 -0.00000147
0.17480602 0.01744146 0.00000000
0.69790387 -0.21500755 -0.00000118
-0.08099833 -0.25400367 0.00000000
-0.11874881 0.43239280 0.00000000
0.13073582 0.43182499 0.00000000
-0.08499279 0.36967644 0.00000000
0.54458490 -0.60075507 0.00000000
0.05284576 -0.22515955 0.00000000
0.77900035 -0.63822177 -0.00000040
-0.13718729 0.32791032 0.00000000
0.17393091 0.23522363 0.00000000
0.31449082 -0.51411437 0.00000000
0.34577470 0.33132858 -0.00000065
0.58169220 -0.16692177 -0.00000077
-0.45429028 0.38089029 0.31604240
-0.46357758 0.01571659 -0.00000030
-0.37717716 0.47243047 0.44564435
-0.13702786 0.42328600 0.00000000
0.70018142 -0.37764993 -0.00000091
0.68163924 0.11341606 -0.00000162
-0.13311980 -0.27731109 0.00000000
-0.16211295 -0.42559551 0.00000000
-0.55939540 -0.08674589 -0.00000041
0.71612116 0.02140741 -0.00000168
0.45214854 -0.65689963 0.00000000
0.04991895 0.47898698 0.00000406
-0.31396314 0.49020858 0.03747392
0.14963255 0.13325823 0.00000774
0.23020650 -0.11375349 0.00000000
0.05440194 -0.43313366 0.00000000
-0.35844239 0.09782038 -0.00000014
-0.16754951 -0.37329139 0.00000000
0.79984742 -0.17990680 -0.00000155
-0.02627079 0.06665301 0.00000000
0.25187821 -0.25499724 0.00000000
0.36731945 0.31416966 0.00000106
0.16457230 -0.54482729 0.00000000
-0.01796974 -0.60209669 0.00000000
-0.51686092 -0.28381201 -0.00000014
0.37330379 0.11125754 0.00000434
-0.11044220 -0.60926626 0.00000000
-0.39957909 -0.64393135 0.00000000
0.56537620 -0.39646422 -0.00000030
0.27208329 0.19129517 0.00000494
0.05767378 0.28621832 0.00000684
-0.02917050 0.72549318 0.00000000
0.45923170 0.18701768 0.00000142
0.13134831 -0.13209271 0.00000000
0.65701916 -0.51546784 -0.00000048
0.04116763 -0.02900873 0.00000000
0.37254951 0.21441022 -0.00000055
0.21895182 -0.70693025 0.00000000
0.32246551 -0.59306762 0.00000000
-0.44817816 -0.24237332 -0.00000004
-0.66901887 -0.58244953 -0.00000021
0.61508095 0.15445796 -0.00000148
-0.56477193 0.15172665 -0.00000063
0.07858215 -0.78777075 0.00000000
0.52859360 -0.51240043 0.00000000
0.52933296 -0.68492366 0.00000000
-0.10178559 -0.44799523 0.00000000
0.30322196 0.45110850 -0.00000068
-0.17793433 -0.01008431 0.00000000
0.19418936 0.49959573 0.00000129
0.45712744 0.18012944 0.00000158
0.00952363 -0.23901055 0.00000000
0.37943658 0.13362546 -0.00000044
-0.51143958 0.30998413 0.19246015
0.53265296 -0.66922558 0.00000000
-0.09357868 0.55562992 0.00000000
0.58690195 -0.69491537 0.00000000
0.54611323 0.12666717 -0.00000114
-0.48462559 -0.48640954 0.00000000
0.37233449 0.30934570 -0.00000072
0.06592437 0.19679785 0.00000805
-0.63838338 0.17073914 0.08195594
-0.60629994 0.18843214 -0.00000075
-0.08073663 -0.40506082 0.00000000
0.09249885 0.23982425 0.00000701
0.34632749 -0.15980502 0.00000000
-0.41495996 0.40108769 0.14416262
-0.34690156 -0.41959782 0.00000000
-0.72778500 0.07896464 0.06064124
-0.33015589 0.48093101 0.09959631
-0.44246508 -0.04241318 -0.00000020
0.29103701 0.15999929 0.00000510
0.01859788 -0.33840448 0.00000000
-0.24975557 0.57560091 0.22778385
-0.18919147 -0.71327943 0.00000000
-0.24191782 -0.37475152 0.00000000
-0.16122147 0.64993759 0.10024086
0.32946071 -0.63763916 0.00000000
0.42919618 0.12973574 0.00000295
-0.71592502 -0.57845624 -0.00000028
0.16665349 0.46624204 -0.00000012
0.08496044 0.04663967 0.00001002
-0.72584877 -0.66889719 -0.00000016
-0.15896906 -0.30512430 0.00000000
0.10789394 0.68097825 -0.00000025
0.49823729 -0.61499801 0.00000000
0.34982202 -0.58986659 0.00000000
0.42858846 0.14873175 -0.00000068
0.72107577 0.02221113 -0.00000170
-0.03611033 -0.16848515 0.00000000
-0.49114758 -0.78979031 0.00000000
-0.38079866 0.28221603 -0.00000035
0.13778812 -0.65357686 0.00000000
0.06390045 0.18997343 0.00000819
-0.57132515 0.24550718 0.15121504
0.66236039 0.02976493 0.00000015
-0.28806810 -0.57001344 0.00000000
0.10690849 0.57966370 -0.00000007
-0.58790711 0.21213142 0.00034944
0.78035835 -0.66279791 -0.00000034
-0.41326779 -0.10602886 -0.00000008
-0.33267641 -0.01098447 0.00000000
0.46989545 -0.43140971 0.00000000
0.22349041 -0.54350092 0.00000000
0.39767341 0.11999272 0.00000372
0.09846388 0.37147307 0.00000494
-0.07675076 0.43803051 0.00000000
