ply
format ascii 1.0
element vertex 1395
property float x
property float y
property float z
end_header
0.22845735 0.04735382 0.00000000
-0.26728423 0.23118305 -0.00000014
0.45342534 -0.50499581 0.00000000
0.13859224 0.65265243 -0.00000020
-0.16410210 0.22512540 0.00000000
-0.58138145 -0.37254814 -0.00000041
-0.68606043 -0.26230376 -0.00000105
-0.12637612 0.60196688 0.00802608
0.08995181 0.68498086 0.00000019
0.13340869 -0.09173722 0.00000000
-0.28698953 -0.00831974 0.00000000
-0.29749149 0.24177559 -0.00000028
0.33024231 -0.48215615 0.00000000
0.73130461 -0.68793207 -0.00000028
0.07839657 0.71566188 -0.00000010
-0.06334097 -0.40053732 0.00000000
0.43845617 -0.39935199 0.00000000
0.59755806 -0.31727282 -0.00000058
-0.28858285 -0.62531037 0.00000000
0.07603469 0.34374613 0.00000000
0.47032620 0.21041037 0.00000082
-0.08832363 -0.51525163 0.00000000
0.44068998 -0.72366125 0.00000000
0.02380896 -0.12833939 0.00000000
0.29936973 0.47448155 -0.00000070
-0.01137118 0.39575236 0.00000000
0.43823109 -0.77624059 0.00000000
0.01057759 0.30954537 0.00000720
-0.73964803 -0.66213815 -0.00000034
0.64000789 -0.26668667 -0.00000085
0.01088258 0.18090904 0.00000000
-0.08186611 0.48064541 0.02660097
0.03831215 0.04154541 0.00001080
-0.30981616 -0.68917893 0.00000000
0.02078851 -0.47120560 0.00000000
0.06546042 0.16368615 0.00000000
-0.35363651 -0.22189907 0.00000000
0.23351528 0.00549960 0.00000000
-0.79722210 -0.76455034 -0.00000009
-0.62550595 -0.56029847 -0.00000026
0.20305252 0.09596455 0.00000000
-0.53745671 -0.39512329 -0.00000018
0.23861841 0.27625528 0.00000417
-0.48221895 -0.00904627 -0.00000063
0.47180404 0.05831120 -0.00000070
0.21052150 -0.21079068 0.00000000
0.60268870 -0.11503094 -0.00000095
0.14881772 -0.10229283 0.00000000
0.04062006 0.73823016 0.00000025
-0.42888106 -0.22501708 -0.00000002
0.05733402 0.24150339 0.00000751
0.47758128 -0.38549053 0.00000000
0.10702377 -0.31827769 0.00000000
-0.31307016 -0.10513052 0.00000000
-0.29597021 -0.16278885 0.00000000
-0.22994741 0.48400431 0.00963779
0.06552386 0.67330828 -0.00000006
-0.58919340 -0.06524701 -0.00000098
-0.36812088 0.08179629 -0.00000030
-0.70866697 -0.79686046 -0.00000001
-0.56423998 0.15802453 -0.00000127
0.61377851 -0.04808547 -0.00000112
0.21307139 0.47021517 0.00000142
-0.11863951 0.64101348 -0.00000023
0.46656779 -0.41150582 0.00000000
0.09940321 -0.04717441 0.00000000
0.69341136 -0.65548993 -0.00000036
-0.50910260 -0.46317299 0.00000000
0.58102682 -0.00572526 -0.00000106
-0.03113412 0.36663411 0.04505375
0.01356393 0.20371560 0.00000000
-0.76905578 -0.45716310 -0.00000086
-0.10854691 0.59045802 -0.00000009
0.76976684 -0.45959659 -0.00000085
-0.48920758 0.03024464 0.03142330
-0.25933423 0.49159386 -0.00000056
0.68559094 -0.17815045 -0.00000120
0.04628504 0.16331896 0.00000000
0.13158996 -0.67575671 0.00000000
-0.70246646 -0.30531583 -0.00000104
0.05787040 -0.72383368 0.00000000
0.58646725 0.14902737 -0.00000135
0.64072013 -0.28637432 -0.00000081
-0.27165571 -0.22711665 0.00000000
0.51388459 0.08880144 0.00000201
-0.41840084 -0.14736714 -0.00000011
0.25917588 0.14910791 0.00000000
-0.64835189 0.03467828 0.01310026
-0.19554413 0.15018102 0.00000000
-0.61103641 -0.52010909 -0.00000027
-0.72270845 -0.46517955 -0.00000084
0.72231807 -0.64922978 -0.00000038
-0.17894845 0.02681174 0.00000000
-0.79532824 -0.34552320 -0.00000114
-0.74088116 -0.32567467 -0.00000117
-0.12049181 0.12740341 0.06184096
0.68594303 -0.04708253 -0.00000143
0.14457889 -0.33988785 0.00000000
-0.20105458 -0.64325491 0.00000000
0.35372734 -0.57677416 0.00000000
-0.24008975 0.48436050 -0.00000047
-0.38476083 0.26061819 -0.00000069
0.05806668 -0.55841980 0.00000000
-0.13606438 -0.28647488 0.00000000
0.19416015 -0.05275224 0.00000000
-0.11808267 -0.61952610 0.00000000
0.39885702 0.25472356 0.00000145
-0.10860835 0.15030621 0.06060669
0.25493642 0.13838474 0.00000608
0.16326176 0.28250659 0.00000530
0.17056656 0.61759409 -0.00000023
0.44587746 -0.53536999 0.00000000
0.37565959 -0.24192016 0.00000000
0.18822525 -0.53978400 0.00000000
0.17088456 0.50013311 0.00000173
0.26228845 -0.67815071 0.00000000
0.63980246 -0.18468667 -0.00000099
0.14613267 -0.40955109 0.00000000
0.22531087 0.26508573 -0.00000002
0.41365392 0.04950631 0.00000459
0.19550986 -0.28833307 0.00000000
0.40119785 -0.78673595 0.00000000
-0.50403776 0.14412941 -0.00000099
0.23543773 -0.73940724 0.00000000
-0.00583405 0.03003036 0.08559037
0.55796437 0.14047317 0.00000030
-0.78625846 -0.59661767 -0.00000051
-0.17714340 0.03705504 0.06561534
-0.09234848 0.21241911 0.05547071
-0.46079561 0.33599405 0.00035838
-0.17033151 0.00075649 0.00000000
0.17846857 -0.54702638 0.00000000
-0.65564456 0.03272384 -0.00000144
-0.24772721 -0.53894168 0.00000000
-0.38184246 0.21413217 0.02285219
-0.51244289 0.11618580 -0.00000098
0.02122298 -0.40161198 0.00000000
-0.14172717 0.47066594 -0.00000002
-0.01321532 0.37174343 0.04648852
-0.56787868 -0.08271244 -0.00000086
0.37408308 0.29201771 0.00000130
-0.22727301 0.36507157 -0.00000020
-0.27339261 0.04194538 0.05428679
-0.06661128 -0.52933402 0.00000000
0.50780027 -0.16787028 -0.00000046
-0.30205261 -0.73118054 0.00000000
0.60896197 -0.68468736 0.00000000
-0.60291164 -0.46292514 -0.00000034
-0.34937128 -0.38390718 0.00000000
0.44544229 -0.50900495 0.00000000
-0.74864265 -0.43123592 -0.00000092
0.34740276 -0.42464859 0.00000000
-0.76365497 -0.21101353 -0.00000147
0.19608202 -0.00614198 0.00000000
-0.22467092 0.47640409 0.01108015
0.18808406 0.40995812 0.00000290
0.12307475 0.12027785 0.00000000
-0.42930621 -0.08341052 -0.00000027
-0.00166952 -0.22353337 0.00000000
-0.60532496 -0.41399484 -0.00000044
0.02654355 0.32172951 0.00000000
-0.47382946 -0.13955601 -0.00000036
0.22919531 0.27569100 -0.00000005
0.12826708 0.37744472 0.00000000
-0.02790114 0.41566704 0.00000000
0.70406441 -0.28103440 -0.00000109
0.75259577 -0.61090419 -0.00000047
-0.52211903 -0.27294008 -0.00000033
-0.42388962 -0.23661426 0.00000000
-0.71400121 -0.36356336 -0.00000099
-0.32089366 0.15327912 0.03649556
-0.58990897 -0.53238968 -0.00000016
0.59255477 0.09277615 -0.00000128
0.72573073 -0.08398296 -0.00000153
0.26365469 0.06784659 0.00000000
0.69389600 -0.07353052 -0.00000142
-0.12612749 -0.32629011 0.00000000
0.13584809 -0.27824170 0.00000000
0.40584085 0.38091757 -0.00000079
0.45806039 -0.76765406 0.00000000
0.45201978 -0.07415874 -0.00000038
0.27102606 0.51185137 -0.00000039
-0.64852845 -0.20200720 -0.00000100
-0.03718106 0.64855456 0.01279870
0.74691853 -0.24570421 -0.00000134
0.78755851 -0.78351616 -0.00000004
-0.20813653 0.00684072 0.00000000
-0.43813459 -0.76006137 0.00000000
0.51268142 -0.68981495 0.00000000
-0.34689300 0.28074168 0.01930599
-0.05364662 0.37657774 0.00000000
0.39578383 -0.57569577 0.00000000
0.25266431 0.41837144 -0.00000040
-0.02660640 0.37731117 0.04436496
0.05607017 0.60711291 0.00000205
0.60949842 -0.79871602 0.00000000
0.06741912 -0.50891486 0.00000000
-0.56014047 -0.31042056 -0.00000043
-0.56202475 -0.11906978 -0.00000077
0.02827424 -0.40374519 0.00000000
0.25571990 -0.42404891 0.00000000
0.34854534 -0.08398581 0.00000000
-0.07326574 0.46321912 0.02951620
-0.28029631 -0.17155779 0.00000000
-0.22407202 0.46194953 -0.00000036
-0.21003450 0.00919118 0.06505225
-0.55656977 0.17680453 -0.00000127
0.46365553 0.15131584 0.00000193
0.42351868 0.23760963 0.00000126
0.17969242 0.21222564 0.00000611
0.43913091 -0.07523857 -0.00000033
-0.27736280 0.17106690 -0.00000007
0.62262723 -0.28289848 -0.00000074
-0.30514749 -0.37765639 0.00000000
0.54738632 -0.40834788 -0.00000020
0.09987824 -0.66906944 0.00000000
-0.02620731 0.42415192 0.00000000
-0.77686580 -0.74962694 -0.00000013
0.28200056 -0.62459600 0.00000000
-0.09416122 -0.44553550 0.00000000
0.09302844 0.44444462 0.00000393
-0.25295625 0.49084072 -0.00000053
-0.09635233 0.29757478 0.00000000
0.10755388 -0.03371848 0.00000000
0.29095533 -0.42717387 0.00000000
0.17453722 0.41111055 -0.00000006
-0.00802567 -0.41162022 0.00000000
-0.26524464 0.25654956 0.03116156
-0.22666120 0.27993902 -0.00000005
-0.39136442 -0.17854304 0.00000000
-0.03029054 0.04246277 0.08145847
0.51816124 -0.14283139 -0.00000054
0.57330602 0.15117122 -0.00000017
0.02948100 0.01539501 0.00001132
-0.36895562 0.02734306 0.04521823
0.10352680 -0.32274634 0.00000000
0.11277582 -0.03458765 0.00000000
-0.38597033 -0.46529141 0.00000000
0.07370373 -0.54110079 0.00000000
-0.25782891 -0.77144480 0.00000000
0.72947043 -0.60459274 -0.00000049
0.23278049 -0.56477966 0.00000000
-0.20223591 -0.48544284 0.00000000
0.53188158 -0.02192892 -0.00000082
0.42066472 -0.19967767 -0.00000003
0.40175151 0.08980915 0.00000415
-0.16504241 0.47376825 0.01805463
0.11881012 0.37052008 0.00000000
0.53230746 -0.70694128 0.00000000
0.20448433 0.32072903 -0.00000003
-0.16812400 -0.78353603 0.00000000
-0.16499624 -0.56501831 0.00000000
0.17776956 0.37005845 0.00000000
0.50401675 -0.14249719 -0.00000048
-0.56955581 -0.42648273 -0.00000026
-0.02249076 0.02834607 0.08391332
0.76584591 -0.52336775 -0.00000069
0.13567422 0.53253093 0.00000186
0.27778001 0.39234127 -0.00000046
0.25930070 -0.74281137 0.00000000
0.18966506 -0.29613260 0.00000000
-0.03273606 0.12048348 0.07244550
0.14622814 0.35301113 0.00000000
0.12066846 0.54376104 -0.00000006
0.50834785 -0.66932938 0.00000000
0.63994487 0.02842070 0.00000060
0.31478715 0.44836496 -0.00000017
-0.44393579 0.27763363 0.00878396
-0.20545878 0.18911780 0.00000000
0.53539053 0.18170851 0.00000005
0.75942032 0.01238860 -0.00000143
0.79021841 -0.35008420 -0.00000112
0.10112239 0.51783532 0.00000000
0.01162294 0.27086164 0.00000776
0.03037033 -0.75956713 0.00000000
0.43615596 0.23095378 -0.00000086
0.05572109 0.60375190 0.00000210
0.56339835 0.07071581 -0.00000112
-0.74261895 -0.51711204 -0.00000071
-0.29818881 -0.42720214 0.00000000
0.25826859 0.40409604 -0.00000040
-0.72372134 -0.68106027 -0.00000030
-0.24240259 0.28798157 -0.00000013
-0.59656533 -0.58823119 -0.00000009
0.05751570 -0.18537006 0.00000000
-0.49189963 -0.31535176 -0.00000013
0.14460677 0.59557617 -0.00000026
0.05693055 -0.73809114 0.00000000
-0.37609523 -0.61259737 0.00000000
-0.07527008 0.22282080 0.00000000
0.26143586 0.40527147 -0.00000042
-0.78089074 -0.51493355 -0.00000071
0.41930077 -0.28291192 0.00000000
0.06263467 0.61704945 0.00000180
-0.55659500 -0.27483381 -0.00000048
0.67576363 0.12048739 -0.00000168
-0.49359893 0.28602507 -0.00000120
0.27879032 -0.70819255 0.00000000
-0.00787554 0.23604447 0.00000000
-0.09711753 0.12464408 0.00000000
-0.12115279 -0.74018096 0.00000000
0.10494324 0.19999955 0.00000000
0.36228927 0.20542120 0.00000297
-0.24322900 0.24214568 -0.00000005
-0.50850993 0.12217487 0.01896391
-0.64711975 -0.16733260 -0.00000105
-0.37313781 0.20609970 0.02472696
-0.27664053 0.12064705 0.04510766
0.49681204 -0.45107944 0.00000000
-0.23885009 0.22920242 0.03718131
-0.36484081 -0.04553321 -0.00000006
0.38238450 -0.25893208 0.00000000
-0.77529320 -0.38184077 -0.00000105
0.05911304 0.62911563 0.00000167
-0.27970092 -0.08951362 0.00000000
-0.38928466 0.04753049 0.04067986
-0.47310680 0.14314189 0.02058102
-0.36819223 0.03702834 -0.00000022
0.40321039 -0.26344581 0.00000000
0.16387542 0.11088381 0.00000786
0.22671445 0.10545782 0.00000700
0.17017199 -0.49322640 0.00000000
0.62697292 0.08928763 -0.00000142
-0.26373708 0.24570741 -0.00000015
0.11898188 0.25576107 0.00000000
-0.46063583 0.14531811 -0.00000081
0.12274135 -0.51364812 0.00000000
0.11958111 0.17704281 0.00000000
0.49709778 -0.29812020 -0.00000018
-0.49523429 -0.72600579 0.00000000
0.01879758 0.09040525 0.00001036
0.41139413 0.24886183 0.00000131
-0.13960202 -0.05658201 0.00000000
0.03188684 -0.50559599 0.00000000
-0.56426672 -0.26074640 -0.00000053
-0.31869767 -0.18939994 0.00000000
0.01898808 0.12058300 0.00000000
0.08973519 0.48088012 0.00000000
-0.14033768 -0.76466693 0.00000000
0.36889882 -0.40185890 0.00000000
0.33929587 -0.54149034 0.00000000
-0.45513747 -0.31819140 0.00000000
-0.02618548 0.63248214 0.00000000
-0.01456922 -0.75268571 0.00000000
-0.65571797 -0.34363106 -0.00000078
0.07960100 0.43524191 0.00000000
0.31609940 -0.52982222 0.00000000
0.58114121 -0.42374268 -0.00000032
-0.48448688 -0.33244256 -0.00000007
0.30396891 -0.35545790 0.00000000
0.47058460 -0.39503737 0.00000000
0.60664473 -0.08522929 -0.00000102
-0.25799656 0.06983246 0.05288767
-0.37335863 -0.14308384 0.00000000
-0.13203236 -0.07997618 0.00000000
-0.26693120 -0.77072569 0.00000000
0.57202285 -0.05374947 -0.00000093
-0.01882860 0.14270638 0.07151409
-0.35151173 -0.70203902 0.00000000
0.32181203 0.43144376 -0.00000072
-0.34694000 0.19844399 0.02851901
-0.48094745 -0.48540850 0.00000000
0.28076301 0.48263888 -0.00000064
-0.43235320 -0.27736174 0.00000000
0.08750410 0.39072572 0.00000000
-0.38474105 -0.44916700 0.00000000
-0.16450830 0.18975072 0.00000000
-0.19646859 0.09999994 0.05640032
0.21383778 0.25825285 0.00000000
0.30522490 0.09882193 0.00000585
0.39128453 0.38980402 -0.00000066
0.07485432 0.09043986 0.00000951
0.27424063 0.28257966 0.00000338
0.35853909 0.27172392 0.00000194
-0.45635177 0.21087497 0.01487093
0.42040868 -0.61138428 0.00000000
0.38918563 0.34202568 0.00000018
-0.51012509 -0.15128618 -0.00000050
-0.10096258 0.23533452 0.05193911
-0.21130504 -0.50135166 0.00000000
0.36224023 -0.70467092 0.00000000
0.19149751 -0.76082168 0.00000000
-0.51916647 -0.67860133 0.00000000
0.55045503 0.21794147 -0.00000085
-0.13560624 -0.15773743 0.00000000
-0.71679969 -0.14901049 -0.00000138
-0.45758903 -0.68016099 0.00000000
0.01213833 -0.71815598 0.00000000
0.34336494 -0.64065508 0.00000000
-0.11907768 -0.65314498 0.00000000
-0.09773778 -0.28541167 0.00000000
-0.45484478 -0.66898871 0.00000000
-0.22481513 0.43461110 0.01574529
-0.66032929 -0.21848748 -0.00000102
0.25209569 0.02989751 0.00000000
0.44203280 -0.56762408 0.00000000
-0.18288880 -0.49757805 0.00000000
-0.03215571 0.35263032 0.04650788
0.07238638 0.58512162 0.00000000
0.44610813 0.15590402 0.00000219
0.67117342 -0.10163893 -0.00000127
-0.41046343 -0.53057506 0.00000000
-0.54299764 0.11907267 -0.00000111
-0.38995903 0.40176445 0.00092604
0.02429431 0.12930389 0.00000969
0.01275408 -0.48740090 0.00000000
0.16553476 -0.41092833 0.00000000
-0.39480666 -0.20986915 0.00000000
0.13407544 0.55546586 -0.00000014
-0.07293836 0.53491881 0.02152183
-0.55658324 0.05234611 -0.00000105
0.21560980 0.10838761 0.00000712
-0.17048152 0.12965909 0.00000000
0.19999485 0.33145591 0.00000399
0.45217128 0.31072226 -0.00000106
-0.41662174 -0.58771061 0.00000000
-0.50870090 -0.77196720 0.00000000
0.24108301 0.39501575 -0.00000031
0.33589605 0.10960980 0.00000508
-0.13594042 0.52989039 -0.00000010
0.66668394 -0.16051819 -0.00000115
-0.64728399 -0.63978422 -0.00000022
0.08964292 0.50413916 0.00000000
-0.68845576 -0.79958215 -0.00000000
-0.07415193 -0.11469391 0.00000000
0.02572062 0.12432419 0.00000000
0.44558088 -0.40034291 0.00000000
-0.07998516 0.33704426 0.00000000
0.11499191 0.34062995 0.00000516
-0.61304345 0.12881083 -0.00000143
0.59758547 -0.30093413 -0.00000060
0.51716825 -0.12939324 -0.00000056
0.69472383 -0.23600509 -0.00000113
-0.22495831 0.02397837 0.00000000
-0.76666311 -0.07845110 -0.00000172
-0.62489135 -0.35295774 -0.00000063
0.20789064 0.28232451 0.00000000
0.49673867 -0.02203624 -0.00000067
0.11454773 0.54367782 -0.00000004
0.69244921 -0.42452147 -0.00000079
0.10398352 -0.56522823 0.00000000
-0.77239297 -0.44361767 -0.00000089
-0.32836855 0.00952275 0.05176062
-0.06294351 0.10327055 0.00000000
0.48972977 -0.11734102 -0.00000047
-0.33918271 0.31079189 -0.00000058
-0.24354004 0.25962893 0.03324785
0.04329119 0.06128863 0.00000000
0.11573263 -0.43746590 0.00000000
-0.55575176 -0.20117197 -0.00000060
0.58575699 0.17089271 -0.00000139
0.60905814 -0.51682545 -0.00000027
-0.67429488 0.04816509 -0.00000155
0.74095257 -0.30561783 -0.00000121
-0.09674169 -0.46421862 0.00000000
0.57513482 -0.34489953 -0.00000043
0.07320335 0.23528296 0.00000000
-0.24883651 -0.04768976 0.00000000
-0.01482751 0.21918995 0.00000000
0.18807256 -0.26721895 0.00000000
-0.16428110 -0.59587303 0.00000000
0.51392652 -0.11574545 -0.00000057
-0.37825186 -0.70141983 0.00000000
-0.74311213 0.05353488 0.00037361
-0.02987293 0.72758544 0.00476507
0.07377498 0.03479035 0.00001036
-0.64592816 -0.54175317 -0.00000038
0.04413360 -0.60739317 0.00000000
0.26014613 -0.38839656 0.00000000
0.34495673 0.43238329 -0.00000048
-0.49945339 0.13007791 -0.00000095
-0.02224826 -0.64724530 0.00000000
0.57891797 0.08498146 -0.00000121
0.01059879 -0.27773160 0.00000000
-0.18164500 -0.79497192 0.00000000
0.14089182 0.36339674 0.00000442
-0.02552008 0.32103015 0.00000000
0.29533619 0.01341098 0.00000000
-0.22862809 -0.63870505 0.00000000
0.01789274 -0.56096440 0.00000000
-0.31128178 -0.45179278 0.00000000
0.15714139 0.14987873 0.00000000
-0.14255847 -0.07942027 0.00000000
0.10483009 -0.46560326 0.00000000
-0.31163604 -0.19271171 0.00000000
0.71329901 -0.07106891 -0.00000150
0.18746682 0.32485526 0.00000430
-0.57411818 -0.07342409 -0.00000091
-0.45591728 -0.05367207 -0.00000044
0.47049035 0.23639571 0.00000038
-0.07114920 -0.14607299 0.00000000
0.36117557 0.25956539 -0.00000059
0.14208954 0.20217869 0.00000682
0.57131572 0.13268668 -0.00000126
-0.45790197 0.26230651 0.00893636
-0.70338867 -0.05743365 -0.00000149
0.61080006 0.15393336 -0.00000146
0.41211451 -0.66091071 0.00000000
-0.69630592 -0.56582393 -0.00000056
-0.44379068 0.03122992 0.03640027
-0.29432311 0.23023327 -0.00000025
-0.31631720 0.47297412 0.00119866
-0.49126522 -0.20070121 -0.00000033
0.53040741 -0.68900674 0.00000000
0.17799651 -0.31178642 0.00000000
-0.17314906 0.08427112 0.00000000
0.55287145 -0.25909199 -0.00000049
0.27291797 0.29457550 0.00000320
0.34475488 -0.11656505 0.00000000
-0.70104321 -0.41800104 -0.00000084
-0.08997121 -0.65154172 0.00000000
-0.28321496 0.44637944 0.00788549
0.25471054 0.14616133 0.00000000
-0.53619937 0.00614515 -0.00000089
-0.15287412 -0.45331812 0.00000000
0.10416897 0.22889476 0.00000000
0.54156425 -0.77244811 0.00000000
0.39306698 0.06046467 -0.00000037
0.22281339 -0.78150170 0.00000000
-0.31385534 -0.21235361 0.00000000
-0.04704567 -0.49926380 0.00000000
0.73246498 -0.23504795 -0.00000130
-0.65403945 -0.01993953 -0.00000134
0.29764705 0.22335873 -0.00000025
-0.70070109 -0.37115173 -0.00000092
-0.30237138 -0.56137517 0.00000000
0.32999897 0.38760349 0.00000055
0.41746837 -0.61608416 0.00000000
0.22041816 -0.61108304 0.00000000
-0.15490447 0.33565496 0.00000000
0.16938393 -0.42816505 0.00000000
-0.36275854 0.03940189 0.04456166
0.13851148 -0.12719412 0.00000000
-0.08114633 -0.26044253 0.00000000
-0.07597548 -0.77179138 0.00000000
0.15672878 -0.25809030 0.00000000
-0.30922141 0.39022433 0.01126242
0.52186210 0.24027636 -0.00000067
-0.25535060 0.33874311 -0.00000027
-0.58483000 -0.68998134 0.00000000
-0.29316745 0.00226381 0.00000000
-0.67115030 -0.33594122 -0.00000086
0.56234105 -0.02774146 -0.00000094
-0.67640368 -0.02194593 -0.00000143
-0.14689296 0.41789669 0.00000000
0.13468753 0.27424007 0.00000585
-0.23850372 0.42245630 -0.00000035
0.13719731 0.51224950 -0.00000008
0.77825017 -0.04676223 -0.00000182
-0.38098771 0.26263152 0.01751544
0.59003502 -0.57053175 -0.00000010
0.59776641 -0.62642479 -0.00000003
0.12520107 0.33502179 0.00000000
-0.39797631 -0.37588797 0.00000000
0.76845776 -0.71821380 -0.00000020
-0.62078338 -0.00249455 -0.00000123
0.12731337 0.19294522 0.00000000
0.06932292 0.02486650 0.00001058
0.60915279 -0.67768518 0.00000000
0.11174250 0.15379777 0.00000000
-0.04742334 0.08608109 0.07465378
-0.29538229 0.37627982 -0.00000051
0.30241081 -0.40794394 0.00000000
-0.24536294 0.28034206 -0.00000013
-0.60207472 -0.72772916 0.00000000
-0.40918883 -0.70830052 0.00000000
0.71902028 0.06524427 -0.00000177
0.18347849 0.10645584 0.00000763
-0.44418122 0.35528644 0.00005846
0.49615603 -0.06781549 -0.00000058
-0.38722767 -0.06186759 -0.00000013
-0.09274983 0.36191515 0.00000000
-0.41099250 -0.70959785 0.00000000
0.08832224 -0.58251462 0.00000000
-0.49916491 0.27254032 0.00316802
-0.13298328 0.08760844 0.06489921
0.68130897 -0.08805877 -0.00000134
-0.71484372 -0.03658774 -0.00000157
0.00522941 0.34416624 0.00000676
0.76510831 -0.28719501 -0.00000128
0.71377543 -0.23190897 -0.00000122
0.37901876 -0.67353535 0.00000000
-0.36633993 -0.51751837 0.00000000
-0.22781235 -0.08942768 0.00000000
-0.11925607 -0.39329249 0.00000000
-0.28705245 0.51045284 -0.00000071
0.39071518 -0.67614248 0.00000000
0.24282114 0.49553730 0.00000042
0.25610206 0.23520780 0.00000452
-0.17699663 -0.75239804 0.00000000
0.02121931 0.27002015 0.00000763
-0.30621355 -0.18036216 0.00000000
0.56047340 0.06428991 0.00000153
0.13357453 0.60083554 -0.00000022
0.53966741 0.19148209 -0.00000020
-0.00707276 0.00593321 0.08815073
0.49750958 -0.79237735 0.00000000
-0.10946592 0.28676534 0.04522593
-0.48945214 0.07611747 0.02625762
0.33399515 0.02641802 0.00000651
0.27310993 0.43784540 0.00000080
-0.01277492 0.67047908 0.01307665
0.22103824 -0.13989188 0.00000000
0.52499517 0.15432164 0.00000070
-0.12291357 0.07427131 0.00000000
-0.18606119 0.36782340 -0.00000003
-0.12898237 -0.55038162 0.00000000
0.37510932 0.11593104 0.00000422
0.41810000 -0.54914458 0.00000000
-0.79965289 -0.67923688 -0.00000030
-0.46144524 0.11544145 -0.00000076
0.63008603 -0.25125986 -0.00000083
-0.00758784 0.08887263 0.07880304
-0.00086622 0.16546032 0.00000000
0.21774546 0.16610516 0.00000000
-0.02062653 0.07873020 0.00000000
0.41085817 -0.00825964 -0.00000032
-0.25985841 0.06083992 0.05368637
0.20082203 -0.75124779 0.00000000
0.48670478 0.07910368 -0.00000080
-0.25680489 -0.10613456 0.00000000
-0.51749118 -0.76235575 0.00000000
0.38661077 0.05007583 0.00000510
-0.05619247 0.66516251 -0.00000000
0.56770589 -0.72738482 0.00000000
0.15842938 -0.23179323 0.00000000
0.53644845 -0.07596516 -0.00000074
0.27604708 0.52254017 -0.00000067
0.60501105 0.12367031 -0.00000139
0.18984036 0.00887457 0.00000000
0.15742572 0.28287520 0.00000000
-0.22700533 0.02571246 0.06130082
-0.22692366 -0.44516064 0.00000000
-0.10245066 0.21459391 0.05409558
-0.46250705 -0.71081709 0.00000000
-0.74093553 -0.46701487 -0.00000083
0.31434540 0.35266676 0.00000144
-0.57571901 0.12827005 0.01075281
-0.04776866 -0.64586161 0.00000000
-0.36139260 -0.40595180 0.00000000
-0.52147625 -0.48459819 0.00000000
0.09600071 0.19795791 0.00000000
-0.56462473 0.19972041 -0.00000135
0.07740130 0.65363684 -0.00000007
0.26639906 0.04250912 0.00000000
0.32034504 -0.23913028 0.00000000
0.16768028 -0.13528796 0.00000000
-0.29858401 -0.68785922 0.00000000
0.32927036 0.09223202 0.00000550
-0.07560175 -0.54382481 0.00000000
-0.10416856 0.50631568 0.00000000
-0.25384764 0.40768548 0.01550922
0.62248131 0.14272823 -0.00000149
0.26749128 -0.43722074 0.00000000
-0.00212161 0.67120714 0.01418837
-0.62339572 -0.07384422 -0.00000112
0.07620157 0.50994955 0.00000320
-0.26812943 -0.77081538 0.00000000
-0.41747558 -0.04770796 -0.00000028
-0.07229522 -0.71472212 0.00000000
-0.54015331 -0.10472616 -0.00000071
-0.35502909 0.33367181 -0.00000069
-0.21521934 -0.24942519 0.00000000
-0.56659308 0.20440647 -0.00000137
-0.61492207 -0.57591573 -0.00000019
-0.01186595 0.36921893 0.00000000
0.51283462 0.15127868 0.00000099
0.26680409 -0.71946437 0.00000000
0.44509192 0.28666603 0.00000003
-0.56124753 -0.62094515 0.00000000
0.02016222 0.53538075 0.00000000
-0.27321512 -0.07542329 0.00000000
-0.50934475 0.10715962 -0.00000095
-0.29190489 -0.73271184 0.00000000
-0.07751008 0.24510588 0.00000000
0.46341816 0.10683012 0.00000268
0.07008158 0.30130617 0.00000642
-0.45869478 -0.04388581 -0.00000047
-0.19054290 -0.07682793 0.00000000
-0.56447880 -0.64944423 0.00000000
-0.04450437 0.47749015 0.03113924
-0.28977885 0.33083688 -0.00000041
0.09957028 0.53001594 0.00000255
-0.10928173 0.33153337 0.00000000
0.65851493 -0.50896689 -0.00000050
0.76892383 -0.45878347 -0.00000085
0.06684490 0.37973446 0.00000000
-0.63877916 -0.47542215 -0.00000047
-0.26535729 -0.71300946 0.00000000
-0.00701925 -0.47484598 0.00000000
0.16559454 0.42339883 0.00000311
-0.19456046 0.18302894 0.04731402
0.35687601 -0.07806540 0.00000000
0.13207224 0.24052055 0.00000000
0.21008837 0.31025999 -0.00000003
0.20590099 0.25251493 0.00000511
0.43530416 0.35057795 -0.00000085
0.11850083 -0.06661884 0.00000000
0.70090167 -0.28544444 -0.00000107
0.45328137 0.20963205 -0.00000089
-0.66957410 0.08130017 0.00550088
-0.29615344 0.24958656 0.02847927
-0.61680282 -0.37384535 -0.00000056
0.46616363 0.28364446 -0.00000033
0.62239993 0.06735919 0.00000029
0.02540220 -0.62118554 0.00000000
0.77516987 -0.78665443 -0.00000003
-0.22567703 0.27276970 0.03377685
0.00167945 0.55650238 0.00000000
-0.25095694 0.03564672 0.00000000
0.45298823 -0.74188706 0.00000000
-0.37401028 0.32521134 0.01128735
-0.09745522 0.62016513 0.00922721
-0.09623472 0.40068903 0.03394742
-0.16720891 0.48210560 0.01687807
0.15738188 0.63261397 -0.00000038
0.27556961 -0.74467335 0.00000000
-0.03660560 0.58114410 0.02041376
-0.20606311 -0.71454088 0.00000000
0.35435523 0.30795186 -0.00000064
0.20211815 0.53341423 -0.00000039
0.23433354 -0.12198738 0.00000000
-0.72854024 0.01751604 0.00604040
0.09182206 -0.77123015 0.00000000
-0.38814673 -0.49607482 0.00000000
0.31122230 0.32679598 -0.00000049
0.59582596 -0.61346904 -0.00000004
0.78315544 -0.63470101 -0.00000041
0.07429523 0.01698017 0.00000000
0.11482586 -0.04189040 0.00000000
-0.15359349 0.04071816 0.06784284
-0.50913751 -0.50404292 0.00000000
0.19756800 0.02267962 0.00000868
-0.25561567 -0.41109492 0.00000000
0.26747747 0.25833023 0.00000391
-0.48824621 -0.05801603 -0.00000057
0.75062316 -0.26582693 -0.00000132
0.14551121 -0.78032394 0.00000000
0.31973402 -0.02401465 0.00000000
0.02216633 0.15325132 0.00000937
0.49954174 0.27827058 -0.00000121
-0.42741851 -0.45510523 0.00000000
-0.11932732 -0.74386574 0.00000000
-0.46987141 0.10066830 -0.00000077
0.05092732 0.02789917 0.00001081
-0.01453708 0.08558437 0.00000000
0.26712371 0.05257520 0.00000718
-0.52598069 0.18435119 0.01004248
-0.29470473 0.12587988 -0.00000007
-0.32634671 -0.26564075 0.00000000
-0.12860241 -0.20643074 0.00000000
0.33741894 0.07410966 0.00000565
-0.20753204 -0.29272055 0.00000000
-0.15986646 0.37546388 0.00000000
0.03003447 0.71440331 0.00000083
-0.29871663 0.27873860 0.02492679
0.75455920 -0.45511058 -0.00000086
0.10753022 0.62297918 0.00000089
-0.34463997 -0.62011265 0.00000000
0.46353359 0.12347291 0.00000240
0.03697401 0.32314800 0.00000000
-0.68993595 0.05216419 -0.00000162
-0.25852786 -0.38945031 0.00000000
-0.02181488 -0.70173875 0.00000000
0.22887814 0.17400286 0.00000594
0.34429063 0.35507489 -0.00000068
0.37410956 0.18229063 -0.00000050
-0.76163303 -0.48180676 -0.00000080
0.22027188 -0.61760238 0.00000000
0.28374512 0.11338301 0.00000602
0.34639992 0.14652043 -0.00000032
-0.10495258 0.66634360 0.00321488
-0.67415454 -0.63937058 -0.00000033
0.02759593 -0.31839466 0.00000000
-0.33898476 0.29070956 -0.00000055
0.63165283 -0.77789796 0.00000000
-0.31866117 0.33197252 0.01672991
0.50350143 -0.26573389 -0.00000026
0.25931755 0.49049848 0.00000019
0.01928016 0.31877224 0.00000000
-0.01819352 -0.42898466 0.00000000
0.40421097 0.38011075 -0.00000098
-0.02630102 0.20400463 0.00000000
0.06086400 -0.30909809 0.00000000
-0.63647863 0.13627184 -0.00000154
-0.05365277 0.50179834 0.02739179
-0.21829066 -0.54691254 0.00000000
-0.30250761 0.25521246 -0.00000033
0.19101582 0.37692151 0.00000340
0.38713035 -0.68458591 0.00000000
0.65893767 -0.16369491 -0.00000111
0.33884066 0.01974225 0.00000653
0.40310657 -0.43803759 0.00000000
-0.48361497 -0.51326650 0.00000000
-0.01807094 -0.08622305 0.00000000
-0.48678721 -0.15868943 -0.00000038
0.27405639 0.32687257 0.00000264
-0.30318527 -0.28291045 0.00000000
0.28699096 -0.79041503 0.00000000
0.15609081 0.53792711 0.00000138
-0.40290016 0.22697265 0.01905514
0.27926131 0.11501071 0.00000000
-0.44920493 0.28208715 -0.00000100
0.69241801 -0.61492007 -0.00000045
-0.44524200 0.01256169 0.03832876
-0.51377858 0.04831315 -0.00000086
0.32716113 -0.35656637 0.00000000
-0.60475590 -0.68256913 0.00000000
0.55276314 0.03487713 0.00000217
-0.07374179 0.13533931 0.00000000
-0.09376959 0.40717531 0.03349701
-0.56031758 -0.64318322 0.00000000
0.26762968 -0.36260898 0.00000000
-0.12421284 -0.50734722 0.00000000
0.29603817 0.10975869 -0.00000004
0.10177979 -0.56695331 0.00000000
-0.48590185 0.12167019 -0.00000087
-0.41864980 0.23080715 0.01686145
0.11217985 0.28409853 0.00000000
0.39862589 0.11063328 0.00000386
-0.45005070 0.27842667 -0.00000100
-0.10792089 0.53147279 0.00000000
0.12000334 -0.01006704 0.00000000
0.27566840 -0.11843986 0.00000000
0.29649320 -0.58875096 0.00000000
-0.62788719 -0.20413497 -0.00000090
0.32140926 0.05500354 -0.00000005
0.63372378 -0.06006254 -0.00000118
0.08366539 -0.24503064 0.00000000
0.22830802 0.54895770 -0.00000019
-0.38935702 -0.46963007 0.00000000
0.75162978 -0.51449245 -0.00000071
-0.51702300 0.18260775 0.01124115
-0.33759207 0.29316791 0.01895594
0.36018949 0.24004922 -0.00000055
-0.29311922 0.43851337 -0.00000061
-0.68312063 -0.67202637 -0.00000031
0.06780054 -0.23885678 0.00000000
0.44510117 0.04168573 0.00000412
-0.06907711 0.44410885 0.00000000
-0.29915102 -0.05679746 0.00000000
-0.48937307 0.00202136 -0.00000068
-0.08147879 0.02760638 0.07738898
0.33682982 0.37227644 -0.00000068
-0.31111134 0.32522367 -0.00000049
0.12101592 0.35144193 0.00000000
0.64545329 0.01464281 -0.00000137
0.19005351 -0.04515630 0.00000000
0.18526681 0.06451382 0.00000824
0.59024340 -0.04372632 -0.00000103
0.03730169 0.15079642 0.00000000
0.20457354 0.05689636 0.00000806
-0.29263986 0.33428552 -0.00000043
0.06564873 -0.58638230 0.00000000
0.30670962 -0.06639001 0.00000000
-0.34346187 0.18980742 0.02987601
0.20563537 0.15461541 0.00000658
-0.27595706 -0.28083786 0.00000000
-0.32176494 0.46353148 0.00164612
-0.68707283 -0.57833466 -0.00000050
-0.42545940 0.15495197 -0.00000068
0.25133351 0.33540106 -0.00000025
0.57482087 -0.12071253 -0.00000083
-0.03542949 0.62271018 0.00000000
-0.06203441 0.60460651 0.01493749
-0.52785625 0.01543345 0.02875312
-0.25745807 -0.52474015 0.00000000
-0.13855183 0.40775348 0.02841623
-0.12722509 0.66511497 -0.00000030
-0.41133919 -0.78701641 0.00000000
0.45403123 -0.51377956 0.00000000
-0.41782929 0.11512985 0.02991055
-0.34057708 0.17115263 0.03228870
0.73593717 0.03602815 -0.00000179
-0.27299195 -0.33699435 0.00000000
0.36156609 -0.22728345 0.00000000
0.46534984 -0.71878860 0.00000000
-0.16942692 -0.49627451 0.00000000
-0.34417218 -0.24072180 0.00000000
-0.31116376 0.03989681 0.00000000
-0.30358569 -0.12607105 0.00000000
0.23087091 -0.60825820 0.00000000
-0.36116635 -0.28885765 0.00000000
-0.24490093 0.45164145 -0.00000043
-0.31214282 0.11851175 0.04137012
-0.08351395 0.50807124 0.02334444
-0.47929442 -0.30967344 -0.00000008
0.34402882 -0.18427481 0.00000000
0.46611632 -0.60850570 0.00000000
0.37027268 -0.00481056 -0.00000016
-0.39119951 -0.63323792 0.00000000
0.65239651 -0.78422879 0.00000000
-0.69267670 -0.52131207 -0.00000062
-0.01118613 0.47434865 0.00000000
0.48440649 -0.60565055 0.00000000
0.33976048 0.34944473 -0.00000065
-0.78332896 -0.30918418 -0.00000123
-0.13321117 -0.12717342 0.00000000
0.63157910 -0.72852152 0.00000000
0.04215161 -0.36972349 0.00000000
0.27457866 -0.57913178 0.00000000
-0.57066343 0.19724117 -0.00000137
0.17058092 -0.52587569 0.00000000
-0.16590422 -0.49878717 0.00000000
0.00061826 -0.23097914 0.00000000
-0.50086407 0.20568537 -0.00000109
-0.67558739 -0.39275889 -0.00000077
0.12659987 -0.34229511 0.00000000
0.47407676 0.10755844 0.00000246
0.08321166 -0.37333239 0.00000000
0.26578009 0.14452846 0.00000582
0.05008785 0.02107859 0.00000000
0.05815125 0.42693413 0.00000000
-0.77354968 -0.01420723 -0.00000186
-0.18216694 -0.59427533 0.00000000
0.58104355 -0.34434535 -0.00000046
0.38236253 0.11243326 -0.00000042
-0.22237461 0.18350120 0.00000000
-0.30886706 0.25422916 0.02653514
-0.30874154 -0.71343222 0.00000000
-0.57251725 -0.78106583 0.00000000
-0.16545994 -0.07182228 0.00000000
0.40907944 0.34487573 -0.00000094
-0.44449976 0.22451181 -0.00000088
0.15673930 0.16439438 0.00000000
-0.04894874 0.69170779 0.00664702
-0.68092201 0.09078543 0.00316730
-0.10521122 -0.59227383 0.00000000
-0.06207953 -0.79979900 0.00000000
-0.02359671 -0.22573622 0.00000000
0.12232599 -0.24024113 0.00000000
0.41983093 0.15543827 0.00000270
-0.25385763 0.34799831 -0.00000028
0.72333892 -0.73070087 -0.00000017
0.69922162 -0.26977131 -0.00000109
-0.67907591 -0.25624939 -0.00000103
-0.32880380 -0.17451096 0.00000000
0.22927304 0.38188984 -0.00000024
0.20882457 -0.23030843 0.00000000
0.12103611 0.41580007 0.00000394
-0.21992415 0.54149453 -0.00000048
-0.30780471 0.03080129 0.05168056
-0.02393120 0.26503244 0.05724088
0.43503975 -0.59908149 0.00000000
0.43226842 -0.22954004 -0.00000002
-0.35684688 0.22297103 0.02466199
-0.59874519 -0.44313452 -0.00000036
-0.55273682 -0.20373622 -0.00000058
0.24213641 0.27763226 -0.00000011
0.76501135 -0.18229632 -0.00000153
-0.12963508 0.53219067 0.01547677
0.40311799 0.10737525 -0.00000050
-0.41335084 -0.01436830 -0.00000032
0.06807228 0.53970976 0.00000000
-0.06777894 0.68168119 0.00566087
0.19326544 0.00294793 0.00000000
0.41527781 -0.58618232 0.00000000
0.01329194 0.67197249 0.00000172
0.79591217 -0.61101155 -0.00000047
0.27996909 0.24100371 -0.00000021
0.21118637 -0.50952910 0.00000000
0.26718381 0.21318105 -0.00000010
-0.50119695 0.06978214 0.02565166
-0.30954828 0.47572282 0.00164899
0.04130198 -0.37503137 0.00000000
0.06179859 0.56592923 0.00000000
0.20336293 0.39182126 0.00000291
0.34433454 -0.05777709 0.00000000
0.18313613 -0.01855561 0.00000000
0.64746266 0.15216815 -0.00000161
-0.12919944 0.20726613 0.05192025
0.15402850 -0.61141309 0.00000000
-0.55912370 -0.09472030 -0.00000080
-0.51334328 -0.21706270 -0.00000039
0.41982005 0.37545359 -0.00000104
0.79755483 -0.67893869 -0.00000030
0.18905664 -0.21054676 0.00000000
-0.36465126 -0.09012418 0.00000000
-0.19086965 -0.33078998 0.00000000
-0.23924171 -0.09090800 0.00000000
-0.66898785 -0.60883430 -0.00000036
-0.33356227 0.40711452 -0.00000073
0.41474400 0.19569611 0.00000213
-0.59564153 -0.04363723 -0.00000105
0.00376938 -0.40324372 0.00000000
-0.28125801 -0.65145040 0.00000000
0.03628765 0.18018869 0.00000875
0.50231345 0.04737723 0.00000293
-0.40442254 0.27038079 -0.00000079
-0.07236420 0.17087667 0.00000000
0.58143654 -0.02159876 -0.00000103
0.68633941 -0.32641656 -0.00000094
0.63414863 -0.26554163 -0.00000082
-0.72915845 -0.18302344 -0.00000137
-0.55157664 0.07553019 0.01936457
0.74646001 -0.39412614 -0.00000101
-0.30800739 -0.79931146 0.00000000
0.32488885 0.39986332 0.00000044
-0.43562795 0.19765997 0.01867253
-0.73491484 -0.02642104 -0.00000168
-0.06040614 -0.33479985 0.00000000
-0.24276710 0.21411478 0.03843253
-0.06662053 0.35682772 0.04217736
0.74133289 -0.02726489 -0.00000170
0.03513810 0.25925935 0.00000758
-0.04449963 -0.37504962 0.00000000
-0.55753905 0.18321244 -0.00000129
0.38819359 0.17582595 -0.00000055
-0.52928007 -0.78434719 0.00000000
-0.14466779 0.54399860 0.01247027
0.34823972 0.06371970 -0.00000018
0.13686321 0.05814840 0.00000000
0.14732844 -0.62471143 0.00000000
0.44422888 -0.66256784 0.00000000
0.54546822 0.12940017 -0.00000114
0.66236419 -0.24520065 -0.00000098
0.14870843 0.61634869 -0.00000031
0.43301711 0.32026068 -0.00000030
0.41706314 -0.68403267 0.00000000
0.65931187 0.00252716 -0.00000140
0.79476881 -0.43182453 -0.00000092
-0.11408184 0.42129590 0.02964022
0.41167080 0.08065213 -0.00000049
-0.26301924 0.31752497 -0.00000027
-0.03731811 -0.28788694 0.00000000
-0.03496756 0.74656098 0.00206892
0.18692820 -0.14607266 0.00000000
-0.18243553 0.45076645 0.01868282
0.25280676 -0.34324429 0.00000000
-0.34599939 0.29457718 0.01785635
-0.25839182 0.51962312 0.00246190
0.34270724 -0.23540895 0.00000000
0.43603378 -0.13238937 -0.00000021
0.30598034 -0.28046167 0.00000000
-0.40854541 -0.55037874 0.00000000
0.24715246 -0.04643242 0.00000000
-0.10697987 0.62546422 0.00756676
0.53865666 -0.79121161 0.00000000
-0.36644656 0.15165779 -0.00000042
-0.25424483 0.40533021 0.01572854
-0.74006279 -0.01217959 -0.00000172
-0.58264643 -0.48801186 -0.00000021
-0.12980298 0.17245434 0.00000000
-0.19831423 0.57783299 -0.00000045
-0.16621538 0.38934436 0.00000000
-0.02941244 0.24119625 0.00000000
-0.11896846 -0.44342613 0.00000000
0.33291466 -0.04428719 0.00000000
0.58163830 -0.79433176 0.00000000
0.58245157 -0.51320254 -0.00000016
0.14847263 0.35170433 0.00000448
-0.59965154 -0.50025712 -0.00000026
0.37807596 0.41759503 -0.00000094
0.33414805 0.20005426 -0.00000037
-0.08009941 -0.28786406 0.00000000
-0.04330785 0.47906333 0.00000000
0.21126621 -0.30033858 0.00000000
-0.32799300 -0.17585385 0.00000000
-0.12108402 0.03849793 0.00000000
-0.41083119 0.29509230 0.01053657
0.12336983 -0.55596313 0.00000000
-0.10319792 -0.38772077 0.00000000
0.05421035 0.44188081 0.00000000
-0.61024739 -0.58495950 -0.00000016
-0.06435743 0.49472793 0.00000000
0.04477248 -0.04862966 0.00000000
-0.73809782 -0.73065975 -0.00000017
0.20065365 -0.31504086 0.00000000
0.56377768 0.05331713 0.00000165
-0.45854457 0.26745702 -0.00000102
-0.03663923 -0.09121906 0.00000000
0.56954750 -0.61692527 0.00000000
0.14446724 -0.63924725 0.00000000
-0.32222468 -0.20909685 0.00000000
-0.61480417 -0.01159613 -0.00000119
-0.58265236 -0.63243315 0.00000000
0.58571449 -0.62068028 0.00000000
-0.00217122 0.55469627 0.02723313
0.41683517 -0.50506830 0.00000000
-0.00286439 -0.33183721 0.00000000
0.23545747 0.19072108 0.00000000
0.66732320 -0.38420175 -0.00000075
-0.19002500 0.28182822 0.00000000
0.56769656 -0.15932625 -0.00000073
0.05004476 -0.12550012 0.00000000
-0.73665460 -0.37640340 -0.00000106
-0.22331227 -0.74154275 0.00000000
0.01005595 0.39055186 0.00000000
0.08267148 0.68253698 -0.00000015
0.68136999 -0.53184356 -0.00000055
0.19730586 0.49369072 0.00000133
0.18170784 0.44137279 0.00000250
-0.14823281 -0.11104309 0.00000000
0.51768163 -0.77260303 0.00000000
0.20745819 0.57231142 -0.00000018
-0.33472589 0.01018770 0.05097404
0.07933732 0.02724466 0.00001039
0.19180683 0.18765175 0.00000000
-0.15778621 -0.32969602 0.00000000
-0.56932083 -0.52469863 -0.00000009
0.04577111 0.04242367 0.00001067
0.75840526 -0.74972320 -0.00000013
0.24826724 -0.57921985 0.00000000
0.55033404 0.05031370 -0.00000102
0.02198315 0.22960065 0.00000822
-0.08506275 0.53153825 0.00000000
0.76074891 0.03584430 -0.00000184
-0.37420946 -0.01821214 -0.00000015
-0.76234703 -0.77366521 -0.00000007
-0.77173380 -0.38049987 -0.00000105
0.32806352 0.22536823 0.00000330
-0.55661865 -0.07644511 -0.00000083
0.28210011 -0.27698533 0.00000000
-0.47136449 0.32106250 0.00084702
0.28407076 -0.28531305 0.00000000
0.26952528 -0.62521000 0.00000000
-0.37456164 -0.17475886 0.00000000
-0.64193453 -0.39326011 -0.00000063
-0.46929626 0.06813952 -0.00000071
0.63456116 0.02732556 -0.00000134
0.50983966 0.23204911 -0.00000030
0.39389897 -0.35489412 0.00000000
-0.02848128 -0.38177753 0.00000000
-0.60465419 -0.10269564 -0.00000098
-0.17229328 0.22000639 0.04566632
0.15305244 0.57663378 -0.00000026
0.07519685 -0.79789366 0.00000000
0.12305783 -0.47178984 0.00000000
-0.62018667 -0.68566815 -0.00000002
-0.16441273 0.04225565 0.00000000
0.79174406 -0.61600217 -0.00000046
0.12890098 0.28657599 0.00000000
-0.39161041 -0.42277687 0.00000000
-0.44250120 0.24136835 -0.00000090
-0.01468563 -0.41454047 0.00000000
0.16149582 -0.05630045 0.00000000
0.03942992 0.08770697 0.00000000
0.30140672 0.01848330 0.00000717
-0.31755216 -0.73793972 0.00000000
0.39018556 0.06645082 -0.00000037
0.23666153 0.17681582 0.00000000
0.11244155 0.50048421 0.00000280
0.23126041 -0.34012024 0.00000000
-0.29238318 0.23465324 0.03057430
-0.34206460 0.01643542 0.04945219
0.01232800 -0.11026278 0.00000000
0.09239113 0.04708719 0.00000990
-0.50804891 0.25313138 0.00434691
0.11088270 0.66408007 0.00000014
0.28112055 0.00154906 0.00000773
0.19156839 0.38159134 0.00000331
0.32673897 -0.44692704 0.00000000
0.48149365 -0.26256782 -0.00000018
0.68634618 -0.64169277 -0.00000038
0.38986648 0.10610901 -0.00000044
-0.46626997 0.22127261 -0.00000097
0.14301816 0.48214069 0.00000256
0.07081522 -0.24404774 0.00000000
0.20165779 -0.38857131 0.00000000
0.01545464 0.64797204 0.00000205
-0.16957826 -0.01818610 0.00000000
0.09884683 -0.67267190 0.00000000
-0.15615249 0.56806560 0.00848804
0.37340624 -0.71989782 0.00000000
-0.70409670 -0.31026598 -0.00000104
0.37619040 0.15884704 -0.00000047
-0.58621918 -0.24474333 -0.00000065
-0.04814596 0.23715900 0.00000000
0.12346537 -0.33754777 0.00000000
0.31165043 0.11649002 -0.00000012
-0.04902128 -0.31031833 0.00000000
-0.12778455 -0.70738583 0.00000000
-0.52881226 0.21022658 0.00682696
-0.20482173 -0.68444185 0.00000000
-0.04656602 -0.01983549 0.00000000
-0.45632181 0.32202605 0.00242409
0.17186739 -0.73383614 0.00000000
0.18850261 -0.10987275 0.00000000
-0.25348286 0.14812628 0.04462360
0.03664603 0.65560193 0.00000000
0.19786517 0.56094929 -0.00000042
0.46067092 0.30135901 -0.00000052
-0.10347526 0.17357868 0.05857491
0.02109872 -0.00074313 0.00000000
0.01708282 0.07241718 0.00000000
0.38602994 0.07167592 -0.00000036
0.63187162 -0.62956276 -0.00000017
-0.45531796 -0.49796245 0.00000000
0.75497143 -0.60409499 -0.00000049
-0.04968602 -0.04438911 0.00000000
0.05448883 -0.54612677 0.00000000
0.46369588 -0.31992076 0.00000000
-0.01568130 -0.57709293 0.00000000
0.44860121 -0.51572267 0.00000000
-0.20518059 -0.64573044 0.00000000
0.22034013 0.00951852 0.00000853
-0.10649598 0.25787901 0.00000000
-0.05472859 -0.64053306 0.00000000
0.58256277 -0.71504758 0.00000000
-0.28985754 -0.17974306 0.00000000
0.12651608 0.31019456 0.00000544
0.46163336 -0.66674479 0.00000000
0.50764772 -0.43549346 0.00000000
-0.69271235 -0.15539623 -0.00000127
-0.74472397 0.04396821 0.00126464
0.16205313 0.12095958 0.00000000
0.40789891 -0.21668116 0.00000000
0.48402588 0.26539230 -0.00000037
0.34482947 -0.29829549 0.00000000
-0.20150349 -0.41369377 0.00000000
0.62405972 0.06883039 -0.00000137
0.28690790 -0.09708533 0.00000000
-0.47102419 -0.65275042 0.00000000
-0.13106151 -0.55488009 0.00000000
0.75075211 -0.58844979 -0.00000053
0.55306171 -0.26275198 -0.00000048
0.65478959 -0.34547058 -0.00000077
0.25593424 -0.57112281 0.00000000
-0.30942847 -0.22564108 0.00000000
-0.29557591 0.31969004 -0.00000041
0.39128137 -0.09390898 -0.00000009
0.65428127 0.03997134 -0.00000145
-0.41694825 0.12316763 -0.00000058
-0.24994488 -0.32297144 0.00000000
0.05387571 -0.31011439 0.00000000
-0.41255808 0.26819437 -0.00000082
-0.16830578 0.56229078 -0.00000030
0.54556117 -0.41431704 -0.00000018
-0.15032286 0.53553581 0.01278475
-0.20147458 0.46033453 -0.00000026
-0.19971332 0.12605168 0.05311884
0.15486563 -0.10137254 0.00000000
0.52982989 0.00977392 0.00000303
-0.13429749 0.30846072 0.04001448
-0.15792488 -0.69344787 0.00000000
-0.00785913 -0.56126326 0.00000000
0.09267710 -0.42138437 0.00000000
0.25226287 0.04470881 0.00000000
0.34887443 -0.26591508 0.00000000
0.25898104 0.28919493 -0.00000020
0.73634718 -0.07266308 -0.00000160
-0.71456549 -0.75772640 -0.00000011
-0.57742027 0.03927884 0.02053029
0.40771438 0.28886778 -0.00000084
0.79521576 -0.63470868 -0.00000041
-0.67998166 0.09206077 0.00312978
0.48387013 0.00743273 -0.00000066
-0.26514388 0.33350278 0.02255320
0.16206206 -0.08341080 0.00000000
0.44246368 -0.67141280 0.00000000
0.40840809 -0.25211886 0.00000000
0.53102218 -0.51330101 0.00000000
0.13574071 0.62995057 -0.00000028
-0.04189475 0.25432402 0.00000000
0.23990146 0.53753970 -0.00000056
0.12069241 0.30447380 0.00000561
0.10495700 0.56191365 0.00000196
0.01390188 0.58708425 0.00000298
0.21236324 0.07927611 0.00000000
0.39723597 -0.56472192 0.00000000
0.64717062 -0.08193747 -0.00000120
0.36542631 -0.74804551 0.00000000
0.05244156 0.36833957 0.00000568
-0.04173237 0.68571690 0.00812638
0.33950960 -0.73369319 0.00000000
0.53869804 0.18614922 -0.00000009
-0.01103310 -0.76072860 0.00000000
-0.41201649 0.02448980 0.04071440
0.27514504 -0.45852796 0.00000000
0.63898760 -0.43434625 -0.00000055
-0.13156909 -0.75020604 0.00000000
0.53128740 0.05402583 -0.00000095
-0.66648730 -0.24508933 -0.00000100
-0.61355974 -0.42714286 -0.00000045
0.56015435 -0.15308663 -0.00000071
0.18863485 0.16112391 0.00000000
-0.60053473 -0.31193121 -0.00000060
0.36766296 0.13877104 -0.00000040
-0.74383191 0.00562568 -0.00000177
0.09563109 0.40122467 0.00000000
0.41867117 -0.42962042 0.00000000
-0.41818481 0.14312074 0.02673543
0.77016262 0.00634752 -0.00000188
0.60093065 -0.02424534 -0.00000111
-0.47515614 -0.51886457 0.00000000
-0.55021603 -0.05953211 -0.00000083
0.55728290 -0.53700070 -0.00000001
0.09487000 0.44128656 0.00000395
-0.63129597 0.03593935 0.01486951
0.46721306 -0.42369399 0.00000000
-0.56560409 -0.15336875 -0.00000073
0.09518993 0.70244467 -0.00000023
0.02830049 0.06091596 0.00001066
-0.22042779 0.48766335 0.01029427
0.45615173 0.29685345 -0.00000106
-0.38800386 0.25305083 -0.00000069
-0.34707734 -0.77664507 0.00000000
0.19075527 -0.27782049 0.00000000
-0.51811940 -0.32805606 -0.00000022
-0.09089513 0.11461301 0.00000000
-0.41287918 -0.75586100 0.00000000
0.04222024 0.31368493 0.00000666
-0.06693675 -0.76720063 0.00000000
0.06473154 0.73115554 -0.00000009
-0.06096693 0.11458651 0.00000000
0.27736153 0.01026071 0.00000000
-0.25103188 -0.08705392 0.00000000
0.07813959 0.08897378 0.00000000
0.60789278 -0.00040366 -0.00000118
0.09207537 0.25611153 0.00000000
0.02569308 0.70024618 0.00000000
0.24569866 0.32940177 -0.00000022
-0.42803144 -0.20235380 -0.00000005
-0.53292667 -0.20052842 -0.00000051
-0.72892623 -0.12248900 -0.00000148
0.76572847 -0.11518404 -0.00000165
-0.58014592 0.20788208 -0.00000143
0.32222792 0.32089419 0.00000182
0.25611682 -0.41582870 0.00000000
0.22968810 -0.67257049 0.00000000
-0.29376924 0.37124901 0.01511874
0.21669666 0.22124164 0.00000541
0.07716102 0.51173608 0.00000000
0.26754634 -0.19337565 0.00000000
-0.31205192 0.00192346 0.00000000
-0.02518551 0.16213821 0.06862551
0.56426917 -0.36214758 -0.00000035
-0.07014564 0.52099098 0.00000000
0.13165654 -0.28494788 0.00000000
0.29667696 -0.47528506 0.00000000
0.16339115 0.38216901 0.00000380
0.27874515 0.01823452 0.00000752
-0.12018823 0.10399297 0.06449715
-0.37160455 -0.11925985 0.00000000
-0.15841656 0.12842710 0.00000000
0.28099492 -0.32674720 0.00000000
-0.71549983 -0.15870073 -0.00000136
-0.04957665 -0.59091177 0.00000000
-0.29904674 0.21147691 0.03242390
-0.04943515 0.48967543 0.00000000
0.58417083 -0.29477224 -0.00000056
-0.02500250 0.72394515 0.00000000
-0.29474131 0.19414176 0.03484791
0.47951690 -0.17462687 -0.00000032
0.07499280 -0.16351954 0.00000000
0.57650855 0.20365422 -0.00000111
0.11777303 -0.02056880 0.00000000
0.48005667 0.06837296 0.00000300
0.12715961 -0.11497637 0.00000000
0.67328734 0.03018066 -0.00000151
0.34972069 0.09633052 0.00000504
-0.35205577 0.32071909 -0.00000066
0.37575093 0.07120758 0.00000496
-0.07407760 0.47413422 0.00000000
-0.57325687 -0.26754691 -0.00000056
-0.20579521 0.11984147 0.00000000
-0.16246382 0.15534324 0.00000000
-0.08503588 0.04114148 0.00000000
0.16232850 0.12201558 0.00000000
0.69349147 0.00175571 0.00000002
-0.78552848 -0.12232268 -0.00000169
-0.15857263 0.43880683 -0.00000004
0.00106206 -0.38199583 0.00000000
-0.06575260 -0.51551768 0.00000000
0.37487032 -0.50970444 0.00000000
0.27909779 -0.72248639 0.00000000
-0.78520245 -0.41740662 -0.00000096
0.20940788 0.31937758 -0.00000004
0.31419660 0.31182954 -0.00000048
0.18117640 -0.08077292 0.00000000
-0.06503446 0.35067738 0.00000000
0.25684363 0.16568271 0.00000000
0.65181622 -0.78481143 0.00000000
-0.34119588 -0.02476965 0.00000000
0.07241986 -0.26455494 0.00000000
0.79225127 -0.13165536 -0.00000167
0.79807859 -0.58125476 -0.00000055
-0.23753720 -0.71175832 0.00000000
0.44515832 -0.61247898 0.00000000
-0.48056460 0.27392016 -0.00000112
0.25854979 -0.02329743 0.00000000
0.43761451 0.22009804 -0.00000084
0.14394077 0.49868294 -0.00000008
0.01313886 -0.48390843 0.00000000
0.22057726 0.33307383 0.00000356
-0.18128635 0.46894907 0.01677488
0.70470411 0.02756560 -0.00000063
0.15844331 0.13649204 0.00000756
-0.57266740 -0.45365187 -0.00000023
0.01761477 0.64155982 0.00000000
-0.18324807 -0.18584349 0.00000000
0.36344732 0.41706732 -0.00000087
0.17844330 0.02693221 0.00000890
-0.20629734 -0.02685925 0.00000000
0.16998972 -0.38022190 0.00000000
