ply
format ascii 1.0
element vertex 1380
property float x
property float y
property float z
end_header
-0.55422771 0.08002701 0.00000138
-0.11307322 -0.23496481 0.00000000
-0.25012914 -0.26598139 0.11399513
-0.07859167 -0.60249327 0.00000000
-0.28637126 -0.18081760 0.13051230
-0.10616237 0.05081461 0.00000964
-0.17601226 -0.37575145 0.00000000
-0.33057538 -0.61821086 0.00000000
-0.00323509 0.59752457 0.00147438
-0.50212571 -0.04349337 0.22884234
-0.49868326 0.27437136 -0.00000080
-0.69694619 -0.54190550 -0.00000060
-0.11975361 0.66151182 0.05457737
-0.37344929 0.40429481 -0.00000089
-0.05366688 0.16799363 0.00000000
-0.18004486 -0.01057465 0.08205457
-0.69958913 -0.04237456 0.31883641
-0.07365774 -0.19070651 0.00000000
-0.12532638 -0.32565877 0.00000000
-0.60933070 -0.55889635 0.27770002
-0.53282520 -0.68680208 0.24283248
-0.52728239 0.13748642 -0.00000108
-0.32984452 -0.15136602 0.15032503
-0.47610060 -0.31178396 -0.00000007
-0.34380119 -0.75321244 0.00000000
-0.20152642 0.21051688 0.09183836
-0.07175437 0.66789028 0.00000083
-0.20398461 0.05433089 0.00000000
-0.00505233 0.68103752 0.00230257
-0.42204523 0.24499403 0.19234464
-0.39002988 -0.33426668 0.17775421
-0.09177784 -0.26563070 0.00000000
-0.12927659 0.08397194 0.05891717
-0.01506013 0.71480662 0.00000105
-0.36301431 0.21843768 0.16543962
-0.52030499 -0.00920557 -0.00000079
-0.30045271 -0.22831472 0.00000000
-0.29555709 -0.01159040 0.00000000
-0.52557386 -0.00570416 -0.00000082
-0.56129391 -0.55315457 -0.00000000
-0.65594018 -0.71360086 -0.00000012
-0.13945201 0.20033939 0.00000689
-0.54410832 -0.63078130 0.24797473
-0.19933794 -0.27355908 0.00000000
-0.18331235 -0.63687829 0.08354371
-0.34414242 0.15735335 0.15684178
-0.08708104 0.14490074 0.00000000
-0.01387478 0.11659552 0.00000000
-0.68921065 0.01841161 0.31410654
-0.04677759 0.67486649 0.02131739
-0.14925938 -0.12814920 0.06802423
-0.15185728 -0.38863794 0.00000000
-0.02522887 -0.79286383 0.00000000
-0.06910796 0.57949256 0.00000226
-0.16263304 -0.12323110 0.07411921
-0.21011102 -0.29395742 0.09575707
-0.22285997 -0.23934770 0.10156734
-0.27405679 0.42423451 -0.00000051
-0.31930556 0.02044056 0.14552209
-0.70111676 -0.20285552 -0.00000122
-0.07330162 0.19574197 0.00000796
-0.47635595 -0.27224518 0.21709729
-0.40171558 -0.78293667 0.18307991
-0.35953596 0.01683572 0.16385711
-0.29217338 0.22173648 0.13315699
-0.53145147 0.05584201 -0.00000095
-0.70813268 -0.50855051 0.32272879
-0.52499763 0.24009553 -0.00000125
-0.63478370 0.03606174 0.28930146
-0.20952672 0.27455616 0.09549084
-0.17586457 0.38544492 0.08014570
-0.20521646 -0.64108800 0.09352640
-0.67224280 -0.22720628 -0.00000105
-0.21063185 0.27892518 0.09599451
-0.16516038 0.53404563 0.07526993
-0.12742028 0.11462507 0.05806198
-0.71956446 -0.20809716 0.32793968
-0.32978837 -0.45591452 0.00000000
-0.32435150 0.33857776 0.00000148
-0.25162013 -0.42111756 0.00000000
-0.17715423 -0.05616972 0.08073718
-0.45830239 0.00281679 0.20886486
-0.21585418 0.23432569 0.09836882
-0.39922837 -0.51309687 0.00000000
-0.24859642 -0.58784372 0.11329660
-0.13275553 0.41980803 0.06050268
-0.15886879 0.61893069 -0.00000003
-0.09708046 0.44644732 0.00000000
-0.47551941 0.12439672 0.00000215
-0.36940807 0.27941597 0.16835488
-0.27128526 0.27378081 0.00000358
-0.07101882 0.42917430 0.03236648
-0.27722703 0.38236388 0.00000165
-0.52363608 -0.51923859 0.00000000
-0.64024885 -0.25663351 0.29179160
-0.26958382 -0.07681055 0.12286151
-0.27450329 -0.52512390 0.00000000
-0.25376190 0.38159407 -0.00000034
-0.26025966 0.35529415 0.11860983
-0.13520751 0.25322035 0.00000000
-0.55333766 -0.01545568 -0.00000092
-0.25406255 -0.40758036 0.11578776
-0.77906127 -0.29674647 -0.00000126
-0.34825590 0.04370594 0.15870981
-0.28401058 0.44471748 0.12943725
-0.61039007 -0.61577782 0.27818271
-0.42246752 0.37297693 -0.00000098
-0.25267484 -0.06032074 0.11515532
-0.50462930 -0.28975903 -0.00000023
-0.43199633 0.03567920 0.00000447
-0.30047117 0.34083618 0.13693896
-0.00456402 0.34369959 0.00000000
-0.37426125 -0.10287463 -0.00000000
-0.36526963 0.03190216 -0.00000020
-0.22821913 0.09480938 0.00000713
-0.70574379 -0.55178290 0.32163993
-0.00800249 -0.71606023 0.00364710
-0.55730981 0.12364230 0.25399177
-0.48342966 -0.54397884 0.22032071
-0.66516122 -0.31427226 0.30314531
-0.02795354 -0.57573716 0.00000000
-0.00972557 0.36266836 0.00442529
-0.09083964 0.38063176 0.00000492
-0.08604189 -0.45521959 0.03921317
-0.42765522 0.19929543 0.19490287
-0.15232955 0.33713318 0.06941838
-0.05268093 -0.53189631 0.02400908
-0.08978820 -0.22251743 0.04092053
-0.37754508 0.11899220 0.00000413
-0.49031658 -0.73106118 0.22345938
-0.51237104 0.24793250 -0.00000062
-0.66919147 -0.30789875 -0.00000090
-0.11472724 0.35796922 0.00000000
-0.10442174 -0.17167457 0.00000000
-0.27159604 0.50760497 -0.00000064
-0.67093158 -0.13593266 0.30577552
-0.34023847 -0.59391314 0.00000000
-0.26036723 0.21505582 0.00000477
-0.58495681 -0.63239371 0.00000000
-0.18562600 0.36688698 -0.00000003
-0.60749421 0.11938788 -0.00000139
-0.45275702 -0.35680286 0.20634189
-0.17167544 -0.69449072 0.00000000
-0.38403778 0.33943328 0.17502449
-0.20915858 0.42048954 0.00000232
-0.34117629 0.01113938 0.00000663
-0.28101704 -0.06831629 0.00000000
-0.66496627 -0.64761523 -0.00000028
-0.32827671 -0.05432449 0.00000000
-0.39404324 0.03734233 0.17957816
-0.75500701 0.04453800 -0.00000189
-0.42112906 0.01169797 0.00000508
-0.59790641 -0.34515152 0.27249383
-0.37919255 -0.54932101 0.00000000
-0.21442321 0.16660348 0.09771550
-0.00289685 0.78094310 0.00000000
-0.29829224 -0.22098681 0.00000000
-0.60600914 -0.29063033 -0.00000066
-0.59111163 -0.13232657 0.26939754
-0.14503918 0.24394586 0.06609416
-0.34647964 0.14455842 0.15790694
-0.38189343 -0.73357100 0.17404606
-0.20678759 -0.39682066 0.00000000
-0.20913578 0.20509212 0.00000000
-0.39509191 -0.56279826 0.00000000
-0.56988962 -0.71048112 0.25972441
-0.32754326 0.34833343 0.14927551
-0.15190928 -0.16590611 0.06923191
-0.28318097 0.27024323 0.12905502
-0.28172201 0.08902436 0.12839350
-0.26796006 -0.24806296 0.00000000
-0.10353289 0.54837547 0.04718466
-0.15807799 0.47515819 0.07204085
-0.10061954 0.43858682 0.00000390
-0.32670863 0.45325875 -0.00000078
-0.30838985 -0.64720003 0.00000000
-0.21074751 -0.38149327 0.00000000
-0.03860599 0.12136767 0.00000000
-0.25612704 0.06587803 0.00000000
-0.17092468 0.24452554 0.07789180
-0.17065877 -0.14643928 0.07777690
-0.62003137 0.13179134 -0.00000075
-0.48173062 -0.39668473 0.00000000
-0.53801259 -0.19434052 0.24519750
-0.37546470 0.28300640 -0.00000069
-0.65171086 -0.03726731 0.29701587
-0.66159207 -0.05211432 -0.00000132
-0.50854365 0.28477825 -0.00000116
-0.16664160 0.62591708 -0.00000040
-0.67957138 -0.32563369 0.30971271
-0.24554145 -0.14537179 0.00000000
-0.47285907 -0.71486081 0.00000000
-0.30313786 0.00227033 0.00000000
-0.09880398 -0.08376807 0.00000000
-0.46862239 0.06078583 0.21356953
-0.34995502 0.40490933 -0.00000012
-0.74395626 -0.63097312 -0.00000042
-0.52382046 0.25957732 -0.00000128
-0.19105749 0.39828040 0.08707373
-0.34542494 0.08072511 -0.00000020
-0.48628850 -0.60355758 0.22162361
-0.01228491 -0.51819200 0.00000000
-0.44934545 0.34462739 -0.00000102
-0.72186953 -0.31265783 0.32898988
-0.04278553 -0.54297229 0.00000000
-0.20857566 -0.21131955 0.09505734
-0.17565743 0.55561563 0.08005547
-0.16236769 -0.05561011 0.07399828
-0.45182450 0.33985274 -0.00000099
-0.68355557 -0.38377097 -0.00000082
-0.37175674 0.08253439 0.16942687
-0.66160014 -0.50525831 -0.00000052
-0.45774867 0.17116282 0.20861575
-0.26672638 -0.06139752 0.12155924
-0.67920356 0.11631632 -0.00000169
-0.03209141 0.72825776 -0.00000001
-0.36528139 -0.05096596 0.16647545
-0.71281478 -0.71091052 0.32486201
-0.56970949 0.21173256 -0.00000139
-0.32710742 0.38946951 0.00000058
-0.64122178 -0.14810699 0.29223524
-0.39511830 -0.25420830 0.18007324
-0.31545646 -0.55605819 0.00000000
-0.31711465 0.14569880 0.14452384
-0.11213576 -0.26606635 0.05110533
-0.00280541 -0.34804417 0.00127855
-0.03560629 0.56524081 0.00000000
-0.14278600 0.28235825 0.00000000
-0.21893518 0.54329756 -0.00000048
-0.43067783 0.03796086 -0.00000049
-0.55511560 0.06662681 0.25299274
-0.40956232 -0.66941118 0.18665603
-0.37571309 -0.65122914 0.17122940
-0.27550754 0.45588717 -0.00000057
-0.78189780 -0.69129110 -0.00000027
-0.02242361 0.23740185 0.01021050
-0.56391730 0.17386560 0.25700434
-0.52412482 -0.69618945 0.00000000
-0.39487152 -0.56538116 0.00000000
-0.29352264 0.32917052 -0.00000042
-0.42825861 -0.16963355 -0.00000011
-0.02630968 0.51388557 0.00000000
-0.37705922 -0.06293512 -0.00000008
-0.08487204 0.17740986 0.00000806
-0.72403609 0.04386818 -0.00000175
-0.60743453 -0.66946749 0.00000000
-0.46220533 -0.55890534 0.21064782
-0.59563919 -0.73535321 0.00000000
-0.23121526 -0.52448690 0.00000000
-0.45210704 -0.15962746 0.20604607
-0.08265946 0.59795885 0.03767168
-0.50961937 -0.06786022 -0.00000064
-0.38495701 -0.48144919 0.17544227
-0.23973901 0.49505194 0.10926056
-0.66661723 -0.46098412 0.30380852
-0.00601666 0.78615077 0.00274207
-0.27135272 -0.67049098 0.12366767
-0.25137574 0.07146315 0.11455549
-0.17677594 0.23612943 0.08056477
-0.05947302 0.44004781 0.00000000
-0.53216342 -0.30961320 -0.00000031
-0.27922008 -0.51540411 0.00000000
-0.02720303 0.41086144 0.01239166
-0.66701713 -0.68843111 -0.00000022
-0.06644328 -0.39330516 0.00000000
-0.07040370 -0.13933649 0.00000000
-0.33692515 -0.72042675 0.15355199
-0.32852890 -0.33713097 0.14972544
-0.41846183 0.03048494 0.00000482
-0.07447527 0.09757466 0.00000941
-0.47800434 0.02177134 -0.00000066
-0.03351762 0.48980853 0.01527549
-0.58812948 -0.25548770 -0.00000064
-0.01141522 0.19997678 0.00000000
-0.04425111 0.21865332 0.00000805
-0.20604690 0.27787563 0.09390492
-0.40440295 0.08247470 0.18430540
-0.66759052 -0.49342658 -0.00000056
-0.53027447 0.15341248 0.00000062
-0.30179479 -0.13085866 0.13754150
-0.53326613 -0.77428646 0.24303343
-0.04425774 0.48497484 0.02016578
-0.08840305 -0.21273391 0.00000000
-0.50670282 -0.29593490 0.23092784
-0.31587456 -0.38399232 0.14395829
-0.13142400 0.09937146 0.00000000
-0.05217212 -0.44678432 0.00000000
-0.62450277 -0.04444031 -0.00000117
-0.59267049 0.13739226 0.27010835
-0.52673553 0.21645671 0.24005874
-0.55262726 -0.25414280 -0.00000050
-0.05640125 0.03603513 0.02570459
-0.07295320 -0.44804141 0.03324806
-0.70409058 -0.78266712 0.32088579
-0.33352018 -0.73350857 0.15200019
-0.12273178 -0.15272548 0.00000000
-0.13601540 -0.25330456 0.00000000
-0.09466378 0.40474117 0.00000000
-0.07098134 0.45533351 0.03234490
-0.49441711 -0.61862425 0.22532818
-0.16202360 0.49378148 -0.00000015
-0.34360938 0.36551310 -0.00000070
-0.29376963 -0.44647783 0.13388407
-0.17700666 0.44691103 0.08067016
-0.51277939 0.13598256 -0.00000101
-0.56606208 0.08343755 0.00000110
-0.10805878 0.33942018 0.00000528
-0.19971469 -0.19214682 0.00000000
-0.65893048 -0.41388641 -0.00000067
-0.36104234 -0.67025668 0.16454328
-0.36416337 0.19950522 -0.00000049
-0.61280449 -0.43321733 -0.00000044
-0.38969359 -0.48460506 0.00000000
-0.19721866 0.29938778 0.00000453
-0.57633634 0.12116064 0.00000027
-0.13076397 -0.13926714 0.05959504
-0.17479817 0.14726304 0.00000000
-0.59204700 0.12418723 -0.00000008
-0.71166840 -0.26202061 0.32434093
-0.66483016 -0.65317033 -0.00000027
-0.11521690 0.37234086 0.00000468
-0.04009371 0.49024562 0.00000404
-0.31938282 0.38310577 -0.00000063
-0.17617347 -0.09873085 0.08029020
-0.22604998 -0.34303015 0.10302117
-0.06500531 0.05239657 0.00001023
-0.55327104 -0.52126528 -0.00000003
-0.11756868 0.13070236 0.05358135
-0.60701861 -0.26869542 0.27664688
-0.57097582 -0.54380801 0.26021979
-0.62689597 0.15084409 -0.00000153
-0.19900726 -0.69595351 0.00000000
-0.69391456 -0.51717140 -0.00000063
-0.10786090 0.26226971 0.04915000
-0.05918840 -0.19796206 0.02697483
-0.47501393 -0.22395895 0.21648576
-0.61851434 -0.28627207 -0.00000072
-0.32685258 -0.71071043 0.14896147
-0.31151433 -0.52131381 0.14197113
-0.40420922 0.06808033 0.18421707
-0.09360191 -0.77565718 0.00000000
-0.48715734 0.12770016 0.22201849
-0.00595314 -0.64906617 0.00271311
-0.07866689 0.02451050 0.00001045
-0.72624617 -0.15298317 -0.00000141
-0.48107930 -0.28991937 -0.00000013
-0.66867659 -0.61843541 0.30474657
-0.40974447 0.36086521 -0.00000097
-0.39173456 -0.00841576 0.17853159
-0.70562362 -0.36982933 0.32158573
-0.40024901 0.02827649 0.18241212
-0.37216393 0.09302648 -0.00000034
-0.79564641 -0.24789414 -0.00000138
-0.45100014 -0.56404783 0.20554111
-0.54823803 -0.30113108 0.24985753
-0.07979544 0.10011131 0.03635614
-0.57120879 0.16646309 -0.00000039
-0.14739735 0.55905115 0.06717593
-0.16165037 0.20479854 0.07367137
-0.26425591 -0.03327120 0.12043334
-0.51530632 -0.36471641 -0.00000014
-0.32643432 0.09428303 0.14877117
-0.48610482 -0.15026999 0.22154059
-0.24009853 0.30023409 -0.00000014
-0.10577402 0.42647090 0.00000401
-0.05127840 -0.60818648 0.02336988
-0.26270407 -0.28036336 0.00000000
-0.69874155 -0.61039066 -0.00000047
-0.08763763 0.46169466 0.00000375
-0.68732054 -0.28267519 -0.00000102
-0.20109102 0.34192832 -0.00000005
-0.76804923 -0.44970872 -0.00000088
-0.08438277 0.17220272 0.03844806
-0.03335437 0.71934259 0.00000071
-0.11416293 -0.04613570 0.00000000
-0.16520308 -0.55790433 0.00000000
-0.21056758 0.11378152 0.09595737
-0.40351284 -0.61898815 0.18389900
-0.48102678 0.17529868 -0.00000095
-0.03581390 0.59843958 0.01631928
-0.44611150 0.21659635 0.20331276
-0.45886549 -0.26924677 0.20912601
-0.64562486 -0.14636792 -0.00000108
-0.15903640 -0.08032430 0.00000000
-0.48084322 0.10996344 -0.00000083
-0.45464577 -0.26148918 0.20720288
-0.60562113 -0.42251598 -0.00000042
-0.07507182 0.31817910 0.00000609
-0.09364816 0.56780967 0.00000000
-0.12077086 0.03011378 0.00000973
-0.06204805 0.35315524 0.00000000
-0.48884378 0.29673290 -0.00000098
-0.14309131 0.02056925 0.00000953
-0.21654549 0.46563170 0.09869004
-0.17418501 -0.16165714 0.07938397
-0.42949142 -0.65387721 0.00000000
-0.58633490 -0.05490687 -0.00000099
-0.36012022 -0.71211263 0.00000000
-0.13662991 0.41763258 0.00000367
-0.37092161 -0.55391463 0.00000000
-0.39097143 -0.57888433 0.17818332
-0.16843900 0.44336675 -0.00000009
-0.43618194 0.11458949 0.00000307
-0.34530159 -0.07221150 0.15736960
-0.12321490 0.10930278 0.05614524
-0.32003214 0.21144748 0.00000369
-0.59026077 -0.79229605 0.00000000
-0.51418048 -0.13994848 -0.00000053
-0.21028288 -0.66957109 0.09583540
-0.21198224 -0.36980901 0.09660987
-0.27855630 0.01768767 0.00000753
-0.65329443 0.09991461 -0.00000155
-0.53214980 0.23208960 -0.00000127
-0.25241672 -0.49138247 0.00000000
-0.39491346 -0.12800806 0.17998012
-0.21768455 -0.36436359 0.00000000
-0.38840084 -0.54217160 0.17701178
-0.02184428 0.55452896 0.00995173
-0.33957521 -0.56537306 0.15475974
-0.51915565 -0.73183298 0.23660265
-0.07530948 0.68677858 0.00000045
-0.47951629 -0.14903212 0.21853787
-0.17233299 0.03815615 0.07853023
-0.52983625 0.05974717 0.00000219
-0.68276860 -0.45315698 0.31116943
-0.32347956 0.32454651 -0.00000054
-0.36286111 0.06261876 0.16537264
-0.21101453 -0.66332596 0.09616884
-0.39026958 0.01863291 0.00000556
-0.14466436 0.14517445 0.06592169
-0.23306312 0.23449156 0.00000000
-0.54751999 -0.18187450 0.24953052
-0.55404235 0.17451537 0.25250383
-0.32586188 -0.61337817 0.14850996
-0.00590838 0.61551804 0.00268976
-0.35635592 0.29088180 0.16240633
-0.12679739 0.52894531 -0.00000006
-0.12822994 0.22407818 0.05843281
-0.48586589 -0.57304794 0.00000000
-0.20590991 -0.58991689 0.00000000
-0.59042675 -0.61809691 0.26908441
-0.09205702 0.51357118 0.04195136
-0.06333897 0.45861267 0.02886185
-0.01612319 0.10450416 0.00733680
-0.38030020 -0.76169128 0.17331996
-0.33342084 -0.26329933 0.15195492
-0.69066412 0.03297646 -0.00000045
-0.25769799 -0.78692665 0.11744460
-0.17524538 0.33352254 0.07986249
-0.20166693 -0.56712118 0.09190872
-0.03448609 0.53928123 0.01571687
-0.56801072 -0.57174173 0.25886839
-0.08967149 0.56408940 0.04086497
-0.78246337 -0.45033234 -0.00000087
-0.03113230 -0.08318565 0.01418839
-0.26180358 -0.21759046 0.11931570
-0.29362157 0.05701028 0.00000000
-0.04071777 0.16673193 0.00000000
-0.72745302 -0.34704541 0.33153441
-0.55716163 -0.75652091 0.00000000
-0.11883414 -0.37936341 0.05415808
-0.51407255 -0.48812224 0.00000000
-0.48286214 0.10215638 0.00000238
-0.36991324 0.22369595 0.00000252
-0.10550657 0.08225703 0.04807400
-0.17223836 0.29141113 0.07849679
-0.43081491 -0.01216648 -0.00000040
-0.26392663 -0.06847787 0.12028327
-0.19275905 0.06464504 0.00000812
-0.64931545 -0.65267316 0.29592274
-0.39266463 -0.60141100 0.00000000
-0.21209602 -0.77770422 0.09666172
-0.00894626 -0.66367950 0.00000000
-0.60799257 -0.43736346 0.27709041
-0.68612082 0.07808661 -0.00000165
-0.07027208 -0.39747790 0.00000000
-0.03381464 0.74738834 0.00000023
-0.20762552 0.48350752 -0.00000033
-0.70268600 -0.45385518 -0.00000078
-0.58578350 -0.69940980 0.00000000
-0.34542324 0.25676906 0.15742289
-0.47941343 -0.35347947 -0.00000001
-0.16432188 -0.49679861 0.00000000
-0.02742312 -0.02051978 0.01249795
-0.64191850 0.12068795 -0.00000098
-0.54333872 0.18005785 0.24762526
-0.40324819 0.01083537 0.18377299
-0.01699343 -0.05087938 0.00000000
-0.32623281 0.40641263 -0.00000070
-0.63051777 -0.12058714 0.28735694
-0.20911971 0.50624505 -0.00000037
-0.26178366 0.40427278 0.00000158
-0.46834728 0.11502506 0.21344813
-0.51798586 -0.40211463 -0.00000009
-0.50131636 0.13194513 0.00000153
-0.09756001 0.49899630 0.04446250
-0.67365093 -0.67434153 -0.00000027
-0.46054699 -0.30791939 0.20989227
-0.24880828 0.20365141 0.00000518
-0.44590013 0.07400750 0.00000356
-0.26619333 0.40694486 0.12131521
-0.23318346 0.36717399 -0.00000023
-0.51373624 -0.07831777 0.23413378
-0.64399786 -0.67209613 0.29349922
-0.71846622 -0.38842913 0.32743861
-0.31393793 0.32794870 0.00000186
-0.30438885 -0.78975516 0.00000000
-0.09400239 -0.24427633 0.00000000
-0.70625371 -0.17652010 0.32187348
-0.64116799 -0.25692109 0.29221050
-0.02410121 0.24419050 0.00000797
-0.38098294 -0.62841054 0.17363111
-0.25864632 0.11286125 0.00000000
-0.03635040 0.68203860 0.01656652
-0.47024087 -0.53964277 0.00000000
-0.18709086 0.49163097 0.08526613
-0.34739043 0.12526394 0.15831693
-0.09867191 0.15035173 0.04496015
-0.66120966 -0.65688298 0.30134345
-0.45567440 -0.17621760 -0.00000022
-0.78261112 -0.58923011 -0.00000053
-0.42726487 0.26531715 -0.00000088
-0.32558164 -0.17334867 0.00000000
-0.07605835 0.17802047 0.03465420
-0.48101895 -0.24960658 0.21922250
-0.21085702 0.11731545 0.00000000
-0.03187736 0.04839138 0.01452795
-0.16714474 0.02614404 0.00000909
-0.71247493 -0.36142460 -0.00000099
-0.01451454 0.78044687 0.00661491
-0.50634502 0.24215409 0.23076586
-0.23256509 -0.71844910 0.00000000
-0.51335493 0.08150176 0.23396032
-0.48532390 0.07890118 0.00000273
-0.16677032 0.44130619 0.00000279
-0.48473581 -0.39542054 0.22091616
-0.61716000 -0.57302463 0.28126820
-0.21505476 0.07806522 0.09801015
-0.37024210 0.16415513 0.16873278
-0.21546860 -0.36754332 0.09819876
-0.44597598 0.24762103 0.20325159
-0.52489848 0.20053299 -0.00000118
-0.22484414 0.08422238 0.00000734
-0.58598425 0.05372552 0.26706112
-0.63047186 -0.68033364 -0.00000007
-0.47399002 -0.78650736 0.21601863
-0.05870734 0.64508462 0.02675558
-0.26107267 -0.33392835 0.11898259
-0.04648214 -0.14233338 0.02118401
-0.04213577 0.16619204 0.01920317
-0.28826298 0.08478575 0.13137455
-0.30295698 -0.79615799 0.13807116
-0.58678756 -0.22365616 0.26742666
-0.18463118 0.24414753 0.00000555
-0.08892960 0.36984024 0.00000000
-0.15437504 0.30133350 0.00000000
-0.06148013 -0.28136874 0.02801927
-0.75929466 -0.42426702 -0.00000094
-0.24317093 0.42527301 -0.00000038
-0.40549472 0.07367044 -0.00000045
-0.05889615 0.01933953 0.02682968
-0.10346210 -0.39483019 0.04715235
-0.49815488 0.21092342 -0.00000108
-0.00938246 -0.37633654 0.00000000
-0.03916731 -0.71762047 0.00000000
-0.47521258 -0.48371169 0.00000000
-0.04177094 -0.16832953 0.00000000
-0.57815582 -0.16093059 -0.00000077
-0.09683184 0.18443457 0.04412209
-0.55097773 -0.54999854 0.25110564
-0.08096596 -0.11919050 0.03689984
-0.46629689 -0.49512069 0.21251253
-0.10690497 0.57339171 0.00000173
-0.45275170 -0.78757155 0.20633937
-0.07500713 -0.09095878 0.00000000
-0.30203424 -0.23136525 0.13765063
-0.36702986 0.01358558 0.00000609
-0.30926401 0.20271752 -0.00000026
-0.05474323 0.09814792 0.02493825
-0.13130322 -0.63552801 0.00000000
-0.03539585 0.56521370 0.01612820
-0.04691456 -0.49512662 0.00000000
-0.32885180 0.43977290 -0.00000030
-0.70125701 -0.30167713 -0.00000105
-0.38535806 0.17324169 0.17562586
-0.64490513 -0.24738358 -0.00000090
-0.15249751 -0.55941480 0.06950000
-0.18489369 0.25002259 0.00000000
-0.06091486 0.21636229 0.02775301
-0.62398043 -0.23797058 -0.00000083
-0.60865574 -0.18270616 0.27739318
-0.47916094 -0.29510372 0.21837562
-0.07266892 -0.27961651 0.00000000
-0.02435925 0.12303293 0.00000979
-0.53574959 -0.04841730 -0.00000079
-0.69187633 -0.74851783 -0.00000013
-0.00435434 0.33524812 0.00197683
-0.33253538 0.21423083 0.00000340
-0.07727936 -0.23960051 0.03521969
-0.54120827 -0.79117636 0.24665302
-0.22498917 0.34237294 0.10253800
-0.07738446 0.15219665 0.03525817
-0.44039449 0.19462722 -0.00000081
-0.30037119 0.04089734 0.13689278
-0.39157353 0.04193953 0.17845830
-0.59118954 -0.39157647 -0.00000042
-0.04583005 -0.33422260 0.00000000
-0.16706057 0.62489549 -0.00000028
-0.53482862 0.11341513 0.24374703
-0.30987195 0.21892545 -0.00000030
-0.06368180 -0.54813274 0.02902267
-0.16604176 0.62209059 -0.00000022
-0.41396924 -0.36496463 0.18866446
-0.62114855 -0.40670103 0.28308632
-0.27036875 -0.55511734 0.00000000
-0.34124685 0.31376735 0.15552244
-0.25936826 -0.58837096 0.00000000
-0.68773539 -0.42254106 -0.00000077
-0.38978069 -0.77032181 0.17764065
-0.16550674 0.09802028 0.00000803
-0.00489905 0.19726125 0.00000000
-0.25396141 -0.32219931 0.11574167
-0.07133127 0.27627087 0.00000678
-0.41959998 -0.20311064 -0.00000002
-0.67728727 -0.03991061 0.30867233
-0.14846978 0.07316693 0.00000000
-0.40067313 -0.14574313 -0.00000004
-0.40361258 0.34568916 -0.00000092
-0.45362028 0.25969188 -0.00000098
-0.36757564 0.22851599 0.16752163
-0.09063438 -0.69888316 0.04130617
-0.53107344 0.26273215 -0.00000132
-0.15615232 -0.04589103 0.07116566
-0.58315882 -0.34583881 -0.00000046
-0.20431903 0.29585355 0.09311264
-0.12871671 -0.47963273 0.00000000
-0.56110091 -0.37831380 0.25571963
-0.78118064 -0.38918387 -0.00000103
-0.09359922 0.35495264 0.00000526
-0.16483303 -0.29794888 0.00000000
-0.18833113 0.42378371 -0.00000014
-0.20689434 0.26029901 0.00000497
-0.26502107 -0.14083384 0.00000000
-0.71738515 -0.50979476 0.32694555
-0.09630209 -0.61926312 0.04388921
-0.25087193 0.14767205 0.11433368
-0.26535932 -0.06908157 0.12093621
-0.27217636 0.31147181 0.00000293
-0.23470234 -0.43311305 0.00000000
-0.22821230 -0.07108854 0.00000000
-0.18539290 0.17109037 0.00000664
-0.26751649 -0.48935284 0.12191933
-0.17841213 -0.37030026 0.08131045
-0.42205272 0.05095014 0.19234922
-0.42267280 -0.66623825 0.00000000
-0.06907089 0.63353873 0.03147719
-0.34699715 -0.64107295 0.00000000
-0.62812023 0.08476837 -0.00000142
-0.30454786 -0.49089277 0.00000000
-0.14265014 0.14788692 0.00000000
-0.27944287 0.10755779 0.00000000
-0.19509607 0.17575523 0.08891408
-0.49377967 -0.56956625 0.00000000
-0.40321955 -0.77463228 0.00000000
-0.24079457 0.02514938 0.00000799
-0.34734197 -0.21076788 0.15829940
-0.07618282 0.70717232 0.03472017
-0.42802024 -0.00235709 -0.00000041
-0.37818427 -0.64277049 0.17235563
-0.21429090 0.29917427 0.00000425
-0.00041630 0.32855396 0.00018191
-0.51867686 -0.57381609 0.23638445
-0.23639435 -0.32559914 0.00000000
-0.38261092 -0.70520667 0.00000000
-0.56738060 -0.39672856 -0.00000031
-0.16612026 0.42466275 0.00000308
-0.71409828 -0.47345529 -0.00000080
-0.17660236 -0.40540507 0.08048566
-0.38001761 -0.11555784 0.17319136
-0.24892084 0.16679195 0.00000574
-0.30538622 -0.12247073 0.13917828
-0.45197204 0.23235685 0.00000080
-0.03908049 0.14727342 0.00000000
-0.12609572 0.59920998 -0.00000018
-0.43845649 -0.67751222 0.00000000
-0.23569874 -0.09617023 0.00000000
-0.39806916 0.13543209 0.00000346
-0.51589251 -0.39081041 0.23511586
-0.10530031 0.31920560 0.00000000
-0.51080112 0.11929425 0.23279444
-0.24342020 -0.64976392 0.00000000
-0.63774550 -0.60881816 0.29064994
-0.58609689 -0.07356749 0.26711219
-0.71098133 -0.43114697 0.32402728
-0.05400945 -0.14318358 0.02461454
-0.15407166 0.08607080 0.07020820
-0.20889511 0.37883125 0.09520320
-0.67151271 -0.69493887 0.30603888
-0.31648242 0.24643444 0.14423591
-0.18118760 0.33873476 0.08257087
-0.56377752 0.09277631 0.25693895
-0.00997609 0.10977126 0.00454655
-0.23812243 0.26878862 0.00000430
-0.54975724 -0.28126686 -0.00000043
-0.36692778 0.19333922 0.16722278
-0.46822227 -0.28489103 0.21339033
-0.04900833 -0.24866153 0.00000000
-0.03268100 0.66015908 0.01489245
-0.19208107 0.43599314 0.00000239
-0.04581768 0.14011906 0.00000000
-0.43539015 -0.16216484 -0.00000016
-0.03017937 -0.08380102 0.01375410
-0.45235848 0.30032876 0.20616160
-0.46843766 -0.43974325 0.21348818
-0.12329188 0.55826622 0.05618985
-0.65133697 -0.03518867 -0.00000130
-0.31332046 -0.75832630 0.14279427
-0.41956140 -0.50487531 0.19121305
-0.09076814 0.27782570 0.00000646
-0.53760024 -0.08595674 0.24500979
-0.45008226 -0.33639346 0.20512291
-0.22579092 0.13512169 0.10290311
-0.69916593 0.10077236 -0.00000175
-0.24031867 0.35181785 0.10952126
-0.59875852 -0.56794625 -0.00000014
-0.75284707 -0.40420965 -0.00000099
-0.41351078 -0.45528020 0.00000000
-0.68732310 -0.67038579 0.31324445
-0.27069141 0.40822588 0.00000135
-0.17989164 -0.19842361 0.00000000
-0.15893137 -0.53819457 0.07243219
-0.19959717 0.43818543 0.09096578
-0.47009820 -0.25248698 0.21424535
-0.27508744 0.41098045 0.12536896
-0.04244409 -0.77070100 0.00000000
-0.09722231 0.65453661 0.04430882
-0.25788397 -0.25028925 0.00000000
-0.24940597 -0.16900647 0.00000000
-0.23129251 0.11831233 0.10540309
-0.51475544 -0.73220470 0.00000000
-0.04151816 0.19259831 0.00000000
-0.27587920 -0.48461964 0.00000000
-0.45041267 -0.18382568 -0.00000018
-0.45482106 -0.65407778 0.20728248
-0.17383585 0.22037109 0.07921820
-0.23687609 -0.42008382 0.00000000
-0.16157575 0.57483206 0.07363778
-0.06081607 -0.46400862 0.00000000
-0.69893291 -0.58399745 0.31853582
-0.24599172 -0.11057738 0.00000000
-0.56630369 -0.55377777 -0.00000002
-0.68942097 -0.57073898 -0.00000052
-0.48599189 -0.05389758 -0.00000056
-0.32881407 0.22661979 0.00000326
-0.02541074 0.40932097 0.01158082
-0.11182694 -0.41989045 0.05096458
-0.71193938 -0.38919740 -0.00000094
-0.24175261 0.28461191 -0.00000012
-0.47358244 -0.56248853 0.21583288
-0.07606582 -0.44944084 0.00000000
-0.12068986 0.21856038 0.05500382
-0.40284106 -0.47326817 0.18359284
-0.09510134 -0.49684857 0.04334197
-0.43570753 -0.69244779 0.00000000
-0.56841530 0.08241161 -0.00000116
-0.25153438 -0.35103965 0.00000000
-0.61550483 -0.34224424 -0.00000061
-0.51807906 -0.70904480 0.23611200
-0.34468161 -0.31588289 0.00000000
-0.36264250 0.40430266 -0.00000035
-0.00085852 0.28286417 0.00000774
-0.17663029 -0.56402319 0.08049839
-0.61203131 -0.44673837 -0.00000041
-0.17326816 -0.44870862 0.07896612
-0.05571750 0.38920565 0.02538712
-0.32903042 -0.43816333 0.14995401
-0.20038240 0.56392494 0.09132363
-0.52856658 -0.49391373 0.00000000
-0.41467283 -0.76739803 0.18898511
-0.45763521 0.07682462 0.20856221
-0.04005346 0.28608059 0.00000710
-0.67757802 0.03412231 -0.00000154
-0.75574398 -0.66834460 -0.00000033
-0.06194976 0.02066856 0.00000000
-0.24754265 0.42910123 0.11281523
-0.66079243 -0.57466403 0.30115355
-0.61375948 -0.03695459 0.27971951
-0.43211947 -0.41046253 0.00000000
-0.59164990 0.18025492 -0.00000101
-0.47728670 0.26878724 0.21752259
-0.33965409 0.43863395 -0.00000081
-0.16024175 0.17225977 0.00000700
-0.24497605 -0.22494481 0.00000000
-0.52553156 0.00861640 0.23950598
-0.56529774 0.13096086 0.25763339
-0.28114876 0.06940313 0.12813221
-0.74099190 0.03756476 -0.00000149
-0.17930311 -0.76297932 0.00000000
-0.67588032 -0.73460473 -0.00000016
-0.30934804 -0.63044534 0.00000000
-0.76190251 -0.30792795 -0.00000123
-0.28487682 0.31806465 0.12983178
-0.56962682 -0.41760909 -0.00000028
-0.34581847 -0.31703873 0.15760507
-0.62709932 -0.40267245 0.28579840
-0.58706845 0.17001474 -0.00000139
-0.07137386 -0.22597606 0.00000000
-0.42348259 -0.42879652 0.19300012
-0.55203624 -0.61969259 0.25158791
-0.29099998 -0.67550602 0.00000000
-0.05436461 0.25543708 0.02477641
-0.10990450 0.30671668 0.00000000
-0.53761900 -0.65493831 0.00000000
-0.38339524 0.29101171 0.17473155
-0.20658958 0.23770787 0.09414641
-0.55156799 0.19095965 0.25137612
-0.63566105 -0.75242759 0.00000000
-0.28281095 -0.57574379 0.12888971
-0.30237752 -0.50195556 0.00000000
-0.04220736 0.17326654 0.01922612
-0.25125958 -0.41714023 0.00000000
-0.07188410 0.35790956 0.03275472
-0.59982968 0.09031270 0.00000034
-0.29052585 0.21489157 0.13240152
-0.51362125 -0.42441735 0.23408066
-0.13524042 -0.68952405 0.06163516
-0.17284475 -0.33834336 0.07877315
-0.34361011 0.15691188 0.15659918
-0.17730955 -0.62009794 0.08080796
-0.00650540 -0.61626485 0.00000000
-0.77858430 -0.41117713 -0.00000097
-0.27928358 0.38613640 0.12728095
-0.32195502 -0.39846697 0.00000000
-0.63535267 0.03909316 0.28955969
-0.67037380 -0.36741877 -0.00000080
-0.57272410 -0.06928416 -0.00000091
-0.17925449 -0.49393511 0.08169436
-0.68413229 -0.01587149 0.31179200
-0.58069263 -0.03334139 -0.00000101
-0.18186885 0.51197784 0.08288471
-0.01372706 -0.27973754 0.00000000
-0.11615080 0.49167779 0.00000000
-0.46710360 -0.65236943 0.00000000
-0.21252949 0.41398024 0.09685964
-0.22835662 0.51488706 0.00000038
-0.09577588 -0.10184423 0.04364939
-0.21922022 0.38395038 0.09990586
-0.36971858 -0.40808029 0.00000000
-0.59668114 0.06591416 0.27193626
-0.11452366 0.42249028 0.00000393
-0.00536957 0.57486872 0.00000330
-0.09048414 0.43809083 0.00000000
-0.54572001 -0.66123485 0.00000000
-0.50636040 0.07124987 0.00000245
-0.72302137 -0.74106040 -0.00000015
-0.27002635 0.37221315 0.12306152
-0.28143794 0.03162399 0.12825604
-0.05206927 0.39953025 0.02373031
-0.03473954 0.10871944 0.01583238
-0.58182385 -0.76961828 0.26516338
-0.70379321 -0.40312545 0.32075142
-0.17005709 0.34821123 0.07749811
-0.36283644 0.10939676 0.00000457
-0.03745799 0.50923858 0.01707130
-0.71067103 -0.16777553 0.32388667
-0.59421821 0.11074234 0.00000010
-0.15796930 0.16754464 0.00000710
-0.12857013 0.18216411 0.05859521
-0.28187245 0.47015976 0.12846285
-0.52098530 0.05178250 0.23743780
-0.11045004 0.56573581 0.05033523
-0.60648706 -0.09849152 -0.00000100
-0.62884575 -0.42518594 0.28659429
-0.66386480 -0.41379281 -0.00000069
-0.25576274 0.18573245 0.11656275
-0.23620666 0.38716277 0.10764782
-0.02617960 0.29984144 0.01192337
-0.56609017 0.08512077 0.25799444
-0.50373183 -0.67523365 0.22957332
-0.28948873 -0.34648133 0.13193307
-0.00233908 0.08851352 0.00105426
-0.19756938 -0.36288465 0.00000000
-0.10315927 0.19934546 0.04701433
-0.10686467 -0.34227438 0.04870305
-0.08017762 -0.53780926 0.03654056
-0.06275277 0.25716631 0.02859133
-0.21905760 0.13776785 0.00000000
-0.40565564 0.02198915 0.00000521
-0.21722603 0.11267162 0.09899970
-0.57275433 0.20632373 -0.00000108
-0.57074115 0.16042861 0.26011407
-0.78476329 -0.01091078 -0.00000192
-0.64013275 -0.78626009 0.00000000
-0.45042926 0.33968267 -0.00000096
-0.12534094 0.35905720 0.05712352
-0.73359763 -0.34066293 -0.00000111
-0.30475327 -0.70633397 0.13888981
-0.23481079 -0.07790079 0.00000000
-0.07657823 0.20883553 0.03489166
-0.08921463 0.21312865 0.04065913
-0.23447735 0.50764760 -0.00000048
-0.45878045 0.22991865 0.20908828
-0.19442529 -0.15456918 0.08860838
-0.23941533 -0.33526704 0.00000000
-0.17777947 0.21134340 0.08102212
-0.13900394 0.38139708 0.06335037
-0.66594407 -0.14894645 0.30350243
-0.04576241 0.62142101 0.00000000
-0.04559163 0.06802094 0.00000000
-0.38095417 -0.36540505 0.00000000
-0.02565022 -0.74113778 0.01168996
-0.09494218 0.59074341 -0.00000004
-0.55853263 0.05653089 0.25455003
-0.17372371 0.47928027 0.07917402
-0.07955888 0.13186789 0.03624885
-0.44186340 -0.30598808 0.20137722
-0.51775692 -0.77703980 0.00000000
-0.18194411 -0.24549329 0.00000000
-0.38997923 -0.48082347 0.00000000
-0.12212147 0.08676560 0.05564652
-0.21890676 -0.21922895 0.09976568
-0.39529917 -0.70792656 0.18015566
-0.14337448 0.58349764 -0.00000023
-0.07263157 0.14056965 0.03310148
-0.36044825 -0.29356391 0.00000000
-0.66803672 -0.68885819 -0.00000022
-0.55545582 -0.35033070 -0.00000034
-0.36164661 0.28919622 0.00000159
-0.26804375 -0.74126075 0.00000000
-0.10049195 -0.62151044 0.04579871
-0.07697155 0.21986604 0.00000754
-0.13885086 0.07150810 0.06328060
-0.01019973 0.33146427 0.00464848
-0.16170868 -0.28332765 0.07369794
-0.49469133 -0.23994991 0.22545371
-0.11675776 -0.55357268 0.05321178
-0.14869532 0.34340403 0.00000461
-0.45260235 -0.01224619 -0.00000050
-0.57699534 0.00042488 -0.00000105
-0.21602647 0.08283247 0.09845301
-0.45951294 0.04043145 -0.00000062
-0.25551947 -0.46345972 0.00000000
-0.20343442 -0.41720430 0.09271424
-0.31450775 -0.47672707 0.00000000
-0.04281703 -0.74518068 0.00000000
-0.26446838 -0.18294179 0.12053017
-0.01826036 -0.77130153 0.00000000
-0.09528458 0.05543187 0.04342548
-0.26552089 -0.22803208 0.00000000
-0.25844801 0.28074832 -0.00000019
-0.40493319 -0.75146364 0.00000000
-0.68274397 -0.55367576 -0.00000052
-0.56517644 -0.10799664 -0.00000081
-0.08986166 0.35839243 0.04095401
-0.32338981 -0.53777068 0.00000000
-0.23309578 0.04685437 0.00000000
-0.62494580 0.09390863 0.28481795
-0.34885927 0.44209988 -0.00000086
-0.11758778 0.46911947 0.05358658
-0.26083168 0.40478758 0.11887337
-0.65962971 -0.36099600 0.30062423
-0.34891996 -0.78161120 0.15901857
-0.24515013 0.19417720 0.00000539
-0.37930268 0.38935623 -0.00000042
-0.15700223 -0.26478641 0.07155300
-0.47985458 -0.34776598 -0.00000002
-0.30461720 0.17985015 0.13882325
-0.13540875 0.50369052 0.06171200
-0.29631437 0.44836940 0.00000018
-0.28702932 -0.68444875 0.13081221
-0.64633139 -0.29941727 -0.00000081
-0.14866444 0.47801183 0.00000252
-0.30187987 -0.55355378 0.13758028
-0.42469263 -0.06628853 -0.00000028
-0.52070357 0.00845400 0.00000322
-0.59910518 -0.39861252 -0.00000044
-0.79740841 -0.40318503 -0.00000099
-0.41434145 0.00281442 0.18882880
-0.45011593 0.18629251 0.20513933
-0.25919007 0.29884515 0.00000339
-0.02207431 0.73115715 0.01006026
-0.42360347 -0.68008639 0.00000000
-0.34838744 0.35556659 -0.00000070
-0.27087332 0.49610246 -0.00000013
-0.21875158 0.34237103 0.00000344
-0.44263979 0.03590070 0.20172697
-0.16585419 0.59919859 0.07558741
-0.03037982 0.75344958 0.01384552
-0.37543472 0.04579640 0.17109713
-0.10683775 0.32718356 0.00000000
-0.34570327 -0.12108887 0.15755258
-0.24018844 0.14871958 0.10946471
-0.02212224 0.65670005 0.01008011
-0.23660703 -0.60010761 0.00000000
-0.32384794 -0.64639685 0.00000000
-0.39249454 -0.32785697 0.17887747
-0.45038140 0.09081731 0.20526012
-0.33267600 0.22807640 0.15161610
-0.49627591 -0.79633719 0.22617532
-0.06268909 -0.63509945 0.02857025
-0.59398858 -0.34914854 0.27070827
-0.11907117 -0.23171213 0.00000000
-0.51724684 -0.45759299 0.23573295
-0.19210368 0.05581197 0.00000000
-0.00013263 0.12098052 0.00000000
-0.24323369 -0.59261507 0.00000000
-0.22056499 -0.22410772 0.10052142
-0.71355232 -0.27010917 0.32519949
-0.18111692 0.00109047 0.08253300
-0.55582177 -0.48562425 0.25331344
-0.01664630 0.12989789 0.00000000
-0.40067596 0.02116466 0.18260669
-0.43118558 0.25336720 0.00000085
-0.02752375 0.76614417 0.01254383
-0.20395200 -0.18479547 0.00000000
-0.06472803 0.22170807 0.00000770
-0.35402251 0.07151230 0.00000537
-0.71133779 0.08560482 -0.00000173
-0.29057731 0.18560099 0.00000468
-0.02264940 0.41286335 0.00000547
-0.50176364 -0.68949762 0.22867633
-0.72470826 -0.76118164 -0.00000010
-0.30290517 0.03684680 0.00000000
-0.32122626 0.06128664 0.14639753
-0.23397657 0.40890555 0.10663183
-0.48774490 -0.73414306 0.22228735
-0.71554394 0.04490800 -0.00000113
-0.38736279 -0.77839531 0.17653870
-0.19973366 0.07038044 0.09101896
-0.00093450 -0.28817572 0.00000000
-0.31827523 -0.71021728 0.14505238
-0.67932677 0.07873289 -0.00000100
-0.64834227 -0.42943956 -0.00000059
-0.11438956 -0.53074514 0.05213248
-0.49840777 0.18091612 0.00000077
-0.27318229 0.09213649 0.12450153
-0.56176168 0.06954851 0.25602170
-0.35755102 0.03205604 0.00000596
-0.64359896 0.02490513 0.29331783
-0.06127805 0.46164918 0.02792261
-0.03060883 0.30846975 0.00000691
-0.67145903 0.05902765 0.30601631
-0.19253222 0.03611424 0.08773625
-0.13093884 -0.54519862 0.00000000
-0.57677547 -0.29072578 -0.00000053
-0.14258297 0.06332096 0.06497171
-0.28280586 -0.56072800 0.12888739
-0.47333448 -0.24723021 -0.00000017
-0.56719321 0.10419856 0.00000073
-0.55229739 -0.68352119 0.00000000
-0.50127233 -0.77686048 0.22845241
-0.34192951 0.20642593 0.00000335
-0.26007337 0.04749487 0.11852717
-0.54541673 0.03769163 -0.00000098
-0.09493757 0.33052688 0.00000000
-0.19773424 -0.77693119 0.00000000
-0.07353093 -0.55729391 0.00000000
-0.44810597 0.22841096 0.00000094
-0.73648923 -0.72492683 -0.00000019
-0.36036106 0.17422795 0.16423347
-0.15126462 0.27646383 0.00000000
-0.03369683 0.26732066 0.01534890
-0.04383564 0.02450439 0.01996576
-0.07122767 0.32380343 0.00000607
-0.17498174 -0.28800397 0.00000000
-0.21679838 0.45890105 0.09880528
-0.44407150 -0.34616351 0.00000000
-0.02812354 -0.07177593 0.00000000
-0.52673834 -0.43943643 -0.00000006
-0.21061275 -0.35200228 0.09598573
-0.19349372 -0.49089410 0.08818382
-0.11163256 0.58061088 0.00000152
-0.19233767 0.01240009 0.08764718
-0.13347877 0.19592468 0.00000705
-0.05162575 0.25058112 0.00000746
-0.23412922 -0.59827583 0.10670325
-0.02897141 -0.17281452 0.01320358
-0.32613106 -0.45941207 0.00000000
-0.58858306 -0.43442469 -0.00000033
-0.22592472 0.33983231 0.10296071
-0.59594032 -0.46137725 0.27159754
-0.19415836 -0.24435500 0.00000000
-0.42962489 0.28909110 0.00000028
-0.06585454 0.56337838 0.00000000
-0.29939619 -0.55552423 0.13644835
-0.50417854 -0.67364319 0.22977690
-0.18111401 -0.75943278 0.08254183
-0.59713521 -0.29488479 0.27214246
-0.12795569 -0.56616550 0.05831518
-0.41449516 -0.19804924 0.18890435
-0.56660052 -0.24408722 -0.00000057
-0.72021423 -0.69464827 0.32823431
-0.03431424 0.45035355 0.00000000
-0.53392788 0.04791421 0.00000231
-0.52890631 -0.64699401 0.00000000
-0.34727424 -0.66151081 0.15826854
-0.65685718 -0.17620186 0.29936102
-0.53907138 -0.22285074 -0.00000049
-0.18492010 0.27819367 0.00000000
-0.47487907 0.27424115 -0.00000110
-0.25170528 0.22523310 0.11471364
-0.22493102 0.29001143 -0.00000006
-0.07499904 -0.36351609 0.03418045
-0.62387334 0.16922140 -0.00000144
-0.43049374 0.13129009 -0.00000066
-0.05488225 0.71910648 0.00000030
-0.38556748 0.27720278 -0.00000072
-0.66931395 -0.45375453 0.30503755
-0.39781104 0.26226882 -0.00000075
-0.26935584 0.21637700 -0.00000012
-0.49675161 0.20187025 0.22639270
-0.05378607 0.55265544 0.02451274
-0.04623295 0.61413615 0.00000000
-0.74218722 -0.63989600 -0.00000040
-0.30858189 -0.68212848 0.00000000
-0.62842200 -0.61657782 -0.00000018
-0.57789438 -0.46987676 0.26337308
-0.42773102 -0.67457617 0.00000000
-0.20743347 -0.16224253 0.09453679
-0.22004399 0.34152654 0.10028423
-0.66751909 0.07036654 -0.00000063
-0.28473002 0.17588958 0.12976458
-0.54650471 -0.30017656 -0.00000039
-0.63204392 -0.10158823 0.28805252
-0.54666811 -0.33036377 -0.00000033
-0.70266254 0.02627714 0.32023726
-0.03341233 0.43142852 0.01522196
-0.58227777 0.00289475 -0.00000108
-0.04128609 0.06458999 0.01880443
-0.18194942 -0.25425670 0.00000000
-0.14458362 0.53511799 0.06589352
-0.02901597 0.53408010 0.00000000
-0.02516556 -0.39808276 0.01146908
-0.72554066 -0.35895738 -0.00000105
-0.02387695 -0.43383949 0.00000000
-0.55549898 0.09817051 0.25316595
-0.07757445 0.27084644 0.03534673
-0.25832347 -0.67017288 0.00000000
-0.41734806 0.15076457 0.00000283
-0.42292819 -0.74914782 0.19274745
-0.25835167 0.16122251 0.11773647
-0.17508784 -0.05733068 0.00000000
-0.01167792 0.25134268 0.00531325
-0.23127980 0.07729925 0.10539661
-0.02527776 -0.44985620 0.00000000
-0.08263170 -0.38100796 0.03765899
-0.42162861 0.08987962 0.00000377
-0.43894993 0.11587124 0.00000300
-0.59043873 0.05932960 0.26908967
-0.10803414 0.49436720 0.04923603
-0.18641065 0.13191570 0.00000000
-0.23601327 0.21041502 0.00000528
-0.18359007 -0.49379806 0.00000000
-0.17182703 0.36989180 0.00000386
-0.16919040 0.23728892 0.00000589
-0.41649879 0.16783372 0.18981826
-0.53701356 0.14202241 -0.00000113
-0.18044417 -0.18313669 0.00000000
-0.48479412 0.07279116 0.22094370
-0.05863304 0.15235410 0.02671198
-0.11669975 -0.32265745 0.00000000
-0.39654395 -0.65171554 0.18072297
-0.01911377 0.17650960 0.00000000
-0.17124911 -0.66995656 0.00000000
-0.09720315 -0.20091915 0.04429986
-0.23767089 0.02542003 0.10830857
-0.10528341 0.48506326 0.04797898
-0.00336093 -0.34609565 0.00000000
-0.43428583 -0.46688442 0.19792364
-0.47232964 0.08183116 0.21525958
-0.53770699 0.13678070 0.00000075
-0.73907915 -0.21488624 -0.00000136
-0.78451050 -0.41140795 -0.00000097
-0.66901055 -0.61709750 0.30489878
-0.60559472 -0.43396600 -0.00000040
-0.43377346 0.13766875 0.00000273
-0.36782417 -0.44565973 0.16763407
-0.29908731 -0.12741663 0.00000000
-0.05607413 -0.68953340 0.02555551
-0.16925912 0.44266176 -0.00000009
-0.65630544 -0.32538801 -0.00000081
-0.00345911 -0.65760698 0.00157647
-0.11228984 -0.18704274 0.00000000
-0.00402479 -0.31486290 0.00183428
-0.21568955 0.04038491 0.09829946
-0.08085521 0.02493943 0.00001041
-0.15414695 0.31721093 0.07024635
-0.11264251 0.06298300 0.05132598
-0.47287532 0.07353556 0.21550812
-0.61363668 -0.07969813 -0.00000106
-0.41693935 0.05215435 0.19001880
-0.62044132 -0.57114576 0.28276366
-0.20377858 0.09195093 0.00000755
-0.55888291 0.21144878 -0.00000090
-0.64546379 -0.61660442 0.29416748
-0.28313610 -0.17485099 0.12903789
-0.23393575 -0.52538559 0.10661507
-0.14470956 -0.31460706 0.06595068
-0.12907666 -0.25927768 0.05882606
-0.45828084 -0.73934192 0.20885925
-0.20718927 0.52169281 -0.00000039
-0.18900977 -0.64203185 0.08614028
-0.08901687 -0.47742092 0.00000000
-0.18070903 0.30141074 0.00000000
-0.62277728 0.04092274 0.00000072
-0.42804896 0.20436841 0.19508233
-0.12262397 0.49822718 0.05588532
-0.13958122 -0.26457298 0.00000000
-0.52180449 -0.23650915 0.23781056
-0.22157786 0.20639936 0.00000000
-0.60757019 -0.02423401 0.27689876
-0.46373101 -0.05426138 0.21134391
-0.22935205 0.26601261 -0.00000003
-0.33026339 0.34125521 -0.00000060
-0.10992713 0.50919146 0.00000000
-0.06758997 0.26423230 0.03079607
-0.36254348 0.11039365 0.16522798
-0.03810727 -0.31936250 0.00000000
-0.27635666 0.29434409 0.12594517
-0.02755388 -0.22628336 0.00000000
-0.27183879 -0.10660910 0.12388920
-0.28472939 0.20389109 0.12975946
-0.37101844 -0.70580167 0.16908984
-0.08807139 -0.34448001 0.04013811
-0.52714265 -0.41888099 -0.00000010
-0.15903098 -0.06412373 0.07247759
-0.18416705 -0.52658437 0.00000000
-0.42121684 -0.31651488 0.19196752
-0.38646136 0.25657278 -0.00000069
-0.11783694 -0.05913809 0.05370361
-0.20788270 -0.71116251 0.09474152
-0.51626596 -0.25899912 -0.00000033
-0.03515446 0.12360899 0.01601085
-0.68640825 -0.35212492 -0.00000089
-0.10072471 0.29201278 0.04589809
-0.00827698 0.72522048 0.00377219
-0.62487217 0.02571328 0.00000093
-0.33718150 0.15544186 0.15366460
-0.13814577 0.08732501 0.00000861
-0.17179222 -0.45691856 0.07829346
-0.60086379 -0.77313474 0.27384078
-0.28434472 0.13540225 0.12958281
-0.33441517 0.33859960 0.00000129
-0.56890234 -0.25139087 0.25927540
-0.74230787 -0.55771823 -0.00000061
-0.19814286 -0.43867167 0.09030264
-0.41109812 0.08072924 0.00000412
-0.28639022 0.20197639 0.00000449
-0.20139858 0.27403854 0.09178117
-0.08591150 0.00097136 0.00000000
-0.18721000 -0.15461621 0.00000000
-0.71223162 -0.12703709 0.32459803
-0.16657845 -0.00215386 0.07591732
-0.47932948 0.10555592 0.00000240
-0.18310530 0.38414265 0.00000343
-0.59915052 -0.55409198 0.27306040
-0.04083759 -0.33407930 0.01861153
-0.12839152 0.29328100 0.00000000
-0.08131823 -0.22345954 0.00000000
-0.43388154 -0.42780443 0.19773939
-0.18776728 0.13741268 0.08557402
-0.08387731 0.30853558 0.00000000
-0.43750648 -0.50522355 0.00000000
-0.66631402 -0.38867497 -0.00000074
-0.72016336 -0.69807825 0.32821112
-0.38540741 0.14597544 0.17564432
-0.17696098 -0.42542803 0.00000000
-0.29566499 0.18242475 0.00000464
-0.46310720 0.16630107 0.21105791
-0.37062334 0.06135969 0.16891028
-0.11645174 0.01693353 0.00000000
-0.24093626 0.12162240 0.10979840
-0.37110902 0.16028343 0.16912782
-0.56788321 -0.62634239 0.00000000
-0.64209881 -0.48981432 0.29263424
-0.36669821 -0.62795254 0.00000000
-0.19501428 -0.36933319 0.08887680
-0.42283604 0.16851889 0.00000243
-0.11043563 0.63160410 -0.00000017
-0.58155531 -0.33729874 0.26504182
-0.09093866 -0.33631570 0.04144485
-0.01718553 0.74817007 0.00000000
-0.23077136 0.35541562 0.00000299
-0.04518107 0.58195449 0.02059105
-0.10986109 0.67272238 -0.00000024
-0.48404018 -0.56734933 0.22059894
-0.40050912 0.25906969 0.18253115
-0.52215620 -0.29592125 0.23797073
-0.52947426 -0.71186880 0.24130530
-0.69778422 -0.26153980 0.31801330
-0.18535549 -0.33028017 0.00000000
-0.35252956 0.30050298 0.16066452
-0.56189667 -0.20823372 -0.00000062
-0.48459145 -0.50245240 0.00000000
-0.23511482 -0.14666370 0.00000000
-0.37310839 -0.57014557 0.17004232
-0.32845438 -0.30826234 0.00000000
-0.28776040 -0.57711567 0.13114540
-0.55361836 -0.28900327 -0.00000044
-0.12169466 0.33479541 0.05545611
-0.43139669 -0.46337802 0.19660693
-0.32250332 0.07999523 0.14697327
-0.02157689 -0.06989337 0.00000000
-0.04865462 0.52348846 0.00000000
-0.76668638 -0.55837357 -0.00000060
-0.22216657 -0.42133950 0.10125133
-0.23906937 -0.68130693 0.00000000
-0.35361022 0.06774317 0.00000544
-0.45385264 -0.23083179 0.20684148
-0.50536107 -0.05875508 0.23031683
-0.21931416 -0.55354654 0.09995136
-0.02480009 0.27838948 0.00000745
-0.16294170 0.20124150 0.00000000
-0.35778113 0.08072475 0.16305184
-0.10591799 0.31904287 0.04826544
-0.53494688 -0.77270816 0.24379942
-0.15451380 -0.16545094 0.07041891
-0.29171682 0.02318154 0.13294851
-0.48127104 -0.72971685 0.21933692
-0.04582850 0.24034559 0.00000000
-0.39071884 0.21336675 0.17806913
-0.30086386 0.42023101 0.13711809
-0.31619075 -0.00170229 0.00000000
-0.00672793 -0.16617828 0.00306622
-0.04980212 0.58886681 0.00000242
-0.29604123 0.01307523 0.00000000
-0.19001638 0.03730271 0.08659904
-0.43870210 -0.60739796 0.00000000
-0.75075315 -0.35919764 -0.00000110
-0.30664035 -0.10207055 0.00000000
-0.59795764 -0.33659748 0.27251719
-0.72000486 -0.68870401 -0.00000028
-0.58299694 -0.66426330 0.26569817
-0.68454804 -0.19318550 -0.00000117
-0.30631178 -0.05281958 0.13960009
-0.58169257 -0.51430720 0.26510402
-0.25020484 0.07849535 0.00000000
-0.44359603 0.00297950 0.20216215
-0.29942969 -0.55465787 0.00000000
-0.42447209 0.27972197 0.00000054
-0.10387935 0.61171356 -0.00000011
-0.14121404 -0.36292084 0.00000000
-0.38751441 0.05952229 0.17660839
-0.06316368 -0.28526262 0.02878654
-0.07371398 0.38223024 0.00000515
-0.10170699 0.47849149 0.04634888
-0.03909603 0.13088504 0.01781782
-0.13396331 0.59637899 0.00000083
-0.17094111 0.06810299 0.00000000
-0.56229151 -0.29894719 0.25626241
-0.59762813 -0.11072099 0.27236749
-0.38804497 -0.23309012 0.17684960
-0.47473266 -0.52173305 0.00000000
-0.11840885 0.01422727 0.05396425
-0.48463386 -0.47020465 0.22086955
-0.70786871 0.08841299 -0.00000171
-0.11493129 0.61446668 0.00000089
-0.07053842 0.61893339 0.03214576
-0.15838234 0.40349664 0.00000356
-0.15304996 0.37667373 0.00000000
-0.14863339 0.39262544 0.00000387
-0.47576264 -0.35238484 0.00000000
-0.37391188 -0.70009015 0.17040851
-0.34349546 0.24917218 0.00000260
-0.16407399 -0.65850697 0.07477592
-0.03053126 0.37108658 0.01390788
-0.33290170 -0.00588689 0.15171848
-0.05321457 0.02941433 0.00000000
-0.46696445 -0.01063017 0.21281764
-0.01158052 0.55714104 0.00527776
-0.26019595 0.00299694 0.00000000
-0.16906546 -0.53802875 0.00000000
-0.52124765 0.13144426 -0.00000104
-0.02302188 0.41862524 0.00000537
-0.31169977 -0.52921538 0.14205565
-0.37338610 0.01141854 -0.00000020
-0.21882449 -0.45577927 0.00000000
-0.56389817 -0.21178490 0.25699483
-0.05128778 -0.00217746 0.02337416
-0.64378458 -0.64952066 -0.00000019
