ply
format ascii 1.0
element vertex 1382
property float x
property float y
property float z
end_header
-0.30610518 0.01737435 0.00000307
-0.48344276 -0.08121980 0.25778648
-0.23458857 0.25444245 0.00000386
-0.62484456 -0.60188094 0.00000027
-0.26522630 0.14878842 0.00000688
-0.55317077 0.20106086 0.00000089
-0.39030078 -0.74670630 0.00000020
-0.09183152 -0.55436589 0.00000092
-0.28998745 0.11408431 0.00000337
-0.65302590 0.03528356 -0.00000046
-0.57892958 -0.36477095 0.20997845
-0.03721181 0.37798211 0.00000442
-0.00924019 0.76663813 0.00000611
-0.64759339 -0.47741531 -0.00000005
-0.20540582 0.23209159 -0.00000120
-0.19914705 0.12257185 0.00000346
-0.36327517 0.11414322 0.00000258
-0.47715612 0.13238587 0.00000298
-0.04901751 -0.43516182 0.00000137
-0.31301024 0.13552017 0.00000311
-0.45145158 -0.20110690 0.08006468
-0.12964528 -0.07099538 0.00000273
-0.00569713 0.62794531 0.00000720
-0.17806906 0.61734503 0.00000426
-0.15624748 -0.64112968 0.00000060
-0.41744193 -0.47659874 0.00000121
-0.20046771 0.09824546 0.00000337
-0.58201606 -0.40614787 0.17939152
-0.73868369 -0.71905879 -0.00000020
-0.15332906 0.55083248 0.10910522
-0.49338174 -0.50715366 0.00000110
-0.50223520 -0.71823591 0.00000031
-0.65675739 0.05822777 0.00000021
-0.11419868 -0.37550728 0.00000159
-0.73341734 -0.56486785 -0.00000059
-0.78370016 -0.62019290 -0.00000045
-0.20623437 0.58419610 0.00000394
-0.02810146 0.19852532 0.00000374
-0.14731568 -0.55312919 0.00000093
-0.27389125 -0.42186042 0.00000142
-0.58251529 -0.40236777 0.18388626
-0.21078341 -0.77095275 0.00000011
-0.12168800 0.31612709 0.00000419
-0.19324873 0.39255014 0.05328411
-0.49920800 0.04193440 0.00000118
-0.16306380 -0.16607245 0.00000238
-0.36584497 0.04994030 0.12007298
-0.25721433 0.31226063 0.12013036
-0.14581263 0.08690394 0.00000915
-0.14640106 0.56060822 0.00000460
-0.55325552 0.21121116 0.00000049
-0.05580822 -0.47525306 0.00000122
-0.21049572 -0.09252738 0.00000265
-0.10805578 -0.10112592 0.00000262
-0.17392129 0.32969152 0.00000424
-0.06251791 0.57416276 0.00000515
-0.43638001 0.08462295 0.30487026
-0.26844126 0.23542105 0.07528190
-0.06020318 0.47059411 0.00000476
-0.04122077 -0.11756311 0.00000256
-0.44980984 -0.08178052 0.18407471
-0.12576441 -0.18332932 0.00000231
-0.60706034 0.03480957 0.00000004
-0.42391209 -0.59426009 0.00000077
-0.08828953 -0.30575018 0.00000185
-0.24471351 -0.17582430 0.00000234
-0.00245770 0.66705609 0.00000550
-0.06251824 0.70173178 0.00000570
-0.65104446 0.00483680 -0.00000041
-0.74630561 -0.05851529 -0.00000139
-0.02290055 0.74108683 0.00000610
-0.64627780 -0.34050371 -0.00000013
-0.72528663 -0.55979851 -0.00000060
-0.20811194 0.40570920 0.09750524
-0.10641581 0.05819001 -0.00000780
-0.41437179 -0.21758976 0.00000218
-0.74316026 -0.62361543 -0.00000044
-0.13608882 0.14567445 0.00000885
-0.12886689 0.05968324 0.00000961
-0.42088469 -0.70587534 0.00000035
-0.15171983 0.13039644 0.00000349
-0.57993016 -0.11123780 0.00000042
-0.10870095 -0.25267152 0.00000205
-0.75442921 -0.23779779 -0.00000135
-0.07802292 0.26652843 0.00000882
-0.33931473 0.03316931 0.00000654
-0.58306598 0.12971184 0.00000023
-0.06241521 0.68518076 0.03234706
-0.67378509 -0.74995291 0.06916709
-0.57115624 -0.02651458 0.00000046
-0.27024268 0.33625267 0.17011916
-0.09420068 -0.74245651 0.00000022
-0.25547445 0.33661941 0.13830209
-0.27525591 0.18339709 0.04320820
-0.01000808 -0.27447140 0.00000197
-0.73018717 -0.05131648 -0.00000122
-0.42291734 -0.65975481 0.00000053
-0.00586738 -0.45678804 0.00000129
-0.37951904 0.11368120 0.00000503
-0.14777439 0.45925214 0.01444105
-0.21088740 -0.32558391 0.00000178
-0.68679350 -0.17297344 -0.00000068
-0.47568177 -0.30498001 0.03915374
-0.32871921 -0.32862660 0.00000177
-0.22242974 -0.53141668 0.00000101
-0.27646823 0.31556187 0.16501522
-0.36329117 -0.35420217 0.00000167
-0.25140287 -0.71548761 0.00000032
-0.02789233 -0.70857405 0.00000034
-0.70716320 -0.72214813 -0.00000019
-0.66559455 -0.73223496 0.06731366
-0.06214898 0.28109796 0.00000895
-0.35235212 0.36506844 0.00000253
-0.11391733 -0.06098460 0.00000277
-0.14777661 -0.47982971 0.00000120
-0.49981552 -0.18004998 0.20431950
-0.35120277 0.17396496 0.20001854
-0.18769547 0.15300859 -0.00000346
-0.12608546 -0.46567906 0.00000125
-0.66328985 -0.10066452 -0.00000047
-0.18558143 0.37990875 0.02520335
-0.17850763 0.33683134 0.00000426
-0.01127048 -0.23616398 0.00000211
-0.39029517 0.10792967 0.00000487
-0.44640246 -0.14020998 0.12397873
-0.21999430 0.26329266 0.00000399
-0.32837608 0.14560817 0.12477050
-0.17672428 0.17512961 -0.00000326
-0.11763579 0.52460541 0.00776833
-0.12257138 -0.49598197 0.00000114
-0.40978487 -0.03544960 0.13872692
-0.44640845 0.04052241 0.28693619
-0.64230994 -0.14348424 -0.00000022
-0.07430388 -0.50118853 0.00000112
-0.13976404 -0.63396666 0.00000062
-0.18512172 0.08860931 0.00000854
-0.07594890 0.48119568 0.00000480
-0.50575182 -0.26770936 0.13820777
-0.58152457 -0.57059114 0.00000071
-0.09365024 -0.64718782 0.00000057
-0.24537906 0.32409522 0.00000370
-0.28837505 0.25697912 0.00000546
-0.24625985 0.18971479 0.00000371
-0.35884416 0.16841106 0.00000259
-0.38281963 0.13372195 0.23255713
-0.26460280 0.14568333 -0.00000154
-0.01136760 -0.39014260 0.00000154
-0.03814117 0.67631093 0.00000635
-0.32208048 0.26907455 0.22238288
-0.72382844 -0.58801008 -0.00000053
-0.18418953 0.48336091 0.00000538
-0.27891892 0.16622451 0.03569793
-0.20303453 -0.17267866 0.00000235
-0.57820467 -0.59557712 0.00030805
-0.75575211 -0.24108305 -0.00000137
-0.18709993 0.10205857 -0.00000462
-0.09122953 0.60023179 0.01847583
-0.34568463 0.02422340 0.05299301
-0.61428057 0.01115731 -0.00000003
-0.59074721 -0.55464779 0.06450991
-0.70992722 0.01251659 -0.00000105
-0.79042454 -0.09846710 -0.00000175
-0.31303621 0.21504870 0.15398380
-0.71743523 -0.69780775 -0.00000026
-0.05134614 0.63894303 0.00000540
-0.46464272 -0.04391168 0.00000161
-0.15503470 0.10969046 -0.00000532
-0.69004771 0.07105783 -0.00000087
-0.42705660 0.29193097 0.00000248
-0.36850852 0.14001770 0.00000251
-0.54481263 0.14044201 0.00000063
-0.50122324 0.22494055 0.00000104
-0.02010264 -0.05347177 0.00000280
-0.27517507 0.02952103 -0.00000386
-0.01650960 -0.51531474 0.00000107
-0.60521358 -0.37896174 0.25439459
-0.54076471 -0.54577233 0.00000095
-0.29068227 -0.13310274 0.00000250
-0.29519701 0.08241902 0.00000331
-0.58772116 0.15360695 0.00000066
-0.15326149 0.16858116 0.00000842
-0.37402166 0.11993616 0.20097812
-0.44768230 0.06643607 0.31307448
-0.07164759 -0.57631840 0.00000084
-0.37982446 -0.49234457 0.00000115
-0.26452389 0.00746307 -0.00000465
-0.37827531 0.22364072 0.00000235
-0.11031406 0.10207503 0.00000338
-0.49381212 -0.79247364 0.00000003
-0.37251671 -0.52997606 0.00000101
-0.14252058 0.40974304 0.00000454
-0.26365360 0.16853462 0.00455255
-0.54688031 -0.75889199 0.00000015
-0.24700145 -0.78372009 0.00000006
-0.47127661 -0.00997599 0.29553806
-0.12365011 0.34566285 0.00000754
-0.12117763 0.15761012 -0.00000516
-0.06416934 0.64961816 0.00410226
-0.02717615 -0.67880286 0.00000045
-0.03023157 0.59605324 0.00000223
-0.50651151 0.04670660 0.00000321
-0.30697681 0.16618214 0.00000594
-0.26734287 0.31799648 0.00000530
-0.56742431 -0.25938847 0.27994759
-0.17910215 0.43478322 0.06057467
-0.75224303 -0.58795305 -0.00000053
-0.27936530 -0.16316850 0.00000239
-0.54982394 -0.22908520 0.26895935
-0.23793220 -0.40473158 0.00000148
-0.37945938 -0.50426769 0.00000111
-0.44039131 -0.70012617 0.00000037
-0.17234220 0.23038582 0.00000386
-0.15930664 0.49540233 0.00000574
-0.39248072 0.00943811 0.14153260
-0.66796170 -0.74317319 0.06260426
-0.33427006 -0.48209846 0.00000119
-0.45211777 -0.08498810 0.00000177
-0.03849057 0.15705575 0.00000359
-0.22590285 -0.05435837 0.00000280
-0.03148967 0.39129295 0.00000447
-0.42835541 -0.06776693 0.15001101
-0.17017722 0.26361219 0.00000746
-0.11759036 -0.03315329 0.00000288
-0.56594687 -0.79033201 0.00000004
-0.00340971 0.57441637 0.00000515
-0.53744623 -0.20402283 0.26461371
-0.06078850 0.10707754 0.00000340
-0.45161306 0.01902179 0.27888202
-0.02935485 -0.79983133 0.00000000
-0.00899949 0.77148853 0.00000608
-0.14025381 0.43371457 0.00000157
-0.08308637 0.51988323 0.00000495
-0.27883517 -0.29341986 0.00000190
-0.49556453 -0.03587078 0.32505722
-0.21802391 -0.70588342 0.00000035
-0.03771970 -0.01831677 0.00000293
-0.23136744 -0.69263668 0.00000040
-0.66145227 0.00848466 -0.00000053
-0.00015297 0.65335015 0.00000710
-0.57108158 -0.32068426 0.00000066
-0.68210043 -0.75768549 -0.00000011
-0.25288188 0.17650795 0.00000366
-0.47223387 0.19075372 0.00000137
-0.15634761 0.22257637 -0.00000275
-0.01812136 0.11007488 0.00000341
-0.00751936 0.18569205 0.00000370
-0.16588428 0.49454547 0.00000563
-0.40281036 -0.43502621 0.00000137
-0.43481713 0.34133561 0.00000187
-0.03230744 0.28387768 -0.00000474
-0.50182699 -0.29609519 0.10407249
-0.50131364 0.14336833 0.00000242
-0.07727039 0.54708217 0.00000505
-0.45117929 -0.05202051 0.21388684
-0.10349014 0.09316760 -0.00000709
-0.24196262 0.54469542 0.00000359
-0.07203110 0.18057863 0.00000368
-0.50725396 0.09771308 0.00000272
-0.66783198 -0.47533123 -0.00000027
-0.45718345 0.30214744 0.00000146
-0.06080105 -0.22022174 0.00000217
-0.31812588 -0.05276678 0.00000280
-0.54743286 -0.22790190 0.00000085
-0.31734994 0.10551921 0.06461659
-0.14057537 -0.34437652 0.00000171
-0.42192398 0.09168657 0.00000197
-0.04272251 0.48290871 0.00000481
-0.23096020 0.30320384 0.05481243
-0.62925562 0.02533402 0.00000105
-0.02765491 0.66020301 0.00000663
-0.12830496 -0.10930655 0.00000259
-0.07148492 -0.23433239 0.00000212
-0.35867607 -0.35495980 0.00000167
-0.11466444 0.21100063 0.00000869
-0.79246398 -0.05687492 -0.00000186
-0.31886409 -0.41434035 0.00000145
-0.32712870 -0.43693901 0.00000136
-0.31823208 0.04422877 0.01128817
-0.14105081 0.50282058 0.03908910
-0.35627049 0.00812666 0.00000645
-0.70739564 -0.08649473 -0.00000095
-0.20636109 -0.18986751 0.00000229
-0.11231902 -0.06808985 0.00000274
-0.24867405 -0.14071804 0.00000247
-0.13086167 0.34281106 0.00000429
-0.22574505 0.26496080 0.00897881
-0.23869964 0.32825825 0.00000576
-0.13583969 0.40767318 0.00000453
-0.20386999 0.16885929 -0.00000266
-0.08486302 -0.28306276 0.00000194
-0.34463295 0.00058342 0.02940271
-0.12607284 -0.31664702 0.00000181
-0.01969509 0.18083181 0.00001035
-0.63708952 -0.71726938 0.01876166
-0.45571008 -0.70962480 0.00000034
-0.40873226 0.30019902 0.00000197
-0.03874184 0.33718724 0.00000889
-0.41716818 0.09438614 0.27185622
-0.10867391 0.18989096 0.00000371
-0.18254564 -0.02324201 0.00000291
-0.20075166 0.43976640 0.11219030
-0.02174257 -0.32477208 0.00000178
-0.65735195 0.00226179 -0.00000048
-0.14754319 -0.05988886 0.00000278
-0.19778764 0.31166919 0.00000668
-0.31354629 0.06952856 0.02388624
-0.15623895 -0.30740094 0.00000185
-0.64495993 -0.58381122 0.00000005
-0.07240398 0.16416436 0.00000362
-0.23537669 0.30978794 0.07036868
-0.57417994 -0.54372388 0.03829808
-0.24725878 -0.46129528 0.00000127
-0.40099417 -0.47246798 0.00000123
-0.06817747 0.47630944 0.00000740
-0.00524247 0.17038008 0.00000364
-0.27081147 0.03084936 0.00000768
-0.12765791 -0.38598521 0.00000155
-0.59298716 -0.10923487 0.00000028
-0.59720627 -0.13080586 0.00000025
-0.14870867 0.45309461 0.01092888
-0.04929588 0.07247286 0.00000327
-0.30455900 -0.20449085 0.00000223
-0.30532668 0.28678445 0.20188269
-0.22767419 0.24930303 -0.00000021
-0.03530151 -0.44125432 0.00000135
-0.23070771 -0.66404347 0.00000051
-0.40859104 -0.57252923 0.00000085
-0.51869006 0.12029670 0.00000092
-0.43970399 -0.30795587 0.00000185
-0.41900164 -0.16772292 0.03953205
-0.43488508 -0.47774723 0.00000121
-0.52152002 -0.06548093 0.35485516
-0.50025818 -0.49648324 0.00000114
-0.28613913 -0.53984116 0.00000098
-0.35639255 0.14065387 0.18128507
-0.08948135 0.57708218 0.00000516
-0.68125676 -0.19747625 -0.00000060
-0.72474628 -0.81930400 0.11756442
-0.16274377 0.19909972 0.00000375
-0.44724573 -0.32530745 0.00000178
-0.61415475 -0.36382673 0.00000023
-0.37470535 -0.17822369 0.00000233
-0.51072947 -0.13702468 0.00000118
-0.45618633 -0.50584400 0.00000110
-0.41821294 -0.29854161 0.00000188
-0.06538513 0.48897212 0.00000735
-0.19770559 -0.59969403 0.00000075
-0.31047829 0.03297407 0.00000312
-0.60280954 0.11166875 0.00000076
-0.29259229 0.29058780 0.17759486
-0.39710375 -0.17712869 0.00000234
-0.06963869 0.10644776 0.00000340
-0.34743344 -0.71888216 0.00000030
-0.44754461 -0.79527794 0.00000002
-0.33952437 0.19527267 0.19381316
-0.73848671 -0.79952237 -0.00000000
-0.31963464 0.05070056 0.02017592
-0.50467781 -0.22138146 0.17763882
-0.46653600 -0.54678379 0.00000095
-0.36185553 -0.78389952 0.00000006
-0.28378607 0.20737815 0.00000337
-0.30546667 0.19294893 0.11758730
-0.55596463 -0.36355606 0.16108772
-0.19622459 -0.08628401 0.00000268
-0.09673062 0.25324314 0.00000395
-0.43847451 -0.17280868 0.00000197
-0.27055456 0.33236441 0.16729071
-0.32278979 0.14141355 0.10882163
-0.20093960 0.26930842 0.00000695
-0.51134824 0.02524736 0.00000331
-0.33464341 0.10524385 0.00000289
-0.64999310 -0.21905012 -0.00000025
-0.31436191 -0.47180146 0.00000123
-0.46662152 0.07102794 0.00000151
-0.51064619 -0.50577020 0.00000110
-0.45911232 -0.15127979 0.14166288
-0.39493599 0.18599791 0.00000407
-0.53910544 -0.13980130 0.32612668
-0.46438585 -0.00590672 0.28420828
-0.51661431 -0.34966171 0.00000126
-0.49832791 -0.47706417 0.00000121
-0.51765981 0.02446059 0.00000100
-0.33183777 -0.03832760 0.00000286
-0.09644931 0.21653971 0.00000381
-0.04784050 -0.30617331 0.00000185
-0.23706976 0.27728109 0.04474599
-0.11663549 0.66675099 0.00000499
-0.72129248 -0.21796990 -0.00000101
-0.23941272 -0.57775117 0.00000083
-0.49872935 -0.44360545 0.00000134
-0.12049402 0.36441958 0.00000745
-0.28110643 0.32259284 0.00000500
-0.55626797 -0.50833355 0.03121804
-0.24500284 0.50760223 0.00000399
-0.30944758 0.08017278 0.02457439
-0.24356807 0.37875867 0.15038002
-0.08677308 -0.51151670 0.00000108
-0.05314993 0.12576294 -0.00000773
-0.39777264 0.19459567 0.00000393
-0.12388597 0.44124984 0.00000129
-0.05885632 0.58496136 0.00000672
-0.13333706 -0.14158020 0.00000247
-0.30359874 0.19548164 0.11579852
-0.18643628 0.49471029 0.13056797
-0.13993981 0.04514307 -0.00000718
-0.42662380 -0.04221721 0.16927733
-0.07614678 0.62452351 0.00754755
-0.42748637 -0.44172928 0.00000134
-0.73585401 -0.66293324 -0.00000034
-0.38819614 0.13813182 0.24823377
-0.20886084 0.17697026 0.00000366
-0.38834455 0.28740278 0.00000220
-0.56695327 -0.68281339 0.00000044
-0.33936657 0.01241850 0.02861018
-0.40998269 0.17410601 0.00000389
-0.57391217 -0.27955502 0.27588726
-0.01941917 -0.68550070 0.00000043
-0.08425403 0.65526560 0.00000520
-0.36214103 -0.33571919 0.00000174
-0.54783957 -0.23255770 0.26150935
-0.09289374 0.29415663 0.00000410
-0.45098180 -0.51350819 0.00000107
-0.53081149 -0.76413338 0.00000013
-0.55102603 -0.01014010 0.00000066
-0.26496770 -0.13966846 0.00000248
-0.50088988 -0.36020122 0.00000143
-0.30227990 0.31675405 0.00000310
-0.15967694 0.46364954 0.04431445
-0.01406141 0.29284864 -0.00000503
-0.11205650 0.23280205 0.00000387
-0.06728648 0.52911044 0.00000498
-0.00371017 0.70684552 0.00000400
-0.56938812 -0.62499911 0.00000066
-0.24405400 0.27878384 0.06129571
-0.23574816 -0.55425347 0.00000092
-0.32602314 -0.26250305 0.00000202
-0.53665199 -0.34341995 0.00000104
-0.46031845 -0.69194336 0.00000041
-0.33981855 -0.07122082 0.00000273
-0.50861506 -0.76168755 0.00000014
-0.60884773 -0.52061859 0.13458832
-0.04679843 -0.43475475 0.00000137
-0.01524774 -0.72792391 0.00000027
-0.70973804 -0.53232797 -0.00000067
-0.46305965 0.16514282 0.00000148
-0.00275605 0.37468446 0.00000441
-0.42607923 0.02997717 0.23318173
-0.60798101 0.14119653 -0.00000005
-0.47091745 0.20446418 0.00000244
-0.34290543 0.24591634 0.00000271
-0.72449550 0.07458145 -0.00000124
-0.03745565 -0.79821534 0.00000001
-0.03401045 0.03492020 -0.00001029
-0.28768280 0.20692264 0.00000333
-0.71565607 -0.76976101 -0.00000008
-0.54970419 -0.32817613 0.17935929
-0.77110070 -0.19249233 -0.00000152
-0.10090319 0.12346043 0.00000955
-0.42435479 0.11447256 0.00000416
-0.12180401 0.53734050 0.02831906
-0.41513997 -0.15734795 0.04048061
-0.21639677 0.50833913 0.00000453
-0.23266511 0.03577340 0.00000822
-0.16975160 -0.60875649 0.00000072
-0.07696609 0.00632745 -0.00000977
-0.35606515 0.08537300 0.13072385
-0.56573896 -0.77816952 0.00000008
-0.04600921 -0.34746037 0.00000170
-0.35817614 0.10405233 0.15216770
-0.77259089 0.00857462 -0.00000155
-0.68842557 -0.72458083 -0.00000019
-0.00531549 0.15113807 -0.00000846
-0.01891700 -0.18531041 0.00000231
-0.42840736 -0.73042269 0.00000026
-0.00094222 0.62391951 0.00000731
-0.45367144 -0.25776520 0.03381393
-0.32391527 0.02764156 0.00000306
-0.04648314 0.14368820 -0.00000750
-0.72526410 -0.49897984 -0.00000075
-0.64122097 -0.02785604 -0.00000029
-0.45625849 0.08829584 0.00000379
-0.19437791 0.43661615 0.09547682
-0.43213405 -0.10441544 0.00000199
-0.63132211 -0.78583553 0.00000005
-0.53836514 0.11395059 0.00000072
-0.13854184 -0.31951331 0.00000180
-0.10526007 0.36591833 0.00000437
-0.08479515 0.59846971 0.00287825
-0.71514653 -0.00189313 -0.00000109
-0.25404773 0.43620966 0.00000353
-0.66350872 -0.75354877 0.04355725
-0.14037170 0.41956696 0.00000674
-0.63095035 -0.18787795 -0.00000007
-0.12738287 -0.63102076 0.00000063
-0.75593457 -0.12526357 -0.00000145
-0.34124776 0.36056000 0.00000349
-0.23597862 -0.41083873 0.00000146
-0.01245489 0.71102255 0.00000434
-0.70033953 -0.47730293 -0.00000062
-0.12427220 -0.53070719 0.00000101
-0.00583571 0.48819353 0.00000825
-0.39077516 0.05038717 0.17473282
-0.03668913 0.48704260 0.00000779
-0.15451390 -0.01526514 0.00000294
-0.54256988 -0.41618329 0.08448422
-0.25063119 -0.51438106 0.00000107
-0.24077763 0.15321653 0.00000357
-0.64970175 -0.29673829 -0.00000020
-0.68005743 -0.09759436 -0.00000065
-0.32822221 -0.55415937 0.00000092
-0.54238407 -0.03722709 0.00000077
-0.41181660 -0.63944949 0.00000060
-0.16538726 0.26704625 0.00000400
-0.22280743 0.02530224 0.00000845
-0.10732447 0.16642650 0.00000913
-0.75285419 -0.61265885 -0.00000047
-0.49844336 -0.68666953 0.00000042
-0.47984258 -0.14316587 0.19410028
-0.21617834 0.39252707 0.00000560
-0.54216946 0.18937549 0.00000121
-0.05263608 0.29783432 0.00000412
-0.19071530 0.45229177 0.10163767
-0.14439635 0.52631323 0.06755348
-0.20968358 -0.34874242 0.00000169
-0.24518638 0.12521799 -0.00000252
-0.10568379 0.13406310 0.00000350
-0.16857991 0.03294886 -0.00000668
-0.45372729 -0.19791506 0.08789578
-0.45750181 -0.01230962 0.26345153
-0.44661745 -0.00111789 0.24984625
-0.24611177 -0.52342439 0.00000104
-0.33059892 -0.38042505 0.00000157
-0.03045207 -0.65372283 0.00000055
-0.68722160 -0.38368457 -0.00000054
-0.06542170 0.12589573 0.00000347
-0.54506385 -0.38426647 0.11868854
-0.59110303 -0.34996840 0.24982129
-0.37577396 0.14842609 0.23047599
-0.16113683 0.35649518 0.00000689
-0.07655110 -0.79600318 0.00000001
-0.64423488 0.14596812 -0.00000044
-0.22683394 -0.24369484 0.00000209
-0.48827218 -0.13948787 0.00000142
-0.67567284 -0.56489503 -0.00000030
-0.23798723 0.29721986 0.06471958
-0.02891547 0.08923871 0.00000333
-0.05797049 0.57088051 0.00000514
-0.51701150 -0.10150022 0.31256837
-0.02427108 0.44545305 0.00000467
-0.63258577 0.15850271 -0.00000032
-0.69041829 -0.37352696 -0.00000058
-0.34248726 -0.00446258 0.02016861
-0.50896527 0.15267057 0.00000100
-0.79122492 -0.48852123 -0.00000078
-0.35442930 0.00139045 0.05144041
-0.12230090 -0.23369041 0.00000212
-0.15305947 -0.52944604 0.00000101
-0.11892975 0.32810148 0.00000423
-0.13126800 0.53899993 0.05041572
-0.12991470 -0.15972121 0.00000240
-0.11623551 0.40715633 0.00000453
-0.30122172 -0.75197482 0.00000018
-0.02543764 -0.55934232 0.00000090
-0.50955365 -0.17867713 0.00000122
-0.04826622 0.22868595 0.00000386
-0.16967080 -0.01573994 0.00000294
-0.45642333 -0.79853037 0.00000001
-0.18029235 -0.18004723 0.00000232
-0.78975667 -0.10383652 -0.00000174
-0.20870572 0.45726144 0.14527638
-0.05001168 -0.28158277 0.00000194
-0.11550718 -0.50308605 0.00000111
-0.00885436 0.46563823 -0.00000128
-0.35310470 -0.45215082 0.00000130
-0.22207778 0.13860212 0.00000352
-0.49382088 -0.05984673 0.00000131
-0.45150551 -0.75358849 0.00000017
-0.14716942 0.51293534 0.06153033
-0.18440167 0.39558178 0.00000618
-0.10928059 0.51146200 0.00000492
-0.20347787 0.12987850 -0.00000355
-0.59363243 -0.55251156 0.00000057
-0.52146017 -0.17476355 0.00000109
-0.35353122 0.05254079 0.09560514
-0.76807790 -0.37178148 -0.00000107
-0.49743162 -0.13425905 0.24041530
-0.24969706 0.17463570 -0.00000129
-0.49106524 -0.03476975 0.31625439
-0.13812125 -0.44051600 0.00000135
-0.12710447 -0.40417305 0.00000148
-0.08140871 0.41751418 -0.00000039
-0.56730747 -0.47263412 0.00000080
-0.72803772 -0.31754222 -0.00000102
-0.07246471 0.58685228 0.00000317
-0.40052261 0.30292440 0.00000288
-0.22739975 -0.68960672 0.00000041
-0.25583729 -0.67105784 0.00000048
-0.26147327 0.53136787 0.00000345
-0.08041644 0.11338056 0.00000343
-0.45377920 -0.37631014 0.00000159
-0.52938152 -0.40929535 0.00000116
-0.67315856 -0.41566177 -0.00000037
-0.46622732 -0.46258144 0.00000127
-0.09660886 0.18160700 0.00000918
-0.14982190 0.22781964 0.00000385
-0.55565105 -0.13519917 0.00000070
-0.06781015 0.30664305 -0.00000326
-0.24591636 0.28031670 0.06673859
-0.60137895 -0.27712823 0.00000030
-0.33139856 -0.61305001 0.00000070
-0.71711752 0.05692610 -0.00000115
-0.34599961 0.15436012 0.00000530
-0.47834278 -0.04919740 0.27555681
-0.04488938 0.54375588 0.00000145
-0.10631812 -0.73512338 0.00000024
-0.36329897 0.01463052 0.08268504
-0.61163245 0.08598171 -0.00000005
-0.02016096 0.32408124 0.00000927
-0.34473231 -0.59352351 0.00000077
-0.07100223 -0.23271744 0.00000213
-0.49911119 -0.19397157 0.19023486
-0.16291270 0.46229159 0.00000598
-0.77423580 -0.20069099 -0.00000150
-0.44805420 0.35126444 0.00000152
-0.12435078 0.50446167 0.00422295
-0.28223955 0.16278044 0.03982067
-0.09131146 0.46405095 0.00000092
-0.03989631 0.33386961 0.00000425
-0.36102109 -0.04152863 0.02710574
-0.58227745 -0.64531107 0.00000058
-0.15522925 0.05248296 -0.00000660
-0.08929783 0.31756011 0.00000419
-0.26062848 0.24480605 0.06673766
-0.65638871 -0.75655371 0.00000004
-0.55085340 -0.75702961 0.00000016
-0.38711666 0.11762853 0.22739729
-0.07631273 -0.17906486 0.00000233
-0.33491739 0.33426862 0.00000385
-0.19020495 0.34427898 0.00314357
-0.58009545 -0.76235981 0.00000014
-0.24342709 0.32916497 0.10535713
-0.08722370 0.30804255 0.00000416
-0.69314955 -0.40520370 -0.00000059
-0.26737351 0.16111348 0.00597031
-0.08916379 0.59863329 0.01253504
-0.20107273 -0.78543519 0.00000005
-0.33478483 -0.30580796 0.00000185
-0.56240736 -0.14795367 0.36949610
-0.64738526 -0.70285035 0.05417167
-0.20240187 0.44705602 0.12235300
-0.74434617 -0.07037030 -0.00000136
-0.17606066 -0.19473851 0.00000227
-0.25235134 -0.32451858 0.00000178
-0.40769657 -0.69967662 0.00000038
-0.25855617 0.35192612 0.15881137
-0.12578493 0.28988363 0.00000793
-0.57768714 -0.53305787 0.00000073
-0.02784625 0.09943560 -0.00000901
-0.11605156 0.24665120 0.00000392
-0.03685167 0.19229189 0.00000372
-0.07951176 0.00896014 0.00001073
-0.22945033 -0.63529784 0.00000062
-0.13392212 -0.60343931 0.00000074
-0.26700744 0.41518251 0.00000341
-0.66977547 0.11829684 -0.00000059
-0.35318888 0.17771344 0.00000495
-0.65893392 -0.07981155 -0.00000044
-0.12084108 0.33450249 0.00000425
-0.52228463 -0.62753936 0.00000065
-0.07305078 0.67219304 0.00000531
-0.65924416 -0.14453918 -0.00000040
-0.08226513 0.09171029 0.00000334
-0.58416008 -0.02150033 0.00000032
-0.28833178 -0.40465183 0.00000148
-0.69529711 -0.51266683 -0.00000054
-0.21403790 0.30563291 0.02016756
-0.02101335 -0.32901903 0.00000177
-0.52771547 -0.56719462 0.00000087
-0.56173253 0.03856777 0.00000052
-0.29307471 -0.70809808 0.00000034
-0.35982157 0.07309280 0.12782809
-0.10818158 -0.19097807 0.00000228
-0.27033014 0.42452332 0.00000337
-0.24974454 -0.06842622 0.00000274
-0.17132288 -0.26448277 0.00000201
-0.06378162 0.63993067 0.00000624
-0.52170091 -0.25536692 0.00000114
-0.46294107 -0.01695672 0.27109712
-0.18682914 -0.63146317 0.00000063
-0.28369856 -0.74540448 0.00000020
-0.29645251 0.26295203 0.16108096
-0.44287792 -0.37276812 0.00000160
-0.45293130 -0.01791263 0.24845162
-0.64300612 -0.61655224 0.12244550
-0.36931667 -0.22727759 0.00000215
-0.30686518 -0.79913487 0.00000000
-0.28713788 -0.56920618 0.00000087
-0.11124393 -0.24800440 0.00000207
-0.50754960 -0.20938397 0.00000126
-0.74917066 -0.39328610 -0.00000102
-0.35452412 -0.11720220 0.00000256
-0.03106616 0.33150185 0.00000904
-0.07023024 0.65876991 0.02554567
-0.10452990 -0.23973328 0.00000210
-0.14828648 -0.63119233 0.00000063
-0.11751837 -0.09805243 0.00000263
-0.00664904 -0.23047712 0.00000214
-0.73461893 -0.59688446 -0.00000051
-0.06951664 0.50828709 0.00000491
-0.36713529 -0.66015667 0.00000052
-0.03927541 -0.76700182 0.00000012
-0.11340263 -0.46313462 0.00000126
-0.05336458 0.49838241 0.00000487
-0.20871569 0.02998083 0.00000311
-0.19177317 0.02073709 -0.00000632
-0.48409675 -0.01614889 0.31787542
-0.20003699 0.38461783 0.06091334
-0.44372887 0.30500130 0.00000203
-0.29763195 0.27855209 0.17771301
-0.21967520 -0.61850191 0.00000068
-0.10185537 0.42511942 0.00000727
-0.15610340 0.10208797 -0.00000546
-0.07063803 0.52697459 0.00000498
-0.46798124 -0.06007622 0.24319540
-0.36739074 0.28791146 0.00000242
-0.21304672 -0.11417759 0.00000257
-0.09763812 -0.36620715 0.00000163
-0.23989706 0.19589649 -0.00000108
-0.32931498 0.34561180 0.00000279
-0.24575862 -0.24672329 0.00000207
-0.04796517 0.07198894 0.00000327
-0.27152137 -0.24685555 0.00000207
-0.29127072 0.24229462 0.13117764
-0.68396413 -0.74498015 0.09580650
-0.18790688 -0.67957629 0.00000045
-0.40046805 0.04019764 0.00000530
-0.09138865 0.18391888 0.00000369
-0.00610468 0.32382992 0.00000948
-0.37914709 0.14647472 0.23606115
-0.15885765 -0.16646916 0.00000238
-0.23326219 -0.36100068 0.00000165
-0.56413029 -0.46288152 0.00000083
-0.12240687 0.58452874 0.07217948
-0.58853012 -0.43229692 0.16999447
-0.15203792 0.24933729 0.00000394
-0.07574771 0.50139733 0.00000488
-0.02803998 0.75925204 0.00000573
-0.20277066 -0.19236404 0.00000228
-0.03103197 -0.30754588 0.00000185
-0.26153037 0.20158326 0.00000361
-0.36956068 -0.77678257 0.00000009
-0.51098634 -0.50756807 0.00000110
-0.13373509 0.19795784 0.00000850
-0.14264365 0.09920346 0.00000910
-0.74728026 -0.14438157 -0.00000134
-0.29154005 0.11885314 0.00000667
-0.66868288 -0.69218590 -0.00000014
-0.27652336 0.21938585 0.07842386
-0.56065212 -0.41751400 0.12264268
-0.15209712 0.12775288 0.00000348
-0.26794163 0.24646473 0.08415872
-0.25809456 -0.23508971 0.00000212
-0.51314892 -0.72999240 0.00000026
-0.39654235 -0.54843657 0.00000094
-0.33881558 -0.46573239 0.00000125
-0.20649189 -0.67703301 0.00000046
-0.17002289 0.24953332 -0.00000177
-0.12353607 0.36505287 -0.00000043
-0.45851852 -0.06159323 0.22123089
-0.27010526 -0.59998063 0.00000075
-0.03188774 -0.66790029 0.00000050
-0.44769389 -0.17567481 0.00000188
-0.60922542 -0.09141117 0.00000010
-0.23182140 0.38707359 0.13231013
-0.07756960 0.21078897 -0.00000515
-0.54473305 -0.70647463 0.00000035
-0.35206307 0.16366579 0.19260873
-0.57587670 -0.54692197 0.03910793
-0.19823116 0.11258801 0.00000342
-0.71238822 -0.03135561 -0.00000104
-0.16796555 0.28004743 0.00000405
-0.36203533 0.31781563 0.00000246
-0.66783989 -0.36606561 -0.00000034
-0.07749243 0.69820633 0.00000545
-0.53686614 -0.43068261 0.05899688
-0.52152740 -0.23569521 0.00000113
-0.42108224 -0.18285419 0.03041853
-0.26016528 0.11123469 0.00000342
-0.41290482 -0.44573029 0.00000133
-0.19899514 0.57854645 0.00000422
-0.13244002 -0.26589570 0.00000200
-0.04878637 0.08082011 0.00001066
-0.43514104 0.00283371 0.22843361
-0.54186332 -0.59601927 0.00000076
-0.61841071 0.06569276 0.00000088
-0.22999338 0.27564073 0.02786446
-0.35177123 0.19641143 0.22149472
-0.01888110 0.34686655 -0.00000368
-0.04454426 0.04817223 -0.00000971
-0.41752623 -0.36548555 0.00000163
-0.04601459 -0.77704332 0.00000009
-0.44092869 0.09758025 0.00000177
-0.00907049 0.19610497 0.00000374
-0.14291650 0.52400906 0.06225471
-0.08862578 -0.56784835 0.00000087
-0.48359916 0.09049958 0.00000132
-0.30928357 0.06498703 0.01052607
-0.55258523 -0.32518416 0.18832776
-0.03860380 0.03458637 -0.00001017
-0.13745995 -0.15609336 0.00000241
-0.03977278 0.00517240 0.00000302
-0.47131134 0.21072895 0.00000137
-0.11385028 -0.01901596 0.00000293
-0.12796390 -0.20571031 0.00000223
-0.40660728 0.28345002 0.00000295
-0.47359505 -0.46086892 0.00000127
-0.00882304 0.68735463 0.00000371
-0.56547980 0.11523599 0.00000043
-0.33344958 0.15410670 0.14347579
-0.00592055 -0.23968115 0.00000210
-0.50427666 -0.05717408 0.00000119
-0.19105783 -0.38780222 0.00000155
-0.08200850 -0.31464255 0.00000182
-0.47236370 -0.57910736 0.00000083
-0.39583828 -0.25199204 0.00000206
-0.19592260 0.01912024 0.00000890
-0.21340396 -0.39046298 0.00000154
-0.37044773 -0.56453748 0.00000088
-0.62765815 -0.70477738 0.00949578
-0.65094126 -0.52755733 -0.00000006
-0.70796827 -0.64687348 -0.00000038
-0.62649091 0.05057105 0.00000087
-0.11933217 0.66641094 0.00000482
-0.33070637 -0.07681934 0.00000271
-0.51057296 -0.36083936 0.06473649
-0.11558653 -0.76842699 0.00000012
-0.06651921 0.23390498 0.00000388
-0.31099660 0.32370883 0.00000441
-0.33097633 -0.78150070 0.00000007
-0.35346828 0.02592271 0.07147957
-0.13092081 -0.60753381 0.00000072
-0.47745135 -0.07614077 0.24932462
-0.38756150 0.01093674 0.13216722
-0.05722833 0.66980996 0.00719686
-0.01335027 -0.25999656 0.00000203
-0.08822846 0.19011735 0.00000924
-0.40079745 -0.22530789 0.00000216
-0.31042882 0.13896168 0.07970459
-0.58174870 -0.37516120 0.00000058
-0.18634485 0.11313911 0.00000834
-0.13918817 0.17085306 0.00000862
-0.25396204 -0.48700694 0.00000117
-0.18205436 -0.29034319 0.00000191
-0.36425442 0.01863703 0.08838824
-0.12390328 0.51477989 0.01255171
-0.57390264 -0.62523237 0.00000066
-0.20827337 -0.04353531 0.00000284
-0.26143995 0.30870838 0.12612528
-0.60072714 0.12999937 0.00000004
-0.21070590 0.32659472 0.03182249
-0.03310066 0.59653047 0.00000232
-0.57937767 -0.42708374 0.15477317
-0.31131091 -0.21985283 0.00000218
-0.18636950 0.43157844 0.00000581
-0.29797608 -0.31656837 0.00000181
-0.46321274 0.03175449 0.31560880
-0.44079581 0.29932197 0.00000214
-0.06674414 0.53370708 0.00000500
-0.27870297 0.38696594 0.00000330
-0.17310774 0.44931284 0.00000439
-0.36076247 0.09441785 0.00000557
-0.13101442 -0.61146447 0.00000071
-0.19693444 -0.10638017 0.00000260
-0.46729222 -0.19471891 0.12030315
-0.49737982 0.05666872 0.00000119
-0.53885997 -0.23491918 0.23983506
-0.34803037 0.02696604 0.06057193
-0.60939100 0.04582405 0.00000000
-0.26679598 0.30030811 0.13020586
-0.41788441 -0.22005093 0.00000217
-0.58723352 -0.32665151 0.26242110
-0.29421435 -0.41153341 0.00000146
-0.53093882 -0.76563013 0.00000013
-0.52711469 -0.34893003 0.11147895
-0.23431661 0.27347701 0.00000635
-0.43419103 -0.41564999 0.00000144
-0.36487833 -0.53497521 0.00000099
-0.42064967 0.01071353 0.20398953
-0.18406103 0.36534741 0.00876567
-0.04244768 0.48619415 0.00000482
-0.03851974 0.41398265 0.00000831
-0.41247426 0.36420420 0.00000189
-0.53868784 -0.77752265 0.00000008
-0.62862927 -0.53013714 0.16906351
-0.18668088 0.15574333 -0.00000343
-0.11396012 0.52680745 0.00175314
-0.36170373 0.18194797 0.23007587
-0.56702481 -0.41492750 0.13884559
-0.16929889 0.01946996 -0.00000696
-0.07979067 0.13919419 0.00000352
-0.04638009 0.70357511 0.00000557
-0.58327822 0.02443226 0.00000194
-0.65120168 -0.10513882 -0.00000034
-0.34067367 0.29797883 0.00000270
-0.45865999 0.06183755 0.00000399
-0.06464480 -0.09701121 0.00000264
-0.39912570 -0.08562352 0.07028962
-0.77895836 -0.61194209 -0.00000047
-0.57727588 -0.72158166 0.00000029
-0.19879558 -0.27420542 0.00000197
-0.44182591 -0.18469277 0.07391205
-0.37432378 -0.08721087 0.01487404
-0.34116872 0.19795514 0.19981079
-0.39750512 -0.05968602 0.09014722
-0.24550347 0.26560689 0.05256982
-0.59345354 -0.03725316 0.00000023
-0.22067410 -0.66467100 0.00000051
-0.07878158 -0.71272397 0.00000033
-0.57939393 -0.45381719 0.13070595
-0.09917429 -0.77917091 0.00000008
-0.23814521 -0.09865353 0.00000263
-0.39329862 -0.68854494 0.00000042
-0.58300641 -0.56738456 0.03617776
-0.49240411 -0.32689310 0.05579536
-0.31876046 0.04225728 0.01066079
-0.10184933 0.36497569 -0.00000102
-0.23954141 -0.17430837 0.00000235
-0.23212919 0.06613424 0.00000800
-0.46376456 -0.30815013 0.01035630
-0.52896858 -0.67679302 0.00000046
-0.08141851 -0.74660484 0.00000020
-0.28762440 0.32881692 0.20124863
-0.65982148 -0.15528561 -0.00000040
-0.56814015 0.03271753 0.00000215
-0.71528511 -0.33954802 -0.00000087
-0.13960184 -0.34452927 0.00000171
-0.15681501 -0.14623592 0.00000245
-0.18310221 0.19496823 0.00000373
-0.22172029 -0.42294523 0.00000141
-0.43754944 0.24260642 0.00000273
-0.55669551 -0.22895575 0.00000075
-0.33892052 0.03085238 0.04425909
-0.03088601 -0.17194449 0.00000236
-0.09721949 0.10194511 0.00000338
-0.31896944 0.20124726 0.00000539
-0.27497352 0.35813689 0.00000336
-0.22466501 0.33134154 0.06647988
-0.00475856 -0.03727234 0.00000286
-0.42371055 -0.61607699 0.00000069
-0.21304600 0.34768465 0.00000607
-0.72817906 -0.56738643 -0.00000058
-0.65618792 -0.35342051 -0.00000023
-0.48224381 0.21869530 0.00000209
-0.29187273 -0.13300288 0.00000250
-0.09687950 0.59519957 0.02623670
-0.38470787 0.06053810 0.17067862
-0.15953633 -0.78732756 0.00000005
-0.00717921 -0.20838326 0.00000222
-0.45733378 -0.28425395 0.01790348
-0.74745686 0.03877013 -0.00000147
-0.12700781 -0.64526872 0.00000058
-0.42598201 -0.13804961 0.00000208
-0.08008400 0.00265441 -0.00000977
-0.37207758 -0.67743165 0.00000046
-0.03613527 0.61831104 0.00000532
-0.36976480 0.36712863 0.00000288
-0.44145949 0.05961791 0.00000179
-0.31370188 -0.41309164 0.00000145
-0.10819537 0.19692104 0.00000374
-0.18640674 -0.04141537 0.00000284
-0.25993048 0.03169776 0.00000312
-0.27640114 0.09765166 0.00000710
-0.09434862 0.69805219 0.00000513
-0.15133384 0.08326645 -0.00000602
-0.12986273 -0.50451980 0.00000111
-0.30902389 -0.14461804 0.00000246
-0.67065536 -0.66388014 0.13995727
-0.23597160 0.25946203 0.02629024
-0.23410246 0.29032973 0.00000620
-0.13460002 -0.01320753 0.00000295
-0.07271787 0.18445903 0.00000369
-0.19861641 0.43051990 0.09920337
-0.37179201 0.15060130 0.00000247
-0.54769145 -0.33341699 0.17025322
-0.00472296 -0.47516746 0.00000122
-0.79251458 -0.76867205 -0.00000008
-0.24217465 0.19288050 0.00000690
-0.35435305 -0.11955785 0.00000255
-0.25056460 -0.56352749 0.00000089
-0.06194117 0.44975558 -0.00000020
-0.08478152 0.62036904 0.02259407
-0.07902162 -0.11788392 0.00000256
-0.43782655 -0.01987554 0.21379816
-0.08553490 0.58328852 0.00000633
-0.15265026 0.64031890 0.00000448
-0.68236943 -0.64404116 0.18334109
-0.04691057 0.02465807 -0.00001017
-0.51803386 -0.59366444 0.00000077
-0.40150509 -0.01321468 0.14075173
-0.28161766 -0.76454346 0.00000013
-0.29028836 -0.00563894 0.00000298
-0.06647075 0.37040195 -0.00000186
-0.49623331 -0.37426651 0.00000149
-0.45760877 -0.49953656 0.00000113
-0.44115157 -0.20137941 0.05739976
-0.12235217 0.52335739 0.01690893
-0.24408727 0.26183414 0.00000627
-0.27435957 0.26566558 0.00000565
-0.09387041 0.50185045 0.00000682
-0.39665903 -0.09440608 0.05700233
-0.64196977 -0.48032579 0.00000001
-0.69981463 -0.80421462 0.07690190
-0.04092327 -0.13593674 0.00000249
-0.07027482 0.51598804 0.00000707
-0.61657888 -0.79998778 0.00000000
-0.24152291 0.40851494 0.17275797
-0.29120160 0.32940778 0.00000474
-0.05578305 -0.56314312 0.00000089
-0.22676662 0.26034443 0.00704014
-0.13870651 -0.36168453 0.00000164
-0.08793666 0.16409013 0.00000362
-0.66155988 0.07932676 -0.00000058
-0.27939565 0.00199796 -0.00000437
-0.24458614 0.34828709 0.12512464
-0.61612367 -0.11937640 0.00000004
-0.47699406 -0.28292322 0.06189629
-0.45112780 -0.37364922 0.00000160
-0.10617829 -0.78532380 0.00000006
-0.42791049 0.09770010 0.29822603
-0.34936278 0.32448687 0.00000367
-0.59411342 -0.35019724 0.25616748
-0.34052592 -0.68162061 0.00000044
-0.42668866 -0.00230033 0.20540079
-0.34092431 0.11053645 0.12045508
-0.30718454 0.09400842 0.03212268
-0.32395039 -0.01713232 0.00000294
-0.21752264 -0.03806342 0.00000286
-0.65371687 -0.76505652 0.01186874
-0.22973467 0.51501939 0.00000421
-0.00422875 -0.33796538 0.00000173
-0.37722447 0.00203173 0.10164797
-0.57458288 -0.36381615 0.20137815
-0.51552955 -0.16108985 0.25561729
-0.10907387 0.22075249 0.00000383
-0.13454080 -0.05062142 0.00000281
-0.18209774 -0.03862118 0.00000286
-0.65755878 -0.65657239 -0.00000004
-0.33952496 -0.04417428 0.00000283
-0.29711161 0.27878351 0.00000509
-0.36971784 0.42658366 0.00000234
-0.07652125 -0.37892946 0.00000158
-0.20872636 0.01255273 0.00000305
-0.52786047 0.07755841 0.00000085
-0.57926294 -0.59318927 0.00476436
-0.05214114 0.38221403 0.00000443
-0.23505699 0.06636601 0.00000796
-0.66302929 -0.07019804 -0.00000049
-0.63203932 -0.73876627 0.00000023
-0.56244613 -0.41318069 0.13045445
-0.53035509 0.20843125 0.00000126
-0.28970293 0.28606521 0.16722828
-0.33585573 -0.63012391 0.00000064
-0.02282471 0.07872930 -0.00000961
-0.04916769 0.64271370 0.00000644
-0.63886723 -0.57635433 0.14967875
-0.31215097 -0.49812924 0.00000113
-0.47667263 -0.25043171 0.09049068
-0.32842008 0.12168607 0.00000594
-0.24550412 0.34291216 0.12227675
-0.04549640 -0.24421688 0.00000208
-0.21840827 -0.72889770 0.00000027
-0.05736043 -0.63711596 0.00000061
-0.14286939 0.15653722 -0.00000460
-0.60293802 -0.61197530 0.00000051
-0.04383278 -0.21231267 0.00000220
-0.18823552 -0.64312567 0.00000059
-0.35545095 -0.17887434 0.00000233
-0.23278986 0.02557121 0.00000310
-0.57163866 -0.24748053 0.00000060
-0.31735184 0.22932958 0.00000516
-0.58210185 0.19255370 0.00000041
-0.54890757 -0.17203274 0.31840269
-0.63825844 -0.68561514 0.04984511
-0.69420514 -0.05568521 -0.00000083
-0.00564642 0.56659976 0.00000090
-0.19988920 0.10264332 0.00000821
-0.08267937 -0.15828650 0.00000241
-0.46089045 0.06077631 0.00000395
-0.41914584 -0.72607957 0.00000028
-0.38379272 0.10618884 0.20984745
-0.62889146 -0.51764676 0.18089542
-0.15491237 0.15865948 0.00000359
-0.21071703 0.46176655 0.00000398
-0.17348652 0.18107223 0.00000368
-0.33328146 0.21699049 0.19980526
-0.29960617 0.31083302 0.21111433
-0.30682178 -0.69571092 0.00000039
-0.79171572 -0.41292144 -0.00000097
-0.00804763 -0.75272480 0.00000018
-0.28290681 0.01150089 0.00000764
-0.30575528 0.46964289 0.00000296
-0.16494713 -0.15613734 0.00000241
-0.18735645 0.16658506 0.00000362
-0.05812540 -0.70371684 0.00000036
-0.55002073 -0.62736329 0.00000065
-0.19063260 0.16891497 -0.00000302
-0.32442057 -0.52079988 0.00000105
-0.23740461 -0.63153648 0.00000063
-0.15857977 0.40897466 0.00000151
-0.47884305 -0.03038345 0.29360504
-0.16870143 0.39537945 0.00240264
-0.65109300 -0.05631399 -0.00000037
-0.51453316 -0.19799900 0.22017162
-0.10057837 0.08547976 0.00000332
-0.35546228 0.11268724 0.15404578
-0.22117884 -0.78250319 0.00000007
-0.12255229 0.53082379 0.02407209
-0.30012382 0.13020707 0.04937996
-0.55003067 -0.60212208 0.00000074
-0.31801627 -0.33450123 0.00000175
-0.24480647 -0.47479981 0.00000122
-0.03904266 0.60827722 0.00000275
-0.02728730 0.53707002 0.00000083
-0.37664597 0.15242640 0.23598315
-0.78725356 0.00897967 -0.00000184
-0.09333910 0.19759322 0.00000911
-0.67445185 -0.54308611 -0.00000030
-0.26274076 0.50926686 0.00000363
-0.29153368 -0.35248989 0.00000168
-0.07190113 -0.19619473 0.00000226
-0.11230920 0.14777596 0.00000355
-0.48407391 0.31133226 0.00000116
-0.34198322 -0.44302040 0.00000134
-0.11693698 0.58623232 0.06180810
-0.22093020 0.38937454 0.11067859
-0.33228798 0.06653962 0.06198663
-0.16497166 0.34014430 0.00000013
-0.31237251 0.16563726 0.10799478
-0.28832656 0.19066837 0.00000333
-0.51020142 0.23124144 0.00000094
-0.46512503 -0.53909981 0.00000098
-0.24095108 0.39819782 0.00000507
-0.43651627 -0.08674479 0.15066388
-0.63706887 -0.62054284 0.10592443
-0.56535151 0.21406278 0.00000036
-0.30118523 0.19652972 0.11148998
-0.64806210 -0.73707926 0.02478446
-0.10399542 0.54770535 0.00000505
-0.06823821 -0.61031114 0.00000071
-0.18908417 -0.60815018 0.00000072
-0.49110782 -0.07101535 0.00000134
-0.39434415 -0.50932340 0.00000109
-0.01399886 0.38170203 0.00000443
-0.09607902 -0.02315892 0.00000291
-0.06326098 0.49926838 0.00000487
-0.39049667 -0.00438068 0.12474533
-0.19653221 0.57730381 0.00000405
-0.04515548 -0.11911537 0.00000255
-0.34645494 -0.54166071 0.00000097
-0.24109771 -0.18415356 0.00000231
-0.72882678 0.06051308 -0.00000128
-0.13615620 -0.16587870 0.00000238
-0.36299835 -0.18434633 0.00000231
-0.19706579 0.38978892 0.05910313
-0.62344683 0.00979955 -0.00000012
-0.43177302 0.21800744 0.00000178
-0.19631509 -0.77289700 0.00000010
-0.32599487 -0.39780275 0.00000151
-0.09374330 -0.52498569 0.00000103
-0.57227223 -0.48103160 0.00000075
-0.39005823 -0.16441971 0.00000238
-0.29473013 -0.40184246 0.00000149
-0.11191677 -0.33264014 0.00000175
-0.55454971 -0.17186531 0.33083446
-0.61293060 -0.49601830 0.16565456
-0.02026536 0.28753158 -0.00000498
-0.33329878 0.28273113 0.00000436
-0.28562731 0.27628149 0.14953279
-0.69901779 0.01354096 -0.00000093
-0.13819864 -0.25639908 0.00000204
-0.18602422 -0.02373842 0.00000291
-0.28413362 -0.12461799 0.00000253
-0.34740264 -0.05485216 0.00000279
-0.03583434 -0.36354610 0.00000164
-0.54177248 -0.26206483 0.22170024
-0.49710864 -0.21268869 0.16900090
-0.02324432 0.55689399 0.00000116
-0.41275524 0.06226930 0.23329072
-0.29438690 -0.50937285 0.00000109
-0.27501025 0.06236881 0.00000738
-0.50783255 -0.21713973 0.18832982
-0.43782096 0.20009392 0.00000173
-0.79242688 -0.74228680 -0.00000014
-0.09952513 -0.26479761 0.00000201
-0.26759393 0.15864175 0.00000357
-0.63333830 -0.23819134 -0.00000006
-0.43291967 -0.23860558 0.00591926
-0.33974824 -0.39446884 0.00000152
-0.02443233 0.18001792 0.00000368
-0.43837058 -0.22595555 0.02918897
-0.62763471 -0.63654808 0.07095962
-0.63501342 -0.05966659 -0.00000020
-0.52145550 -0.04216132 0.00000100
-0.32258180 0.02378488 0.00230932
-0.25756870 -0.26123752 0.00000202
-0.49648315 0.16138124 0.00000113
-0.19653845 0.33019221 0.00422003
-0.18899105 0.39729900 0.04829815
-0.01223485 -0.38922400 0.00000154
-0.01365657 0.44620176 -0.00000159
-0.08037588 -0.45163938 0.00000131
-0.37914104 -0.01112434 0.09395825
-0.19254422 -0.06749571 0.00000275
-0.52563914 -0.55523604 0.00000092
-0.76803398 -0.40400299 -0.00000099
-0.41548613 0.08304465 0.25796966
-0.77720644 -0.75140461 -0.00000012
-0.16887820 0.08797308 0.00000333
-0.47372901 -0.00986329 0.00000149
-0.34511884 0.15844228 0.00000275
-0.11369841 0.58664273 0.00000578
-0.34529991 0.21745040 0.22637823
-0.04248546 -0.39083998 0.00000153
-0.37125754 -0.08415964 0.01095094
-0.23483450 0.27018695 0.03347610
-0.12008208 -0.58764667 0.00000080
-0.45118702 -0.22142694 0.00000187
-0.19355663 -0.66814055 0.00000049
-0.07247058 0.53248415 0.00000691
-0.18906997 -0.09674008 0.00000264
-0.41024635 0.08522736 0.00000210
-0.25622484 -0.40401137 0.00000148
-0.60255471 -0.60211316 0.04741610
-0.37945915 0.01653444 0.11957784
-0.04139853 -0.52547644 0.00000103
-0.55206111 -0.28783070 0.22086445
-0.29539346 -0.20065109 0.00000225
-0.10565180 -0.51250780 0.00000108
-0.77922362 -0.26579434 -0.00000134
-0.55973530 -0.18230064 0.33271314
-0.17947090 -0.56254637 0.00000089
-0.69361656 -0.73666540 0.12431275
-0.10209578 0.25898485 0.00000397
-0.05367383 -0.01873263 0.00000293
-0.64896897 -0.54872938 -0.00000002
-0.43578735 0.02028439 0.24556952
-0.55347983 -0.51840034 0.01607318
-0.30979560 -0.29455928 0.00000190
-0.37998971 -0.30584707 0.00000185
-0.45874023 -0.47233110 0.00000123
-0.40488515 0.05365592 0.20839873
-0.34340605 -0.49629849 0.00000114
-0.34672894 -0.49849812 0.00000113
-0.01477710 0.55949621 0.00000510
-0.15868160 -0.40865149 0.00000147
-0.42066586 -0.55077145 0.00000093
-0.30444462 0.27988149 0.19374020
-0.03141852 0.68365977 0.00000556
-0.00762526 0.21342687 0.00000380
-0.78571312 -0.73676551 -0.00000016
-0.20471850 0.35641400 0.00000411
-0.59732727 -0.31598116 0.29401173
-0.47997066 -0.06340422 0.26628645
-0.35288813 -0.44576369 0.00000133
-0.19974660 0.57182800 0.00000426
-0.02384101 -0.72328823 0.00000029
-0.56946497 -0.28597421 0.26041990
-0.02901243 0.66847413 0.00000551
-0.13008650 0.40939825 0.00000454
-0.21333200 0.34818125 0.05699462
-0.23245908 0.32745586 0.07994737
-0.31438414 0.09958586 0.05281110
-0.47804281 -0.73789926 0.00000023
-0.31753058 0.19821598 0.00000301
-0.08688845 -0.04964311 0.00000281
-0.11081436 -0.26577975 0.00000200
-0.56395269 -0.12555766 0.00000060
-0.39117379 0.32246205 0.00000288
-0.20368088 -0.15786737 0.00000241
-0.25638737 0.04730856 0.00000318
-0.27736753 -0.45770396 0.00000128
-0.04905300 0.56774684 0.00000211
-0.13859905 0.36686448 0.00000716
-0.25183801 -0.70950267 0.00000034
-0.67809976 -0.70246710 0.12137131
-0.34364420 0.12424174 0.13873286
-0.56077313 -0.21269566 0.30756826
-0.01784711 -0.11142116 0.00000258
-0.55677824 -0.18361454 0.32509214
-0.59015911 -0.48956103 0.12191142
-0.38272978 0.10030845 0.20223170
-0.32927575 0.23823952 0.21024261
-0.26650942 -0.15806432 0.00000241
-0.27883109 0.23402184 0.09663604
-0.13008437 -0.70531023 0.00000036
-0.68003466 -0.14025326 -0.00000063
-0.26016211 0.06392408 0.00000324
-0.16570561 0.24088614 0.00000769
-0.14594245 0.25869056 0.00000397
-0.04971603 0.31606910 0.00000419
-0.06827358 0.72321004 0.00000540
-0.75246086 -0.07882109 -0.00000144
-0.18686883 0.39895336 0.00000427
-0.13486206 -0.61468483 0.00000069
-0.15966711 -0.18611774 0.00000230
-0.21277781 0.29346415 0.00646205
-0.18838058 0.45906537 0.00000422
-0.10526881 -0.63353794 0.00000062
-0.68678652 -0.49453056 -0.00000046
-0.46695810 -0.19454826 0.11972974
-0.74131699 -0.73993645 -0.00000015
-0.11508145 0.48384996 0.00000663
-0.28528466 0.38361145 0.00000435
-0.17252095 0.05662519 0.00000321
-0.04778116 0.42770101 -0.00000108
-0.11847045 0.43544438 0.00000463
-0.00755086 0.10284925 -0.00000948
-0.04724610 0.19431865 0.00000983
-0.61737434 -0.13778075 0.00000004
-0.17578987 -0.13590214 0.00000249
-0.21581682 -0.15091413 0.00000243
-0.60987490 -0.54960879 0.00000040
-0.50834207 -0.14257696 0.25666389
-0.31573409 -0.54653032 0.00000095
-0.31220611 -0.22722020 0.00000215
-0.22816239 -0.08500426 0.00000268
-0.08610618 0.20482981 0.00000377
-0.61405266 -0.56132172 0.10921995
-0.44935954 -0.62056467 0.00000067
-0.25938843 -0.36210319 0.00000164
-0.05953847 0.26208307 -0.00000449
-0.07426684 -0.49281555 0.00000115
-0.07943482 -0.05827739 0.00000278
-0.29365024 0.25730513 0.00000536
-0.01301943 -0.20711332 0.00000222
-0.75357610 -0.47544768 -0.00000081
-0.07696057 0.23090816 0.00000387
-0.45725110 -0.75398947 0.00000017
-0.40302137 0.14578458 0.28740427
-0.36710538 -0.09962150 0.00000263
-0.04210745 -0.40416908 0.00000148
-0.34407162 -0.03599244 0.00000287
-0.37299654 -0.52803750 0.00000102
-0.44048979 0.17473806 0.00000172
-0.59674926 -0.34974085 0.00000040
-0.17106581 0.49459058 0.09700431
-0.05535061 -0.75294477 0.00000018
-0.23659932 0.39817207 0.00000374
-0.36706384 -0.67560743 0.00000047
-0.72736024 -0.63559684 -0.00000041
-0.13642827 0.54255136 0.06485030
-0.64560359 -0.31191833 -0.00000014
-0.27816934 0.03939402 0.00000315
-0.26808865 -0.36219490 0.00000164
-0.45967782 -0.37103302 0.00000161
-0.10940318 0.02388892 0.00000309
-0.50746774 0.13544878 0.00000237
-0.65640686 -0.15952602 -0.00000036
-0.11442965 0.58567142 0.05584463
-0.25103776 -0.70285161 0.00000036
-0.10784445 -0.59602441 0.00000076
-0.14705156 0.32449692 0.00000422
-0.54600223 -0.76787663 0.00000012
-0.40299896 -0.08902245 0.00000230
-0.01708032 0.21499109 0.00000381
-0.07735803 0.08172334 0.00000331
-0.34018612 0.39717052 0.00000317
-0.53887289 -0.10577321 0.35629990
-0.21973611 0.36269281 0.00000581
-0.51680106 -0.65136459 0.00000056
-0.31605637 -0.46155900 0.00000127
-0.07111048 0.63663509 0.00750509
-0.43504687 -0.20255825 0.04304930
-0.32732553 0.05446488 0.04030996
-0.78944292 -0.37294955 -0.00000107
-0.23896975 -0.09130675 0.00000266
-0.25623372 0.31447463 0.11999206
-0.61424279 -0.24586810 0.00000015
-0.43526958 -0.28445071 0.00000193
-0.53291780 -0.38339025 0.00000111
-0.79083088 -0.29654698 -0.00000126
-0.43547971 0.33412957 0.00000192
