ply
format ascii 1.0
element vertex 1382
property float x
property float y
property float z
end_header
-0.13469361 0.26525795 0.00000133
-0.23674647 -0.75893753 0.00000005
-0.33584638 -0.00186630 0.00131878
-0.44861940 -0.05825649 0.00000033
-0.04993156 0.29467432 0.00000197
-0.39842116 -0.36313122 0.00000055
-0.12809527 -0.18764915 0.00000077
-0.53055010 -0.21182579 0.00000002
-0.31061417 0.20883519 0.00000084
-0.16356900 0.30764016 -0.00000168
-0.72646507 -0.55116516 0.05916429
-0.12689982 0.42501323 0.00000477
-0.13382235 0.55911266 0.01207564
-0.42478945 -0.57383767 0.00000541
-0.38087743 0.27124142 0.05741005
-0.31136313 -0.38743150 0.00000427
-0.21302834 0.27852162 -0.00000070
-0.53449433 -0.48856976 0.00000038
-0.23523332 0.30079610 0.01009290
-0.16111374 0.62789274 0.00000135
-0.70388358 0.01819274 -0.00000141
-0.06259376 0.31867661 -0.00000453
-0.29465158 0.25699354 0.02473208
-0.00305282 0.40775832 -0.00000477
-0.46132607 0.08866900 0.05911856
-0.62803770 0.01249760 -0.00000092
-0.24160364 0.36356434 0.00000107
-0.42987535 0.16450709 0.05910836
-0.30917812 -0.35776163 0.00000428
-0.05980872 0.68094477 0.00000254
-0.43381135 0.16492200 0.00000269
-0.65320589 0.07640850 0.12537413
-0.10279371 -0.65554154 0.00000142
-0.55733723 0.14061168 0.10080328
-0.30116464 -0.69604114 0.00000377
-0.63853167 -0.50070381 -0.00000026
-0.01303906 0.61933939 -0.00000077
-0.21626595 -0.01244219 0.00000098
-0.15399901 -0.45554344 0.00000043
-0.50879116 -0.63179091 0.00000635
-0.11342965 -0.40138689 0.00000187
-0.56241207 -0.10115125 -0.00000034
-0.14911006 0.27693874 0.00000315
-0.73917389 -0.31310463 0.09864345
-0.04201142 0.59908164 0.00000388
-0.09839204 -0.34812687 0.00000056
-0.63057089 -0.23615655 0.07142957
-0.18560073 0.58085557 0.00000112
-0.14321712 -0.57170157 0.00000029
-0.14081049 0.64679018 0.00000147
-0.42537512 0.21826138 0.06540894
-0.03138055 0.37770198 0.00000185
-0.37945718 0.41209393 0.00000022
-0.12279572 -0.65228937 0.00000018
-0.27134301 -0.06394255 0.00000092
-0.09561688 0.54859759 0.00000284
-0.14694709 0.14458132 0.00000798
-0.24869989 0.18431160 0.00000123
-0.18500205 0.52758260 0.00000120
-0.04389931 0.21909597 0.00000127
-0.15675052 0.53394556 0.00000277
-0.04106518 0.03850001 0.00000154
-0.09210135 0.48478679 -0.00000074
-0.58309642 0.14535773 0.11063688
-0.53197530 0.10101318 0.08599014
-0.64711705 -0.43209154 0.04851452
-0.03826901 0.49720784 0.00000208
-0.50079464 0.00938786 0.00000361
-0.58023286 0.17413419 0.11384927
-0.47032995 -0.57588145 0.00000028
-0.50636633 -0.63273736 0.00000632
-0.35562327 -0.71416813 0.00000011
-0.49358108 -0.41126565 0.00000049
-0.51833487 -0.74098798 0.00000007
-0.62472786 -0.43302884 0.04043615
-0.07073487 0.57211411 0.00000015
-0.20012955 -0.13858405 0.00000324
-0.26220301 -0.52535656 0.00000034
-0.54758602 -0.16547788 0.05238058
-0.29941309 -0.67024033 0.00000378
-0.02432418 -0.06295452 0.00000092
-0.51094081 0.00303686 0.00000351
-0.49608192 -0.19584681 0.00000022
-0.24173281 0.47603065 0.03814326
-0.49287882 -0.32848035 0.00903228
-0.25735327 0.28621606 0.01580008
-0.65884148 -0.46401987 0.04798241
-0.09719881 -0.17692414 0.00000078
-0.09825531 0.43012892 0.00000514
-0.10755340 -0.25820920 0.00000198
-0.16865028 -0.56987319 0.00000232
-0.03085598 -0.05440671 0.00000093
-0.29072689 0.04492344 0.00000457
-0.78727491 -0.42905366 -0.00000093
-0.30013894 0.47661481 0.05894468
-0.66035658 0.07553117 0.12778135
-0.11795878 -0.35378128 0.00000056
-0.26165619 0.43909125 0.03978266
-0.29158530 -0.17099175 0.00000079
-0.48120792 0.15446915 -0.00000018
-0.04853647 0.52435395 0.00000224
-0.64488917 -0.07129350 0.10072663
-0.69761703 0.02554888 -0.00000040
-0.08744518 0.10086940 0.00000218
-0.01110704 0.15260812 -0.00000899
-0.32988884 0.14337644 0.02053769
-0.77546973 -0.32660375 0.10953327
-0.37642000 -0.30308294 0.00000062
-0.35081849 -0.73076404 0.00000009
-0.48171432 -0.44936991 0.00000044
-0.11954355 0.12605370 0.00000260
-0.55640710 0.23582354 -0.00000077
-0.09460452 0.66527612 0.00000210
-0.03047571 -0.50354510 0.00000037
-0.11151796 -0.00128769 0.00000234
-0.48283142 0.11708296 0.07092064
-0.38097656 0.25949574 0.05571759
-0.11489989 -0.79533521 0.00000139
-0.20874761 0.33155109 0.00522116
-0.12652822 -0.16532976 0.00000232
-0.06918285 -0.61776041 0.00000106
-0.51755861 -0.78105456 0.00000627
-0.03156863 -0.47272062 0.00000079
-0.02082495 -0.27610737 0.00000065
-0.45302317 -0.76186692 0.00000552
-0.24558124 -0.64991685 0.00000315
-0.27054098 -0.40883234 0.00000049
-0.12704645 0.34443202 0.00000296
-0.00617467 -0.16668506 0.00000079
-0.16439701 0.55871852 0.02286201
-0.39139601 0.25567541 0.00000026
-0.41669363 0.35790616 0.08284405
-0.54644546 0.04905212 0.08348842
-0.40083913 0.37207817 0.00000038
-0.15838831 0.05107049 -0.00000633
-0.54138113 -0.05652048 0.06618607
-0.27588089 -0.08239745 0.00000090
-0.05051067 0.14153630 -0.00000800
-0.50618896 -0.66860235 0.00000627
-0.29408663 0.43804261 0.05113189
-0.13113927 0.63666147 0.02251732
-0.66334602 -0.17144815 0.09255964
-0.28941936 -0.12213843 0.00000085
-0.07259191 0.35992236 0.00000641
-0.55092906 0.04827665 0.08496474
-0.35783046 0.28214731 0.00000044
-0.51765304 -0.55199024 0.00000031
-0.37719253 -0.19980444 0.00000530
-0.02023904 0.38602535 -0.00000463
-0.34950927 0.33099768 0.00000042
-0.42557644 -0.74994087 0.00000006
-0.66205804 -0.46690133 0.04869993
-0.41855890 0.06095627 0.03988290
-0.34586818 -0.67945831 0.00000015
-0.48693476 -0.68997473 0.00000602
-0.00710541 0.38412251 -0.00000506
-0.14034968 0.20593629 0.00000731
-0.17207624 -0.35722471 0.00000263
-0.22167541 0.37795997 0.01662092
-0.51516485 -0.13953958 0.00000002
-0.05283151 -0.43215942 0.00000110
-0.55956991 0.15185443 -0.00000067
-0.65399625 -0.71386981 -0.00000006
-0.53069332 -0.77960091 0.00000003
-0.18584261 -0.46719505 0.00000266
-0.43112880 -0.37364595 0.00000053
-0.77333591 -0.10717668 0.14101095
-0.13549062 -0.28188633 0.00000228
-0.30953476 0.26789032 0.03161496
-0.58293708 0.14975217 0.11122658
-0.26923749 -0.36954339 0.00000054
-0.27811480 -0.37457845 0.00000389
-0.36326210 -0.73943134 0.00000446
-0.08139210 -0.45137546 0.00000142
-0.01755852 0.70011687 0.00000209
-0.02795553 -0.61761436 0.00000023
-0.66647744 0.04769005 -0.00000121
-0.04251765 0.69427575 0.00000143
-0.49756203 0.16516120 0.00000146
-0.50308643 -0.15273951 0.03846940
-0.34700405 -0.02092592 0.00247611
-0.39042955 0.03349495 0.00000057
-0.42938827 0.17333451 0.06023238
-0.40679190 -0.18478174 0.00000568
-0.69703622 -0.05173270 -0.00000127
-0.23355430 0.44433750 0.03058789
-0.41282193 -0.04133152 0.02282182
-0.74713034 -0.26061938 0.10917556
-0.14010616 0.34680906 -0.00000170
-0.66909505 -0.15846081 -0.00000094
-0.66881894 -0.12495312 -0.00000099
-0.28009162 -0.05853922 0.00000093
-0.37445822 0.13924223 0.00000053
-0.09763851 0.31216520 -0.00000359
-0.02133260 0.29162307 -0.00000625
-0.10234925 0.27482535 0.00000258
-0.12262179 0.38797320 -0.00000151
-0.40309861 -0.39635152 0.00000050
-0.19759571 0.29975922 0.00000376
-0.59869687 -0.67801898 0.00000015
-0.21568170 -0.07680263 0.00000090
-0.57277244 0.06965781 -0.00000064
-0.40607737 -0.10034352 0.00000066
-0.49986925 -0.67295829 0.00000016
-0.22016253 0.45451251 0.02733128
-0.29034382 0.27359740 0.02564698
-0.01010605 0.28366900 0.00000135
-0.39076617 -0.33245216 0.00000530
-0.01203888 -0.65482015 0.00000033
-0.66098141 -0.27008234 0.07723135
-0.29721566 -0.24553748 0.00000428
-0.33683694 -0.46350585 0.00000042
-0.11478519 0.68322924 0.00000143
-0.75572030 -0.29057470 -0.00000127
-0.13682514 0.10046443 -0.00000611
-0.04856880 -0.45810771 0.00000043
-0.27950435 0.27966784 0.00000094
-0.59951701 -0.54947291 0.00000005
-0.14339348 -0.36184554 0.00000228
-0.57372959 -0.42180441 0.00000004
-0.13063992 -0.77007059 0.00000004
-0.12321723 0.60654688 0.01528412
-0.08669738 -0.14749352 0.00000186
-0.38773475 0.26817499 0.05938973
-0.15164332 0.10362171 0.00000842
-0.57953544 -0.11245068 0.07150179
-0.63881152 0.08914094 -0.00000017
-0.11472727 0.06619379 0.00000944
-0.77540756 -0.55995216 0.07523168
-0.08101370 -0.00274811 0.00000197
-0.13381723 0.19438458 0.00000286
-0.10118615 0.56637445 0.00000338
-0.62066672 -0.02411870 0.09906587
-0.35520042 -0.33972204 0.00000486
-0.25341961 -0.00712978 0.00000099
-0.55197053 0.01430225 0.08034583
-0.21188670 0.19302605 0.00000124
-0.12982511 -0.01198091 0.00000255
-0.01062028 -0.63305066 0.00000021
-0.06607333 -0.55400976 0.00000111
-0.06351339 -0.31146928 0.00000138
-0.22071315 -0.32613062 0.00000059
-0.57582616 -0.57581695 0.00000024
-0.43671849 -0.74240919 0.00000007
-0.11602568 0.58347816 0.00000156
-0.12058151 0.65951050 0.02212961
-0.01478144 0.66349268 0.00000201
-0.25414800 0.27128969 0.00000111
-0.08900272 -0.11878313 0.00000085
-0.12753669 -0.22876227 0.00000071
-0.38903360 0.15246116 0.04284996
-0.76783569 -0.36139103 -0.00000110
-0.27011177 0.24844980 0.01477711
-0.57841454 0.02378633 -0.00000061
-0.08421140 0.33870022 0.00000142
-0.33709621 -0.37715874 0.00000053
-0.45545619 -0.27344950 0.00384394
-0.78584099 -0.13473326 -0.00000166
-0.17054865 0.21190452 0.00000332
-0.09230155 0.04283807 -0.00000846
-0.65772164 -0.14316387 0.09471990
-0.35742329 0.09252900 0.02283325
-0.07333009 -0.25787486 0.00000156
-0.03239984 -0.45446177 0.00000043
-0.64498721 -0.34525151 -0.00000052
-0.23594528 0.31861085 0.01296628
-0.38530966 -0.43146620 0.00000046
-0.21867896 0.06977328 0.00000109
-0.67641967 -0.30750860 0.07720875
-0.10008717 -0.67951650 0.00000136
-0.02634289 0.37669633 0.00000689
-0.50799864 0.04074922 0.06863219
-0.02376849 0.64752669 0.00000355
-0.34780152 -0.65817155 0.00000438
-0.73643057 -0.27085868 -0.00000121
-0.12216978 0.61965987 0.01683896
-0.55422005 0.01453719 0.08117506
-0.31615218 0.39024393 0.00000055
-0.46733719 0.28723832 -0.00000027
-0.54745544 -0.37740529 0.00000015
-0.73157229 -0.17048676 0.11689839
-0.03988887 -0.64293793 0.00000068
-0.53574990 -0.44576094 0.00000032
-0.02873022 -0.07383902 0.00000125
-0.70776054 -0.68377083 -0.00000029
-0.31981764 0.07073440 0.00629319
-0.17974842 0.54412053 0.02616319
-0.75502644 -0.20469434 -0.00000143
-0.34601675 -0.72536568 0.00000009
-0.26829207 -0.57357814 0.00000352
-0.14961264 0.43361854 0.00000010
-0.55303527 0.21221355 0.10979718
-0.53483894 -0.68793492 0.00000014
-0.47020207 -0.75336301 0.00000573
-0.06117758 -0.53017974 0.00000034
-0.07456346 0.53556675 0.00000167
-0.64624545 -0.14757514 0.09000167
-0.20892635 -0.13832132 0.00000335
-0.37980702 0.10078954 0.03199055
-0.54422765 0.06161431 0.00000204
-0.20284783 0.37228852 0.00911315
-0.18981067 0.01796848 -0.00000596
-0.14308612 -0.41199407 0.00000221
-0.08020772 -0.67057568 0.00000016
-0.14979046 0.48708556 0.00000148
-0.19724889 0.51774648 0.00000222
-0.43451149 -0.47414050 0.00000041
-0.48834830 -0.18793420 0.00000026
-0.10124237 -0.49146225 0.00000039
-0.22501099 -0.04839637 0.00000366
-0.33513966 -0.07140755 0.00000091
-0.53167657 -0.75204195 0.00000648
-0.10724450 0.30664019 0.00000268
-0.52211087 0.19866159 0.09683854
-0.16798305 -0.68309533 0.00000015
-0.45260633 0.07538358 0.00000360
-0.74279625 -0.24866935 0.10939390
-0.62932835 -0.67290141 0.00682983
-0.21000844 0.28445806 -0.00000068
-0.45541542 -0.47273363 0.00000591
-0.49969402 -0.58582415 0.00000027
-0.48626126 -0.04180345 0.04879891
-0.18151029 -0.60468605 0.00000244
-0.22679746 0.05363771 0.00000791
-0.05967642 0.29835076 -0.00000498
-0.60041752 -0.15447374 0.07273464
-0.29038780 0.28437945 0.00000086
-0.12294140 0.04748703 0.00000106
-0.09622136 -0.52309002 0.00000035
-0.47026339 0.30419912 0.09395373
-0.41214401 0.05393551 0.00000041
-0.35737847 0.31950441 0.05616575
-0.22414710 -0.23156542 0.00000071
-0.65686544 -0.32982502 0.06699519
-0.16943220 0.11544123 0.00000114
-0.49329826 -0.11603712 0.04038955
-0.39359457 -0.15438491 0.00000556
-0.45837216 0.21421003 0.00000152
-0.48499593 0.27644811 -0.00000037
-0.06676411 0.27371780 0.00000215
-0.21706016 0.00377078 0.00000100
-0.52928170 0.17619431 0.09608023
-0.01739207 -0.63890613 0.00000041
-0.37588156 -0.32374299 0.00000513
-0.32299446 0.04714195 0.00000099
-0.08299717 0.52167824 0.00000265
-0.38197701 0.17735478 0.00000043
-0.01754759 -0.53170207 0.00000055
-0.75016509 -0.78710407 0.03290978
-0.45112371 0.15832910 0.00000245
-0.20764603 -0.62287039 0.00000022
-0.22153913 0.10255527 -0.00000352
-0.42486078 -0.18385356 0.00000066
-0.03406280 0.08718746 0.00000111
-0.46405998 -0.09974504 0.03241309
-0.36652006 -0.41953670 0.00000490
-0.01809272 0.27136439 0.00000134
-0.41728551 -0.13062689 0.01128716
-0.10541127 0.30362628 0.00000265
-0.65743388 0.02645182 0.11953487
-0.68325430 -0.33142066 0.07612001
-0.39178504 0.27696103 0.00000191
-0.18596274 0.44602029 0.01395357
-0.14476690 -0.31185610 0.00000061
-0.26760268 -0.44353981 0.00000045
-0.06157343 0.50155185 0.00000237
-0.17576732 0.34135852 -0.00000072
-0.24326605 -0.04786884 0.00000388
-0.21584698 0.27395524 -0.00000069
-0.64922009 -0.07664951 0.10147584
-0.01339444 -0.04841600 0.00000094
-0.53134013 0.02791525 0.00000276
-0.30650024 0.25382091 0.02846847
-0.59626894 0.00444345 0.09460867
-0.71977639 -0.62581469 -0.00000044
-0.59370104 0.01492619 -0.00000070
-0.75923087 -0.59204564 0.06477974
-0.13854315 0.20353590 0.00000293
-0.72769127 -0.49834881 0.06735806
-0.00716067 0.54467639 0.00000508
-0.18843463 -0.36224490 0.00000055
-0.40306685 0.27344083 0.00000174
-0.04038158 0.30584366 0.00000187
-0.34044715 0.38148145 0.00000041
-0.44152529 -0.11845071 0.00000046
-0.41802369 0.33827057 0.08043133
-0.07996778 -0.77215808 0.00000003
-0.48391057 -0.76536242 0.00000004
-0.07048272 0.40003657 -0.00000287
-0.74806404 -0.24435667 0.11189575
-0.45828876 -0.25878923 0.00000055
-0.24339753 -0.30805582 0.00000355
-0.32240901 -0.47685602 0.00000040
-0.27680375 -0.01414265 0.00000432
-0.41091736 -0.14053990 0.00757234
-0.34401416 0.37216337 0.05916163
-0.12041450 -0.30062295 0.00000062
-0.02491504 0.39050964 0.00000179
-0.31507001 -0.44084672 0.00000425
-0.04214082 0.59173006 0.00000397
-0.73169415 -0.07142766 -0.00000146
-0.69025021 -0.26894496 0.08777908
-0.60266174 0.10914823 -0.00000089
-0.06086979 0.71587650 0.00000203
-0.62026971 0.02377385 0.10596061
-0.15467113 0.45560288 0.00000392
-0.10819936 -0.37681653 0.00000053
-0.79904301 -0.76476410 -0.00000009
-0.35337878 0.30554234 0.00000224
-0.26524466 0.28163793 0.00000103
-0.40859154 -0.15901487 0.00403343
-0.33502917 0.37720605 0.00000045
-0.32912747 0.25301890 0.03637610
-0.05490772 0.11825029 0.00000969
-0.12683152 -0.01456230 0.00000098
-0.23669566 0.47248977 0.03583646
-0.06009096 0.63794058 0.00000312
-0.55742709 0.17984989 0.10659996
-0.49460218 -0.27701889 0.00000034
-0.21137181 -0.09769721 0.00000343
-0.51750505 -0.61529669 0.00000023
-0.22081475 0.40372251 0.02010064
-0.04811403 0.13675415 0.00000117
-0.35448470 -0.69306992 0.00000441
-0.48669858 -0.31228819 0.00921904
-0.54148182 0.18394602 0.10154625
-0.42042565 -0.62818680 0.00000021
-0.78136229 -0.55189700 0.07852694
-0.64716129 -0.34016634 0.06203429
-0.01486058 0.78236579 0.00000197
-0.54473393 -0.09708006 0.06141688
-0.36781418 0.31517126 0.00000182
-0.51770589 -0.00593570 0.06522032
-0.07707440 0.61063441 0.00000101
-0.17602341 -0.58783424 0.00000239
-0.02425546 0.44819525 0.00000156
-0.41309908 0.08516542 0.04150287
-0.60742434 -0.53544082 0.01925458
-0.18567229 0.46722318 0.00000316
-0.33888759 -0.70236124 0.00000421
-0.02832538 -0.33497277 0.00000058
-0.14073812 0.42080814 0.00000153
-0.49482971 -0.42352457 0.00000644
-0.38331228 0.29761689 0.00000025
-0.47343506 -0.55952883 0.00000602
-0.15715880 0.52827978 0.01582275
-0.70040332 -0.13526356 -0.00000117
-0.15712298 -0.01943944 0.00000287
-0.52048341 0.27858919 -0.00000059
-0.18570017 -0.73352788 0.00000232
-0.02626597 0.62194585 0.00000383
-0.42249636 -0.57530161 0.00000538
-0.55478467 -0.20923944 0.04850500
-0.79177269 -0.73025606 -0.00000017
-0.13246040 0.57025460 0.01323092
-0.23124448 0.05915697 -0.00000399
-0.27796208 0.03761513 0.00000440
-0.40440141 -0.07726676 0.01455636
-0.64722687 -0.48864451 -0.00000034
-0.20021182 -0.58965916 0.00000268
-0.15512556 0.11282463 -0.00000534
-0.38826548 0.22462027 0.05317900
-0.39083639 -0.74045784 0.00000479
-0.45184146 -0.79977324 0.00000000
-0.13616160 0.42474046 0.00000464
-0.37318255 0.35547260 0.00000023
-0.73457902 -0.48506869 0.07175179
-0.10646207 0.29244858 0.00000674
-0.37415559 -0.31833041 0.00000060
-0.36816712 0.17348360 0.00000052
-0.21916144 -0.40579562 0.00000314
-0.51687350 -0.01569406 -0.00000017
-0.28833067 0.26232595 0.00000091
-0.00833357 -0.37819231 0.00000063
-0.21269519 0.30147368 0.00000500
-0.67512561 0.10506361 -0.00000109
-0.71543954 -0.55911246 -0.00000060
-0.66956611 -0.62639760 -0.00000029
-0.05047016 0.39993666 0.00000624
-0.09622402 -0.51617331 0.00000035
-0.00434529 -0.66609005 0.00000017
-0.44626648 0.21870405 0.00000169
-0.65157964 -0.43919008 -0.00000043
-0.02532512 0.34177553 0.00000143
-0.04780480 0.10378388 0.00000113
-0.07476943 0.30603197 0.00000705
-0.32962753 -0.69933451 0.00000013
-0.70579523 -0.53738426 0.05385787
-0.07420947 0.60403847 0.00000333
-0.24366490 0.01901204 -0.00000431
-0.10003764 0.53713597 0.00000288
-0.12533277 0.08317208 -0.00000676
-0.11209058 -0.77649634 0.00000003
-0.21265133 0.23678900 0.00000583
-0.25819976 0.30239669 0.00000411
-0.61054194 -0.33884053 0.04924142
-0.14539765 -0.50490342 0.00000212
-0.27736690 -0.61703236 0.00000358
-0.24306335 0.39635965 0.02691234
-0.20942167 0.28976151 -0.00000061
-0.57705827 -0.46548247 0.00000008
-0.45146692 0.19030082 -0.00000004
-0.29363760 0.26085334 0.02494303
-0.25015251 0.25538931 0.00000493
-0.21574874 0.29066103 0.00000509
-0.72320913 -0.15243677 0.11658386
-0.30972244 -0.18937398 0.00000076
-0.68192290 -0.14148636 0.10354969
-0.05181378 0.41391558 0.00000604
-0.05138932 0.10009010 0.00000997
-0.37122953 0.19055310 0.00000353
-0.40056969 0.35285076 0.07638245
-0.62854639 -0.68479581 0.00000006
-0.58879497 -0.67465208 0.00000726
-0.56021827 -0.31069194 0.03552845
-0.44649856 0.07575385 0.05196594
-0.16323152 0.56359129 0.02316453
-0.20244615 0.05234026 0.00000107
-0.21781048 0.58131465 0.00000091
-0.49255301 0.03393476 0.00000342
-0.26437931 0.43128497 0.03960301
-0.19834145 0.51334598 0.00000226
-0.04724215 -0.19224705 0.00000076
-0.31210459 0.00434230 0.00000724
-0.21207679 -0.57149675 0.00000285
-0.39278732 -0.34226060 0.00000057
-0.54019956 0.15752403 -0.00000056
-0.68405830 -0.23034029 0.09125415
-0.39829539 0.05625588 0.00000492
-0.04934604 0.44298555 0.00000572
-0.49724928 -0.11882284 0.00000010
-0.14024598 -0.56472507 0.00000199
-0.45388835 -0.41101860 0.00000049
-0.25630530 0.46829271 0.04217597
-0.25262857 -0.04102709 0.00000095
-0.25767110 -0.25628012 0.00000068
-0.69710787 -0.50726189 -0.00000063
-0.02688170 -0.01261100 0.00000131
-0.40613964 0.32525556 0.00000094
-0.18584692 -0.76953541 0.00000004
-0.51025144 -0.24296565 0.00000020
-0.30051569 -0.19057869 0.00000439
-0.52730234 0.16350263 -0.00000048
-0.30165195 -0.70366823 0.00000012
-0.10386638 -0.20270993 0.00000075
-0.26818466 0.04471737 -0.00000312
-0.23553446 -0.42165621 0.00000332
-0.70047603 0.09645930 -0.00000146
-0.59229827 -0.64705591 0.00000019
-0.20295218 0.26116620 0.00000567
-0.08634809 0.06645833 0.00000987
-0.11293960 0.65980851 0.00000182
-0.42339643 -0.46096524 0.00000042
-0.42256972 -0.05171445 0.02475375
-0.17113893 0.44995427 0.00927641
-0.48329869 -0.54487256 0.00000615
-0.12909397 0.64360824 0.00000139
-0.14778696 0.29763731 0.00000605
-0.33144752 0.01126324 0.00168071
-0.01945029 -0.61123903 0.00000047
-0.36195047 0.31143229 0.05659980
-0.34356413 0.41675931 0.00000085
-0.27930982 -0.35852422 0.00000055
-0.66198215 -0.26602125 0.07818287
-0.50201733 -0.70124821 0.00000618
-0.03294942 -0.76776974 0.00000004
-0.27294349 -0.13416599 0.00000413
-0.57893909 -0.28421629 -0.00000019
-0.56511891 0.03999235 0.08878306
-0.03245194 0.54823207 0.00000466
-0.40298385 0.01564601 0.02770275
-0.08677901 0.50943970 -0.00000047
-0.41199764 0.33947166 0.07847011
-0.62152505 0.11243021 0.11942916
-0.15771861 0.02554185 0.00000294
-0.47443670 -0.46871099 0.00000614
-0.65768635 0.10907463 0.13176192
-0.12590715 -0.44404018 0.00000196
-0.41127756 0.21960156 0.06060589
-0.58081473 -0.33073656 -0.00000013
-0.13768402 0.10800505 -0.00000595
-0.73487811 -0.07835261 0.13160562
-0.58078045 -0.22541272 0.05534891
-0.24854959 0.08323187 0.00000721
-0.10938491 -0.76657353 0.00000136
-0.79123330 -0.76134453 -0.00000010
-0.75737147 -0.02222002 0.14782929
-0.32846760 -0.77092498 0.00000004
-0.39430671 -0.77781811 0.00000003
-0.16331129 0.14456424 -0.00000454
-0.18537583 0.07297398 -0.00000513
-0.62473262 -0.71526677 0.00000011
-0.35540880 0.21803216 0.04055742
-0.68189813 -0.77421336 -0.00000006
-0.01674380 0.06419548 0.00001094
-0.54291785 -0.60531748 0.00000680
-0.52417284 -0.76125899 0.00000638
-0.09125238 -0.10675498 0.00000087
-0.74928966 -0.63512127 -0.00000041
-0.19338312 -0.20777085 0.00000074
-0.54169478 0.03120902 0.07918197
-0.08334794 -0.03508229 0.00000196
-0.12392125 -0.02180728 0.00000097
-0.25119792 -0.65993763 0.00000321
-0.09778762 0.40698938 0.00000544
-0.69467205 -0.60761579 0.03959564
-0.20832448 -0.48159856 0.00000040
-0.08583862 0.09266207 0.00000215
-0.48458290 -0.21802689 0.02231593
-0.46602412 -0.12300226 0.00000031
-0.28410568 -0.31796595 0.00000403
-0.64031801 -0.38673218 -0.00000044
-0.44532344 0.24145766 -0.00000007
-0.20158948 0.47688887 0.02403125
-0.52644121 -0.59600681 0.00000661
-0.06329531 0.72604443 0.00000170
-0.26757400 0.03322755 0.00000104
-0.21560256 -0.03641171 0.00000356
-0.17864100 -0.76369413 0.00000220
-0.10972070 0.04333382 0.00000105
-0.65650660 0.08776209 0.12821229
-0.06305530 0.72106529 0.01076982
-0.07142647 0.52569417 0.00000435
-0.06078162 -0.50282767 0.00000111
-0.11999568 -0.66200665 0.00000017
-0.39833103 0.26969476 0.00000188
-0.63837741 -0.52843536 0.03126169
-0.54931173 0.07052832 0.08766027
-0.27926622 -0.73481516 0.00000008
-0.24816477 0.03932431 0.00000776
-0.19720170 0.33528034 0.00000481
-0.28494482 0.04487978 -0.00000262
-0.18902548 -0.62873443 0.00000250
-0.58805094 -0.51103496 0.01596878
-0.53089092 0.15568520 0.00000096
-0.19232297 -0.03426192 0.00000328
-0.01055199 -0.46316308 0.00000055
-0.04565383 -0.09600516 0.00000143
-0.61796661 0.07825319 0.00000038
-0.29137903 0.20215193 0.01551414
-0.52107472 0.09517160 0.08126567
-0.30021733 -0.18011701 0.00000077
-0.48393072 0.17499206 -0.00000022
-0.42526419 -0.16026876 0.00976245
-0.76365756 -0.03557560 0.14809677
-0.16467858 -0.65608526 0.00000018
-0.19104455 -0.27932643 0.00000296
-0.25730491 0.44033794 0.00000086
-0.73738188 -0.48139460 0.07328561
-0.40764220 0.07067300 0.03743853
-0.16107098 -0.43574402 0.00000046
-0.51847116 0.16160312 0.09010366
-0.36544981 -0.71279321 0.00000011
-0.30479521 0.08144238 0.00000635
-0.15383490 -0.53940852 0.00000033
-0.60876583 -0.05189350 -0.00000070
-0.17437721 -0.29151745 0.00000274
-0.60672271 -0.31348233 0.05161206
-0.09048641 0.58968911 0.00000172
-0.31998052 0.01510723 -0.00000208
-0.10381244 -0.55495646 0.00000031
-0.11964968 -0.00845497 0.00000099
-0.07388844 0.54661706 0.00000258
-0.56769431 -0.21259110 0.05259123
-0.40686478 0.38126712 -0.00000002
-0.18729883 -0.46703873 0.00000042
-0.36580524 0.38481944 0.00000024
-0.64649334 -0.18747612 -0.00000075
-0.46575428 0.24573097 -0.00000020
-0.62898918 -0.15393809 -0.00000069
-0.59211306 0.10420967 0.10778952
-0.23802438 -0.02471707 0.00000384
-0.10628963 0.56878535 0.00373320
-0.04566114 0.55351502 0.00000439
-0.40703058 -0.64779719 0.00000019
-0.55752305 -0.70174427 0.00000012
-0.41082704 0.20531614 0.00000020
-0.14000431 0.02573780 0.00000272
-0.12635456 0.44040884 0.00000459
-0.58057448 0.14576271 -0.00000080
-0.55207303 0.11202068 0.09473729
-0.52933428 0.22176477 0.10279400
-0.07027632 0.62312259 0.00000178
-0.59639509 0.11104754 0.11031289
-0.59400934 -0.74177968 0.00000724
-0.02776630 0.69606286 0.00000102
-0.12142288 0.53763374 0.00000159
-0.18241737 0.51991013 0.02355320
-0.25810743 -0.24304765 0.00000070
-0.44016656 0.19707048 0.00000211
-0.02097732 0.34240144 0.00000143
-0.12143887 -0.71682676 0.00000010
-0.03974971 0.40374822 0.00000150
-0.44297532 0.25548386 0.07711800
-0.00238238 0.28594517 0.00000839
-0.32757189 0.21828641 0.00000072
-0.79185977 -0.19728190 -0.00000151
-0.52994273 0.21350400 0.00000015
-0.05011918 0.05620524 -0.00000950
-0.58336977 0.04742049 0.09634508
-0.36775372 -0.44440296 0.00000044
-0.57451721 -0.78727919 0.00000002
-0.18324682 0.41752687 0.00000391
-0.22147379 0.00141237 0.00000368
-0.43344954 0.18573430 0.00000240
-0.16540992 -0.53216737 0.00000233
-0.11635975 0.48048817 0.00000160
-0.24596473 0.29751895 0.01342138
-0.64039263 -0.58263653 0.02401412
-0.43692754 0.29647448 -0.00000009
-0.17564429 0.55803924 0.02675229
-0.64072060 -0.54502424 0.02965579
-0.27897073 0.37639510 0.00000081
-0.57873392 0.07382516 -0.00000069
-0.76618269 -0.27050565 0.11448046
-0.13696879 0.47318879 0.00057065
-0.18037481 -0.11986682 0.00000303
-0.38076752 0.32362366 0.00000023
-0.25514394 0.29696039 0.01659488
-0.12228451 0.56118677 0.00000304
-0.10009775 0.01047985 -0.00000880
-0.32854286 -0.73315617 0.00000405
-0.01941214 -0.04642640 0.00000118
-0.48881362 0.00086924 0.00000396
-0.03929313 0.07679197 0.00000110
-0.79268527 -0.71138225 -0.00000022
-0.11232938 0.22197797 -0.00000473
-0.10256579 0.32660686 0.00000265
-0.06390646 -0.78793980 0.00000079
-0.60042042 -0.60352295 0.00000012
-0.23346515 0.34277176 0.00000401
-0.06872909 -0.26448858 0.00000150
-0.39732307 0.13605497 0.04337972
-0.39111883 -0.79133309 0.00000001
-0.70834579 -0.53475047 0.05514937
-0.45356652 0.02667352 0.04725814
-0.66071653 0.01263840 -0.00000113
-0.54459139 -0.34446087 0.02502538
-0.63003733 -0.52026397 -0.00000018
-0.54285469 -0.53261474 0.00000033
-0.72483374 0.03250698 -0.00000156
-0.42044185 0.28563205 0.00000003
-0.53715251 0.13356688 0.09260912
-0.65607920 -0.11309599 -0.00000092
-0.48257216 -0.07702160 0.04231687
-0.01092262 0.23933642 0.00000130
-0.03156819 0.47567364 0.00000198
-0.09291509 -0.68402578 0.00000127
-0.01843167 0.16188089 0.00000120
-0.49087472 -0.30145087 0.00000040
-0.67855219 -0.25289245 0.08598835
-0.37163197 0.10367848 0.00000475
-0.01275016 -0.17516304 0.00000078
-0.21382148 0.06777257 0.00000108
-0.01439411 -0.48795432 0.00000056
-0.39060642 -0.16714479 0.00000551
-0.04260274 -0.56675179 0.00000029
-0.21604476 0.35132633 0.01071087
-0.31286977 -0.66667997 0.00000394
-0.56201934 0.21501074 -0.00000048
-0.29498061 -0.50999103 0.00000036
-0.77360976 -0.44180858 0.09194969
-0.09212816 0.69290985 0.01694470
-0.38897340 -0.25403980 0.00000068
-0.26181568 0.28577951 0.00000104
-0.50920443 0.08892277 -0.00000026
-0.25653567 -0.25364829 0.00000378
-0.56602967 -0.04446494 -0.00000044
-0.45084362 -0.74446587 0.00000551
-0.35355265 -0.22614071 0.00000072
-0.29195799 0.40302592 0.00000069
-0.05955221 -0.33111272 0.00000059
-0.16688349 -0.74300801 0.00000209
-0.38296383 -0.65883018 0.00000018
-0.01024084 0.43020967 0.00000166
-0.22552436 -0.74774410 0.00000279
-0.12048767 -0.43304721 0.00000046
-0.66961224 -0.60810939 0.03063528
-0.70469451 -0.14772350 -0.00000118
-0.33071405 -0.59338945 0.00000425
-0.02513673 -0.78174825 0.00000033
-0.56424573 0.12891993 0.10153708
-0.36687746 -0.01964461 0.00000080
-0.04772623 0.29909892 0.00000754
-0.07043155 0.55172642 0.00000254
-0.62470520 -0.27547586 0.06357310
-0.11761672 0.43257442 0.00000296
-0.29313934 0.47285057 0.00000102
-0.28711987 0.44973355 0.05037771
-0.40196736 0.03469106 0.03013478
-0.56605645 0.19118397 -0.00000022
-0.41884721 -0.66152465 0.00000523
-0.34177440 -0.55494352 0.00000443
-0.68672194 -0.58200641 0.04053810
-0.33814870 -0.62139027 0.00000431
-0.30447804 0.04485297 -0.00000203
-0.34235821 -0.56054516 0.00000030
-0.64797472 -0.77420161 0.00000785
-0.20050014 0.28757775 -0.00000092
-0.68566837 -0.14536636 -0.00000106
-0.19888512 -0.28511023 0.00000304
-0.29236947 0.31333913 0.00000330
-0.10187112 0.40427515 0.00000541
-0.31986949 0.44313944 0.00000045
-0.71298489 0.02649522 0.13924329
-0.35215032 -0.75789022 0.00000005
-0.69063415 -0.61543475 0.03701491
-0.21950111 -0.33620545 0.00000323
-0.28779166 0.23089233 0.01846425
-0.37733505 -0.57738140 0.00000028
-0.20009079 0.19324894 -0.00000258
-0.16890816 0.28162622 0.00000135
-0.47483608 0.05567643 0.05906686
-0.33394989 0.04546440 0.00759918
-0.53082702 -0.23175774 0.03670004
-0.57755944 0.22215072 -0.00000088
-0.72082691 -0.00588009 -0.00000148
-0.13803556 0.64981687 0.00000133
-0.12680594 0.50195376 0.00000380
-0.47690288 -0.09020089 0.03837009
-0.26623135 0.22430652 0.00984963
-0.15326498 0.42706069 0.00000338
-0.71732590 -0.75257624 0.02633508
-0.16821061 0.25545827 0.00000335
-0.21673847 0.43041567 0.00000113
-0.15750235 0.19457793 -0.00000384
-0.14398976 0.47003731 0.00259506
-0.23106514 0.45417500 0.03115022
-0.29381901 0.11918725 0.00419622
-0.30675235 0.48074476 0.00000048
-0.56980521 -0.29646020 -0.00000011
-0.08771130 0.56294872 0.00000170
-0.03085524 0.31162437 -0.00000562
-0.51874229 -0.04911606 0.05924458
-0.10679233 0.46203085 0.00000287
-0.44961063 -0.62570340 0.00000565
-0.41780452 0.09495987 0.04461056
-0.05540073 -0.57054456 0.00000029
-0.21043200 0.11993033 0.00000733
-0.65734134 -0.77281308 -0.00000000
-0.01865371 -0.32504027 0.00000059
-0.57110944 -0.60833799 0.00000024
-0.46787354 -0.15555618 0.02556682
-0.24515006 0.34821624 0.02057706
-0.42467944 -0.62282535 0.00000022
-0.56953652 0.12657698 -0.00000070
-0.34178504 0.13599141 0.02367206
-0.12665664 0.41123033 -0.00000098
-0.31776073 -0.13318258 0.00000467
-0.20072314 0.33548143 0.00000474
-0.25945468 0.35582683 0.00000096
-0.01576293 0.71947537 0.00000190
-0.79923975 -0.48697294 -0.00000078
-0.60370649 -0.27117222 -0.00000036
-0.29581246 0.09881019 0.00000109
-0.21109170 0.41890131 0.01888452
-0.49000392 0.01572176 -0.00000004
-0.29856994 -0.69671917 0.00000373
-0.50355693 -0.02725105 -0.00000006
-0.05910616 0.73581246 0.00000171
-0.04561556 -0.50164369 0.00000037
-0.05066932 -0.69545218 0.00000074
-0.67500720 -0.33428977 -0.00000073
-0.76515442 -0.40618940 0.09418343
-0.18298230 0.26804334 0.00000354
-0.60372723 0.08190638 -0.00000086
-0.36791244 -0.35226683 0.00000500
-0.11062409 0.17535132 0.00000255
-0.20101454 -0.31120439 0.00000061
-0.00130780 0.04661014 0.00001140
-0.10637468 0.61358271 0.01034423
-0.79871041 -0.63692038 -0.00000041
-0.23057574 0.44683798 0.02989882
-0.64457675 -0.78142998 0.00000780
-0.01233019 -0.64017258 0.00000035
-0.00850132 -0.70712812 0.00000022
-0.23978942 0.38312163 0.00000105
-0.45017321 0.05918929 0.05083583
-0.66112731 0.06841159 -0.00000030
-0.40588228 -0.22931366 0.00000561
-0.20404518 0.27946647 0.00000543
-0.05949595 0.06820519 0.00000180
-0.13780671 0.47006353 0.00000158
-0.29017370 0.50198183 0.00000066
-0.18253425 0.14215741 0.00000118
-0.06352785 0.61544077 0.00000069
-0.19183550 0.34256744 0.00000141
-0.25639561 0.25826462 0.01135428
-0.37797753 0.11378272 0.00000449
-0.28801875 -0.06625585 0.00000439
-0.56588836 -0.62769747 0.00000705
-0.70221004 -0.67837374 0.03187456
-0.15272688 0.37663833 0.00000331
-0.25817165 -0.33705137 0.00000370
-0.78130970 -0.04995913 -0.00000181
-0.08490348 -0.70623647 0.00000114
-0.51097919 0.04733896 0.07066079
-0.40372919 0.14437928 0.00000033
-0.18827019 0.59287102 0.00000133
-0.13318882 -0.44226172 0.00000205
-0.10278801 0.33812829 -0.00000298
-0.51517605 -0.39335573 0.00000037
-0.52332124 0.15148242 -0.00000044
-0.01211063 -0.68470903 0.00000029
-0.07208047 -0.61203966 0.00000023
-0.28876825 -0.38541173 0.00000400
-0.61914053 -0.76944144 0.00000004
-0.28389084 -0.01867118 0.00000440
-0.27639100 0.24218637 0.00000101
-0.43012406 0.31348105 0.08108073
-0.21295752 0.04855623 -0.00000472
-0.51849635 -0.61482110 0.00000649
-0.59116381 0.17946303 0.11850893
-0.67404134 -0.58606480 -0.00000037
-0.16816080 0.19606229 -0.00000349
-0.23953307 0.15852698 0.00000120
-0.23586905 -0.71811437 0.00000295
-0.44911893 -0.63949625 0.00000562
-0.53605270 0.00189901 0.07287465
-0.36452459 0.01031432 0.01327933
-0.00778131 0.21346065 0.00000921
-0.49415246 -0.13291894 0.00000014
-0.00973239 0.24836750 -0.00000736
-0.34460578 -0.31140812 0.00000061
-0.13625708 0.03240848 0.00000269
-0.03099718 0.05724199 -0.00001006
-0.07185175 0.22960668 0.00000129
-0.20133972 0.18972186 0.00000367
-0.16864962 -0.38199200 0.00000052
-0.10966954 0.07849559 0.00000936
-0.15736514 -0.48347732 0.00000040
-0.34473216 0.19789851 0.03381628
-0.71506348 -0.66965672 -0.00000033
-0.17500586 -0.62178662 0.00000234
-0.43428007 0.12550651 0.00000324
-0.36058891 0.24367153 0.04616160
-0.25546497 0.15295163 0.00000119
-0.45699336 0.29601575 -0.00000022
-0.01698495 0.49648738 0.00000554
-0.28432074 0.18852244 0.00000104
-0.14338232 -0.39448917 0.00000051
-0.00706764 0.68229466 0.00000336
-0.09734766 -0.75966310 0.00000005
-0.36797637 0.32958840 0.06140583
-0.12617386 -0.47512780 0.00000193
-0.50996795 -0.67540828 0.00000631
-0.30985635 0.36759517 0.04637431
-0.10772470 -0.42767605 0.00000177
-0.14513089 0.18922839 0.00000744
-0.46451787 -0.30896658 0.00184025
-0.45862672 -0.31807825 0.00000614
-0.06608387 0.14093296 0.00000924
-0.06081505 -0.56230711 0.00000030
-0.26092238 0.52892228 0.00000084
-0.33970842 -0.36495712 0.00000464
-0.09241260 -0.58465941 0.00000138
-0.49204811 -0.05958698 0.04823885
-0.27975301 0.19112246 0.00977018
-0.07963253 0.19413498 0.00000837
-0.51000396 -0.70683044 0.00000627
-0.18876663 0.56901174 0.00000112
-0.16534613 -0.02252330 0.00000097
-0.34768455 0.38983489 0.00000115
-0.08755187 0.39409388 0.00000149
-0.60771258 -0.08782157 -0.00000065
-0.45864178 0.28979882 0.08771610
-0.22547320 0.34745211 0.00000119
-0.77897614 -0.66189065 -0.00000035
-0.44433739 0.30175808 0.08440011
-0.49191410 0.11415655 -0.00000019
-0.66994577 0.05357844 -0.00000026
-0.47349806 0.14132509 0.07117188
-0.58474199 -0.66896256 0.00000722
-0.41433148 -0.08645714 0.00000059
-0.28387989 0.26076145 0.02146513
-0.44496801 0.16214984 0.00000005
-0.51971578 -0.43643311 0.00000041
-0.61967849 -0.32175362 0.05499196
-0.57585468 0.11941647 -0.00000073
-0.42151983 0.35376418 -0.00000007
-0.17845778 -0.71999414 0.00000010
-0.41778419 -0.50760343 0.00000541
-0.31920837 -0.76158125 0.00000005
-0.43050296 -0.53894928 0.00000552
-0.09630894 0.42883987 0.00000154
-0.27007418 -0.09619339 0.00000414
-0.00216753 0.17646610 0.00000125
-0.24917899 -0.51191966 0.00000337
-0.08095337 -0.79138200 0.00000099
-0.75568875 -0.22683052 0.11717462
-0.30431198 0.22699740 0.00000086
-0.26942404 0.03593627 -0.00000324
-0.37406285 0.08495764 0.02762263
-0.33990882 0.05510893 0.01112941
-0.34262269 0.14269405 0.02495390
-0.38894853 0.03681835 0.02583518
-0.70266062 0.05219890 -0.00000145
-0.12027696 -0.59044250 0.00000171
-0.24856982 0.08141344 -0.00000307
-0.18212583 -0.46706749 0.00000042
-0.28741159 0.29712000 0.00000086
-0.60538045 0.01214282 0.09896894
-0.22762387 0.02574366 0.00000103
-0.28710199 -0.50415818 0.00000037
-0.54698249 0.05378591 0.00000210
-0.34459142 0.17068968 0.02976931
-0.39423948 0.11090146 0.03859472
-0.04856202 0.47688424 -0.00000219
-0.08628822 0.66868834 0.00000221
-0.22324186 -0.33323660 0.00000328
-0.23340944 -0.59287481 0.00000026
-0.35097155 -0.08134004 0.00000090
-0.21787825 0.54838773 0.04031305
-0.25472806 -0.76920573 0.00000311
-0.44346342 -0.55197043 0.00000566
-0.27336124 -0.32865982 0.00000059
-0.30824167 0.14225340 0.00000542
-0.42915494 0.25291296 0.07183845
-0.12251253 0.17713505 -0.00000520
-0.66282657 0.09053270 -0.00000125
-0.05113408 -0.78611937 0.00000002
-0.30805191 0.08771920 0.00000620
-0.09324728 0.23776065 -0.00000503
-0.41486972 0.33729674 -0.00000001
-0.70376620 -0.33063669 0.08351005
-0.08143662 0.05313488 0.00000205
-0.24070760 0.07302751 0.00000746
-0.14212646 -0.08828429 0.00000261
-0.72128865 -0.15355159 -0.00000128
-0.24128289 -0.05445859 0.00000384
-0.24629419 0.30109517 0.00000112
-0.32926158 0.29131914 0.04205315
-0.46702146 0.22939525 0.08181384
-0.11742189 0.35580129 -0.00000223
-0.34805081 0.07131137 0.00000079
-0.61645363 -0.76899676 0.00000748
-0.01040807 0.52206864 0.00000178
-0.42208502 0.29999330 0.07624783
-0.31135186 -0.07702992 0.00000466
-0.33221592 0.30506820 0.00000265
-0.37626683 0.08266694 0.00000060
-0.19367934 0.26060258 -0.00000159
-0.01247139 0.52566900 -0.00000242
-0.37445732 0.28099447 0.05656389
-0.27213441 -0.11219508 0.00000414
-0.00143559 -0.09230891 0.00000088
-0.17830348 -0.76351054 0.00000220
-0.50341252 -0.60886900 0.00000024
-0.25666428 -0.24065830 0.00000380
-0.52242167 0.07050491 0.00000233
-0.14646942 0.07403749 0.00000886
-0.01734688 0.72746809 0.00000191
-0.33007783 -0.66995427 0.00000016
-0.21499333 -0.19227747 0.00000076
-0.54905985 -0.54196832 0.00000695
-0.61109344 0.10626708 -0.00000094
-0.23293389 0.12051505 0.00000698
-0.13240029 -0.29205268 0.00000223
-0.76692394 -0.27936376 0.11344207
-0.07910639 0.31650094 0.00000685
-0.44962167 -0.73351210 0.00000551
-0.14581754 -0.66324058 0.00000017
-0.71314969 0.02446644 -0.00000148
-0.04102336 0.54064027 0.00000462
-0.27604494 -0.00068534 0.00000100
-0.21499882 -0.38668870 0.00000052
-0.05774628 0.31555330 0.00000718
-0.48849845 -0.61053959 0.00000024
-0.05346495 0.10546924 -0.00000854
-0.65788253 0.11742337 -0.00000094
-0.30431757 0.13225767 0.00000564
-0.13240480 0.60730563 0.01865328
-0.08540058 0.01045217 0.00001058
-0.73443366 -0.56746866 -0.00000058
-0.19190617 0.34770612 0.00162129
-0.55126901 -0.26792908 -0.00000003
-0.27976594 0.32605718 0.00000336
-0.43560294 -0.56418648 0.00000029
-0.12083965 0.06994051 0.00000255
-0.31680737 0.36125116 0.00000059
-0.13181299 0.27003696 0.00000134
-0.70281390 -0.71134087 -0.00000022
-0.31856800 -0.57005052 0.00000413
-0.46462177 -0.06363987 0.00000024
-0.18560458 -0.08937712 0.00000089
-0.00916355 0.75657767 0.00000206
-0.29128967 -0.23217783 0.00000423
-0.70428238 -0.13753666 -0.00000119
-0.35954996 0.28834747 0.05235681
-0.62971354 -0.76711562 0.00000764
-0.07825640 0.58297685 0.00000173
-0.04489939 0.49844503 0.00000509
-0.29932553 0.11694427 0.00581408
-0.42114330 -0.71772815 0.00000010
-0.59185812 -0.29376479 -0.00000026
-0.56501539 -0.23915035 -0.00000016
-0.49631963 0.18817223 0.08615035
-0.42402357 -0.60888344 0.00000536
-0.75835520 -0.19110004 -0.00000147
-0.22823387 0.14186625 0.00000678
-0.53888618 -0.41763653 0.00000026
-0.62110117 0.13763599 -0.00000105
-0.33621310 -0.04086194 0.00000095
-0.10274480 0.01793027 -0.00000859
-0.01181899 0.12623649 0.00000116
-0.71821552 -0.65995603 0.04025677
-0.64942531 -0.68071189 -0.00000008
-0.03011418 -0.74945383 0.00000043
-0.61539097 -0.04287472 -0.00000076
-0.23958987 0.06917924 0.00000398
-0.12341527 0.03314952 0.00000253
-0.19007562 -0.69086253 0.00000243
-0.02429899 -0.01811875 0.00000127
-0.31701005 -0.37603990 0.00000053
-0.69235195 -0.47281359 0.05857561
-0.47393083 0.19744146 0.00000146
-0.07747018 0.20698524 0.00000824
-0.76220575 -0.04960262 -0.00000169
-0.72711914 -0.55537912 -0.00000061
-0.34150615 0.04144259 0.00000622
-0.17799829 -0.32175272 0.00000060
-0.01362825 0.07902726 -0.00001021
-0.23451056 -0.72446162 0.00000009
-0.69936415 -0.61698123 0.03988396
-0.15241012 0.21574959 0.00000127
-0.09396612 0.63730744 0.00942856
-0.31780668 -0.55730651 0.00000030
-0.73458760 -0.68017828 0.04309268
-0.02716337 0.73425699 0.00000241
-0.60184612 -0.14611445 -0.00000053
-0.33563468 0.01726747 0.00000095
-0.37343033 -0.14948751 0.00000081
-0.17882158 -0.69720623 0.00000013
-0.38121685 0.41494790 0.00000010
-0.09101557 -0.59273562 0.00000136
-0.05359065 -0.11669260 0.00000150
-0.45516369 0.02680110 0.04784787
-0.19816439 0.20452071 0.00000365
-0.60639423 -0.79378418 0.00000001
-0.30670473 0.14066057 0.01192083
-0.25887694 -0.13579426 0.00000083
-0.69930347 0.04244062 -0.00000141
-0.20304253 0.40031016 0.00000378
-0.23470890 0.02420538 0.00000386
-0.15811982 0.40880909 0.00000151
-0.67381608 0.08608351 0.13410514
-0.07011830 -0.22774026 0.00000072
-0.07956989 0.60426191 0.00000176
-0.33793756 -0.69729239 0.00000013
-0.13070533 0.40872471 0.00000492
-0.21078897 0.55214237 0.03835023
-0.38606842 -0.11415764 0.00263490
-0.06004640 -0.49800706 0.00000038
-0.18233382 0.37347228 0.00200785
-0.08830134 -0.19786922 0.00000182
-0.47105726 -0.48478525 0.00000039
-0.21040413 0.57908842 0.00000096
-0.44682114 -0.65590743 0.00000018
-0.34513487 0.37984680 0.06068783
-0.56568096 -0.46480524 0.00000015
-0.18319712 -0.28422208 0.00000064
-0.18966788 0.16766122 -0.00000334
-0.34648749 0.19571833 0.03411490
-0.02271380 -0.30721178 0.00000089
-0.15069066 0.04131276 -0.00000673
-0.66093462 -0.20547262 0.08670611
-0.68538249 0.07311685 0.13630239
-0.31065423 0.32432097 0.04029954
-0.34417493 0.11447094 0.00000076
-0.63051298 -0.23223342 -0.00000059
-0.10886699 -0.76091903 0.00000005
-0.14996252 0.61370275 0.02582053
-0.68452429 0.04748618 -0.00000133
-0.52171265 0.27668768 -0.00000059
-0.05583683 0.27950451 0.00000202
-0.21729524 0.26304486 0.00000133
-0.09676788 0.37392886 0.00000264
-0.10138067 0.23645185 0.00000130
-0.16905170 0.10089438 0.00000317
-0.30228633 -0.71014420 0.00000376
-0.08642927 -0.34466075 0.00000161
-0.31757786 -0.11741550 0.00000085
-0.24503385 0.31323630 0.01540015
-0.69643223 -0.24247018 0.09386085
-0.75363085 0.01247760 -0.00000129
-0.05941339 0.60739140 0.00000351
-0.50624773 -0.77966321 0.00000614
-0.45799340 0.07799930 0.00000346
-0.44605742 0.06743197 0.05058698
-0.30371287 0.24090675 0.00000411
-0.26649933 -0.11206473 0.00000086
-0.02662180 0.10702525 -0.00000932
-0.59096016 -0.21616756 0.06031744
-0.78084495 -0.68092423 0.05938899
-0.15445124 -0.09869871 0.00000274
-0.42823869 -0.64091308 0.00000537
-0.37422351 -0.32199617 0.00000060
-0.18288441 -0.34982832 0.00000277
-0.14316335 -0.44196339 0.00000218
-0.51527038 -0.67708695 0.00000637
-0.00098539 0.73621045 0.00000091
-0.01752634 -0.68395276 0.00000015
-0.53015895 0.11877269 0.08795510
-0.71385393 -0.18776521 0.10807604
-0.33506038 -0.68260001 0.00000419
-0.01042168 0.31697814 -0.00000614
-0.37643881 -0.40127673 0.00000050
-0.44854551 0.28218808 0.08301698
-0.77689532 -0.03130858 -0.00000181
-0.62156888 -0.47205221 -0.00000020
-0.51551932 0.12627345 0.08386672
-0.18637746 -0.00897233 0.00000324
-0.32056544 0.07065057 0.00000097
-0.51083400 0.04332729 0.07001660
-0.79376324 -0.37408195 -0.00000106
-0.16664590 0.28000468 0.00000599
-0.72062873 0.01154293 0.13975777
-0.78129605 -0.68244201 0.05932601
-0.17753772 -0.56729838 0.00000029
-0.05847594 -0.08288606 0.00000090
-0.42252085 -0.58354189 0.00000537
-0.44501652 -0.22555940 0.00717654
-0.42671955 0.28136669 0.07515611
-0.05218046 -0.13512621 0.00000083
-0.50810103 0.11929088 0.08020769
-0.69920231 -0.47255258 -0.00000069
-0.28905410 0.14425486 0.00000576
-0.77246769 -0.67170537 0.05777214
-0.26091648 -0.03958993 0.00000410
-0.39118748 0.37680358 0.00000009
-0.05471498 -0.52208547 0.00000035
-0.00229488 -0.06615391 0.00000092
-0.35271038 -0.54213488 0.00000458
-0.15797051 0.38453517 0.00000481
-0.27020940 -0.24415059 0.00000396
-0.61109225 -0.40553517 0.03963897
-0.65931454 0.08398263 0.12865294
-0.46003711 0.04730110 0.00000386
-0.20199690 0.09132110 0.00000355
-0.61455393 -0.58049875 0.00000000
-0.16851459 0.62889371 0.00000116
-0.74295983 -0.57243779 0.06188941
-0.17989831 -0.12627753 0.00000301
-0.09207635 0.39015705 0.00000573
-0.01041604 -0.43914884 0.00000058
-0.70656306 -0.62201353 0.04169791
-0.09780609 0.49926989 -0.00000031
-0.55422518 -0.57237900 0.00000697
-0.42214981 -0.43890945 0.00000045
-0.60747462 -0.78585619 0.00000735
-0.68500270 -0.74068728 -0.00000015
-0.28836030 0.02637956 0.00000103
-0.02980457 0.12891035 0.00000152
-0.53902351 0.21423840 -0.00000063
-0.31844873 -0.75103026 0.00000391
-0.00678224 -0.69698578 0.00000021
-0.20949498 0.38439264 0.01324582
-0.19148029 0.00109062 0.00000100
-0.12622004 0.44851163 -0.00000034
-0.43463476 0.16663366 0.00000011
-0.01809615 0.01615749 0.00001152
-0.11276798 0.07275645 0.00000939
-0.66280246 -0.18307556 -0.00000087
-0.68583369 -0.31580462 0.07932887
-0.17771840 0.35813185 0.00000484
-0.28796810 0.28373066 0.02629299
-0.61586256 0.07072517 -0.00000092
-0.08498297 0.48864198 0.00000461
-0.33658726 0.34334581 0.05229261
-0.05014235 0.65384223 0.00000242
-0.55040570 -0.76918309 0.00000004
-0.11140111 0.01135713 0.00000101
-0.42516718 -0.16681862 0.00000063
-0.64844095 -0.21779171 0.08046532
-0.39974743 0.12660032 0.04285054
-0.31151812 -0.20414866 0.00000074
-0.57571328 -0.41791940 0.00000002
-0.59489042 -0.20150371 -0.00000040
-0.58315248 -0.60364679 0.00062653
-0.15522335 0.41504457 -0.00000005
-0.51395211 0.25377541 -0.00000052
-0.13976786 -0.35431564 0.00000224
-0.55508922 -0.52175949 0.00270293
-0.24315392 0.21733271 0.00000126
-0.01399904 -0.62711426 0.00000022
-0.42067989 0.35335182 -0.00000007
-0.16833498 0.57912019 0.00000190
-0.26693574 -0.49737976 0.00000360
-0.21243137 -0.65181066 0.00000275
-0.03022109 0.14470496 -0.00000856
-0.63029355 0.11922086 -0.00000043
-0.17734487 -0.14903133 0.00000295
-0.69546461 -0.71691774 0.02381997
-0.71964279 -0.75957347 0.02612889
-0.15885105 -0.26158148 0.00000067
-0.09360798 0.07773851 0.00000110
-0.46446684 -0.38697948 0.00000052
-0.34600846 0.05258049 0.00000597
-0.22087705 0.49238595 0.03315015
-0.53112713 -0.53282038 0.00000675
-0.40463373 -0.63660770 0.00000509
-0.20366888 -0.07666890 0.00000336
-0.62960079 -0.33222564 0.05697269
-0.65774387 0.03765485 0.00000020
-0.30043744 0.35326829 0.00000258
-0.01649748 -0.32190983 0.00000080
-0.75383863 -0.32639652 0.10189191
-0.00226554 0.64620523 0.00000184
-0.41587072 -0.53752310 0.00000033
-0.06009338 0.10219918 0.00000982
-0.35551722 0.04863613 0.01571430
-0.18646951 0.48304391 0.01957275
-0.51535233 -0.46422769 0.00000042
-0.53968523 0.20858250 0.10452858
-0.05431849 -0.30580400 0.00000127
-0.22729889 0.52487766 0.04020088
-0.36997287 -0.15606433 0.00000080
-0.26534761 0.12309584 0.00000115
-0.22874334 0.46548965 0.03198747
-0.52150401 -0.12924990 0.04845217
-0.22822780 -0.51069830 0.00000036
-0.00288769 0.61408568 -0.00000117
-0.32505512 0.24261030 0.00000367
-0.04699414 0.68044348 0.00000279
-0.04703101 -0.23214774 0.00000071
-0.60676240 -0.77895223 0.00000003
-0.59597234 0.09700844 0.10810035
-0.04488144 -0.19122013 0.00000076
-0.08485528 -0.71715461 0.00000010
-0.64144778 0.01347245 0.11195671
-0.40931318 0.06409318 0.00000459
-0.33565954 -0.39843030 0.00000050
-0.01446171 0.58184126 0.00000451
-0.45749381 0.20375448 0.07466747
-0.40591329 -0.56305674 0.00000520
-0.13116254 0.57615800 0.01363784
-0.70558642 -0.10392002 -0.00000125
-0.08525566 -0.47541794 0.00000041
-0.09637357 0.31953565 0.00000256
-0.09107609 0.34655836 0.00000629
-0.02688519 0.28855785 0.00000169
-0.11175623 0.14846512 0.00000846
-0.11675610 0.14675696 0.00000259
-0.47271894 0.12512656 0.00000251
-0.73655837 -0.63402086 0.05057230
-0.54729555 -0.17877029 0.05032487
-0.02659598 -0.71787883 0.00000010
-0.53083982 -0.65953356 0.00000018
-0.55507622 0.06722875 0.08922007
-0.05113921 0.60027494 0.00000237
-0.18532160 0.05218655 -0.00000549
-0.15578936 -0.70688100 0.00000012
-0.24529228 0.46533043 0.03783369
-0.35480803 0.07849218 0.00000543
-0.15579164 -0.79494924 0.00000189
-0.32653801 0.23906761 0.00000070
-0.52621485 -0.76482494 0.00000640
-0.65766689 -0.57350670 0.03148190
-0.16242350 0.59172098 0.02701070
-0.61962914 -0.74253821 0.00000755
-0.52447404 -0.11156721 0.05210318
-0.67486832 -0.71748933 0.01643120
-0.02132905 -0.51554145 0.00000036
-0.23863155 0.35268717 0.01892192
-0.23661777 0.25791539 0.00000516
-0.48229424 -0.21806464 0.02149867
-0.52909148 0.08580725 -0.00000039
-0.29567446 0.16661908 0.01181724
-0.69092235 -0.41327141 0.06681550
-0.04753988 0.16081479 -0.00000775
-0.12536185 0.17655238 0.00000122
-0.33070997 -0.73573587 0.00000008
-0.27586522 -0.66601400 0.00000350
-0.23800591 -0.26077267 0.00000355
-0.06145109 -0.61470594 0.00000023
-0.14449566 -0.77836164 0.00000003
-0.06957913 -0.39356669 0.00000051
-0.66613764 -0.38242760 -0.00000061
-0.04457853 -0.62548715 0.00000022
-0.02280694 0.61313873 -0.00000058
-0.43395250 -0.57163940 0.00000552
-0.21707760 0.01019913 0.00000101
