ply
format ascii 1.0
element vertex 1377
property float x
property float y
property float z
end_header
-0.48532288 0.52502899 0.15135776
-0.57564030 0.06950558 -0.00000025
0.50739260 0.28767269 -0.00000162
0.04337816 -0.78652335 -0.00000001
0.22358462 -0.75198856 -0.00000003
0.15869229 0.24083424 -0.00000065
0.52080896 0.09824726 -0.00000130
-0.73045184 0.06431611 -0.00000009
-0.47131665 -0.00733826 -0.00000035
0.15489028 0.29223424 0.00000491
0.34938370 0.27565502 -0.00000110
-0.57202814 0.60538751 0.27156906
-0.43705858 -0.45230886 -0.00000022
0.16895975 0.36940423 0.00000345
0.09335726 0.27725281 -0.00000067
-0.63870842 -0.39948907 -0.00000010
-0.00869874 0.71573182 -0.00000095
-0.54463357 -0.43535995 -0.00000019
-0.14582118 0.29019933 -0.00000068
-0.24734346 -0.36697591 -0.00000027
-0.27114928 0.57436455 0.03274843
-0.76933741 0.03172512 0.00076516
-0.58911919 -0.40850959 -0.00000015
0.54633859 0.08591047 0.00000133
-0.48231985 0.01156416 -0.00000034
-0.28944166 0.73173826 0.15914908
-0.10170201 0.60048509 -0.00000085
-0.16005336 -0.77792323 -0.00000001
0.54867732 0.01675898 -0.00000123
0.45947235 -0.61811544 -0.00000011
-0.22161912 0.18458072 -0.00000062
0.44828727 -0.28172462 -0.00000032
0.72395890 -0.25310412 -0.00000126
-0.49410237 0.15899578 -0.00000036
0.05082020 0.67002171 0.00000035
-0.66878156 -0.19712846 -0.00000010
-0.12435654 0.36917665 -0.00000073
0.75711943 -0.73004803 -0.00000017
-0.58785716 0.27935443 0.04836194
0.38336881 0.09760882 -0.00000086
-0.38046466 -0.10538715 -0.00000043
-0.04595474 0.47568747 -0.00000080
0.39373538 0.31025368 0.00000023
-0.50226178 0.05706404 -0.00000033
-0.52591034 0.54488030 0.19484664
-0.39431047 -0.39199008 -0.00000026
0.04215300 -0.59204743 -0.00000013
0.13730631 0.13606279 0.00000772
-0.18244734 0.46605040 -0.00000074
-0.31545662 0.07307697 -0.00000053
-0.22011733 -0.35947565 -0.00000028
0.12033116 0.20463142 0.00000686
-0.20750424 -0.21745447 -0.00000036
-0.46568176 -0.74799639 -0.00000003
0.40902976 0.06543972 0.00000433
-0.73926239 -0.77393583 0.00000000
-0.21102549 -0.20102928 -0.00000037
-0.03937405 -0.62804483 -0.00000011
-0.56824566 -0.15484389 -0.00000022
0.65317120 -0.29665005 -0.00000095
0.09015557 0.69578414 -0.00000109
0.38459456 0.23750298 -0.00000113
0.16460448 -0.29250505 -0.00000032
-0.52232147 0.33790985 0.04333912
-0.51447656 -0.65022751 -0.00000009
-0.01919099 -0.38947473 -0.00000026
0.13076790 -0.56204518 -0.00000015
-0.22485048 -0.73347882 -0.00000004
-0.21365065 0.39061192 -0.00000070
-0.51070574 -0.13784784 -0.00000028
0.68674109 -0.78092483 -0.00000005
0.51017324 0.06932445 -0.00000121
-0.19487021 -0.78387717 -0.00000001
0.50344809 0.07238461 0.00000240
0.49162910 0.10994813 0.00000195
0.07075713 -0.14619762 -0.00000041
-0.67958170 0.43506428 0.22640290
-0.59417891 -0.29198935 -0.00000017
-0.05557539 -0.21837432 -0.00000036
0.06968285 0.12250962 0.00000896
-0.41986819 0.56644311 0.13405924
0.32259152 -0.48747891 -0.00000020
0.78774965 -0.37242556 -0.00000107
0.40520710 0.29388845 0.00000031
-0.75463379 -0.13820968 -0.00000002
0.17584993 -0.55345477 -0.00000015
-0.29204133 -0.62416698 -0.00000011
0.21058105 0.39108616 0.00000230
-0.66837212 0.47052359 0.24385188
0.32625745 -0.70852808 -0.00000006
0.52701004 0.05155963 -0.00000123
0.20792314 0.05148057 0.00000803
-0.30916747 -0.55591119 -0.00000015
0.03764189 0.44278673 0.00000424
-0.57859349 -0.03003085 -0.00000023
-0.50162566 0.21278258 -0.00000036
-0.43823657 0.07175938 -0.00000040
0.35701457 0.43499428 -0.00000143
0.42223199 -0.14502376 -0.00000051
-0.67442285 0.53394201 0.29383867
0.02333555 0.12552657 -0.00000058
0.43549879 -0.39257184 -0.00000025
0.17645064 -0.60648918 -0.00000012
-0.60423897 -0.38046625 -0.00000014
0.08340063 0.36969238 -0.00000073
0.53131926 -0.67767466 -0.00000008
-0.07799083 0.78614409 0.04614678
-0.07043661 0.14828926 -0.00000059
-0.65289487 0.30688986 0.11497284
-0.71174419 -0.69379394 0.00000000
0.01693529 0.71657034 -0.00000095
0.69427698 -0.10967564 -0.00000145
0.16710039 -0.66238172 -0.00000009
-0.72121635 -0.63661367 0.00000000
-0.34399513 -0.17110225 -0.00000039
-0.13009612 0.36552881 -0.00000073
-0.35122447 -0.46365084 -0.00000021
-0.75628360 0.03721668 -0.00000005
0.15482168 0.26037747 0.00000543
-0.14188402 0.12374832 -0.00000058
-0.27953934 0.73504191 0.15440099
-0.17207272 0.68039746 0.03775355
-0.36417811 -0.38891815 -0.00000026
-0.30058877 -0.56127340 -0.00000015
-0.69953653 -0.50824780 -0.00000001
-0.61238920 0.48365262 0.21301621
0.32145263 -0.32810859 -0.00000029
0.49303076 0.14482392 0.00000129
-0.70967763 -0.75125257 0.00000000
-0.15314121 0.15468706 -0.00000060
-0.45717100 0.29248861 -0.00000042
0.59902345 -0.04751033 -0.00000126
0.06592830 0.10218356 -0.00000056
0.02020779 0.24240590 0.00000776
-0.31079301 0.22379716 -0.00000056
-0.40097958 -0.70423115 -0.00000006
-0.12121866 -0.27684015 -0.00000033
-0.53477064 -0.12452532 -0.00000026
0.28059637 -0.45054695 -0.00000022
-0.63380505 0.05899433 -0.00000019
-0.47534140 -0.34948363 -0.00000028
0.71017480 -0.50956710 -0.00000072
-0.51137653 0.35281328 0.04618740
0.37742655 -0.06990654 -0.00000051
0.58677267 -0.71938507 -0.00000005
0.01972945 0.48920555 0.00000375
0.48082847 0.16373645 0.00000119
0.17011038 0.54938759 -0.00000106
-0.01257603 -0.64294727 -0.00000010
-0.18755478 0.25742727 -0.00000066
0.25936069 -0.32702658 -0.00000030
-0.06798876 0.12833377 -0.00000058
0.54177394 0.06130606 0.00000186
-0.47618364 0.09197741 -0.00000036
-0.17062415 -0.41183779 -0.00000024
0.51997962 0.23029861 -0.00000155
0.09193676 0.62858073 -0.00000096
-0.34518019 -0.57073650 -0.00000014
0.03476957 0.11103859 0.00000967
0.04377939 0.42958047 0.00000436
0.01318653 0.10120946 -0.00000056
0.54687921 -0.23648792 -0.00000073
0.31292018 -0.11508436 -0.00000043
-0.66726775 0.38511152 0.18159899
0.49406954 0.29458697 -0.00000160
-0.60487521 0.31741257 0.08799189
-0.41571304 -0.20730954 -0.00000037
0.32374215 -0.71396063 -0.00000005
0.10983861 -0.77726109 -0.00000001
-0.46441496 0.70092770 0.26288191
0.07769293 -0.31733819 -0.00000030
-0.71568782 0.02179022 -0.00000009
0.60923349 -0.36913887 -0.00000067
0.32008640 0.15497452 -0.00000077
-0.66589151 0.18460270 0.03633325
-0.29460032 -0.76582346 -0.00000002
-0.16705864 -0.41869613 -0.00000024
-0.44380784 0.57151957 0.15493787
0.08036604 0.34091475 -0.00000071
0.17446176 0.24517634 0.00000538
0.16471516 0.17360438 0.00000669
-0.58464284 -0.64349421 -0.00000010
0.53779967 -0.33814301 -0.00000050
0.25360646 0.00093100 0.00000816
-0.62987508 -0.16094491 -0.00000015
-0.08986706 -0.56844915 -0.00000014
0.61135065 -0.29720228 -0.00000082
-0.74214959 -0.37155406 0.00000000
-0.11171265 -0.72085269 -0.00000005
-0.34196804 -0.70519791 -0.00000006
-0.60567323 0.59789751 0.29038905
-0.62193501 0.34790115 0.12220523
0.10803844 0.62819563 0.00000001
0.44796072 -0.79003667 -0.00000001
0.75398838 -0.40989627 -0.00000098
0.04067447 0.23393186 -0.00000065
-0.11949344 0.33493989 -0.00000071
0.01842347 0.47529443 0.00000400
-0.59567382 -0.23743649 -0.00000017
-0.43751550 0.47649863 0.08203810
0.24625427 0.51394813 -0.00000123
-0.07411544 -0.69834475 -0.00000006
-0.64104559 -0.07342850 -0.00000016
-0.18180224 -0.35619902 -0.00000028
-0.10045257 0.70763618 0.00581881
-0.23066657 -0.75830674 -0.00000003
-0.10415866 0.41769686 -0.00000076
0.26012978 -0.02205709 -0.00000049
-0.00148249 0.07740350 -0.00000055
-0.58824243 -0.06661529 -0.00000021
-0.45597815 0.43041774 0.06216555
0.52758536 -0.72380238 -0.00000005
0.73242528 -0.32111822 -0.00000116
-0.76191954 0.11837460 0.05777598
0.50290385 -0.20222108 -0.00000065
-0.41998482 -0.10456648 -0.00000039
-0.47872919 0.32115031 -0.00000040
0.71872234 -0.44790632 -0.00000087
0.64090998 -0.00743412 -0.00000148
-0.50623041 0.64008971 0.24919416
0.18435611 0.40898547 -0.00000083
0.39839146 -0.42950217 -0.00000023
-0.72327593 -0.21802456 -0.00000004
0.00117515 0.23696881 0.00000813
0.46135981 -0.67373509 -0.00000008
0.14229285 0.02949129 -0.00000052
-0.73127753 -0.78301505 0.00000000
0.52400169 -0.67744102 -0.00000008
0.03554664 0.33459733 0.00000603
0.20653244 0.36028640 0.00000293
0.13950700 0.32042907 0.00000469
-0.21827119 0.62575880 0.03168057
-0.57118474 0.04070950 -0.00000025
0.27030883 -0.79283148 -0.00000000
-0.46850037 -0.53531214 -0.00000017
-0.10741567 -0.25795286 -0.00000034
0.09048655 -0.39751423 -0.00000025
0.17175054 0.42417120 -0.00000082
0.76698107 -0.45166709 -0.00000087
-0.60900498 0.06509832 -0.00000022
0.68276528 -0.76458672 -0.00000009
-0.18459470 -0.15504664 -0.00000040
-0.33103807 0.68012870 0.15194408
0.36210655 0.32716883 -0.00000124
0.51123877 -0.60636193 -0.00000012
-0.03270120 -0.11771051 -0.00000043
-0.33228553 -0.34013986 -0.00000029
-0.44810662 -0.33303209 -0.00000029
0.09652045 -0.32051334 -0.00000030
0.07654095 0.66575448 -0.00000098
0.49379229 0.01133378 -0.00000104
0.60922711 0.17719281 -0.00000152
0.26991077 -0.62333833 -0.00000011
-0.75630207 -0.56923383 0.00000000
-0.22921341 -0.26483530 -0.00000033
0.46263829 0.20537999 -0.00000132
0.42538515 -0.46911867 -0.00000021
-0.25466293 -0.59064151 -0.00000013
-0.05041730 -0.46779974 -0.00000021
-0.43351816 -0.16010350 -0.00000036
0.24995726 0.29695832 -0.00000082
0.42949225 0.03236057 0.00000453
-0.31139667 -0.03963009 -0.00000048
0.50658979 -0.01360911 -0.00000103
0.50181645 -0.33472321 -0.00000039
0.09539249 -0.72195012 -0.00000005
0.64773313 -0.46048500 -0.00000061
-0.58907788 -0.10063464 -0.00000021
-0.72808944 0.22720234 0.11174018
-0.71840697 -0.41995003 -0.00000001
-0.39300391 0.37377950 -0.00000050
-0.48285795 0.63129983 0.22605163
-0.43677021 -0.46407164 -0.00000021
0.12206652 0.60968372 0.00000007
0.23314337 -0.53210039 -0.00000017
0.41609371 -0.57324506 -0.00000014
0.12032436 -0.42514070 -0.00000023
0.44294965 0.00133844 0.00000483
0.42633784 -0.44273676 -0.00000022
0.42164661 0.32734143 -0.00000143
-0.43662150 0.26408728 -0.00000044
0.47083136 0.23953270 0.00000002
-0.68393985 0.11943129 0.00242605
0.03650824 0.11885048 0.00000952
-0.69115338 0.15661011 0.03436844
0.18912467 0.60211835 -0.00000122
-0.29082493 0.29827208 -0.00000060
-0.50986290 -0.17223688 -0.00000028
0.09981480 0.45925151 0.00000303
0.21128575 -0.36654606 -0.00000027
0.78107845 -0.00209165 -0.00000194
-0.68945885 0.31739460 0.14884110
-0.65922449 -0.15098078 -0.00000012
-0.60043410 -0.64024928 -0.00000010
-0.72872680 0.02692195 -0.00000008
0.30652727 0.11477341 0.00000542
-0.78697870 -0.12516491 0.00000000
-0.62977777 -0.22517880 -0.00000014
0.46123769 0.08644315 0.00000295
-0.66851593 0.28434662 0.10999206
-0.50962798 -0.61973437 -0.00000011
-0.32635036 0.69203781 0.15714027
0.19908616 0.41362239 0.00000211
0.11786027 0.00102657 -0.00000050
0.36636960 -0.49509733 -0.00000019
0.71103164 0.00741998 -0.00000042
0.03148059 0.75327845 -0.00000101
-0.11446120 -0.01076795 -0.00000049
0.15745039 -0.30693721 -0.00000031
0.61403088 0.03748516 0.00000090
-0.61654579 -0.63676338 -0.00000008
-0.62245335 -0.53274833 -0.00000009
0.63021375 -0.47035525 -0.00000054
-0.13752636 0.18955058 -0.00000062
0.41302437 -0.07281651 -0.00000062
-0.45420675 0.19422994 -0.00000040
0.26657570 0.24566181 -0.00000077
0.13107962 0.13322671 -0.00000058
0.39661547 -0.37680385 -0.00000026
0.06564274 -0.13267532 -0.00000042
0.20842878 -0.60140162 -0.00000012
-0.69843649 -0.53207610 -0.00000001
0.61817689 -0.64154906 -0.00000017
0.18892292 0.55799007 -0.00000113
0.58683350 0.05073229 0.00000118
0.04937165 0.62429603 -0.00000089
-0.00960970 0.40131152 -0.00000075
0.49525797 -0.78598624 -0.00000001
0.38968964 -0.43144699 -0.00000023
-0.36882801 0.02773182 -0.00000047
0.33182173 -0.73747577 -0.00000004
-0.68001113 0.15059600 0.02202360
0.59552366 -0.07451325 -0.00000120
-0.48932073 0.20194044 -0.00000037
0.54206349 0.20719326 -0.00000077
0.06119669 0.21353429 -0.00000063
-0.31723338 0.10124805 -0.00000053
0.23989010 0.04298858 -0.00000053
0.29911972 0.09070002 0.00000599
0.53388577 -0.71093840 -0.00000006
-0.49724506 -0.06932943 -0.00000031
0.36925558 0.32664177 0.00000041
0.46439849 -0.23460553 -0.00000047
0.01949448 0.15683472 -0.00000060
0.23023111 -0.73905121 -0.00000004
-0.02080137 -0.52134768 -0.00000017
0.59136047 -0.24723063 -0.00000085
-0.51214167 -0.59187228 -0.00000013
-0.34935673 -0.31323703 -0.00000030
-0.03361784 -0.64894900 -0.00000009
-0.74563006 -0.49089010 0.00000000
-0.66398869 -0.16009487 -0.00000012
-0.16776524 -0.16859304 -0.00000039
-0.65608407 -0.44439127 -0.00000007
-0.54051662 -0.28688378 -0.00000022
0.20081070 0.26701599 -0.00000067
0.13582280 0.56211346 -0.00000097
-0.20831718 -0.38256965 -0.00000026
0.42882846 -0.23840541 -0.00000035
-0.26871878 0.08723303 -0.00000055
0.28648613 -0.50910805 -0.00000018
-0.51163156 -0.51798086 -0.00000018
-0.40995149 -0.19403249 -0.00000038
0.04876335 -0.08920587 -0.00000044
-0.50193422 0.24435938 -0.00000036
0.24955831 0.21353293 0.00000474
-0.25489430 0.35512775 -0.00000065
0.38822487 0.18621257 0.00000256
0.01432692 0.75571160 -0.00000050
0.21689691 0.13962363 -0.00000059
-0.21871046 -0.39889381 -0.00000025
0.71151707 -0.79052946 -0.00000002
0.42506771 -0.24723284 -0.00000035
0.17692576 0.54876609 -0.00000108
-0.62927885 -0.70466768 -0.00000005
-0.33361426 -0.22858979 -0.00000036
-0.46605678 -0.76537440 -0.00000002
0.75579164 -0.37717436 -0.00000106
-0.17970215 0.65995253 0.02853222
0.23237961 0.00876875 -0.00000051
0.37441581 -0.65920809 -0.00000009
-0.17952029 -0.10563743 -0.00000043
-0.51691269 -0.16348923 -0.00000027
-0.42029948 -0.08654425 -0.00000039
0.45172553 0.03919372 0.00000398
-0.13965344 0.46135335 -0.00000079
0.70088823 -0.00166432 -0.00000168
0.60466888 0.07849837 0.00000034
-0.22845451 0.51825724 -0.00000070
0.69292998 -0.40501033 -0.00000087
0.33225137 -0.56935552 -0.00000014
0.78216238 -0.54948187 -0.00000063
-0.57697317 -0.25898289 -0.00000019
0.07770052 -0.00273698 -0.00000050
-0.28073569 0.25720755 -0.00000060
-0.66974027 -0.70726144 -0.00000001
0.05804569 0.54032106 -0.00000084
-0.52596797 -0.11838638 -0.00000027
-0.00476998 -0.25609883 -0.00000034
0.01530156 -0.55065060 -0.00000016
0.20571526 0.37226780 -0.00000082
-0.15904476 0.58420525 -0.00000079
0.68133010 0.07472729 -0.00000177
-0.74403344 -0.14923370 -0.00000003
-0.22414522 -0.66643341 -0.00000008
-0.30526109 0.17081680 -0.00000056
-0.76089066 0.10640030 0.04841958
-0.29460626 -0.77926237 -0.00000001
0.04978478 0.32405821 -0.00000070
0.58516050 0.05524021 -0.00000142
-0.09700142 -0.05328765 -0.00000047
-0.10683778 -0.33530733 -0.00000029
0.59827912 -0.22140072 -0.00000092
-0.08734111 0.57628320 -0.00000086
-0.16844601 0.46313431 -0.00000076
-0.59092944 0.03272930 -0.00000023
0.01309708 -0.22159575 -0.00000036
0.48986308 -0.67848890 -0.00000008
-0.65708647 -0.78939964 -0.00000001
-0.61787568 0.28944381 0.07722155
-0.12726815 -0.64576592 -0.00000010
0.13990751 -0.67739985 -0.00000008
-0.07437025 0.43138424 -0.00000077
0.10682065 -0.70678261 -0.00000006
-0.67650136 0.12427025 0.00055554
0.03019481 0.16211111 0.00000891
-0.25752455 0.06564221 -0.00000054
0.05258980 0.70600985 -0.00000098
0.69820783 -0.13007915 -0.00000142
-0.54455870 -0.23511762 -0.00000023
0.24966540 0.43208754 0.00000081
0.27355587 -0.51454550 -0.00000018
0.37045623 -0.06799752 -0.00000049
0.01283252 -0.62045738 -0.00000011
0.46797022 0.27739802 -0.00000060
0.46479043 0.26693162 -0.00000036
-0.22503227 -0.72944957 -0.00000004
-0.04822743 -0.21018375 -0.00000037
0.14002552 -0.75549686 -0.00000003
0.23071696 0.02483873 -0.00000052
0.11001610 0.56634749 0.00000108
0.18922494 -0.69099667 -0.00000007
0.37330950 0.28058062 0.00000116
-0.15099003 0.72227368 0.05271544
0.12944310 0.39241352 0.00000367
-0.02753798 -0.57460206 -0.00000014
-0.69376205 0.37121181 0.19066146
-0.31968314 0.61581161 0.09749405
0.19076979 -0.13137569 -0.00000042
0.46812176 0.03693004 -0.00000101
0.30040763 0.09113580 -0.00000058
0.27971247 0.17535189 -0.00000068
0.04201364 0.57341317 -0.00000086
0.64749317 0.14330545 -0.00000179
-0.01515802 0.05880926 -0.00000054
-0.64078864 -0.38251712 -0.00000010
-0.38548661 0.21185750 -0.00000048
0.19451248 -0.52542906 -0.00000017
-0.77311114 -0.36807282 0.00000000
0.78267908 -0.61318560 -0.00000047
0.08725122 -0.46441936 -0.00000021
-0.50613851 -0.62607656 -0.00000011
0.58006960 -0.51676922 -0.00000029
-0.67615122 0.46792480 0.24757939
0.52603566 0.21695910 -0.00000063
-0.06855048 -0.30911802 -0.00000031
0.67669357 -0.11604551 -0.00000138
0.53856702 0.17500427 -0.00000150
-0.11992068 -0.47368618 -0.00000020
-0.15227703 -0.32014859 -0.00000030
0.06313337 0.72731714 -0.00000091
-0.20511963 0.49777822 -0.00000073
0.07797213 -0.07991450 -0.00000045
-0.46689517 -0.48929845 -0.00000019
-0.19739843 0.31968036 -0.00000070
0.08185670 0.11566586 -0.00000057
-0.25233875 -0.16131393 -0.00000040
0.18290657 0.26094036 0.00000500
0.47863805 0.30061617 -0.00000156
-0.79784283 -0.11628374 0.00000000
-0.22067286 -0.15925917 -0.00000040
0.36212497 0.20964184 0.00000265
0.11368053 -0.59531808 -0.00000013
0.57754192 0.02370558 -0.00000133
0.52872176 0.17509809 0.00000007
0.29713989 -0.57052374 -0.00000014
0.09070678 -0.12854174 -0.00000042
0.51662389 0.11525539 -0.00000132
-0.66586316 0.16487156 0.02211537
-0.20084460 0.02445263 -0.00000052
0.36919177 0.16585316 -0.00000094
0.14952593 0.32716491 -0.00000070
0.13388744 0.08913176 -0.00000056
-0.31806563 0.19097310 -0.00000055
-0.00809835 0.37854215 -0.00000074
-0.62938877 -0.43786193 -0.00000010
0.23768808 0.09838585 0.00000681
0.39599139 0.00421149 -0.00000072
0.36842346 0.24632611 -0.00000110
-0.01177227 -0.41862494 -0.00000024
0.05003730 0.09007171 -0.00000056
0.01551512 0.36218166 -0.00000073
-0.37910279 -0.40639438 -0.00000025
0.31776477 -0.16773465 -0.00000040
-0.60497996 0.29227916 0.06998260
-0.13572090 -0.19109081 -0.00000038
0.28381880 0.44899165 -0.00000122
0.57102144 -0.60219482 -0.00000012
0.09416347 0.43478031 0.00000351
0.64228337 -0.12112638 -0.00000126
-0.17291565 0.49312096 -0.00000076
-0.36996878 -0.64626611 -0.00000010
-0.52270680 0.18572010 -0.00000033
-0.26251180 0.06031237 -0.00000054
0.07904592 -0.75401454 -0.00000003
-0.09890537 0.06819277 -0.00000054
-0.50695156 -0.22464509 -0.00000027
0.17829812 0.42533346 0.00000230
0.55780958 0.22003767 -0.00000165
-0.46800524 -0.33581580 -0.00000029
0.29390749 0.32816118 -0.00000102
-0.09642119 -0.63248691 -0.00000010
-0.09602339 -0.37222768 -0.00000027
-0.06453584 0.53848337 -0.00000084
0.03235573 0.66896845 0.00000064
-0.64932411 0.63465458 0.34824689
-0.04357039 -0.60029052 -0.00000012
-0.22105106 0.56060298 -0.00000072
-0.69084849 0.42471040 0.22705979
0.20648829 0.48104136 0.00000076
-0.47306028 0.38945892 0.04498520
0.51295442 0.09226517 -0.00000126
0.15717872 -0.12313925 -0.00000042
-0.03830085 -0.11150702 -0.00000043
-0.48153390 0.26892326 -0.00000039
0.47664360 0.15567418 0.00000141
0.36280799 0.00247480 -0.00000061
-0.23808181 -0.53130661 -0.00000017
0.30656871 0.05712327 -0.00000054
0.09825498 0.27794506 0.00000600
-0.34784426 0.27649882 -0.00000053
0.31979088 0.15679645 -0.00000077
-0.55752972 0.01726166 -0.00000026
-0.44574958 0.61010212 0.18409727
0.17404366 0.51650525 0.00000075
0.41155009 0.01608919 -0.00000079
0.36568182 -0.64812574 -0.00000009
-0.46223907 -0.09209472 -0.00000034
-0.53575039 -0.15719985 -0.00000025
-0.20472116 0.25771079 -0.00000066
0.16921715 -0.61990340 -0.00000011
-0.59889439 -0.30004320 -0.00000016
0.17008976 0.42617365 0.00000245
0.29429047 0.14509911 0.00000511
-0.79847636 -0.25141564 0.00000000
-0.21322221 0.64737232 0.04359951
0.56752585 -0.46148105 -0.00000036
-0.58971274 0.58096593 0.26672144
-0.75231484 -0.40209234 0.00000000
-0.48582892 0.69727329 0.27566085
-0.52766354 -0.72730673 -0.00000005
0.56030788 -0.41283071 -0.00000043
0.21512776 -0.39069673 -0.00000026
0.01519591 0.71453779 -0.00000095
-0.17489894 0.41663159 -0.00000074
-0.05818433 -0.58906059 -0.00000013
0.20992980 0.30432209 -0.00000070
0.50404248 -0.37154762 -0.00000033
-0.35831160 -0.11872873 -0.00000043
-0.74050846 0.29207835 0.16735761
0.33896882 0.46054644 -0.00000142
-0.46259460 -0.72997779 -0.00000004
0.69767294 -0.64504513 -0.00000039
0.04630049 0.66500861 -0.00000092
0.07960180 -0.14501620 -0.00000041
0.21074092 -0.40816557 -0.00000024
0.07826175 0.22180601 -0.00000064
-0.40240199 -0.36969058 -0.00000027
-0.02651748 -0.24825663 -0.00000034
0.05347683 0.15243575 -0.00000060
-0.08948384 -0.03789696 -0.00000048
0.36542774 -0.05711452 -0.00000050
-0.53568954 0.46325482 0.14314967
-0.15534513 0.62110924 -0.00000080
0.25757474 -0.39702490 -0.00000025
-0.31697904 0.17381385 -0.00000055
0.56177646 -0.00805157 -0.00000122
0.33772419 0.18459702 -0.00000088
0.36053056 0.00660082 0.00000632
-0.58414658 -0.17387805 -0.00000020
-0.51994426 0.54831229 0.19302323
-0.18225666 0.31240345 -0.00000070
-0.60088824 0.13310274 -0.00000024
0.46686388 0.16325030 -0.00000125
0.15736428 0.28195565 -0.00000068
0.23361272 0.52263071 -0.00000051
-0.56386418 -0.00327272 -0.00000025
0.13166504 -0.10526002 -0.00000043
0.19053026 0.47374181 0.00000120
-0.21808018 0.25399447 -0.00000066
-0.68628848 -0.09530274 -0.00000010
0.14992079 0.47810058 -0.00000085
0.39802258 0.32807038 -0.00000017
-0.09421617 -0.57217962 -0.00000014
-0.26738935 0.70316287 0.12271973
-0.03758842 0.37928779 -0.00000074
-0.10310238 -0.24081320 -0.00000035
-0.46611502 -0.67141084 -0.00000008
0.03062615 0.31801718 -0.00000070
-0.33726643 -0.75711755 -0.00000003
0.59243941 -0.42785428 -0.00000050
-0.59825537 0.24080899 0.02810873
0.64745735 -0.24735648 -0.00000103
-0.34017505 -0.25684214 -0.00000034
0.12280274 0.31065683 0.00000510
-0.35078499 0.03498103 -0.00000049
-0.43606687 -0.43426544 -0.00000023
-0.11219968 -0.38171563 -0.00000026
0.13010759 -0.09856103 -0.00000044
-0.48165000 -0.03062936 -0.00000033
0.18673426 0.29010014 -0.00000068
0.41497291 0.28221792 -0.00000132
-0.47053791 0.67230706 0.24669361
-0.68782629 0.30412020 0.13811484
0.35179416 0.11553469 0.00000453
-0.21891082 -0.33925768 -0.00000029
-0.09153192 0.05540137 -0.00000053
-0.30970975 0.36240956 -0.00000059
0.16904849 -0.64871622 -0.00000009
0.18598964 0.35999773 0.00000333
0.29504251 0.21719658 0.00000380
-0.27637640 0.26553883 -0.00000061
0.11968079 0.10623256 0.00000847
0.71534939 -0.33676019 -0.00000107
-0.55582978 0.62584854 0.27463628
0.45156914 -0.28787310 -0.00000032
0.73117421 -0.32590626 -0.00000114
0.76500744 -0.37984070 -0.00000105
0.13130362 0.08081731 0.00000871
-0.57977467 -0.29296150 -0.00000018
-0.13654688 0.36238475 -0.00000073
0.46683724 0.28034243 -0.00000148
0.27269967 0.41900455 0.00000060
-0.02620504 -0.42087851 -0.00000024
-0.00310664 -0.53289664 -0.00000017
-0.09078688 0.14646088 -0.00000059
-0.51156079 -0.72735915 -0.00000005
-0.50307546 0.61432724 0.22838653
0.62709040 0.12136814 -0.00000168
0.61130888 -0.41617094 -0.00000058
0.04606909 -0.30294760 -0.00000031
0.35786114 -0.45405471 -0.00000022
-0.37762726 -0.31730120 -0.00000030
-0.13413377 -0.77850723 -0.00000001
0.05619645 -0.36301749 -0.00000027
0.19277863 -0.69477816 -0.00000007
-0.65446054 -0.72924229 -0.00000002
0.09490281 -0.56994484 -0.00000014
0.27554954 0.41884978 -0.00000114
0.10931030 0.27026147 0.00000596
0.03453288 -0.00715639 -0.00000050
-0.76693524 -0.10262152 -0.00000002
-0.63210677 0.45782892 0.20862252
0.30713541 0.06012335 0.00000639
0.62108517 -0.17262858 -0.00000109
0.16034386 -0.02778012 -0.00000048
-0.13992513 0.28972829 -0.00000068
-0.39427452 0.55157600 0.10494574
-0.25854986 -0.59976449 -0.00000013
-0.45638828 0.38528590 0.02998619
-0.39416379 -0.04907520 -0.00000042
-0.56389931 -0.56311618 -0.00000015
0.01029703 -0.07143995 -0.00000046
-0.56553118 -0.56383378 -0.00000015
-0.44718729 -0.32986196 -0.00000029
-0.19525677 -0.07758116 -0.00000045
0.35186540 0.21274133 0.00000279
0.01543575 -0.33290038 -0.00000029
-0.45812027 0.22858692 -0.00000041
-0.32958326 0.32199912 -0.00000056
0.10881631 0.12210587 0.00000837
0.21745729 -0.25114249 -0.00000034
-0.32292924 -0.70123789 -0.00000006
0.35314980 -0.20462218 -0.00000037
0.12880406 0.05345574 -0.00000053
-0.41602510 -0.18595126 -0.00000038
0.67968261 -0.32957550 -0.00000097
0.05655166 0.05578501 -0.00000053
0.17329393 0.31563906 0.00000426
0.05493061 0.36837663 -0.00000073
-0.46147100 -0.21407333 -0.00000032
0.62232500 -0.79314725 -0.00000000
0.68548388 0.00256613 0.00000015
-0.35193004 -0.19021834 -0.00000038
0.18320379 0.26325513 -0.00000066
-0.55502113 0.51481513 0.19415991
-0.40275648 0.16875958 -0.00000045
0.16947536 0.09608311 -0.00000056
0.02712244 0.21858941 0.00000804
-0.41504583 0.08493233 -0.00000043
-0.12568582 0.25205095 -0.00000066
-0.75918357 -0.71558388 0.00000000
0.08970953 0.31080269 -0.00000069
0.39695715 0.20071599 0.00000214
0.37123571 -0.72756889 -0.00000005
0.36568230 0.19657233 -0.00000099
-0.54849288 -0.02785786 -0.00000026
-0.00043928 0.32269727 -0.00000070
0.00871362 0.25646866 -0.00000066
-0.37757801 0.47502983 0.03785322
0.00911929 -0.16948098 -0.00000039
-0.21173154 -0.74029221 -0.00000004
0.18011782 0.02968364 -0.00000052
-0.00062175 -0.03167108 -0.00000048
0.39200045 -0.01754067 -0.00000066
-0.78562703 -0.25644530 0.00000000
0.04563139 -0.39658411 -0.00000025
0.45505704 0.13011742 -0.00000115
-0.20992983 -0.35906674 -0.00000028
-0.15994078 0.00447264 -0.00000050
-0.65231102 -0.74679298 -0.00000002
0.44043284 -0.55113437 -0.00000016
0.17168849 0.01942108 0.00000909
-0.73335074 0.16922141 0.07380597
-0.46419152 0.50488692 0.12165952
0.05258811 0.52928711 -0.00000083
-0.36047032 -0.11404063 -0.00000043
-0.48989516 0.41605333 0.07623466
0.16828317 0.27310756 -0.00000067
0.37233070 -0.25336457 -0.00000034
-0.09152973 0.41665223 -0.00000076
-0.60980632 0.68168412 0.35365200
-0.77792993 -0.15687430 0.00000000
-0.43765208 -0.54099389 -0.00000016
-0.10730374 -0.43399127 -0.00000023
-0.32952940 -0.58659560 -0.00000013
-0.13140257 0.29083739 -0.00000068
-0.06368966 0.21008242 -0.00000063
-0.22148195 0.60531000 0.01927701
-0.59016246 0.32323376 0.08159396
0.06843809 0.13573133 -0.00000058
-0.64737183 0.20612454 0.03849339
-0.30083031 0.24198746 -0.00000058
-0.46100495 -0.71323944 -0.00000005
0.70700373 -0.08687319 -0.00000153
0.15396387 -0.14483067 -0.00000041
-0.29837554 -0.26973246 -0.00000033
-0.05765697 0.69237729 -0.00000092
0.00583804 0.46186240 -0.00000079
0.56844520 -0.20508496 -0.00000086
0.08826161 0.19664648 -0.00000062
-0.12527005 0.69887049 0.01736890
-0.60810033 -0.17263447 -0.00000017
0.42915564 0.17907215 0.00000191
-0.71008669 0.01267866 -0.00000010
-0.15130968 -0.70423918 -0.00000006
0.33088652 0.08926860 0.00000541
-0.43901808 0.07075804 -0.00000040
-0.64076800 0.58043040 0.30307310
-0.28007858 -0.22225524 -0.00000036
-0.18628899 -0.58671981 -0.00000013
0.34153987 -0.76061770 -0.00000002
0.48399931 0.06544036 0.00000289
-0.27499067 0.02857476 -0.00000052
0.11394116 -0.69906092 -0.00000006
-0.42205560 0.52114816 0.10304136
0.50138095 -0.72124903 -0.00000005
-0.58477894 0.58262337 0.26436392
0.01243190 -0.00615504 -0.00000050
-0.64931103 0.63243049 0.34663712
-0.20297642 -0.68124307 -0.00000007
0.57363534 0.01584465 -0.00000131
0.64483777 -0.45558791 -0.00000061
0.08308394 0.59643908 -0.00000087
-0.64116433 -0.44793106 -0.00000009
-0.41913153 -0.22727528 -0.00000036
0.28873416 0.33861081 0.00000174
-0.10577207 -0.27798893 -0.00000033
0.25809008 -0.02280616 -0.00000049
-0.09145922 -0.35241903 -0.00000028
-0.04325444 -0.33489381 -0.00000029
-0.43442173 0.51732478 0.10918830
0.29504131 0.34413544 -0.00000106
0.01732897 -0.44157189 -0.00000022
-0.11704404 -0.10566493 -0.00000043
0.63842760 -0.54837153 -0.00000041
-0.41013099 -0.47239940 -0.00000020
0.16234412 -0.50778164 -0.00000018
-0.37238490 0.15404828 -0.00000048
-0.76157808 -0.74430109 0.00000000
-0.24978779 -0.50106537 -0.00000019
-0.02119187 -0.08129305 -0.00000045
0.77138126 -0.38360496 -0.00000104
-0.02584293 0.66450641 -0.00000092
-0.42444283 -0.29372071 -0.00000032
0.40376805 0.24020691 0.00000130
0.64122021 -0.17722004 -0.00000115
-0.41055912 0.65672740 0.19232525
-0.40084305 0.36410169 -0.00000049
0.15718311 -0.76693184 -0.00000002
-0.05907841 -0.45661175 -0.00000021
0.01016489 0.06009905 -0.00000054
-0.66688861 -0.69121412 -0.00000002
-0.08186579 0.39855046 -0.00000075
0.15711151 0.02964663 0.00000915
-0.38347039 0.09065186 -0.00000046
0.13467500 0.52717211 0.00000131
-0.49945561 -0.01906777 -0.00000032
0.24532827 0.18536693 -0.00000062
-0.59217463 0.02118363 -0.00000023
0.04634899 -0.33050729 -0.00000029
0.09034481 0.04827634 -0.00000053
0.10505198 0.18191710 0.00000746
0.24630520 -0.11089130 -0.00000043
0.41624279 0.01021419 0.00000519
0.45840575 -0.17329645 -0.00000057
0.07117783 0.16684506 0.00000821
0.17699497 -0.68844220 -0.00000007
-0.23371524 -0.41244870 -0.00000024
-0.43791480 -0.16989179 -0.00000036
0.77134008 -0.66614653 -0.00000033
0.09124061 0.10660816 -0.00000057
-0.07537991 -0.15535512 -0.00000040
0.49819226 -0.48630812 -0.00000020
-0.73369982 -0.34719286 -0.00000001
0.35283369 0.15497221 -0.00000087
-0.36840789 0.17957121 -0.00000049
-0.38056113 -0.64761789 -0.00000010
0.43633374 0.22424244 0.00000096
-0.20524604 0.19989590 -0.00000062
-0.23450319 0.36595470 -0.00000067
0.25496035 -0.58129851 -0.00000014
0.20012950 0.29887520 -0.00000069
-0.42810899 -0.75711579 -0.00000003
0.44392270 -0.58882661 -0.00000013
-0.54238989 0.16479493 -0.00000031
0.05198521 -0.61998504 -0.00000011
0.58527547 0.08248918 0.00000064
-0.43084615 -0.70873434 -0.00000006
0.61142672 0.07086322 0.00000035
0.01834465 0.20952766 0.00000832
0.47968216 -0.74523619 -0.00000003
-0.78863772 -0.33206066 0.00000000
-0.07791400 0.43718707 -0.00000077
-0.41918806 0.65156786 0.19482167
-0.57421801 -0.44954852 -0.00000016
0.39943537 -0.27613323 -0.00000033
-0.68446549 -0.57809657 -0.00000002
-0.33075271 0.57457764 0.07578939
0.71530605 -0.07162898 -0.00000159
0.54524663 0.13355942 0.00000049
0.26575192 -0.05980700 -0.00000046
-0.11998084 -0.09203904 -0.00000044
-0.56883816 -0.74743692 -0.00000003
0.11638658 -0.17750077 -0.00000039
-0.66801496 -0.36068680 -0.00000007
-0.07633572 -0.55435692 -0.00000015
0.46442796 0.12746310 0.00000216
0.11478505 0.35863346 0.00000444
0.21712652 -0.16514807 -0.00000040
-0.62299282 0.40890774 0.16686346
0.35966660 0.44024148 -0.00000145
0.18311933 0.56419522 -0.00000113
-0.36496292 -0.47111774 -0.00000021
-0.14049505 -0.52465006 -0.00000017
-0.70589699 -0.38528763 -0.00000003
0.15313145 0.23286841 0.00000591
-0.53343899 0.19463839 -0.00000032
0.39591870 0.21188727 -0.00000112
0.54290793 0.12259763 -0.00000142
-0.08504482 0.42013590 -0.00000076
-0.46930843 -0.42157995 -0.00000024
-0.06378476 -0.55061313 -0.00000016
-0.31326112 0.52190138 0.02530029
0.51237082 -0.17506086 -0.00000074
0.46071279 -0.06774312 -0.00000078
-0.40824193 0.08185187 -0.00000043
-0.40749301 -0.72857018 -0.00000004
-0.11308852 0.64286870 -0.00000085
-0.78321944 -0.17620469 0.00000000
-0.38137672 -0.15354973 -0.00000040
-0.30020846 0.58988324 0.06482438
0.19268778 -0.78931395 -0.00000001
0.45752856 0.26275071 -0.00000014
-0.07655688 0.77619850 0.03795860
-0.21342083 0.75080716 0.11816911
-0.46478616 0.01932491 -0.00000036
-0.57645590 0.54722927 0.23290709
0.36315896 0.38745741 -0.00000057
-0.43854647 -0.44774848 -0.00000022
0.01404306 -0.38969075 -0.00000026
0.40770518 -0.45017203 -0.00000022
0.45833930 0.19222981 -0.00000128
0.62955591 -0.64997373 -0.00000019
-0.60688519 -0.46566180 -0.00000012
0.26084912 -0.24198967 -0.00000035
-0.74794367 -0.37760410 0.00000000
-0.35509634 0.64462659 0.14370962
0.00350908 0.55093063 -0.00000084
0.70811714 -0.18088759 -0.00000135
0.37763199 0.32725157 0.00000024
-0.05085475 -0.47418274 -0.00000020
0.13135153 -0.64546535 -0.00000010
-0.58074582 0.63809024 0.30137327
-0.16193040 -0.12406059 -0.00000042
-0.79559456 -0.02524126 -0.00000000
0.22856102 0.43699086 0.00000113
0.20926065 -0.24677708 -0.00000035
-0.77995087 -0.67248098 0.00000000
-0.09546504 0.20737142 -0.00000063
0.15702597 -0.22319462 -0.00000036
-0.12909400 0.15578157 -0.00000060
0.32771074 0.11324806 -0.00000071
0.51224052 -0.50651805 -0.00000018
-0.16328202 -0.27113609 -0.00000033
-0.63743373 0.17620658 0.00981506
0.02470537 0.06481952 0.00001057
-0.12268217 0.22176164 -0.00000064
0.50072614 -0.51092319 -0.00000018
-0.20847289 0.74066766 0.10731289
0.59636746 -0.78832477 -0.00000001
0.17017886 0.01788708 0.00000914
-0.63375111 0.54649431 0.27360522
0.17033287 0.23061187 -0.00000064
-0.23355653 -0.58991550 -0.00000013
0.15293065 -0.41197092 -0.00000024
0.11188538 -0.27781725 -0.00000033
0.40428050 -0.75602924 -0.00000003
-0.71487014 0.46137175 0.27072446
-0.41013586 -0.53525216 -0.00000017
-0.64138709 -0.52412092 -0.00000007
0.24697310 -0.02898312 -0.00000048
0.45120293 -0.30507195 -0.00000031
0.07785085 0.02818337 -0.00000052
0.30838464 -0.25699469 -0.00000034
-0.47177969 0.67672856 0.25076864
0.19758455 0.03543392 0.00000844
-0.54667061 0.16835496 -0.00000030
-0.73290253 -0.15800813 -0.00000004
0.34824023 -0.50244207 -0.00000019
-0.49879813 0.25990661 -0.00000037
0.61294240 -0.10442510 -0.00000120
-0.71030368 -0.09696170 -0.00000008
0.53986149 -0.07816744 -0.00000101
0.29175269 0.10700865 -0.00000058
-0.56815040 0.35636172 0.08959230
0.38964956 0.07161551 0.00000459
0.35115539 -0.77945875 -0.00000001
0.43189639 -0.16681400 -0.00000050
0.75366500 0.00077288 -0.00000112
-0.49106799 0.55912647 0.18002659
0.69676091 -0.76390840 -0.00000009
0.05870885 0.39782231 -0.00000075
-0.71779295 -0.53644305 0.00000000
0.05496604 -0.75088718 -0.00000003
-0.27621498 -0.12542063 -0.00000042
-0.61180087 0.08177576 -0.00000022
-0.52552282 0.00631835 -0.00000029
0.03683703 0.05168892 0.00001060
-0.44950155 -0.69661062 -0.00000006
-0.40642253 -0.74446902 -0.00000003
0.04510382 0.29709613 -0.00000069
0.43452150 0.23294228 -0.00000128
0.22927046 0.05299299 -0.00000053
-0.00923271 -0.48994621 -0.00000019
0.73394771 -0.43298976 -0.00000092
-0.46163536 -0.77341708 -0.00000002
0.36329340 -0.50247574 -0.00000019
-0.59675279 -0.06064413 -0.00000021
-0.31396892 0.34053798 -0.00000058
-0.56375552 0.44334146 0.14901595
0.41220584 0.07740272 -0.00000091
0.30635144 -0.08494045 -0.00000045
-0.39385155 -0.73780062 -0.00000004
0.54917817 -0.23735770 -0.00000073
-0.03655365 -0.64047963 -0.00000010
0.38296790 0.06941813 0.00000476
0.08718142 -0.48693359 -0.00000020
-0.06627405 0.63403726 -0.00000090
-0.22045001 0.34362825 -0.00000068
-0.56030458 -0.11605851 -0.00000023
-0.37840961 -0.63366019 -0.00000010
-0.02201906 0.36048051 -0.00000073
0.78016459 -0.23878233 -0.00000140
-0.59017119 0.39103388 0.13038559
-0.48195243 -0.47758860 -0.00000020
-0.43083617 -0.30206807 -0.00000031
0.35766373 -0.58480902 -0.00000013
0.50318509 0.13590465 -0.00000132
0.49585850 -0.15025089 -0.00000073
0.70093421 -0.47520966 -0.00000076
0.65094649 -0.62920374 -0.00000030
0.02646961 -0.79398825 -0.00000000
0.36277603 -0.25633598 -0.00000034
-0.15273504 -0.11896515 -0.00000043
-0.22334017 0.21016609 -0.00000063
0.35740304 -0.06565093 -0.00000046
-0.54300537 -0.18659201 -0.00000024
-0.00737499 -0.14617861 -0.00000041
-0.55208750 0.45573995 0.14954152
-0.68089953 0.09634684 -0.00000014
-0.66051871 -0.25002718 -0.00000010
0.34296016 -0.15815693 -0.00000040
-0.50405249 0.10615115 -0.00000034
0.26979609 -0.58344237 -0.00000014
-0.25987229 0.40841437 -0.00000065
-0.48997106 -0.04089203 -0.00000032
-0.46097807 -0.22498189 -0.00000032
0.51991863 -0.41104329 -0.00000030
-0.47991066 0.35821020 0.02742948
-0.12082003 0.64034658 -0.00000084
0.73372690 -0.67304131 -0.00000032
0.08220089 0.50556805 0.00000254
-0.54574387 0.58718996 0.23956200
-0.25122400 0.42339317 -0.00000066
-0.27926370 0.27119722 -0.00000061
-0.68744224 -0.63225046 -0.00000000
-0.03589386 0.76496762 0.00061826
-0.08579833 -0.44058730 -0.00000022
-0.45897546 -0.45517365 -0.00000022
-0.25011696 0.68082553 0.09421840
0.58815700 -0.61755243 -0.00000012
0.33543933 0.26926481 0.00000209
0.25474473 0.41944347 -0.00000107
-0.16413389 0.10187739 -0.00000056
-0.45254271 -0.19896901 -0.00000033
-0.34103012 -0.76075879 -0.00000002
0.50140624 0.03821618 0.00000305
0.65568068 -0.55412256 -0.00000046
0.74464540 -0.53652775 -0.00000066
-0.77683108 -0.68789442 0.00000000
-0.70703631 0.20888166 0.08340883
-0.58627019 -0.37127390 -0.00000016
-0.49414861 0.53954764 0.16815523
0.67442877 -0.01405993 -0.00000157
0.07825748 0.33689506 -0.00000071
-0.30965719 -0.68557842 -0.00000007
-0.40534672 -0.13993018 -0.00000040
-0.19568042 0.19275183 -0.00000062
0.31684967 0.33309954 -0.00000110
-0.75330447 -0.20456079 -0.00000001
0.39429779 -0.03516728 -0.00000063
-0.67396297 0.32648285 0.14423047
0.67395572 0.04278082 -0.00000168
0.26903993 -0.40614081 -0.00000025
0.04224184 0.40307268 -0.00000075
-0.03199560 -0.78396982 -0.00000001
-0.51228208 0.33713789 0.03555981
0.60160618 -0.66147133 -0.00000009
-0.12922727 0.59672071 -0.00000082
0.07206390 0.48111176 -0.00000080
0.12850952 0.61538954 -0.00000105
0.64982611 0.00953096 0.00000071
-0.12064460 0.57278662 -0.00000083
-0.26701648 0.11235607 -0.00000057
0.31384620 0.39710162 0.00000021
-0.08270483 0.44035820 -0.00000078
-0.13509197 0.77523369 0.07938350
-0.10088251 -0.41452492 -0.00000024
-0.42621487 0.72112110 0.24992513
0.13351919 -0.23290776 -0.00000035
-0.38950766 0.42108205 0.00761924
0.46010441 0.27795914 -0.00000046
0.37404845 -0.61997080 -0.00000011
-0.15893850 0.08896790 -0.00000056
-0.69126048 0.23320820 0.08956142
0.68681290 -0.73537633 -0.00000016
0.73945639 -0.54152375 -0.00000065
-0.31973664 0.06900843 -0.00000053
0.44594699 0.12221787 0.00000261
-0.05649717 -0.60776704 -0.00000012
-0.02523306 0.58460026 -0.00000087
-0.57956960 -0.60387669 -0.00000012
-0.26098076 -0.65839532 -0.00000009
0.74354376 -0.25301863 -0.00000133
0.76353964 0.00962382 -0.00000147
0.59772351 0.00670241 -0.00000137
-0.67683546 0.48927974 0.26343777
-0.10691084 -0.16087217 -0.00000040
0.48597009 -0.40388289 -0.00000025
0.32840261 -0.33234538 -0.00000029
-0.37190009 0.19863566 -0.00000049
-0.69661964 -0.57164527 -0.00000001
-0.33989405 0.50471538 0.03209788
-0.74550020 -0.20891634 -0.00000002
0.77235554 -0.14163898 -0.00000164
0.39980798 0.24337611 0.00000132
-0.06940596 0.67797797 -0.00000090
-0.15472838 -0.35923139 -0.00000028
0.03116903 -0.17975502 -0.00000039
-0.63059613 -0.70333292 -0.00000005
-0.48515968 -0.28924968 -0.00000028
-0.03225786 0.24301099 -0.00000065
-0.36577126 -0.72822370 -0.00000004
-0.74223464 -0.51836988 0.00000000
-0.04932734 -0.35351900 -0.00000028
-0.27448831 -0.44293367 -0.00000022
-0.33590675 0.41375272 -0.00000057
-0.68190318 0.47246079 0.25498213
0.53099190 0.22093626 -0.00000157
-0.44701284 0.05010045 -0.00000039
-0.10321777 0.77271849 0.05463848
-0.42819546 0.31436809 -0.00000045
-0.20713559 -0.00749837 -0.00000050
0.42785006 0.11609324 -0.00000104
-0.46195286 0.51581000 0.12790837
0.57599461 -0.41340645 -0.00000048
0.44173432 0.22664745 -0.00000130
0.76078992 -0.61905727 -0.00000045
0.48504920 0.22791702 -0.00000144
-0.77506135 -0.27706667 0.00000000
-0.78279612 -0.04273246 -0.00000001
0.39088944 0.14081794 -0.00000097
0.75799880 -0.04409685 -0.00000178
-0.29864345 0.69502726 0.13935472
-0.02165717 -0.26717872 -0.00000033
0.39258742 -0.66488127 -0.00000008
-0.70143892 -0.32436856 -0.00000005
-0.29607484 0.32082782 -0.00000060
0.45710222 0.05223780 0.00000365
0.20830457 0.04236113 0.00000817
-0.49391376 -0.43412287 -0.00000023
0.03313221 0.19512326 -0.00000062
-0.49810311 0.57784947 0.19856094
0.27657723 0.12978633 0.00000572
0.36219021 0.30839905 -0.00000120
0.27449888 -0.74599005 -0.00000003
-0.51829200 -0.09473362 -0.00000028
-0.76134102 0.13208406 0.06722431
-0.50459257 -0.01722200 -0.00000031
-0.33569050 0.17022186 -0.00000053
-0.37395085 -0.54156934 -0.00000016
0.59886597 -0.13158485 -0.00000110
-0.61077927 -0.14036333 -0.00000018
-0.61931728 -0.15935322 -0.00000016
0.04543443 0.50852842 -0.00000082
-0.78316480 -0.52541567 0.00000000
-0.06398232 0.13519475 -0.00000058
-0.62871605 0.64565472 0.34133347
-0.54887725 0.59848080 0.24994100
-0.52743703 -0.75574007 -0.00000003
0.50065868 -0.72242611 -0.00000005
0.35061447 0.42081773 -0.00000093
-0.24708319 -0.50257011 -0.00000019
0.56618773 -0.19231210 -0.00000088
0.07210326 -0.26338171 -0.00000034
-0.68102014 -0.68825909 -0.00000000
0.44796281 0.11185359 0.00000275
-0.03964482 0.15194686 -0.00000059
-0.28589333 -0.47264657 -0.00000020
-0.37685196 0.45484919 0.02280988
-0.53907488 -0.45234135 -0.00000020
0.03243189 -0.68991731 -0.00000007
0.44296805 -0.54536418 -0.00000016
-0.71932125 -0.09647584 -0.00000007
-0.40868088 -0.24012494 -0.00000035
0.18342456 -0.65166302 -0.00000009
0.68409092 -0.31767517 -0.00000101
0.68257085 -0.49607337 -0.00000066
-0.62249084 -0.74445929 -0.00000003
0.07961900 -0.55289155 -0.00000015
0.18011052 -0.22096220 -0.00000036
0.63343799 -0.75024568 -0.00000003
0.07852491 -0.08987237 -0.00000044
-0.13010523 0.03554204 -0.00000052
0.30771845 -0.30275656 -0.00000031
-0.43629718 0.59286370 0.16489180
-0.51252219 -0.20785815 -0.00000027
0.03425292 -0.07692871 -0.00000045
0.32726637 0.18317775 -0.00000084
-0.22330201 0.56336101 -0.00000072
-0.59638945 -0.59667023 -0.00000011
-0.55843119 0.47030163 0.16458393
-0.69581546 0.51914363 0.29858357
-0.65800554 -0.64691709 -0.00000003
0.56639960 0.13383605 0.00000008
-0.67487692 0.45361550 0.23636615
0.42753527 0.33985059 -0.00000095
-0.13727299 0.72755633 0.04664644
0.44350196 0.26598864 0.00000007
0.05168987 0.06977077 -0.00000054
0.12274126 0.14383313 0.00000781
-0.46136549 -0.54035945 -0.00000016
0.67902730 -0.40919857 -0.00000081
-0.47138324 -0.01543949 -0.00000035
0.73417255 -0.15598358 -0.00000149
-0.58961718 0.46284433 0.18165793
0.65538612 -0.50766911 -0.00000055
0.03851884 0.58225662 -0.00000086
-0.36877215 -0.00970125 -0.00000046
0.56094604 -0.79920777 -0.00000000
0.70157856 -0.03927891 -0.00000161
-0.04618958 0.69947591 -0.00000093
-0.79298461 -0.02187510 -0.00000000
-0.68012626 0.51028730 0.28092175
-0.21013582 0.43674986 -0.00000071
-0.38660296 -0.41445960 -0.00000024
-0.21011561 -0.21515047 -0.00000037
0.33747150 0.44144828 -0.00000138
-0.43012138 0.42216348 0.03762099
0.24921294 0.24560354 -0.00000072
-0.15892239 -0.40654257 -0.00000025
0.46880564 -0.13727496 -0.00000067
0.23733085 0.10784683 0.00000667
0.22609272 0.02608992 0.00000816
0.67539590 0.09932662 -0.00000179
-0.37144838 0.17463642 -0.00000049
-0.00189954 -0.79297525 -0.00000000
-0.25734614 0.69474779 0.10943800
-0.37928901 -0.02622346 -0.00000044
-0.78391589 -0.43612037 0.00000000
-0.00333323 0.23301377 -0.00000065
-0.41735534 0.08186490 -0.00000042
-0.22260191 0.29830320 -0.00000067
-0.49086120 -0.41197131 -0.00000024
0.67656724 -0.55265113 -0.00000053
-0.20603348 -0.25433296 -0.00000034
-0.21735129 -0.49728726 -0.00000019
0.13804710 0.31458345 0.00000481
-0.37015660 -0.30473581 -0.00000031
0.29689495 -0.49845022 -0.00000019
0.30495017 -0.64375524 -0.00000010
-0.45587289 0.37002510 0.01863447
0.48489279 -0.18673931 -0.00000063
0.53435939 -0.51746656 -0.00000018
0.49380377 0.22757216 -0.00000021
-0.70879114 -0.02983727 -0.00000009
0.70685556 -0.78683604 -0.00000003
-0.18188155 0.15672750 -0.00000060
-0.22438671 0.63308208 0.04135043
0.44757843 -0.68494423 -0.00000007
-0.15383430 0.15754415 -0.00000060
-0.20716610 0.25608009 -0.00000066
0.00951302 0.33056522 0.00000648
-0.13479000 -0.60517759 -0.00000012
0.09175192 0.47904280 -0.00000080
-0.50917841 0.42038227 0.09322479
-0.72011805 -0.19466797 -0.00000005
-0.56399035 0.45481194 0.15743847
-0.04476390 -0.63775848 -0.00000010
0.79226898 -0.47802128 -0.00000080
-0.45357331 0.28082516 -0.00000042
-0.65018951 0.65454049 0.36317857
0.52072261 -0.59172516 -0.00000013
0.55809868 -0.15826811 -0.00000092
0.19308371 0.28569145 -0.00000068
-0.53374240 -0.00058812 -0.00000028
-0.25309666 0.10454613 -0.00000057
0.67305404 0.10651192 -0.00000147
0.13675318 -0.44023360 -0.00000022
-0.40219159 -0.27050064 -0.00000033
0.09306556 -0.09604981 -0.00000044
0.60187532 -0.69585292 -0.00000007
0.21533595 0.56985585 -0.00000124
-0.45141305 0.21183882 -0.00000041
0.17990935 0.35814344 -0.00000072
-0.40684542 0.54792024 0.11136064
-0.36458501 -0.31010816 -0.00000031
0.61351124 0.12655955 -0.00000165
0.42195022 0.14783295 -0.00000108
-0.69832475 -0.10228252 -0.00000009
-0.70992219 -0.55966433 0.00000000
0.47352561 -0.63162772 -0.00000011
-0.22011930 -0.71710134 -0.00000005
0.52999356 -0.52380587 -0.00000017
0.12573323 0.18693629 0.00000707
-0.61708494 0.57575797 0.28266980
-0.09447926 0.03289195 -0.00000052
0.67950627 -0.60768723 -0.00000043
0.15172788 -0.41704177 -0.00000024
-0.60650250 -0.07832124 -0.00000019
0.13413008 0.41086110 0.00000330
-0.47899050 -0.33690840 -0.00000028
-0.77200005 0.12849033 0.07230815
-0.45511382 0.46983077 0.08990313
-0.52022462 0.28934263 0.00688394
-0.39338366 -0.34027790 -0.00000029
-0.09779907 0.00578334 -0.00000050
0.10939681 -0.41665217 -0.00000024
-0.58742755 0.02998759 -0.00000023
0.30753914 -0.01394079 -0.00000049
-0.47941759 -0.40455221 -0.00000025
-0.10741677 -0.31476413 -0.00000030
-0.74550757 -0.37733835 0.00000000
-0.03315686 0.42525570 -0.00000077
-0.70028105 -0.77714281 0.00000000
0.11393700 -0.63408889 -0.00000010
-0.55900502 0.09189742 -0.00000027
-0.59650399 0.50080909 0.21393095
-0.57048023 -0.38085545 -0.00000018
0.30120618 0.30186275 -0.00000099
0.61852331 0.07712827 -0.00000157
-0.49650461 -0.24993567 -0.00000028
-0.63602193 -0.22943586 -0.00000013
0.54003417 -0.08190812 -0.00000101
0.68551894 -0.73676637 -0.00000016
0.64247974 0.11007491 -0.00000171
0.79755477 -0.32865960 -0.00000118
-0.23692731 -0.35269083 -0.00000028
0.12781655 -0.67347439 -0.00000008
0.13284706 0.23743169 0.00000614
0.22161509 -0.35115543 -0.00000028
0.28190047 0.43405073 -0.00000119
-0.17169214 0.32525671 -0.00000070
-0.69779300 0.58117991 0.34464495
0.78621220 -0.70714871 -0.00000023
0.15271724 0.51772848 0.00000114
-0.16029394 -0.71010247 -0.00000006
-0.02398836 0.05162470 -0.00000053
-0.38350297 0.12706246 -0.00000047
0.28744857 -0.46108079 -0.00000021
0.20434518 0.25191100 0.00000482
-0.31992106 0.13521920 -0.00000054
0.02427566 -0.64454568 -0.00000010
-0.15904745 -0.77767304 -0.00000001
-0.42476228 0.67357501 0.21466795
0.18809571 -0.65123555 -0.00000009
0.13716320 0.40149460 -0.00000075
0.17336090 -0.57924475 -0.00000014
0.00936116 0.14997900 0.00000942
0.70372805 -0.43654168 -0.00000084
-0.57972940 0.61642039 0.28504929
-0.05688892 0.15293538 -0.00000060
0.58470625 0.21007148 -0.00000164
0.07508825 -0.02983134 -0.00000048
-0.19028729 0.59080543 -0.00000076
0.05420187 0.33501916 0.00000574
0.67116372 -0.39373958 -0.00000082
0.47349240 -0.11571571 -0.00000073
0.41109062 0.02476937 0.00000502
0.74037535 -0.44583846 -0.00000089
0.00891147 -0.44739770 -0.00000022
0.31437842 -0.09637705 -0.00000044
-0.42567981 0.51179867 0.09892176
0.27823235 -0.54213810 -0.00000016
0.69087689 -0.07895544 -0.00000150
-0.52747780 0.67897408 0.29246219
0.04950483 0.66600667 0.00000043
-0.54044529 0.37265488 0.08138079
0.75993050 -0.23610014 -0.00000141
0.15039563 -0.42874595 -0.00000023
-0.45236231 0.21975143 -0.00000041
0.23327032 -0.69434850 -0.00000007
0.02439394 0.03160727 -0.00000052
-0.41415053 0.58997456 0.14687720
-0.24425248 0.10628480 -0.00000057
-0.34471039 -0.44019888 -0.00000022
0.04507361 0.56146023 -0.00000085
-0.72413788 0.06928511 -0.00000009
-0.70272345 0.46547380 0.26493591
-0.55964244 0.32386186 0.06008522
-0.05753700 -0.69316271 -0.00000007
-0.57457803 0.25668929 0.02249832
0.71153218 0.00529145 -0.00000040
0.09550501 0.27896396 -0.00000067
-0.63719869 0.47897845 0.22750465
-0.70589523 -0.27745878 -0.00000005
0.29718075 -0.70910056 -0.00000006
0.67040006 -0.28867935 -0.00000102
-0.54265191 0.64843974 0.28140968
-0.09281998 0.13418647 -0.00000058
0.29172178 0.31137262 0.00000217
-0.49398000 0.60910650 0.21808525
-0.29148471 0.17097353 -0.00000057
-0.05106589 0.76130511 0.00889995
-0.13992566 -0.09246135 -0.00000044
0.21735583 0.48886318 -0.00000109
-0.06643829 0.22842305 -0.00000064
0.48673023 -0.29480144 -0.00000042
-0.67999832 0.35476596 0.16892422
-0.46927494 0.16731470 -0.00000038
-0.40733797 0.23839573 -0.00000046
0.71644389 -0.19485229 -0.00000135
-0.20197009 0.47267928 -0.00000072
-0.50281544 0.10423254 -0.00000034
-0.07594574 0.46152423 -0.00000079
-0.53426055 0.40542355 0.10050914
