ply
format ascii 1.0
element vertex 1403
property float x
property float y
property float z
end_header
0.01087989 -0.39121492 0.02387331
-0.60318628 0.01606711 -0.00000119
-0.02557341 0.04469783 0.00000000
-0.41671998 -0.10159376 -0.00000018
-0.73571157 0.00882383 -0.00000091
0.09136222 0.15917771 0.20047246
0.32090302 -0.25879113 0.70414142
-0.12954816 -0.44625871 0.00000000
-0.30871121 -0.66233756 0.00000000
-0.49430695 0.09202785 -0.00000086
0.23918268 -0.11991990 0.52482693
-0.29216116 0.50314831 -0.00000065
-0.46116829 -0.15433099 -0.00000028
-0.08355839 0.23678328 0.00000000
-0.54594561 0.13500547 0.00000062
-0.14555444 0.46251581 0.00000284
0.07367110 0.57443877 0.16165455
0.01724098 -0.20787081 0.03783120
-0.24864733 0.09664353 0.00000000
0.28401890 -0.71831620 0.62321083
-0.06415049 0.26048660 0.00000712
-0.03547130 0.15025967 0.00000921
-0.59250468 -0.00335425 -0.00000111
0.12836024 0.46551237 0.28165395
0.06677860 0.26927686 0.14654369
-0.10080976 -0.35081396 0.00000000
0.14677826 -0.36071699 0.32206966
0.21323277 -0.45850084 0.46788814
0.26090859 0.09176122 0.57250086
0.31951310 -0.12961041 0.70109078
0.01406686 0.38973496 0.03088018
0.18688473 -0.37342057 0.41007369
-0.61808382 0.02609692 -0.00000127
0.19942898 0.19711377 0.43760140
0.25388179 -0.76926241 0.55708265
-0.54879779 -0.69162896 0.00000000
-0.44914088 -0.06095428 -0.00000039
0.18866000 0.31413910 0.41396764
-0.56844337 -0.60932447 0.00000000
-0.40442327 -0.12707038 -0.00000009
-0.05391665 0.30984492 0.00000000
-0.21335398 -0.06359311 0.00000000
0.12106927 -0.78436066 0.26565746
-0.21255005 -0.00298131 0.00000000
0.21926021 -0.36178776 0.48111340
0.15007819 0.06614977 0.32930997
-0.17419916 -0.35143608 0.00000000
-0.34154447 -0.63026865 0.00000000
0.15821415 0.22365239 0.34716912
0.10018088 0.22528123 0.21982286
-0.56958365 -0.10006068 -0.00000084
0.10743407 -0.12083948 0.23573829
-0.74368932 -0.77500502 -0.00000006
-0.75564675 -0.07998388 -0.00000167
-0.09909139 0.61723259 0.00000115
-0.22028140 0.00862285 0.00000000
-0.27367229 0.25276084 0.00000389
-0.66793052 -0.10245030 -0.00000126
0.04124003 0.13988548 0.09051216
0.13807624 -0.45121577 0.30297517
-0.30805215 -0.52063481 0.00000000
0.15416678 0.34263928 0.33828344
0.22134127 -0.21390127 0.48567911
0.02583564 0.06480616 0.05669010
0.01371892 0.12016997 0.03010287
-0.02197026 0.17979538 0.00000000
0.18770820 -0.17910579 0.41188010
-0.14319727 0.22096500 0.00000000
0.11332515 -0.33301739 0.24866485
0.26203743 0.10184020 0.57497727
-0.10089804 -0.64615705 0.00000000
0.15996877 -0.20324793 0.35101307
-0.77101536 -0.26148845 -0.00000135
0.09489138 -0.47955659 0.20821636
-0.42765777 0.10095353 0.00000346
0.08045674 -0.08152288 0.17654301
0.02723768 -0.18843598 0.05976654
-0.15104279 0.54227631 -0.00000019
-0.28576906 0.06433302 0.00000672
0.20193804 -0.37104262 0.44310453
-0.39058395 0.10185134 -0.00000043
-0.59611714 -0.18841213 -0.00000080
0.09375098 0.27479869 0.20571394
-0.26495311 -0.01236975 0.00000000
-0.68577154 -0.63540696 -0.00000039
-0.53344030 0.23910468 -0.00000087
0.29853698 -0.55793223 0.65506632
-0.48440460 0.29967695 -0.00000118
-0.27452234 0.30894362 0.00000293
0.01690571 0.03504751 0.03709552
0.04847460 0.32358198 0.10637942
0.02618206 0.69165149 0.05745005
-0.47583815 -0.38628184 0.00000000
-0.29304325 0.06763789 0.00000656
-0.16878223 -0.74788125 0.00000000
-0.45503791 -0.41874042 0.00000000
0.01817921 0.22676886 0.03990937
-0.62179687 -0.53306251 -0.00000030
0.00224653 0.35198084 0.00494561
0.24161952 -0.24346872 0.53017447
-0.43408128 -0.63421995 0.00000000
-0.32066619 0.00085954 0.00000000
0.00233978 -0.03136541 0.00513409
0.04444384 -0.66947027 0.09752135
0.15786318 -0.05547948 0.34639259
-0.11540106 0.41531814 0.00000403
-0.15656946 0.39561223 0.00000000
0.31086239 -0.76531716 0.68211298
-0.39000699 0.35982451 -0.00000089
0.06338861 -0.33333786 0.13909109
-0.54357311 -0.42873340 -0.00000015
-0.42604710 0.06322647 0.00000413
0.19588785 -0.33815681 0.42982886
-0.31671801 -0.65658342 0.00000000
-0.55415626 -0.62682514 0.00000000
-0.15890401 0.26648576 0.00000000
-0.53879788 -0.65389330 0.00000000
0.07058062 -0.11437456 0.15487223
0.01501214 0.02547219 0.03296756
-0.04404868 0.56138039 0.00000291
0.12057872 -0.48450462 0.26458105
-0.40969055 0.03696973 0.00000488
0.26677748 0.06165194 0.58537562
0.08882344 0.29804524 0.19491292
-0.21590716 -0.28186563 0.00000000
-0.47960739 -0.43616955 0.00000000
0.06975226 -0.13002046 0.15305460
-0.06668257 0.01599984 0.00000000
0.18512162 0.13925236 0.40620315
0.25596748 -0.02214347 0.56165631
0.17785408 -0.63255394 0.39025808
-0.52014943 0.25315897 -0.00000125
-0.17428217 0.04616382 0.00000868
-0.04892158 -0.06525806 0.00000000
-0.15570250 0.33747401 0.00000459
-0.13609986 -0.48712198 0.00000000
-0.50084718 0.15578945 -0.00000100
-0.11313147 -0.36524230 0.00000000
-0.31705133 -0.75994878 0.00000000
0.10536775 -0.20509310 0.23120424
-0.56780522 -0.41655409 -0.00000027
0.08985063 -0.04465793 0.19715564
-0.49084740 -0.27053130 -0.00000020
0.19756428 0.16735309 0.43350514
-0.18513703 0.45526950 0.00000220
0.01546065 0.09938781 0.03394898
-0.09649759 0.44748312 0.00000000
0.11242094 -0.63480259 0.24668078
-0.58904887 0.10992747 0.00000021
-0.22284801 -0.64676375 0.00000000
0.32126906 -0.62770200 0.70494708
-0.58548283 -0.69646278 0.00000000
0.01890650 0.71240576 0.04148567
-0.44192239 -0.07695228 -0.00000034
0.10621955 -0.37026655 0.23307331
-0.05423816 -0.71953003 0.00000000
-0.01891490 -0.11530604 0.00000000
0.31881977 -0.36537497 0.69957093
0.26318556 -0.03695192 0.57749453
0.31060021 -0.23581024 0.68153426
0.05145379 -0.52841899 0.11290300
-0.28628534 0.29734857 -0.00000033
-0.10170601 -0.02328277 0.00000000
0.04860152 -0.28278395 0.10664437
-0.66895819 -0.73092520 -0.00000015
-0.33304741 -0.31635848 0.00000000
0.00810288 0.03917811 0.01780691
-0.05239089 0.47354253 0.00000000
-0.13830487 0.44092029 0.00000000
-0.15401701 0.35369180 0.00000000
-0.45311047 0.09096694 0.00000314
-0.01157040 0.63910701 0.00000224
-0.71620780 0.05713330 -0.00000135
0.11434452 0.14578879 0.25090156
-0.31492419 0.02621577 0.00000685
-0.62123822 -0.08625661 -0.00000108
-0.13818837 0.01493183 0.00000000
0.06005282 0.19101426 0.13177150
0.04099746 -0.55059988 0.08995909
0.26790285 -0.22206701 0.58784618
0.11636700 -0.64917445 0.25533946
0.09479990 -0.05666481 0.20801563
-0.02589449 0.70908170 0.00000000
0.05439482 -0.70409533 0.11935637
0.03845366 0.54563949 0.08437734
0.13684841 0.07597247 0.30029611
-0.00059011 0.48927866 0.00000465
0.10655381 0.11408202 0.23380677
0.07304107 0.55376727 0.16027307
-0.60712701 0.16401610 -0.00000104
0.29446057 0.08918210 0.64611874
0.12190938 -0.73588242 0.26750087
0.02783634 0.67546716 0.06108226
-0.42392703 0.16329667 0.00000249
-0.60370619 -0.03442141 -0.00000110
-0.17582562 -0.47470637 0.00000000
0.01666171 0.72437931 0.03656004
0.00402900 0.35201431 0.00885668
0.10943158 -0.13492211 0.24012133
-0.18880358 -0.62395374 0.00000000
-0.60266799 0.12714903 -0.00000138
-0.42828831 0.32904466 -0.00000036
0.07141938 0.56417572 0.15671439
-0.16554523 0.51476720 0.00000159
-0.35781440 0.22073736 0.00000280
-0.52637371 0.02833711 -0.00000088
-0.62108172 0.14999924 -0.00000107
0.06572836 0.19860679 0.14424185
-0.03349161 0.04119699 0.00000000
-0.21360925 0.13614581 0.00000000
0.21775173 -0.68684016 0.47780392
0.19730522 -0.72388312 0.43293894
0.07475023 0.12978456 0.16402144
-0.45602584 0.02334909 0.00000422
-0.53812158 0.10052862 0.00000135
-0.08772756 0.37062665 0.00000000
0.13880139 0.21862102 0.30457502
0.00388500 -0.11263368 0.00852471
0.04734224 0.42465459 0.10389115
-0.66860159 -0.48102639 -0.00000059
0.30148110 -0.25389217 0.66152488
0.26197502 -0.09370619 0.57483858
0.06791872 -0.49997532 0.14903133
-0.00142126 -0.06745529 0.00000000
0.01487442 0.17436404 0.03265996
-0.04315865 -0.76152663 0.00000000
-0.39412286 0.26997647 -0.00000075
-0.26406971 -0.71404408 0.00000000
-0.19091029 -0.23500624 0.00000000
0.10522106 -0.04649933 0.23088235
-0.28487161 -0.18274764 0.00000000
-0.46966660 0.27470013 -0.00000108
-0.33259481 -0.03439584 0.00000000
0.30539443 -0.78703089 0.67011497
-0.08658833 -0.60111558 0.00000000
0.28076233 -0.64908047 0.61606474
0.30931264 -0.20734162 0.67870891
-0.05298013 0.59345595 0.00000000
-0.44140431 0.05585317 -0.00000057
0.20567028 -0.01937132 0.45129243
0.25883268 -0.23653363 0.56794415
0.02823977 0.05805948 0.06196539
-0.30741234 -0.13461679 0.00000000
-0.01094297 0.51138362 0.00000416
-0.74189516 -0.24105843 -0.00000133
0.15336237 -0.25487407 0.33651691
0.05621674 0.64905155 0.12335397
-0.12537522 -0.19833364 0.00000000
0.20375295 -0.22552293 0.44708626
0.24616603 0.12046150 0.54015236
0.27976014 -0.45747408 0.61386488
0.09952472 -0.69721765 0.21838311
0.09862149 0.38660490 0.21640049
0.24919372 -0.32348802 0.54679439
-0.27507736 0.43713145 0.00000078
0.23126411 -0.08006970 0.50745156
0.12660326 0.47835202 0.27779867
0.02870423 0.57507545 0.06299048
-0.02453365 0.05377837 0.00000000
-0.40923446 -0.63237943 0.00000000
-0.71795438 -0.64795827 -0.00000038
-0.03886694 0.26249526 0.00000000
0.09515086 0.54546441 0.20878541
0.26130219 -0.10045022 0.57336226
0.09901580 -0.40255098 0.21726642
-0.51074178 -0.64444942 0.00000000
0.04544361 -0.17035673 0.09971509
0.23854366 -0.02045798 0.52342434
0.01419557 -0.66319068 0.03114877
0.06068266 -0.44359765 0.13315353
-0.05714003 -0.24545342 0.00000000
0.16996970 0.16572820 0.37295617
-0.10825282 -0.31370280 0.00000000
0.14473731 0.33149363 0.31759434
-0.45113839 0.33443187 -0.00000110
-0.11244623 0.33658458 0.00000000
-0.66768346 -0.65624795 -0.00000028
-0.34595868 0.23412074 0.00000281
0.02555625 0.21292345 0.05609643
0.10999830 -0.73177019 0.24136488
-0.62949944 -0.72131067 0.00000000
0.24226708 -0.58878731 0.53159687
0.06110001 0.21897854 0.13408568
0.18772011 -0.35315587 0.41190673
0.08685545 0.14620141 0.19058345
0.25985200 -0.72406824 0.57018285
0.04081070 -0.30908354 0.08954929
0.06050195 -0.55190128 0.13275701
0.12169974 0.28424354 0.26704874
-0.04575468 -0.53122396 0.00000000
0.31276428 0.02497634 0.68628243
-0.00754524 0.12237136 0.00001005
-0.51909771 -0.51523938 0.00000000
-0.04749404 -0.26149188 0.00000000
-0.26280824 0.24905024 -0.00000015
-0.39901819 -0.50052353 0.00000000
0.21043213 -0.79688973 0.46174281
0.21098359 0.26693357 0.46294983
0.17889978 -0.11354728 0.39255208
0.29101204 -0.16142758 0.63855291
-0.15957326 0.18981939 0.00000674
0.30150988 -0.14395024 0.66158755
-0.69944098 0.07143871 -0.00000126
0.09470695 0.13758108 0.20782836
0.10654591 0.24147141 0.23378915
0.04474100 0.50048820 0.09818079
-0.71442421 -0.11260755 -0.00000144
0.01085473 -0.24762105 0.02381809
0.18051245 -0.52652998 0.39609124
0.21634833 -0.25920119 0.47472361
0.01003198 0.31172840 0.02201277
0.09332443 -0.29562468 0.20477807
0.27757121 0.10416414 0.60906045
0.05900105 0.55033599 0.12946325
-0.38146427 0.19953612 0.00000270
-0.04082294 -0.68273369 0.00000000
-0.45772560 0.19925835 0.00000124
0.16322126 -0.76030188 0.35814988
0.01803913 0.46156574 0.03959346
-0.04069812 0.52419946 0.00000000
0.03906702 -0.46488231 0.08572321
-0.51309459 -0.11136543 -0.00000058
-0.05620344 0.30241597 0.00000000
0.09255855 -0.33017738 0.20309753
0.08531060 -0.54928146 0.18719365
0.20615440 -0.42487621 0.45235635
0.09132556 -0.66741417 0.20039202
0.00555909 -0.58362574 0.01219809
-0.23486171 -0.33838743 0.00000000
-0.08573979 -0.06360413 0.00000000
0.17371468 -0.49941775 0.38117518
0.14105279 0.19900939 0.30951575
-0.46033977 -0.22812226 -0.00000015
0.06722480 0.29087349 0.14750869
-0.07191766 -0.47249689 0.00000000
0.08489978 0.25117144 0.18630552
-0.11573089 -0.60310884 0.00000000
0.28635352 0.00414914 0.62833442
-0.12880289 0.54935405 0.00000171
-0.46815424 -0.57896962 0.00000000
0.03920336 0.01374997 0.08602237
-0.42858171 -0.19890675 -0.00000006
-0.44758587 -0.21067927 -0.00000012
0.13221448 0.02473457 0.29011295
-0.29075543 0.23779725 -0.00000025
-0.47372105 0.05742179 -0.00000071
0.13430711 0.45320944 0.29470284
0.28668526 -0.66072364 0.62906115
0.00033466 -0.15183172 0.00073434
0.32155701 -0.26515105 0.70557649
-0.30420973 -0.72686360 0.00000000
-0.16880232 0.07936825 0.00000826
0.20439266 -0.14380777 0.44848958
-0.14648129 -0.29571605 0.00000000
0.24629053 0.09335478 0.54042672
0.12161464 0.08717193 0.26685415
-0.40898611 -0.47157380 0.00000000
-0.66053482 -0.61211154 -0.00000032
-0.43630021 0.14210115 -0.00000070
-0.42597253 -0.10761172 -0.00000021
0.02770887 -0.11738339 0.06080047
0.19485959 0.28430300 0.42756991
-0.29049045 0.07693440 0.00000646
0.09523426 0.30535660 0.20897884
0.21911309 0.07243590 0.48078870
0.10423152 0.53997164 0.22870956
0.31526448 -0.32548186 0.69176939
-0.47770759 0.25409242 -0.00000107
0.16182338 -0.59304472 0.35508257
-0.66943156 -0.43933764 -0.00000067
0.04710657 0.60811972 0.10336370
0.16633621 -0.03083214 0.36498430
0.14636480 -0.61252280 0.32116243
0.01224974 0.40210451 0.02687912
0.31880618 -0.23764574 0.69954024
-0.66385935 -0.54554157 -0.00000045
0.09623067 -0.30467288 0.21115512
-0.04392564 0.58596048 0.00000000
-0.79886984 -0.08620988 -0.00000178
-0.15049721 0.34157552 0.00000000
0.27363675 -0.30725464 0.60042808
0.01127719 -0.01231678 0.02474509
-0.03919973 0.48063700 0.00000000
0.30637458 -0.74038729 0.67226535
0.01725123 0.56962070 0.03786071
-0.12992305 -0.00580558 0.00000000
0.04180285 0.51444421 0.09173343
0.01554560 0.61628255 0.03411109
0.00316209 0.20553725 0.00693846
-0.04106161 0.38605793 0.00000559
-0.00804759 -0.03875401 0.00000000
0.12610694 -0.36310502 0.27671141
-0.25743316 -0.75613367 0.00000000
0.08359188 -0.54633902 0.18342233
-0.12761726 0.23602262 0.00000653
-0.23797003 0.13901427 0.00000632
-0.14683251 -0.13391550 0.00000000
-0.39429194 0.26244685 -0.00000073
-0.13557018 0.08245758 0.00000872
0.19161371 0.32243924 0.42044753
0.03629400 0.34797522 0.07965208
-0.66446143 -0.04198020 -0.00000135
-0.14268165 -0.56528123 0.00000000
0.02250777 0.21109612 0.04940758
0.16694602 -0.10755844 0.36632270
-0.73913459 0.03119540 -0.00000180
-0.10740721 0.36823061 0.00000486
0.02753650 0.51481462 0.06042225
0.00121591 0.54954112 0.00267706
0.04126591 0.67702653 0.09054855
0.13195555 0.48055157 0.28954283
-0.17540855 -0.34817585 0.00000000
0.06885400 0.44833821 0.15108337
0.11025360 0.29637981 0.24192446
-0.19468899 0.00939628 0.00000892
0.05483677 0.62916717 0.12032699
0.12168981 -0.44920589 0.26701908
-0.48556972 -0.45553840 0.00000000
0.06167747 0.40313538 0.13534601
0.00786080 0.63279890 0.01725412
-0.50833523 0.00628033 0.00000350
-0.26747171 0.36873805 -0.00000038
0.17489627 -0.43993985 0.38376789
-0.78025510 -0.00440118 -0.00000191
-0.49802573 -0.73650652 0.00000000
0.26572640 -0.15044705 0.58307022
-0.01561759 0.21859815 0.00000849
-0.18656398 0.32021705 0.00000438
-0.36234930 0.33386001 -0.00000072
-0.42700747 -0.17607710 -0.00000010
0.01540945 -0.77460155 0.03381234
-0.30512961 -0.63518012 0.00000000
-0.27304483 0.41418607 -0.00000048
0.18822987 -0.14124086 0.41302460
-0.31141476 -0.77809539 0.00000000
0.18640874 0.25154739 0.40903079
0.04173940 -0.38377898 0.09158709
-0.30206549 -0.09468118 0.00000000
0.14382195 -0.03247183 0.31558272
0.18367593 0.31626877 0.40303021
0.16616340 0.07608901 0.36460464
0.16585182 -0.08789531 0.36392167
-0.04883099 -0.09299290 0.00000000
0.09420638 0.48242037 0.20671229
-0.33966536 -0.32391774 0.00000000
-0.27552950 0.16891171 0.00000525
0.22562662 0.03871876 0.49508958
-0.36656611 0.23776044 0.00000235
0.23968811 0.11931716 0.52593895
0.30373303 -0.01255470 0.66646509
0.13018115 -0.39885133 0.28565130
0.17898224 -0.10796020 0.39273299
0.10258720 0.19921227 0.22510299
-0.06117821 0.21164290 0.00000000
-0.39745937 -0.17033620 0.00000000
0.18726231 0.30086326 0.41089964
0.12287495 0.28276521 0.26962737
0.04003503 -0.65174145 0.08784725
0.02814146 0.65670215 0.06175254
-0.39659380 0.01290187 -0.00000030
0.12286581 0.04322840 0.26959954
0.28737034 -0.39678196 0.63056319
0.03350695 0.12754612 0.07354481
0.14788455 0.43166313 0.32449503
0.07465083 0.29522394 0.16381585
0.25827386 -0.45915143 0.56671894
-0.33771522 0.22887492 0.00000305
0.24920990 0.17058812 0.54682887
0.10668371 -0.51798865 0.23409181
-0.43507638 -0.52727394 0.00000000
0.13909890 0.29488595 0.30522447
0.29381885 -0.33840691 0.64471247
0.10280545 0.11426995 0.22558188
-0.12858495 0.39243271 0.00000000
0.17478088 -0.20785191 0.38351465
-0.78251454 -0.13974418 -0.00000165
0.20538734 -0.32768487 0.45067292
0.16692897 -0.08921940 0.36628520
0.24378331 -0.65596829 0.53492396
0.25099300 -0.11396406 0.55074153
-0.39144889 -0.63466610 0.00000000
-0.20040189 0.21215632 0.00000579
-0.47202600 -0.60350201 0.00000000
-0.76224979 0.01415328 -0.00000186
-0.42064456 -0.25680139 0.00000000
0.03623180 0.06615322 0.07950199
0.20251558 0.02795872 0.44437007
-0.30035774 0.45242183 -0.00000067
0.31799854 -0.47654191 0.69776967
0.20571683 0.02728704 0.45139437
-0.11195650 0.16326559 0.00000000
0.15764924 -0.29298121 0.34592342
0.00753470 0.22269283 0.01655353
-0.71235155 0.06789019 -0.00000175
-0.16830336 0.14235759 0.00000733
0.24808766 -0.50600150 0.54436823
-0.25456660 0.40327335 -0.00000039
0.06143859 0.13313915 0.13483171
0.10972950 0.03649959 0.24079424
-0.71375901 -0.39886180 -0.00000093
-0.24036075 -0.48876986 0.00000000
-0.07311981 0.58813825 0.00000000
0.15028621 0.11667407 0.32977876
0.14766232 -0.54445919 0.32400952
0.03715906 0.30746647 0.08153664
0.30201738 -0.63515026 0.66270377
0.14458100 0.06225747 0.31726310
-0.11119343 0.50277124 0.00000000
0.03179657 0.19876542 0.06976995
-0.50390087 0.15265923 0.00000114
-0.03459499 0.11516430 0.00000000
0.10373721 0.22214484 0.22762630
-0.29232335 -0.70037739 0.00000000
0.30261989 -0.05068613 0.66402278
0.22476699 -0.44949103 0.49319696
0.04924454 0.15821594 0.10807482
-0.57508421 -0.46770767 -0.00000021
0.05220612 0.43348895 0.11455381
0.09825878 0.38752248 0.21560462
0.18450566 -0.55424181 0.40485340
0.13444955 0.04017292 0.29501717
0.05870794 0.33839007 0.12882049
-0.63012639 -0.65543065 -0.00000012
-0.41493343 -0.08835852 -0.00000020
0.02221071 0.27152670 0.04873607
-0.19790406 0.50695876 0.00000109
0.12247908 0.25065063 0.26875023
0.22074757 -0.58029135 0.48437756
0.08578818 0.30688507 0.18825274
-0.18691758 -0.37014543 0.00000000
-0.02864398 0.43759678 0.00000000
-0.70168716 -0.12516053 -0.00000136
0.00397794 -0.58058431 0.00872863
0.00652507 0.72804290 0.01431769
0.12416831 -0.54552102 0.27245756
0.21292357 0.27123910 0.46720720
-0.40187548 0.26625155 -0.00000077
0.24604480 -0.29356686 0.53988479
0.19341352 0.17778014 0.42439737
-0.00351262 -0.44110176 0.00000000
0.30677375 -0.68179350 0.67314084
-0.03266093 0.51920625 0.00000372
0.09740793 -0.77840333 0.21373832
0.09165846 0.50861672 0.20112145
0.20982228 -0.11984191 0.46040333
0.08994053 -0.02764144 0.19735290
0.31227297 -0.65441927 0.68520743
-0.30291830 0.35919046 -0.00000051
0.06911541 0.16646129 0.15167483
-0.03230417 -0.32330306 0.00000000
0.02774556 -0.11192509 0.06088098
-0.59299693 -0.14557699 -0.00000086
0.03048807 -0.56478280 0.06689876
-0.12799820 -0.23649194 0.00000000
-0.15487761 0.48935509 -0.00000011
-0.56282805 -0.32442734 -0.00000041
-0.65141023 -0.72852249 -0.00000008
0.27639418 -0.75903483 0.60648048
-0.74861529 -0.19545559 -0.00000144
0.10768698 0.06954821 0.23629324
0.11651991 0.04316987 0.25569339
0.20666646 -0.30731418 0.45347952
0.23404544 -0.69051723 0.51355655
-0.30722010 0.14864990 0.00000498
-0.36837021 0.26250135 0.00000190
-0.39723683 0.35542088 -0.00000091
-0.58540589 -0.32647487 -0.00000051
0.13149456 -0.16419116 0.28853326
-0.32034864 0.17184873 -0.00000026
0.11818739 -0.46391955 0.25933387
-0.06100332 -0.00247367 0.00000000
0.18396420 -0.36503501 0.40366529
-0.09626231 0.03464139 0.00000000
-0.56427671 0.08747802 -0.00000115
0.03138263 0.40322865 0.06887363
-0.78292886 -0.50799613 -0.00000073
0.00400191 0.03644471 0.00880872
0.20745710 -0.68382984 0.45521481
-0.43063194 -0.13937040 -0.00000018
0.20088556 -0.32589660 0.44079497
-0.56028164 0.00595883 -0.00000099
0.05892973 -0.30798554 0.12930714
0.15889118 -0.79611788 0.34864855
0.03792767 -0.00702777 0.08322317
-0.34063825 -0.67759511 0.00000000
-0.76777164 -0.71689454 -0.00000021
0.07799297 -0.44952810 0.17113686
0.05683330 0.08786470 0.12472851
-0.12494135 -0.30231459 0.00000000
-0.16654857 0.11500671 0.00000776
0.12650330 0.26025152 0.27758947
-0.43698017 0.26327698 0.00000057
0.08738577 -0.40198120 0.19174711
0.03380176 -0.53465531 0.07416984
-0.65200155 -0.35212688 -0.00000075
0.17850651 -0.32540726 0.39168970
-0.63591900 -0.62105136 -0.00000020
0.08568701 0.36033745 0.18801931
0.27543017 -0.37930488 0.60436358
0.25008887 -0.36376429 0.54875873
0.01274370 -0.44562906 0.02796298
-0.42728376 0.12494334 0.00000307
-0.22578114 -0.75110132 0.00000000
-0.73222213 -0.64163293 -0.00000040
-0.55991194 -0.44222175 -0.00000019
0.20510414 0.19571509 0.45004927
-0.44267765 0.29069851 -0.00000099
0.10863655 -0.14041798 0.23837683
-0.04263701 0.33322097 0.00000000
-0.64104664 -0.23526222 -0.00000091
0.04619693 0.34468710 0.10136807
0.30281538 -0.19704441 0.66445235
0.04497577 0.05965471 0.09868853
-0.30136306 -0.08352924 0.00000000
0.02975961 -0.62086299 0.06530032
0.03541695 0.49830825 0.07771399
0.12979464 0.17125395 0.28480264
-0.03555635 -0.02929859 0.00000000
-0.40406926 -0.18020978 0.00000000
-0.46325733 0.25563088 -0.00000101
-0.11046884 -0.13129213 0.00000000
-0.17597345 -0.71250954 0.00000000
-0.53598211 -0.56646057 0.00000000
-0.45792055 -0.50362390 0.00000000
0.16661948 -0.73601247 0.36560646
-0.00665811 0.78367091 0.00000000
-0.33971272 0.04990424 0.00000601
-0.38971978 -0.53680579 0.00000000
-0.27515947 -0.17308615 0.00000000
-0.48824234 0.23892527 -0.00000109
0.14426530 0.00190289 0.31657302
0.04182568 0.49775161 0.09177642
0.23796568 0.09949682 0.52216056
-0.55772182 0.04425879 -0.00000104
-0.38569512 -0.70860387 0.00000000
-0.61260900 0.18560111 -0.00000150
-0.10067572 0.32743427 0.00000000
0.11183067 0.39286631 0.24538451
-0.17154853 0.58897371 0.00000023
-0.26781275 -0.61695328 0.00000000
0.12464136 0.47603495 0.27349382
-0.08412189 0.01158595 0.00000000
-0.21689194 0.49141413 -0.00000038
0.06379657 -0.08793171 0.13998625
-0.22499801 0.40029799 -0.00000025
-0.75546861 -0.38844763 -0.00000103
-0.16337641 0.54432877 0.00000113
0.00698422 0.16279261 0.01534785
0.19262052 0.09853605 0.42265768
-0.07061705 -0.35617869 0.00000000
0.07900703 -0.36574736 0.17336196
-0.06203355 0.48254803 0.00000383
-0.56016249 -0.56726258 0.00000000
0.18085386 0.08017066 0.39683896
0.12803574 0.39344536 0.28094224
-0.30985919 -0.64961009 0.00000000
0.12126389 -0.69337877 0.26608450
-0.31650247 0.17388181 -0.00000024
0.32394284 -0.67488693 0.71081440
-0.03408264 0.01430247 0.00001127
0.02334919 -0.72967729 0.05123419
-0.66693467 -0.31740470 -0.00000087
-0.58706628 -0.71192751 0.00000000
-0.16491314 -0.13028265 0.00000000
-0.02752562 0.06676257 0.00000000
-0.20689902 -0.32414924 0.00000000
0.01704017 -0.08395364 0.03739057
0.03769603 0.49321346 0.08272311
-0.25072188 -0.31760425 0.00000000
-0.02630905 -0.05026677 0.00000000
0.04237842 -0.23768163 0.09298927
0.10140196 0.42641476 0.22250133
-0.78606753 -0.57770498 -0.00000056
0.14716923 -0.24874385 0.32292755
0.19212226 0.27264903 0.42156613
-0.69273134 -0.19137693 -0.00000120
-0.10419428 0.02097029 0.00000000
-0.51599288 -0.18186207 -0.00000047
0.11002998 -0.76150395 0.24143438
0.09840025 -0.31035466 0.21591574
-0.66616530 0.08661850 -0.00000158
-0.49908507 -0.69443416 0.00000000
-0.22498740 -0.41482590 0.00000000
0.21018703 -0.78857251 0.46120499
0.14187641 0.07769612 0.31132816
-0.51013257 -0.11141314 -0.00000057
0.13073548 -0.50683246 0.28686763
0.15180341 -0.25658646 0.33309614
0.10823299 0.34206643 0.23749827
-0.16953830 0.32502418 0.00000457
0.02979340 0.46150430 0.06537446
0.10065489 -0.10090946 0.22086301
-0.34058643 -0.43077866 0.00000000
-0.66453759 -0.04213893 -0.00000135
0.07211256 0.57790444 0.15823475
0.18496121 -0.24305040 0.40585284
-0.75983671 -0.50513447 -0.00000074
-0.09553165 -0.70295579 0.00000000
0.32251946 -0.12668312 0.70768744
-0.24937572 0.08640075 0.00000694
-0.09375143 0.11975605 0.00000879
0.01634811 0.52082579 0.03587201
0.28988576 -0.41843716 0.63608270
0.24747062 -0.76198114 0.54301487
-0.09514169 0.24251970 0.00000693
0.28670193 -0.50893443 0.62909702
0.06586864 -0.27430654 0.14453291
0.11293323 -0.70139275 0.24780488
-0.72123691 -0.42266056 -0.00000092
-0.04800479 0.11171938 0.00000960
0.05590512 0.62426039 0.12266971
0.04723167 -0.51135330 0.10363857
0.04096987 0.39489221 0.08991008
0.14301374 0.00554138 0.31380916
0.14619694 0.21235559 0.32079295
0.03538229 0.61653850 0.07763785
-0.20623043 0.01965527 0.00000859
0.21889309 0.14289755 0.48030569
0.19643249 0.08352953 0.43103161
-0.09228559 0.03348157 0.00000000
-0.10715046 -0.67526027 0.00000000
-0.78661375 -0.11938294 -0.00000170
-0.59779683 -0.04021443 -0.00000107
0.07995520 0.38195704 0.17544228
-0.34938998 0.31041207 -0.00000063
-0.07592589 0.69536536 0.00000029
0.17679143 0.35486739 0.38792383
-0.08066418 0.23466022 0.00000000
-0.35363129 -0.26388592 0.00000000
0.10981454 0.02702673 0.24096166
0.00618560 0.37042508 0.01357281
-0.68440226 -0.21539235 -0.00000113
-0.11798972 0.64145109 -0.00000022
0.12192840 0.14663282 0.26754236
-0.30556599 -0.65333799 0.00000000
-0.15646186 -0.75032525 0.00000000
-0.07763055 0.21673397 0.00000758
0.32543839 -0.56251120 0.71409527
0.09230254 -0.74617683 0.20253578
0.06061753 0.14717066 0.13301061
0.08663966 0.44293072 0.19011510
0.07077135 0.01564796 0.15531375
-0.42025366 -0.27549031 0.00000000
-0.14254524 -0.78722125 0.00000000
0.30662336 -0.54024481 0.67280989
0.22165403 0.05310650 0.48637252
-0.41994705 -0.19479777 -0.00000003
0.03720247 0.42430418 0.08163188
-0.76004887 -0.03610072 -0.00000177
-0.05053937 0.29808624 0.00000000
-0.66623537 -0.39908233 -0.00000072
0.19254997 0.13458483 0.42251060
0.08469668 -0.73529810 0.18584653
-0.23900153 0.25792233 0.00000447
-0.37594374 -0.42877086 0.00000000
-0.78839967 -0.28451560 -0.00000129
0.09712737 0.17820651 0.21313773
-0.35422427 -0.29259517 0.00000000
0.07731511 0.30171091 0.16966154
0.08220957 -0.44861218 0.18038916
0.11962449 0.15251569 0.26250108
0.32263463 -0.26941356 0.70794111
-0.09142645 0.09227937 0.00000000
0.30402496 -0.43176207 0.66710757
0.04670990 -0.49229561 0.10249366
-0.79533562 -0.63732766 -0.00000041
-0.77657382 -0.18494177 -0.00000154
0.12036582 0.21417725 0.26411342
-0.40941178 0.37761329 -0.00000081
0.24030360 -0.12223540 0.52728652
-0.36764132 -0.14797195 0.00000000
0.10718265 -0.61271103 0.23518661
0.22411505 -0.73996507 0.49176669
0.27613954 -0.00972716 0.60591850
-0.61664278 -0.00825596 -0.00000120
0.15917841 0.16100299 0.34928755
-0.61876909 0.04101246 0.00000080
0.28281321 -0.21300182 0.62056297
0.01268636 0.39080115 0.02785108
0.21165120 -0.36308994 0.46441746
-0.62339053 -0.07503136 -0.00000111
0.11606878 0.15321380 0.25468495
-0.75203008 -0.43209453 -0.00000092
0.02501775 -0.65269922 0.05489546
0.29663669 -0.08675201 0.65089437
-0.46130729 -0.76897038 0.00000000
0.09928538 0.06893229 0.21785793
-0.47348639 0.15669689 0.00000165
-0.38006075 0.00263349 0.00000602
0.10567704 0.17136449 0.23189749
0.21565129 -0.70471920 0.47319500
-0.46451273 0.16334437 -0.00000086
-0.12673087 0.56501180 0.00000149
0.03320092 0.69711878 0.07285107
-0.09613924 0.36424666 0.00000000
-0.06584344 -0.24584024 0.00000000
0.24137525 0.14923057 0.52963680
0.30306550 -0.44778127 0.66500237
0.11007195 0.46040671 0.24152517
0.14661690 0.05362140 0.32171513
0.18310512 0.29080663 0.40177783
0.19241294 -0.33491130 0.42220402
0.06947849 -0.02428131 0.15245388
-0.07447250 0.58430204 0.00000000
-0.26038013 0.51517827 -0.00000024
-0.33712888 -0.05674963 0.00000000
0.10425028 0.19083704 0.22876621
0.03859452 0.51077617 0.08468640
0.07167290 -0.54855222 0.15726898
-0.10086559 0.35846765 0.00000000
0.04774424 -0.20224442 0.10476328
0.14266981 0.45126254 0.31305256
0.00321495 -0.01996666 0.00705444
-0.50498547 0.05943153 0.00000267
-0.24403166 0.09193916 0.00000000
0.18700995 0.17608757 0.41035322
-0.14903887 0.02074909 0.00000944
-0.08332339 -0.12444420 0.00000000
0.08138104 0.16905577 0.17858774
0.29908134 -0.33022739 0.65625956
0.02183815 0.16437018 0.04794002
-0.11255258 0.44479901 0.00000363
-0.31347970 -0.32749064 0.00000000
-0.52958278 -0.74424147 0.00000000
0.00245036 0.59378822 0.00537674
0.24595525 -0.04624573 0.53968724
-0.52889101 0.26792639 -0.00000132
0.04107103 -0.02879124 0.09012052
-0.39927124 0.06838391 0.00000455
0.02655880 0.64530645 0.05828047
0.03399562 0.53012243 0.07459524
0.01622755 -0.05199610 0.03560745
0.20370346 -0.77108415 0.44697836
0.17024382 -0.19186928 0.37355921
0.01974664 0.00635135 0.04335661
0.17623010 0.05580109 0.38669344
0.05128281 0.11924892 0.11254858
-0.09353526 -0.00184320 0.00000000
0.19993143 0.17737366 0.43869920
-0.60608611 -0.78341660 0.00000000
-0.49443840 -0.69478311 0.00000000
0.23153300 -0.47820292 0.50804329
0.08929831 -0.43344674 0.19594371
-0.58633573 0.06666854 -0.00000121
-0.30265701 -0.68937543 0.00000000
-0.34294323 0.19875616 0.00000346
-0.39601577 0.03850278 0.00000512
0.03270053 -0.47579579 0.07175347
0.20511481 -0.10431834 0.45007396
0.07029731 0.41196382 0.15425904
0.19934805 -0.34779399 0.43742139
-0.24069346 -0.22007554 0.00000000
0.03785258 0.50471877 0.08306619
0.00958278 0.33164507 0.02102712
0.03627743 0.20651280 0.07962088
-0.44081195 -0.52196909 0.00000000
-0.17916610 0.42762936 -0.00000011
0.25209039 -0.72483573 0.55315185
0.07854196 0.21349826 0.17234147
-0.20616538 -0.23280458 0.00000000
0.20281041 -0.11891355 0.44501764
-0.62258929 0.03650398 0.00000080
-0.74108411 -0.45793264 -0.00000086
-0.75624006 -0.32418481 -0.00000119
0.07376054 -0.22172539 0.16184980
0.16346761 -0.16168213 0.35869043
0.16569523 0.00373423 0.36357768
0.32287617 -0.04364800 0.70846977
0.23210386 0.08186649 0.50929348
0.14640700 0.40420727 0.32125471
0.20364627 -0.37011416 0.44685279
-0.13293748 0.30448093 0.00000000
0.08250472 0.41346047 0.18104374
0.00609155 -0.02406425 0.01336644
0.17726629 0.19520355 0.38896648
0.00710837 0.30697138 0.01561501
0.03448193 0.32233938 0.07567701
0.04090802 -0.12901628 0.08976282
-0.48598680 -0.67178973 0.00000000
-0.41526756 0.16190941 -0.00000064
0.30931534 -0.28078045 0.67871517
0.29229780 -0.39934470 0.64137519
0.19247691 0.19543748 0.42234764
-0.32992508 -0.65186734 0.00000000
-0.37189291 0.05811581 0.00000525
-0.27478977 0.29355478 -0.00000028
-0.51938722 0.09202056 -0.00000097
-0.13466529 0.40116635 0.00000000
-0.43925372 -0.34387127 0.00000000
-0.53853959 -0.56197241 0.00000000
-0.23493127 0.38718341 0.00000238
0.10789216 0.21982216 0.23674325
0.22352056 -0.29648258 0.49046134
0.24511477 -0.75604827 0.53784553
0.06658250 -0.75290912 0.14609932
0.18450915 0.31156343 0.40485851
-0.24734112 -0.11986153 0.00000000
-0.27214028 -0.53135717 0.00000000
0.14393836 -0.13665326 0.31583819
-0.18963206 -0.07910575 0.00000000
-0.30979842 0.02628345 0.00000000
-0.10701522 -0.34029547 0.00000000
-0.29974131 0.44383846 0.00000019
0.32714126 -0.32991225 0.71783027
0.04421328 0.32309792 0.09701543
0.14474613 -0.66586417 0.31761064
-0.47601524 -0.10415238 -0.00000043
0.12798094 -0.30277864 0.28082347
-0.48237962 -0.78595662 0.00000000
-0.25657582 0.06354288 0.00000000
-0.09530511 -0.02653635 0.00000000
0.04198099 0.46452950 0.09212613
0.06155413 0.54499277 0.13506950
-0.15696200 0.60381657 -0.00000032
-0.11868599 -0.75853668 0.00000000
0.00882626 0.34989127 0.01938281
0.17354391 0.27756468 0.38079834
-0.24735312 0.00706334 0.00000000
-0.00900632 -0.15418823 0.00000000
0.03545178 -0.23442016 0.07779042
0.22173136 -0.76492640 0.48653624
0.07064341 0.21742202 0.15502568
0.28647016 -0.07729388 0.62858659
-0.40223567 -0.76255846 0.00000000
0.18960547 -0.34997052 0.41604369
-0.13876985 0.33699845 0.00000485
0.03848148 -0.67149216 0.08443838
-0.69840654 -0.45380825 -0.00000076
0.15749591 0.26286174 0.34559149
0.27223463 -0.02574351 0.59735027
-0.34150386 0.11400470 0.00000490
-0.11263172 0.09367762 0.00000890
0.19545798 0.22148683 0.42888320
-0.29532347 0.08875777 0.00000621
0.24824151 -0.33918095 0.54470509
-0.40941557 -0.55507688 0.00000000
-0.10104447 -0.18981525 0.00000000
-0.33042616 -0.04773536 0.00000000
-0.24440737 0.25133622 -0.00000007
-0.43490742 -0.19792235 -0.00000009
0.25052413 0.07305981 0.54971190
0.12506606 0.44124722 0.27442810
-0.26416018 0.38743079 -0.00000040
-0.11498000 0.33229250 0.00000528
0.05406703 -0.61800519 0.11863713
0.00444118 0.20415335 0.00974510
-0.04021973 0.46071445 0.00000000
0.27480253 0.00369495 0.60298996
-0.35031385 -0.37630804 0.00000000
0.31524770 -0.26673046 0.69173217
-0.49050597 -0.02376681 -0.00000064
-0.03226011 0.26503866 0.00000000
-0.15355124 0.54832053 0.00000126
0.21523928 0.23541154 0.47228974
-0.12747780 -0.63903982 0.00000000
0.00552537 -0.43904213 0.01212411
0.00490619 -0.47214761 0.01076546
-0.25845806 0.10826807 0.00000000
-0.11159427 0.31370643 0.00000000
0.19773756 -0.53656656 0.43388763
0.00444381 0.75412334 0.00975219
-0.04151559 -0.72497846 0.00000000
-0.31984216 0.21655262 -0.00000033
0.06378608 0.15019138 0.13996325
-0.70393734 -0.45828746 -0.00000078
-0.05891765 0.54672032 0.00000291
0.13145080 -0.21457316 0.28843724
0.21532094 0.10150474 0.47247474
-0.00740570 -0.65615551 0.00000000
-0.45104508 0.26939104 0.00000020
0.19505917 0.17555293 0.42800832
0.13292300 -0.01853299 0.29166762
0.01546153 0.47325422 0.03392661
-0.15460470 0.44082722 0.00000303
-0.55035308 -0.15098300 -0.00000067
0.19470016 -0.11999139 0.42722185
0.06861243 0.14311649 0.15057206
-0.37484342 -0.11210810 0.00000000
0.21526823 -0.45971367 0.47235447
0.14718779 0.03743777 0.32298382
-0.21108878 -0.37213694 0.00000000
0.32782992 -0.34033001 0.71934144
-0.41583139 0.24875750 0.00000122
0.01377231 0.09446170 0.03022002
-0.22709030 -0.09079942 0.00000000
0.31944971 -0.52169745 0.70095423
0.21562500 -0.23564139 0.47313637
0.13404120 -0.04689136 0.29412125
-0.00088483 0.67360710 0.00000000
0.13495641 0.40198653 0.29613062
-0.07086504 -0.48554540 0.00000000
-0.03910130 0.41569723 0.00000517
-0.40010892 -0.48598873 0.00000000
-0.28986735 -0.36523821 0.00000000
-0.35769052 -0.77972679 0.00000000
0.20111066 0.31061527 0.44128613
0.00353441 0.61046215 0.00775541
0.12026866 0.11959167 0.26391590
0.09708714 0.48129333 0.21303335
0.02619609 0.71782749 0.05748147
-0.20822385 0.14847192 0.00000000
-0.71317818 -0.43352054 -0.00000086
0.02541053 -0.54457394 0.05575732
-0.12285350 0.52455478 0.00000224
0.32643494 -0.00007548 0.71627838
-0.37917128 -0.69445229 0.00000000
0.30369956 -0.14562353 0.66639224
-0.10083989 0.04632554 0.00000978
0.18282720 0.08724410 0.40117953
-0.32307405 -0.11879603 0.00000000
0.04453992 0.49408364 0.09773217
0.23566098 -0.44964507 0.51710092
0.01095990 0.44505148 0.02404886
0.07130619 0.55496708 0.15646644
0.13639859 -0.44471101 0.29929397
0.16484622 -0.67292448 0.36171547
0.17454141 -0.51994686 0.38298924
0.06287142 -0.79777269 0.13795625
-0.01236609 0.14549139 0.00000000
-0.51717704 -0.27684877 -0.00000030
0.10260370 0.53174491 0.22513777
0.11672354 -0.77102634 0.25612178
0.10573358 -0.45915967 0.23200696
0.25070782 -0.49329281 0.55011742
0.30465943 -0.78935783 0.66850218
-0.31426300 0.09392016 0.00000576
0.23352813 -0.75973932 0.51242143
-0.35881662 0.38669403 -0.00000080
-0.76066484 -0.79975956 -0.00000000
-0.16381299 0.35996558 0.00000413
-0.38510799 0.16826295 0.00000316
0.03785486 0.37573235 0.08307588
0.07340228 0.31975727 0.16107541
-0.02268558 0.11645709 0.00000991
-0.15026089 0.34503672 0.00000000
0.14353335 -0.31632473 0.31494949
-0.12340297 0.31926826 0.00000000
-0.03746238 0.02688359 0.00001103
-0.67478066 -0.32571414 -0.00000089
0.24331883 -0.39812008 0.53390384
-0.37544025 0.31691993 0.00000086
0.13926367 0.06189222 0.30558039
0.20348831 -0.70433576 0.44650625
0.25780035 -0.10762826 0.56567843
-0.43336554 -0.18781372 -0.00000010
0.29254359 0.03387515 0.64191503
0.00230497 0.77863560 0.00505829
0.00286219 0.55527088 0.00628038
-0.58898148 0.16279824 -0.00000139
0.29078732 -0.00465168 0.63805913
-0.48887033 -0.31212594 -0.00000012
0.08573726 0.18645136 0.18812983
0.10384111 0.22321866 0.22785426
-0.70715524 -0.22114877 -0.00000121
-0.13464034 0.46966188 0.00000000
-0.22263246 0.31397304 0.00000384
-0.53166344 -0.69811250 0.00000000
0.00583813 0.24159471 0.01281037
-0.42869787 -0.42214347 0.00000000
-0.06974940 -0.10829448 0.00000000
0.01547035 0.73959533 0.03394674
-0.01328037 0.75159999 0.00000000
-0.72642975 -0.16985716 -0.00000139
0.00443129 -0.07864748 0.00972340
0.28489106 -0.66998411 0.62512426
0.19929163 -0.13758571 0.43729668
-0.24738282 0.27704310 -0.00000013
-0.77134325 -0.71277856 -0.00000022
-0.01495485 -0.22157049 0.00000000
-0.77714345 -0.77977692 -0.00000005
-0.14762017 -0.58112105 0.00000000
-0.08270828 -0.73410500 0.00000000
0.19111023 0.22938417 0.41934748
0.05924997 -0.30116676 0.13000984
0.05098407 -0.39682215 0.11187231
-0.06220855 -0.63584651 0.00000000
0.25792337 -0.39850662 0.56594961
0.29060516 -0.23621251 0.63766045
0.32182497 -0.48268090 0.70616592
0.26158350 -0.75144107 0.57398220
-0.40804909 0.33850134 -0.00000013
-0.41003729 -0.00034401 -0.00000034
-0.15833976 0.25447881 0.00000000
0.27010390 -0.33845896 0.59267631
-0.71606049 -0.63424585 -0.00000041
0.16948602 -0.37734162 0.37189638
0.09428345 -0.68533940 0.20688239
0.26739499 -0.00965695 0.58673089
-0.26488528 0.35631016 -0.00000035
-0.42013038 -0.24820927 0.00000000
-0.41278031 -0.63235411 0.00000000
-0.07337887 0.20471904 0.00000000
-0.29759809 0.22508736 0.00000389
0.30359940 -0.39479181 0.66617354
-0.09315631 0.39590671 0.00000466
0.11188058 0.33705755 0.24550182
0.20763628 -0.44952961 0.45560799
-0.53227252 0.26706221 -0.00000133
-0.37288793 0.14160115 -0.00000043
0.12786334 0.06121025 0.28056539
0.15235966 -0.24803727 0.33431670
-0.26191811 0.46914662 0.00000050
0.17106026 -0.03209487 0.37534996
0.00490982 -0.17174210 0.01077342
-0.08039655 0.53809934 0.00000272
-0.24111046 0.30893090 0.00000357
-0.76374045 -0.24141581 -0.00000140
0.03752594 0.27835640 0.08234167
-0.17417293 -0.37180794 0.00000000
0.05794344 0.59015224 0.12714242
0.10411578 -0.44414208 0.22845708
-0.38061994 -0.32365256 0.00000000
-0.66411358 -0.21813216 -0.00000103
-0.40947932 -0.42347676 0.00000000
0.23365014 0.13211701 0.51269024
0.20818048 -0.15302821 0.45680097
-0.00314811 0.38129369 0.00000000
0.21070324 -0.68106271 0.46233770
0.17939113 -0.01654094 0.39362980
0.01474642 0.67704936 0.03235748
-0.10835572 -0.65437343 0.00000000
-0.54723375 0.15121453 0.00000033
-0.69836620 -0.75942101 -0.00000010
-0.33177317 -0.45748269 0.00000000
-0.47365019 0.00857231 0.00000412
0.01777816 0.41990476 0.03902236
-0.54732343 0.20326486 -0.00000054
0.26058271 -0.56897581 0.57178556
0.07272826 -0.65944341 0.15958472
0.02040320 0.65839837 0.04477348
0.12171506 0.17424704 0.26707413
0.32709840 0.00074636 0.71773457
-0.46713008 -0.72111564 0.00000000
0.01154100 -0.25598112 0.02532397
0.22330556 -0.23231918 0.48998930
-0.65440601 -0.36661394 -0.00000073
-0.62596211 0.16764148 -0.00000155
0.19781726 0.24891770 0.43405990
0.04790154 -0.71348768 0.10510844
0.04621165 0.28881071 0.10140036
0.13215035 -0.38961686 0.28997222
0.04758697 0.49944196 0.10442539
-0.11822399 -0.25243759 0.00000000
-0.01978992 0.54406403 0.00000354
0.09829498 0.04968745 0.21568474
0.10699621 0.15393935 0.23477750
0.00442301 0.23519958 0.00972546
0.30588516 -0.21623763 0.67118827
0.06181300 0.50984297 0.13563348
0.09450968 -0.05921152 0.20737882
-0.61271662 0.01961417 -0.00000124
0.00366317 -0.42889615 0.00803794
0.15617515 -0.23564411 0.34268889
0.06781466 0.59874930 0.14880217
0.01046960 0.23426702 0.02297303
-0.31722552 -0.75781276 0.00000000
-0.78155487 -0.78265659 -0.00000004
0.25150324 -0.61745061 0.55186330
0.01904099 0.64567557 0.04178501
0.15288773 -0.42353205 0.33547543
-0.52335160 -0.67698479 0.00000000
-0.76892249 -0.53256662 -0.00000067
-0.11130269 0.30638429 0.00000000
0.03178263 -0.04392553 0.06973934
0.25159434 0.16335440 0.55205980
-0.16294971 0.35538307 0.00000421
-0.17551394 0.50877600 -0.00000023
0.16661845 0.37235706 0.36560287
-0.36068236 -0.08206792 0.00000000
0.29144345 -0.64996262 0.63950183
-0.03106430 0.67178270 0.00000145
0.05305652 0.06438890 0.11641981
-0.12074094 -0.16757372 0.00000000
-0.14730388 0.22955461 0.00000000
-0.04011037 0.44915754 0.00000466
-0.21067657 -0.66243505 0.00000000
0.01395079 0.62320707 0.03061700
-0.30467297 0.38379310 -0.00000056
0.03551937 -0.05413753 0.07793874
-0.59664871 -0.63544032 -0.00000001
0.31906150 -0.05005910 0.70009952
0.15528501 -0.04510456 0.34073542
-0.64429399 0.02571154 -0.00000138
0.26769053 -0.59016103 0.58738190
0.17569709 0.29743942 0.38552284
0.29170635 -0.77058729 0.64007952
-0.07539992 -0.39079571 0.00000000
0.18797741 0.10308290 0.41246960
-0.24064994 -0.50178984 0.00000000
-0.24072209 0.04583594 0.00000768
-0.29123802 0.09174239 0.00000623
-0.17279438 0.09242247 0.00000000
-0.64823333 -0.52016627 -0.00000043
0.22973588 -0.48423391 0.50410002
0.08221103 -0.27377711 0.18039237
-0.52439168 0.06938218 0.00000213
-0.26319877 -0.30349691 0.00000000
0.23865943 -0.40074906 0.52368001
-0.47644975 -0.47131445 0.00000000
-0.62560041 0.04964541 0.00000052
0.28514741 0.09247522 0.62568421
-0.31612844 0.34005638 -0.00000054
0.02272984 0.46453720 0.04988562
-0.79076500 -0.12781467 -0.00000168
0.13567176 0.43772011 0.29769863
-0.40277237 0.21699100 0.00000200
-0.17096921 -0.02487661 0.00000000
-0.10834151 0.28221958 0.00000613
0.18667441 0.14906852 0.40961030
-0.40442566 0.19481936 -0.00000066
0.20897787 -0.08095274 0.45855032
0.20058532 0.31589073 0.44013338
-0.74695500 -0.31558786 -0.00000121
0.22914347 -0.40109032 0.50279977
-0.65127095 -0.16316513 -0.00000108
0.31149918 -0.76388968 0.68351026
0.22652515 -0.46617680 0.49705483
0.02210578 0.37960381 0.04850583
0.14261972 -0.08207201 0.31294474
0.02888008 0.18169558 0.06337040
0.02363402 0.41211179 0.05185917
0.05999905 0.04513429 0.13167630
0.02226036 0.46828991 0.04885535
0.17669631 0.04435682 0.38772936
-0.08863117 -0.73540459 0.00000000
0.04073739 0.51514688 0.08938842
0.08663745 0.09691586 0.19012390
0.19515625 -0.53896236 0.42822356
0.18893982 -0.41301982 0.41458310
-0.08606524 -0.38958062 0.00000000
0.13836702 0.42980619 0.30361133
0.24121827 -0.10190606 0.52929342
0.01689451 -0.39630847 0.03707095
0.03902547 0.20292912 0.08563203
0.05021881 -0.40553735 0.11019312
0.11667098 -0.51044783 0.25600646
-0.27425310 -0.30508677 0.00000000
-0.31637559 -0.00382473 0.00000000
-0.36666826 -0.21002110 0.00000000
-0.13388291 -0.53972023 0.00000000
-0.11016628 -0.17533288 0.00000000
0.10451800 -0.54605357 0.22933966
0.24101973 -0.35241288 0.52885887
-0.56025873 -0.38049068 -0.00000030
-0.18042129 -0.51961432 0.00000000
-0.31873978 -0.34395495 0.00000000
-0.00519166 0.09498955 0.00000000
0.20179600 0.07616264 0.44279093
0.12968113 -0.31452389 0.28455412
0.24398973 -0.71733849 0.53537690
-0.37385000 -0.37696156 0.00000000
0.04449208 0.12974839 0.09764810
0.28141980 -0.76831847 0.61750805
-0.13641945 0.02077849 0.00000963
0.09353688 -0.20874411 0.20524423
-0.32411631 0.42409336 0.00000005
-0.09478457 0.37743218 0.00000491
-0.07367098 0.58356035 0.00000213
-0.76510674 -0.04999999 -0.00000176
0.11919113 -0.16189561 0.26153633
-0.66710046 -0.06561458 -0.00000132
-0.28862199 0.44932873 0.00000031
0.31035372 -0.54976404 0.68099538
0.17532458 0.23700067 0.38471121
-0.08287814 0.34517581 0.00000000
0.01958219 0.12747097 0.04296841
-0.32445364 0.28474069 0.00000238
0.03375518 -0.05518898 0.07406764
-0.28095615 0.09508739 0.00000633
-0.02923806 0.05985602 0.00000000
0.13971644 -0.66055403 0.30657419
-0.23742819 -0.52031377 0.00000000
0.18255183 0.17533284 0.40057151
0.29229054 0.04677375 0.64135732
0.21297975 -0.29908886 0.46733233
0.15675896 0.22935565 0.34397598
0.15010649 0.03553425 0.32937219
-0.52963847 -0.70455507 0.00000000
-0.36833078 0.19154433 0.00000309
0.02412971 -0.27774186 0.05294686
0.22020381 0.26807820 0.48318115
0.01259980 -0.51721624 0.02764723
0.00256558 -0.43096047 0.00562956
0.13692318 0.33541697 0.30044363
-0.40413339 -0.43200613 0.00000000
0.22651262 -0.20750962 0.49702624
0.16980517 -0.42682773 0.37259668
0.07726008 -0.53440504 0.16952869
0.11014524 0.02359747 0.24168729
0.01169120 0.74124231 0.02565469
-0.15770112 0.07542247 0.00000849
0.21158655 0.11788717 0.46427353
0.00344415 0.21290992 0.00755735
0.23956014 -0.73589985 0.52565722
-0.16922557 0.30107451 0.00000493
-0.39306528 0.18631189 -0.00000059
-0.11262631 0.59466047 -0.00000012
-0.04622859 0.27641929 0.00000000
0.11055516 -0.11920459 0.24258676
0.04579221 0.21423308 0.10048002
-0.35371672 0.34966503 -0.00000071
0.09900897 0.10070360 0.21726912
-0.23053092 -0.15048784 0.00000000
0.18334058 0.24096433 0.40229928
0.08201846 0.18475556 0.17996983
0.17801398 -0.50897972 0.39060895
-0.09072498 0.09399437 0.00000000
0.15699565 0.22918485 0.34448779
0.13196020 0.12664291 0.28955457
0.11394400 0.24957535 0.25003306
0.09788103 -0.62143527 0.21477642
0.04271648 0.45793879 0.09374018
0.06571037 -0.59626772 0.14418564
-0.22530457 0.18158357 0.00000588
-0.50484898 0.27209136 -0.00000088
-0.17604250 -0.05623333 0.00000000
0.05357040 -0.24267249 0.11754738
0.15611103 0.35784954 0.34254616
0.06142114 0.31281972 0.13478687
-0.00697686 0.41282635 0.00000570
-0.27436510 0.02506519 0.00000000
-0.12391269 -0.17673275 0.00000000
0.05738888 0.28720031 0.12594028
0.19831632 0.30088483 0.43515474
-0.67811230 0.00791574 0.00000021
0.26163851 0.04018290 0.57410466
-0.30234870 -0.17915127 0.00000000
0.21452952 -0.60621183 0.47073355
-0.46416611 -0.31666457 -0.00000001
-0.09806758 0.28168835 0.00000000
-0.30970465 0.00464367 0.00000000
-0.65248971 0.08803531 -0.00000153
0.25465849 -0.49509456 0.55878613
0.00866973 -0.68782567 0.01902363
0.04945241 -0.73562170 0.10851144
0.01404850 0.76401227 0.03082594
-0.31198520 -0.77256914 0.00000000
-0.34491454 0.03532511 0.00000615
-0.59738363 0.18717178 -0.00000124
0.10233996 0.10864642 0.22456049
-0.59813076 0.06348550 -0.00000125
-0.06344559 -0.74158590 0.00000000
-0.14579422 -0.61171330 0.00000000
0.15349855 0.20352504 0.33682330
-0.11288685 -0.22064426 0.00000000
0.24837641 0.01174569 0.54500697
0.11053507 0.40467284 0.24254161
-0.48588199 -0.39076429 0.00000000
-0.26179090 0.27143521 0.00000380
-0.06020279 0.45090771 0.00000433
-0.62289982 -0.61684799 -0.00000015
-0.12115999 -0.06803135 0.00000000
-0.20402604 0.36969491 -0.00000011
0.06783987 -0.49283745 0.14885831
0.02583128 0.52555695 0.05668851
-0.60178608 -0.51850982 -0.00000024
0.11226062 0.41243385 0.24632783
-0.00130274 0.68545934 0.00000170
0.02862865 0.53329663 0.06282617
0.00881806 0.06948420 0.01937502
0.15253883 -0.33014080 0.33470985
-0.05405875 -0.53090609 0.00000000
-0.46803373 -0.39349231 0.00000000
0.01858065 0.72692032 0.04077062
0.22588559 -0.61147519 0.49565171
-0.67715499 -0.69446712 -0.00000025
-0.12591480 -0.22260008 0.00000000
-0.26475196 0.31816769 -0.00000028
-0.01178043 0.52579607 0.00000000
0.23029681 0.02425042 0.50532863
0.13183802 -0.05401647 0.28928689
0.10513244 -0.70400529 0.23068792
-0.51556601 0.10581287 -0.00000097
0.08959895 0.10914087 0.19660340
-0.05190609 -0.43867903 0.00000000
-0.26826978 0.05683309 0.00000000
0.20140351 0.17553796 0.44192929
-0.28670590 0.08509083 0.00000640
-0.34439561 0.13088803 -0.00000029
0.16002509 0.39515652 0.35113437
0.10275110 0.42725762 0.22546166
-0.49909905 0.26696176 -0.00000119
-0.13885665 -0.31863537 0.00000000
-0.55161040 0.07406496 0.00000153
0.12232395 -0.74208505 0.26841054
-0.11872221 0.29452215 0.00000000
0.17895236 0.32978139 0.39266553
0.14985904 -0.40549252 0.32882970
-0.29349562 -0.14748003 0.00000000
-0.07487006 0.32890249 0.00000594
0.10844144 -0.52019077 0.23794872
0.00629304 0.05679740 0.01380857
-0.28757542 0.12580596 -0.00000004
0.05845621 0.08147185 0.12826813
-0.07670469 -0.61741155 0.00000000
0.00895817 0.08205505 0.01965655
-0.05703229 -0.15968913 0.00000000
0.26189707 0.05993882 0.57467112
0.15133195 0.32336641 0.33205990
0.14913760 0.19054296 0.32725533
0.21475021 0.25269598 0.47121591
-0.07057463 0.27723286 0.00000678
-0.26650845 0.05068597 0.00000722
