ply
format ascii 1.0
element vertex 1408
property float x
property float y
property float z
end_header
0.12398522 0.72367323 0.13030362
-0.48168637 0.55626337 0.00000000
0.19357436 0.08570728 0.00000000
0.28116332 -0.38652009 0.00000000
-0.12653931 -0.67022315 0.00000000
0.44486445 0.35021131 0.00000000
-0.69618471 -0.76137702 0.00000000
0.28472100 -0.74222179 0.00000000
0.56074957 -0.46809997 0.00000000
-0.12754700 0.57372770 0.00000000
0.02186690 0.35447541 0.00000000
-0.15401850 0.33444973 0.00000000
-0.08159955 0.38507845 0.00000000
-0.22223797 0.19019690 0.00000000
0.34031680 -0.06914574 0.00000000
-0.62794370 -0.10530460 0.00000000
-0.72236457 -0.64576152 0.00000000
-0.62808541 0.19011846 0.00000000
0.33615626 -0.33941342 0.00000000
-0.69408502 0.40461485 0.00000000
0.27205513 0.38617404 0.00000000
-0.17447068 -0.12232413 0.00000000
0.69929829 0.14535786 0.12209521
-0.70381624 0.15539109 0.00000000
0.61494161 -0.38102103 0.00000000
-0.56456241 0.78168100 0.00000000
0.33627647 0.59193783 0.35054788
-0.32649758 0.69864374 0.00000000
-0.16062233 0.41483924 0.00000000
-0.05169281 0.31088794 0.00000000
-0.76288742 0.00251741 0.00000000
0.45808312 0.35440544 0.03414717
0.26556700 0.57131824 0.10084908
-0.50918856 0.68627991 0.00000000
-0.29390698 -0.39326674 0.00000000
0.66795237 -0.38518112 0.00000000
0.65791357 0.23348945 0.24990386
0.60142632 0.11825626 0.00000000
-0.79823263 0.53687641 0.00000000
0.15369097 0.69424102 0.13105149
-0.78510431 -0.48477186 0.00000000
0.55521279 -0.29498776 0.00000000
0.56804665 0.33569067 0.28362654
0.68096294 -0.34217002 0.00000000
0.36264846 0.50764866 0.19219910
-0.26968454 0.21620740 0.00000000
-0.04917975 0.09258584 0.00000000
0.06123969 -0.50231980 0.00000000
0.08690386 0.55088843 0.00000000
-0.34934704 -0.08952321 0.00000000
0.73043781 0.02056878 0.00000000
-0.18904920 0.33258121 0.00000000
-0.18829916 -0.41469778 0.00000000
-0.20568174 0.28142751 0.00000000
-0.68153598 -0.12794341 0.00000000
0.72862702 0.08739812 0.04381638
-0.34068776 0.50944533 0.00000000
0.26149127 -0.52034247 0.00000000
-0.53899579 0.39469539 0.00000000
-0.32214535 -0.59587881 0.00000000
0.77804621 -0.15543069 0.00000000
-0.18736841 0.60984823 0.00000000
-0.08579918 -0.21305997 0.00000000
0.56248131 0.27852330 0.11211169
0.36602116 0.04155203 0.00000000
0.37009730 -0.18750744 0.00000000
0.48429982 0.34277127 0.07401662
0.56650442 -0.51211564 0.00000000
-0.69455785 -0.15758542 0.00000000
0.37147325 -0.13727154 0.00000000
-0.19104136 -0.21960496 0.00000000
-0.52151433 0.59400719 0.00000000
0.12320689 -0.42374254 0.00000000
-0.79917118 -0.41916874 0.00000000
-0.08905526 0.14025504 0.00000000
0.57816365 0.06678523 0.00000000
0.31292010 -0.64656864 0.00000000
0.00203232 0.25609517 0.00000000
-0.12714483 0.06753245 0.00000000
-0.65697364 0.21909599 0.00000000
0.37618947 0.43426378 0.02858248
0.18906581 0.61360367 0.00730121
0.37620250 -0.33934104 0.00000000
-0.01253885 -0.40679397 0.00000000
0.07329007 0.61496822 0.00000000
-0.14652915 -0.67876046 0.00000000
-0.17164739 0.36126774 0.00000000
-0.74947473 -0.37432183 0.00000000
0.31668093 0.59407909 0.30282690
-0.51478210 -0.35424986 0.00000000
0.14071445 -0.39342913 0.00000000
0.26254728 0.10065435 0.00000000
0.45008726 0.42753191 0.21221801
-0.76911190 -0.40906943 0.00000000
0.60780624 -0.05914892 0.00000000
-0.28514763 -0.03777703 0.00000000
-0.79602948 -0.64191374 0.00000000
-0.62552464 0.63120784 0.00000000
0.37858755 -0.79766817 0.00000000
0.28635257 -0.10599825 0.00000000
-0.32424907 -0.45395761 0.00000000
0.58067568 -0.34433822 0.00000000
-0.36304271 -0.43781010 0.00000000
0.05438747 0.01381672 0.00000000
-0.14641265 -0.09938758 0.00000000
-0.41753968 0.26875779 0.00000000
-0.73455881 0.29007589 0.00000000
-0.72440687 -0.02418029 0.00000000
0.11907343 -0.50844856 0.00000000
-0.42876410 -0.18384325 0.00000000
-0.19410647 0.75380681 0.00000000
0.67267615 -0.00815978 0.00000000
-0.66716597 -0.38140370 0.00000000
0.29274106 -0.69044350 0.00000000
-0.32005756 -0.32947263 0.00000000
-0.29894926 0.76141307 0.00000000
0.20265493 -0.75962205 0.00000000
0.53145303 0.02740534 0.00000000
-0.03234542 0.67119344 0.00000000
-0.11433978 0.68448424 0.00000000
0.23433665 0.60062167 0.09558077
0.51050339 0.32121128 0.08671244
-0.50661772 -0.67015483 0.00000000
-0.33342179 0.78777563 0.00000000
0.59217446 -0.02744789 0.00000000
-0.47525082 -0.20336908 0.00000000
-0.04417818 0.60635448 0.00000000
-0.39828829 -0.29735125 0.00000000
0.25056902 -0.09639747 0.00000000
-0.02931379 -0.54417860 0.00000000
-0.66329025 -0.04119499 0.00000000
0.00787336 0.08630879 0.00000000
-0.67132937 -0.47251515 0.00000000
-0.54472322 -0.56875508 0.00000000
-0.66695173 -0.20147001 0.00000000
0.71691537 -0.16449561 0.00000000
0.45238385 0.21805305 0.00000000
-0.41358867 0.56477522 0.00000000
0.37613437 0.30720486 0.00000000
-0.14381111 0.43746983 0.00000000
0.39746459 -0.40843978 0.00000000
-0.02030320 -0.63575565 0.00000000
0.08271235 0.60648472 0.00000000
-0.23065393 -0.12317444 0.00000000
0.74373397 -0.31038299 0.00000000
0.67537837 -0.46507805 0.00000000
0.52926843 -0.06454240 0.00000000
-0.62853442 -0.19465042 0.00000000
0.53533943 -0.54821131 0.00000000
-0.41463021 -0.54779751 0.00000000
0.38185486 -0.61598075 0.00000000
0.35519653 -0.30378536 0.00000000
-0.72939306 -0.73043421 0.00000000
-0.46711370 -0.60076023 0.00000000
-0.72928285 0.42470686 0.00000000
-0.58616704 -0.63923409 0.00000000
0.46716609 -0.42659011 0.00000000
0.03470482 0.68233393 0.00000000
-0.29079222 0.74434235 0.00000000
0.12394979 0.68143739 0.01473155
-0.74435188 0.77088373 0.00000000
-0.08129723 -0.66803275 0.00000000
0.34555438 -0.04348969 0.00000000
0.21012915 -0.03081149 0.00000000
-0.15042007 0.00230169 0.00000000
-0.79553304 0.72274703 0.00000000
-0.43129325 0.16127615 0.00000000
-0.15944824 0.73213760 0.00000000
0.35704852 0.24420036 0.00000000
-0.31652380 -0.59933113 0.00000000
-0.53985646 -0.71403259 0.00000000
0.10047743 -0.64255292 0.00000000
-0.28711943 -0.61740025 0.00000000
0.77069707 -0.62765438 0.00000000
-0.76724913 0.53265760 0.00000000
0.50195360 -0.04873030 0.00000000
0.34015082 0.24315782 0.00000000
0.17111224 0.64030980 0.03123121
-0.79793275 -0.23613111 0.00000000
0.77418480 -0.17412015 0.00000000
-0.46681380 -0.26504528 0.00000000
0.11699604 -0.07211835 0.00000000
-0.41106105 -0.04865440 0.00000000
-0.45127380 -0.55463205 0.00000000
0.45473377 0.32092939 0.00000000
0.21634260 -0.47624980 0.00000000
0.49440570 0.41819039 0.30784690
-0.12784176 -0.11922513 0.00000000
-0.16174811 0.51148971 0.00000000
0.73727056 -0.08610791 0.00000000
0.02093009 0.53858471 0.00000000
-0.66539369 0.10609548 0.00000000
0.49684121 -0.44922388 0.00000000
0.59394465 -0.54465450 0.00000000
-0.70837146 -0.18549929 0.00000000
0.02687188 0.08898689 0.00000000
-0.27483733 -0.39152600 0.00000000
0.02469924 0.13853631 0.00000000
-0.68215253 0.45279760 0.00000000
0.12179169 0.07472241 0.00000000
-0.16458360 -0.66950276 0.00000000
0.15679433 0.67385347 0.08379555
-0.01752253 -0.07056500 0.00000000
-0.00917620 0.19287562 0.00000000
-0.15873546 0.03379435 0.00000000
-0.07611143 -0.08522969 0.00000000
0.61387621 0.30986909 0.33832949
0.26999585 0.63575593 0.28913409
-0.74438523 -0.58966934 0.00000000
-0.71009366 -0.44409752 0.00000000
-0.35715892 -0.08019414 0.00000000
0.11330394 -0.14369483 0.00000000
-0.37747460 0.33720991 0.00000000
-0.27924850 0.58684092 0.00000000
0.65984218 -0.20217071 0.00000000
0.06224036 -0.15413042 0.00000000
0.16649708 0.49481422 0.00000000
-0.30520932 0.69236636 0.00000000
0.47494810 0.24024175 0.00000000
0.62237669 -0.56936776 0.00000000
-0.06973901 0.02108398 0.00000000
0.21498684 0.58967076 0.01273686
0.51058842 -0.59229793 0.00000000
-0.08433723 -0.36687152 0.00000000
0.37161518 0.55105081 0.33537853
0.64886108 -0.68144460 0.00000000
-0.24173071 0.66096906 0.00000000
-0.09564038 -0.45415399 0.00000000
0.50803665 -0.64923731 0.00000000
0.34178399 0.16374023 0.00000000
0.46197937 -0.28232253 0.00000000
0.74222091 0.07176177 0.03823217
0.29443330 0.07738056 0.00000000
0.35040705 0.47353816 0.06547028
0.33915970 0.38871024 0.00000000
-0.30785095 -0.60295630 0.00000000
0.75147109 -0.21054279 0.00000000
0.40854577 -0.18638371 0.00000000
0.41248403 -0.04101105 0.00000000
0.47314777 -0.58447354 0.00000000
-0.27531818 0.55110880 0.00000000
0.32673771 0.35308699 0.00000000
-0.21160556 -0.54412303 0.00000000
0.46392159 -0.74734425 0.00000000
-0.01968944 -0.34883672 0.00000000
0.49751729 0.34635342 0.11994777
-0.22394817 -0.06978437 0.00000000
0.34509935 0.32827460 0.00000000
-0.14374591 -0.38682605 0.00000000
0.49826079 0.36502684 0.17303473
-0.72222854 -0.08048490 0.00000000
0.15386078 -0.45312910 0.00000000
-0.32840863 0.47598381 0.00000000
0.58145349 0.29148481 0.19942023
0.04662128 0.68320688 0.00000000
-0.18096731 -0.45014298 0.00000000
-0.09861456 -0.69909449 0.00000000
-0.45849972 -0.33420326 0.00000000
-0.34128422 -0.42042922 0.00000000
-0.07060379 0.52669990 0.00000000
0.46369370 0.47680560 0.38413582
0.63712642 0.16735819 0.01226389
-0.14912984 0.25377422 0.00000000
0.47559435 0.37984547 0.15157839
-0.63777853 -0.42780071 0.00000000
0.03882175 -0.66577803 0.00000000
-0.30248617 -0.26396571 0.00000000
-0.25660791 0.43003691 0.00000000
0.42278517 -0.49146869 0.00000000
-0.60837071 -0.30697787 0.00000000
0.59289576 0.32065733 0.31046341
0.23127088 -0.20632719 0.00000000
-0.79947564 0.01651877 0.00000000
0.24100493 -0.38501528 0.00000000
-0.48053619 0.73509502 0.00000000
-0.79557426 -0.15472070 0.00000000
-0.27433433 -0.73028324 0.00000000
0.60283964 -0.69832639 0.00000000
0.62868865 -0.14576565 0.00000000
0.34070029 -0.17011267 0.00000000
-0.61186701 0.27788943 0.00000000
-0.09446976 0.34207112 0.00000000
0.72086074 -0.24296126 0.00000000
0.60901199 0.27561709 0.23138352
-0.40914045 0.52622726 0.00000000
0.64826681 0.21303351 0.16760132
-0.28472210 0.66496848 0.00000000
0.45558695 0.45720995 0.30839592
-0.22750667 -0.39639201 0.00000000
-0.08112400 0.58895502 0.00000000
0.07199310 0.08336014 0.00000000
-0.21311184 -0.50167512 0.00000000
0.10720243 -0.54497002 0.00000000
-0.02706444 -0.50562186 0.00000000
-0.66593799 -0.57709202 0.00000000
-0.79371564 0.54410061 0.00000000
0.28756279 -0.51178096 0.00000000
0.43204693 -0.22816928 0.00000000
-0.61122599 -0.53156379 0.00000000
0.01120636 -0.57069079 0.00000000
0.55338807 0.06634647 0.00000000
-0.01670090 -0.70584833 0.00000000
0.07161022 -0.22881639 0.00000000
0.57125195 0.34908045 0.32899840
0.64116883 0.17294492 0.03859050
0.05453353 -0.59433896 0.00000000
0.00455295 0.40041422 0.00000000
0.23277243 0.52936253 0.00000000
-0.76632005 0.00309586 0.00000000
0.76708124 -0.09025078 0.00000000
-0.70254992 -0.05113051 0.00000000
-0.65824702 0.29375388 0.00000000
-0.69260431 -0.15945603 0.00000000
0.78700353 -0.09589182 0.00000000
0.23401108 0.61516093 0.13444181
0.72636678 -0.54572463 0.00000000
-0.40956523 -0.54641900 0.00000000
-0.08662494 -0.48376374 0.00000000
-0.43281126 0.19635038 0.00000000
-0.45842323 0.00061557 0.00000000
0.15461500 0.48001787 0.00000000
0.39257213 -0.59642217 0.00000000
-0.46444974 -0.18103973 0.00000000
0.50111234 0.39212673 0.25492372
0.25102270 0.29004730 0.00000000
0.69300148 -0.48604464 0.00000000
-0.74655731 -0.72888431 0.00000000
0.28707596 -0.64434502 0.00000000
-0.21435722 -0.21452362 0.00000000
-0.76166873 0.36858791 0.00000000
0.34867298 0.58196727 0.35718056
0.47773872 0.33184407 0.02620259
0.78218194 -0.69859150 0.00000000
-0.23772029 0.29788123 0.00000000
0.00459125 0.35966685 0.00000000
-0.03439002 0.72170432 0.00000000
-0.34535987 0.58054493 0.00000000
0.62903908 0.23664537 0.17958780
-0.05578387 0.62475072 0.00000000
0.67884465 0.17627908 0.15071416
0.23132067 -0.01803406 0.00000000
0.11162200 0.47263052 0.00000000
0.13583214 0.38516451 0.00000000
-0.22337609 0.03040345 0.00000000
-0.57343091 0.08806819 0.00000000
-0.23023206 -0.05327574 0.00000000
0.16587474 -0.27227789 0.00000000
0.55197137 0.39015566 0.38858615
-0.05123802 -0.34189783 0.00000000
-0.17692703 0.78046928 0.00000000
-0.79791436 -0.73161425 0.00000000
0.76284613 -0.30296764 0.00000000
0.47562838 0.37407599 0.13589734
0.42672213 -0.45096245 0.00000000
-0.27078719 0.45207908 0.00000000
-0.32517878 0.39683407 0.00000000
-0.00362691 0.38794491 0.00000000
0.06783800 0.73038563 0.00000000
0.52509374 -0.03245477 0.00000000
-0.25426926 -0.74278804 0.00000000
0.51678300 -0.67729975 0.00000000
-0.32979866 0.69273117 0.00000000
0.76625005 -0.28175690 0.00000000
-0.08115709 0.70820209 0.00000000
-0.23267827 -0.74753643 0.00000000
0.19533411 -0.16125286 0.00000000
-0.25888411 0.63529291 0.00000000
-0.14930037 -0.07783007 0.00000000
-0.70872457 0.04378655 0.00000000
-0.26272743 0.07185718 0.00000000
0.55297905 -0.43858899 0.00000000
-0.54026772 0.26468150 0.00000000
-0.22042352 -0.63439549 0.00000000
-0.20833361 0.66807999 0.00000000
0.11306162 -0.49280786 0.00000000
-0.43344382 -0.65204438 0.00000000
-0.53949739 -0.20879339 0.00000000
0.13758391 0.29180844 0.00000000
-0.42696855 0.33708039 0.00000000
-0.77012575 0.54152524 0.00000000
0.72733603 0.09633503 0.06472075
0.66387967 -0.05453353 0.00000000
0.63451283 0.25360218 0.24091422
0.31359307 0.53622544 0.13620939
-0.48307583 -0.35870220 0.00000000
0.20847737 -0.70886538 0.00000000
-0.57314167 -0.14081836 0.00000000
0.62144947 0.29272893 0.31217306
-0.00164545 0.44815415 0.00000000
-0.20915821 -0.59192640 0.00000000
0.03321527 -0.45950355 0.00000000
-0.39633199 0.63059057 0.00000000
0.38526830 -0.24620441 0.00000000
0.37976863 0.45843317 0.10444861
0.02328569 -0.71215129 0.00000000
-0.29468164 0.22317611 0.00000000
0.18233948 -0.67341609 0.00000000
0.03566107 -0.17116289 0.00000000
0.63087192 0.11695131 0.00000000
0.44564483 0.40245319 0.13150546
0.76432464 -0.15854493 0.00000000
0.44620593 -0.37873901 0.00000000
-0.25450370 0.17150541 0.00000000
-0.62771661 0.63272892 0.00000000
0.51989040 -0.59591546 0.00000000
-0.21977956 -0.53120702 0.00000000
0.77185325 -0.42080253 0.00000000
0.71995735 -0.01152728 0.00000000
0.18756741 -0.42520946 0.00000000
0.43518352 -0.03940143 0.00000000
-0.49116330 0.03965022 0.00000000
-0.10406714 -0.42728049 0.00000000
-0.28197572 0.06426333 0.00000000
0.15895007 -0.79244105 0.00000000
0.56092193 0.24241722 0.00913215
0.10618315 -0.15457395 0.00000000
-0.20241360 0.09834385 0.00000000
0.64244085 0.21490152 0.15678005
0.44354726 -0.48583177 0.00000000
-0.64308707 -0.74469967 0.00000000
-0.59989251 0.56068643 0.00000000
-0.58754680 0.04723837 0.00000000
-0.12352413 0.45773158 0.00000000
-0.31611994 0.55994843 0.00000000
-0.22924261 -0.70893768 0.00000000
0.10049972 0.12918125 0.00000000
0.10885498 0.44927499 0.00000000
-0.36806832 0.50550100 0.00000000
-0.37651543 -0.49343281 0.00000000
0.57423464 -0.65997659 0.00000000
-0.59758223 -0.55867484 0.00000000
0.36889483 -0.21819215 0.00000000
0.03001949 -0.33831922 0.00000000
-0.61809789 -0.53681825 0.00000000
-0.19884802 0.11911987 0.00000000
-0.52608139 0.56647312 0.00000000
-0.25563605 0.44610363 0.00000000
-0.59155524 -0.74866035 0.00000000
-0.53721460 -0.01032914 0.00000000
-0.10381880 -0.28086408 0.00000000
0.38843042 0.47617866 0.17664766
-0.35814167 0.58899955 0.00000000
-0.43942031 -0.47426770 0.00000000
0.34838047 0.19732779 0.00000000
-0.09681648 -0.31017082 0.00000000
-0.22648329 -0.70915054 0.00000000
0.28183347 -0.42241271 0.00000000
-0.32455552 0.47149958 0.00000000
0.56175223 0.28281041 0.12183953
-0.24860769 0.74458245 0.00000000
-0.79093926 -0.43241830 0.00000000
0.68232903 -0.25075066 0.00000000
-0.27875997 -0.43220558 0.00000000
-0.70854167 0.46756890 0.00000000
-0.59478830 -0.09978828 0.00000000
-0.18542159 0.66869812 0.00000000
0.47773040 0.12344229 0.00000000
-0.41271660 -0.42478977 0.00000000
0.16845988 0.64977571 0.04985985
0.79681742 -0.27789201 0.00000000
-0.40839684 0.74632139 0.00000000
0.39013692 -0.60528440 0.00000000
0.20694417 0.04488285 0.00000000
0.47265323 -0.26263210 0.00000000
-0.77238959 0.64245588 0.00000000
-0.49009839 0.04077974 0.00000000
0.31212310 0.35008899 0.00000000
-0.61164107 -0.13676933 0.00000000
0.64270711 -0.62268847 0.00000000
0.01347693 -0.11887788 0.00000000
0.38746915 -0.14373306 0.00000000
0.54413410 0.39708523 0.38610443
0.34933724 0.55457145 0.28409501
0.44895780 0.36659997 0.04253854
-0.64777357 0.36940101 0.00000000
0.50640194 -0.40634779 0.00000000
-0.67391330 0.12362243 0.00000000
-0.31328934 0.07422882 0.00000000
0.06625644 0.69602241 0.00000000
-0.78313350 0.34590745 0.00000000
-0.38310690 0.78830664 0.00000000
-0.61877284 0.61412567 0.00000000
0.38858754 0.28648059 0.00000000
-0.60181364 0.49425376 0.00000000
0.16389322 -0.39691516 0.00000000
0.42081634 -0.25386614 0.00000000
0.65207639 -0.14110399 0.00000000
0.04866258 0.04639702 0.00000000
0.44467628 0.03947956 0.00000000
0.60499658 -0.73981571 0.00000000
-0.25717857 0.13269602 0.00000000
-0.52359876 -0.34871954 0.00000000
-0.41913248 0.16517288 0.00000000
0.24134010 -0.36773660 0.00000000
-0.27790398 -0.72875367 0.00000000
0.60668571 -0.47459741 0.00000000
-0.13527261 0.73670485 0.00000000
-0.29276068 0.41961322 0.00000000
0.70601985 -0.67317979 0.00000000
0.64290144 0.21515387 0.15872927
0.43228056 0.09026472 0.00000000
0.06244196 0.22751767 0.00000000
0.64114797 0.20564661 0.12794180
0.16956230 -0.39945773 0.00000000
-0.30266726 -0.32346522 0.00000000
-0.19936857 0.32907016 0.00000000
-0.00497295 0.42761831 0.00000000
-0.28041049 0.61559036 0.00000000
-0.65205111 -0.55187276 0.00000000
0.42776961 0.41777731 0.12453063
-0.32758160 0.46771899 0.00000000
0.11839893 -0.05800306 0.00000000
-0.00933968 -0.19569704 0.00000000
0.55122229 -0.46902385 0.00000000
0.35657978 0.56073880 0.32075842
-0.77417500 -0.27985052 0.00000000
0.46347762 -0.28916072 0.00000000
0.11644280 -0.79184103 0.00000000
-0.21072419 -0.57938875 0.00000000
-0.71781885 0.52589565 0.00000000
0.07147939 -0.67942750 0.00000000
-0.73856030 -0.13927685 0.00000000
-0.69983135 -0.04316810 0.00000000
0.28294615 -0.07602870 0.00000000
0.41322205 -0.73335494 0.00000000
0.46908825 -0.63761275 0.00000000
-0.37241069 -0.46807278 0.00000000
-0.74271706 0.67983574 0.00000000
0.32271181 -0.58902617 0.00000000
-0.66542851 0.34634392 0.00000000
-0.40899260 -0.64848513 0.00000000
-0.36027032 -0.58981571 0.00000000
-0.54555061 -0.77618570 0.00000000
0.06416417 0.33047799 0.00000000
-0.40871509 -0.59810441 0.00000000
0.66067812 -0.73970159 0.00000000
0.37121702 0.30018998 0.00000000
-0.60996592 0.02909939 0.00000000
-0.15000547 0.53240042 0.00000000
0.72696529 0.00944906 0.00000000
0.41971309 -0.52323056 0.00000000
0.30439768 0.55521814 0.16299580
-0.34423922 -0.58693762 0.00000000
-0.75916258 0.56996353 0.00000000
-0.04797077 0.18921105 0.00000000
-0.49658575 0.46275849 0.00000000
-0.32446121 0.53095324 0.00000000
-0.14354855 -0.54886613 0.00000000
0.63728718 -0.55856505 0.00000000
-0.43410999 0.78744176 0.00000000
-0.66663027 -0.47249987 0.00000000
0.19029180 0.41282501 0.00000000
0.38010756 -0.32299054 0.00000000
0.59735884 -0.51478579 0.00000000
-0.13569665 -0.62465560 0.00000000
0.03628410 0.48825648 0.00000000
-0.78136079 0.77238886 0.00000000
0.48203934 -0.50925601 0.00000000
-0.26122772 0.34375717 0.00000000
0.68367536 -0.58747314 0.00000000
0.26052886 0.37668229 0.00000000
0.04357056 0.28519473 0.00000000
0.40017614 -0.28622440 0.00000000
0.45957810 0.38837299 0.13110375
0.27972741 0.57399853 0.14689254
0.59420299 0.30147911 0.26160310
-0.78545127 -0.74889024 0.00000000
-0.14133031 0.02085545 0.00000000
-0.71782048 -0.36111064 0.00000000
0.37543742 -0.34439995 0.00000000
-0.18980103 -0.21753406 0.00000000
0.67910908 -0.76308232 0.00000000
0.45551431 0.14926796 0.00000000
-0.11343938 -0.65783709 0.00000000
0.31508176 0.51325433 0.07747520
0.32174953 -0.47206499 0.00000000
0.06913124 -0.48464192 0.00000000
-0.49468326 -0.71438859 0.00000000
0.02698207 0.48715215 0.00000000
0.45159536 0.34986902 0.00400640
0.11353131 0.71075778 0.06641047
0.05276888 -0.58498430 0.00000000
-0.42985397 -0.56401224 0.00000000
-0.42884583 0.41597453 0.00000000
0.55171077 -0.32210069 0.00000000
-0.53455981 0.15569390 0.00000000
0.31713940 -0.74556472 0.00000000
0.22560781 0.33000025 0.00000000
-0.14975409 0.24943689 0.00000000
0.44987763 0.34918137 0.00000000
0.13465572 0.70677808 0.11328507
-0.01857485 0.63267670 0.00000000
0.48803212 -0.00409109 0.00000000
0.30497483 0.35273728 0.00000000
-0.15644648 0.38626732 0.00000000
-0.76366428 0.22323445 0.00000000
0.34542493 -0.12253083 0.00000000
-0.42649798 -0.21548733 0.00000000
0.38396770 0.50824463 0.25211650
0.12933260 -0.71791238 0.00000000
-0.69654618 -0.57438956 0.00000000
0.40279728 0.03865764 0.00000000
-0.46569104 0.28884794 0.00000000
-0.43618966 0.52706904 0.00000000
0.17368282 -0.27581591 0.00000000
-0.38928914 0.09888886 0.00000000
-0.62685075 0.48520140 0.00000000
0.35145694 -0.26379332 0.00000000
-0.55472340 -0.19474490 0.00000000
-0.06347144 0.78069723 0.00000000
-0.44246367 -0.76294727 0.00000000
-0.14084052 0.35117310 0.00000000
0.57363071 -0.73229468 0.00000000
0.39380810 0.41342938 0.01979041
0.02263410 -0.42568238 0.00000000
0.61849771 -0.72116586 0.00000000
-0.39342893 0.26776825 0.00000000
0.10560485 0.69967125 0.01442787
-0.45870245 -0.71841555 0.00000000
-0.60835534 0.60325957 0.00000000
0.24594445 -0.54937082 0.00000000
-0.24367612 0.53654858 0.00000000
-0.06962155 0.32788140 0.00000000
-0.16012568 -0.76278756 0.00000000
-0.12427660 -0.19308783 0.00000000
0.37192683 0.47673305 0.13304161
-0.23040862 0.70406427 0.00000000
-0.21491486 -0.79161621 0.00000000
0.06524399 0.27129441 0.00000000
0.52708382 0.27463620 0.00470534
-0.22323635 -0.05194392 0.00000000
0.52540753 0.27693295 0.00640171
-0.53583075 0.47616792 0.00000000
0.26617405 0.06293450 0.00000000
0.10111787 -0.75093267 0.00000000
0.11363834 -0.58783763 0.00000000
-0.48229375 -0.68583785 0.00000000
-0.37313279 0.54734025 0.00000000
0.28742080 -0.69286116 0.00000000
-0.06294893 0.34755376 0.00000000
-0.77584396 0.75831125 0.00000000
-0.33164310 0.75485469 0.00000000
0.46245201 -0.73472029 0.00000000
0.46230578 -0.48621013 0.00000000
0.22677050 -0.28969933 0.00000000
-0.36400045 0.16641362 0.00000000
-0.70780047 -0.52852829 0.00000000
-0.01407409 -0.31776524 0.00000000
-0.06504465 -0.43976181 0.00000000
-0.48265381 -0.39856516 0.00000000
-0.21509372 -0.13285364 0.00000000
-0.75109713 0.35409678 0.00000000
0.65491945 0.20739420 0.17037183
-0.62570834 0.28048658 0.00000000
0.77020245 -0.42046705 0.00000000
-0.25312800 -0.65300550 0.00000000
-0.77457398 0.27099719 0.00000000
-0.68849412 -0.28753017 0.00000000
-0.31380437 0.77869599 0.00000000
0.75611144 0.05712308 0.03618665
-0.43467860 -0.78739637 0.00000000
-0.01210574 0.49597979 0.00000000
-0.10951573 0.66480388 0.00000000
0.23979937 -0.63557728 0.00000000
-0.29322126 -0.45621652 0.00000000
0.78786609 -0.65398507 0.00000000
-0.10350433 -0.27805239 0.00000000
-0.42560222 0.30716058 0.00000000
-0.11204077 -0.08192235 0.00000000
0.46032564 -0.02895555 0.00000000
-0.64401119 -0.08960637 0.00000000
0.50436660 0.42232811 0.34639331
0.20730137 0.61491404 0.06074092
-0.18772249 -0.23901815 0.00000000
0.17609877 0.47153717 0.00000000
0.00478567 -0.23111451 0.00000000
-0.52106581 0.62841162 0.00000000
-0.57411479 -0.36511667 0.00000000
0.31961724 0.19784723 0.00000000
0.57870188 0.27091623 0.13566148
-0.18320122 -0.15772193 0.00000000
-0.11472619 0.70446206 0.00000000
0.02821525 0.16257154 0.00000000
0.11871223 -0.69868542 0.00000000
-0.48266939 0.32159356 0.00000000
-0.45717694 -0.15133406 0.00000000
-0.75048651 0.69537508 0.00000000
0.79494886 -0.17343190 0.00000000
0.64664646 -0.41248240 0.00000000
-0.36280488 -0.72017392 0.00000000
0.73032311 -0.40417042 0.00000000
-0.14519984 -0.58741128 0.00000000
0.47692989 0.29183950 0.00000000
0.54348034 0.02853013 0.00000000
0.40993498 0.46368256 0.20127730
0.38724043 0.36055265 0.00000000
-0.50124371 -0.65195274 0.00000000
0.32081357 0.52001326 0.11162560
0.09327077 0.54910505 0.00000000
-0.40027995 0.32064760 0.00000000
-0.77207783 0.08881716 0.00000000
0.30666253 -0.31069858 0.00000000
0.47447002 0.51462871 0.51700938
0.58935686 0.32409951 0.31019897
0.03540894 0.70310644 0.00000000
-0.22007668 0.18740634 0.00000000
-0.77799899 -0.15267938 0.00000000
0.26984738 -0.26215452 0.00000000
0.55381287 0.39181182 0.39814895
0.09907249 -0.12077124 0.00000000
0.45953526 -0.64670868 0.00000000
0.73032828 -0.46645224 0.00000000
-0.37239399 0.13599512 0.00000000
-0.54151883 -0.54710000 0.00000000
0.19347997 -0.68549683 0.00000000
0.28415469 -0.16538084 0.00000000
-0.43721748 0.64651184 0.00000000
-0.18624252 -0.44940509 0.00000000
0.00134465 0.21764741 0.00000000
-0.52640957 -0.42182205 0.00000000
0.46096284 0.40556740 0.18190023
-0.21097648 -0.19650029 0.00000000
-0.38535505 0.37061424 0.00000000
0.44481164 0.42102548 0.18000520
0.33492554 0.50914489 0.12049381
-0.67637630 -0.35056331 0.00000000
0.69857380 -0.03955940 0.00000000
-0.78175106 -0.78545302 0.00000000
-0.09965951 0.10260904 0.00000000
0.23572237 -0.46450081 0.00000000
0.19899813 0.61782419 0.04599588
0.67954178 0.13681805 0.04473142
0.39641343 0.45390270 0.13756991
-0.17292412 0.03581409 0.00000000
-0.04313057 0.52211203 0.00000000
-0.17542195 0.14663133 0.00000000
0.62508291 0.17421705 0.00000000
-0.24142331 -0.34505825 0.00000000
-0.01761588 0.40156190 0.00000000
0.54167966 0.38894755 0.35714499
-0.04136576 0.01962661 0.00000000
0.23784829 -0.30996927 0.00000000
-0.68080189 -0.52304458 0.00000000
-0.47626436 0.41975618 0.00000000
0.12431691 0.00850069 0.00000000
-0.39824648 0.01543786 0.00000000
-0.34332165 -0.44609746 0.00000000
0.35360084 0.57062233 0.33963591
0.40709959 0.49132918 0.26911261
0.65320267 -0.60236472 0.00000000
-0.13078499 0.17006553 0.00000000
0.40438492 0.49830652 0.28076700
0.77380140 -0.10355884 0.00000000
0.59590107 0.32525663 0.33125483
0.37476824 -0.74016701 0.00000000
0.45299299 0.44100814 0.25700720
-0.10376441 0.23740937 0.00000000
0.30082599 0.42881781 0.00000000
0.60019349 0.28966975 0.24569399
0.72798285 0.09355382 0.05888518
-0.67227128 -0.42682125 0.00000000
0.37897449 0.38928823 0.00000000
0.65015777 0.11009307 0.00000000
0.62012651 0.02484060 0.00000000
0.57534564 -0.27046301 0.00000000
-0.69439684 0.41713290 0.00000000
-0.38913141 0.59108586 0.00000000
-0.55481671 -0.15781493 0.00000000
0.72232594 -0.54640233 0.00000000
-0.11890611 -0.28261847 0.00000000
-0.14198554 0.31590677 0.00000000
0.27288595 0.14007762 0.00000000
0.27502058 0.54273549 0.04854884
0.74036435 -0.19665040 0.00000000
-0.56561918 -0.43490562 0.00000000
-0.45230572 -0.23633515 0.00000000
0.44844933 0.32181535 0.00000000
-0.39441005 -0.16566362 0.00000000
-0.53125273 0.00253440 0.00000000
0.48418843 0.22665187 0.00000000
0.28638308 -0.22742025 0.00000000
-0.53337706 0.65648831 0.00000000
-0.22383802 -0.56820441 0.00000000
-0.01806594 -0.48232127 0.00000000
0.17633685 -0.38572437 0.00000000
-0.35755294 0.24488486 0.00000000
0.57018360 0.33615807 0.29074698
-0.78284672 0.41247846 0.00000000
-0.59758138 -0.24324387 0.00000000
-0.29227120 -0.79401475 0.00000000
0.54744789 0.14956070 0.00000000
-0.45833031 -0.64309444 0.00000000
0.55498097 0.29191467 0.12821810
0.66797805 0.14025575 0.02251438
-0.47697784 0.21989198 0.00000000
-0.07090671 0.41370848 0.00000000
0.08973770 -0.61369933 0.00000000
0.18897165 0.48977474 0.00000000
-0.71499127 0.53742704 0.00000000
-0.10858357 0.58592558 0.00000000
0.00587672 0.10791491 0.00000000
0.10382088 -0.54784051 0.00000000
-0.54840404 -0.39513244 0.00000000
-0.47553421 0.17079886 0.00000000
0.02944749 0.77866847 0.02219218
0.47053477 -0.05395593 0.00000000
0.37956136 0.50410981 0.22876449
0.76642614 -0.41587579 0.00000000
-0.39948886 -0.54959357 0.00000000
-0.22373412 -0.33665916 0.00000000
-0.27693494 -0.28503528 0.00000000
0.07036240 -0.60046903 0.00000000
0.03725325 0.57748901 0.00000000
0.55411078 0.37877938 0.36333201
-0.40502027 -0.00175145 0.00000000
-0.54073133 0.17641302 0.00000000
0.72910557 -0.33482365 0.00000000
0.32969896 -0.47337475 0.00000000
-0.29476028 -0.52413394 0.00000000
0.43876578 0.17254320 0.00000000
0.32215012 0.53566903 0.15808358
-0.67535881 -0.37746816 0.00000000
0.62906126 -0.79836971 0.00000000
0.28412190 0.18981265 0.00000000
-0.20739351 -0.24622523 0.00000000
-0.12961036 0.44892974 0.00000000
-0.55911862 0.79608663 0.00000000
0.28314949 0.45562622 0.00000000
-0.11411094 0.50394891 0.00000000
0.03221979 0.43770536 0.00000000
0.20007399 0.60785777 0.02168858
-0.62810654 0.06346767 0.00000000
0.32584113 -0.31615602 0.00000000
-0.59792401 0.25446266 0.00000000
-0.52929297 0.25233649 0.00000000
0.56428313 -0.69819625 0.00000000
-0.11469273 0.37887305 0.00000000
0.72953793 0.07515154 0.01282400
-0.40521711 0.43223031 0.00000000
0.71941153 -0.64989489 0.00000000
0.45113916 -0.26018439 0.00000000
-0.10806693 0.30076513 0.00000000
0.50194380 0.46238132 0.44927695
-0.36010735 -0.48931302 0.00000000
-0.68990552 0.00546067 0.00000000
-0.01737686 -0.74014855 0.00000000
-0.33143170 0.31538601 0.00000000
-0.34518030 -0.25528690 0.00000000
0.04733578 -0.43888447 0.00000000
-0.27511707 -0.04681574 0.00000000
0.65239059 0.15043605 0.00773088
-0.35531784 -0.13097066 0.00000000
-0.24898010 -0.02934378 0.00000000
-0.44794044 0.33039396 0.00000000
-0.52706276 -0.04426961 0.00000000
-0.07030394 -0.08723074 0.00000000
0.39172201 0.41859331 0.02820539
-0.02966303 0.25427574 0.00000000
-0.57503007 -0.74998318 0.00000000
-0.38204944 0.18232899 0.00000000
0.11400282 0.68738841 0.00380641
0.14400867 0.34598391 0.00000000
0.50818820 0.35237625 0.16558941
-0.27959964 -0.67751373 0.00000000
0.48436975 0.38883795 0.20015679
0.35922399 -0.41605566 0.00000000
0.69418573 -0.04849827 0.00000000
0.74937964 -0.24271459 0.00000000
0.34934746 0.27764332 0.00000000
-0.17054620 -0.76946544 0.00000000
-0.10893988 0.35107444 0.00000000
-0.05661308 -0.31181577 0.00000000
-0.09934368 -0.38609266 0.00000000
-0.35481842 -0.79706079 0.00000000
0.11396408 0.23946376 0.00000000
-0.65117268 0.25941421 0.00000000
-0.05152126 0.26110931 0.00000000
0.48959094 0.36569963 0.15117030
-0.03313440 0.00668121 0.00000000
0.63347447 -0.34644382 0.00000000
0.58411806 0.18519086 0.00000000
-0.25661047 0.70496396 0.00000000
-0.36857803 -0.41301959 0.00000000
0.51938185 0.29537339 0.04034440
0.59409971 -0.17926989 0.00000000
0.07960798 -0.17678544 0.00000000
-0.49869729 -0.76501546 0.00000000
-0.56446332 0.60105270 0.00000000
0.49485203 -0.37378893 0.00000000
-0.13422816 0.03813071 0.00000000
-0.64202472 0.79324383 0.00000000
0.33187087 0.31916602 0.00000000
0.59705904 0.28045836 0.21193977
0.25203486 0.62851948 0.22024286
0.38808411 0.54047124 0.35148038
0.14704256 0.08230265 0.00000000
-0.08523758 -0.48392763 0.00000000
0.21801488 0.33257968 0.00000000
0.20607828 -0.26301525 0.00000000
-0.71901990 -0.39242770 0.00000000
0.67321780 -0.76645826 0.00000000
-0.35480659 0.64403577 0.00000000
-0.53800646 -0.28779012 0.00000000
-0.52079441 -0.69924282 0.00000000
0.75427577 -0.52022089 0.00000000
-0.78168725 0.19225761 0.00000000
-0.61359679 0.10874091 0.00000000
0.46683115 -0.73752776 0.00000000
0.56952592 0.19931273 0.00000000
-0.13408054 0.39258048 0.00000000
-0.13170429 -0.58372288 0.00000000
-0.00977509 -0.68970756 0.00000000
0.39272266 0.19077956 0.00000000
0.64283258 0.08413461 0.00000000
0.53622948 0.00859574 0.00000000
-0.43818435 -0.30668066 0.00000000
-0.72449767 -0.40829050 0.00000000
0.03415706 0.62318201 0.00000000
0.43167610 -0.71405197 0.00000000
0.23858882 0.31499547 0.00000000
0.19222160 -0.00530343 0.00000000
0.49287550 -0.76092471 0.00000000
0.16156499 0.14527800 0.00000000
-0.31066146 -0.72081549 0.00000000
0.38563937 0.54446544 0.35571668
-0.33792571 0.78307703 0.00000000
-0.57473395 -0.64228946 0.00000000
-0.25655203 -0.16853699 0.00000000
-0.12273727 -0.68819750 0.00000000
0.09763372 0.64297069 0.00000000
0.09881736 -0.51640255 0.00000000
-0.05589137 -0.71149872 0.00000000
-0.72030878 0.22590675 0.00000000
-0.37015071 -0.20908312 0.00000000
-0.04560797 -0.65760290 0.00000000
0.49488179 0.21649032 0.00000000
-0.27718247 -0.70338426 0.00000000
-0.07301754 -0.60070445 0.00000000
0.77343599 -0.42182291 0.00000000
0.21711813 -0.41636837 0.00000000
-0.24184810 -0.34342472 0.00000000
0.01402219 0.75678089 0.00000000
-0.19605984 0.79271852 0.00000000
-0.75426021 0.79801504 0.00000000
0.32712886 0.56357541 0.24799338
-0.65650515 0.66585227 0.00000000
-0.02705018 -0.06767277 0.00000000
-0.79231444 0.09302869 0.00000000
-0.03435718 -0.69118490 0.00000000
-0.16965761 -0.28959221 0.00000000
-0.37401565 -0.18686137 0.00000000
0.70240143 0.03693057 0.00000000
-0.46741283 0.75324482 0.00000000
-0.48647751 0.36997487 0.00000000
-0.24582448 0.08508000 0.00000000
0.08515137 0.09725270 0.00000000
-0.01260996 -0.33015524 0.00000000
0.67218281 -0.26042128 0.00000000
-0.58833317 0.20941244 0.00000000
0.57230160 0.17468727 0.00000000
0.40931332 -0.61664407 0.00000000
0.45536099 -0.22576054 0.00000000
-0.58318300 0.25963011 0.00000000
-0.13230754 0.27929904 0.00000000
0.22144711 -0.30337247 0.00000000
0.25695157 -0.63226857 0.00000000
0.24756395 0.23812395 0.00000000
0.22392062 0.42398336 0.00000000
0.63816487 0.18896540 0.07417841
0.00703243 0.44133775 0.00000000
-0.54123131 0.17598021 0.00000000
-0.13906964 0.12304335 0.00000000
-0.39141366 -0.22383318 0.00000000
0.38573260 -0.09950451 0.00000000
0.53936258 -0.76243415 0.00000000
0.25871019 0.48326313 0.00000000
-0.75913885 -0.25787339 0.00000000
-0.65080467 0.70510059 0.00000000
-0.16929138 0.35115768 0.00000000
0.32473963 0.50225026 0.07379463
0.00173034 -0.29025215 0.00000000
-0.29926553 -0.30769431 0.00000000
0.68476912 -0.42009853 0.00000000
0.27578006 0.57698245 0.14425845
0.68360815 -0.64043418 0.00000000
-0.42676476 0.33777632 0.00000000
0.21305211 -0.54771669 0.00000000
-0.69566780 0.55815639 0.00000000
0.59207328 0.23157837 0.06466766
0.19902309 -0.69918878 0.00000000
0.65073559 0.24032356 0.24896368
-0.62511662 -0.50711437 0.00000000
-0.21147535 -0.24128530 0.00000000
0.15590849 -0.43078090 0.00000000
-0.05655368 0.01085620 0.00000000
-0.75658658 0.33346256 0.00000000
0.28028914 0.60463495 0.23219003
0.34167497 0.48795276 0.08100663
-0.39203809 0.29532764 0.00000000
0.30417980 -0.19504462 0.00000000
0.07683895 0.64197100 0.00000000
-0.03232088 0.57589659 0.00000000
0.25394449 -0.00392509 0.00000000
-0.57081662 0.66843672 0.00000000
-0.22297136 -0.69754638 0.00000000
-0.79441820 -0.29963340 0.00000000
0.61280812 -0.30781365 0.00000000
-0.71472555 -0.61189397 0.00000000
-0.13611502 0.40423889 0.00000000
-0.25166034 -0.16547161 0.00000000
0.38940927 0.56445472 0.42067560
-0.44474833 -0.16702417 0.00000000
-0.75690318 0.63747710 0.00000000
-0.74866880 0.43286755 0.00000000
-0.28504971 0.03635485 0.00000000
-0.78233546 0.07727490 0.00000000
-0.11363198 -0.24468832 0.00000000
-0.73929641 0.66878257 0.00000000
0.12926299 -0.78889960 0.00000000
-0.38269848 0.57790662 0.00000000
-0.26493909 0.40039025 0.00000000
0.25870022 0.43372281 0.00000000
-0.16798930 0.38422854 0.00000000
-0.39054818 -0.10507323 0.00000000
-0.17676018 0.57465535 0.00000000
-0.64909939 -0.45691712 0.00000000
0.49756964 0.35748764 0.15053250
-0.53452347 0.61698708 0.00000000
-0.71014558 0.22417800 0.00000000
-0.36190747 0.27892147 0.00000000
0.32568997 0.47452641 0.00059431
0.16950736 0.65798396 0.07516555
-0.55723052 -0.22682418 0.00000000
0.55518290 -0.15466142 0.00000000
0.34603147 -0.10708464 0.00000000
-0.60532175 -0.79710987 0.00000000
-0.51905972 0.19206464 0.00000000
0.19123656 0.41757890 0.00000000
-0.52104363 -0.22978954 0.00000000
-0.75724465 -0.36937000 0.00000000
-0.40624388 0.31284632 0.00000000
0.30894384 0.55681825 0.17980006
-0.13092095 0.47551932 0.00000000
0.50138915 0.48362811 0.50585042
-0.28826558 0.50542923 0.00000000
-0.29265706 0.09180336 0.00000000
0.37540549 -0.48080836 0.00000000
0.50007937 -0.65640389 0.00000000
0.69326297 -0.73312039 0.00000000
0.37390419 -0.32664298 0.00000000
0.63719927 -0.46544379 0.00000000
0.65092253 -0.55841635 0.00000000
0.45507323 0.36537907 0.05592048
-0.57493571 0.56192765 0.00000000
0.30496624 -0.10611340 0.00000000
-0.54442967 0.51459565 0.00000000
-0.57993286 -0.41124217 0.00000000
0.59626608 0.31492387 0.30400246
0.37394769 0.22712131 0.00000000
0.78069468 -0.28231060 0.00000000
0.53673181 -0.76274601 0.00000000
0.08031763 0.66518913 0.00000000
-0.55749140 0.27163452 0.00000000
0.56030400 0.24041072 0.00195680
-0.58507783 0.75960432 0.00000000
-0.36077836 -0.09529132 0.00000000
-0.22990115 -0.34785965 0.00000000
0.21413564 -0.56645405 0.00000000
0.49241558 -0.51404648 0.00000000
0.52495429 0.41421412 0.38049710
0.29281827 0.42144334 0.00000000
0.09777198 0.72218998 0.05457986
-0.46142264 -0.31287136 0.00000000
-0.37981718 -0.22039271 0.00000000
-0.33324124 -0.14911637 0.00000000
0.69110703 0.16586214 0.15575970
-0.09191468 -0.18781200 0.00000000
0.46043209 -0.02508406 0.00000000
-0.27894483 0.60074703 0.00000000
-0.55019319 0.43556114 0.00000000
0.64218409 0.21361440 0.15255900
0.50908514 -0.64764255 0.00000000
-0.00525650 -0.79017010 0.00000000
-0.15567133 -0.59421840 0.00000000
0.47197296 0.24897620 0.00000000
-0.50059783 0.18513741 0.00000000
-0.27200266 -0.03275953 0.00000000
0.26176567 0.43150469 0.00000000
-0.69862443 -0.04002194 0.00000000
-0.12802526 0.68717696 0.00000000
0.51460150 0.30434436 0.05180177
-0.18251051 0.18354013 0.00000000
0.71122551 -0.02228097 0.00000000
-0.34169286 -0.54066480 0.00000000
-0.01395320 0.32697064 0.00000000
-0.39419323 0.19614379 0.00000000
-0.11292052 -0.00977883 0.00000000
0.37973410 -0.65953270 0.00000000
-0.18684992 -0.27018900 0.00000000
0.44352457 -0.04069355 0.00000000
-0.44480570 -0.12092456 0.00000000
0.21782427 -0.56930618 0.00000000
0.07915658 0.19751909 0.00000000
0.76664146 -0.62525403 0.00000000
-0.48941880 0.30289941 0.00000000
0.44891511 0.48966737 0.37889512
0.30960893 -0.22458886 0.00000000
-0.51962419 0.54532819 0.00000000
0.15079467 -0.20218440 0.00000000
-0.42368444 0.76416992 0.00000000
-0.52725613 0.71561907 0.00000000
-0.33117988 0.25844470 0.00000000
0.50891573 0.20952767 0.00000000
0.20100699 -0.13872606 0.00000000
-0.32412348 -0.16503697 0.00000000
-0.66254214 0.61444894 0.00000000
0.43224041 0.52891272 0.44060454
-0.71125457 -0.68616274 0.00000000
0.58838246 -0.11468667 0.00000000
0.20396300 -0.47556266 0.00000000
0.06352536 -0.63202973 0.00000000
0.54023856 -0.32256705 0.00000000
-0.40680104 0.22210578 0.00000000
0.07745510 0.09537407 0.00000000
-0.26435159 0.55741342 0.00000000
-0.27192783 0.38573284 0.00000000
-0.67922680 0.79666002 0.00000000
-0.29316905 -0.55783205 0.00000000
0.03001442 0.41439110 0.00000000
-0.58975077 0.17952921 0.00000000
-0.37259381 0.24624362 0.00000000
0.24207850 -0.26205878 0.00000000
-0.15076633 0.73817467 0.00000000
-0.75963100 -0.78921584 0.00000000
-0.12727542 0.47560154 0.00000000
0.46188506 0.26405906 0.00000000
-0.16648045 -0.02459444 0.00000000
0.05056294 -0.74469254 0.00000000
-0.76107113 0.55671371 0.00000000
-0.64993167 -0.30691680 0.00000000
-0.32475205 0.08252766 0.00000000
-0.76309309 -0.67749494 0.00000000
-0.15379210 0.03795153 0.00000000
0.28932034 -0.15939409 0.00000000
-0.78278840 -0.48977931 0.00000000
-0.49020190 -0.51846877 0.00000000
0.36241821 0.12850835 0.00000000
0.13953521 0.48801985 0.00000000
0.17464099 0.11218408 0.00000000
0.47701487 0.06505944 0.00000000
-0.39823991 -0.75090630 0.00000000
-0.45031055 -0.55647137 0.00000000
-0.49710702 -0.16778302 0.00000000
0.07296180 0.37571942 0.00000000
-0.78639459 0.67030490 0.00000000
-0.26730078 -0.22493108 0.00000000
-0.64374865 -0.05053309 0.00000000
-0.51725755 -0.49617185 0.00000000
0.07198263 -0.51573612 0.00000000
0.18343884 0.61970817 0.00860680
-0.73869881 0.25310468 0.00000000
0.23965253 0.40449052 0.00000000
0.14388968 -0.08684149 0.00000000
-0.52709391 0.22699591 0.00000000
-0.06431890 -0.52073123 0.00000000
-0.70811235 -0.39429261 0.00000000
0.18188338 0.25504804 0.00000000
-0.36212355 0.51594723 0.00000000
-0.79669283 -0.30128379 0.00000000
-0.24868376 0.12534841 0.00000000
-0.20784745 -0.62032257 0.00000000
-0.01893193 -0.19046909 0.00000000
-0.26961989 0.01096610 0.00000000
0.47529401 -0.57483644 0.00000000
0.72017669 -0.69759621 0.00000000
0.73505748 -0.70071235 0.00000000
0.09270716 0.70929694 0.00548203
0.32581356 -0.68647076 0.00000000
-0.29773262 0.47267185 0.00000000
0.36862898 -0.27276911 0.00000000
0.04991646 -0.61298080 0.00000000
0.73505510 0.06948162 0.01240636
-0.42454809 0.61630523 0.00000000
-0.72488998 0.47054400 0.00000000
-0.50752375 0.78874812 0.00000000
0.44017077 -0.77638871 0.00000000
-0.78452075 0.22367468 0.00000000
0.12352505 -0.28852646 0.00000000
-0.62765768 -0.43169735 0.00000000
0.49250190 -0.72931430 0.00000000
-0.20357000 0.24264754 0.00000000
-0.61368923 0.71864018 0.00000000
0.33136245 -0.22827376 0.00000000
-0.58734768 -0.73310600 0.00000000
-0.13734621 -0.40721017 0.00000000
-0.32579630 0.02696833 0.00000000
0.37303236 0.19281952 0.00000000
0.13497501 -0.66854920 0.00000000
-0.25137559 0.73028861 0.00000000
-0.18824631 -0.61500462 0.00000000
-0.40409850 -0.51938442 0.00000000
-0.20750720 -0.32936728 0.00000000
-0.30143778 0.68196585 0.00000000
0.62006492 -0.09779412 0.00000000
-0.44656166 -0.42922467 0.00000000
0.65023642 -0.71688065 0.00000000
-0.44463147 -0.41701292 0.00000000
-0.37101561 -0.11647341 0.00000000
0.48369228 0.27280873 0.00000000
0.37901967 -0.16705136 0.00000000
0.26950084 -0.22971938 0.00000000
0.20987708 -0.76210349 0.00000000
0.20690475 0.37920205 0.00000000
0.30928297 0.35501410 0.00000000
-0.66445345 -0.13864196 0.00000000
-0.50589906 0.31800319 0.00000000
-0.26598764 -0.10607906 0.00000000
-0.66577533 -0.41934398 0.00000000
0.36913061 -0.01268909 0.00000000
0.01928203 0.11001456 0.00000000
-0.11799856 -0.50435787 0.00000000
-0.68590304 0.14218148 0.00000000
-0.70005475 0.23651073 0.00000000
-0.40935159 0.44980341 0.00000000
-0.14746103 -0.45623507 0.00000000
0.63825171 -0.79955492 0.00000000
-0.41507413 -0.00483741 0.00000000
0.12094349 -0.43537827 0.00000000
0.49698293 0.42727106 0.33972024
0.58016249 -0.35868001 0.00000000
-0.41831340 -0.06247309 0.00000000
0.48471630 -0.03733192 0.00000000
0.40401459 -0.04993533 0.00000000
-0.54831452 -0.62238453 0.00000000
0.22843089 -0.36482232 0.00000000
0.42498299 -0.27808447 0.00000000
0.41717946 0.45235366 0.19011026
-0.06965049 -0.03493095 0.00000000
-0.74437245 0.10704237 0.00000000
0.11998216 0.30090891 0.00000000
0.41691542 0.19502204 0.00000000
-0.14104781 0.40872823 0.00000000
-0.49564303 -0.70325291 0.00000000
0.75528211 -0.19184177 0.00000000
-0.58279074 0.44402785 0.00000000
-0.48100410 -0.04704755 0.00000000
0.09550141 -0.32858077 0.00000000
-0.40764348 -0.17500857 0.00000000
0.16803637 -0.29145719 0.00000000
0.74313383 -0.24287137 0.00000000
-0.46794762 0.58587339 0.00000000
0.37716804 -0.22965976 0.00000000
0.53740912 -0.21933656 0.00000000
-0.11871830 -0.70783206 0.00000000
-0.41442418 -0.01212151 0.00000000
0.03546713 -0.66923745 0.00000000
-0.48362357 -0.10230803 0.00000000
-0.02357164 0.26361954 0.00000000
-0.60994186 0.76170663 0.00000000
0.20782924 0.18295632 0.00000000
-0.13925740 0.61400483 0.00000000
0.16987433 0.14414250 0.00000000
0.41700869 -0.01758363 0.00000000
0.16048969 -0.02886882 0.00000000
-0.37443704 -0.04590080 0.00000000
-0.26016512 0.73389132 0.00000000
0.09972460 0.57285193 0.00000000
-0.57125860 -0.04659349 0.00000000
-0.58197796 -0.45453698 0.00000000
-0.67374172 0.15960527 0.00000000
0.00513237 -0.21078379 0.00000000
-0.39385335 0.23272511 0.00000000
0.57581088 -0.42800045 0.00000000
-0.76504832 0.44224928 0.00000000
-0.26339597 0.21108232 0.00000000
0.02247758 -0.10991213 0.00000000
0.55725900 0.17354576 0.00000000
-0.26833022 -0.24170384 0.00000000
-0.22940765 0.05863612 0.00000000
0.22269113 0.01175660 0.00000000
0.15245666 0.05021133 0.00000000
-0.21154590 -0.09300134 0.00000000
0.09789906 -0.08131723 0.00000000
0.55475027 -0.20928728 0.00000000
0.09336405 -0.21359079 0.00000000
0.08744320 0.19588051 0.00000000
0.22941803 0.37165879 0.00000000
0.61126980 -0.24314398 0.00000000
0.45845702 -0.18323016 0.00000000
0.05424025 -0.31632792 0.00000000
-0.20804143 -0.07107716 0.00000000
-0.43283622 -0.68357190 0.00000000
-0.38286193 -0.10085628 0.00000000
0.04326868 0.55011793 0.00000000
-0.23773268 -0.13961831 0.00000000
-0.79607564 -0.47015314 0.00000000
0.55579648 -0.78610559 0.00000000
0.40678017 0.50157736 0.29625842
-0.21542706 -0.00128951 0.00000000
-0.23307694 0.38750675 0.00000000
0.69735958 0.16344854 0.16625563
-0.59051750 -0.05663902 0.00000000
-0.23399470 -0.31556190 0.00000000
0.37708138 0.50415519 0.22210817
-0.47162184 0.32872619 0.00000000
-0.18423211 -0.22245346 0.00000000
-0.29255447 0.24718454 0.00000000
0.30900211 -0.70616422 0.00000000
0.78311801 -0.18466263 0.00000000
0.36478384 -0.24520621 0.00000000
-0.20222056 0.16816194 0.00000000
-0.13692458 -0.25967514 0.00000000
0.51229797 0.46789349 0.49265640
-0.08216805 -0.19507532 0.00000000
0.18416036 -0.26021306 0.00000000
0.38289250 0.21637088 0.00000000
0.15728769 0.11544576 0.00000000
0.64615679 -0.28211784 0.00000000
-0.63482373 -0.30460032 0.00000000
0.12457372 0.72302735 0.13014674
0.51867046 0.35389440 0.19839923
-0.51075569 -0.59643366 0.00000000
0.49546922 -0.31974054 0.00000000
0.56945691 -0.09919897 0.00000000
0.64180823 -0.42799241 0.00000000
0.49139345 -0.09463505 0.00000000
-0.50218298 0.15940103 0.00000000
-0.51851530 -0.04647975 0.00000000
0.23895426 -0.59707542 0.00000000
0.60395915 -0.13368921 0.00000000
0.03807947 0.07633323 0.00000000
0.64561624 -0.52260864 0.00000000
0.58961492 -0.30816731 0.00000000
0.00138993 0.23328486 0.00000000
-0.56594741 -0.48654364 0.00000000
-0.62043786 -0.79252221 0.00000000
0.03683963 -0.33165882 0.00000000
0.12385100 0.12266208 0.00000000
-0.79294861 -0.62677941 0.00000000
0.51437138 0.29131555 0.01555110
-0.40252478 0.61826342 0.00000000
0.24330743 0.62366061 0.18309715
-0.70605050 0.72875420 0.00000000
0.16267716 -0.15355402 0.00000000
0.06905549 0.54465917 0.00000000
0.49949398 -0.14213186 0.00000000
-0.07588079 0.07604137 0.00000000
0.41587766 -0.01250466 0.00000000
0.17127412 0.60479716 0.00000000
0.42908851 -0.64664685 0.00000000
0.52789084 -0.73930354 0.00000000
0.00572768 -0.58181779 0.00000000
0.28070476 -0.32794429 0.00000000
0.03045244 0.44225927 0.00000000
0.55885249 0.24611911 0.01359533
0.19689410 0.13151681 0.00000000
-0.46897030 0.34620439 0.00000000
-0.03123153 -0.72540276 0.00000000
-0.75364640 0.10136942 0.00000000
-0.48187425 0.74466523 0.00000000
-0.23213478 -0.68888301 0.00000000
0.14644771 -0.03026445 0.00000000
-0.34813168 -0.24696871 0.00000000
-0.23031318 -0.40776081 0.00000000
-0.56989172 -0.10699282 0.00000000
0.44667113 0.41695146 0.17395054
-0.41295045 0.53650450 0.00000000
-0.60723283 0.69488433 0.00000000
0.53300194 0.43664746 0.46383385
-0.21957980 -0.58443690 0.00000000
0.16342321 0.14900962 0.00000000
-0.01815183 0.32985227 0.00000000
0.03155779 0.02127383 0.00000000
0.09566835 -0.19361057 0.00000000
-0.49933848 -0.45363938 0.00000000
0.16871590 0.09868394 0.00000000
-0.41363322 -0.60388039 0.00000000
0.16268150 0.24512968 0.00000000
0.56041584 -0.06685616 0.00000000
0.29782893 0.30633258 0.00000000
0.24332734 0.62704126 0.19239448
-0.36638965 -0.40271979 0.00000000
-0.15632895 -0.69984318 0.00000000
0.70819621 -0.69955839 0.00000000
0.23922884 0.33635437 0.00000000
0.24792313 0.08059867 0.00000000
-0.40482507 -0.38286709 0.00000000
0.48965959 0.45763712 0.40272034
-0.63834414 -0.11209146 0.00000000
0.17041478 -0.40137477 0.00000000
-0.04403279 0.47560016 0.00000000
0.32170241 -0.14045681 0.00000000
0.64308152 -0.46068487 0.00000000
0.13803914 -0.34379819 0.00000000
0.42004187 0.09992385 0.00000000
0.49766912 0.25098219 0.00000000
0.40065471 -0.75194479 0.00000000
0.67125885 0.15701239 0.07729790
-0.02874067 -0.40203186 0.00000000
-0.02454746 -0.60521595 0.00000000
0.11382751 0.54677937 0.00000000
0.62922941 -0.75222347 0.00000000
0.47453979 0.25091817 0.00000000
-0.79552080 -0.59789441 0.00000000
0.58932460 0.03646976 0.00000000
-0.48710827 -0.43183584 0.00000000
0.28477947 -0.66924958 0.00000000
-0.09360415 0.46956471 0.00000000
