ply
format ascii 1.0
element vertex 1372
property float x
property float y
property float z
end_header
-0.49863857 -0.42546028 0.00000366
-0.49231075 -0.12314902 -0.04628158
-0.00340908 0.54397452 0.00000787
-0.15239333 -0.65977336 -0.00000039
-0.31572617 0.01487511 -0.00000214
-0.73910457 -0.78833703 -0.03418214
-0.53898265 -0.09805471 -0.07030901
-0.19730079 0.32366609 0.00127714
-0.03242783 0.25503038 -0.00000528
-0.63656522 -0.73681309 0.00535221
-0.38727242 -0.13498108 0.40485599
-0.64818803 -0.28484494 -0.08371287
-0.41400814 -0.14427177 -0.00962885
-0.09107087 -0.69065431 0.00000082
-0.01340176 -0.13622931 0.00000255
-0.38868730 -0.40489898 0.00000324
-0.12875166 0.14015491 0.00000275
-0.02910881 0.41183637 0.00000468
-0.33787645 -0.01571986 0.15950488
-0.00109340 0.64225761 0.00000248
-0.26500952 0.24022610 -0.01395075
-0.67000101 0.00556060 -0.14354351
-0.46128790 -0.39062562 0.00000362
-0.45542497 0.22027796 -0.09064516
-0.27647251 0.02057390 0.00000141
-0.06271355 -0.17406503 0.00000263
-0.33832583 -0.01680488 0.16242096
-0.50281776 -0.41392519 0.19745970
-0.34492541 -0.26123824 -0.00000006
-0.34283092 0.33744861 -0.06367276
-0.24032952 0.26171423 -0.00730438
-0.03969528 -0.42803688 0.00000116
-0.56469367 -0.40903550 -0.02689902
-0.27148001 -0.03982190 0.00000121
-0.46019513 -0.75277826 0.00000226
-0.18858624 0.18790126 0.00000456
-0.16515870 0.40125971 0.14926204
-0.06776968 -0.31716938 0.00000212
-0.30551848 -0.06820928 0.00000090
-0.50578608 -0.20006216 -0.03854153
-0.60830535 -0.66859094 0.20740580
-0.03907567 -0.37770338 0.00000176
-0.18890194 0.34393900 0.15595072
-0.57976854 0.03435744 -0.11057322
-0.28303793 -0.28408675 0.00000023
-0.27633593 0.08215572 0.00000721
-0.48574629 -0.37271324 0.25712415
-0.04592923 0.22639014 0.00000357
-0.24729652 -0.21006571 0.00000072
-0.24527339 0.20785409 0.09263274
-0.03261853 -0.31378660 0.00000163
-0.36640248 -0.26778366 -0.00000022
-0.36724291 0.25608400 -0.05975982
-0.25999384 0.17134718 -0.00000030
-0.23907833 0.22280972 0.09600719
-0.43988375 -0.61991393 0.00000267
-0.47241964 -0.34053441 0.11449241
-0.71258567 -0.25989850 -0.11517784
-0.39760235 -0.15990576 0.01974177
-0.41411607 0.32287965 -0.09114582
-0.42592030 -0.22827493 0.11285507
-0.19089918 0.40243548 -0.01103653
-0.04891706 0.25564929 0.00000366
-0.03615715 -0.76700742 0.00000029
-0.75919662 -0.62439586 -0.07123336
-0.50391842 -0.41658339 0.22341850
-0.43655594 0.14287072 -0.06919879
-0.02795249 0.48765863 0.00000466
-0.39491303 0.06809111 -0.03862534
-0.20222421 0.31177800 0.05082718
-0.03468847 0.27522555 0.00000419
-0.14122984 0.51181948 -0.00919900
-0.04919959 0.22338575 0.00000406
-0.56422974 -0.60155738 -0.00000266
-0.39938849 -0.50524728 -0.00000131
-0.22014794 -0.55987980 -0.00000043
-0.15232877 0.22571527 0.00000454
-0.63432995 -0.75133335 -0.00000365
-0.74941692 -0.59053654 -0.07302096
-0.14152612 0.06563729 0.00000389
-0.05894838 0.00165074 0.00001110
-0.28643815 0.10845760 0.30885562
-0.20622599 -0.43120055 0.00000232
-0.59878617 -0.64561012 0.13482471
-0.67759337 -0.83586284 0.12705279
-0.50018467 -0.64074626 -0.00000242
-0.11771089 0.05880959 -0.00000712
-0.36727583 -0.08669198 0.23515670
-0.02600524 -0.42954484 0.00000151
-0.38698818 -0.13429025 0.26728466
-0.45405949 0.04998241 -0.06037045
-0.19443506 -0.69866148 0.00000126
-0.06077223 0.63190228 0.00000564
-0.31903601 0.43620753 -0.07087774
-0.19159902 -0.64982729 -0.00000059
-0.06326656 0.60297748 0.00000652
-0.33702414 -0.01366007 0.24420853
-0.22619617 0.10204746 0.00000202
-0.03361109 0.35545455 0.00000413
-0.01424410 -0.65191573 0.00000047
-0.55017714 -0.46494514 -0.01103620
-0.36698967 -0.08600044 0.02753748
-0.01991046 -0.00232799 0.00000287
-0.34966823 -0.75882545 -0.00000196
-0.23311333 0.23721397 0.05065000
-0.25937885 -0.73455513 0.00000142
-0.31620990 0.05393777 -0.00301575
-0.02915649 -0.71832577 0.00000044
-0.01232424 -0.56695839 0.00000093
-0.39832486 -0.61426212 -0.00000171
-0.08475433 0.27121796 0.00000440
-0.24526865 -0.72887905 -0.00000121
-0.26133428 0.16906760 0.24830363
-0.57045338 -0.26607095 -0.05425733
-0.42772241 -0.32455232 -0.00000080
-0.04921450 0.49012626 0.00000051
-0.27323482 -0.68357231 0.00000167
-0.39881397 -0.46335754 0.00000307
-0.71030325 -0.03146335 -0.15405625
-0.03591334 0.69203490 0.00000538
-0.71569291 -0.46755833 -0.08026984
-0.19141802 -0.51480088 -0.00000009
-0.45764385 -0.40425588 0.00000356
-0.33190312 -0.12166139 0.00000054
-0.50675582 -0.35897779 -0.01123474
-0.06797145 0.40601834 -0.00000081
-0.01340085 0.13028649 -0.00000866
-0.21694711 0.27623478 0.13755274
-0.51540558 0.04868334 -0.08597333
-0.27272398 -0.06584019 0.00000399
-0.03626222 -0.69971789 0.00000054
-0.03580176 0.40208610 0.00000467
-0.12729156 -0.65480459 0.00000112
-0.37600191 0.14361338 -0.04383179
-0.11569886 -0.51049392 0.00000161
-0.35679076 -0.06138032 0.24807156
-0.51551696 -0.74891337 -0.00000292
-0.41867913 0.31857433 -0.09231654
-0.22520463 0.10487460 0.00000441
-0.07378446 0.68468381 -0.01095017
-0.67864792 -0.83840867 0.10214881
-0.43232813 -0.40103883 -0.00000111
-0.41906424 -0.21173243 0.36292424
-0.49048448 0.09096327 -0.08285411
-0.05094772 0.42538205 0.00000483
-0.10129847 -0.71665967 -0.00000030
-0.34526534 -0.03356347 0.29709609
-0.13078942 0.53916247 -0.00957192
-0.24044836 0.21950757 0.03137685
-0.56296328 -0.56701857 -0.00000252
-0.52403601 -0.79993806 -0.00000316
-0.39169990 -0.14565785 0.06941551
-0.12711550 0.53867143 -0.00794049
-0.24991795 0.08738331 0.00000446
-0.16792643 -0.69403772 0.00000116
-0.11914747 0.16231043 0.00000898
-0.23719716 -0.33480264 0.00000282
-0.48494611 -0.56823589 0.00000306
-0.61999376 -0.74384601 -0.00000353
-0.37395604 -0.10282795 0.34223493
-0.01731531 0.43436530 0.00000471
-0.72727598 -0.64072585 -0.05494575
-0.30742834 0.05778982 0.12288078
-0.03100461 0.26279283 0.00000413
-0.38077469 -0.63938666 -0.00000170
-0.60943045 0.02482806 -0.12140160
-0.01339272 0.35937652 0.00000441
-0.04079656 0.71274520 -0.00195468
-0.08698013 0.29026707 0.00000851
-0.67474164 -0.26155523 -0.09895488
-0.43519777 -0.73572028 0.00000221
-0.26339410 -0.65207069 -0.00000103
-0.26551741 0.41705141 -0.04500227
-0.29574677 -0.07910690 0.00000092
-0.35498526 -0.10287668 0.00000047
-0.19895362 0.42179821 -0.01780319
-0.40984173 -0.18945928 0.15170110
-0.22108501 -0.75716226 -0.00000117
-0.31785340 -0.69919976 -0.00000154
-0.11029688 0.12252849 0.00000396
-0.21340920 -0.10858333 0.00000130
-0.60567015 -0.75548734 0.00000291
-0.33222239 -0.00207386 0.26763635
-0.46153603 0.05548951 -0.06447885
-0.09684878 0.56618202 0.01890741
-0.52617282 -0.66327546 -0.00000266
-0.46483496 -0.17994560 -0.02480764
-0.17298918 0.38235540 0.15199326
-0.27975539 0.12461393 0.02983274
-0.66309621 0.00651171 -0.14080288
-0.06516305 -0.54182273 0.00000126
-0.43054757 -0.23945239 0.27679324
-0.03774077 -0.47031398 0.00000141
-0.32114172 0.02468101 0.16917280
-0.03580194 -0.43104800 0.00000155
-0.18124206 0.36242879 0.18563127
-0.07148191 -0.22126579 0.00000249
-0.70033638 -0.36104446 -0.09238035
-0.00700915 -0.04579636 0.00000286
-0.17763468 0.37114357 0.02107687
-0.46260008 -0.31682383 0.00739719
-0.23341799 0.23646852 0.17144995
-0.36016307 -0.44376939 0.00000297
-0.11784976 -0.65455359 -0.00000017
-0.31930971 0.12762245 -0.01717532
-0.63107435 0.09110192 -0.14207290
-0.50639091 -0.42254647 0.06396285
-0.10083197 0.49827391 0.00000426
-0.46502052 0.13998198 -0.08068158
-0.08586674 0.38699766 -0.00000070
-0.64940571 -0.76781305 0.01175440
-0.13593769 -0.71529184 -0.00000050
-0.25921960 0.17418644 0.08256984
-0.30353941 0.40885356 -0.05958241
-0.40067266 -0.16733277 0.40480748
-0.26854601 0.13630119 0.00000473
-0.21846366 -0.68889696 0.00000141
-0.10244142 -0.49529209 0.00000161
-0.05849564 0.50326652 0.00000109
-0.22601253 -0.40595645 0.00000011
-0.43294457 -0.09936256 -0.02543416
-0.48802554 -0.37821504 0.23585767
-0.27621672 0.13314539 0.16927578
-0.08999447 0.58272389 0.07418812
-0.31940401 0.02889169 0.07632694
-0.52973129 -0.53497567 -0.00000220
-0.05286278 -0.36507527 0.00000187
-0.58023079 -0.60081463 0.22678198
-0.18332723 -0.03789262 0.00000369
-0.33600368 -0.25838641 0.00000000
-0.30452191 0.06480200 0.24367678
-0.06929633 0.14954278 0.00000983
-0.46251926 -0.31663790 0.24963387
-0.13689169 0.16147137 -0.00000424
-0.25809031 0.17689666 0.27563106
-0.18359675 0.35674504 0.17507346
-0.34628609 -0.03602192 0.26786508
-0.32957912 0.00430678 0.28877165
-0.36525577 0.24377826 -0.05677688
-0.27167590 -0.10382126 0.00000384
-0.29039630 -0.64685568 -0.00000118
-0.46619432 0.07637823 -0.07008117
-0.39505252 0.14851192 -0.05270957
-0.33927424 -0.02908508 0.00000084
-0.05664173 0.31753811 0.00000445
-0.32115302 0.02465437 0.25748390
-0.14718177 -0.01666550 0.00000205
-0.07436164 0.62046531 0.06431908
-0.02775178 0.12363734 0.00000359
-0.05097483 -0.63755307 0.00000084
-0.34414249 -0.03084568 0.25278888
-0.23774461 -0.29521190 0.00000297
-0.70826626 -0.10118099 -0.14103973
-0.04091582 0.25224234 -0.00000509
-0.04364718 0.43857604 -0.00000081
-0.18729377 -0.33276862 0.00000062
-0.52513568 -0.60339383 -0.00000243
-0.03832976 -0.17266803 0.00000212
-0.05932728 0.12184624 0.00001019
-0.33299399 -0.00393597 0.30912646
-0.33813261 -0.70830128 0.00000187
-0.13556106 -0.04984667 0.00000199
-0.09054919 0.09273795 -0.00000718
-0.64426181 -0.75539527 0.05126245
-0.43471447 -0.24950333 0.04363328
-0.52594917 -0.46976732 0.14303663
-0.12151879 -0.08130956 0.00000325
-0.42516286 -0.76901617 0.00000204
-0.11651449 -0.76103356 0.00000067
-0.69837826 -0.03103500 -0.14911000
-0.17297597 0.60643259 -0.03906743
-0.33801260 0.01117343 -0.00473733
-0.45958812 -0.30955965 0.20106857
-0.13034933 0.28708790 0.00000467
-0.19633586 0.32600060 0.05461967
-0.56500687 -0.56406101 0.14217605
-0.34299099 -0.02806340 0.05266382
-0.60012949 -0.64885260 0.09017455
-0.35576265 -0.33108654 -0.00000039
-0.13236807 0.48042507 0.06988969
-0.25250092 -0.47221993 -0.00000029
-0.18102597 0.57502311 -0.03697870
-0.50459811 -0.50257665 -0.00000193
-0.76657636 -0.29580881 -0.13164704
-0.18010740 0.26884266 0.00000292
-0.26814593 0.04927561 0.00000440
-0.00051458 -0.49436718 0.00000114
-0.23964298 -0.72902202 -0.00000118
-0.06078306 -0.21076027 0.00000248
-0.30373242 0.06671235 0.12844026
-0.18363003 0.06731061 0.00000872
-0.14000962 -0.58051318 0.00000146
-0.03192463 -0.71901943 0.00000045
-0.20607029 0.47260004 -0.02966104
-0.41669307 0.34451804 -0.09600494
-0.35039486 0.15944955 -0.03581183
-0.05769366 0.53915920 0.00000467
-0.02921620 0.40472157 0.00000434
-0.34021748 0.06550397 -0.01514151
-0.10094147 0.56759015 -0.00196352
-0.29271758 0.09331446 0.10955054
-0.31342776 -0.73635592 -0.00000165
-0.06725769 0.43498836 0.00000494
-0.31206759 0.04659429 0.00118862
-0.24544958 0.20742395 0.01656640
-0.05821021 -0.47524816 0.00000148
-0.07912184 -0.34464210 0.00000207
-0.25363959 0.24492507 -0.00998043
-0.23300642 0.23745784 0.22344523
-0.24944014 -0.44803464 0.00000245
-0.36835803 -0.32104269 -0.00000043
-0.14824069 -0.62368448 0.00000133
-0.32026489 0.02680603 0.16557094
-0.29280144 -0.44821889 0.00000264
-0.32159004 0.02359628 0.29444766
-0.36035634 0.29567936 -0.06376713
-0.21468903 0.30700607 -0.00441010
-0.34779368 0.32887115 -0.06426639
-0.30626539 0.28846455 -0.03973249
-0.33675388 -0.79330234 -0.00000201
-0.18537689 0.35246137 0.00649712
-0.22735646 0.27461053 -0.00409126
-0.23939843 -0.33080518 0.00000031
-0.55890978 -0.13406671 -0.07241868
-0.33628142 -0.01187634 0.35740647
-0.13290268 0.44562163 0.00000665
-0.08126997 0.58640318 0.00000471
-0.67381829 -0.82674920 0.09049437
-0.10872172 -0.28551032 0.00000242
-0.38491432 -0.12928483 0.30185003
-0.36532253 -0.29768953 -0.00000032
-0.06210856 0.49004298 0.00000512
-0.17589662 0.37533814 0.13028685
-0.26923893 -0.51970820 -0.00000057
-0.02708955 -0.66597863 0.00000034
-0.75365012 -0.44993681 -0.09932429
-0.04034710 -0.19548784 0.00000245
-0.39191320 -0.62477832 -0.00000171
-0.10506160 0.54634913 0.06013055
-0.48922606 0.13431173 -0.08988299
-0.36866021 -0.09004530 0.33824589
-0.13551301 -0.48723873 0.00000035
-0.51756816 -0.42533527 -0.00421438
-0.24455625 0.20958828 0.05748905
-0.09789330 0.38336895 0.00000488
-0.32194115 0.02275382 0.23179762
-0.25399027 0.44833799 -0.04560542
-0.49514929 -0.39541485 0.31577527
-0.01858322 0.03573178 -0.00001064
-0.32682886 0.01094485 0.33200430
-0.69278933 -0.71942533 -0.02670034
-0.48715028 -0.37610401 0.31866427
-0.39957364 -0.79858333 -0.00000241
-0.13132920 0.48110365 0.00000540
-0.27317819 0.14047233 0.27349319
-0.45436416 -0.61070033 -0.00000203
-0.36360797 -0.25335182 -0.00000014
-0.28148664 -0.23924267 0.00000338
-0.30269822 0.06922700 0.01889986
-0.44721674 -0.27969127 0.16921299
-0.58241189 -0.60607788 0.07394647
-0.39488368 -0.63766638 0.00000240
-0.22470191 0.13712414 0.00000216
-0.04868411 -0.10382659 0.00000283
-0.36475600 -0.57350035 -0.00000135
-0.14385450 0.45269985 0.04920844
-0.10500548 -0.18947177 0.00000166
-0.28583390 0.06929475 -0.00000182
-0.51790037 -0.45033941 0.24472662
-0.21382378 -0.21980002 0.00000314
-0.16087985 0.23750404 0.00000292
-0.44951610 -0.28524231 0.16657416
-0.14771675 0.62498157 -0.03166699
-0.04349764 -0.07661503 0.00000245
-0.68778231 -0.50998555 -0.06111900
-0.00669772 0.43042188 -0.00000211
-0.01782630 -0.44676331 0.00000122
-0.49408755 -0.32129092 -0.01247347
-0.66155907 0.04898481 -0.14756304
-0.44879571 -0.28350511 0.21856906
-0.42402771 0.10682767 -0.05763963
-0.11125561 0.40133060 0.00000731
-0.55144120 0.06640815 -0.10423716
-0.55749197 -0.11966835 -0.07433281
-0.12408063 0.00503865 0.00000358
-0.50931265 -0.42960503 0.19163268
-0.27274286 0.02905882 0.00000767
-0.10565648 0.34023487 0.00000785
-0.00391174 -0.37123302 0.00000163
-0.14255378 0.04701070 0.00000950
-0.53592821 -0.49386035 0.18159694
-0.37791364 -0.11238277 0.34844053
-0.04004675 -0.25432385 0.00000223
-0.21463771 0.33337228 -0.00898679
-0.41092457 -0.19207608 0.22022552
-0.21839780 -0.23896754 0.00000079
-0.65830777 -0.43011421 -0.06263857
-0.09999637 -0.06245483 0.00000322
-0.52282344 -0.57687182 0.00000320
-0.02527701 -0.79212406 -0.00000012
-0.54382571 -0.63289672 -0.00000266
-0.34492932 -0.56546636 -0.00000120
-0.38525961 -0.18436234 0.00000405
-0.19250672 0.20896935 0.00000466
-0.41405929 -0.10843650 -0.01590011
-0.02386659 0.66814930 0.00000561
-0.05711870 0.40760526 -0.00000111
-0.24093682 -0.63408669 0.00000171
-0.32747142 0.00939884 0.19293123
-0.13708101 0.46904845 0.03235522
-0.76409796 -0.63046318 -0.07223883
-0.33711822 -0.74147889 0.00000175
-0.22859332 0.24811389 0.14021122
-0.67039769 0.01496869 -0.14535204
-0.38183550 -0.29458940 0.00000362
-0.02302094 0.66943427 0.00000561
-0.53653206 -0.49531577 0.11844862
-0.73980793 -0.62841070 -0.06236990
-0.01398022 0.33215356 0.00000416
-0.30388940 -0.20037920 0.00000362
-0.17019594 0.38910111 0.05215942
-0.57667244 -0.49756550 -0.01650287
-0.59283130 -0.67700690 0.00000314
-0.68296657 -0.35451601 -0.08620546
-0.03517827 -0.67475430 0.00000063
-0.68005474 -0.24007144 -0.10493874
-0.28305866 -0.43829260 -0.00000035
-0.57066929 -0.70684776 0.00000293
-0.16315692 -0.06093659 0.00000179
-0.17115803 -0.35829916 0.00000062
-0.45542250 -0.02378409 -0.04807936
-0.29087468 -0.31931971 0.00000005
-0.57342824 -0.39608896 -0.03283456
-0.58206926 -0.60524925 0.03610602
-0.11849929 -0.16587490 0.00000166
-0.06735447 -0.34317172 0.00000202
-0.08647142 0.14650784 -0.00000609
-0.31136809 -0.05420599 0.00000421
-0.06105224 0.16287490 0.00000324
-0.46077665 -0.19029091 -0.02129468
-0.15078495 -0.76083944 -0.00000076
-0.34287104 0.26367979 -0.05082273
-0.52656740 -0.47126298 0.26781402
-0.59223420 -0.62979096 0.07131537
-0.70163812 -0.70691569 -0.03260769
-0.01416832 0.11019013 0.00000333
-0.47960042 -0.67876576 0.00000263
-0.39344828 -0.14989020 0.39975486
-0.00908899 -0.79014685 -0.00000002
-0.29929114 0.07743425 0.13668856
-0.35483533 -0.05665816 0.05150503
-0.20698272 0.54117540 -0.04200450
-0.35615450 -0.05985047 0.24997529
-0.10323401 0.64040601 -0.01562752
-0.74368949 -0.42462706 -0.09954464
-0.15509422 0.42556000 0.11347078
-0.17859081 0.56148878 -0.03359284
-0.41724957 0.26252222 -0.08193907
-0.50564689 -0.05426336 -0.06391044
-0.03882191 -0.59059200 0.00000055
-0.29170523 -0.59881697 -0.00000101
-0.00829384 0.31178178 0.00000412
-0.13129132 -0.61371531 -0.00000009
-0.00302227 0.46757875 0.00000474
-0.11868810 0.51345181 0.09731956
-0.46250848 -0.31661486 0.32794206
-0.29728388 -0.48424149 0.00000253
-0.04563685 -0.18477337 0.00000251
-0.03701184 -0.70460851 0.00000053
-0.39274536 -0.42366037 0.00000319
-0.24584509 0.20646338 0.22047617
-0.75561066 -0.63585972 -0.06772423
-0.06007131 0.34792468 0.00000458
-0.03990194 -0.53248382 0.00000118
-0.51938023 0.21654226 -0.11692140
-0.13821774 0.55183027 -0.01490995
-0.55812003 -0.07549923 -0.08230041
-0.13649085 -0.21655140 0.00000281
-0.38182325 -0.50397444 -0.00000119
-0.41574493 0.04458264 -0.04329376
-0.22225343 -0.54191865 -0.00000037
-0.48795567 -0.37804299 0.14682517
-0.56064029 -0.55352014 0.17337028
-0.34829613 -0.27164660 -0.00000012
-0.02215670 0.41366230 -0.00000202
-0.17164346 -0.43061719 0.00000035
-0.50633586 -0.21219542 -0.03665696
-0.30190419 -0.07306868 0.00000409
-0.61660549 -0.26646958 -0.07361990
-0.34598895 0.10488203 -0.02443956
-0.28822593 -0.04114304 0.00000415
-0.07426604 0.64409328 -0.00407354
-0.42291149 0.14575389 -0.06395660
-0.67141949 -0.71867458 -0.01783387
-0.55295263 -0.40624498 -0.02244219
-0.58204668 0.16561615 -0.13442532
-0.49437485 -0.53403106 -0.00000199
-0.60014126 -0.64888152 0.12813920
-0.61537378 -0.50710231 -0.03113462
-0.54457337 0.09002201 -0.10546379
-0.23768716 0.22616146 0.08577888
-0.24813113 0.04038745 0.00000165
-0.20760286 0.27240010 0.00000277
-0.30555316 0.06232057 0.02644059
-0.37540146 0.15799035 -0.04608646
-0.21907337 -0.46078266 -0.00000005
-0.13597286 -0.64439008 0.00000120
-0.00386006 -0.73162828 0.00000027
-0.17814337 -0.22074503 0.00000110
-0.73271153 0.00399195 -0.16967445
-0.22258882 -0.06994529 0.00000375
-0.46795043 -0.24256950 -0.01519770
-0.26026961 -0.28130897 0.00000037
-0.16128097 -0.07058769 0.00000347
-0.67613591 -0.83234429 0.10839774
-0.27781198 -0.24389130 0.00000041
-0.24433415 -0.51875548 -0.00000042
-0.55254718 -0.17575823 -0.06246868
-0.62743854 -0.29918650 -0.07247523
-0.59318129 0.10714922 -0.12891690
-0.25968566 -0.51138489 -0.00000049
-0.26962714 0.14905228 0.18699977
-0.09206006 -0.50594968 0.00000152
-0.65117799 -0.04148765 -0.12741362
-0.61833923 -0.69281424 0.17005425
-0.08920903 0.25813285 0.00000437
-0.40861906 -0.36662391 0.00000347
-0.46559105 -0.32405440 0.26366099
-0.21369940 0.26634977 0.00000678
-0.47892154 -0.35622864 0.04161873
-0.20158012 0.33903677 -0.00447686
-0.37920477 -0.11549335 0.10727641
-0.22938073 0.19583097 0.00000235
-0.38236130 -0.12312100 0.29457493
-0.24829395 0.01896917 0.00000157
-0.51436287 -0.24818252 -0.03376049
-0.33901839 -0.01847275 0.05423821
-0.47737204 0.17583330 -0.09213360
-0.08873085 0.38775591 -0.00000060
-0.33188167 0.21061938 -0.03694132
-0.28434933 0.38552726 -0.04743439
-0.55524830 -0.60071948 -0.00000260
-0.20613123 0.24773357 0.00000703
-0.18017341 0.36501217 0.08338347
-0.17124028 -0.69253849 0.00000118
-0.55941063 -0.55055066 0.14736934
-0.24167211 -0.13750678 0.00000103
-0.20847688 0.26191005 0.00000689
-0.02891356 -0.09956491 0.00000245
-0.29559478 -0.25226012 0.00000339
-0.28819148 0.10423111 0.13978871
-0.08030891 -0.01870961 0.00000245
-0.43439657 -0.69998381 0.00000234
-0.29153796 -0.16429166 0.00000370
-0.47542238 -0.67401704 -0.00000240
-0.07744708 0.44026040 0.00000753
-0.48977153 -0.38242229 0.02682600
-0.04536203 0.43820680 0.00000485
-0.33854675 -0.61017725 0.00000224
-0.49953427 0.09637909 -0.08760901
-0.36152760 -0.50516690 0.00000274
-0.21432147 -0.53014561 0.00000198
-0.71084246 -0.10337676 -0.14174148
-0.36253845 0.24785788 -0.05634427
-0.08250792 0.28061253 0.00000865
-0.14465060 0.24505775 0.00000457
-0.19071925 -0.22916482 0.00000300
-0.11526191 -0.78250938 -0.00000063
-0.19437118 0.33073806 0.02056065
-0.28632326 0.10875186 0.10436475
-0.29653554 -0.09251527 0.00000400
-0.44359553 -0.27094822 0.15168761
-0.08500981 -0.68586602 -0.00000009
-0.63750062 -0.79957584 0.00000289
-0.32015597 -0.79431480 -0.00000191
-0.32273379 0.39950692 -0.06603403
-0.01148845 -0.21305481 0.00000225
-0.17389603 0.38016726 0.07916944
-0.04245928 0.40288796 0.00000834
-0.02089389 0.19920295 -0.00000689
-0.10237332 -0.13552604 0.00000296
-0.10928980 0.44953793 0.00000698
-0.01961333 -0.03218478 0.00000297
-0.31859297 0.03083449 0.16245850
-0.59605874 -0.63902573 0.19902391
-0.25303616 0.17442640 -0.00000044
-0.00953461 0.49656279 -0.00000054
-0.01028750 0.20231553 0.00000370
-0.37526635 -0.14939494 0.00000414
-0.34640445 -0.56194518 -0.00000120
-0.66309422 0.03490734 -0.14575428
-0.09309836 0.15589521 0.00000943
-0.29070664 0.09815351 0.30028333
-0.18007197 0.43587972 -0.01231051
-0.66814698 -0.30679771 -0.08828788
-0.07055491 0.09513241 -0.00000773
-0.24372713 -0.55904198 0.00000201
-0.15825356 0.40303540 0.00000184
-0.32849632 0.00693383 0.16760413
-0.22738845 -0.69916909 -0.00000099
-0.32177255 -0.09915650 0.00000069
-0.34222662 -0.04680227 0.00000437
-0.32195938 -0.28001550 0.00000341
-0.66085947 -0.62105001 -0.03041349
-0.11128059 0.42975251 0.00000394
-0.31065173 0.00786280 0.00000444
-0.18140039 0.34132675 0.00000510
-0.38380117 -0.00941041 -0.02043038
-0.24362602 0.26109027 -0.00858608
-0.42276138 0.31370243 -0.09318536
-0.55655818 -0.20388447 -0.05925224
-0.17163601 -0.19808842 0.00000303
-0.44211947 -0.26738958 0.28049766
-0.38024916 0.23914980 -0.06228406
-0.07166609 0.31496433 0.00000451
-0.32183312 0.29571555 -0.04755345
-0.52296285 -0.59841524 0.00000312
-0.27097359 0.14579393 0.28173702
-0.49778704 -0.40177522 0.07300997
-0.10871871 0.53752636 0.01481263
-0.67993195 -0.59292536 -0.04334883
-0.01338541 0.62712196 0.00000709
-0.33773432 -0.01536124 0.08230891
-0.39946311 0.27606230 -0.07681158
-0.69540543 -0.23124356 -0.11294166
-0.14251820 0.45592279 0.00877081
-0.28955683 -0.64180851 0.00000190
-0.00547185 0.60467014 0.00000523
-0.03002991 -0.53092152 0.00000114
-0.44234500 -0.44442167 -0.00000134
-0.17952526 -0.75437320 0.00000098
-0.25188329 0.19709215 -0.00090140
-0.22306482 0.52139936 -0.04532716
-0.14136364 -0.21482904 0.00000283
-0.01906501 -0.29524544 0.00000198
-0.21291177 0.06457492 0.00000421
-0.60721761 -0.37659860 -0.05046053
-0.14739336 0.18420477 0.00000839
-0.06287911 0.24883576 0.00000355
-0.12492457 0.49839403 0.10274805
-0.47109039 -0.33733296 0.32056271
-0.49518238 -0.39548762 0.08918530
-0.30481476 -0.56386562 0.00000227
-0.30171854 -0.63007924 0.00000200
-0.35546532 -0.60904292 0.00000233
-0.69644468 -0.01045922 -0.15188432
-0.54884407 -0.01653473 -0.08867830
-0.23057312 -0.13459631 0.00000354
-0.14752383 0.63679213 -0.03364569
-0.56538711 -0.56497968 0.17014496
-0.09444213 0.60228920 -0.00527770
-0.64082814 0.10603115 -0.14878336
-0.21494333 0.28107271 0.13169524
-0.44775955 -0.55795837 0.00000293
-0.45289264 0.11853011 -0.07183397
-0.34829777 -0.04086640 0.12147363
-0.46297471 0.17622803 -0.08614039
-0.05472398 0.34675590 -0.00000255
-0.65241537 -0.77507924 0.08281832
-0.20933809 0.29460421 0.03408886
-0.01214483 0.68234764 0.00000670
-0.20732904 -0.21614408 0.00000313
-0.27909713 0.12618168 0.27517933
-0.02090505 0.37198522 0.00000427
-0.76918504 -0.36048296 -0.12146601
-0.47477137 -0.34620828 0.01662594
-0.39210982 -0.19445334 -0.00000010
-0.27606066 0.32979759 -0.03422357
-0.57272826 -0.38044216 -0.03526866
-0.40278406 0.05819980 -0.04021151
-0.31210275 0.04650107 0.22107957
-0.53649599 -0.51515161 0.00000350
-0.29519758 -0.51520586 -0.00000071
-0.02170130 0.30383528 0.00000401
-0.32817462 -0.66378861 -0.00000147
-0.12157211 -0.54566391 0.00000150
-0.24228884 0.21505075 0.19638587
-0.55366240 -0.27855121 -0.04501101
-0.15301795 -0.56084641 -0.00000003
-0.34998259 -0.58057252 -0.00000129
-0.27782849 -0.18341189 0.00000357
-0.24866377 0.03125094 -0.00000379
-0.37235122 -0.09623709 -0.00046675
-0.19061858 0.33979194 0.17067313
-0.30039514 0.26167420 -0.03258828
-0.18703011 0.47951610 -0.02285044
-0.24292104 0.21351934 0.25443440
-0.22638329 -0.12673310 0.00000355
-0.25513897 0.18403373 0.13146795
-0.09941050 0.23751371 0.00000872
-0.24860220 0.19981030 0.18345445
-0.11390033 0.52501143 0.03692435
-0.27516311 -0.09095772 0.00000390
-0.19922329 0.31903254 0.02239979
-0.21655403 0.27718026 0.11563920
-0.10433303 -0.13134691 0.00000188
-0.51810961 -0.45083719 0.04463453
-0.26159062 0.16845987 0.11318576
-0.19751983 -0.23148802 0.00000303
-0.67157623 0.04345950 -0.15081709
-0.10434585 -0.72087054 -0.00000033
-0.33982028 -0.42050895 0.00000296
-0.39152995 -0.14524907 0.10896046
-0.34476791 -0.17264924 0.00000027
-0.14801150 0.15146975 -0.00000413
-0.60695639 -0.66533430 0.13344922
-0.19943466 0.31850640 0.21472774
-0.31061598 0.07683998 -0.00465480
-0.21350645 -0.43261090 0.00000009
-0.11515079 0.52199022 0.09790632
-0.05196955 0.43253888 0.00000486
-0.60687401 -0.20880388 -0.07957949
-0.34027039 -0.02150571 0.34915056
-0.16261696 0.40740150 0.08108719
-0.61447779 0.14351275 -0.14422552
-0.30539016 0.06270740 0.20253657
-0.68568099 -0.57718598 -0.04851440
-0.32158946 -0.01683546 0.00000439
-0.25293798 0.50708548 -0.05540852
-0.12098917 0.43296576 0.00000389
-0.45831051 0.24386914 -0.09597382
-0.04909887 0.52781489 0.00000136
-0.58830399 -0.62030364 0.09889551
-0.28342709 -0.07912248 0.00000099
-0.12171080 -0.46187644 0.00000182
-0.43952474 -0.26112208 0.19419279
-0.42128805 -0.21708993 0.06659926
-0.19793716 -0.36731443 0.00000043
-0.13472668 -0.42912758 0.00000200
-0.20115583 0.31436572 0.03846082
-0.09171667 0.25516848 0.00000437
-0.42815168 0.19495791 -0.07474469
-0.08241449 0.24551938 -0.00000399
-0.07096207 0.47166476 0.00000434
-0.12573650 0.31274276 0.00000474
-0.56045278 -0.55306744 0.17579453
-0.19084162 0.21224240 0.00000466
-0.04979828 -0.70253868 0.00000006
-0.61536278 -0.41111319 -0.04787062
-0.60776975 -0.66729670 0.06031187
-0.58164619 -0.18969237 -0.07229053
-0.36677723 -0.76764129 -0.00000209
-0.36597994 -0.74292334 0.00000187
-0.45048169 0.09154930 -0.06611336
-0.30715164 -0.28258501 0.00000009
-0.33228672 -0.71429963 -0.00000168
-0.12728325 0.19012332 0.00000429
-0.37513652 -0.10567514 0.19749683
-0.31972789 -0.16790875 0.00000044
-0.61313142 -0.68024179 0.15771991
-0.14222473 -0.24093994 0.00000124
-0.43017048 -0.78727950 0.00000199
-0.09471174 -0.00289067 0.00000342
-0.09293551 0.48024101 0.00000424
-0.40231630 0.19172156 -0.06330376
-0.28660770 0.10806871 0.06161554
-0.02442981 -0.24372731 0.00000194
-0.03044898 0.72648134 0.03037658
-0.15710802 0.42070709 0.00729049
-0.13014960 0.24557442 0.00000819
-0.12932253 0.31175452 0.00000771
-0.44404967 -0.27205203 0.34723806
-0.28420476 0.11385932 0.18870204
-0.42629558 0.31608572 -0.09508939
-0.28303259 0.11669625 0.10234941
-0.37284803 -0.10015097 0.21641414
-0.26330453 0.16430974 0.24040199
-0.28838627 -0.15948542 0.00000371
-0.54367988 -0.51257510 0.20214810
-0.38032975 -0.11821760 0.37204367
-0.30843375 -0.63298680 -0.00000124
-0.19709041 0.32417230 0.13603542
-0.27276863 0.14146004 0.27507620
-0.04486512 -0.16571849 0.00000211
-0.14505350 0.38231816 0.00000098
-0.25305863 -0.36285683 0.00000278
-0.18044817 0.56711268 -0.03535612
-0.27494987 0.13620546 0.14882692
-0.40677390 -0.18205396 0.18014086
-0.50458073 -0.41818020 0.16636029
-0.17557380 -0.46253158 0.00000206
-0.37861277 -0.11406611 0.15913738
-0.34207872 -0.02586479 0.26992728
-0.74095485 -0.57061933 -0.07293178
-0.29995736 0.07582408 0.18375480
-0.13312919 0.29539648 -0.00000134
-0.10650016 -0.17818359 0.00000169
-0.26029343 -0.67218782 -0.00000109
-0.43722285 -0.75674879 0.00000214
-0.14596374 0.44760911 0.03314674
-0.75597674 -0.53358248 -0.08571582
-0.42697328 -0.23081481 0.05356654
-0.35057293 -0.04636885 0.07872195
-0.12031697 0.03517553 0.00000992
-0.32759917 -0.30429439 0.00000334
-0.03137998 -0.55506394 0.00000073
-0.18987267 0.34159231 0.19476398
-0.72997099 -0.26247786 -0.12204799
-0.35420198 0.35907127 -0.07223151
-0.28029106 0.08249275 0.00000458
-0.64266241 -0.60266166 -0.02595867
-0.16363230 -0.23301493 0.00000114
-0.35502407 0.22329938 -0.04889705
-0.53451278 0.17142042 -0.11542330
-0.05849832 -0.32981343 0.00000203
-0.05633285 0.15691782 0.00000997
-0.12574378 -0.68140161 -0.00000031
-0.34893693 -0.51208367 0.00000266
-0.07776428 -0.42241227 0.00000177
-0.21992032 -0.55676624 -0.00000042
-0.32210335 0.24062245 -0.03805892
-0.13815982 0.42917300 0.00000378
-0.43515616 -0.77307915 0.00000207
-0.26274099 0.13579601 -0.00000102
-0.53897035 -0.30365939 -0.03444610
-0.38154777 0.33345486 -0.07927777
-0.60799797 0.02439339 -0.12072265
-0.39873318 -0.16263926 0.11009218
-0.40106185 -0.22974031 -0.00000028
-0.14196435 0.13597184 0.00000265
-0.44828671 -0.30358196 0.00000389
-0.37447477 -0.10408081 0.28350144
-0.71299242 -0.36647634 -0.09676178
-0.04009679 0.30962744 0.00000434
-0.10200779 0.54142613 0.00000326
-0.63054829 0.09102395 -0.14183780
-0.36022501 -0.70828012 -0.00000183
-0.09336784 0.09784819 0.00000280
-0.20762301 0.43101284 -0.02306193
-0.18788407 -0.28964449 0.00000078
-0.01109788 0.71650919 0.00000446
-0.71805614 -0.00573335 -0.16180755
-0.04217272 0.35490109 0.00000452
-0.69923101 -0.08213296 -0.14055749
-0.15509152 -0.47023358 0.00000030
-0.18709572 0.02361650 0.00000900
-0.01496111 0.72223039 0.00000562
-0.34484762 -0.21995125 0.00000009
-0.14058671 0.46058374 0.11112908
-0.45388421 -0.29578420 0.06943347
-0.18166754 0.56607716 -0.03568856
-0.35969894 0.29996328 -0.06423746
-0.02732077 0.75164726 -0.00306574
-0.25038962 -0.19352454 0.00000341
-0.47587189 -0.34886967 0.13458469
-0.54934639 -0.52625093 0.08173160
-0.21462975 -0.54586148 -0.00000034
-0.01123473 0.27199680 0.00000407
-0.39232920 -0.23825051 0.00000388
-0.08605897 0.05788552 0.00000270
-0.34505521 0.09331552 -0.02203215
-0.30158678 -0.32710553 0.00000314
-0.26409875 0.16239805 0.19550046
-0.02557168 -0.10705641 0.00000244
-0.05084478 -0.63971415 0.00000083
-0.25527802 0.18369442 0.17531203
-0.00777235 0.48544968 -0.00000084
-0.56379308 -0.72143392 -0.00000311
-0.58624134 -0.10933239 -0.08824018
-0.54350309 -0.74408279 -0.00000307
-0.21174439 0.16512038 0.00000458
-0.02112343 0.52385173 0.00000775
-0.21648917 -0.11687375 0.00000126
-0.70888299 -0.70864942 -0.03535564
-0.59825726 -0.64432982 0.01644575
-0.43241506 0.12292752 -0.06397891
-0.34549115 -0.22566956 0.00000372
-0.52213922 -0.46057267 0.26817143
-0.31452073 0.04066076 0.31908436
-0.12617274 0.49538016 0.11633896
-0.60757031 -0.73764213 -0.00000343
-0.00055373 0.72133335 0.00000570
-0.00794981 0.53540021 0.00000496
-0.46031486 -0.31131377 0.19106314
-0.43345765 -0.24646846 0.02740973
-0.31965186 -0.46707490 -0.00000068
-0.06567050 0.25588286 0.00000909
-0.14409843 -0.26175939 0.00000115
-0.77756838 -0.69709463 -0.06628958
-0.06492231 -0.51175127 0.00000137
-0.06905280 0.52074792 0.00000527
-0.24038234 0.11045698 0.00000754
-0.18903359 0.27075250 0.00000487
-0.56620166 -0.02933770 -0.09375377
-0.22819025 0.08724733 0.00000436
-0.44744351 0.23569747 -0.08997379
-0.47707767 0.17839151 -0.09245584
-0.33872267 -0.54734526 0.00000248
-0.41001658 0.20260538 -0.06844263
-0.25531212 0.00745434 0.00000418
-0.06468046 0.54592913 0.00000466
-0.09644727 -0.52807720 0.00000146
-0.56981935 -0.04392773 -0.09273245
-0.17319107 0.38186790 0.11326870
-0.21833391 -0.45936157 0.00000227
-0.37758669 -0.14745601 0.00000017
-0.29771160 -0.25772315 0.00000024
-0.14437134 -0.23588767 0.00000124
-0.07366835 0.29492811 -0.00000314
-0.29939036 0.07719740 0.06603814
-0.19018492 0.34084120 0.10974670
-0.18699071 -0.52908339 0.00000186
-0.00651501 0.17624105 0.00000369
-0.40201410 -0.17056728 0.29908027
-0.46295785 -0.31769676 0.24977997
-0.18704190 0.19747886 0.00000770
-0.06702478 0.19965797 0.00000949
-0.25684693 0.47474992 -0.05141521
-0.09142277 -0.02368898 0.00000333
-0.29346008 -0.42766650 -0.00000037
-0.31599835 0.03709997 0.24098888
-0.33610487 -0.01144991 0.35493161
-0.41793902 -0.61956889 0.00000257
-0.04876476 -0.25277598 0.00000227
-0.67550194 -0.63016296 -0.03498931
-0.07597726 0.30912096 0.00000450
-0.36028049 -0.06980303 0.02715274
-0.20601707 0.30262276 0.01033941
-0.51404498 -0.44103164 0.23779299
-0.08506855 -0.02418002 0.00000240
-0.67728331 -0.83511430 0.10547711
-0.06305302 -0.51804431 0.00000068
-0.50665963 -0.57597005 0.00000313
-0.49924000 -0.40528632 0.16089889
-0.56839032 0.16306156 -0.12822998
-0.53493926 -0.64484699 0.00000300
-0.04531062 0.08547306 0.00001068
-0.12333475 0.19383049 0.00000869
-0.18986678 0.20782264 -0.00000159
-0.13644913 -0.36151724 0.00000226
-0.60718648 -0.11019838 -0.09690799
-0.45309585 -0.29388926 0.28896666
-0.72415438 -0.64977347 -0.05205353
-0.32903085 0.00563570 0.26079689
-0.01766598 0.75734319 0.00228421
-0.44200452 -0.26710814 0.17699352
-0.32584994 0.00101465 0.00000448
-0.25511475 0.12314736 0.00000192
-0.26676718 0.15594989 0.26973687
-0.37274667 -0.09991195 0.38616566
-0.67301042 -0.52767141 -0.05181494
-0.66150504 -0.19814518 -0.10444048
-0.74606075 -0.74503343 -0.04466319
-0.10435599 0.56893300 -0.00363430
-0.16083185 -0.14625635 0.00000148
-0.30089622 -0.33859902 -0.00000009
-0.30169432 -0.35412909 0.00000304
-0.02012962 0.05656825 0.00000330
-0.51037601 -0.52801701 -0.00000206
-0.57183443 -0.69230629 0.00000299
-0.10048921 -0.71484306 0.00000077
-0.29191813 0.09524039 0.15908531
-0.01592826 0.68751089 0.00000548
-0.35363489 0.22232698 -0.04814253
-0.19937926 0.02462211 0.00000189
-0.27966231 0.35086269 -0.03941403
-0.04018270 0.19861499 0.00000393
-0.16904990 0.32211084 0.00000035
-0.03546130 0.66459998 0.00000648
-0.15454884 0.51005261 -0.01449886
-0.24096063 0.16499156 0.00000471
-0.69753117 -0.01215079 -0.15204615
-0.05544088 0.66614561 0.04349930
-0.36246228 0.26922964 -0.06003966
-0.57371829 -0.42247462 -0.02835499
-0.40924173 -0.60553114 0.00000258
-0.46045037 -0.27734229 -0.00597542
-0.00948039 0.42188702 0.00000869
-0.19114324 -0.41964670 0.00000229
-0.16369363 -0.55708901 -0.00000008
-0.44971769 -0.28573027 0.20006050
-0.43286434 -0.24504928 0.37505223
-0.47375906 -0.05121513 -0.05101586
-0.62015714 -0.49982670 -0.03441750
-0.34584970 -0.03496644 0.24415665
-0.11376417 -0.41877131 0.00000194
-0.41999476 -0.74233419 -0.00000232
-0.17042892 0.38853822 0.06338469
-0.64915872 -0.61277840 -0.02692953
-0.24103896 0.13452124 0.00000205
-0.14787968 -0.00643991 0.00000365
-0.04364194 0.20307275 -0.00000611
-0.28362013 -0.62658066 -0.00000106
-0.44828662 -0.28227913 0.29940004
-0.57496448 -0.54874626 -0.00685774
-0.60225497 -0.67449849 0.00000320
-0.11423546 0.61826585 -0.01639825
-0.26327109 0.16439070 0.23450931
-0.21169381 0.30321825 -0.00248838
-0.28618684 0.10907513 0.17815057
-0.04429557 -0.42268321 0.00000162
-0.42725267 -0.30740127 -0.00000073
-0.68257889 -0.22567279 -0.10851266
-0.24839295 -0.70649878 -0.00000115
-0.05676902 -0.68951919 0.00000007
-0.56001838 -0.52187240 -0.00525161
-0.01689185 0.11204612 -0.00000897
-0.31453813 0.04063237 0.15358240
-0.30706811 -0.04635980 0.00000097
-0.13021957 0.21696226 0.00000440
-0.05541340 0.47043844 0.00000443
-0.42599188 -0.22845391 0.27531061
-0.41529806 0.11619377 -0.05559752
-0.03747663 -0.50569675 0.00000088
-0.28354751 -0.56828255 -0.00000084
-0.08496137 -0.40670403 0.00000096
-0.12878623 0.48908082 0.00505977
-0.43749434 0.06269573 -0.05561056
-0.25899752 -0.35750163 0.00000010
-0.09815149 0.67615369 -0.01972227
-0.17469389 -0.12841705 0.00000331
-0.30291791 -0.17385525 0.00000052
-0.13637228 -0.62189632 0.00000129
-0.13197874 -0.00847004 0.00000357
-0.26187762 0.16776094 0.07384046
-0.24368147 0.21168723 0.15651770
-0.08389253 0.54776172 0.00000455
-0.12427608 0.49996308 0.07788513
-0.17871067 -0.22941638 0.00000295
-0.40909024 -0.32139822 0.00000365
-0.75829786 -0.06275375 -0.16880702
-0.21446987 -0.70280155 -0.00000093
-0.32346163 -0.31302163 0.00000329
-0.30094145 -0.37671415 0.00000295
-0.41778890 0.30841812 -0.09017004
-0.40496130 -0.17767494 0.10135427
-0.06282815 0.52061038 0.00000161
-0.22630058 0.25364637 0.21095279
-0.30580459 -0.15343360 0.00000381
-0.12151063 0.09934893 0.00000392
-0.51558085 -0.44473977 0.30313264
-0.15577320 0.34690508 0.00000336
-0.63432911 -0.66932142 -0.01082442
-0.30483409 -0.27302657 0.00000014
-0.04381678 -0.50761488 0.00000129
-0.04472717 0.69201120 0.01387182
-0.76425893 -0.13963325 -0.15790881
-0.24594955 0.20621582 0.04531291
-0.03799033 0.67918069 0.00000532
-0.29607118 0.18725718 -0.01779124
-0.68228290 -0.57775130 -0.04698506
-0.18554310 0.02855269 0.00000899
-0.45550653 -0.17175994 -0.02230755
-0.58090188 -0.32642901 -0.04813008
-0.16521087 0.42396208 -0.00397307
-0.12859087 0.48954369 0.07928107
-0.13539351 0.47312055 0.08189266
-0.25746839 0.17840088 0.20271231
-0.24905240 -0.24384862 0.00000058
-0.34193031 -0.35011297 0.00000323
-0.07383391 0.00836755 -0.00000958
-0.40322604 -0.54623175 0.00000278
-0.15996918 -0.48630137 0.00000190
-0.19213886 0.33612033 0.20689482
-0.15696195 0.25373618 -0.00000155
-0.50559680 -0.42063674 0.27025813
-0.43102724 -0.51233228 0.00000303
-0.35251121 -0.42017845 0.00000302
-0.55634089 0.05330678 -0.10401387
-0.16839287 0.39346406 0.00148320
-0.72224561 -0.26849574 -0.11774574
-0.74220878 -0.74202643 -0.04356581
-0.30559477 0.06220897 0.32576205
-0.52350400 -0.73063672 0.00000263
-0.40871437 -0.75511820 0.00000202
-0.75193664 -0.36521514 -0.11337857
-0.14430902 0.50009179 -0.00845007
-0.17379055 0.31964104 0.00000698
-0.10316468 -0.73876396 -0.00000039
-0.18339645 -0.46513471 0.00000015
-0.12396935 -0.63363938 -0.00000012
-0.07114962 -0.37392658 0.00000192
-0.30701946 0.17712843 -0.02063448
-0.23883238 0.43748167 -0.03733064
-0.43305064 -0.29745949 -0.00000073
-0.63893116 -0.53039105 -0.03699174
-0.55590096 -0.04000876 -0.08755567
-0.61311513 0.09017301 -0.13434876
-0.46074033 -0.52016818 -0.00000173
-0.11494635 0.50386299 0.00000541
-0.26603381 0.15772562 0.20597100
-0.30098028 0.07335515 0.25267925
-0.54101591 -0.50613709 0.02207967
-0.48090227 0.10131419 -0.08062479
-0.53719417 0.07023418 -0.09890438
-0.09999482 0.34617993 0.00000789
-0.24885848 -0.65332465 0.00000168
-0.41783549 0.34696396 -0.09691252
-0.16972505 0.39023996 0.09826381
-0.07627470 -0.31054495 0.00000218
-0.10203599 0.51847715 0.00000657
-0.49118583 0.03529793 -0.07344130
-0.20993287 0.19339066 -0.00000131
-0.27339203 0.13996016 0.13982585
-0.35236644 0.21421499 -0.04619363
-0.29108766 0.09724806 0.12550530
-0.55168185 -0.53189010 0.10432323
-0.25905387 -0.74137602 -0.00000134
-0.10234967 0.36777669 0.00000770
-0.16889751 0.39224018 0.06942882
-0.22348237 0.26045145 0.17655263
-0.27215580 0.14294284 0.18850658
-0.18736258 0.27735784 0.00000489
-0.26765940 0.00546817 -0.00000380
-0.15569500 0.15614194 0.00000265
-0.08671591 -0.13670733 0.00000288
-0.34663233 -0.04032077 0.00000076
-0.27182666 0.33673675 -0.03365109
-0.32887486 0.00600778 0.26851368
-0.33193347 -0.00137034 0.24420407
-0.12585444 0.43329026 0.00000387
-0.54369459 0.05319742 -0.09867002
-0.16352170 0.13661674 0.00000253
-0.28310176 0.11652974 0.09648024
-0.16392947 -0.14396212 0.00000320
-0.08211873 -0.59113696 0.00000029
-0.06378878 0.57807206 0.00000546
-0.00675598 -0.72286345 0.00000025
-0.16964825 0.06670105 0.00000894
-0.00496759 -0.23142669 0.00000210
-0.43659563 -0.25404497 0.04706967
-0.14082230 -0.26629169 0.00000264
-0.03553571 0.05388982 0.00000336
-0.35048534 -0.04616664 0.32229706
-0.29228689 0.27176242 -0.03093571
-0.12576860 0.49635798 0.06032075
-0.30453675 -0.64198456 -0.00000125
-0.39480263 0.02014378 -0.03021353
-0.63230558 -0.33644709 -0.06802617
-0.41937409 -0.21247244 0.15165983
-0.11278335 0.19926456 0.00000426
-0.67609828 0.05615518 -0.15493501
-0.23449468 0.01148596 0.00000410
-0.34091710 -0.64205130 0.00000214
-0.62353779 -0.39747551 -0.05369109
-0.42768321 -0.05832755 -0.03037546
-0.28159489 -0.34716681 -0.00000000
-0.32164369 0.02346376 0.31103337
-0.18959579 0.25507870 0.00000281
-0.37116260 -0.73296468 -0.00000199
-0.60764143 -0.66698749 0.07549975
-0.45189182 -0.38696798 -0.00000118
-0.18236799 0.17351436 0.00000448
-0.16637228 -0.27437548 0.00000272
-0.24968225 0.19720044 0.14645434
-0.40220108 -0.51390184 0.00000289
-0.36534560 0.02455445 -0.01858328
-0.01009138 0.21595661 0.00000386
-0.10274251 0.25718323 0.00000334
-0.08604503 0.59226109 0.01120999
-0.19001943 -0.32734269 0.00000063
-0.12688810 0.59258833 -0.01724728
-0.14011131 -0.74089982 0.00000086
-0.22929452 0.24643506 0.02815792
-0.47650291 -0.35038874 0.02038979
-0.09888092 0.47405818 0.00000165
-0.75385427 -0.01218139 -0.17575597
-0.04976307 0.66290936 0.00000519
-0.07137129 0.26841309 0.00000433
-0.29797604 -0.71910278 -0.00000150
-0.51870267 -0.51111343 -0.00000205
-0.00032180 -0.03409533 0.00000287
-0.04460065 -0.68353196 0.00000064
-0.12528062 -0.45364106 0.00000054
-0.18164702 0.36145068 0.19113192
-0.60332631 0.02939117 -0.11962729
-0.02920853 0.73273609 -0.00056244
-0.00395599 -0.14252696 0.00000244
-0.63494948 -0.14092854 -0.10323807
-0.35900641 -0.06672967 0.09448226
-0.42713618 0.17812783 -0.07138328
-0.10257977 -0.12308514 0.00000192
-0.71598731 -0.47778832 -0.07860965
-0.53136136 -0.40972386 -0.01274458
-0.52690380 -0.50767226 0.00000348
-0.12600399 0.06618716 -0.00000671
-0.07772867 -0.15917437 0.00000193
-0.51369336 0.03067464 -0.08210967
-0.67273476 -0.82413340 0.12369787
-0.14225170 0.36881892 0.00000503
-0.04475544 0.41288678 0.00000823
-0.19007013 -0.01159355 0.00000382
-0.09568548 -0.66867835 0.00000093
-0.32785187 0.00848638 0.03442288
-0.30917915 0.05356733 0.00861206
-0.30323114 0.06793697 0.06099431
-0.11459119 0.39937350 0.00000381
-0.69278937 -0.23985116 -0.11033900
-0.01203040 0.70621825 0.00000558
-0.24740898 0.18917852 0.00000483
-0.22123736 -0.32980729 0.00000043
-0.03492099 0.62273177 0.00000680
-0.38976687 -0.37869956 0.00000334
-0.34610456 -0.17099546 0.00000393
-0.06497417 -0.37335917 0.00000121
-0.14788125 0.29178280 0.00000320
-0.39706551 -0.15861552 0.17250921
-0.25829281 0.17641416 0.10808464
-0.04961725 0.28177095 0.00000914
-0.33570879 -0.51342441 0.00000259
-0.38209545 -0.00124913 -0.02113553
-0.20533711 0.37133595 -0.01169174
-0.11807010 -0.48393408 0.00000047
-0.44563998 -0.75496872 0.00000219
-0.22755591 -0.32618907 0.00000040
-0.48303163 -0.48693535 -0.00000174
-0.00706330 -0.71271682 0.00000028
-0.08369626 -0.39246909 0.00000191
-0.12121971 -0.51023234 0.00000164
-0.04097106 -0.31732432 0.00000200
-0.08159565 -0.60553524 0.00000110
-0.04752331 0.68526078 0.01283103
-0.10610333 0.18604128 0.00000900
-0.59413448 -0.66394652 -0.00000308
-0.15188651 0.43330516 0.02193055
-0.28201977 0.11913908 0.13007815
-0.02825266 0.10171796 0.00000351
-0.16494703 0.21218069 0.00000280
-0.44919797 -0.29269556 0.00000394
-0.61037833 -0.67128430 -0.00039775
-0.03187151 -0.37737538 0.00000173
-0.19345847 -0.08648277 0.00000151
-0.17875983 0.03358124 -0.00000585
-0.37762958 -0.11169497 0.32378679
-0.19552872 0.55978099 -0.04042676
-0.27680211 0.13173170 0.02949120
-0.01005708 -0.34868838 0.00000163
-0.00169294 0.79590563 0.00041498
-0.37054500 -0.09458759 0.12805726
-0.14811987 0.23201280 0.00000298
-0.57825568 -0.59604525 0.10969519
-0.27381106 0.10345324 0.00000174
-0.35098107 0.37625803 -0.07387276
-0.02463592 -0.45060243 0.00000116
-0.02184465 0.06419019 -0.00000990
-0.01202370 0.56362128 0.00000759
-0.09831430 -0.77235165 0.00000055
-0.39044916 -0.35805828 -0.00000070
-0.52197038 0.21432237 -0.11762507
-0.19324844 0.00907618 0.00000902
-0.16886468 0.39232118 0.04807132
-0.11914759 0.37571926 0.00000369
-0.24201357 0.21572839 0.03738416
-0.33955987 -0.37081264 -0.00000044
-0.46660984 -0.32650915 0.13656572
-0.43477955 -0.24293290 -0.00116791
-0.07383606 0.39356539 0.00000793
-0.33165177 0.13358310 -0.02340859
-0.14129508 -0.02580279 0.00000354
-0.44695971 -0.27906806 0.09867299
-0.04147340 -0.44761359 0.00000107
-0.36584415 -0.01842050 -0.01129830
-0.30576530 -0.23507697 0.00000350
-0.59346756 -0.63277019 0.13527710
-0.07711116 -0.38483224 0.00000191
-0.16814940 0.36484234 0.00000673
-0.22644613 0.01537977 0.00000847
-0.19454406 -0.69280366 -0.00000077
-0.51590553 0.23845007 -0.11927931
-0.29971957 0.07639679 0.21901065
-0.07245423 0.11855081 -0.00000715
-0.33652614 -0.01245167 0.16968018
-0.36200449 -0.07396849 0.11591122
-0.57631613 -0.59136400 0.15261236
-0.26021579 0.05495281 0.00000766
-0.77227472 -0.63083736 -0.07561624
-0.52106931 0.10693149 -0.09851533
-0.67118074 -0.53434200 -0.04988120
-0.57480891 -0.25423167 -0.05815599
-0.09539370 -0.45112266 0.00000073
-0.37688881 -0.10991207 0.36918844
-0.11376176 -0.37976846 0.00000089
-0.58862979 -0.62108953 0.08180268
-0.20013555 0.49222723 -0.03058526
-0.20414573 -0.58316502 0.00000174
-0.06738035 0.18593744 0.00000959
-0.69056832 -0.44832384 -0.07304592
-0.05080886 0.37093627 0.00000408
-0.31112477 -0.73199478 -0.00000162
-0.48669096 0.06023995 -0.07589868
-0.42124956 -0.40624141 -0.00000107
-0.09154362 0.09610494 0.00000281
-0.29089972 0.09769656 0.04138866
-0.60330402 0.01819985 -0.11766488
-0.38007922 -0.73803835 -0.00000206
-0.33703424 -0.01368488 0.11472344
-0.63424492 -0.73121299 0.10333893
-0.13765887 0.46765057 0.12904802
-0.07308425 0.14923901 -0.00000644
-0.45728898 -0.61281426 0.00000277
-0.42584365 -0.22810043 0.39944504
-0.07087721 -0.28569175 0.00000150
-0.01513667 0.28639790 -0.00000510
-0.37250101 -0.09931038 0.14275964
-0.18037759 0.36451821 0.11035646
-0.16122762 -0.42399901 0.00000044
-0.29934277 0.07732692 0.02740538
-0.41680099 -0.42257423 0.00000330
-0.53250427 0.10751153 -0.10343236
-0.25552817 -0.21707813 0.00000334
-0.46290364 -0.31756833 0.31392629
-0.19492029 0.32940608 0.18693695
-0.05294438 0.43830749 0.00000488
-0.33018830 -0.49128579 0.00000265
-0.03542950 0.67729813 0.00000639
-0.24104549 -0.32174735 0.00000288
-0.11915172 0.19425154 -0.00000403
-0.43192229 -0.01663485 -0.03943156
-0.38709566 -0.16595290 0.00000004
-0.04984424 0.67348202 0.00000575
-0.16355059 0.30031252 0.00000314
-0.32111081 0.34191784 -0.05530707
-0.68808967 -0.16133954 -0.12205275
-0.68665059 -0.11360686 -0.12977148
-0.46867232 0.04649730 -0.06591530
-0.25874512 0.03293500 0.00000429
-0.33372490 -0.00570002 0.23568967
-0.40419533 0.11574877 -0.05084287
-0.02958964 -0.30186762 0.00000200
-0.30167661 -0.79203274 0.00000140
-0.06639853 0.69126915 -0.00898885
-0.52752852 -0.56261260 -0.00000229
-0.60871172 -0.27587870 -0.06865531
-0.02948388 0.72881351 0.00297203
-0.10155328 -0.08877384 0.00000313
-0.33494171 -0.54084084 -0.00000105
-0.03028557 -0.39151721 0.00000167
-0.38579502 0.30382251 -0.07589813
-0.56734988 -0.60821306 0.00000329
-0.11258672 0.29622856 -0.00000194
-0.58729137 -0.61785994 0.19051507
-0.16673933 -0.61841882 0.00000144
-0.48952231 -0.15361293 -0.03979457
-0.28839787 0.05045832 0.00000449
-0.08762009 0.41266085 0.00000402
-0.10725731 0.50695441 0.00000425
-0.00199894 0.06954808 0.00000327
-0.11750256 0.46692087 0.00000673
-0.28991369 0.10007767 0.02547389
-0.74784226 -0.56504454 -0.07680386
-0.28471597 0.00288204 0.00000768
-0.63670538 0.06873110 -0.14054184
-0.76816880 -0.31590806 -0.12881213
-0.06564857 -0.24978533 0.00000236
-0.50656336 -0.20287747 -0.03837781
-0.23270991 0.33741432 -0.01730093
-0.24445700 0.09393031 0.00000188
-0.31749992 0.34403454 -0.05415482
-0.31250258 0.04554479 0.17489657
-0.58398279 -0.00533809 -0.10542433
-0.34259360 -0.59691272 -0.00000131
-0.25385263 -0.50998273 0.00000224
-0.09436241 0.16627616 -0.00000541
-0.32143980 -0.56488879 -0.00000106
-0.20064305 0.50091413 -0.03231394
-0.10371566 0.16012027 -0.00000527
-0.24484699 0.20887862 0.15189075
-0.31523580 0.03893985 0.15160294
-0.12284453 0.04184903 -0.00000735
-0.45619362 0.22589439 -0.09194751
-0.12299836 0.23265593 -0.00000305
-0.30366443 0.03119728 0.00000128
-0.32499155 0.01538083 0.32363361
-0.43191435 -0.24274272 0.03045680
-0.49736600 -0.47092477 0.00000349
-0.26335275 -0.19291488 0.00000347
-0.51362304 -0.44000956 0.14735649
-0.67143636 -0.18763766 -0.11045454
-0.40654089 -0.18149112 0.17222032
-0.34704150 -0.03785187 0.30694351
-0.14702748 -0.48035164 0.00000031
-0.00044472 0.64270218 0.00000541
