ply
format ascii 1.0
element vertex 1408
property float x
property float y
property float z
end_header
-0.27110809 0.54945709 0.00000000
0.07035146 0.40157187 0.00000000
-0.58334416 0.72968052 0.00000000
-0.76444519 0.09271682 0.00000000
-0.75689925 -0.58597820 0.00000000
-0.20639869 0.30692493 0.00000000
-0.01981826 -0.05786611 0.00000000
-0.72334355 -0.30603303 0.00000000
-0.23564428 0.47824644 0.00000000
0.04810740 -0.15338002 0.00000000
0.13264743 -0.37376203 0.00000000
0.11731341 -0.58342784 0.00000000
0.54198907 -0.70906433 0.00000000
-0.56603459 0.54147644 0.00000000
-0.15950744 0.37777119 0.00000000
-0.09651133 -0.47806536 0.00000000
0.27545058 0.15979733 0.00000000
-0.65231162 -0.47085025 0.00000000
0.23639899 0.61793173 0.03645716
0.54622417 -0.64779849 0.00000000
0.23572971 0.52705503 0.00000000
0.55419554 0.64369146 0.26698718
0.69551153 0.05965745 0.00000000
-0.77934055 0.61606753 0.00000000
0.65007000 0.18789831 0.02547780
0.65585032 0.67653946 0.35724005
-0.07956834 0.75352327 0.00000000
0.41668898 -0.30482679 0.00000000
0.14811869 -0.41367627 0.00000000
-0.33599332 -0.49400775 0.00000000
0.65399325 0.14261988 0.00000000
0.19242516 0.72047207 0.07575593
-0.37123060 -0.00477575 0.00000000
-0.29491218 0.55006440 0.00000000
0.77703920 -0.03447092 0.00000000
0.19393925 -0.05559782 0.00000000
-0.05021632 -0.78406960 0.00000000
-0.73092223 -0.40993978 0.00000000
-0.52614077 -0.75936830 0.00000000
0.54349804 0.49729772 0.16157720
0.57819067 -0.65543619 0.00000000
0.43680984 -0.36694299 0.00000000
0.68138636 -0.49611974 0.00000000
-0.20495983 -0.77587252 0.00000000
0.17039155 -0.17119988 0.00000000
-0.18524066 0.06206265 0.00000000
-0.26956085 0.67272820 0.00000000
-0.45905796 -0.79992596 0.00000000
-0.13150542 0.75804198 0.00000000
0.53215034 -0.06432626 0.00000000
0.73486533 -0.54576414 0.00000000
-0.72637052 -0.40188484 0.00000000
0.33099402 0.21568238 0.00000000
-0.14174721 0.63280672 0.00000000
0.39153510 -0.15473165 0.00000000
-0.48425924 -0.66019135 0.00000000
0.14858058 0.60572056 0.00000000
0.69763999 -0.24520219 0.00000000
0.56206231 0.49076674 0.16965166
-0.73578706 0.20514625 0.00000000
-0.70910557 -0.43722365 0.00000000
0.59235719 0.30082995 0.06253023
0.37682866 -0.49853326 0.00000000
-0.52336955 0.24912779 0.00000000
-0.13374268 -0.23586009 0.00000000
0.06251781 0.27880188 0.00000000
0.10924946 -0.18016057 0.00000000
-0.72465928 0.01185269 0.00000000
-0.51639997 -0.68557228 0.00000000
0.62540180 -0.75528072 0.00000000
-0.42640012 0.08604830 0.00000000
-0.38121531 -0.67539352 0.00000000
-0.06073939 -0.64891582 0.00000000
0.69793022 -0.03616390 0.00000000
-0.11176660 0.07404353 0.00000000
-0.09687708 0.72318843 0.00000000
0.43831177 0.13335243 0.00000000
0.22129881 0.58864168 0.00667084
-0.61773726 0.58404807 0.00000000
-0.78779832 -0.60068949 0.00000000
-0.19646892 -0.31511638 0.00000000
-0.77050064 0.26151092 0.00000000
0.24558177 0.11131924 0.00000000
0.79932687 -0.52969223 0.00000000
-0.52712885 -0.59336340 0.00000000
-0.27402202 -0.53986278 0.00000000
-0.41434498 0.63135464 0.00000000
-0.22997361 0.19553499 0.00000000
-0.48034762 0.55406137 0.00000000
-0.55937432 -0.56655388 0.00000000
-0.79255260 0.19160525 0.00000000
0.62372651 -0.72682065 0.00000000
-0.74080705 0.30506725 0.00000000
0.59605849 0.24315321 0.02631213
-0.74443455 0.00380583 0.00000000
0.61878198 -0.16136354 0.00000000
-0.69690703 -0.71096871 0.00000000
0.64595274 -0.64960693 0.00000000
0.73242200 0.06744647 0.00000000
-0.20564156 -0.40283019 0.00000000
-0.26215551 0.42806367 0.00000000
-0.23979811 -0.50378928 0.00000000
0.56758753 0.12774131 0.00000000
0.15821164 -0.07605368 0.00000000
-0.56722952 0.75956748 0.00000000
-0.54888986 0.22276322 0.00000000
-0.41908596 -0.47148147 0.00000000
0.50025574 0.64911100 0.23442956
-0.53545538 0.52078715 0.00000000
0.59224162 0.17675313 0.00000000
-0.43256138 0.18857345 0.00000000
-0.11438081 0.73610670 0.00000000
0.14149286 -0.06494294 0.00000000
0.17285928 -0.73560783 0.00000000
-0.62980877 -0.09680698 0.00000000
0.67640454 -0.08237306 0.00000000
-0.06484538 -0.61393338 0.00000000
-0.37623590 0.02552037 0.00000000
0.06589242 0.41899650 0.00000000
-0.39597193 0.29249730 0.00000000
-0.32258041 -0.13409518 0.00000000
-0.70697450 0.53663404 0.00000000
0.48606206 -0.72597392 0.00000000
-0.23056793 0.41953700 0.00000000
0.24194876 -0.53022778 0.00000000
-0.79603870 0.79208548 0.00000000
0.43566407 -0.33605063 0.00000000
0.64284677 0.43026101 0.18325891
0.32359618 -0.78398135 0.00000000
0.48908654 0.59876747 0.19315383
0.23247694 -0.48306545 0.00000000
0.72726184 -0.64073726 0.00000000
0.26346925 0.06730840 0.00000000
-0.03640514 -0.08080154 0.00000000
0.42529736 0.71608105 0.22906932
-0.23641371 0.54050986 0.00000000
-0.55569035 -0.62782690 0.00000000
-0.47798197 -0.07226339 0.00000000
-0.26606821 -0.23500147 0.00000000
-0.47030567 0.76387713 0.00000000
0.09549733 0.32549033 0.00000000
0.42982285 -0.55227130 0.00000000
0.68849432 0.07523643 0.00000000
-0.13871414 -0.40475657 0.00000000
-0.57150619 -0.36328484 0.00000000
0.14630030 -0.07454317 0.00000000
-0.16907548 0.59794221 0.00000000
-0.76128393 0.37809956 0.00000000
-0.13697851 0.33854375 0.00000000
-0.31496566 -0.41952369 0.00000000
0.53900015 0.61646354 0.23852067
-0.37558512 -0.73855703 0.00000000
0.04649111 0.50527923 0.00000000
0.46375302 0.10603519 0.00000000
0.05879388 -0.15169034 0.00000000
0.56442505 0.68890747 0.30419176
-0.64153516 0.56594637 0.00000000
-0.19823140 0.22840541 0.00000000
0.28331246 0.28311333 0.00000000
-0.20164123 0.09386294 0.00000000
-0.12914997 0.05062965 0.00000000
-0.63726035 -0.48717264 0.00000000
0.20083224 0.01369986 0.00000000
-0.45472101 0.73710045 0.00000000
-0.46488419 0.01058777 0.00000000
-0.06738090 -0.24521296 0.00000000
-0.66609105 0.48627149 0.00000000
-0.39671718 0.07087335 0.00000000
0.56556268 -0.16987261 0.00000000
-0.43240161 -0.06212167 0.00000000
-0.07179130 0.72649418 0.00000000
-0.20350214 -0.48767169 0.00000000
-0.23095519 -0.60352132 0.00000000
0.77526657 0.13417251 0.07343546
0.43315245 0.18642340 0.00000000
0.16998845 -0.00144407 0.00000000
0.48306935 -0.59990358 0.00000000
0.79376616 -0.21346299 0.00000000
-0.68699134 0.77572501 0.00000000
-0.76700559 0.46367918 0.00000000
0.08399379 0.77150670 0.03724210
-0.35807563 -0.63473188 0.00000000
-0.05495442 0.19893675 0.00000000
0.35709272 0.04874480 0.00000000
-0.28481327 -0.73112860 0.00000000
-0.17955124 -0.25661832 0.00000000
0.10138055 0.31848508 0.00000000
-0.12970401 0.36761106 0.00000000
0.57152775 -0.64958965 0.00000000
-0.46001544 -0.63668299 0.00000000
-0.78939656 0.52122743 0.00000000
0.11549846 0.24021450 0.00000000
-0.07461116 0.21109492 0.00000000
-0.75483840 0.03428551 0.00000000
0.10157940 0.37576128 0.00000000
0.33054921 0.36981964 0.00000000
0.05690799 0.19063546 0.00000000
0.45107955 0.12217744 0.00000000
-0.65481914 0.42496983 0.00000000
-0.76918651 -0.05284354 0.00000000
-0.05130710 0.27817048 0.00000000
0.42372897 0.42671400 0.03384844
0.10043894 -0.12529230 0.00000000
0.51456026 0.61931365 0.22403369
0.10099808 -0.36332822 0.00000000
-0.29806424 0.55831109 0.00000000
-0.29685634 0.68400346 0.00000000
-0.69281384 0.76090201 0.00000000
0.34440925 -0.68711969 0.00000000
-0.24626232 -0.21906517 0.00000000
-0.51062953 -0.57735516 0.00000000
-0.08562404 0.57259446 0.00000000
0.49500503 -0.57084952 0.00000000
-0.09907686 -0.75655032 0.00000000
0.19260999 -0.41318562 0.00000000
-0.07566814 0.02283680 0.00000000
0.31241382 -0.61058143 0.00000000
-0.23100760 0.38962806 0.00000000
-0.43831008 0.16869710 0.00000000
-0.75573153 0.49257201 0.00000000
0.22069480 0.16551515 0.00000000
-0.16767497 -0.30730776 0.00000000
-0.48759168 0.58882934 0.00000000
0.66623446 0.06015729 0.00000000
0.34694947 -0.57668667 0.00000000
0.65017792 0.13975278 0.00000000
-0.75744889 -0.47578485 0.00000000
0.16666745 0.45651003 0.00000000
0.54659804 -0.08301809 0.00000000
0.06828367 -0.31449588 0.00000000
-0.75242588 -0.16341564 0.00000000
-0.73906291 -0.34383394 0.00000000
-0.35584249 -0.31466843 0.00000000
-0.46487353 0.38698056 0.00000000
0.40579259 0.00134765 0.00000000
0.24256107 0.68031910 0.08245458
-0.23742665 0.39175742 0.00000000
-0.44345653 0.19008795 0.00000000
0.42408475 0.07060874 0.00000000
0.61684019 -0.67876699 0.00000000
-0.01947370 0.44637406 0.00000000
-0.39853422 -0.23729157 0.00000000
0.36626241 -0.73726328 0.00000000
0.07269873 0.51782057 0.00000000
-0.58381395 0.74293327 0.00000000
-0.46353708 -0.78749851 0.00000000
-0.37769359 -0.64882202 0.00000000
0.27733875 0.51182248 0.00000000
0.63613874 0.34417445 0.12099274
-0.43589465 0.47230504 0.00000000
0.01609508 -0.43637783 0.00000000
-0.25044258 0.42552084 0.00000000
0.17285841 0.69488259 0.04545560
0.30918042 0.23348557 0.00000000
0.34051696 -0.76720017 0.00000000
-0.75908863 -0.11134907 0.00000000
0.37353227 -0.35404248 0.00000000
0.57963725 0.68615564 0.31255280
0.49443093 0.27676225 0.00000000
-0.53262912 0.48141850 0.00000000
-0.01039816 0.74260017 0.00000000
0.52061282 -0.24244450 0.00000000
0.60474667 -0.50050189 0.00000000
0.43334194 0.44229395 0.05075315
0.12856572 -0.12978531 0.00000000
0.46753787 -0.07395331 0.00000000
0.33386107 -0.07385776 0.00000000
0.42592133 -0.59719174 0.00000000
-0.25267537 0.11947280 0.00000000
0.63351701 -0.49102999 0.00000000
0.50298860 -0.22745860 0.00000000
0.16978992 -0.01224838 0.00000000
-0.74738939 -0.09357483 0.00000000
0.07052315 -0.47637498 0.00000000
0.67569616 0.51405087 0.26152515
-0.09913966 -0.22168563 0.00000000
0.70527773 -0.64521786 0.00000000
-0.78776355 -0.06510345 0.00000000
-0.47409905 -0.65460022 0.00000000
0.03615565 -0.33083438 0.00000000
-0.50471770 -0.03762298 0.00000000
-0.10271942 0.46332962 0.00000000
-0.18583525 0.22110122 0.00000000
0.58815914 -0.77445048 0.00000000
-0.66430118 0.43574363 0.00000000
0.68465926 -0.18708352 0.00000000
-0.07969949 0.47193456 0.00000000
-0.43713088 -0.17521894 0.00000000
-0.33694676 0.79339927 0.00000000
-0.18889497 0.76651269 0.00000000
0.11058739 -0.15676175 0.00000000
0.47883114 0.68957115 0.24720263
0.60786932 0.57194527 0.25486038
-0.69057478 -0.39539000 0.00000000
-0.34351862 -0.34682213 0.00000000
0.02169784 -0.68366136 0.00000000
0.17009394 0.21744541 0.00000000
0.26030777 0.62628900 0.05810802
-0.79341694 -0.36754376 0.00000000
-0.14219220 -0.28272306 0.00000000
0.55964096 -0.41342436 0.00000000
-0.74940786 0.26868707 0.00000000
0.54173949 0.17096423 0.00000000
0.63337885 0.40952329 0.16299061
0.24285665 0.55303267 0.00000000
0.29211671 -0.62716562 0.00000000
0.71750374 -0.35432158 0.00000000
-0.21041722 0.68355463 0.00000000
-0.19115574 -0.28991574 0.00000000
0.26716283 0.12236410 0.00000000
-0.40895615 0.36495672 0.00000000
0.60009165 -0.12533465 0.00000000
0.13370997 0.26900737 0.00000000
0.33448685 0.02478789 0.00000000
0.11343879 -0.65181372 0.00000000
-0.29412758 -0.59990926 0.00000000
-0.50468148 -0.59853837 0.00000000
-0.66839944 0.65340146 0.00000000
-0.23565173 -0.53769943 0.00000000
0.25763433 0.04716392 0.00000000
0.53516355 -0.02911567 0.00000000
0.47817554 -0.21350130 0.00000000
0.32690738 -0.36640371 0.00000000
0.36134707 -0.26333695 0.00000000
0.19116950 -0.35473247 0.00000000
-0.39524885 -0.67704870 0.00000000
-0.41185025 -0.44983559 0.00000000
-0.12840173 0.22110487 0.00000000
0.61036776 0.41307578 0.14993368
0.33246078 0.54320168 0.05077098
-0.19214882 0.64463364 0.00000000
-0.17922598 -0.33897622 0.00000000
0.46901379 -0.54407108 0.00000000
0.36234744 -0.33192823 0.00000000
0.56814610 0.02664764 0.00000000
-0.64241768 0.78580317 0.00000000
0.34131692 -0.05008746 0.00000000
0.69907218 0.08450740 0.00000000
-0.04984928 -0.55855040 0.00000000
-0.45976004 0.63898668 0.00000000
-0.57174457 0.10883001 0.00000000
0.05600544 -0.02203789 0.00000000
0.19666018 0.18030894 0.00000000
-0.59164480 0.10377759 0.00000000
0.21891543 -0.39496595 0.00000000
-0.63755041 0.56173588 0.00000000
-0.70479846 0.49769209 0.00000000
-0.01621324 0.32969353 0.00000000
0.14578567 0.77607021 0.08176730
-0.28148891 -0.07670173 0.00000000
-0.41864031 -0.28717729 0.00000000
-0.02703787 0.39822050 0.00000000
0.79504383 -0.23647315 0.00000000
0.55320665 -0.18880064 0.00000000
0.15598475 -0.34622817 0.00000000
-0.50601873 -0.09998064 0.00000000
0.54926269 0.34208183 0.06129381
0.50777341 0.64154160 0.23439485
-0.41234798 -0.03855200 0.00000000
-0.21201010 0.57567691 0.00000000
0.34822003 0.19694433 0.00000000
0.24190664 -0.50991915 0.00000000
0.28703067 0.38473939 0.00000000
0.29926048 -0.07014937 0.00000000
-0.31750856 -0.26326883 0.00000000
0.56002534 0.68651952 0.29963716
0.55534431 0.60655733 0.24284060
-0.41345712 -0.41342773 0.00000000
-0.16102698 -0.72633714 0.00000000
0.74364748 0.18181572 0.08418782
0.12269639 0.51916206 0.00000000
0.32219423 -0.03660855 0.00000000
-0.51239072 0.26654091 0.00000000
0.66293082 -0.42881313 0.00000000
-0.45172867 0.04964403 0.00000000
0.22741850 -0.70322983 0.00000000
0.51750728 0.45182194 0.11362238
-0.36357656 0.49820101 0.00000000
-0.74574945 -0.12861544 0.00000000
0.63234170 0.35359539 0.12476644
-0.72294348 0.65134609 0.00000000
-0.69592681 -0.58076846 0.00000000
-0.61161264 -0.70476626 0.00000000
-0.05845738 -0.19581723 0.00000000
-0.34840272 -0.79078929 0.00000000
-0.26146174 -0.01923491 0.00000000
-0.68473642 -0.43795681 0.00000000
0.28836857 -0.40243868 0.00000000
-0.78643223 -0.40205178 0.00000000
0.51133027 -0.64201536 0.00000000
-0.09579972 0.04869486 0.00000000
0.72121154 -0.08202130 0.00000000
0.43883413 -0.32201426 0.00000000
-0.24876041 0.69459010 0.00000000
0.35167740 -0.02113285 0.00000000
-0.75637234 0.49018564 0.00000000
0.70162844 -0.68975793 0.00000000
0.02767336 0.11225112 0.00000000
-0.42025342 0.53238089 0.00000000
0.39626012 0.19217939 0.00000000
0.09097589 0.53777072 0.00000000
0.60191329 0.64915107 0.30266978
0.56084104 0.56440212 0.21824235
-0.74879522 0.64616487 0.00000000
-0.78926159 0.35328448 0.00000000
-0.35514808 -0.66160942 0.00000000
-0.34157693 -0.75113427 0.00000000
-0.54607227 0.63949998 0.00000000
0.35651646 0.23119905 0.00000000
-0.70903262 0.31232359 0.00000000
0.24968046 -0.75356083 0.00000000
0.51394608 0.53146196 0.16467209
0.01982372 0.75792056 0.00000000
-0.37255900 0.40284856 0.00000000
-0.33923000 0.34740393 0.00000000
-0.69832891 -0.31254930 0.00000000
0.25226259 -0.48916975 0.00000000
-0.77598271 -0.28478788 0.00000000
-0.16762832 0.42960022 0.00000000
-0.42722836 0.71641457 0.00000000
-0.76196952 -0.43910924 0.00000000
0.35118819 0.50393994 0.03699223
-0.52871320 -0.75984874 0.00000000
0.32825129 0.13702063 0.00000000
-0.10924651 0.24533346 0.00000000
0.47791737 -0.09509116 0.00000000
0.72718743 -0.77771781 0.00000000
-0.25132109 0.10045339 0.00000000
-0.14452396 -0.31228083 0.00000000
0.16999490 0.20827287 0.00000000
0.46809669 -0.20146624 0.00000000
0.53829046 -0.63267442 0.00000000
-0.71401838 0.54306731 0.00000000
0.31738275 -0.06446823 0.00000000
0.54440952 -0.65696844 0.00000000
-0.18910550 -0.68352439 0.00000000
0.07487082 -0.37528226 0.00000000
0.22005890 0.35001920 0.00000000
-0.63982635 0.25315533 0.00000000
-0.30331846 -0.50352660 0.00000000
-0.13781310 0.76602232 0.00000000
0.77453988 -0.61502644 0.00000000
-0.17151234 -0.74659325 0.00000000
0.47300273 -0.54812757 0.00000000
-0.39903503 -0.73645806 0.00000000
-0.46485392 -0.44980077 0.00000000
-0.45453611 0.73996496 0.00000000
0.79593754 -0.62753827 0.00000000
-0.41617314 -0.43178638 0.00000000
0.56655034 0.49857760 0.17790435
0.28983241 0.16543155 0.00000000
-0.53234200 -0.15648073 0.00000000
-0.51212104 0.73936648 0.00000000
0.09219549 -0.51053653 0.00000000
-0.28003755 -0.64769205 0.00000000
-0.49433574 -0.74126677 0.00000000
0.48950296 -0.45357729 0.00000000
-0.10694133 -0.39141944 0.00000000
0.57224371 0.11463014 0.00000000
0.54160197 0.61837425 0.24154863
0.09934503 -0.33667683 0.00000000
-0.72771377 -0.19895017 0.00000000
-0.47039471 -0.09935218 0.00000000
-0.22582178 0.70399641 0.00000000
-0.19664707 0.41303748 0.00000000
0.74751985 -0.07724812 0.00000000
0.43799697 -0.17661221 0.00000000
-0.13058972 -0.43718126 0.00000000
-0.79144022 0.79401086 0.00000000
0.60684529 0.45103314 0.17303985
0.39767992 -0.72603355 0.00000000
0.47431043 -0.76302517 0.00000000
-0.08254440 0.74132507 0.00000000
-0.11517066 0.02554835 0.00000000
-0.44705615 0.69613790 0.00000000
0.51072362 0.34141164 0.03498398
-0.64597333 0.10314524 0.00000000
0.06801165 -0.32267237 0.00000000
0.78652360 -0.36903749 0.00000000
0.13161118 -0.29555167 0.00000000
-0.30121363 -0.40354801 0.00000000
-0.14736255 -0.57739928 0.00000000
-0.67440722 0.65244105 0.00000000
0.30630560 -0.58572409 0.00000000
-0.74343355 -0.29268999 0.00000000
-0.77245521 -0.09824516 0.00000000
-0.73391740 0.33652874 0.00000000
-0.69449247 0.47812869 0.00000000
0.11894490 -0.06995651 0.00000000
0.58860782 -0.27523623 0.00000000
-0.39924625 0.53886862 0.00000000
-0.12764536 -0.18331322 0.00000000
-0.43365390 -0.36159113 0.00000000
-0.56016265 0.21938950 0.00000000
0.60214942 -0.20783655 0.00000000
-0.34080178 0.41642985 0.00000000
0.64069894 -0.37502160 0.00000000
0.16744303 -0.54915327 0.00000000
0.53304951 0.42137797 0.10362316
-0.53498365 0.17600828 0.00000000
0.44565849 0.36865489 0.00960509
-0.16284200 -0.13042530 0.00000000
0.54109115 0.41738701 0.10634121
-0.44640559 0.37735450 0.00000000
0.60531219 0.36552987 0.11463752
0.21661418 -0.75307907 0.00000000
-0.45779822 0.08756653 0.00000000
0.45060096 -0.02797845 0.00000000
0.53165410 0.06326533 0.00000000
0.46979276 0.61590760 0.19170871
0.35352546 0.48517801 0.02597111
0.53737614 -0.28339061 0.00000000
0.37181290 -0.28640394 0.00000000
-0.70378586 -0.19881184 0.00000000
-0.07609958 0.08291428 0.00000000
0.78189276 -0.48027687 0.00000000
-0.10433031 -0.13679842 0.00000000
0.15883694 -0.19882774 0.00000000
0.32694383 0.27124246 0.00000000
-0.66081381 0.64715050 0.00000000
-0.00013219 -0.14674782 0.00000000
-0.26318577 0.68250484 0.00000000
-0.44105033 -0.63517953 0.00000000
-0.72745508 0.73204471 0.00000000
-0.44001363 0.52805195 0.00000000
0.18918546 -0.10260705 0.00000000
0.67793675 0.21417004 0.06180530
-0.27218166 -0.36624879 0.00000000
0.48276251 0.06199162 0.00000000
0.65501411 -0.28725119 0.00000000
-0.77987021 -0.52658294 0.00000000
0.22032944 -0.77590624 0.00000000
-0.66536576 0.35492830 0.00000000
-0.57703351 0.43046504 0.00000000
0.23457776 0.13022065 0.00000000
0.29139276 -0.06424898 0.00000000
0.70395823 0.27944627 0.12306705
-0.78344413 0.30490671 0.00000000
-0.43375607 0.42745179 0.00000000
0.23751544 0.07206210 0.00000000
0.66244999 -0.49841894 0.00000000
0.25921023 -0.79200996 0.00000000
-0.19104865 0.13730164 0.00000000
0.41970234 -0.24995651 0.00000000
0.25987426 -0.06431641 0.00000000
-0.31646483 -0.06704328 0.00000000
0.19341254 0.26792173 0.00000000
-0.72501740 -0.37140989 0.00000000
-0.32775630 0.64490813 0.00000000
-0.43276422 0.58118655 0.00000000
-0.42987530 -0.54794361 0.00000000
0.43694891 -0.53143263 0.00000000
0.63912395 0.36421472 0.13644309
0.13379282 0.54293111 0.00000000
-0.56880742 -0.08972357 0.00000000
-0.40450118 0.40786969 0.00000000
0.64398918 0.54307409 0.25972432
-0.63589706 0.33272062 0.00000000
-0.56173319 0.33018879 0.00000000
0.54626907 0.48789566 0.15712771
0.71081398 0.38355582 0.19752595
-0.47839929 0.56230247 0.00000000
-0.69277598 0.06636799 0.00000000
-0.05859535 -0.42372621 0.00000000
0.22696177 0.29846070 0.00000000
-0.30327756 -0.35603697 0.00000000
-0.78735403 0.64792779 0.00000000
0.31201789 0.58366382 0.06420411
0.40102141 -0.34806833 0.00000000
-0.01785710 -0.53568650 0.00000000
-0.14010418 0.08413128 0.00000000
-0.69082228 0.53024722 0.00000000
0.43605380 0.66663317 0.20310692
-0.27950611 -0.59101365 0.00000000
0.64449058 -0.06225934 0.00000000
0.28636040 -0.73491907 0.00000000
0.40377411 -0.58937812 0.00000000
0.04115012 0.71971534 0.00000000
0.21054212 0.36581854 0.00000000
0.00154151 0.58140824 0.00000000
-0.55882101 0.59917892 0.00000000
-0.07831333 0.07807742 0.00000000
0.35595755 0.21271977 0.00000000
0.43743223 0.18532657 0.00000000
0.47558796 0.39279147 0.04588399
0.74883835 -0.54931497 0.00000000
0.71587319 -0.15107159 0.00000000
-0.04147640 0.23797417 0.00000000
0.44027796 0.11920625 0.00000000
-0.76817147 0.56263085 0.00000000
-0.12689572 0.00481058 0.00000000
-0.24620632 0.05626960 0.00000000
-0.10553904 -0.48463428 0.00000000
-0.74312591 -0.67907044 0.00000000
0.23572071 -0.52417349 0.00000000
-0.10916332 0.44233704 0.00000000
-0.09128681 0.22309819 0.00000000
0.03993615 -0.15435786 0.00000000
-0.52807119 0.23139145 0.00000000
0.54672990 0.65180812 0.26742403
-0.10960415 -0.08286447 0.00000000
-0.25439464 -0.08840589 0.00000000
0.58776973 0.53518335 0.21670567
-0.36395019 -0.73538048 0.00000000
-0.63844320 0.47396733 0.00000000
0.62690133 -0.68793791 0.00000000
0.64860044 -0.27548600 0.00000000
0.78207936 -0.59074057 0.00000000
0.27817754 0.66907661 0.09880979
0.47692446 -0.37092932 0.00000000
0.65335252 -0.61170592 0.00000000
0.77884763 -0.08352910 0.00000000
0.48151785 0.56150745 0.16307326
0.56880591 -0.68928852 0.00000000
0.54516790 0.33131317 0.05132028
-0.52228246 0.47075195 0.00000000
0.22299790 -0.00726334 0.00000000
0.76161247 -0.19664993 0.00000000
-0.02028857 -0.35903108 0.00000000
0.46188276 0.41941676 0.05455351
0.15845079 0.67160901 0.02017111
0.20805895 -0.48025244 0.00000000
-0.69290032 0.75088141 0.00000000
0.03253844 0.27278482 0.00000000
-0.28650043 -0.01018436 0.00000000
-0.07845545 0.04807560 0.00000000
0.31188428 0.16644830 0.00000000
0.09240198 -0.75007702 0.00000000
-0.14530354 0.10330011 0.00000000
-0.33051144 -0.72232394 0.00000000
0.16510076 -0.75749225 0.00000000
0.56433701 0.58131796 0.23193890
0.44447305 -0.28967938 0.00000000
0.10790830 -0.52216303 0.00000000
-0.48361802 0.46674326 0.00000000
0.02464774 0.27193588 0.00000000
-0.36309048 -0.66460955 0.00000000
0.58665289 -0.13248405 0.00000000
-0.08538679 0.74286965 0.00000000
0.24331481 0.23079809 0.00000000
-0.05828911 0.69493439 0.00000000
-0.23025348 0.21856173 0.00000000
0.40836628 -0.44085849 0.00000000
0.19931730 0.65925947 0.03930630
-0.43454244 -0.45060023 0.00000000
0.22252255 0.43250909 0.00000000
0.75314746 -0.66977697 0.00000000
0.10491855 0.26890575 0.00000000
-0.52492051 0.39572455 0.00000000
0.65240210 0.11817308 0.00000000
0.10284027 -0.50807643 0.00000000
-0.26552325 0.63936647 0.00000000
-0.08064534 0.18913502 0.00000000
0.05072062 -0.71456583 0.00000000
-0.06898012 0.62210485 0.00000000
0.73695166 -0.15489680 0.00000000
-0.66665027 -0.60707999 0.00000000
0.43076994 -0.55268223 0.00000000
0.13537854 -0.39167063 0.00000000
-0.68602125 0.01047635 0.00000000
-0.76419802 0.07602959 0.00000000
-0.51158596 -0.61626213 0.00000000
0.71206239 0.01244855 0.00000000
-0.10018244 -0.71245406 0.00000000
-0.18266613 0.32450806 0.00000000
-0.64790682 0.45250700 0.00000000
-0.23056959 -0.24557435 0.00000000
-0.05433873 0.48679422 0.00000000
0.24984969 -0.32301174 0.00000000
-0.57408647 0.63112406 0.00000000
-0.66675804 0.20433710 0.00000000
0.40676619 -0.32696645 0.00000000
-0.07037915 0.38771158 0.00000000
-0.06095188 0.57876565 0.00000000
-0.69640401 0.08197162 0.00000000
-0.37210621 -0.54965740 0.00000000
0.64495209 -0.62932226 0.00000000
0.59956886 0.58663063 0.25914473
-0.79680745 0.73070532 0.00000000
0.32182453 0.50338537 0.01691678
-0.12713066 0.63236480 0.00000000
-0.20899145 0.65310400 0.00000000
0.00216699 -0.46406957 0.00000000
-0.68605288 0.23834614 0.00000000
-0.68182469 -0.32849019 0.00000000
0.46846510 -0.68409388 0.00000000
0.23135161 -0.26579070 0.00000000
-0.63231364 0.18413909 0.00000000
-0.43883362 -0.75302877 0.00000000
-0.68194808 -0.35980309 0.00000000
0.66239585 0.55898128 0.28274930
0.67068795 0.02197763 0.00000000
-0.01143499 -0.06291197 0.00000000
0.44318007 0.52946461 0.11584709
-0.71661374 0.32227945 0.00000000
0.23834070 -0.09598428 0.00000000
0.50165841 0.16905753 0.00000000
-0.27062885 0.37253962 0.00000000
-0.10111497 0.03728306 0.00000000
0.12232826 -0.52087002 0.00000000
-0.64288007 0.51700820 0.00000000
-0.71594970 -0.71551142 0.00000000
-0.67668010 0.18860754 0.00000000
0.39839892 0.35819292 0.00000000
0.28724166 -0.23565104 0.00000000
0.27460137 0.12738506 0.00000000
0.57623501 -0.69337498 0.00000000
0.01282448 0.66237994 0.00000000
0.28282340 -0.49697344 0.00000000
-0.50348602 -0.76900471 0.00000000
-0.37319659 -0.08981454 0.00000000
0.31940882 0.74761195 0.17917453
-0.14381174 0.59841361 0.00000000
-0.29430426 0.05480592 0.00000000
0.02420090 -0.48012478 0.00000000
0.33005001 -0.67261566 0.00000000
0.36219776 -0.43277698 0.00000000
0.45888306 -0.37798630 0.00000000
-0.21672062 -0.71094500 0.00000000
-0.11238554 -0.10730808 0.00000000
0.75455247 -0.14370409 0.00000000
0.41015185 -0.52320544 0.00000000
-0.37454960 0.52695482 0.00000000
-0.06317219 0.23317738 0.00000000
0.04530227 0.01074986 0.00000000
-0.04440055 -0.59118192 0.00000000
0.13297306 0.37635356 0.00000000
-0.55880026 -0.35274790 0.00000000
-0.62895597 -0.73841396 0.00000000
0.33913190 0.36733525 0.00000000
0.63515097 0.32392820 0.10674449
-0.41351410 0.72178353 0.00000000
-0.56155594 -0.74011083 0.00000000
-0.67803880 0.01780584 0.00000000
-0.10959117 0.53514778 0.00000000
-0.18642264 -0.78308532 0.00000000
0.06641560 0.05322892 0.00000000
-0.29373761 -0.28769364 0.00000000
-0.71415528 0.51782470 0.00000000
0.01837764 0.19535026 0.00000000
0.17606048 -0.38765529 0.00000000
0.39419192 -0.42859438 0.00000000
0.10371380 0.03524071 0.00000000
-0.05420863 0.18420422 0.00000000
-0.41315600 0.10132506 0.00000000
0.48133236 -0.71147210 0.00000000
-0.01367802 -0.54034506 0.00000000
0.45507778 0.41978004 0.05023106
0.00657026 0.52374424 0.00000000
-0.59451375 0.73746037 0.00000000
0.44591664 -0.74332245 0.00000000
0.06078964 0.57573445 0.00000000
0.22789183 0.15606887 0.00000000
-0.44367177 -0.54847410 0.00000000
0.58452414 -0.56974237 0.00000000
0.47912984 0.44969749 0.08644518
0.41066078 -0.07838773 0.00000000
-0.57278201 -0.20822573 0.00000000
0.20027993 -0.31133249 0.00000000
0.02228467 -0.40390057 0.00000000
-0.27727831 0.57263564 0.00000000
0.25903803 0.24002454 0.00000000
-0.16904781 -0.27532399 0.00000000
0.16698675 -0.42350545 0.00000000
-0.11919596 0.55766563 0.00000000
-0.62836622 -0.30039367 0.00000000
0.73855745 -0.15714923 0.00000000
0.15108399 -0.27703617 0.00000000
0.41454408 0.44782920 0.04185380
-0.78998634 -0.58172902 0.00000000
0.76356245 -0.56280555 0.00000000
-0.75520942 0.45178345 0.00000000
0.18372904 0.64274665 0.01776613
0.20536719 0.71842978 0.08306977
0.42756150 -0.45774184 0.00000000
0.05315888 -0.08665979 0.00000000
0.38662823 -0.45777374 0.00000000
-0.35336273 -0.33492816 0.00000000
-0.71413395 -0.27708262 0.00000000
0.24756186 0.19878006 0.00000000
0.49090283 -0.32298966 0.00000000
0.16772160 -0.77247302 0.00000000
-0.28560039 -0.59362316 0.00000000
-0.58590765 -0.19184779 0.00000000
-0.62797699 0.36393692 0.00000000
-0.03065559 0.62057833 0.00000000
-0.54597456 0.03872651 0.00000000
0.39324339 0.00829235 0.00000000
-0.35970345 -0.40352649 0.00000000
0.35594204 0.49139160 0.03176204
0.33557584 -0.67053588 0.00000000
-0.02762719 0.48607858 0.00000000
-0.77236362 -0.69041433 0.00000000
-0.37203155 0.21367320 0.00000000
0.34662526 0.61189896 0.10637212
0.26279965 0.38373716 0.00000000
0.64823367 0.51806467 0.24579081
0.22273889 -0.13659624 0.00000000
-0.33476950 -0.49380361 0.00000000
-0.63403671 0.77408034 0.00000000
-0.29121093 -0.67728576 0.00000000
0.62020271 0.29432531 0.07685019
-0.61640316 -0.09856456 0.00000000
-0.18149860 0.39116313 0.00000000
-0.55482801 -0.35663045 0.00000000
0.18296379 0.69216848 0.05041522
0.38599258 -0.70627457 0.00000000
-0.54428894 -0.69806322 0.00000000
-0.70303841 -0.66150235 0.00000000
-0.57367269 -0.23621695 0.00000000
0.54843394 0.52688085 0.18473985
0.17879525 -0.23401514 0.00000000
-0.72042545 0.38821189 0.00000000
-0.21145374 -0.24564884 0.00000000
0.22455671 0.03596797 0.00000000
-0.60553533 -0.14016911 0.00000000
-0.09127287 0.47262349 0.00000000
-0.20835438 -0.61006906 0.00000000
-0.42116830 0.59463934 0.00000000
0.29883835 -0.78705762 0.00000000
0.40520210 0.37448546 0.00000000
0.42180645 -0.03111996 0.00000000
-0.76363012 -0.26228305 0.00000000
-0.15030160 -0.72268814 0.00000000
0.68997484 -0.10741833 0.00000000
0.63781651 0.62521954 0.31070292
0.06807660 0.00930247 0.00000000
-0.26351912 -0.53612621 0.00000000
-0.06974264 -0.37697050 0.00000000
0.13621027 -0.20470213 0.00000000
-0.03364240 0.38031046 0.00000000
0.22860035 -0.35396269 0.00000000
0.34269225 0.18468567 0.00000000
-0.58615760 -0.24785542 0.00000000
-0.27494346 0.24756514 0.00000000
-0.18829821 -0.37673134 0.00000000
0.65684671 -0.56675776 0.00000000
0.22976447 -0.04738627 0.00000000
0.35576474 -0.78640289 0.00000000
0.21695852 -0.44210172 0.00000000
0.17252900 0.39880105 0.00000000
-0.13157130 0.52862861 0.00000000
0.54287690 -0.20958554 0.00000000
-0.34469086 -0.52448518 0.00000000
-0.44758262 0.56392563 0.00000000
0.07608554 -0.53941557 0.00000000
0.33361326 0.27355522 0.00000000
0.46354511 -0.33607820 0.00000000
0.62393630 0.26896764 0.06234020
-0.40748089 -0.34633510 0.00000000
0.60094565 0.10974894 0.00000000
0.45622769 0.61198902 0.17997698
-0.79180699 -0.33142882 0.00000000
0.54705125 0.63480911 0.25623313
-0.45502135 0.60675521 0.00000000
0.62038619 0.50690476 0.21961642
0.39696209 -0.22255128 0.00000000
-0.33757662 -0.62150303 0.00000000
0.28712072 0.49741274 0.00000000
-0.00437138 0.55845585 0.00000000
0.27759595 -0.04391799 0.00000000
-0.21647749 0.77831587 0.00000000
0.55964888 -0.37994135 0.00000000
0.29435335 0.62609293 0.08082141
0.16866995 -0.76098547 0.00000000
-0.43597909 0.57614574 0.00000000
0.46747541 0.09616639 0.00000000
0.43227417 0.43992505 0.04844712
0.75852774 0.07636542 0.02341435
-0.15213241 -0.19614689 0.00000000
0.76112277 0.19492145 0.10470801
-0.71829682 0.35025518 0.00000000
-0.40756545 0.74691128 0.00000000
-0.40383954 0.48016456 0.00000000
0.44181104 0.03880982 0.00000000
0.60077746 -0.54215953 0.00000000
0.42572231 0.40607685 0.02133824
-0.15860871 -0.00071940 0.00000000
0.59043489 -0.73634733 0.00000000
-0.05273237 0.05115154 0.00000000
-0.30501835 0.55968023 0.00000000
-0.61773190 0.14497566 0.00000000
-0.36070640 0.29509354 0.00000000
-0.52783606 0.67307830 0.00000000
0.56757696 0.39513780 0.10918401
0.40118210 -0.06573577 0.00000000
-0.09379683 -0.69091392 0.00000000
0.08471765 -0.12289902 0.00000000
0.05617403 0.51047473 0.00000000
-0.50915753 -0.65909481 0.00000000
-0.54403594 0.03391216 0.00000000
-0.66316993 -0.64227889 0.00000000
-0.32807810 0.42092128 0.00000000
-0.08007173 -0.02417445 0.00000000
0.62847920 -0.54838634 0.00000000
-0.57312274 -0.22982904 0.00000000
-0.62421149 -0.56836667 0.00000000
-0.37886918 -0.42575189 0.00000000
0.47685343 0.44494107 0.08172608
0.55549031 0.49464563 0.16784456
-0.66129214 0.51919183 0.00000000
-0.48811852 0.13933159 0.00000000
-0.78896496 0.57171037 0.00000000
0.29192485 -0.35283055 0.00000000
-0.05516507 0.02838969 0.00000000
-0.37803729 0.78987895 0.00000000
-0.27180183 -0.23974152 0.00000000
-0.17942057 0.77291541 0.00000000
-0.08574708 -0.40090880 0.00000000
-0.32048753 0.27161323 0.00000000
-0.68419768 0.32199985 0.00000000
0.52368428 -0.00194919 0.00000000
0.25763898 -0.79957847 0.00000000
0.36489088 0.10545838 0.00000000
0.48623925 -0.45369420 0.00000000
-0.77653121 -0.09339116 0.00000000
-0.55038769 0.18501135 0.00000000
0.27863643 0.16379185 0.00000000
-0.47913762 0.22050436 0.00000000
0.54083971 0.01072571 0.00000000
0.48181291 0.47261161 0.10362117
-0.20126741 0.24517023 0.00000000
0.72671479 0.19597274 0.08232531
-0.24641394 -0.50292061 0.00000000
0.54231486 -0.38198376 0.00000000
-0.77630347 0.13927913 0.00000000
-0.38761225 0.05749415 0.00000000
0.54494940 0.65609527 0.26910602
-0.31374573 0.49594780 0.00000000
-0.44196107 -0.11822345 0.00000000
-0.52637764 -0.66272407 0.00000000
-0.55117623 -0.27150823 0.00000000
-0.73445996 -0.37113566 0.00000000
0.36245405 0.14573902 0.00000000
-0.33312245 -0.76144197 0.00000000
0.77961279 -0.22882617 0.00000000
0.68339598 0.45528074 0.22725639
0.67710620 -0.51894847 0.00000000
-0.79637356 0.07748911 0.00000000
0.66562149 0.04400789 0.00000000
0.38890619 0.40983757 0.00000000
0.18226823 -0.20193526 0.00000000
0.71164774 0.40595029 0.21311234
0.66481336 -0.14737342 0.00000000
0.49616605 0.09849366 0.00000000
0.00138681 0.15307536 0.00000000
-0.74979418 0.67180039 0.00000000
-0.36739823 0.47902586 0.00000000
0.64708129 0.49053051 0.22654182
0.59671674 0.08022647 0.00000000
0.63483967 0.09830105 0.00000000
-0.18538760 -0.34880604 0.00000000
0.29133204 0.64523250 0.09163694
-0.13984198 0.73775206 0.00000000
-0.62519889 -0.66713659 0.00000000
0.54228558 0.64416681 0.25931444
-0.26279312 0.35414170 0.00000000
-0.13414962 0.31462237 0.00000000
-0.22015594 -0.10583757 0.00000000
-0.24064849 -0.57707238 0.00000000
-0.24893658 -0.26922212 0.00000000
0.75478103 -0.66444356 0.00000000
-0.69456915 0.15894737 0.00000000
0.60070182 0.56111768 0.24278548
0.42751674 0.16638143 0.00000000
-0.22699824 -0.71877727 0.00000000
0.29399592 0.45457186 0.00000000
-0.50180538 -0.01571265 0.00000000
0.07977413 -0.76279366 0.00000000
-0.23418349 -0.63161168 0.00000000
0.05569840 0.35769535 0.00000000
0.56129594 0.27151820 0.02201930
0.05161577 0.06808881 0.00000000
-0.12643060 0.52672652 0.00000000
-0.69470171 0.57903839 0.00000000
-0.74074225 -0.41715656 0.00000000
-0.56878484 0.63754919 0.00000000
-0.60511289 -0.77419301 0.00000000
-0.30986307 0.48569071 0.00000000
0.01677101 -0.48332043 0.00000000
0.16539304 0.69254676 0.03887889
-0.13779103 -0.17905011 0.00000000
0.25315804 0.58265844 0.02403390
0.47929779 0.15244949 0.00000000
-0.21165673 -0.43347483 0.00000000
-0.56983623 0.66344768 0.00000000
-0.32557769 0.22574171 0.00000000
-0.31545293 -0.13667579 0.00000000
-0.77994608 0.71501152 0.00000000
-0.39291860 0.79567193 0.00000000
0.18758032 -0.22596472 0.00000000
-0.20162602 -0.32755429 0.00000000
-0.07454213 0.51880996 0.00000000
-0.60093045 -0.46796226 0.00000000
-0.50577695 -0.69215170 0.00000000
0.31385589 -0.46338661 0.00000000
-0.27664976 -0.01257792 0.00000000
0.35575333 -0.67315013 0.00000000
-0.10587095 0.66673823 0.00000000
0.47646233 0.57003027 0.16539985
0.22596666 0.31637654 0.00000000
-0.63541905 0.69668545 0.00000000
-0.21992704 -0.14500067 0.00000000
-0.52817099 -0.69176737 0.00000000
0.78979798 -0.12055150 0.00000000
0.35052223 -0.48999721 0.00000000
-0.72701778 -0.61898011 0.00000000
-0.19735520 0.39043280 0.00000000
0.41615924 -0.78828796 0.00000000
-0.02877924 0.22085278 0.00000000
0.30599672 0.65306472 0.10673261
0.05172511 -0.19953988 0.00000000
-0.06881815 0.35301422 0.00000000
-0.19406147 -0.41927958 0.00000000
0.66294481 -0.64168636 0.00000000
0.15366757 0.06338501 0.00000000
-0.42732495 0.57494393 0.00000000
0.35293369 -0.00707779 0.00000000
-0.58113064 -0.62001524 0.00000000
-0.54999720 -0.07917595 0.00000000
-0.66372332 0.40863512 0.00000000
-0.59798818 0.33462129 0.00000000
0.52332843 0.70276647 0.28591502
-0.73788788 0.71262692 0.00000000
0.02348061 0.66182974 0.00000000
0.15696491 -0.64574659 0.00000000
0.49663713 -0.01898082 0.00000000
0.64797586 0.56434089 0.27666968
-0.05689402 -0.24427356 0.00000000
0.17916024 0.60527667 0.00000000
-0.07407358 -0.38407799 0.00000000
0.38618046 -0.14034880 0.00000000
-0.20365871 -0.39522124 0.00000000
0.55416733 -0.17075358 0.00000000
-0.78847581 -0.77261230 0.00000000
-0.08370213 0.28499994 0.00000000
-0.63098289 -0.36110347 0.00000000
-0.78202312 0.25298522 0.00000000
-0.64564627 -0.43469924 0.00000000
0.77788967 0.06004952 0.02545826
-0.15529255 0.65638622 0.00000000
-0.58047834 -0.17746890 0.00000000
-0.31965631 -0.10529921 0.00000000
0.68742792 -0.40055512 0.00000000
-0.47391372 0.37567399 0.00000000
0.14498207 0.10877478 0.00000000
-0.05071056 -0.41168610 0.00000000
-0.31907369 -0.69329219 0.00000000
-0.57137750 0.36901681 0.00000000
0.69817840 -0.54278335 0.00000000
-0.48513006 -0.12560669 0.00000000
0.51684249 -0.63207403 0.00000000
0.52054219 0.69747289 0.28049336
0.16590053 0.76106209 0.08519397
0.16163288 0.76925950 0.08783088
0.32233891 0.40643764 0.00000000
0.04341838 0.29376471 0.00000000
-0.62158527 -0.26818331 0.00000000
-0.48432565 0.58432008 0.00000000
0.47347773 0.67230842 0.23202695
-0.09343455 0.06297005 0.00000000
-0.53244243 0.18206976 0.00000000
-0.19101170 0.24253381 0.00000000
-0.09326902 -0.35169055 0.00000000
-0.40924014 0.75407465 0.00000000
-0.37871726 0.79162162 0.00000000
-0.03951829 -0.26191941 0.00000000
0.36189579 -0.17771904 0.00000000
0.29589144 0.53050652 0.01771398
0.11251211 0.68187533 0.00000000
0.55222285 -0.38974062 0.00000000
0.09915028 -0.55018047 0.00000000
-0.51320090 0.62394100 0.00000000
-0.67708900 -0.73613438 0.00000000
0.54231136 -0.24938622 0.00000000
0.49200678 -0.16532919 0.00000000
-0.79527673 -0.22536870 0.00000000
-0.39974581 0.11268747 0.00000000
0.31367580 0.23226342 0.00000000
0.69942137 0.32206126 0.14861788
-0.25051689 0.28138323 0.00000000
-0.46459280 0.22097805 0.00000000
0.10124537 0.13502757 0.00000000
0.76124442 -0.01390572 0.00000000
-0.10298870 -0.68259187 0.00000000
-0.59873851 -0.12676564 0.00000000
-0.57319595 -0.18001336 0.00000000
-0.54874020 -0.06704080 0.00000000
-0.26754018 0.06989093 0.00000000
-0.16641612 -0.00147250 0.00000000
0.65669412 0.01448075 0.00000000
0.59568708 -0.76573319 0.00000000
0.21859253 -0.42412400 0.00000000
0.51761577 -0.02108265 0.00000000
-0.17756951 0.48708731 0.00000000
0.63465238 0.12191932 0.00000000
-0.69684749 0.46879347 0.00000000
0.37775155 -0.21479150 0.00000000
-0.08079227 -0.55727472 0.00000000
-0.05087736 -0.66159448 0.00000000
0.54207647 0.63448423 0.25267700
0.47405063 -0.13794037 0.00000000
0.61895865 -0.44235659 0.00000000
0.51162309 0.52484519 0.15867341
-0.20246440 -0.56381197 0.00000000
0.17226402 -0.29391137 0.00000000
-0.79921009 -0.51635037 0.00000000
-0.50681985 -0.30668002 0.00000000
0.16408096 -0.54004003 0.00000000
-0.74590783 -0.32377282 0.00000000
-0.39124430 -0.68818489 0.00000000
-0.79355737 -0.68148012 0.00000000
-0.43766248 -0.37618043 0.00000000
-0.21069413 -0.40112919 0.00000000
-0.77043786 -0.37198411 0.00000000
0.05277950 0.56507661 0.00000000
-0.66917183 0.38555660 0.00000000
-0.27951659 -0.06640566 0.00000000
0.00231130 0.31226828 0.00000000
-0.62368645 -0.32999305 0.00000000
-0.67006841 0.09626780 0.00000000
0.48541471 -0.42504599 0.00000000
0.10716808 -0.71480014 0.00000000
-0.26122477 0.12032212 0.00000000
-0.62262971 0.45385093 0.00000000
-0.29896023 -0.36828986 0.00000000
0.16932765 0.17162084 0.00000000
0.69541406 -0.03623557 0.00000000
-0.08963217 0.24382676 0.00000000
0.54323340 0.47375517 0.14560232
-0.62506082 0.73287939 0.00000000
0.47054331 0.08622202 0.00000000
0.62302484 0.45393102 0.18584101
-0.23795511 0.49535770 0.00000000
-0.30484999 0.03696564 0.00000000
0.69762778 -0.06877856 0.00000000
-0.24040658 0.12105391 0.00000000
-0.68026019 -0.74104416 0.00000000
-0.08291819 -0.64615890 0.00000000
-0.55148272 0.64088875 0.00000000
-0.68711788 0.51151450 0.00000000
0.59860968 -0.72771838 0.00000000
0.74141700 -0.52323321 0.00000000
-0.67269561 -0.73628654 0.00000000
-0.45085140 0.75553091 0.00000000
0.33211090 -0.47253450 0.00000000
0.67076661 0.08951814 0.00000000
-0.25299628 0.23793671 0.00000000
-0.73116636 -0.08323602 0.00000000
-0.57256448 -0.61686135 0.00000000
-0.43547540 -0.15951471 0.00000000
-0.13053142 0.33391679 0.00000000
-0.49313216 -0.79433249 0.00000000
-0.65390161 -0.60639211 0.00000000
0.46837110 0.56430575 0.15612933
-0.23922690 0.62241175 0.00000000
-0.52446936 0.17376828 0.00000000
0.46769148 -0.29314761 0.00000000
-0.01466964 -0.03866139 0.00000000
0.22134908 0.33472351 0.00000000
-0.20115714 -0.61648411 0.00000000
0.19341223 0.19854559 0.00000000
-0.59215770 -0.59269952 0.00000000
0.56692360 0.70791161 0.31862030
-0.14416633 0.46764172 0.00000000
0.50378888 0.31218385 0.01071853
-0.78166969 0.24649065 0.00000000
0.54428609 0.03466321 0.00000000
-0.22235693 -0.15073275 0.00000000
0.47212094 0.10683576 0.00000000
-0.78416547 -0.44929051 0.00000000
-0.27444115 -0.15462940 0.00000000
0.14460433 0.49012464 0.00000000
0.50840628 0.15054587 0.00000000
-0.60081394 -0.68597989 0.00000000
0.54223089 0.41053947 0.10251121
-0.44274695 0.30546330 0.00000000
0.72199456 0.46475017 0.25951056
0.27361877 0.44320243 0.00000000
-0.74187791 -0.66468369 0.00000000
0.68391566 0.49768026 0.25605565
0.72856293 0.03117030 0.00000000
0.33509865 -0.04189199 0.00000000
0.15942113 -0.18741777 0.00000000
0.69359025 -0.43912989 0.00000000
0.71246502 0.10470096 0.01151922
0.16677924 0.42412840 0.00000000
-0.11168783 -0.38293562 0.00000000
-0.41733866 0.24603440 0.00000000
-0.38596248 -0.20739491 0.00000000
-0.47745150 -0.46773376 0.00000000
-0.74229442 0.56900568 0.00000000
0.40724882 -0.31642085 0.00000000
-0.23539321 0.68589414 0.00000000
0.13215303 -0.17353375 0.00000000
-0.71820747 0.58450974 0.00000000
-0.13698921 0.08294676 0.00000000
-0.11828653 -0.45996581 0.00000000
0.67666926 0.50688587 0.25737031
0.41305743 0.34732339 0.00000000
-0.35290229 0.18012468 0.00000000
-0.76760009 0.19617628 0.00000000
-0.28579535 -0.02732639 0.00000000
-0.42579642 -0.03055155 0.00000000
0.36904293 0.35559207 0.00000000
0.05210602 -0.31738593 0.00000000
-0.10808547 0.30483227 0.00000000
-0.63127353 0.51787049 0.00000000
-0.78776917 -0.35491442 0.00000000
-0.06617774 -0.34368929 0.00000000
0.53558122 0.17136509 0.00000000
0.62485745 -0.45023373 0.00000000
0.28274687 0.44282986 0.00000000
0.00457206 0.04427215 0.00000000
0.09974304 -0.54294054 0.00000000
0.46488791 0.64497425 0.20792155
-0.60904174 0.50749041 0.00000000
-0.28634277 0.41119024 0.00000000
0.34807113 -0.20561702 0.00000000
-0.63255227 0.64975213 0.00000000
0.77210218 0.03421793 0.00424153
0.47242306 0.32430221 0.00000000
0.02939354 -0.32709872 0.00000000
0.35389410 -0.07530481 0.00000000
0.65694375 0.54077419 0.26687372
-0.10337230 0.62982586 0.00000000
-0.57131668 0.24732322 0.00000000
-0.64276188 -0.08839243 0.00000000
0.49537724 -0.74314624 0.00000000
0.67430462 -0.40909806 0.00000000
-0.09103376 -0.77550998 0.00000000
-0.18984413 -0.28392604 0.00000000
0.78624198 -0.31231591 0.00000000
0.65633652 0.15206391 0.00563744
0.56567903 -0.46688740 0.00000000
-0.74881417 -0.04572014 0.00000000
-0.14337164 -0.09490912 0.00000000
-0.63231688 -0.48653043 0.00000000
-0.47300625 0.15054194 0.00000000
-0.40463541 0.34676369 0.00000000
0.18762830 0.70414938 0.06158447
0.37647612 -0.66388564 0.00000000
0.59703212 0.52739771 0.21769658
-0.70291746 0.19875760 0.00000000
-0.00214801 -0.14833816 0.00000000
-0.47173095 -0.33257138 0.00000000
-0.27927620 0.18329004 0.00000000
-0.32314148 -0.24730375 0.00000000
-0.63394624 -0.40113020 0.00000000
0.71620180 0.27107953 0.12566844
-0.68681779 0.15909831 0.00000000
0.32827158 -0.72292025 0.00000000
0.30911552 0.15658746 0.00000000
0.48404642 -0.76174332 0.00000000
0.56668341 0.15733009 0.00000000
0.69049503 0.42492680 0.21165209
0.10097427 0.70228161 0.00218540
0.32724858 0.27341675 0.00000000
-0.17459779 0.52126584 0.00000000
-0.35087930 -0.03423400 0.00000000
-0.66042464 0.70448259 0.00000000
-0.76480180 -0.01517452 0.00000000
0.68820513 -0.77330092 0.00000000
0.58690747 0.33047797 0.07876755
-0.05883956 -0.63068021 0.00000000
0.29311804 -0.35822009 0.00000000
-0.69508225 0.67270602 0.00000000
0.36574236 -0.56223072 0.00000000
-0.47470491 -0.30046399 0.00000000
0.52536586 -0.62124343 0.00000000
-0.27254030 0.31478456 0.00000000
-0.72385818 0.64625987 0.00000000
0.74728842 0.20218456 0.10029864
0.72446211 -0.61272483 0.00000000
0.41946989 -0.50632354 0.00000000
0.79328437 -0.36709990 0.00000000
-0.56578016 -0.67295000 0.00000000
-0.02812812 -0.07288382 0.00000000
0.06690651 0.18447630 0.00000000
0.54953318 0.46596180 0.14460011
-0.51998136 -0.46272529 0.00000000
-0.47947683 -0.44306150 0.00000000
0.21563253 0.21526543 0.00000000
0.20061639 -0.10994845 0.00000000
-0.69427416 0.72709946 0.00000000
0.45007047 0.41567201 0.04411457
-0.59817173 0.27034206 0.00000000
0.54636089 0.67858642 0.28514497
0.07492639 -0.32686499 0.00000000
-0.02486595 -0.41038285 0.00000000
-0.49559817 -0.60141119 0.00000000
-0.34087935 0.16972648 0.00000000
-0.12126573 0.58858530 0.00000000
0.49086257 -0.08858365 0.00000000
-0.13789875 -0.40116419 0.00000000
0.24944335 -0.48750755 0.00000000
0.48027330 0.67851668 0.24075266
0.54002548 -0.75023647 0.00000000
-0.39891297 0.58430433 0.00000000
-0.61158066 0.06543710 0.00000000
-0.68599332 0.09532552 0.00000000
-0.45200003 -0.05587706 0.00000000
0.53544803 0.45894363 0.13043955
0.71480327 0.31630971 0.15507995
0.60907612 -0.19720512 0.00000000
0.63851495 -0.13857793 0.00000000
0.56723646 -0.08424474 0.00000000
-0.07096051 0.41467916 0.00000000
-0.70736362 0.28241354 0.00000000
0.78774408 0.03159908 0.01298013
-0.60071347 0.31051756 0.00000000
0.64474868 -0.67142134 0.00000000
0.75750564 -0.54722670 0.00000000
0.39240352 -0.74875327 0.00000000
-0.79542619 0.10882818 0.00000000
0.06768567 -0.22619526 0.00000000
0.17344437 -0.53256955 0.00000000
-0.71588835 0.31283630 0.00000000
0.17258040 0.50197765 0.00000000
0.41109188 0.12304441 0.00000000
-0.51614810 -0.45285196 0.00000000
-0.75646783 -0.06988369 0.00000000
-0.28327788 -0.67403958 0.00000000
-0.79442775 -0.23563964 0.00000000
-0.30905033 0.48218441 0.00000000
-0.62955758 0.36649049 0.00000000
-0.67216969 0.11815700 0.00000000
-0.14704316 -0.24403688 0.00000000
0.32800217 -0.19521878 0.00000000
0.45837441 -0.12132723 0.00000000
-0.09449262 0.58757843 0.00000000
0.60273460 0.04184342 0.00000000
-0.51930565 -0.01913228 0.00000000
-0.02557651 0.02252862 0.00000000
0.49218751 0.31050386 0.00180660
0.08778961 0.37643116 0.00000000
-0.56763302 0.40835171 0.00000000
0.74885304 -0.29540517 0.00000000
-0.41328455 -0.50069822 0.00000000
0.10326805 0.03135777 0.00000000
-0.23191987 0.68504095 0.00000000
0.49665298 -0.64410792 0.00000000
0.30937926 0.66199162 0.11499238
-0.22010568 0.56899332 0.00000000
-0.79862960 -0.16773442 0.00000000
-0.69533202 0.09405919 0.00000000
-0.23059506 0.47919362 0.00000000
0.10375023 -0.71029683 0.00000000
0.52517170 -0.00824743 0.00000000
-0.02051067 0.10157252 0.00000000
-0.21059839 -0.70618723 0.00000000
0.34737993 0.44328268 0.00000000
-0.04910902 -0.60191591 0.00000000
0.08852035 0.78590609 0.04994162
-0.63206451 -0.05626224 0.00000000
-0.06667408 0.78618946 0.00000000
-0.26948828 0.34047001 0.00000000
0.45783261 -0.31118307 0.00000000
0.54339542 -0.68555909 0.00000000
0.58482870 -0.32029175 0.00000000
-0.31477194 -0.62131917 0.00000000
0.55319727 0.55987032 0.21007241
0.11057133 0.56182994 0.00000000
-0.52971362 -0.15139120 0.00000000
-0.58918472 -0.67993249 0.00000000
0.45479217 0.37409682 0.01938548
-0.66691667 0.32487948 0.00000000
0.71750197 0.25175304 0.11357259
-0.70939039 0.38775704 0.00000000
0.15892937 -0.34801401 0.00000000
-0.59273040 0.34216420 0.00000000
0.23047253 -0.10092048 0.00000000
0.58293401 0.41049757 0.12979533
-0.36968526 -0.68871716 0.00000000
-0.13918027 0.47106689 0.00000000
0.25861615 0.24382731 0.00000000
0.60017704 0.32197797 0.08196798
0.19871682 -0.39516051 0.00000000
0.74451752 -0.03925274 0.00000000
-0.79161822 -0.49075047 0.00000000
0.68149568 -0.57581655 0.00000000
0.55147219 0.23642837 0.00000000
-0.41665186 0.20203434 0.00000000
0.65425743 0.38129032 0.15805573
-0.09705480 0.24406722 0.00000000
-0.68451248 -0.53338923 0.00000000
-0.63234440 0.08963852 0.00000000
0.50287521 0.57340783 0.18538957
-0.72382370 0.47375753 0.00000000
0.51398828 -0.57041384 0.00000000
0.59919702 0.39247681 0.12861586
0.40671630 -0.45470693 0.00000000
0.48732581 0.37039408 0.03873132
-0.00821362 0.25069996 0.00000000
-0.51161377 0.58370554 0.00000000
-0.70698144 -0.78433506 0.00000000
0.22945481 -0.12260133 0.00000000
-0.57857231 0.27681109 0.00000000
0.53723339 0.70594694 0.29737953
-0.77533441 0.78606511 0.00000000
-0.77652643 -0.70109229 0.00000000
-0.14794867 0.66833131 0.00000000
0.63328273 0.00787708 0.00000000
-0.23004339 -0.03955889 0.00000000
0.14151912 -0.58894895 0.00000000
0.51792849 0.60100418 0.21400795
0.22261473 0.74686819 0.11372556
-0.61977414 0.47455402 0.00000000
