ply
format ascii 1.0
element vertex 1381
property float x
property float y
property float z
end_header
-0.11115280 0.57828445 0.00582558
-0.21496889 -0.69354425 0.00000000
-0.14441362 -0.73576786 0.00757099
-0.79745882 -0.41540041 -0.00000096
-0.01885907 0.00782932 0.00000000
-0.34946781 -0.64031577 0.00000000
-0.45910336 0.02135374 -0.00000058
-0.12315264 -0.69720092 0.00000000
-0.13937806 0.38101917 0.00000418
-0.62694653 -0.20753530 0.03286908
-0.00785023 -0.14837066 0.00041155
-0.22476797 -0.10300058 0.01178363
-0.03622675 0.40980169 0.00000000
-0.24348660 -0.49076111 0.01276497
-0.50294484 0.13214969 0.02636826
-0.60323965 0.08285319 0.03162665
-0.00544486 -0.62228708 0.00028545
-0.15346737 0.14569643 0.00000750
-0.30260457 -0.50049205 0.00000000
-0.47167795 0.17620015 0.00000136
-0.05006288 0.03421209 0.00000000
-0.39397472 0.01231702 0.02064841
-0.52781721 0.08532034 -0.00000099
-0.75396775 -0.27749086 -0.00000131
-0.51345158 0.27343686 0.02691939
-0.19535543 0.27875186 0.00000000
-0.32010867 -0.79562900 0.01678194
-0.10586076 0.11030079 0.00554089
-0.44131629 0.34203217 0.02313719
-0.33013231 0.35710064 -0.00000063
-0.06315778 -0.57218045 0.00000000
-0.33564181 -0.79307936 0.00000000
-0.04414705 0.22369342 0.00000798
-0.38176542 -0.24167324 0.02001435
-0.14073517 -0.30216014 0.00737815
-0.31422328 0.02333896 0.01647340
-0.54355871 0.10614896 0.02849761
-0.10430214 -0.57233819 0.00000000
-0.54931213 -0.10668545 0.02879888
-0.68014462 -0.64819705 -0.00000034
-0.10086841 0.25346543 0.00528125
-0.15344856 0.58908597 -0.00000028
-0.12267968 -0.38607999 0.00000000
-0.10552552 -0.32895900 0.00000000
-0.53245546 0.17430030 0.02791559
-0.09030481 -0.39168144 0.00000000
-0.05470567 0.35577692 0.00000584
-0.50484640 -0.19670751 -0.00000039
-0.16412214 0.51037687 -0.00000019
-0.20188458 0.55146458 0.01058439
-0.25268812 -0.52426279 0.01324737
-0.61799945 -0.70606288 0.00000000
-0.54796472 0.20961868 0.02872880
-0.32578126 0.20742338 0.01707969
-0.15234147 0.53867665 0.00798681
-0.54941778 -0.71129194 0.00000000
-0.15825706 0.43741923 0.00829678
-0.53060056 -0.46411352 0.02781718
-0.02415059 -0.01085042 0.00126611
-0.32323324 0.20799069 0.01694179
-0.06837990 -0.61942815 0.00358487
-0.20364523 -0.06863937 0.01067626
-0.32370698 -0.33696575 0.01697059
-0.19911909 0.10400201 0.00000744
-0.02024532 -0.69437941 0.00000000
-0.02212560 0.35646106 0.00000000
-0.35888769 -0.02097611 -0.00000008
-0.10823659 0.47826773 0.00567102
-0.47001403 -0.46199517 0.00000000
-0.68726850 -0.43077978 0.03603136
-0.03437595 0.19524006 0.00000000
-0.02958870 0.33343514 0.00154459
-0.03144369 0.62183805 0.00164846
-0.15123038 0.12526732 0.00792027
-0.58842883 0.10836592 0.00000025
-0.16062234 0.39865652 0.00000000
-0.04816611 0.70178041 0.00252518
-0.03705000 0.57127161 0.00194237
-0.37326229 0.06307959 0.00000514
-0.09359527 0.37490856 0.00000496
-0.74134438 -0.65864016 -0.00000035
-0.05527044 0.13999813 0.00000000
-0.15321786 0.43642132 -0.00000001
-0.41407303 -0.40739246 0.00000000
-0.33674085 0.43267933 0.01765471
-0.10071225 0.58760540 0.00527818
-0.16530926 0.48612531 0.00866424
-0.71921556 -0.22471112 -0.00000126
-0.03290227 0.35167652 0.00171862
-0.15464419 0.50607169 -0.00000014
-0.76904246 -0.63806775 0.04031806
-0.51944289 -0.02252762 0.02723298
-0.55806434 0.05720524 -0.00000107
-0.72829668 -0.71773795 -0.00000021
-0.36236299 0.27232469 0.01899514
-0.04445341 -0.23674053 0.00000000
-0.07037005 0.19041419 0.00000808
-0.04074380 0.20840358 0.00212767
-0.25311218 -0.52148665 0.00000000
-0.49880303 0.29826510 -0.00000124
-0.46700159 -0.54526864 0.00000000
-0.03014718 0.76397764 0.00158046
-0.05167587 0.10885728 0.00269944
-0.35633598 0.13855318 -0.00000035
-0.04484470 0.63984731 0.00235102
-0.77674919 -0.78537462 0.04072171
-0.50995757 -0.74586804 0.02673492
-0.51986852 -0.52194813 0.00000000
-0.01894052 0.60291143 0.00000000
-0.52762153 -0.10967041 0.02766163
-0.45327944 -0.25572813 -0.00000007
-0.68810648 0.05724722 0.03607532
-0.00251594 0.02049553 0.00000000
-0.22493890 0.01101494 0.00000844
-0.52088747 -0.05684908 -0.00000071
-0.77095997 -0.09875958 -0.00000170
-0.10788601 0.25912672 0.00565601
-0.54744186 -0.75792623 0.02870006
-0.44328812 0.11512774 -0.00000068
-0.27955773 0.27695743 -0.00000027
-0.11034684 -0.28224316 0.00578502
-0.02949264 0.39557985 0.00154617
-0.09717369 -0.02328403 0.00509441
-0.06608475 0.13196607 0.00345538
-0.75314058 -0.65654363 -0.00000036
-0.51139735 -0.08220479 -0.00000062
-0.21060733 0.47298698 0.00000142
-0.07102630 0.59108370 0.00372143
-0.53282519 -0.17505649 -0.00000055
-0.30075644 -0.74577316 0.01576739
-0.26234796 0.29587328 0.01375403
-0.65981073 -0.17201914 -0.00000110
-0.57038827 -0.54485284 0.02990311
-0.14935290 -0.21637849 0.00000000
-0.64171185 0.10311568 0.03364379
-0.04435003 0.40590653 0.00231975
-0.69885697 0.02468702 -0.00000047
-0.08904746 0.14942640 0.00000841
-0.25502934 -0.02354981 0.01337011
-0.60675406 -0.41372338 0.03181001
-0.56143703 -0.57268808 0.00000000
-0.16450321 -0.73655466 0.00862421
-0.08512917 0.58858948 0.00446094
-0.20120102 -0.43678842 0.00000000
-0.21626176 -0.66622523 0.00000000
-0.10511835 0.11312949 0.00000000
-0.45682479 -0.77843095 0.00000000
-0.10620512 0.08336771 0.00556788
-0.09051868 0.58820630 0.00474358
-0.27486587 0.51427367 0.01441057
-0.50795073 -0.34024581 -0.00000015
-0.02814792 -0.28158009 0.00147568
-0.28324861 -0.32969186 0.01484953
-0.77388947 -0.29051958 0.04057306
-0.12825770 0.52732458 0.00672176
-0.08630542 -0.33769609 0.00000000
-0.21928229 0.45416787 0.01149435
-0.68661763 -0.67575543 -0.00000031
-0.13622333 0.35656714 0.00000000
-0.22137597 -0.51516347 0.00000000
-0.41685301 0.15050046 0.00000284
-0.12001714 0.52379699 0.00628951
-0.12151667 0.01232269 0.00000998
-0.76278582 -0.47744553 -0.00000081
-0.22908307 -0.54299472 0.00000000
-0.02730881 0.16981183 0.00000000
-0.27511020 -0.01285307 0.00000000
-0.55964025 -0.08146754 -0.00000083
-0.37759879 -0.06464497 0.01979599
-0.45600224 0.14438162 0.00000219
-0.54357239 0.13056797 0.02849636
-0.17761841 0.02915047 0.00000888
-0.44985505 -0.44376322 0.00000000
-0.25824682 -0.43951481 0.01353879
-0.76653690 -0.67314282 -0.00000032
-0.09655740 0.20894082 0.00000000
-0.23845246 -0.67145120 0.00000000
-0.15096704 -0.18527483 0.00000000
-0.44157233 0.20638266 0.00000144
-0.01336749 0.33017143 0.00070080
-0.14643581 -0.76063396 0.00767701
-0.21142457 0.40486254 0.00000254
-0.06428150 0.37310493 0.00000543
-0.35610369 0.25653582 0.01866658
-0.20270099 -0.75436163 0.01062676
-0.18433601 -0.39481605 0.00966396
-0.42270708 0.18283513 0.02216148
-0.22670215 0.40469097 0.00000225
-0.00331968 -0.53209441 0.00000000
-0.52648844 -0.66138326 0.02760156
-0.31906159 0.07397655 0.01672713
-0.55053402 0.15971798 0.02886199
-0.55278269 0.18800524 -0.00000128
-0.38322643 0.10392977 -0.00000041
-0.17647638 -0.14838668 0.00000000
-0.73422635 -0.57369657 0.03849296
-0.44601519 -0.19994999 0.02338283
-0.09794367 0.14340118 0.00000837
-0.30612782 0.15664254 0.00000487
-0.51319294 -0.30668227 -0.00000023
-0.37203558 -0.20158840 0.01950425
-0.18709834 -0.59101972 0.00000000
-0.38877538 -0.76411526 0.02038185
-0.17432054 0.55764876 0.00913812
-0.09758256 0.28892823 0.00000619
-0.39957298 -0.46688766 0.00000000
-0.16582102 0.50331815 0.00869348
-0.75990508 -0.05967823 0.03984038
-0.50887373 -0.44946696 0.00000000
-0.29142829 0.46378463 0.00000002
-0.20443678 -0.71663832 0.01071776
-0.39858939 0.22964342 0.02089432
-0.43701730 0.24354888 0.02291188
-0.28980329 0.12385217 0.01519320
-0.09766397 -0.77373974 0.00512011
-0.26029185 0.13295045 0.01364600
-0.35850530 0.03023328 0.00000597
-0.69727488 -0.40905420 -0.00000084
-0.06307159 0.18644583 0.00000000
-0.12565153 -0.31994866 0.00000000
-0.32610099 0.39648373 0.01709556
-0.11329186 -0.76426894 0.00000000
-0.38329208 -0.17986032 0.02009438
-0.04501559 0.47830552 0.00235575
-0.33380703 -0.25187938 0.01750009
-0.14922420 0.53317596 0.00000159
-0.17789002 -0.73333610 0.00932602
-0.17476564 0.32368158 0.00916222
-0.38518319 0.13683165 -0.00000047
-0.40745627 0.07377558 -0.00000046
-0.70262072 -0.25889164 0.03683659
-0.08758175 0.50215904 0.00459154
-0.08740975 0.46047500 0.00457860
-0.13372222 0.37254028 0.00000439
-0.62371839 -0.19244685 0.03269985
-0.40905505 -0.59489962 0.00000000
-0.02461803 0.00152225 0.00000000
-0.12664875 0.46645671 0.00000309
-0.71128240 -0.28655482 -0.00000111
-0.69957879 0.03698241 -0.00000069
-0.09640540 0.42144954 0.00504974
-0.70478398 0.09139113 -0.00000176
-0.45166285 -0.22397169 0.02367890
-0.45740442 -0.14797667 0.02398006
-0.31466216 -0.76214230 0.01649641
-0.07350997 0.51994927 0.00000309
-0.49798700 -0.68083483 0.02610735
-0.04736266 0.31089940 0.00000662
-0.18684304 0.44650845 0.00979557
-0.76489883 0.03199063 -0.00000191
-0.35846090 0.31674597 0.00000119
-0.74793504 -0.03391192 -0.00000172
-0.71372861 -0.72645528 0.03741796
-0.54074874 -0.27858005 0.02834958
-0.28425690 -0.01966330 0.01490239
-0.50715197 0.05345049 0.02658487
-0.14131978 0.19010813 0.00740154
-0.18984310 0.00850801 0.00994334
-0.47435500 0.30552877 0.02486961
-0.01510803 -0.73957470 0.00000000
-0.30711291 -0.74023362 0.01610063
-0.44798316 -0.79298128 0.02348586
-0.43596431 0.32050520 -0.00000036
-0.06365125 0.22759055 0.00000000
-0.76285545 -0.52874094 -0.00000068
-0.57274628 -0.72035338 0.00000000
-0.45852361 -0.29182119 -0.00000003
-0.19744396 -0.62762979 0.01035115
-0.03691485 0.48961660 0.00000410
-0.46164140 0.03068310 0.00000399
-0.03307515 0.28435411 0.00000724
-0.43522311 -0.00438888 -0.00000044
-0.05661086 -0.00197387 0.00000000
-0.15712042 0.52076730 -0.00000018
-0.53099539 0.15151399 0.02783899
-0.12971397 0.12903560 0.00000811
-0.07627383 0.08279645 0.00000961
-0.05971252 0.34405461 0.00000594
-0.13842710 -0.35392670 0.00725715
-0.26120029 0.13069704 0.01369363
-0.65272768 0.04197075 0.03421956
-0.78562055 -0.61615683 -0.00000046
-0.20614574 -0.45387599 0.01080735
-0.28916911 0.02400287 0.00000000
-0.47035411 -0.43081152 0.00000000
-0.01432850 0.17582812 0.00000000
-0.12232901 -0.32321579 0.00641319
-0.43063140 -0.30358558 0.02257618
-0.07984904 -0.62246667 0.00000000
-0.24824003 -0.53039387 0.00000000
-0.50785646 0.17317656 0.02662396
-0.23387361 0.31937142 -0.00000015
-0.29068973 0.11020260 0.01523966
-0.62089014 -0.35848870 0.03255126
-0.48247478 -0.65760500 0.02529411
-0.33264056 0.29219598 0.01743947
-0.51801553 -0.33994232 -0.00000020
-0.78903426 -0.52633790 0.04136643
-0.46371093 -0.61744428 0.00000000
-0.71211572 -0.70943902 0.03733345
-0.53034947 0.16869085 0.02780516
-0.34336383 0.33038832 0.00000125
-0.25178604 -0.77608554 0.00000000
-0.39736668 -0.54079404 0.02083225
-0.33029108 0.43888615 0.01731607
-0.42222130 -0.22130559 0.00000000
-0.28252613 0.30905805 0.01481200
-0.56059154 -0.39022559 -0.00000029
-0.05636259 0.43819858 0.00295017
-0.28657365 -0.56473702 0.00000000
-0.10699091 0.24408174 0.00000000
-0.08122585 0.41930549 0.00000000
-0.18139257 0.03964353 0.00950964
-0.55291390 -0.12229505 -0.00000073
-0.48131165 0.09284102 0.02523035
-0.67998223 -0.51368197 -0.00000058
-0.38033215 -0.17562527 0.00000000
-0.21837681 0.42496019 0.01144634
-0.14925716 0.23020901 0.00000629
-0.41410723 -0.33143477 0.02170989
-0.64928239 -0.21603737 0.03404013
-0.47435590 -0.60586950 0.02486847
-0.73389800 -0.46470705 -0.00000084
-0.70730094 -0.63915065 0.03708121
-0.22565370 -0.78297715 0.01183007
-0.05624488 0.53299879 0.00294868
-0.63816061 -0.54461731 -0.00000035
-0.42920379 -0.36352167 0.00000000
-0.18275830 -0.71956312 0.00000000
-0.25159165 0.44915437 0.01319035
-0.29712999 0.13889514 0.01557153
-0.23526953 0.37744230 0.00000254
-0.62867432 -0.51232411 0.03295911
-0.61265044 -0.02835590 -0.00000115
-0.32586952 0.03820658 0.01707701
-0.62421210 0.13192413 -0.00000083
-0.16980777 0.45999692 -0.00000012
-0.08347257 0.28289896 0.00437611
-0.27972985 0.09862359 0.00000000
-0.34184518 0.08281550 0.01791567
-0.38054519 0.02703704 0.01995064
-0.41358125 0.05811660 0.00000445
-0.31254835 -0.69673681 0.00000000
-0.53584143 0.19063300 0.02809314
-0.38409611 0.15621643 -0.00000050
-0.34606487 -0.67298137 0.00000000
-0.51306168 0.20149522 0.02689882
-0.65904609 0.03065199 0.00000019
-0.36881728 0.29194976 0.01933400
-0.50105377 -0.06100269 0.02626876
-0.21925274 0.15707674 0.01148781
-0.39493572 0.31667696 0.02070425
-0.48491221 0.10278381 0.02541936
-0.30435620 0.08807888 -0.00000004
-0.37995162 -0.75195845 0.01991926
-0.47016315 0.03161302 0.00000381
-0.40908141 0.08470388 0.02144200
-0.26273679 0.19115883 0.00000512
-0.58256962 -0.06244856 0.03054265
-0.57873331 0.00496501 0.00000217
-0.59694235 -0.67101587 0.03129516
-0.18770519 0.12749087 0.00983302
-0.28504408 -0.01433244 0.01494365
-0.25461669 -0.49732345 0.00000000
-0.63551532 -0.50545491 -0.00000040
-0.51568650 -0.48951570 0.02703526
-0.49235766 0.05109194 -0.00000078
-0.39175679 -0.26972533 0.02053815
-0.28212576 -0.53761464 0.01479066
-0.69999768 0.05422731 0.03669891
-0.55863198 -0.65364156 0.00000000
-0.75762499 -0.67235882 -0.00000032
-0.20956524 0.04692926 0.00000813
-0.62924420 0.10794257 0.03299012
-0.38519504 0.17327332 0.02019470
-0.49867329 -0.25742323 0.02614360
-0.13493298 -0.42407410 0.00707397
-0.13260318 0.64556967 -0.00000029
-0.58951096 -0.30605184 0.03090614
-0.21779410 0.10263725 0.00000000
-0.02604466 0.50922919 0.00136541
-0.56454397 -0.11824548 -0.00000079
-0.17420646 0.53278726 0.00913170
-0.27917832 -0.61593806 0.00000000
-0.41077739 0.02129950 0.00000512
-0.14653970 -0.27571353 0.00000000
-0.45102298 -0.75810013 0.02364523
-0.52937394 0.06548036 0.02775054
-0.20886903 0.09362804 0.01094233
-0.10690087 0.53993312 0.00000229
-0.44546975 -0.66060470 0.02335409
-0.03751388 -0.41526149 0.00000000
-0.61900580 0.07381033 -0.00000136
-0.58352695 0.01977677 0.00000183
-0.60474528 -0.14031285 0.03170518
-0.16001338 0.35355830 0.00838429
-0.20632567 0.41864843 -0.00000021
-0.56183183 -0.08401855 -0.00000084
-0.01847981 -0.40447607 0.00000000
-0.21157244 0.28423013 0.00000454
-0.19848529 0.57829751 0.01040621
-0.44253487 -0.37563716 0.02320023
-0.30740575 0.21826003 0.00000381
-0.01988239 0.72024426 0.00104235
-0.79639333 -0.35863913 -0.00000110
-0.65057737 -0.29868695 0.03410788
-0.38723342 -0.20669304 0.02030101
-0.18865468 -0.28201388 0.00000000
-0.35464256 -0.24013790 0.01859241
-0.33150315 -0.71447893 0.00000000
-0.06050114 -0.37396271 0.00000000
-0.07749152 0.18793967 0.00000801
-0.32848123 -0.10658087 0.01722088
-0.17138061 -0.31994484 0.00898476
-0.35971273 -0.79397294 0.01885822
-0.15476838 -0.63994903 0.00811385
-0.08337387 0.56121625 0.00437094
-0.09576544 -0.41585199 0.00000000
-0.54933684 -0.48047756 -0.00000008
-0.11657502 0.58098519 0.00611001
-0.44129363 -0.46313902 0.00000000
-0.24471925 -0.59708247 0.01282959
-0.60123146 -0.02121998 0.03152117
-0.49723772 -0.73800238 0.00000000
-0.39781532 0.38444833 -0.00000070
-0.06292176 -0.30007567 0.00000000
-0.28816749 0.21256340 -0.00000019
-0.16551427 0.30062234 0.00000000
-0.58208583 -0.35037919 0.03051676
-0.42215373 0.22765632 0.02213014
-0.69656895 -0.40824031 -0.00000084
-0.36500262 0.23356688 -0.00000056
-0.11054844 -0.34660390 0.00579559
-0.36303739 -0.63295362 0.00000000
-0.62317968 -0.31965464 0.03267138
-0.44270658 -0.68327565 0.00000000
-0.55840749 -0.22584474 0.02927553
-0.15068016 0.27633306 0.00000000
-0.34479698 -0.18120046 0.00000000
-0.32128554 -0.30988763 0.00000000
-0.66979038 -0.57410942 -0.00000043
-0.29426744 0.08376240 0.01542043
-0.79614101 -0.63508142 -0.00000041
-0.59771339 0.15427121 -0.00000141
-0.17214986 -0.09967774 0.00000000
-0.56736340 0.12313039 0.00000041
-0.36059716 -0.52280422 0.00000000
-0.08597551 0.00552186 0.00450733
-0.60698554 0.03218061 -0.00000123
-0.30293100 -0.17208246 0.00000000
-0.14285930 -0.17558400 0.00000000
-0.42459197 0.18336684 0.00000215
-0.02646311 0.66586779 0.00000161
-0.15154951 0.13343269 0.00793713
-0.06973495 0.18540790 0.00364760
-0.18037099 0.44876228 0.00000240
-0.25067517 0.08453896 0.01313449
-0.17107162 -0.73518783 0.00000000
-0.07769752 0.31621044 0.00000608
-0.06126454 0.41000441 0.00320680
-0.73054608 -0.27498240 0.03830069
-0.79180945 -0.66189296 -0.00000035
-0.15272664 0.23145120 0.00000000
-0.53828594 0.12432303 -0.00000110
-0.76736421 -0.01510725 0.04023155
-0.34545530 0.09064000 0.01810515
-0.50900027 0.05435715 -0.00000085
-0.27517394 0.39198738 0.00000153
-0.64477444 0.06278623 -0.00000007
-0.53040574 -0.24652629 0.02780736
-0.50428639 0.01239902 -0.00000076
-0.51876841 -0.69352046 0.02719683
-0.45733876 0.14526966 0.02397715
-0.14115901 -0.09477093 0.00000000
-0.42285212 -0.73740512 0.00000000
-0.42778356 0.11170319 0.02242334
-0.16538332 0.18764816 0.00867035
-0.54334655 -0.67474358 0.02848536
-0.19372073 -0.41548605 0.01015596
-0.55067528 0.12261229 0.00000074
-0.54281989 -0.28297101 -0.00000040
-0.41479755 -0.29937928 0.00000000
-0.09166241 0.41781795 0.00480547
-0.10805514 0.28993106 0.00566487
-0.06173085 0.55381528 0.00323629
-0.41050788 0.21070815 0.00000196
-0.19844517 0.37828965 -0.00000010
-0.02905451 -0.34892442 0.00000000
-0.20185089 0.58645335 0.01058269
-0.08524562 -0.76993054 0.00446907
-0.42583886 0.25034282 0.02232580
-0.56045037 -0.32041066 -0.00000041
-0.13147843 -0.74484102 0.00689286
-0.43224669 0.10578388 -0.00000062
-0.44036608 -0.49202730 0.00000000
-0.19922725 -0.78495324 0.00000000
-0.69257921 0.06889629 0.03631011
-0.61898849 0.12705461 -0.00000065
-0.22164194 0.10595941 0.01161975
-0.01032663 0.49663891 0.00000000
-0.02503472 -0.66108105 0.00000000
-0.07763244 0.48599347 0.00000000
-0.37618460 -0.77042143 0.00000000
-0.02170164 -0.15335285 0.00113773
-0.26354175 0.39477251 0.00000171
-0.12969475 0.35970033 0.00000000
-0.47878739 0.20178472 -0.00000099
-0.06489414 0.46402347 0.00000406
-0.64294145 -0.15977359 0.03370778
-0.46037271 0.03759784 0.02413119
-0.63798409 0.15712809 0.03344837
-0.39295900 -0.25353026 0.02060118
-0.54600285 -0.07352321 -0.00000079
-0.61861552 0.01435654 0.00000124
-0.46555394 -0.27379354 -0.00000009
-0.42534383 -0.29468712 0.02229898
-0.09282051 0.38630566 0.00486619
-0.49878636 0.04447001 0.02615008
-0.13751401 -0.35169932 0.00000000
-0.44383210 -0.12128996 0.02326851
-0.58304185 0.14548527 -0.00000026
-0.07433839 -0.19271739 0.00000000
-0.58737705 -0.51701688 0.03079388
-0.15195141 0.54934180 0.00796480
-0.53439932 0.15999454 0.00000043
-0.30115342 -0.14090555 0.01578820
-0.41168771 -0.17748430 -0.00000003
-0.58887796 -0.35616356 0.03087287
-0.60927218 0.17828842 -0.00000132
-0.19753741 0.18818187 0.01034954
-0.00739976 0.09167733 0.00037737
-0.08969017 0.10698379 0.00469286
-0.09066613 0.61144546 0.00475173
-0.37028645 0.21288904 -0.00000054
-0.06993513 0.34553618 0.00000576
-0.73809748 -0.43621290 -0.00000091
-0.58492349 -0.28523507 0.03066566
-0.35233813 -0.43486821 0.00000000
-0.14692093 0.53966834 0.00770080
-0.11581574 0.09813046 0.00000878
-0.29905668 -0.66600421 0.00000000
-0.40051533 0.05025947 -0.00000038
-0.45125768 -0.61094128 0.00000000
-0.79756773 -0.77417976 -0.00000006
-0.13194280 -0.66190548 0.00691720
-0.79241689 -0.50741657 0.04154381
-0.34495524 0.05548736 0.00000581
-0.76391694 -0.56660998 0.04004953
-0.34178216 0.33522143 0.01791688
-0.24796478 -0.44487834 0.01299974
-0.15911851 0.01351643 0.00000940
-0.70934964 -0.23692934 -0.00000119
-0.36389790 0.06734559 0.01907789
-0.06880850 0.04682444 0.00001026
-0.76606222 -0.74512312 0.04016154
-0.60769301 -0.57234040 -0.00000017
-0.62758493 -0.65754639 0.03290173
-0.45734794 -0.46835883 0.00000000
-0.33533772 0.32943702 0.00000142
-0.39612240 -0.71707784 0.00000000
-0.73233847 -0.63282545 -0.00000042
-0.68394153 -0.61039269 -0.00000043
-0.32181728 -0.20697680 0.00000000
-0.63577070 -0.58746236 0.03333104
-0.45759449 -0.38992618 0.02398974
-0.50531778 -0.15287551 -0.00000047
-0.02431393 0.39107905 0.00000577
-0.27110383 0.17778976 0.01420725
-0.41481778 0.06864490 0.02174763
-0.57449246 -0.50911212 0.03011835
-0.08877609 0.22453982 0.00465415
-0.20918254 -0.56296558 0.00000000
-0.11951338 0.67386997 0.00626577
-0.44762180 0.12525208 0.02346766
-0.68312722 -0.62240565 0.03581389
-0.57267395 -0.08006995 -0.00000089
-0.22081318 -0.36780393 0.00000000
-0.18037606 0.35498718 0.00945635
-0.67821937 -0.21700923 0.03555730
-0.48667518 -0.78266886 0.02551432
-0.73924327 -0.51129488 -0.00000072
-0.76571173 -0.23541091 0.04014447
-0.15819826 -0.19519453 0.00000000
-0.19849387 0.16432496 0.01040619
-0.12392775 0.26911970 0.00649070
-0.21869249 0.37675964 0.01146531
-0.31160847 -0.77313485 0.01633631
-0.42069509 0.21467756 0.00000170
-0.22046779 0.41468445 0.01155846
-0.47293206 -0.06587570 -0.00000049
-0.73070910 -0.55243367 0.03830862
-0.17960739 0.34735365 0.00000408
-0.54712160 -0.43918893 0.02868342
-0.34361071 -0.71608832 0.01801406
-0.03307302 0.56509736 0.00000000
-0.51013994 0.27298247 0.02674576
-0.22473372 -0.09657362 0.01178184
-0.30280533 0.26458749 0.01587143
-0.46445796 0.31582789 0.02435042
-0.36885108 -0.66728903 0.01933730
-0.60846913 -0.41379692 0.03189993
-0.19813577 0.34607849 -0.00000004
-0.33591544 0.21331595 -0.00000040
-0.52366139 0.19453289 -0.00000116
-0.67043519 -0.19150681 0.03514922
-0.13496619 0.63701489 0.00707600
-0.46851014 0.22829473 0.02456302
-0.06910188 -0.64567971 0.00362272
-0.64424605 -0.76108541 0.03377509
-0.58716701 -0.03857629 -0.00000102
-0.60407914 -0.15988167 -0.00000088
-0.10669342 -0.05692441 0.00559348
-0.29234814 -0.28672121 0.00000000
-0.44805008 -0.35434114 0.00000000
-0.40242878 -0.43845543 0.02109764
-0.32064092 0.10076617 0.01680391
-0.06795609 0.01216282 0.00356265
-0.15173469 0.22391797 0.00000000
-0.05669298 0.06755094 0.00000000
-0.67059795 -0.12417788 -0.00000123
-0.40091498 -0.70629806 0.02101828
-0.61033764 -0.53162921 -0.00000025
-0.50236664 0.22096563 0.02633811
-0.41867269 0.17669685 0.02194994
-0.74443140 -0.50422612 -0.00000074
-0.67180785 0.09443925 -0.00000112
-0.35047726 0.09062866 0.00000512
-0.50030582 -0.07391905 0.02622953
-0.50014842 -0.74273555 0.02622067
-0.18774931 -0.20897807 0.00000000
-0.21896624 0.42091952 0.01147975
-0.02533306 -0.10702994 0.00000000
-0.13989440 0.40606543 0.00733407
-0.23888315 0.56024908 0.01252425
-0.26957191 0.51831550 0.01413319
-0.29563398 -0.35602102 0.01549884
-0.19825345 -0.16502803 0.00000000
-0.50484822 -0.25734010 0.02646735
-0.13388999 0.01803966 0.00000000
-0.00728516 -0.78636051 0.00000000
-0.17214575 -0.36144064 0.00902487
-0.14043215 0.28150329 0.00736226
-0.14248804 0.58496347 -0.00000023
-0.30377850 0.02406265 0.00000706
-0.43024858 0.24700738 0.00000097
-0.44210437 -0.18758776 0.02317781
-0.06579842 0.15956879 0.00344953
-0.58044639 0.14069430 -0.00000131
-0.42215621 0.00784708 0.02213228
-0.53349228 -0.59309632 0.00000000
-0.46927113 0.22840936 0.02460292
-0.03640123 -0.28147970 0.00000000
-0.19459142 -0.08669325 0.00000000
-0.50688577 -0.65708113 0.00000000
-0.44920950 -0.45711488 0.02355015
-0.21114878 0.18972158 0.00000000
-0.45105802 0.01670495 -0.00000054
-0.38448551 0.16172597 0.02015748
-0.26322436 0.01476014 0.01379974
-0.70793110 -0.33698310 0.03711487
-0.19970274 0.20114332 0.01046957
-0.08551095 0.67040252 0.00000052
-0.25655215 0.10147414 0.01344994
-0.22441645 0.24710500 0.00000000
-0.59914805 -0.10853352 0.03141178
-0.18263302 0.52992771 -0.00000030
-0.29272451 0.35948788 0.01534679
-0.18732803 0.55507703 0.00982119
-0.46401248 0.03879685 0.02432686
-0.38333008 0.21651487 0.02009700
-0.08092917 -0.16845213 0.00000000
-0.32600188 0.30641205 0.01708875
-0.23352253 -0.57910222 0.00000000
-0.05438372 0.70728815 -0.00000007
-0.00681867 0.78166964 0.00000017
-0.52011228 -0.08378537 0.02726796
-0.34010358 0.40859622 0.00000001
-0.07393258 -0.23075638 0.00387597
-0.01534359 0.76982147 0.00000021
-0.38015718 -0.58101226 0.00000000
-0.17001985 0.06121230 0.00000000
-0.49120010 0.05450773 0.02574827
-0.07312415 -0.11949736 0.00000000
-0.02777918 0.15119136 0.00000000
-0.59499571 -0.00992696 -0.00000111
-0.42036632 -0.19429109 0.02203807
-0.65412777 -0.29333147 0.03429404
-0.77039260 -0.70574801 0.04038867
-0.54786333 0.02567859 -0.00000097
-0.34449832 0.42804542 0.01806143
-0.26285471 0.41525705 0.01377886
-0.37676734 0.28722754 0.00000133
-0.51260074 -0.56350284 0.02687349
-0.53976124 -0.03935914 0.02829824
-0.73192872 0.01863348 0.03837372
-0.02516281 0.45563676 0.00000479
-0.25495593 0.09934465 0.01335919
-0.15029406 0.05872819 0.00000000
-0.37001521 -0.49890348 0.00000000
-0.62013495 0.17503860 0.03251257
-0.56779345 -0.11713872 -0.00000080
-0.09171951 0.45497844 0.00480452
-0.40277946 -0.25203218 0.02111602
-0.78704032 -0.25022449 -0.00000137
-0.24294797 -0.77415287 0.00000000
-0.04441481 -0.08915996 0.00232848
-0.03609927 -0.22423651 0.00000000
-0.74928809 -0.16932726 -0.00000148
-0.42683239 -0.29581363 0.00000000
-0.42770812 -0.32794400 0.00000000
-0.37407362 -0.29239852 0.00000000
-0.54207806 -0.01963464 -0.00000086
-0.24674095 0.04981456 0.00000000
-0.36821081 0.29430178 0.00000138
-0.23401645 -0.05020922 0.00000000
-0.37566037 -0.05029597 -0.00000010
-0.55900326 -0.67590876 0.00000000
-0.24274248 0.05693270 0.00000000
-0.13228636 -0.29387363 0.00693521
-0.45881225 0.03600402 0.00000395
-0.27154022 0.35179978 0.00000227
-0.03800947 0.35785595 0.00198653
-0.02481332 0.48017573 0.00129638
-0.43376174 0.08686905 0.02274090
-0.57641893 0.17303393 -0.00000135
-0.28340862 0.09275305 0.00000633
-0.55610682 -0.48959835 0.02915443
-0.41602404 -0.58663267 0.02181038
-0.12604504 -0.56467487 0.00000000
-0.23930637 0.04440539 0.01254582
-0.49700845 -0.55104863 0.00000000
-0.28686953 -0.73081776 0.01503936
-0.34111828 -0.34431358 0.00000000
-0.19005361 0.31324803 0.00996371
-0.20004105 0.46496846 0.01048758
-0.14125917 0.62941071 0.00000014
-0.35233237 0.33757428 0.01847200
-0.14298651 0.20918494 0.00748923
-0.34484981 -0.39253767 0.00000000
-0.42569014 0.19834320 -0.00000075
-0.66863306 -0.77136651 0.03505368
-0.02191707 0.65312171 0.00114711
-0.37185413 -0.08920569 0.01949476
-0.06508857 0.38525541 0.00000000
-0.22405988 -0.59190403 0.00000000
-0.16438378 0.07828639 0.00861795
-0.73476001 -0.50061709 0.03852113
-0.02171208 0.51917045 0.00000000
-0.24631295 -0.75774063 0.00000000
-0.01448877 0.73703719 0.00000073
-0.32728983 -0.34257725 0.01715842
-0.20746554 0.45915499 0.00000171
-0.16324650 -0.11954768 0.00000000
-0.12557543 0.33967863 0.00657817
-0.24433127 0.26584634 0.01280936
-0.39442458 -0.51900553 0.02067801
-0.17547044 0.28834207 0.00919386
-0.77732051 -0.15936042 -0.00000160
-0.70894697 -0.66835053 0.03716743
-0.63433331 -0.14823307 0.03325647
-0.12571573 -0.71873889 0.00000000
-0.13213259 -0.64448250 0.00000000
-0.25774416 0.35411321 0.01351276
-0.57564675 -0.73358303 0.03017872
-0.22095876 -0.36311034 0.01158393
-0.54339338 0.13073769 0.02848698
-0.54006210 -0.40991656 0.02831334
-0.46499000 0.10093926 0.00000275
-0.48418073 -0.12384953 -0.00000043
-0.71552074 0.05174029 0.03751300
-0.23637879 0.50270469 0.00000043
-0.43690393 -0.64441086 0.02290502
-0.38447294 -0.71174408 0.02015629
-0.56481745 0.04291922 -0.00000107
-0.02566360 -0.15816752 0.00000000
-0.55555663 0.16960080 0.02912559
-0.30257602 -0.38618587 0.01586278
-0.58999720 -0.75985528 0.03093106
-0.13615308 0.17730598 0.00713793
-0.28026838 0.41590352 0.00000103
-0.50017880 0.25806270 -0.00000055
-0.17258419 -0.38249788 0.00000000
-0.49012071 -0.60145093 0.00000000
-0.09152911 0.50741192 0.00000000
-0.32262299 0.03771887 0.00000654
-0.64396083 -0.65898840 -0.00000017
-0.40847057 -0.70720584 0.02141438
-0.52035844 0.26541765 0.02728129
-0.21839373 -0.45995673 0.00000000
-0.31364065 -0.71162292 0.01644285
-0.45848337 0.01807850 0.02403175
-0.03508461 -0.52201633 0.00183934
-0.17132216 0.14474846 0.00898170
-0.58272613 -0.41488762 -0.00000034
-0.54012650 -0.53101778 0.00000000
-0.49805710 0.10077269 -0.00000089
-0.05002874 -0.22401588 0.00000000
-0.05616657 -0.26217443 0.00000000
-0.66496301 -0.17096529 -0.00000112
-0.21022086 0.29502266 0.01102100
-0.13697448 0.33532774 0.00000000
-0.43209476 -0.79933870 0.00000000
-0.37078539 0.28836073 -0.00000068
-0.15349646 -0.64331408 0.00804717
-0.00664200 0.77980955 0.00000000
-0.50968331 -0.37528859 0.02672064
-0.79557593 -0.16098425 0.04171032
-0.23587026 -0.41805814 0.01236568
-0.04364084 0.06880774 0.00001031
-0.56922330 -0.52010085 0.02984207
-0.47783857 -0.45825274 0.02505105
-0.13196468 0.17032384 0.00000745
-0.05392445 -0.25727643 0.00282703
-0.36076142 0.16212252 0.01890918
-0.74890160 -0.34152953 -0.00000115
-0.39566001 0.04212155 0.02073733
-0.13439813 -0.28415292 0.00000000
-0.34177951 0.13456702 0.01791316
-0.37676892 -0.23748312 0.01975240
-0.45245454 -0.61743064 0.00000000
-0.28579664 0.39188577 0.01498166
-0.20657080 0.33076914 0.01082969
-0.44619658 -0.42834172 0.02339220
-0.34003709 -0.06684753 0.00000000
-0.73544756 -0.35452280 0.03855753
-0.01674732 0.16150045 0.00000000
-0.37858917 -0.66090873 0.00000000
-0.03949435 -0.69144704 0.00000000
-0.15398856 -0.35951709 0.00807297
-0.24278423 0.10566638 0.00000675
-0.50430096 0.22443697 -0.00000113
-0.77550132 -0.35590237 -0.00000111
-0.08017177 0.01155619 0.00420307
-0.07157704 0.13845650 0.00000884
-0.21708355 0.43225380 0.01137864
-0.18825893 -0.34272157 0.00986962
-0.56013860 -0.39635578 -0.00000028
-0.51840764 0.06317743 0.00000235
-0.76938702 -0.07968394 0.04033748
-0.44967565 0.30999370 -0.00000045
-0.54737907 0.08155089 0.02869513
-0.43898169 -0.69228628 0.00000000
-0.43954490 -0.58877862 0.00000000
-0.00310846 -0.25152235 0.00000000
-0.71324367 -0.77980519 -0.00000005
-0.47567334 0.21149878 0.02493856
-0.39650017 -0.64490680 0.00000000
-0.48536954 0.00811551 0.02544656
-0.57371534 -0.43134929 0.03007775
-0.48616905 0.23754621 0.00000006
-0.52115279 -0.11096274 0.02732247
-0.01613446 0.16971874 0.00084586
-0.18723102 -0.03556943 0.00981573
-0.57106916 0.19909956 0.02993969
-0.25797068 0.40886797 -0.00000041
-0.03396388 -0.68028384 0.00000000
-0.73527704 -0.64746765 -0.00000038
-0.33259678 -0.62420296 0.00000000
-0.08974338 -0.79100050 0.00470487
-0.22002950 0.19470016 0.01152911
-0.74174714 -0.17748367 -0.00000144
-0.45918918 -0.13145532 -0.00000031
-0.32140272 0.00352336 0.01684218
-0.42467084 0.30423000 0.02226353
-0.10902885 0.06888901 0.00570640
-0.42097590 -0.06430271 -0.00000027
-0.25565465 0.53948553 -0.00000056
-0.36276015 0.20071869 0.01901848
-0.12485971 -0.79147691 0.00000000
-0.21100109 0.28270637 0.00000458
-0.12362887 -0.61112375 0.00648134
-0.71500502 -0.08473610 0.03748622
-0.41640927 0.25311723 0.02182932
-0.38751091 0.37906636 0.02031649
-0.09505675 -0.54726561 0.00000000
-0.33657197 0.45990845 0.01764590
-0.06777393 0.42331276 0.00354835
-0.15115257 0.07528572 0.00000859
-0.42431043 -0.00763345 -0.00000038
-0.22967384 0.05764301 0.01203279
-0.11312052 0.56161105 -0.00000006
-0.34608318 0.29550125 -0.00000059
-0.06854793 -0.18734407 0.00359368
-0.02734370 -0.35638233 0.00000000
-0.77221184 -0.39187503 0.04048485
-0.15904030 0.08318949 0.00833781
-0.15336998 0.06683467 0.00000868
-0.79438331 -0.08575661 0.04164799
-0.73096702 -0.74781691 0.03832164
-0.40489335 0.25121072 0.00000139
-0.25586077 -0.27355769 0.00000000
-0.77808313 -0.22120171 -0.00000145
-0.09755600 -0.74264126 0.00000000
-0.17826686 -0.78226589 0.00000000
-0.39880446 -0.69099980 0.00000000
-0.09734940 -0.29096923 0.00000000
-0.28682835 -0.21629833 0.01503720
-0.70811315 -0.74164222 -0.00000015
-0.35105011 0.29705666 -0.00000061
-0.19038913 0.01294043 0.00998130
-0.04541412 0.28570007 0.00237374
-0.69274176 -0.54666585 0.03631811
-0.15463996 0.34061376 0.00810712
-0.34205097 -0.66810164 0.01793229
-0.71916010 -0.44820077 0.03770341
-0.74685473 -0.13728523 0.03915601
-0.67889081 -0.44125575 0.03559210
-0.32344228 0.07850588 0.00000584
-0.09766942 0.05357142 0.00000000
-0.38794151 0.19919280 0.02033533
-0.07184288 -0.14268008 0.00000000
-0.15388460 0.54951489 -0.00000021
-0.24466576 0.22963188 0.00000483
-0.21604542 -0.04681082 0.00000000
-0.52352923 0.21493276 -0.00000120
-0.38212944 0.18494146 -0.00000054
-0.31689310 0.31586889 0.01661388
-0.43257276 0.30356508 -0.00000001
-0.50387588 -0.15780195 0.02641655
-0.28374147 -0.42224418 0.01487536
-0.35350942 -0.29184417 0.01853300
-0.25496863 -0.05804751 0.01336693
-0.74966134 -0.37624427 0.03930266
-0.68351468 -0.16839456 -0.00000121
-0.56852255 0.09919341 0.02980434
-0.69029772 -0.08770584 -0.00000138
-0.78739776 -0.21016001 0.04128145
-0.08707664 -0.55163991 0.00000000
-0.22092697 0.22486568 0.00000529
-0.45138575 0.31826494 -0.00000107
-0.46028774 -0.74392031 0.00000000
-0.26844619 0.35323590 0.01407101
-0.27668293 -0.78602679 0.01450532
-0.65154614 0.11934553 -0.00000158
-0.09778099 0.33268187 0.00000000
-0.52431982 -0.01779078 -0.00000079
-0.51086788 0.12430025 0.02678366
-0.08674483 0.71091523 0.00454788
-0.35117961 -0.39987788 0.01841086
-0.25132464 0.07446956 0.01317589
-0.37285414 -0.16037522 0.00000000
-0.44976712 0.08675268 -0.00000066
-0.19663443 -0.49337299 0.01030871
-0.74251983 -0.04510234 -0.00000167
-0.16081151 0.12038244 0.00842263
-0.48747797 -0.42371376 0.00000000
-0.33333961 0.25323020 0.00000273
-0.05660175 0.43293640 0.00296263
-0.29996189 -0.47940900 0.01572573
-0.00698691 0.27576776 0.00036629
-0.00161412 0.08487976 0.00000000
-0.53876777 0.07223762 0.02824636
-0.00309258 -0.70531371 0.00000000
-0.56209476 0.12390163 0.02946767
-0.24727393 0.34577749 0.01296047
-0.08146783 0.34871496 0.00426533
-0.21562064 0.03711277 0.00000000
-0.58611739 0.13982996 -0.00000023
-0.14790210 -0.43017187 0.00000000
-0.39614324 -0.60476829 0.00000000
-0.31173201 0.08820069 -0.00000007
-0.33332600 -0.06668285 0.01747487
-0.33968968 0.18536604 0.01780446
-0.15623674 0.25460295 0.00819083
-0.09206455 0.48657027 0.00482655
-0.41793124 0.27917322 0.00000067
-0.14992545 0.47001867 0.00785713
-0.06725191 0.34142140 0.00000586
-0.60819347 -0.44628623 -0.00000039
-0.19459493 0.08097026 0.01020179
-0.00612910 0.61640030 0.00031864
-0.30028466 0.13922850 0.01574277
-0.20651055 -0.63489309 0.00000000
-0.12730317 0.65161089 0.00667426
-0.00467634 0.31743737 0.00000000
-0.79013231 0.00202905 0.04142531
-0.15799867 0.56727086 0.00828228
-0.06461434 -0.28678213 0.00000000
-0.25780721 0.43858447 0.00000109
-0.43381167 -0.25694917 0.00000000
-0.18793978 0.50940128 0.00000125
-0.24168167 -0.56446449 0.01267035
-0.18807842 -0.15456456 0.00000000
-0.11916300 0.26720479 0.00624081
-0.64467402 0.03753778 0.03379898
-0.51629075 -0.70775392 0.00000000
-0.08188422 0.65806875 -0.00000010
-0.48405041 -0.45972697 0.00000000
-0.38448144 0.16544884 0.02015727
-0.37561866 -0.04879320 -0.00000010
-0.78481248 -0.40235244 -0.00000099
-0.48355076 -0.69007146 0.00000000
-0.06857829 0.47296893 0.00359527
-0.20700015 -0.22237997 0.00000000
-0.63901184 -0.70380266 0.03350076
-0.78845557 -0.56917973 0.04133598
-0.18858476 -0.28391102 0.00988670
-0.05302975 -0.39535860 0.00000000
-0.36928781 0.16200397 -0.00000045
-0.37651238 0.00597328 -0.00000020
-0.63759502 -0.17545209 -0.00000100
-0.76258953 -0.29822298 -0.00000125
-0.39520229 0.00930100 0.02071908
-0.29247444 0.39790712 0.01533200
-0.60086544 -0.04266244 -0.00000107
-0.04715705 -0.02205058 0.00247224
-0.01465150 0.20412837 0.00000872
-0.77234513 -0.16340362 0.04049242
-0.07295796 0.25130012 0.00382488
-0.66963695 -0.57150994 0.03510668
-0.28984347 0.08322253 0.00000638
-0.40839780 -0.21559981 0.02141057
-0.01065900 0.53545207 0.00055497
-0.68860503 -0.76098296 -0.00000010
-0.38904607 -0.05727660 -0.00000014
-0.02853101 0.42228281 0.00000000
-0.12372159 0.20374516 0.00647891
-0.14858634 0.17933077 0.00000000
-0.60080671 0.09979720 0.00000016
-0.43213734 0.20541461 0.02265335
-0.25227706 0.10371827 0.01322582
-0.23945242 0.49916873 0.01255398
-0.08780344 -0.04302939 0.00460316
-0.24329588 0.03379408 0.00000782
-0.23539587 -0.76981513 0.00000000
-0.37955128 -0.44387568 0.01989827
-0.08113472 -0.00583868 0.00425355
-0.05831096 0.55257551 0.00305407
-0.37356860 -0.74326611 0.00000000
-0.14995796 0.14879617 0.00786166
-0.06717501 0.71317627 0.00000016
-0.10333953 -0.26760115 0.00000000
-0.22136833 -0.06868219 0.01160540
-0.21533259 0.11089924 0.00000709
-0.25097068 0.34873828 0.00000272
-0.36968522 0.05742665 0.00000530
-0.36910093 0.27017759 0.01935106
-0.06424356 0.41314241 0.00000000
-0.46895274 0.27069976 0.02458535
-0.50579097 -0.34059912 0.02651663
-0.17096212 -0.36749580 0.00896282
-0.50533487 -0.28488192 0.02649282
-0.36962259 -0.42672906 0.01937775
-0.49658886 -0.23545968 -0.00000029
-0.22634734 -0.24309759 0.00000000
-0.48088073 0.21996651 0.02521160
-0.34077882 0.06762668 0.01785948
-0.23891164 -0.44588339 0.00000000
-0.18692550 0.17559385 0.00979286
-0.62846273 -0.09818715 0.03294877
-0.12432298 -0.63657651 0.00651773
-0.22745817 -0.07989778 0.00000000
-0.28665985 0.16882691 0.01502295
-0.10105170 -0.09207209 0.00000000
-0.05301331 -0.69687259 0.00277926
-0.77732216 -0.36837131 0.04075282
-0.53620165 -0.51617818 0.02811078
-0.09094153 0.52737833 0.00476482
-0.48295422 -0.39213489 0.00000000
-0.32217913 -0.22646363 0.01689049
-0.08790938 0.34262522 0.00000000
-0.26815573 0.02303792 0.00000761
-0.72104311 0.00525985 -0.00000167
-0.09317064 0.17010435 0.00487633
-0.75836165 -0.51100336 0.03975843
-0.70619496 -0.30343893 0.03702391
-0.16997760 -0.68743045 0.00891121
-0.45781714 0.30120745 -0.00000046
-0.79882440 -0.26978199 -0.00000133
-0.51167353 -0.08045634 0.02682553
-0.66293819 -0.70117532 0.03475523
-0.52895024 -0.07355944 -0.00000071
-0.21774950 0.00757065 0.01140673
-0.07251946 0.40576440 0.00379694
-0.78847122 -0.60210833 -0.00000049
-0.34204357 0.24646519 0.01793239
-0.58980789 -0.28141175 0.03092176
-0.06855763 -0.12274154 0.00359419
-0.27283000 -0.29000639 0.01430332
-0.54139586 -0.75820517 0.00000000
-0.12180167 -0.44527304 0.00000000
-0.01626880 0.68618095 0.00085141
-0.57936595 0.16503144 0.03037421
-0.08213221 0.42052936 0.00000445
-0.09134339 0.05474636 0.00478875
-0.61658957 -0.30784442 0.03232588
-0.49496585 0.09174389 0.02594644
-0.17243485 -0.65239098 0.00000000
-0.00405456 -0.48587859 0.00000000
-0.01547087 0.23162582 0.00081107
-0.26481995 0.38425377 -0.00000040
-0.19700432 0.02173688 0.01031907
-0.15653514 0.04964135 0.00000889
-0.46127030 -0.33434309 0.02418245
-0.39210145 0.10285016 0.02055667
-0.10599316 0.53066949 0.00000000
-0.56343973 -0.17767648 -0.00000068
-0.42460480 0.19547089 0.02225812
-0.24246977 -0.47740128 0.01271166
-0.56871989 0.21285222 -0.00000111
-0.29427887 -0.11902587 0.01542780
-0.11660515 0.64127176 0.00611334
-0.24936189 -0.21989001 0.01307299
-0.32220376 0.01072045 0.00000000
-0.30801276 0.41046241 0.01614715
-0.30609136 -0.50079894 0.01604707
-0.40287700 0.34144538 0.02112119
-0.33040701 0.01475972 -0.00000002
-0.20070787 0.56980609 -0.00000001
-0.41813249 -0.26172433 0.00000000
-0.22178020 -0.76044722 0.00000000
-0.47107181 -0.07663400 0.02469678
-0.47259723 -0.06086364 0.02477678
-0.27978513 0.18687401 0.01466807
-0.28473337 -0.04542726 0.00000000
-0.72645865 0.00761278 0.03808690
-0.03903507 -0.71147860 0.00000000
-0.76608212 -0.60176624 -0.00000050
-0.01711721 0.51836880 0.00089337
-0.79452716 -0.58319189 0.04165425
-0.43314520 -0.03457993 -0.00000037
-0.13675114 -0.67397179 0.00716928
-0.65980860 -0.73876642 0.03459108
-0.65978097 0.11224943 -0.00000160
-0.26299382 0.15196841 0.01378149
-0.15728905 -0.63157596 0.00824600
-0.51890792 0.13638983 0.02720291
-0.18427102 0.19540995 0.00965396
-0.76081218 -0.67039926 -0.00000032
-0.15061290 0.00048692 0.00000000
-0.25158537 0.26559953 0.01318969
-0.43789379 0.20933463 0.02295532
-0.05953022 -0.66097063 0.00312092
-0.42813597 -0.26282219 0.00000000
-0.03659449 0.05773766 0.00000000
-0.62358575 -0.43235506 -0.00000048
-0.01249937 -0.28917360 0.00065529
-0.11441133 -0.26747640 0.00599810
-0.34279932 0.35144420 0.01797052
-0.13651642 -0.44491280 0.00000000
-0.21868198 0.53222592 0.01146426
-0.26061055 -0.66268085 0.00000000
-0.44882641 0.08028865 0.02352639
-0.14753156 0.63798046 -0.00000013
-0.19718968 0.38467434 0.00000315
-0.32056029 0.08015925 0.01679931
-0.37198315 -0.35928095 0.00000000
-0.11469463 0.01989242 0.00601295
-0.33032791 0.28363665 0.01731523
-0.18576925 0.39468254 0.00973565
-0.22042361 -0.65885636 0.01155588
-0.35006741 -0.22632652 0.01835255
-0.17141587 0.10412788 0.00898661
-0.21157582 0.48351455 0.01109070
-0.33702784 -0.13836795 0.00000000
-0.17234915 -0.25163812 0.00903554
-0.15955651 0.26920383 0.00836487
-0.16255321 -0.61926524 0.00852198
-0.61298881 0.02256094 0.00000121
-0.07871495 0.35755997 0.00000000
-0.56429242 0.18867601 -0.00000063
-0.24867717 0.17247026 0.01303104
-0.72766245 -0.13992112 -0.00000144
-0.25966879 -0.27182718 0.01361334
-0.68250998 -0.78604745 0.03578115
-0.43313978 -0.37832854 0.02270769
-0.62948695 -0.10183309 0.03300246
-0.00584336 0.17019141 0.00000000
-0.28475440 0.03449546 0.01492083
-0.29676782 0.44701494 -0.00000064
-0.59721957 -0.02079357 0.03131083
-0.77640399 -0.06795109 -0.00000178
-0.67491276 -0.51876661 0.03538339
-0.01785412 0.44742864 0.00000000
-0.28756118 -0.08811106 0.00000000
-0.63218757 -0.12233461 -0.00000107
-0.53858268 -0.23253745 -0.00000047
-0.38455222 0.01899443 0.00000566
-0.22551298 -0.09136636 0.01182269
-0.12066642 0.61898365 0.00632623
-0.29537189 0.38305990 0.01548369
-0.42676330 -0.58001161 0.00000000
-0.20819812 -0.72696499 0.00000000
-0.01565635 0.18862162 0.00081180
-0.39495846 0.29909880 0.00000078
-0.79250735 -0.62728225 -0.00000043
-0.00933552 -0.61070995 0.00048942
-0.17510902 0.51358158 0.00917869
-0.32403352 0.43892218 -0.00000019
-0.62898835 -0.59840041 -0.00000021
-0.10925522 0.09381297 0.00571864
-0.69933820 -0.57777949 0.03666391
-0.09758175 0.22728826 0.00000000
-0.65900795 -0.04382813 -0.00000132
-0.03492466 0.68316452 0.00183095
-0.21163541 0.53962323 0.00000029
-0.45999337 -0.59179669 0.02411551
-0.06596521 0.37728934 0.00000535
-0.00457795 0.17391072 0.00023063
-0.36955979 0.38076345 0.01937453
-0.08612894 0.27611411 0.00450866
-0.27344740 0.11591821 0.00000000
-0.23375294 -0.10263467 0.01225468
-0.13732052 -0.25393465 0.00000000
-0.36463775 -0.75314548 0.01911641
-0.16862778 0.28305148 0.00884044
-0.76622799 -0.12815913 0.04017177
-0.45691752 -0.22328663 0.02395440
-0.68138269 -0.42482148 -0.00000074
-0.64626291 0.00096766 0.00000094
-0.07142330 0.16227199 0.00373579
-0.32686888 0.28517625 0.00000232
-0.39534805 -0.63674986 0.00000000
-0.27520301 0.31848903 0.01442806
-0.73817388 -0.07615554 0.03870098
-0.31803191 0.01617988 0.01666561
-0.07995913 -0.51195546 0.00419192
-0.59711319 0.18446794 -0.00000119
-0.11059305 0.56321328 0.00000183
-0.30657047 -0.12071468 0.01607219
-0.03805735 -0.06916794 0.00000000
-0.34312711 -0.32648491 0.00000000
-0.23310136 0.53030570 0.01222047
-0.34041039 -0.42977816 0.00000000
-0.45178067 0.05800723 0.02368093
-0.22985125 -0.31445468 0.01205013
-0.24139390 -0.05392818 0.01265526
-0.56693431 -0.36605159 -0.00000036
-0.19976347 0.05322086 0.00000819
-0.41567381 -0.02435056 0.02179235
-0.13179440 0.35700333 0.00000000
-0.23295887 0.42003063 0.00000187
-0.65078450 -0.28598424 -0.00000086
-0.30186987 -0.16491638 0.01582576
-0.23491742 -0.58494926 0.00000000
-0.67998866 -0.74221143 -0.00000014
-0.09725647 -0.10077361 0.00509875
-0.27238695 0.41062611 -0.00000047
-0.29725982 -0.57659130 0.00000000
-0.51952366 0.15097759 0.02723753
-0.77998468 -0.07972281 -0.00000177
-0.17698777 0.44405923 0.00927598
-0.22535639 -0.73814763 0.01181448
-0.43871278 -0.44844316 0.00000000
-0.78248789 -0.02070240 -0.00000189
-0.07778698 0.23160075 0.00407054
-0.67497818 -0.58469821 -0.00000043
-0.70235761 -0.79628089 0.03682165
-0.51877982 -0.27017543 -0.00000032
-0.21301346 0.12755331 0.00000687
-0.50814439 -0.29505626 0.02664010
-0.06853941 0.48636667 0.00000000
-0.22369716 0.31215748 0.00000385
-0.10096106 -0.26010121 0.00000000
-0.43570200 -0.38041240 0.02284201
-0.35669924 -0.29641877 0.00000000
-0.47073697 0.16467047 0.00000157
-0.44458203 -0.20402614 0.02330768
-0.54517886 -0.02176092 -0.00000087
-0.37212921 0.30971723 -0.00000072
-0.17486551 0.13555472 0.00916746
-0.75176590 -0.54211070 0.03941257
-0.30188044 0.33013103 0.01582409
-0.16558470 -0.60237229 0.00000000
-0.69909666 0.01526376 0.03665096
-0.34505886 0.33109689 0.01808866
-0.29195622 0.35830649 0.01530411
-0.77087229 -0.73531523 0.04041374
-0.78495307 -0.58991383 0.04115231
-0.58429364 -0.15579150 0.03063287
-0.37843102 -0.73361288 0.01983954
-0.24621112 0.02692066 0.01289953
-0.16918691 0.49022162 0.00886993
-0.76508096 -0.75323078 0.04011008
-0.22335268 0.53521416 0.01170994
-0.04216472 0.01946819 0.00219934
-0.33690646 0.14511647 -0.00000028
-0.63995594 -0.34067310 0.03355092
-0.38183858 0.32927539 0.02001900
-0.67702821 -0.33368345 -0.00000089
-0.21638510 0.38681586 -0.00000019
-0.27763064 -0.78647663 0.01455500
-0.10545259 0.07183678 0.00552843
-0.21467757 -0.42537650 0.01125464
-0.08637168 -0.03349100 0.00452810
-0.33237432 0.26260878 0.00000259
-0.21042494 -0.33717054 0.00000000
-0.65134668 0.03941912 0.00000020
-0.09648663 0.40746658 0.00505379
-0.66391808 -0.38806855 0.03480717
-0.22826176 -0.22197437 0.00000000
-0.13695146 0.61253028 0.00000050
-0.14190775 0.37503798 0.00743962
-0.03520640 -0.41021967 0.00184572
-0.34586998 -0.59958239 0.01813250
-0.22881548 0.42950190 0.01199389
-0.41295504 -0.13016776 0.02164961
-0.03341697 0.38207558 0.00000576
-0.49864662 -0.43695383 0.00000000
-0.14401597 -0.70482878 0.00000000
-0.14488253 -0.66470826 0.00000000
-0.12275811 0.64100533 0.00643594
-0.03406201 0.11207076 0.00000980
-0.29557309 -0.19349879 0.00000000
-0.14417060 0.29200682 0.00000000
-0.49413457 -0.40865045 0.00000000
-0.44647917 0.25904534 -0.00000095
-0.77243809 -0.28108452 -0.00000130
-0.78591510 -0.28721586 0.04120352
-0.16811451 0.04362917 0.00881353
-0.15818768 0.12447215 0.00000000
-0.19392332 -0.72248656 0.00000000
-0.08619943 0.46259686 0.00000000
-0.41858051 -0.40790990 0.00000000
-0.37451918 -0.31286404 0.00000000
-0.17712274 -0.46591279 0.00000000
-0.20465653 -0.69187325 0.00000000
-0.16924852 -0.67319266 0.00887298
-0.78386359 -0.21578556 0.04109615
-0.34761181 -0.70837655 0.01822382
-0.24218108 0.04819021 0.00000762
-0.03646099 0.25009477 0.00000770
-0.42875026 0.03054532 0.02247805
-0.68240918 -0.63258852 0.03577622
-0.30185103 0.02059258 0.00000714
-0.22260539 0.29708531 0.01167032
-0.35711234 0.43563633 0.01872279
-0.47198704 -0.20069814 -0.00000025
-0.50051888 -0.51910675 0.02624009
-0.21173010 -0.67725966 0.01110011
-0.58198622 -0.60471290 0.03051108
-0.08099726 -0.49031415 0.00000000
-0.22507768 -0.22354871 0.01179987
-0.17411565 -0.29215178 0.00912815
-0.40101471 0.23623141 -0.00000071
-0.54617246 -0.70932364 0.02863351
-0.39939670 -0.69730350 0.00000000
-0.09197481 0.55404844 0.00000000
-0.45885927 -0.15387319 -0.00000027
-0.17100665 0.12481344 0.00895732
-0.71386386 -0.46713975 -0.00000081
-0.52511009 0.02293301 -0.00000087
-0.29096717 0.11722659 0.00000582
-0.56552983 0.09974702 -0.00000118
-0.11598318 0.45938680 0.00607696
-0.24980629 0.00229108 0.00000820
-0.03840871 0.66480417 0.00000000
-0.01175788 -0.32213532 0.00000000
-0.10722410 0.40304835 0.00000000
-0.30703272 0.20289240 0.01609204
-0.28991246 0.48110116 -0.00000067
-0.15467209 0.06246874 0.00809981
-0.43242559 0.17059186 -0.00000073
-0.32641074 0.47143394 0.01711317
-0.07576331 -0.24379831 0.00397195
-0.36384636 0.14369141 0.00000398
-0.14039336 0.58696133 -0.00000022
-0.64588357 -0.68715293 0.03386108
-0.12577393 -0.16360267 0.00000000
-0.67320278 -0.38021126 0.03529398
-0.41467456 -0.51009568 0.02173963
-0.47463988 -0.54577367 0.02488336
-0.74492378 -0.50667684 -0.00000073
-0.40003937 -0.21443005 0.00000000
-0.06234176 0.40160080 0.00326831
-0.11956131 -0.66963478 0.00000000
-0.37175676 0.09759168 0.01948469
-0.01014903 0.34425659 0.00053207
-0.19706853 0.33856022 0.00000392
-0.04958742 0.61152485 0.00000000
-0.44442948 0.18315527 0.00000177
-0.31139783 -0.63416260 0.00000000
-0.27012763 -0.17989922 0.01416165
-0.36265673 0.02078779 -0.00000017
-0.29824227 -0.17278521 0.00000000
-0.02075320 0.64452993 0.00108800
-0.36198224 0.43520842 -0.00000090
-0.26871336 -0.65291249 0.01408750
-0.03054866 0.42516871 0.00000000
-0.11014958 -0.12406585 0.00577468
-0.01337689 -0.78191004 0.00000000
