ply
format ascii 1.0
element vertex 1376
property float x
property float y
property float z
end_header
-0.71623492 -0.26254995 -0.00000004
0.16865912 -0.71359765 -0.00000005
-0.74777419 -0.41015093 0.00000000
0.55348883 0.08812625 -0.00000138
0.68696053 -0.29637837 -0.00000106
-0.46816790 0.35712779 -0.00000041
0.17158770 0.60616620 0.00588033
-0.03645625 0.12138740 -0.00000058
0.56283589 0.16232490 -0.00000156
-0.55325516 0.65409494 -0.00000031
0.21470508 -0.75222148 -0.00000003
-0.35651253 -0.03332736 -0.00000047
-0.07224021 0.55581814 -0.00000085
-0.66705180 -0.60696085 -0.00000003
-0.16543951 0.24866443 -0.00000066
0.17618485 0.36175135 -0.00000073
0.35758549 -0.67857608 -0.00000008
-0.28791381 0.52319164 -0.00000064
0.53130052 0.04979400 -0.00000124
-0.60691429 -0.41753779 -0.00000013
0.31200264 -0.18832489 -0.00000038
-0.52135531 0.77525685 -0.00000035
0.26682830 0.32793853 -0.00000093
-0.14568288 0.73811217 -0.00000082
-0.34687599 -0.29658170 -0.00000031
-0.18259011 0.38044867 -0.00000073
-0.13783299 0.42288259 -0.00000076
-0.47169280 -0.34379784 -0.00000029
-0.60360158 0.39374693 -0.00000025
-0.79484870 -0.73414349 0.00000000
-0.49357335 -0.07971575 -0.00000031
0.17191331 -0.27488095 -0.00000033
-0.72197220 0.64621956 -0.00000010
-0.08333640 0.11163326 -0.00000057
-0.19597187 0.64917111 -0.00000076
0.48664415 -0.56302132 -0.00000015
-0.03538253 -0.79612576 -0.00000000
-0.66908922 0.54464921 -0.00000016
0.19517217 0.44314644 -0.00000093
0.60476560 0.08546956 0.02901950
0.02925510 0.05531150 0.18915446
-0.48524398 -0.07815007 -0.00000032
0.71283980 -0.37893867 -0.00000098
0.14759611 0.60466347 0.01262099
0.00273543 0.46572761 -0.00000079
-0.43514556 -0.67331052 -0.00000008
0.32564337 0.42153742 0.01396358
-0.72310946 -0.67503542 0.00000000
0.69233347 -0.67001195 -0.00000032
0.50552622 -0.62171537 -0.00000011
-0.67745675 -0.23723189 -0.00000009
0.23841267 -0.67872806 -0.00000008
0.28075420 0.40495803 -0.00000113
0.06843866 -0.53903500 -0.00000016
0.26643371 0.32859697 0.05419173
-0.40605323 0.46419559 -0.00000049
-0.46809013 0.23210755 -0.00000040
0.71377451 0.04540992 0.01078937
-0.32217707 0.73701147 -0.00000060
0.78229797 -0.09989588 -0.00000175
0.29937557 0.06624458 0.11484696
0.01190908 0.70947634 -0.00000094
-0.02539350 -0.59884779 -0.00000013
-0.66014068 0.19539286 -0.00000017
-0.38576368 0.13224842 -0.00000047
-0.01133980 0.19565240 -0.00000062
0.08922463 0.66226622 0.01282431
0.17646385 0.02828279 -0.00000052
0.34435901 0.37169018 -0.00000127
-0.40205527 -0.31906672 -0.00000030
0.12606393 -0.32746375 -0.00000030
0.13606788 -0.41637847 -0.00000024
-0.77248523 0.41134610 -0.00000003
-0.36036600 -0.70662964 -0.00000006
-0.61445763 0.30946105 -0.00000023
-0.07771240 -0.06273838 -0.00000046
0.01138596 -0.71491554 -0.00000005
-0.06489997 -0.74485929 -0.00000003
-0.76269440 -0.78547126 0.00000000
0.66276801 -0.74072738 -0.00000012
-0.77120732 -0.01801789 -0.00000003
0.05478370 -0.54397332 -0.00000016
0.49968688 -0.55667706 -0.00000015
-0.35868469 0.14883304 -0.00000050
0.34101868 0.07671908 0.10106739
0.19882121 0.54904530 -0.00000115
-0.04463027 -0.28923208 -0.00000032
-0.18893476 -0.14219421 -0.00000041
0.07392413 -0.55504275 -0.00000015
0.09111003 -0.37503148 -0.00000027
-0.07693537 0.25545163 -0.00000066
0.30485099 0.17310100 -0.00000075
-0.61526621 -0.52315010 -0.00000010
0.08993866 0.43510754 -0.00000077
-0.76456294 -0.39613773 0.00000000
0.51566276 -0.47737318 -0.00000020
0.21613018 0.42250778 -0.00000096
-0.52956081 0.02724896 -0.00000029
0.11805314 0.14814534 -0.00000059
0.14205298 0.13749394 0.13760349
0.23258638 0.49335895 -0.00000115
-0.01135893 -0.75537073 -0.00000003
-0.30547541 -0.59514755 -0.00000013
-0.17763654 -0.71869345 -0.00000005
0.37520368 0.11206603 -0.00000086
-0.57749560 0.56609251 -0.00000028
0.79513105 -0.11720555 -0.00000171
-0.70320741 -0.07595851 -0.00000009
0.05962736 -0.00958342 -0.00000049
0.03267639 0.15945353 0.16071549
-0.11854888 0.06604172 -0.00000054
0.07559273 0.61773171 0.02820332
0.36275091 -0.65188026 -0.00000009
-0.52066305 0.09103000 -0.00000031
-0.35666813 0.61320019 -0.00000055
-0.63431447 0.75775923 -0.00000021
0.76990794 -0.17363271 -0.00000156
-0.57006641 0.46061544 -0.00000029
0.25402010 0.52015553 -0.00000127
-0.49298935 0.51669541 -0.00000038
0.29719501 0.34540886 0.04161347
0.07607257 -0.15850894 -0.00000040
-0.46569155 0.72240255 -0.00000042
0.41638035 0.09457263 0.07642145
0.21440003 -0.50045289 -0.00000019
0.35254491 0.28971951 0.04170315
-0.73762569 0.03168266 -0.00000007
0.40840245 -0.53402436 -0.00000017
-0.65668313 -0.76532810 -0.00000001
-0.11417754 -0.09647800 -0.00000044
-0.72895086 -0.67081829 0.00000000
-0.64209663 0.36325030 -0.00000020
-0.01020157 -0.65084801 -0.00000009
0.52243383 -0.15175746 -0.00000082
-0.10897897 0.25355316 -0.00000066
0.27234407 -0.23634247 -0.00000035
-0.18456937 -0.64926576 -0.00000009
0.28807012 0.28273189 -0.00000091
-0.38962458 0.57186630 -0.00000051
0.62191488 -0.17613860 -0.00000109
0.51088325 -0.61268183 -0.00000012
0.03973521 0.23668756 -0.00000065
0.03760992 -0.00944891 -0.00000049
-0.03765829 0.63520189 -0.00000090
0.20265613 0.07933641 -0.00000055
0.20138549 -0.63323726 -0.00000010
-0.74520428 -0.13914691 -0.00000003
0.41286801 0.12513540 0.06926940
0.62806538 -0.38755898 -0.00000069
0.14051581 0.24683413 0.10910111
0.02115879 -0.41605776 -0.00000024
-0.75573535 0.54333832 -0.00000006
-0.65312824 -0.11192233 -0.00000014
0.00567847 -0.56018102 -0.00000015
-0.38061568 0.06610624 -0.00000046
0.25311240 0.46844425 -0.00000116
0.44190519 -0.12576722 -0.00000061
0.06880728 -0.12448297 -0.00000042
0.35047590 0.02711642 0.11168172
-0.33679890 -0.70793023 -0.00000006
-0.72284886 0.32006778 -0.00000010
0.10105849 0.30249632 0.10481650
-0.37368288 -0.70947605 -0.00000006
0.58430392 -0.59070155 -0.00000016
0.17095756 0.16269400 -0.00000060
0.56236815 -0.68961292 -0.00000007
0.61038623 -0.23038698 -0.00000094
-0.40368139 0.34726478 -0.00000049
0.02711143 -0.19904366 -0.00000038
-0.01100484 0.31522785 -0.00000070
0.47690132 -0.61535384 -0.00000012
-0.30952491 0.11555960 -0.00000054
0.38504881 0.12966804 -0.00000092
-0.41302063 0.29940817 -0.00000047
-0.77151447 0.52907181 -0.00000004
0.15636926 -0.04423491 -0.00000047
0.18557567 0.36078980 -0.00000074
0.42115488 -0.30639274 -0.00000031
0.46441106 0.13634663 -0.00000119
-0.03942588 -0.15491549 -0.00000040
-0.24409294 0.62630105 -0.00000069
0.38927453 0.11902581 0.07712283
-0.02051994 -0.59066578 -0.00000013
-0.35294799 0.75055383 -0.00000056
0.42430423 0.02050252 0.09391032
-0.44776092 -0.29789459 -0.00000031
-0.43647769 0.38550367 -0.00000045
0.26010139 -0.65252956 -0.00000009
-0.00282917 -0.40077596 -0.00000025
-0.67017931 -0.75492216 -0.00000000
-0.09073090 0.45049939 -0.00000078
-0.14263096 0.16834269 -0.00000061
0.21591434 0.50420859 -0.00000111
-0.74759419 -0.36433605 0.00000000
-0.14455473 -0.31119424 -0.00000031
-0.47923020 0.79901271 -0.00000040
-0.17585946 -0.70876356 -0.00000006
0.54585552 0.01317288 -0.00000121
-0.30447274 0.75200186 -0.00000062
0.25252319 0.03652643 -0.00000052
0.05544777 -0.34024178 -0.00000029
-0.58498253 -0.27745784 -0.00000018
0.30023144 0.03421202 -0.00000052
0.60272796 -0.16228205 -0.00000105
-0.76556454 0.36227877 -0.00000004
-0.23076421 -0.76328162 -0.00000002
0.06915590 -0.06058680 -0.00000046
-0.73312790 0.17553439 -0.00000008
-0.23113205 0.34733091 -0.00000067
0.44375923 -0.74146552 -0.00000004
0.08488856 -0.00364439 -0.00000050
-0.50385653 -0.21094750 -0.00000028
0.24638130 0.18201986 -0.00000061
-0.77312695 -0.23154279 0.00000000
-0.31090610 -0.34745102 -0.00000028
-0.27214615 -0.07435994 -0.00000045
-0.25605645 -0.16396026 -0.00000040
0.36488561 0.24521068 -0.00000109
0.05550172 0.64718948 -0.00000090
0.15262231 0.03520082 -0.00000052
-0.18447836 0.66771569 -0.00000077
-0.37896963 0.56975054 -0.00000053
0.43177514 0.04578529 -0.00000091
0.32991828 0.28209195 0.04970230
0.54185846 -0.32312944 -0.00000054
-0.78684680 -0.59928025 0.00000000
-0.10243514 0.75611359 -0.00000087
0.01286050 0.59224532 0.05152746
-0.03273555 -0.07659515 -0.00000045
-0.00202288 -0.78370065 -0.00000001
0.60980759 -0.19555170 -0.00000101
0.23635603 0.45758719 -0.00000109
-0.71438267 0.36740754 -0.00000011
-0.48059342 -0.75827982 -0.00000003
0.52708147 0.21653050 -0.00000155
0.20014469 0.30839845 0.07705872
-0.35857499 -0.04712077 -0.00000046
-0.26386816 0.40371299 -0.00000065
-0.40294356 -0.70822583 -0.00000006
0.57722551 0.20259061 -0.00000168
-0.56524241 -0.51969084 -0.00000016
-0.16867141 -0.17882013 -0.00000039
0.03813075 -0.13363460 -0.00000042
0.59771210 0.18539384 0.00446473
0.08531714 0.07632691 -0.00000055
0.48814041 -0.50619091 -0.00000018
-0.33808369 0.50767542 -0.00000058
-0.48745301 -0.60613199 -0.00000012
-0.77338519 0.44639525 -0.00000003
0.59820027 -0.26628616 -0.00000083
-0.09039044 -0.33491154 -0.00000029
-0.47687701 -0.14712901 -0.00000032
0.10326956 0.19082897 0.13375598
0.01774235 -0.55661919 -0.00000015
0.21136989 0.24712089 -0.00000065
0.09268491 -0.21450164 -0.00000037
0.75719029 -0.55740965 -0.00000061
-0.69280301 -0.64746396 0.00000000
-0.69344538 0.21182973 -0.00000013
-0.72687972 0.45060356 -0.00000009
-0.48633895 -0.66158424 -0.00000009
0.24422520 -0.40400447 -0.00000025
-0.45925089 -0.62411682 -0.00000011
0.25648055 0.09108593 0.11962005
0.23094540 0.13245504 0.11543356
0.58689837 -0.12811427 -0.00000107
-0.54815271 -0.55499469 -0.00000015
0.72183361 -0.42163988 -0.00000093
0.27910971 0.14527831 0.09930907
-0.17496820 0.62183873 -0.00000078
-0.22895501 -0.26938287 -0.00000033
-0.20717308 -0.42116419 -0.00000024
0.06241124 0.38814029 0.09239074
0.28633096 0.15613233 0.09453010
-0.21580015 0.28394968 -0.00000068
-0.58483845 -0.41938977 -0.00000015
-0.48757034 -0.67095411 -0.00000008
-0.07178175 0.61918748 -0.00000089
0.52476549 -0.11993977 -0.00000089
-0.49505896 0.07588579 -0.00000034
0.25917327 -0.32375753 -0.00000030
0.10523021 -0.37782022 -0.00000026
-0.48767122 -0.19673184 -0.00000030
-0.02013226 0.38614277 -0.00000074
-0.10639064 0.43490584 -0.00000077
-0.79010210 -0.53407667 0.00000000
0.13424941 0.61495202 -0.00000107
-0.02255577 0.29703508 -0.00000069
0.67051706 -0.42866735 -0.00000075
0.15703344 0.12760564 -0.00000058
-0.40349559 0.03342032 -0.00000043
0.23619558 0.03650318 0.13941447
0.07041621 -0.40744482 -0.00000025
0.13673782 0.09388071 -0.00000056
-0.15446237 0.05447064 -0.00000053
-0.49143780 -0.56026395 -0.00000015
-0.22273721 -0.29967384 -0.00000031
0.07844956 0.32376496 0.10517077
0.29782686 -0.16946365 -0.00000039
0.02292895 0.36475247 0.10901299
0.44653517 0.01054439 -0.00000089
-0.11952694 -0.03915210 -0.00000048
0.06132385 0.40157918 0.08912508
0.45751892 -0.62376518 -0.00000011
0.55802675 -0.62458285 -0.00000011
0.73506297 0.05812704 0.00179836
-0.24480714 -0.38230156 -0.00000026
-0.14822790 0.08048678 -0.00000055
-0.43914321 -0.37171908 -0.00000027
0.10382826 -0.31072222 -0.00000031
0.60497167 0.05616858 0.03671212
-0.08848628 0.11986773 -0.00000057
-0.44717306 -0.56553559 -0.00000015
0.66680206 -0.41508910 -0.00000076
0.10330327 -0.17374816 -0.00000039
0.17624259 0.10113159 0.13817808
-0.10420308 0.13362598 -0.00000058
0.51227692 -0.15654480 -0.00000077
-0.38865521 0.09976778 -0.00000046
0.10513435 0.66342150 0.00831235
-0.25352219 0.69399458 -0.00000068
0.39333288 0.22066836 -0.00000113
-0.77200466 0.12986577 -0.00000003
0.43623676 -0.72810026 -0.00000004
-0.37489957 -0.11437094 -0.00000043
0.34793917 -0.09182667 -0.00000044
0.19037014 -0.39579695 -0.00000025
0.44146167 0.09731183 -0.00000104
0.69680384 -0.45019355 -0.00000079
0.12578219 0.16480999 -0.00000060
0.31840575 -0.15654940 -0.00000040
-0.58950938 -0.54668478 -0.00000012
-0.01445248 0.59391572 -0.00000087
-0.53319473 -0.67812892 -0.00000008
-0.22728834 0.38878400 -0.00000068
-0.22432023 0.04417299 -0.00000053
-0.44708099 0.75282973 -0.00000044
-0.15340714 -0.76776602 -0.00000002
-0.47969348 0.34776124 -0.00000040
0.32557938 0.09763254 0.09962005
-0.32164776 0.18977378 -0.00000055
0.47647107 -0.72141867 -0.00000005
-0.13117247 0.36567953 -0.00000073
0.73097468 -0.79354277 -0.00000002
-0.37677810 0.04423054 -0.00000046
-0.02925028 0.53164095 -0.00000083
0.69638178 -0.75511745 -0.00000011
0.26503644 0.08920655 0.11785487
-0.00295898 -0.20607993 -0.00000037
-0.68358956 0.53604907 -0.00000015
0.09617060 -0.44902946 -0.00000022
0.33021957 0.22571337 0.06452898
0.01719757 -0.26305930 -0.00000034
0.05312149 0.60574555 -0.00000088
0.02172473 0.22617193 -0.00000064
-0.76597979 0.07793359 -0.00000004
-0.27571730 -0.66713089 -0.00000008
-0.31589236 0.47779675 -0.00000060
-0.22324668 -0.25218126 -0.00000034
0.00433196 -0.01981245 -0.00000049
-0.38979706 0.10147931 -0.00000046
0.56990896 0.11403241 -0.00000149
0.36591312 -0.22114135 -0.00000036
-0.60080226 -0.57867955 -0.00000011
0.08583928 0.44717325 0.07058872
0.14440099 0.40247548 0.06692343
-0.50061812 0.13805600 -0.00000034
0.36677607 -0.02657102 -0.00000056
-0.03425205 0.19157092 -0.00000062
0.78033389 -0.41583354 -0.00000096
0.26145188 0.15280991 0.10198630
0.32640438 -0.42233725 -0.00000024
-0.41494475 0.78638015 -0.00000048
-0.43897055 0.63524842 -0.00000045
0.32375716 -0.25325687 -0.00000034
-0.38967787 -0.30750317 -0.00000031
-0.54718382 -0.49260329 -0.00000018
-0.59950934 0.43876253 -0.00000025
0.34902010 -0.38499713 -0.00000026
0.46217087 0.33472718 0.00081831
-0.49792941 0.24890886 -0.00000037
0.37622037 0.03576013 -0.00000071
0.12773015 0.07760399 -0.00000055
-0.17405868 -0.78059088 -0.00000001
-0.23096226 0.38273944 -0.00000068
-0.52602475 -0.35708867 -0.00000023
0.40160158 0.29220074 -0.00000129
-0.53665877 0.67820807 -0.00000033
0.04894208 0.13773639 0.16215688
0.01193170 0.76508359 0.00607578
0.11118722 -0.77485418 -0.00000002
-0.41047291 0.74435493 -0.00000049
-0.66717787 0.66018154 -0.00000017
0.05778505 0.22319887 0.13722321
0.34390468 0.05745393 0.10539799
0.02726832 -0.75669114 -0.00000003
0.14030131 0.43136653 -0.00000077
0.08377006 0.12047566 -0.00000058
-0.53395482 0.79664663 -0.00000033
0.21162076 -0.02549497 -0.00000048
-0.47886289 0.51609404 -0.00000040
0.19134744 0.10971477 0.13191520
0.76331000 -0.49156652 -0.00000077
0.32286277 -0.58625641 -0.00000013
0.14793591 -0.32657228 -0.00000030
-0.01920153 0.37625060 -0.00000074
-0.31458077 -0.33660740 -0.00000029
-0.24668185 0.23954828 -0.00000063
0.16743769 -0.10592889 -0.00000043
0.12614419 -0.13802798 -0.00000041
-0.03970975 -0.62491806 -0.00000011
-0.03739431 -0.16942669 -0.00000039
0.35942288 -0.26588501 -0.00000033
-0.64714540 0.39108332 -0.00000019
0.18976020 0.14990503 0.12170882
-0.46659529 -0.38033490 -0.00000026
0.42108151 -0.01521525 -0.00000076
-0.77119247 0.37466386 -0.00000004
0.28516216 0.20607317 0.08163491
0.39019768 -0.73195906 -0.00000004
-0.00872892 0.47667391 -0.00000080
-0.77251787 0.25492257 -0.00000003
0.47612586 0.27235681 -0.00000149
0.11941055 0.33590758 -0.00000071
0.05027392 0.57595099 -0.00000086
-0.05788117 -0.75208151 -0.00000003
-0.60953794 0.23676564 -0.00000024
0.19957341 0.30344643 0.07851904
0.35630748 0.09610495 0.09189948
-0.07932094 0.49743522 -0.00000081
0.19228582 -0.78339406 -0.00000001
-0.02936824 0.63223052 -0.00000090
-0.17197181 0.59937764 -0.00000078
-0.03668380 -0.53693178 -0.00000016
-0.13285009 -0.18892753 -0.00000038
-0.42215206 -0.43897092 -0.00000023
-0.74447697 0.45774223 -0.00000007
-0.40603989 0.23887265 -0.00000046
0.71986340 0.04315651 0.00977527
-0.55261413 -0.29104629 -0.00000021
-0.24284448 0.22238316 -0.00000064
0.54339710 0.21603018 0.01072537
0.20592051 -0.06917769 -0.00000046
-0.11689921 -0.17040876 -0.00000039
0.66368452 -0.67677676 -0.00000024
-0.07221382 -0.07531771 -0.00000045
-0.40632391 0.46633930 -0.00000049
-0.23641958 0.03356334 -0.00000052
0.03271897 0.46401412 -0.00000079
0.68520057 -0.06575498 -0.00000150
0.41695108 0.33873611 -0.00000143
-0.52831649 -0.14368937 -0.00000026
-0.72701429 0.38492287 -0.00000009
0.12148282 -0.39125566 -0.00000026
-0.06881494 0.50072181 -0.00000081
-0.77774247 -0.20807119 0.00000000
0.44631628 0.32281748 0.00815913
-0.77689703 -0.51989685 0.00000000
-0.23150166 -0.62918178 -0.00000011
0.33938299 0.25127477 0.05534782
0.00289257 -0.41750535 -0.00000024
0.10782762 0.56772870 -0.00000089
0.68146863 -0.25158062 -0.00000113
-0.62416661 -0.28662606 -0.00000014
-0.57531620 0.29692909 -0.00000028
0.45384033 -0.60647768 -0.00000012
0.53807905 -0.70440793 -0.00000006
0.70662462 -0.66990921 -0.00000033
-0.18754551 0.65713218 -0.00000077
0.32589339 -0.61787189 -0.00000011
-0.67774795 0.28671652 -0.00000015
-0.40409177 -0.50780649 -0.00000018
0.40395202 -0.34938243 -0.00000028
0.02308567 -0.22241325 -0.00000036
-0.39218053 0.30969075 -0.00000049
-0.31577753 -0.28410802 -0.00000032
0.66243891 -0.76450499 -0.00000007
-0.00333482 -0.59247479 -0.00000013
0.50799310 -0.42864946 -0.00000023
0.46701595 0.27899151 -0.00000148
0.30337024 -0.41762292 -0.00000024
-0.73022023 -0.75723433 0.00000000
0.35716001 0.40834389 0.00911897
0.18813619 0.49305840 0.03141033
0.47480195 0.07886162 -0.00000111
-0.44931826 -0.78465362 -0.00000001
-0.73176043 0.12972954 -0.00000009
-0.19131644 0.04349775 -0.00000053
0.17941873 0.07233805 -0.00000055
-0.62102026 0.65611668 -0.00000022
-0.59161379 0.06615034 -0.00000023
0.15096511 0.02564385 0.16481960
0.31524833 0.09815499 -0.00000064
0.32166676 0.12034470 -0.00000070
-0.64716561 -0.75542359 -0.00000002
0.10607570 -0.72678325 -0.00000005
-0.75243521 0.39819720 -0.00000006
-0.19448349 -0.16746955 -0.00000040
-0.72565405 -0.11488357 -0.00000006
-0.55295981 0.70799757 -0.00000031
-0.65485205 -0.42827862 -0.00000008
-0.34676402 0.53737024 -0.00000057
0.32615369 -0.73357122 -0.00000004
-0.04606765 0.69757378 -0.00000093
-0.61687330 0.59800920 -0.00000023
0.33903878 -0.57241452 -0.00000014
-0.31026951 -0.07745008 -0.00000045
0.37833870 -0.29269507 -0.00000032
-0.46324505 0.45214355 -0.00000042
0.23879038 0.55145862 0.00257658
0.26496500 -0.49310400 -0.00000019
-0.53351129 -0.03318357 -0.00000028
-0.55323652 -0.11492947 -0.00000024
0.10405926 0.36896987 -0.00000073
-0.32232129 0.22580223 -0.00000055
-0.33437940 0.04763126 -0.00000051
-0.69821402 -0.62015340 0.00000000
0.50836342 -0.13539359 -0.00000080
-0.56490577 0.78712237 -0.00000029
0.44090265 -0.29500330 -0.00000032
-0.06404630 0.29889361 -0.00000069
0.59789088 -0.29890557 -0.00000077
-0.47376650 0.69755722 -0.00000041
-0.70418994 0.53499456 -0.00000012
0.06530816 -0.68197086 -0.00000007
-0.09165329 -0.71198647 -0.00000006
-0.71155663 0.40546286 -0.00000011
0.30087148 0.27865207 0.05829172
0.59404238 0.02011064 -0.00000138
0.14815624 -0.41210525 -0.00000024
0.50965143 0.03284651 -0.00000113
-0.61272721 0.42353874 -0.00000023
-0.14165686 0.51351475 -0.00000080
0.20964038 0.22702078 0.09606385
0.56125857 -0.57946307 -0.00000014
0.72946628 -0.51968374 -0.00000070
-0.60022249 0.56491341 -0.00000025
0.29193294 0.26845979 -0.00000090
0.33800886 -0.38790081 -0.00000026
-0.74827847 -0.76986591 0.00000000
-0.68039150 0.46661054 -0.00000015
-0.52193807 -0.42814314 -0.00000022
0.20845359 -0.64791254 -0.00000010
-0.30022036 0.39901246 -0.00000061
-0.10980753 0.44546196 -0.00000078
0.01287332 -0.17467908 -0.00000039
0.22570224 0.21750813 -0.00000064
0.64260028 -0.27118636 -0.00000097
-0.17370781 0.07266163 -0.00000055
0.33047290 0.24055316 -0.00000097
-0.20215020 0.61930517 -0.00000075
-0.26328125 0.48826110 -0.00000066
0.51923223 0.02339741 0.06804610
-0.03541356 0.76269514 -0.00000096
0.24160159 0.09962914 -0.00000056
0.40972192 0.18607368 0.05398930
-0.41238747 0.15631619 -0.00000044
-0.07928604 0.36239737 -0.00000073
-0.18130329 0.45378357 -0.00000074
0.06252442 0.24839167 -0.00000066
0.15866354 -0.48599642 -0.00000020
0.46774411 0.31102402 0.00561180
-0.69085991 0.11032862 -0.00000014
0.21321598 0.37886323 -0.00000086
0.09355682 0.58170535 -0.00000087
0.17565059 0.25907095 0.09657653
0.08931328 0.43846731 0.07197202
0.07851062 0.57428491 0.03891889
-0.42969829 -0.76245400 -0.00000002
0.18049177 0.08163543 0.14220929
-0.43861838 -0.40175287 -0.00000025
-0.10582809 -0.08541766 -0.00000045
0.29338985 0.11145387 0.10447650
-0.67439664 -0.79133916 0.00000000
0.59671662 -0.28932102 -0.00000078
-0.75939552 0.12286715 -0.00000005
-0.07028964 0.32944409 -0.00000071
0.52120927 0.19085200 -0.00000148
0.28504693 0.31179023 0.05371407
0.11754491 -0.44215786 -0.00000022
0.46539392 -0.26053870 -0.00000042
0.07346151 0.09523148 -0.00000056
-0.23384133 0.35217610 -0.00000067
0.11786342 0.45955258 0.05884888
-0.50266492 0.19225356 -0.00000035
0.39727580 -0.05671442 -0.00000060
-0.74318280 -0.50500962 0.00000000
-0.69845262 0.70159038 -0.00000013
0.34526563 0.09818575 0.09426878
-0.03197140 -0.17026178 -0.00000039
0.51814994 -0.27478507 -0.00000056
0.62042149 -0.75928484 -0.00000003
0.16677077 0.50666277 0.03346235
-0.74185704 -0.09958683 -0.00000004
0.10853556 0.49784325 -0.00000081
0.01490123 0.23697771 -0.00000065
-0.13194398 0.05099480 -0.00000053
-0.77961796 -0.01592618 -0.00000002
-0.36729950 -0.39248042 -0.00000025
-0.64215643 -0.44739394 -0.00000009
-0.22396472 0.36056611 -0.00000068
-0.55034450 -0.21972072 -0.00000023
-0.26260850 0.43130041 -0.00000065
0.25005610 -0.35537560 -0.00000028
0.37881620 0.36785045 -0.00000137
0.15891903 -0.46505371 -0.00000021
-0.09049952 -0.24545037 -0.00000035
0.01828140 0.07742340 -0.00000055
-0.25997144 -0.17689337 -0.00000039
-0.61993242 0.74614630 -0.00000023
-0.65663372 -0.08779427 -0.00000014
0.45956906 -0.58016958 -0.00000014
0.27795080 0.05455708 -0.00000053
-0.25006043 0.67775959 -0.00000069
0.32882019 -0.05764569 -0.00000046
0.00284749 0.53629365 -0.00000084
0.78886807 -0.10065673 -0.00000175
-0.73136029 0.46365659 -0.00000009
0.26336478 0.09889919 -0.00000056
0.60771613 0.18493428 -0.00000175
-0.36082509 0.55900851 -0.00000055
-0.55752702 -0.45525251 -0.00000018
0.34732180 -0.14555094 -0.00000041
-0.64101938 0.10239199 -0.00000019
-0.15900184 -0.22675908 -0.00000036
0.39232142 0.16785412 -0.00000102
0.15082324 0.41791325 0.06114381
0.46561548 -0.62461282 -0.00000011
0.51714377 -0.78404336 -0.00000001
-0.53694723 0.58906235 -0.00000033
-0.78212870 0.78858673 -0.00000002
0.48908154 0.03373007 -0.00000107
0.05167556 -0.12691792 -0.00000042
-0.58219633 -0.40673404 -0.00000016
0.35241967 -0.30782446 -0.00000031
-0.61161601 0.07388370 -0.00000021
0.15426118 -0.10273528 -0.00000044
0.38265074 -0.74239982 -0.00000004
-0.27466141 -0.49840109 -0.00000019
0.54901209 -0.17784424 -0.00000085
-0.43993233 0.18741132 -0.00000042
-0.42495404 0.38875399 -0.00000047
0.39325446 -0.39795289 -0.00000025
-0.02438239 -0.17181786 -0.00000039
-0.78918356 -0.49894684 0.00000000
-0.19641732 -0.45222513 -0.00000022
0.62445358 -0.56003881 -0.00000035
0.01966378 0.30563531 0.12550643
-0.26010266 0.57463313 -0.00000067
-0.21808060 0.63093206 -0.00000073
-0.51199632 -0.73260623 -0.00000004
-0.40565466 0.78061198 -0.00000049
0.29954850 0.36350395 -0.00000111
0.61433990 0.04073953 -0.00000149
-0.60359697 -0.45910497 -0.00000013
0.70761670 -0.35877167 -0.00000100
-0.04747570 -0.69054331 -0.00000007
0.39210788 -0.17395816 -0.00000039
0.32784074 0.25797226 0.05662878
0.05026629 0.39547222 -0.00000075
-0.70782613 -0.70068498 0.00000000
-0.70931693 0.54386808 -0.00000011
0.03624752 -0.24604602 -0.00000035
-0.32105917 -0.12714663 -0.00000042
0.57037805 0.07638311 -0.00000141
-0.51292122 -0.34843874 -0.00000024
-0.38037552 -0.64735829 -0.00000010
-0.25698647 0.66263219 -0.00000068
0.55478600 -0.01465303 -0.00000119
-0.27332086 -0.12669767 -0.00000042
0.51545243 -0.05315360 -0.00000099
-0.62039532 0.40777383 -0.00000022
-0.44124992 0.41634582 -0.00000045
-0.54444378 0.34841254 -0.00000032
0.47956753 0.02028425 -0.00000101
0.30027482 0.38870954 0.02935059
0.29003351 -0.23660753 -0.00000035
-0.53271442 0.64634279 -0.00000033
0.10092316 0.57045901 0.03400481
-0.44146074 0.24645482 -0.00000043
0.23319682 0.31759931 0.06588726
0.25667518 0.53031877 -0.00000130
-0.04620968 0.24999724 -0.00000066
0.06951901 0.47064039 -0.00000079
-0.77462450 -0.15653279 0.00000000
0.49133572 -0.30313051 -0.00000042
-0.57251734 -0.11664020 -0.00000022
0.14671739 0.09848921 -0.00000056
-0.16156025 -0.70263059 -0.00000006
0.30947294 -0.06689750 -0.00000046
-0.09289844 -0.27051578 -0.00000033
-0.29472454 0.79365281 -0.00000063
0.47526125 0.13845891 0.04925002
0.25878038 0.10096386 0.11640035
-0.10950187 0.03697041 -0.00000052
-0.73799099 -0.53886673 0.00000000
0.57908790 -0.41376961 -0.00000049
-0.37411605 0.09585108 -0.00000047
-0.54727698 0.40062544 -0.00000032
0.17475168 0.01179239 -0.00000051
-0.71564244 0.36910240 -0.00000011
-0.05379404 0.47689810 -0.00000080
0.11735895 0.37341951 -0.00000073
-0.36398753 -0.65687801 -0.00000009
0.58156077 -0.08090583 -0.00000114
0.66146420 0.13659513 -0.00000182
-0.53654314 0.24730793 -0.00000033
-0.19642116 -0.29897551 -0.00000031
0.26963259 -0.28897468 -0.00000032
0.02650370 0.54388757 -0.00000084
-0.12346872 -0.08212301 -0.00000045
-0.17559274 -0.33512915 -0.00000029
-0.68456918 0.67958533 -0.00000014
0.20266793 -0.46716521 -0.00000021
-0.26920090 -0.35494486 -0.00000028
0.11269025 0.11880767 0.15030719
0.04045918 -0.57806277 -0.00000014
-0.74851015 -0.70730087 0.00000000
0.58018145 0.11143362 0.02865469
0.22995820 0.29788460 0.07195606
-0.09097313 0.19965191 -0.00000062
-0.50246215 0.47719429 -0.00000037
-0.40097405 -0.21253058 -0.00000037
0.13047931 0.05452617 0.16259954
0.02135944 -0.62677285 -0.00000011
-0.60069865 -0.78340282 -0.00000001
0.04473759 -0.79633191 -0.00000000
0.43098340 -0.48826371 -0.00000019
-0.40757240 -0.16273045 -0.00000039
0.53838013 0.01001674 -0.00000118
-0.48988114 -0.70152852 -0.00000006
0.47891152 0.05650201 0.06995407
0.40338910 0.02906242 0.09717704
0.45078068 -0.55562341 -0.00000015
0.77251431 -0.28793177 -0.00000128
0.01718994 -0.48439722 -0.00000020
-0.41686870 0.12944063 -0.00000043
0.02877371 0.51577677 0.06753793
0.65903722 0.07704974 -0.00000170
0.39591353 -0.06897534 -0.00000057
-0.52282484 -0.32739400 -0.00000024
0.40014317 0.37409279 0.00681018
0.15432349 0.45086573 0.05150598
-0.11826029 -0.49566021 -0.00000019
0.14981100 -0.64770621 -0.00000010
-0.05563963 0.36938387 -0.00000073
0.36209150 0.20662333 -0.00000100
-0.04487172 0.07950111 -0.00000055
-0.75517758 0.29576630 -0.00000006
0.43223957 -0.54591504 -0.00000016
0.21054782 -0.22283085 -0.00000036
0.59235059 -0.49420781 -0.00000037
-0.22607815 0.31003059 -0.00000067
0.12036492 -0.50686850 -0.00000018
0.31911656 -0.73882950 -0.00000004
0.43538818 -0.04247305 -0.00000075
-0.55423650 -0.65565710 -0.00000009
0.06879405 -0.04715808 -0.00000047
-0.34175004 0.07166608 -0.00000050
-0.03737277 -0.52582718 -0.00000017
-0.59523379 0.78176123 -0.00000026
0.39102729 0.28893136 -0.00000125
-0.59957076 -0.61732109 -0.00000010
-0.52994086 0.60418088 -0.00000034
-0.24555299 0.15695824 -0.00000060
0.15305042 0.29969163 0.09181194
0.35131387 0.06020093 0.10271271
-0.55920090 -0.21698542 -0.00000022
0.17344302 -0.42199555 -0.00000024
-0.72298596 0.15629099 -0.00000010
0.28300468 -0.39372939 -0.00000025
0.71100126 0.04324410 -0.00000180
-0.37247243 0.23860624 -0.00000050
-0.16107624 0.67319321 -0.00000080
0.46900456 -0.32400211 -0.00000031
0.34104306 0.32179912 -0.00000116
-0.18575315 -0.36324575 -0.00000027
0.47536760 0.25567529 0.01823021
-0.45635324 0.63440973 -0.00000043
0.34826659 0.25444948 0.05215963
-0.45205443 0.18454590 -0.00000041
-0.48178447 0.46738585 -0.00000040
-0.56126499 -0.07231185 -0.00000024
0.05977707 -0.16045980 -0.00000040
-0.68385876 0.65171941 -0.00000015
0.31957551 0.06688900 0.10933594
0.26136212 0.12532313 -0.00000058
-0.23777738 -0.66847474 -0.00000008
0.72122226 0.07410279 0.00123388
-0.06755961 0.25843465 -0.00000066
-0.77731812 -0.43105493 0.00000000
0.17974525 -0.16760240 -0.00000040
-0.21450406 -0.49851490 -0.00000019
-0.54254674 0.41305610 -0.00000032
-0.05921717 -0.05816778 -0.00000046
-0.39065079 0.49463751 -0.00000051
0.76600440 0.00783319 0.00691505
0.27252575 -0.70190197 -0.00000006
0.43476758 0.36336872 -0.00000154
0.17852414 -0.47489443 -0.00000020
0.39912511 0.04478711 -0.00000080
0.06650379 -0.54724720 -0.00000016
-0.71743432 -0.79735577 0.00000000
0.11098014 0.67092768 -0.00000110
-0.28692895 0.70570327 -0.00000064
-0.59324324 0.44993765 -0.00000026
-0.00468056 0.11222911 -0.00000057
-0.14225118 -0.69005619 -0.00000007
0.36869448 0.22069294 0.05568366
0.03497590 0.75192078 0.00346318
-0.76600222 0.11166621 -0.00000004
0.47019699 0.19890489 -0.00000133
-0.64613928 0.32903531 -0.00000019
0.01195596 0.01641802 -0.00000051
-0.67557038 -0.67715296 -0.00000001
0.75516951 -0.78831887 -0.00000003
-0.15639527 0.33133956 -0.00000071
-0.67696599 -0.73509055 0.00000000
0.41722194 -0.72648258 -0.00000005
0.57323621 -0.76821475 -0.00000002
0.45503758 0.18028175 -0.00000125
-0.27500961 0.49127588 -0.00000065
0.17041970 0.54137218 -0.00000104
0.22113048 0.29423335 -0.00000072
-0.77395492 -0.57027895 0.00000000
-0.32189441 -0.44074526 -0.00000022
0.26463271 0.04397503 0.12992050
-0.37972661 0.69742096 -0.00000053
0.12034913 -0.57506441 -0.00000014
0.32858717 0.28617681 0.04897422
0.33442087 -0.71845962 -0.00000005
0.47375572 -0.01838727 -0.00000092
0.41862625 -0.79944815 -0.00000000
-0.41307564 0.65658624 -0.00000048
0.55288142 0.09628962 0.03987681
-0.16145181 -0.24089777 -0.00000035
-0.66030353 -0.60701669 -0.00000004
-0.79247448 -0.49989667 0.00000000
0.11126916 -0.66629448 -0.00000008
0.10913603 0.30338773 -0.00000069
0.73711458 -0.20486677 -0.00000140
0.70561692 -0.10079249 -0.00000150
-0.34858051 -0.12790026 -0.00000042
0.34946258 -0.48028722 -0.00000020
0.46524923 -0.27315095 -0.00000040
-0.32537242 0.73138072 -0.00000059
0.44461690 -0.23543475 -0.00000040
-0.27148938 -0.03062538 -0.00000048
-0.33888790 0.33908909 -0.00000055
-0.64746010 0.57616009 -0.00000019
-0.43489165 -0.51959013 -0.00000018
-0.57849967 0.18718267 -0.00000027
0.08517363 0.59056956 0.03285172
-0.17474813 0.10256086 -0.00000056
-0.08825388 0.17476700 -0.00000061
-0.34153782 -0.31332407 -0.00000030
-0.12625033 0.11519667 -0.00000057
-0.60600965 0.26838295 -0.00000024
0.58588513 -0.17270949 -0.00000098
-0.23548589 -0.63106979 -0.00000011
0.62066325 -0.77818066 -0.00000001
-0.15942498 0.69875866 -0.00000080
-0.57140058 0.05616426 -0.00000025
-0.58270460 0.02720671 -0.00000024
-0.42691226 0.31113932 -0.00000046
0.45900436 0.02449133 -0.00000096
0.21554611 0.11278157 -0.00000057
0.19796719 0.31009515 -0.00000069
-0.40673771 -0.20497428 -0.00000037
-0.66796029 -0.24307397 -0.00000010
-0.08807775 0.29169076 -0.00000068
-0.02947043 0.61355121 -0.00000088
0.05549496 0.24504726 -0.00000065
0.49473640 -0.54935829 -0.00000016
-0.73531723 -0.16353821 -0.00000004
-0.29256800 -0.53833464 -0.00000016
0.62528800 -0.70875280 -0.00000006
0.07005734 0.21524547 -0.00000063
0.30598779 0.39153210 0.02709381
0.22148654 0.10332442 0.12563631
-0.22741442 0.48632872 -0.00000070
-0.34223175 0.40012798 -0.00000056
-0.64055916 0.09838947 -0.00000019
0.77786202 0.00564600 -0.00000194
0.07329289 -0.32837564 -0.00000029
0.32835809 -0.52456741 -0.00000017
0.03538455 0.74924399 0.00406286
-0.54389591 0.49267362 -0.00000032
-0.02250996 -0.70624424 -0.00000006
0.25952939 -0.50279883 -0.00000019
-0.31754353 0.22751497 -0.00000056
-0.40202293 0.01742113 -0.00000043
0.69748183 -0.05233888 -0.00000157
0.04439585 0.26237318 0.13040575
-0.48136513 0.74445355 -0.00000040
-0.52228833 0.64671419 -0.00000035
-0.39722394 -0.20788237 -0.00000037
-0.76610630 0.25294485 -0.00000004
0.65486169 -0.00546573 -0.00000152
-0.69158810 -0.43355442 -0.00000004
-0.37554778 -0.62889698 -0.00000011
-0.26100662 -0.13248031 -0.00000042
-0.78503883 -0.24471162 0.00000000
0.18563622 0.35159043 0.06947494
-0.69974281 0.41006731 -0.00000013
-0.64689074 0.28233856 -0.00000019
0.71595741 -0.40370462 -0.00000094
-0.06789668 0.71559744 -0.00000091
0.40216049 0.25997057 0.03645040
0.65954319 -0.78311787 -0.00000002
-0.59490951 -0.14135918 -0.00000019
0.57409265 0.11769105 0.02861011
0.12991132 0.61874511 -0.00000106
-0.32917274 -0.30081325 -0.00000031
-0.61093138 0.48393604 -0.00000024
0.56164872 -0.72343489 -0.00000005
-0.06905134 0.14776346 -0.00000059
0.16457762 0.51008059 0.03313856
0.15603519 -0.30460163 -0.00000031
-0.26908959 0.59817473 -0.00000066
0.30821281 -0.58640186 -0.00000013
-0.28067572 -0.53043312 -0.00000017
-0.66350685 0.32808314 -0.00000017
0.21174025 0.26309434 0.08597107
-0.04305599 0.46421815 -0.00000079
-0.12692397 -0.55137682 -0.00000016
0.21976472 -0.73759234 -0.00000004
0.17743183 0.31226435 0.08204163
-0.16079709 0.07496242 -0.00000055
-0.75365665 -0.20576933 -0.00000001
0.13379034 0.50123124 -0.00000085
0.35463711 0.29781683 0.03900907
0.67432889 -0.67279864 -0.00000029
0.08595100 0.62519158 0.02349229
0.36913211 -0.51050529 -0.00000018
0.24424525 -0.00924968 -0.00000049
-0.31846826 -0.34027288 -0.00000029
0.34892964 -0.41255751 -0.00000024
-0.34000772 -0.30678813 -0.00000031
0.20306505 0.14209095 0.12025715
-0.53843749 -0.23633544 -0.00000024
0.43568590 0.08207261 -0.00000099
0.32736731 -0.09177044 -0.00000044
-0.11917113 -0.72552292 -0.00000005
0.22971576 -0.27085034 -0.00000033
0.74923304 -0.68949482 -0.00000028
0.31050130 -0.26032330 -0.00000034
-0.23838702 -0.13021313 -0.00000042
-0.04188842 0.74188243 -0.00000094
-0.08613988 0.29153528 -0.00000068
-0.49528744 -0.14757907 -0.00000030
0.38140797 -0.27155934 -0.00000033
-0.09741641 0.44682593 -0.00000078
-0.10906553 -0.17342112 -0.00000039
-0.20662655 0.15423235 -0.00000060
0.58547803 0.13022381 -0.00000157
0.29349700 0.04349628 0.12241568
0.49926840 0.22301208 0.02054694
0.68335493 -0.09061248 -0.00000145
0.49960295 -0.24477880 -0.00000056
-0.16367582 -0.03348552 -0.00000048
0.32737957 0.40602000 0.01760730
0.14364370 0.44843142 -0.00000078
0.55694981 -0.56031662 -0.00000015
-0.47648521 -0.27434512 -0.00000029
-0.34584683 -0.62681915 -0.00000011
-0.52890857 0.76857874 -0.00000034
0.26636282 -0.33524643 -0.00000029
0.03161179 -0.37296803 -0.00000027
0.68155725 -0.70776642 -0.00000023
0.32173408 0.27292026 0.05429116
0.49300223 0.05610228 0.06633420
-0.78333368 0.47429955 -0.00000002
-0.11721010 0.23068674 -0.00000064
-0.06010102 0.51005882 -0.00000082
0.44418998 -0.76687843 -0.00000002
0.16204925 0.23195739 0.10734121
0.06732388 -0.09139681 -0.00000044
0.21543766 -0.49204479 -0.00000019
0.58743537 -0.27901341 -0.00000078
0.14874144 0.29454675 -0.00000068
-0.01095825 0.23110395 -0.00000064
0.28521403 -0.65057908 -0.00000009
0.08274142 0.21456976 0.13290650
-0.34498988 0.02544540 -0.00000049
0.48351420 -0.52643581 -0.00000017
-0.34334941 -0.70630472 -0.00000006
-0.43928435 0.36505693 -0.00000045
-0.62727975 -0.03891272 -0.00000018
-0.27439074 0.12282882 -0.00000058
-0.75778143 0.57712860 -0.00000005
0.03752913 -0.21758959 -0.00000036
-0.48009283 0.38960000 -0.00000040
-0.02094510 0.31117892 -0.00000069
0.64918480 0.05240704 0.02601677
-0.29834537 0.20562594 -0.00000057
0.66466045 -0.60882160 -0.00000038
-0.46349962 -0.68230616 -0.00000007
0.34196104 -0.54113262 -0.00000016
-0.41577811 0.53562020 -0.00000048
-0.65205972 -0.23826146 -0.00000011
0.13196005 -0.56105589 -0.00000015
-0.24376718 -0.31004474 -0.00000031
0.42552990 0.14200861 0.06146038
0.78233660 -0.51732499 -0.00000071
0.77942737 -0.15534107 -0.00000161
-0.60042290 -0.08653537 -0.00000020
-0.37340081 0.06410273 -0.00000047
-0.04087080 0.60054213 -0.00000088
-0.62287779 -0.61032748 -0.00000008
0.15295918 0.29468212 0.09316055
0.03905597 -0.51475277 -0.00000018
0.32828401 0.36669976 -0.00000121
-0.57193338 -0.61385946 -0.00000012
-0.31725191 -0.54277624 -0.00000016
-0.06852110 -0.68329505 -0.00000007
0.52823711 -0.10528199 -0.00000092
0.62657747 -0.25272301 -0.00000095
-0.56600278 0.44246297 -0.00000029
0.49909634 -0.27216052 -0.00000051
0.23009759 0.42518932 0.03826019
-0.65276224 -0.71885301 -0.00000003
0.39363653 -0.64365710 -0.00000010
0.71920612 -0.35176776 -0.00000106
0.32624447 0.40749737 0.01751680
-0.79942386 0.24203177 -0.00000000
0.40533746 0.25499655 -0.00000123
-0.39790762 0.32644366 -0.00000049
-0.78192352 0.18671819 -0.00000002
0.04174445 0.40054447 0.09457522
-0.55091239 0.44261078 -0.00000031
-0.53188120 0.53474593 -0.00000034
-0.43986778 -0.74720657 -0.00000003
0.21032453 -0.52850480 -0.00000017
-0.08807020 0.70440235 -0.00000089
-0.05396972 0.11596701 -0.00000057
0.39271550 -0.25058140 -0.00000034
0.76609870 -0.23422010 -0.00000141
0.09327729 0.40191051 0.08058934
-0.69441480 -0.02711121 -0.00000011
-0.12988260 -0.12992625 -0.00000042
-0.55494104 0.36996898 -0.00000031
0.59031688 0.12661669 0.02196053
-0.27574786 0.17511336 -0.00000059
0.09902550 0.07103983 0.16654948
0.02637492 -0.76539920 -0.00000002
-0.33447611 -0.55576773 -0.00000015
0.04427587 -0.15208373 -0.00000040
-0.72234661 0.22035300 -0.00000010
0.72247709 -0.47577410 -0.00000081
0.14421795 -0.07859095 -0.00000045
0.05710243 -0.74305360 -0.00000004
-0.57207661 -0.62353482 -0.00000011
0.53467259 -0.18262407 -0.00000079
0.11537473 -0.34729337 -0.00000028
0.15812949 0.10106248 -0.00000056
0.56564796 0.21170268 0.00598646
0.20007962 0.14570985 -0.00000059
0.03088732 -0.53296479 -0.00000017
-0.34963242 0.17750398 -0.00000051
0.46939001 -0.25306822 -0.00000045
0.32561226 -0.46524450 -0.00000021
-0.16854190 0.75286085 -0.00000079
0.15543971 0.10462742 -0.00000057
0.47861949 0.06203135 0.06856934
-0.55262677 0.78265234 -0.00000031
-0.50439833 -0.28880319 -0.00000026
-0.79635233 -0.60642971 0.00000000
0.03387052 -0.06288188 -0.00000046
0.76388891 -0.56632011 -0.00000058
-0.52328584 0.73573541 -0.00000035
0.43659851 -0.72245805 -0.00000005
0.78152370 -0.42899980 -0.00000093
-0.33407474 -0.18190725 -0.00000039
-0.36405235 -0.39667975 -0.00000025
-0.65580078 -0.11781564 -0.00000013
0.17542964 0.22802776 -0.00000064
0.06555641 0.49363748 0.06366646
0.51471657 -0.62645219 -0.00000011
-0.30712070 -0.68291746 -0.00000007
-0.78126864 -0.33432564 0.00000000
0.08228661 -0.29796140 -0.00000031
0.19236214 -0.13190311 -0.00000042
0.47817923 -0.59012854 -0.00000013
-0.24013546 0.08147227 -0.00000055
-0.47711577 -0.64204674 -0.00000010
-0.62616049 0.20592459 -0.00000022
-0.62446067 -0.56231066 -0.00000008
0.22952906 -0.16043278 -0.00000040
0.57104727 0.11768874 -0.00000150
0.43270238 0.24653141 0.03192845
-0.43045186 -0.08303369 -0.00000038
-0.45840956 0.19019946 -0.00000040
0.29685104 0.39655087 -0.00000116
-0.57490204 0.78281256 -0.00000028
0.34291257 0.14595028 0.08226211
-0.35617083 0.19271547 -0.00000051
0.05902515 0.32162924 -0.00000070
0.69673910 -0.60697216 -0.00000048
-0.33062666 -0.62936324 -0.00000011
0.16989806 0.34489253 -0.00000072
-0.58060394 -0.46231926 -0.00000015
0.36995514 0.39413524 0.00949268
-0.00853786 -0.47358899 -0.00000020
0.14463421 0.41618552 -0.00000076
0.02694275 0.52526851 0.06551247
0.09724282 0.41048015 -0.00000076
-0.39375633 -0.47335507 -0.00000020
-0.11595940 0.21471705 -0.00000063
-0.47033833 0.32234573 -0.00000041
0.05634104 0.13822836 0.16007060
0.06240228 0.01219677 -0.00000051
0.42551890 -0.60094909 -0.00000012
0.03558311 -0.21092300 -0.00000037
0.53247291 -0.40995555 -0.00000034
0.63758873 -0.00734630 -0.00000147
0.25804909 0.30600887 -0.00000086
0.15797071 0.59607443 -0.00000111
0.08408373 0.58324880 -0.00000086
0.45861290 0.04647976 0.07797085
0.23815971 0.50992575 -0.00000120
-0.47485781 0.60757750 -0.00000041
0.26979025 0.22021530 -0.00000073
0.28373911 0.28952795 0.05994595
-0.34566411 0.68515385 -0.00000057
0.23313098 -0.64278774 -0.00000010
-0.60808767 0.78166401 -0.00000024
0.12313229 -0.31409509 -0.00000030
-0.43383726 0.30356182 -0.00000045
0.53263374 0.03440438 0.06159255
-0.69015722 -0.55799849 -0.00000002
0.08947886 0.14380829 0.14983403
-0.50120321 0.03319894 -0.00000032
0.68561700 0.01752503 -0.00000167
-0.54417074 -0.54132830 -0.00000016
0.54629211 -0.68032739 -0.00000007
-0.71521684 -0.44244323 -0.00000001
0.32151945 0.35723815 0.03205449
0.28096407 -0.00175029 -0.00000050
-0.12738256 0.31859836 -0.00000070
-0.37555662 -0.31117064 -0.00000031
0.10935760 -0.07467315 -0.00000045
-0.66366272 -0.34109678 -0.00000008
-0.67275261 -0.71375797 -0.00000001
-0.40761927 -0.50443348 -0.00000018
-0.40934333 0.05959237 -0.00000043
0.15717515 0.32121170 0.08503165
-0.09128514 -0.13662976 -0.00000041
-0.22659791 0.06762458 -0.00000054
-0.41772367 0.75157428 -0.00000048
0.73740886 -0.36482048 -0.00000109
0.60207796 -0.51262440 -0.00000037
0.72980639 -0.38023979 -0.00000103
0.07899393 0.54582367 0.04631607
0.10704911 0.46968060 -0.00000079
-0.57241898 -0.66634913 -0.00000008
0.34065842 0.17599963 -0.00000087
-0.05628089 0.05094834 -0.00000053
-0.08549959 0.70415000 -0.00000089
-0.13728499 -0.62381062 -0.00000011
-0.11666996 -0.62036226 -0.00000011
0.45497292 0.17757792 -0.00000124
-0.52201272 -0.78562522 -0.00000001
0.30258087 0.23751289 -0.00000087
0.32661909 0.46901711 -0.00000140
-0.01004859 -0.65334233 -0.00000009
-0.57047377 -0.34290340 -0.00000018
0.73935442 -0.04560468 -0.00000172
-0.34529120 -0.04702560 -0.00000047
-0.53069179 0.75276453 -0.00000034
-0.54834227 -0.51183778 -0.00000017
0.21608450 0.00710386 -0.00000050
-0.76235545 0.18751167 -0.00000005
0.43507745 0.06556383 0.07914781
-0.45540579 0.21160474 -0.00000041
0.32219263 -0.50414685 -0.00000018
0.17636349 -0.63563667 -0.00000010
-0.59684520 -0.70225698 -0.00000006
-0.59859950 0.77633628 -0.00000025
0.73591731 -0.45044736 -0.00000087
-0.21946552 0.37617477 -0.00000069
-0.31964242 0.31750495 -0.00000057
-0.79478815 0.77253845 -0.00000001
-0.04441098 -0.09853022 -0.00000044
0.48935836 -0.63947003 -0.00000010
0.18141751 -0.26261129 -0.00000034
-0.03922572 -0.44328129 -0.00000022
0.16672950 -0.44833531 -0.00000022
0.24191735 0.12881915 0.11349400
-0.02038685 -0.66188104 -0.00000009
0.35511020 0.09106793 -0.00000075
0.29021938 -0.24623227 -0.00000035
-0.18917709 -0.55388004 -0.00000015
0.02758288 -0.09448777 -0.00000044
-0.50112245 -0.77046770 -0.00000002
0.17154230 0.04043037 -0.00000053
0.18302387 -0.12537536 -0.00000042
-0.30537089 0.48567429 -0.00000062
-0.39599977 -0.63240390 -0.00000010
0.47067331 0.00960795 -0.00000096
-0.57172324 0.43047001 -0.00000029
0.35763355 0.30781361 0.03557369
0.44481148 0.04548019 -0.00000095
0.07099610 0.54245696 -0.00000084
-0.62236207 0.28240832 -0.00000022
-0.71819712 -0.33866104 -0.00000003
-0.39727685 0.67341720 -0.00000050
0.36440722 0.26078636 0.04621662
0.01503486 0.32736273 -0.00000070
0.12427649 0.17639537 -0.00000061
-0.65795488 0.07448736 -0.00000017
0.12142015 0.28297460 0.10459451
-0.00030807 0.57368933 -0.00000086
-0.42201085 -0.11734948 -0.00000038
-0.35873704 -0.40479552 -0.00000025
0.16215274 -0.61273278 -0.00000012
0.05858900 0.37012366 -0.00000073
0.12520991 0.04460972 -0.00000053
0.10844990 -0.72579756 -0.00000005
-0.37211020 0.25224113 -0.00000050
-0.59938772 0.52330272 -0.00000025
0.57902028 -0.57919278 -0.00000016
-0.16362987 0.02207834 -0.00000051
0.48914261 -0.22106556 -0.00000057
0.35160439 -0.01394293 -0.00000054
-0.25316781 -0.09596915 -0.00000044
-0.62944354 0.67879388 -0.00000021
0.03916203 0.64110815 0.03165463
0.19261119 0.38898525 -0.00000081
-0.13611366 -0.76253295 -0.00000002
0.01779570 0.76967752 0.00331076
0.00116460 0.69996207 -0.00000094
-0.13947662 -0.57260297 -0.00000014
-0.18734524 0.65367906 -0.00000077
-0.17915999 0.24333112 -0.00000065
0.37654341 0.38047308 0.01136299
0.66245115 -0.28686682 -0.00000100
0.54676665 -0.55073177 -0.00000016
0.62916694 0.08422396 -0.00000162
-0.00729435 0.49805624 -0.00000081
0.08981421 -0.02892331 -0.00000048
-0.05474411 0.48553394 -0.00000080
-0.54848798 0.71266111 -0.00000031
-0.51669907 -0.65931198 -0.00000009
-0.11713685 0.53383322 -0.00000083
-0.75867931 -0.18859885 -0.00000001
-0.15779107 0.26422184 -0.00000067
0.25185823 -0.08641888 -0.00000045
-0.04598380 -0.29198121 -0.00000032
-0.04356289 0.22151793 -0.00000064
0.44560458 0.27774219 0.02026509
0.11588451 -0.00328035 -0.00000050
-0.25325086 -0.02153556 -0.00000049
-0.28285432 0.65943761 -0.00000065
0.12150462 0.11806334 -0.00000057
0.28754384 -0.18853575 -0.00000038
-0.03992557 0.00334540 -0.00000050
-0.47276250 -0.60261949 -0.00000012
0.43606795 -0.02292514 -0.00000079
0.05480369 0.19379011 0.14578692
-0.49709965 0.18021333 -0.00000036
0.21877036 0.09746275 -0.00000056
0.17638591 0.42368013 0.05286050
0.79822447 -0.26069218 -0.00000135
0.71554049 -0.63799549 -0.00000041
0.05090308 -0.60700526 -0.00000012
-0.67486332 -0.27747751 -0.00000008
0.13905654 0.10709419 0.14643319
0.31076552 0.06091329 -0.00000055
-0.28005106 0.22630272 -0.00000060
0.18983222 0.24393572 0.09682872
-0.33694009 0.15239905 -0.00000052
0.17205362 -0.47042207 -0.00000021
-0.36950134 -0.05256394 -0.00000045
0.71580631 -0.55432333 -0.00000061
0.19624634 0.07117153 0.14081054
-0.01709314 0.23662955 -0.00000065
-0.07208473 0.21390530 -0.00000063
0.10340114 0.33710297 -0.00000071
0.36693534 -0.19170543 -0.00000038
0.02484613 0.65052300 0.03295037
-0.48263048 0.54121387 -0.00000040
-0.71007531 0.78280484 -0.00000011
0.72425270 -0.03704504 -0.00000169
-0.71476838 0.74028387 -0.00000011
0.07013082 -0.75917611 -0.00000003
0.12085548 -0.62511198 -0.00000011
0.21407699 -0.60518471 -0.00000012
0.28908092 0.08643535 0.11223046
-0.19464792 0.52031897 -0.00000074
0.24350196 0.52649621 -0.00000125
0.11362171 0.48647733 -0.00000080
0.78427653 -0.65532481 -0.00000036
0.24625514 0.32754274 -0.00000087
-0.53404645 0.63653169 -0.00000033
0.27196969 -0.10405857 -0.00000043
-0.28155552 -0.28345870 -0.00000032
0.49777872 -0.10873724 -0.00000082
-0.17389120 0.49204908 -0.00000076
0.31460175 0.25772714 0.06019396
0.40890820 0.10005557 0.07694740
-0.37788224 0.43216717 -0.00000053
-0.25256823 0.36328666 -0.00000065
-0.41436891 0.46875674 -0.00000048
-0.36465090 0.70626853 -0.00000054
0.08848200 0.25237970 -0.00000066
0.26208554 0.53203528 -0.00000132
-0.31632137 -0.38207968 -0.00000026
0.69653869 -0.43883764 -0.00000081
-0.27630344 -0.00794780 -0.00000050
0.50607460 0.09888330 -0.00000125
-0.04007050 -0.13199972 -0.00000042
-0.01500371 -0.57189368 -0.00000014
0.31205231 0.07602637 0.10890914
0.10157503 -0.46571809 -0.00000021
-0.66808702 -0.76276378 -0.00000000
0.06699555 -0.63100475 -0.00000011
0.33317661 -0.38859636 -0.00000026
0.45072431 -0.32939657 -0.00000029
0.43731976 -0.45294131 -0.00000022
0.07971547 0.00640059 -0.00000050
0.61139054 -0.79496707 -0.00000000
-0.58346607 0.39942602 -0.00000027
0.22594818 -0.66901312 -0.00000008
-0.37312086 0.45471098 -0.00000053
0.60235318 -0.62168668 -0.00000015
0.10350971 0.23156281 -0.00000064
-0.03762476 -0.10939606 -0.00000043
-0.77570219 0.03118874 -0.00000003
-0.68109655 -0.48805981 -0.00000004
-0.45016275 -0.66868802 -0.00000008
0.12585427 0.09154174 -0.00000056
-0.60982221 0.45622426 -0.00000024
-0.46864030 0.18994151 -0.00000039
-0.39748178 0.00897219 -0.00000043
-0.13986157 -0.71347953 -0.00000005
0.55587882 0.01994615 0.05926930
0.23837509 -0.22255211 -0.00000036
0.56354176 0.17886962 0.01522431
0.72327716 -0.58568801 -0.00000054
-0.61216747 -0.64599703 -0.00000008
-0.54569980 -0.33689691 -0.00000021
0.50143860 -0.79759253 -0.00000000
0.07937908 -0.19976761 -0.00000038
-0.68713690 0.72839579 -0.00000014
-0.03873474 -0.63510736 -0.00000010
0.00873832 -0.61196041 -0.00000012
-0.57161487 0.44857425 -0.00000029
0.27690448 -0.33527999 -0.00000029
-0.47826959 -0.05308588 -0.00000033
0.46282772 -0.02492542 -0.00000087
-0.30632927 0.60433899 -0.00000062
0.04873656 -0.14829171 -0.00000041
-0.06518910 -0.49525943 -0.00000019
0.65307449 -0.62121071 -0.00000032
0.40668710 0.29722904 0.02540254
0.13145153 0.59489907 0.01947127
0.51133216 -0.08481430 -0.00000091
0.60134352 0.02381793 0.04622482
0.24776809 -0.21344328 -0.00000037
0.41271660 -0.72359257 -0.00000005
-0.39165485 0.29889625 -0.00000049
0.23522011 0.49782107 -0.00000116
0.75925589 0.03015272 -0.00000193
-0.04672623 0.73635816 -0.00000094
-0.04634261 0.53409032 -0.00000083
0.12420568 0.55682019 -0.00000092
0.46308050 0.14047011 -0.00000120
0.67776734 -0.09155250 -0.00000143
0.19420549 -0.07934601 -0.00000045
-0.43352704 -0.24694462 -0.00000035
-0.77645920 -0.73831571 0.00000000
0.05705554 0.39597495 0.09173529
-0.31685286 -0.61046073 -0.00000012
-0.41260800 0.61265632 -0.00000048
0.58263942 -0.52083675 -0.00000029
