ply
format ascii 1.0
element vertex 1394
property float x
property float y
property float z
end_header
0.49863450 0.24487983 -0.00000030
0.68161508 -0.04263573 -0.00000142
0.09710335 -0.31377516 0.00000000
-0.28681965 0.28531046 0.17279507
0.53551275 -0.77908810 0.00000000
0.74225338 -0.34749367 -0.00000113
0.42277537 0.09193858 0.00000371
0.63046652 -0.54574434 -0.00000031
0.12475395 -0.76425547 0.00000000
0.12913902 -0.75064755 0.00000000
-0.18462365 0.56322361 -0.00000018
0.12380933 0.18124105 0.00000000
-0.02585192 0.31083711 0.00000000
-0.53008356 -0.56791221 0.00000000
-0.75422166 -0.20936980 -0.00000072
-0.05977907 0.28809337 0.00000000
-0.17664873 -0.34603332 0.00000000
-0.07980237 -0.26647848 0.00000000
-0.36029184 0.43613846 -0.00000045
0.58648735 0.06675494 -0.00000121
0.72733537 0.06059274 -0.00000162
-0.40355681 0.13457944 -0.00000027
-0.21545004 -0.55013734 0.00000000
0.55368639 0.17490458 -0.00000019
-0.16455650 -0.09332087 0.00000000
-0.47476636 -0.11877576 -0.00000020
0.29651482 -0.73790042 0.00000000
0.04436855 0.52077154 0.00000352
0.15965499 -0.73149195 0.00000000
-0.40167852 0.23432112 -0.00000036
-0.40879230 -0.33816850 0.00000000
0.34102133 0.45202035 -0.00000074
0.72341607 -0.28399074 -0.00000117
0.72130802 -0.13285485 -0.00000143
-0.20422316 -0.64479779 0.00000000
0.46809781 0.24242026 0.00000032
-0.66464447 0.01459771 -0.00000072
0.44470268 0.02329501 0.00000443
-0.40342591 -0.55037618 0.00000000
-0.22257577 -0.46924306 0.00000000
-0.30511258 0.44213830 -0.00000033
0.77468401 -0.32936871 -0.00000118
0.73565461 0.00815023 -0.00000090
0.09285803 0.63677404 0.00000094
-0.24268248 0.33780445 -0.00000011
-0.52870127 -0.14318035 -0.00000029
0.60699273 -0.52862975 -0.00000024
0.03547619 0.52566540 0.00000358
-0.34290683 0.29569984 -0.00000029
-0.38006667 0.09164842 0.24894002
-0.15797049 0.44095894 0.15247304
-0.41770688 0.35175786 -0.00000050
0.38405194 -0.79477646 0.00000000
-0.62295027 -0.01433849 -0.00000061
0.20048858 -0.22827220 0.00000000
0.07043857 0.24936913 0.00000720
0.72857042 -0.11642561 -0.00000149
-0.38617473 -0.53639604 0.00000000
-0.71719873 -0.68642748 -0.00000014
0.24435032 -0.37773512 0.00000000
-0.53436525 -0.68422070 0.00000000
-0.30439460 -0.05448863 0.00000000
-0.52241385 0.12559012 -0.00000052
0.05191536 -0.56907481 0.00000000
0.09100508 0.65108936 -0.00000013
0.12456080 0.27940224 0.00000000
0.23513952 -0.60904437 0.00000000
-0.36918359 -0.77582256 0.00000000
0.26799263 0.13000815 0.00000000
-0.66237865 -0.53247134 -0.00000024
-0.14420917 0.24076028 0.00000000
-0.10637105 0.48823579 0.15575084
0.34883514 -0.37036619 0.00000000
-0.33369472 0.10755706 0.27204038
-0.20904138 -0.17942300 0.00000000
0.22973191 0.10159055 0.00000701
-0.37760893 0.26731625 0.11759382
0.01774627 0.74070598 0.00000000
0.42306143 0.08841662 -0.00000055
-0.07623247 0.15756437 0.00000000
0.03653326 -0.07825560 0.00000000
-0.50651214 0.12361111 0.12881781
-0.38646429 0.14059422 0.20697286
-0.74742719 -0.35309393 -0.00000056
0.19270533 0.01945978 0.00000880
-0.73476773 -0.02502831 -0.00000084
-0.50392498 0.12753618 -0.00000048
-0.15317164 -0.63931285 0.00000000
0.68803913 -0.20018583 -0.00000117
0.59313641 -0.02743853 -0.00000107
-0.13240652 0.31060070 0.27070913
-0.73212062 -0.17749059 -0.00000070
-0.54831489 0.17784657 0.05599128
0.03432968 -0.46340789 0.00000000
0.13167818 0.26720624 0.00000601
-0.76783804 -0.35369668 -0.00000056
-0.41221914 0.09303603 0.22350638
-0.49272141 -0.58921085 0.00000000
-0.36811288 -0.65035840 0.00000000
-0.49161041 0.24909819 0.04496027
0.49011655 0.15347426 -0.00000095
0.74784068 0.01550248 -0.00000180
-0.40700145 -0.29443194 0.00000000
0.64713948 0.11132512 -0.00000154
0.03859945 0.13833402 0.00000934
0.46881507 -0.63558746 0.00000000
-0.36142487 -0.51932118 0.00000000
-0.15110695 0.09236517 0.00000000
-0.50740567 -0.20124344 -0.00000020
-0.65682775 -0.06511489 -0.00000064
-0.22515923 0.21552744 0.27246885
0.76453568 -0.53169442 -0.00000067
-0.22123224 0.27621695 0.22942573
0.67980602 -0.64887342 -0.00000034
0.29401851 -0.44823521 0.00000000
-0.64901023 0.05844785 0.07017387
0.03369787 0.24088352 0.00000788
-0.57812527 0.10189377 0.09098129
-0.75692160 -0.74941526 -0.00000006
0.18263955 0.01058813 0.00000000
-0.47799477 -0.76791938 0.00000000
-0.31874496 -0.28785330 0.00000000
-0.60063141 -0.38881261 -0.00000023
-0.29747283 0.46844446 0.02584497
0.75342647 -0.79383563 -0.00000002
0.39700181 -0.79995574 0.00000000
0.40154165 -0.43696483 0.00000000
0.61484240 0.03073847 -0.00000126
0.45041902 0.24162204 0.00000068
-0.03935380 0.52730548 0.00000000
-0.14392734 -0.47478354 0.00000000
-0.23527113 -0.16995611 0.00000000
0.60113417 0.07277067 -0.00000128
0.34911471 -0.21245030 0.00000000
-0.47938436 -0.67198730 0.00000000
-0.26040162 0.21581510 0.24552637
-0.44159425 0.07954095 0.21146436
0.16778041 -0.58253808 0.00000000
-0.74630442 -0.62115674 -0.00000022
0.63213943 -0.30309042 -0.00000075
-0.00516514 0.00440773 0.00000000
-0.64648746 0.11761745 0.02721822
0.21917196 0.36318436 -0.00000016
-0.11526156 0.49208522 0.14609012
-0.15403631 0.49875324 -0.00000006
-0.52665612 -0.31094113 -0.00000014
0.21116731 -0.35928994 0.00000000
0.37562868 0.37404195 -0.00000010
0.58296686 -0.02632527 -0.00000103
0.28642529 0.47115100 -0.00000001
0.33627459 -0.23380582 0.00000000
0.15721102 0.10014632 0.00000813
-0.48371376 0.26818413 0.03647539
-0.68842773 -0.47905893 -0.00000034
-0.44558064 -0.69323729 0.00000000
-0.13350492 0.65207248 0.01093709
0.02950767 -0.45558612 0.00000000
-0.21033601 0.26956727 0.00000000
0.26616638 -0.63274469 0.00000000
-0.43750809 0.12607804 0.17927356
-0.38347739 0.22454435 -0.00000031
-0.06316284 -0.02885020 0.00000000
-0.41916480 -0.74704054 0.00000000
-0.24200706 -0.76475211 0.00000000
-0.37669224 -0.57029119 0.00000000
0.27422270 0.37228706 0.00000188
-0.30600763 0.30104395 0.14631384
0.00816849 -0.62690115 0.00000000
0.43692604 0.00304064 0.00000492
-0.07395835 -0.40742657 0.00000000
0.07405078 0.19691591 0.00000000
0.56670418 -0.59247665 0.00000000
0.18387599 0.56170413 0.00000045
0.07992373 -0.58569775 0.00000000
-0.11025133 0.02568160 0.00000000
0.39078133 -0.68230029 0.00000000
-0.08761450 0.43530846 0.21010886
0.51775145 -0.19315828 -0.00000045
-0.10729180 0.34440054 0.26412318
0.25644482 0.29622640 0.00000349
-0.32845018 0.14242823 0.24957445
0.17638725 0.17175710 0.00000676
0.35077920 0.11348402 0.00000473
0.16390036 -0.51952461 0.00000000
0.44435175 -0.36095596 0.00000000
-0.19362845 0.36878966 -0.00000003
0.37871679 -0.44861520 0.00000000
0.54009051 -0.56650816 0.00000000
0.46021852 -0.75259284 0.00000000
-0.15844863 0.14218950 0.37866790
-0.19881058 -0.01995902 0.00000000
-0.60736297 0.11989175 -0.00000069
0.57030380 -0.25875820 -0.00000056
-0.62316957 -0.14246589 -0.00000050
0.41117324 -0.50278564 0.00000000
0.04121372 0.24882367 0.00000765
-0.35320325 0.39944344 -0.00000040
0.44469166 -0.25686313 -0.00000003
-0.78497586 -0.03769682 -0.00000093
-0.58500773 -0.33708574 -0.00000024
0.43880593 0.15320264 0.00000238
0.07099655 -0.07412020 0.00000000
0.13087121 0.51991671 -0.00000006
0.10131072 -0.29863061 0.00000000
-0.64286361 -0.42492432 -0.00000029
0.66781153 -0.28482302 -0.00000093
0.44678182 0.06379927 0.00000372
0.43827059 -0.17585686 -0.00000015
-0.43145719 0.13767302 -0.00000034
-0.47655477 -0.52055941 0.00000000
0.25205482 -0.77413024 0.00000000
0.12978024 0.53517723 -0.00000009
0.08500209 -0.30865602 0.00000000
-0.29760007 -0.63942428 0.00000000
-0.43745061 -0.79070914 0.00000000
-0.58332653 0.12068474 -0.00000064
-0.08434150 -0.62986995 0.00000000
-0.27182551 0.47558901 0.03987582
-0.63616562 0.09703861 -0.00000074
0.09049835 -0.63549666 0.00000000
0.14933964 0.22235213 0.00000641
-0.27761299 -0.32395291 0.00000000
0.10267184 0.36988413 0.00000000
0.52670698 -0.26673063 -0.00000036
-0.35790402 -0.11007151 0.00000000
0.00014700 -0.71007261 0.00000000
-0.67756961 -0.77226492 -0.00000003
-0.04131077 0.41742669 0.00000000
0.59510013 0.01216768 0.00000173
0.77575065 -0.21273922 -0.00000147
0.22567764 0.04216543 0.00000000
-0.13604121 0.32588136 0.25636559
-0.35237946 0.23086605 0.16436600
-0.03132124 0.50807644 0.00000000
-0.37544132 -0.70557896 0.00000000
-0.02051221 -0.06270885 0.00000000
-0.00646019 0.00027216 0.00000000
-0.62600383 -0.30055351 -0.00000036
0.04057036 0.45272225 0.00000460
-0.19143613 -0.14740061 0.00000000
0.51917707 -0.30856612 -0.00000026
-0.24409672 0.39164063 0.12456144
-0.78056041 -0.50975868 -0.00000036
-0.13325955 0.60800918 -0.00000011
-0.34467553 0.26312915 0.14574264
0.60001161 -0.57013377 -0.00000014
0.70623253 0.06354929 -0.00000126
-0.61530000 -0.10809107 -0.00000051
0.00134300 -0.10518871 0.00000000
-0.06195947 0.66007024 0.05912581
-0.79182079 -0.54437625 -0.00000032
-0.67063221 -0.70548688 -0.00000010
0.25164168 -0.07739415 0.00000000
0.12235853 0.31830186 0.00000000
0.38387921 0.16857623 0.00000318
0.59549995 -0.02338424 -0.00000109
0.24630343 0.47440591 -0.00000048
0.45010686 0.23871671 0.00000073
-0.32426838 -0.63528839 0.00000000
-0.26372408 0.46755454 -0.00000027
-0.55995185 0.04628374 0.14693181
0.23514011 0.30825027 0.00000370
0.09203136 -0.63435947 0.00000000
-0.12352402 -0.17379674 0.00000000
0.42080001 0.23852508 -0.00000080
0.08299825 0.44540458 0.00000407
-0.49860483 0.06073184 0.18249576
0.57855519 -0.64043595 0.00000000
0.59469552 0.02824262 0.00000147
-0.59504638 -0.40301917 -0.00000021
-0.67312340 -0.24263203 -0.00000051
0.16744835 0.21211166 0.00000629
0.01298651 0.49683988 0.00000435
-0.15988498 -0.07163646 0.00000000
0.09847538 0.47226461 0.00000343
0.65166062 -0.15740154 -0.00000109
-0.64348283 -0.05212414 -0.00000062
-0.35731089 0.21782384 0.17051644
-0.05209286 -0.22608540 0.00000000
-0.79571647 -0.76091168 -0.00000005
-0.19432737 0.25890654 0.26295424
-0.13793745 0.65785354 -0.00000017
0.20898042 0.41524434 0.00000241
0.09455488 -0.46207636 0.00000000
-0.38478923 -0.22522608 0.00000000
-0.24922508 -0.22415856 0.00000000
-0.59062614 0.13298062 -0.00000067
0.32046541 0.41991337 0.00000019
-0.39165390 -0.53330156 0.00000000
0.72147393 0.03956164 -0.00000115
0.10778443 -0.26128696 0.00000000
0.10917901 -0.53490178 0.00000000
0.44443866 0.08097174 0.00000348
-0.05300587 0.68394057 0.04781443
0.19373485 0.20944882 0.00000593
0.57999431 0.17567541 -0.00000071
0.18577845 0.40684063 0.00000300
0.00384615 0.22168386 0.00000862
0.50303715 -0.53233204 0.00000000
-0.62405291 0.17246666 0.00263804
-0.36940404 0.16232115 0.20343413
0.26696139 0.01869246 0.00000000
0.15282289 -0.68682450 0.00000000
-0.46701069 -0.32776598 0.00000000
-0.19779383 0.15634660 0.00000000
0.07254007 -0.17425259 0.00000000
-0.11120038 -0.40998750 0.00000000
0.00853337 0.74672135 0.00000067
0.43147741 0.24605840 0.00000097
-0.67979686 0.05438224 0.04991105
-0.55445041 0.09279314 -0.00000056
0.09191481 0.56631533 0.00000212
0.47371241 -0.40560593 0.00000000
0.06093245 0.18154848 0.00000000
-0.28577037 -0.72583071 0.00000000
-0.25858439 0.11552159 0.00000000
0.21007978 -0.34693143 0.00000000
0.48014424 0.19953083 0.00000081
0.34409987 -0.18993871 0.00000000
-0.12131419 -0.31893627 0.00000000
-0.26890066 0.17841498 0.26744211
-0.29884975 -0.72713065 0.00000000
-0.03737267 -0.01604364 0.00000000
0.76019262 -0.40179032 -0.00000100
0.03714306 0.59580164 0.00000000
0.38785180 0.00869025 -0.00000026
0.11276077 -0.72060987 0.00000000
0.24543542 0.20629634 0.00000520
0.45535939 -0.19268617 -0.00000019
-0.13287202 -0.52680102 0.00000000
-0.24021574 -0.54715703 0.00000000
0.67235022 0.04175738 -0.00000153
-0.64074724 -0.09312828 -0.00000058
0.40306103 -0.47933020 0.00000000
-0.68436049 -0.48743225 -0.00000032
0.19106840 0.30794710 0.00000450
0.07143117 0.60442158 0.00000186
-0.15668341 0.44671765 -0.00000002
-0.11402515 0.65610105 -0.00000012
-0.78633804 -0.33122313 -0.00000059
-0.51484784 0.06292495 0.16851548
0.67082863 -0.35588818 -0.00000082
-0.05514663 0.67549959 0.05259190
0.32417694 -0.18573446 0.00000000
0.64668017 0.07093518 -0.00000024
0.70599956 -0.60395993 -0.00000049
0.11847446 0.24304485 0.00000657
-0.41346639 0.22292879 0.12406206
0.12778394 0.43754269 0.00000351
-0.06984839 0.28912945 0.00000000
0.68084371 -0.03151077 -0.00000144
-0.03413723 0.72449024 0.03137365
0.33178329 -0.04307734 0.00000000
-0.45794082 -0.39810113 0.00000000
-0.17942480 0.40377815 -0.00000003
-0.12998313 0.27235887 0.00000000
-0.12992990 0.04404895 0.00000000
0.16960250 -0.37810271 0.00000000
0.08987038 -0.44844155 0.00000000
0.36955036 -0.59225281 0.00000000
0.21305015 0.08888952 0.00000000
-0.08723210 -0.58946728 0.00000000
0.58121241 -0.18347869 -0.00000074
-0.53743970 -0.41702324 -0.00000007
-0.08900000 0.64686339 0.04863569
0.37992871 -0.10713175 -0.00000002
0.01544403 0.66298567 0.00000182
-0.25078475 0.51183191 0.02834801
0.13261859 0.16024252 0.00000000
0.08815596 -0.29758090 0.00000000
0.44436519 -0.56147147 0.00000000
-0.18908622 0.47126441 -0.00000011
0.42733476 -0.77824625 0.00000000
0.74672995 0.04923064 -0.00000180
-0.75949646 -0.64662577 -0.00000019
-0.77022958 -0.79527683 -0.00000001
-0.41273943 0.18302030 0.15487619
0.30935059 -0.78019168 0.00000000
0.60724708 -0.35706644 -0.00000055
0.76687607 -0.02211370 -0.00000182
0.60531047 -0.70209153 0.00000000
-0.16342384 0.24330044 0.00000000
-0.14706453 0.59517032 -0.00000013
0.53562077 -0.65470282 0.00000000
-0.79778762 -0.50364060 -0.00000037
0.36938451 -0.11116604 0.00000000
0.05115766 -0.49882478 0.00000000
-0.57857510 0.03474141 -0.00000056
-0.59385857 -0.01314980 -0.00000055
-0.63158931 0.08082389 -0.00000071
0.10192215 0.69244907 -0.00000024
0.60421651 0.03255225 0.00000122
-0.24860726 0.36924249 0.13812571
0.20641539 -0.34218953 0.00000000
-0.24616449 -0.79894418 0.00000000
0.06663803 -0.69078127 0.00000000
0.15922238 0.12089735 0.00000000
0.23706585 -0.46694391 0.00000000
0.05015021 0.53075115 0.00000328
-0.12477787 0.36605636 0.23444182
0.17385108 -0.66311468 0.00000000
0.02173230 0.64900000 0.00000194
-0.13648254 0.55748662 0.08040421
-0.45214834 -0.67152280 0.00000000
-0.22539936 0.27074838 0.23041262
-0.18746009 0.29528520 0.00000000
0.19124927 -0.12995472 0.00000000
-0.39762414 -0.07836651 -0.00000007
-0.38647944 0.11957703 -0.00000022
-0.47608303 -0.25424431 -0.00000008
0.15397569 -0.28357245 0.00000000
0.14446121 -0.46548495 0.00000000
-0.31614095 -0.43196975 0.00000000
0.20091378 0.14027891 0.00000686
0.01405361 0.32742766 0.00000000
-0.05448912 -0.74276297 0.00000000
0.05915589 0.46061685 0.00000420
-0.34587659 0.16842543 0.21664625
0.05714194 0.19651019 0.00000000
0.09935229 0.30513757 0.00000592
0.09257911 0.55006931 0.00000235
0.34550428 -0.04929169 0.00000000
-0.12924607 -0.60984295 0.00000000
-0.09411072 0.58872153 0.08884934
0.38254900 0.24761453 0.00000188
0.63014333 -0.59617006 -0.00000022
0.07495345 -0.76735157 0.00000000
0.38232173 -0.24718457 0.00000000
0.13232256 0.41901231 0.00000372
-0.53230129 -0.60677304 0.00000000
-0.49709182 -0.34661124 -0.00000005
0.17194633 0.09398118 0.00000000
-0.48123224 0.10871646 -0.00000042
0.50823559 -0.07498586 -0.00000062
0.08831868 0.64140041 0.00000095
-0.33366544 0.00815912 -0.00000001
0.56153319 -0.21396068 -0.00000060
0.30890223 0.02328617 0.00000699
-0.22273834 0.57631686 0.00071652
-0.68970380 0.10747062 0.00214126
0.01212980 -0.09329548 0.00000000
0.52240503 0.22479008 -0.00000121
-0.54744844 -0.29068500 -0.00000020
0.50240444 0.20398854 -0.00000109
0.21111473 -0.07834293 0.00000000
0.15588520 0.27242847 0.00000556
0.76078020 -0.44561925 -0.00000089
-0.13962631 0.42435914 0.17897111
0.02415952 -0.28759152 0.00000000
0.27778517 0.07517452 0.00000000
0.54848475 -0.57609195 0.00000000
-0.39339281 -0.57006362 0.00000000
-0.62285812 -0.26838281 -0.00000038
-0.06079283 -0.55569926 0.00000000
-0.33192714 0.16194762 -0.00000014
-0.10284630 0.29487146 0.30505220
-0.06766486 0.59207501 0.10636032
0.14165733 0.03545107 0.00000000
-0.55694518 0.20928309 0.02560834
-0.47453676 -0.48539789 0.00000000
0.60511118 -0.22129789 -0.00000078
-0.47860625 0.08540031 -0.00000039
0.52308526 -0.16984645 -0.00000052
0.62090227 -0.15557515 -0.00000096
0.18983346 0.04199132 0.00000851
0.72357235 -0.73478847 -0.00000016
0.47796443 -0.68070031 0.00000000
0.11075054 -0.60153798 0.00000000
0.76582715 -0.31505284 -0.00000121
-0.59671870 -0.02600761 -0.00000054
-0.15909856 0.15233369 0.00000000
-0.67951821 0.04189591 0.05959081
0.08653044 0.67165110 0.00000048
0.39725582 -0.27230116 0.00000000
-0.37557153 -0.41260914 0.00000000
0.30310508 0.20321736 -0.00000024
-0.32418305 0.13804643 0.25613295
-0.22921912 -0.34567081 0.00000000
-0.09014803 -0.10928673 0.00000000
0.25977828 0.16039104 0.00000000
-0.51784097 -0.10119829 -0.00000031
-0.42431957 0.26597136 0.08319254
-0.31125344 -0.45775277 0.00000000
-0.46461976 -0.65974022 0.00000000
-0.21063424 0.37514129 0.16244769
0.41802649 0.05347352 -0.00000046
0.72944963 -0.29625045 -0.00000118
0.13107609 -0.52588229 0.00000000
0.35763489 -0.73544314 0.00000000
-0.76710372 -0.39914267 -0.00000050
-0.25650502 -0.19301052 0.00000000
0.01081210 0.38849638 0.00000601
-0.28287712 -0.35947862 0.00000000
0.65667884 -0.10503613 -0.00000120
0.55164196 0.18581353 -0.00000127
0.61209338 -0.28978843 -0.00000069
-0.15052512 0.36753235 0.21379840
0.03988145 0.61423507 0.00000218
0.06053247 0.55226673 0.00000280
-0.63975989 -0.62257315 -0.00000011
0.67639018 -0.58452091 -0.00000044
-0.39628088 -0.48104952 0.00000000
0.02926161 0.44298339 0.00000000
-0.17262834 0.21097781 0.31575309
-0.16782866 0.56352063 0.05205851
-0.49752095 -0.43618542 0.00000000
0.26911681 -0.40976502 0.00000000
0.01372130 0.77093026 -0.00000001
-0.67266606 0.06407171 0.04797081
-0.07443478 -0.52266204 0.00000000
0.61828042 -0.58246429 -0.00000019
0.04128008 -0.25056097 0.00000000
-0.27219792 0.37919799 0.11268736
0.13396725 -0.26045877 0.00000000
-0.38214175 -0.56040838 0.00000000
0.73304160 -0.77823033 -0.00000005
0.25671351 -0.32535733 0.00000000
0.31413559 -0.60334713 0.00000000
-0.42419434 0.18653467 -0.00000036
-0.43040637 -0.08995490 -0.00000013
-0.18345561 0.20998157 0.00000000
0.14466136 0.44042178 0.00000000
-0.34211117 0.39869682 0.04488538
-0.37962226 0.07588720 -0.00000017
0.01976097 0.42976484 0.00000526
-0.26543943 -0.76152787 0.00000000
0.53641909 0.07824511 -0.00000101
-0.59036992 -0.72593261 0.00000000
0.05681015 0.67823779 0.00000094
-0.46173398 0.18401423 -0.00000044
0.31855041 -0.56571407 0.00000000
-0.73408327 -0.00918417 -0.00000085
-0.48874508 0.23006943 0.06156272
-0.08375953 -0.22593384 0.00000000
-0.49983319 -0.29572562 -0.00000010
0.76705306 -0.25798715 -0.00000136
0.08650050 0.38999066 0.00000484
-0.17204013 0.12642588 0.38031503
0.04624120 0.60499830 0.00000223
0.76798492 -0.58308625 -0.00000054
0.76511171 -0.56129251 -0.00000060
-0.77480596 -0.44395040 -0.00000045
0.22781179 0.09801623 0.00000709
0.13427723 0.52427675 -0.00000009
0.44281510 0.34552646 -0.00000109
0.15341690 0.06878897 0.00000865
-0.47981938 0.08299911 -0.00000039
0.48764646 0.28034797 -0.00000116
0.04465504 0.22367243 0.00000797
-0.00634184 0.17266448 0.00000000
0.11783742 0.50146799 0.00000000
-0.15785071 -0.06766536 0.00000000
-0.43967067 -0.53777802 0.00000000
-0.04686937 0.68816303 -0.00000000
-0.69010262 -0.77381004 -0.00000003
-0.77901098 -0.11165153 -0.00000086
-0.08138798 -0.03634202 0.00000000
-0.58364929 -0.26948243 -0.00000030
-0.54648817 -0.52061929 0.00000000
0.42437008 -0.26140014 0.00000000
0.70356246 -0.56558066 -0.00000059
0.61197447 -0.37047046 -0.00000054
0.47279449 -0.12526198 -0.00000038
-0.00268318 -0.37812688 0.00000000
0.46866283 -0.48481355 0.00000000
0.15628899 -0.19113968 0.00000000
-0.23623148 0.12005518 0.33646955
0.07012779 0.02590882 0.00001055
0.26042014 -0.27104412 0.00000000
-0.63060454 -0.70837009 -0.00000001
0.19485780 -0.67871665 0.00000000
-0.12468674 0.23716632 0.00000000
-0.34943839 -0.46383773 0.00000000
-0.08409339 -0.52596212 0.00000000
0.49869668 0.16414287 0.00000104
0.01363584 0.76337473 0.00000000
0.78254226 -0.68179440 -0.00000030
0.52949630 0.13333388 -0.00000108
0.56670167 0.23284337 -0.00000142
-0.64221575 0.10480437 0.04017374
0.63072461 -0.78271630 0.00000000
0.63524906 0.03353567 0.00000060
-0.75147295 -0.27731932 -0.00000065
-0.09447997 0.20043851 0.00000000
0.24739093 0.29240716 -0.00000016
-0.29995395 -0.10001533 0.00000000
0.08032141 0.55984252 0.00000000
0.69981021 -0.10622768 -0.00000138
-0.63043051 -0.58492675 -0.00000012
0.03769349 -0.03175936 0.00000000
0.24663654 0.09120189 0.00000000
0.26162408 0.11243146 0.00000000
0.08687934 0.67250322 0.00000046
-0.07215750 0.34731411 0.00000000
-0.17356199 -0.22450211 0.00000000
0.54693570 0.07286662 -0.00000105
0.12688478 -0.05087487 0.00000000
0.25977711 0.29044298 -0.00000021
-0.42445675 -0.75116102 0.00000000
-0.46637062 -0.63695452 0.00000000
-0.29686829 0.42786531 -0.00000030
-0.41791072 0.21921641 -0.00000038
-0.42739949 -0.57496876 0.00000000
0.20460309 0.56599442 -0.00000002
-0.09178534 0.62412408 0.06376686
0.39791369 0.09880880 0.00000407
-0.19055957 0.56089633 0.03681147
-0.73844660 -0.08329055 -0.00000080
0.43760671 -0.38439679 0.00000000
0.19913575 0.08617273 0.00000000
0.46223696 0.12954369 -0.00000079
0.34905263 0.14397612 -0.00000033
0.56589433 -0.33540838 -0.00000041
0.14139560 0.31825779 0.00000509
0.16748102 0.32735489 0.00000456
-0.13936613 0.47385290 0.14163719
-0.01038827 -0.09183048 0.00000000
-0.44206150 -0.58692872 0.00000000
0.72329852 -0.03044614 -0.00000162
-0.24000466 -0.29445084 0.00000000
0.47752808 0.05967798 0.00000320
-0.70556861 -0.75535065 -0.00000006
-0.61877764 -0.48620627 -0.00000018
-0.22765493 -0.73765899 0.00000000
0.55860869 -0.03779249 -0.00000090
-0.06374019 -0.50682053 0.00000000
-0.53991366 -0.75160326 0.00000000
0.75638517 -0.75309996 -0.00000012
0.37061948 -0.08004125 -0.00000003
-0.74102080 -0.73310943 -0.00000008
-0.60492240 -0.31637110 -0.00000030
-0.67289403 -0.39851464 -0.00000038
-0.61538780 -0.59037604 -0.00000008
-0.72736169 -0.52219655 -0.00000035
-0.76520086 0.00189589 -0.00000093
-0.64038706 -0.66894508 -0.00000007
0.34872185 -0.60990172 0.00000000
-0.00129122 0.77111579 0.00000000
-0.18100762 0.13851666 0.00000000
0.64531803 0.05794995 0.00000000
0.62726907 -0.42475659 -0.00000051
0.59932678 -0.57632684 -0.00000012
0.41340115 0.21468012 -0.00000073
-0.04913529 -0.47669347 0.00000000
-0.09588735 -0.35850643 0.00000000
0.19169537 0.24340099 0.00000546
-0.16254454 -0.52815451 0.00000000
0.07423128 -0.39437914 0.00000000
-0.58611651 -0.55330946 -0.00000005
0.33033774 -0.39834297 0.00000000
-0.11991382 0.54454208 0.10278417
-0.65968947 0.13400340 -0.00000082
0.17644837 -0.69094869 0.00000000
-0.67653161 0.11893060 -0.00000084
0.21122164 0.21719242 0.00000555
-0.21582906 0.43455037 0.11345834
0.21515319 0.42150263 0.00000219
-0.75380111 -0.42412674 -0.00000047
-0.03960067 -0.53810825 0.00000000
-0.58796126 -0.50366758 -0.00000010
0.55985304 -0.58937756 0.00000000
-0.25059233 0.51766360 -0.00000029
-0.11208178 0.50329928 0.13999772
0.53013295 0.01244027 0.00000297
-0.02197989 -0.30917017 0.00000000
0.17151383 0.39552433 0.00000346
0.00069124 0.20842201 0.00000000
0.60918128 0.09235418 0.00000012
-0.27016232 0.38476788 0.11000729
-0.39571220 -0.54743555 0.00000000
-0.39789606 -0.72385152 0.00000000
0.49313986 -0.39503919 0.00000000
-0.77050340 -0.60643091 -0.00000024
0.31183667 0.20000417 -0.00000027
0.28325111 -0.15438386 0.00000000
-0.35338233 0.15059813 0.22447311
0.47153553 0.07428793 -0.00000073
-0.31339141 0.31363411 -0.00000024
-0.04937658 -0.27084927 0.00000000
0.14957297 0.11029467 0.00000809
-0.55691400 0.10927934 0.10146547
0.76808613 -0.05697597 -0.00000176
-0.30802567 -0.76971039 0.00000000
0.10493049 0.09710098 0.00000000
-0.38159254 -0.54749517 0.00000000
0.09705237 -0.21305378 0.00000000
0.15673076 -0.69220467 0.00000000
-0.35519215 0.21776257 -0.00000024
0.05867571 0.07732316 0.00000000
-0.25422622 0.29394205 0.19096536
-0.49008797 0.18765539 0.09270723
-0.27422657 0.17511473 0.26590606
-0.73291037 -0.27088171 -0.00000062
0.18844558 -0.10907682 0.00000000
-0.32676233 0.24308618 -0.00000021
0.40368487 0.34409696 -0.00000092
-0.15197586 0.13470134 0.38925450
-0.27576010 0.46696637 0.04343079
-0.38828084 0.24089770 -0.00000033
0.48440360 -0.64953005 0.00000000
-0.52205723 -0.67925369 0.00000000
0.47076236 -0.72211802 0.00000000
0.45373032 0.04624056 0.00000388
-0.34081023 0.33957417 -0.00000032
-0.21046140 -0.06446137 0.00000000
0.01607852 0.54695466 0.00000000
-0.21799597 0.18717039 0.00000000
0.56231234 -0.62583306 0.00000000
-0.27131650 0.38563571 0.10847399
-0.24921969 -0.30172912 0.00000000
-0.37804602 -0.59236137 0.00000000
-0.02904224 0.47098736 0.00000000
-0.53663765 -0.29384596 -0.00000018
-0.12354749 0.41191527 0.00000000
0.56364028 -0.47567914 -0.00000015
0.10750951 -0.13942955 0.00000000
-0.48582845 -0.31772535 -0.00000005
0.36426359 -0.64618891 0.00000000
-0.01226466 -0.00295045 0.00000000
0.23989189 0.27753241 -0.00000010
-0.44513019 -0.24373484 -0.00000003
-0.09090170 -0.60991391 0.00000000
0.18428875 -0.09070170 0.00000000
0.14448215 0.03505809 0.00000929
0.49203393 -0.51573309 0.00000000
0.45239915 0.11910433 0.00000269
0.16058630 -0.51240869 0.00000000
-0.11074152 0.39408996 0.22382767
-0.31893668 -0.32858378 0.00000000
-0.78246285 -0.63862611 -0.00000020
-0.30001810 0.42776365 0.05476339
-0.26491425 0.28677047 -0.00000011
-0.36414612 -0.05588912 -0.00000002
0.42486461 -0.22350673 -0.00000000
-0.17332410 -0.50495441 0.00000000
-0.51832615 -0.39867275 -0.00000005
-0.69267139 -0.65634779 -0.00000018
-0.35965374 0.02796960 -0.00000009
-0.41584192 -0.54515259 0.00000000
0.11631830 0.54246455 0.00000207
-0.54704024 0.05547767 -0.00000051
0.64999473 -0.12015782 -0.00000115
-0.07966078 0.12631866 0.00000000
-0.38414815 0.09588438 0.24263289
0.78345289 -0.65263075 -0.00000037
0.70850468 -0.53305244 -0.00000067
-0.08688008 -0.13812955 0.00000000
0.01716476 0.71233515 0.00000000
-0.05621357 0.66740562 0.05792051
0.12749970 0.18767785 0.00000000
0.32596710 0.38603343 0.00000066
-0.69958003 -0.32938581 -0.00000049
-0.62187862 0.03590234 -0.00000065
-0.62736956 -0.17114323 -0.00000048
0.40715930 0.27072684 -0.00000080
-0.22863722 0.55079474 -0.00000027
-0.70795764 -0.63305598 -0.00000021
-0.11877275 -0.30281590 0.00000000
0.18416828 -0.54066567 0.00000000
-0.16105428 0.37150373 0.20280261
-0.51340370 0.12152173 0.12517627
-0.04967975 0.66490139 0.06477408
-0.35321955 -0.79429883 0.00000000
0.21281364 0.20457334 0.00000572
-0.06608075 -0.37498858 0.00000000
-0.28526454 0.19726401 0.24074010
-0.41284370 0.00991232 -0.00000018
-0.68842272 0.04162203 0.05304612
0.37979408 0.28349933 0.00000133
-0.48679825 -0.29144289 -0.00000007
0.65792694 -0.02843900 -0.00000134
-0.11365146 -0.56165104 0.00000000
-0.30679855 0.28866132 -0.00000020
-0.69654509 -0.46928342 -0.00000036
-0.27274775 -0.79142993 0.00000000
0.21129291 0.46164613 0.00000159
0.07872860 0.54656603 0.00000000
-0.04442985 0.69357337 0.04701306
-0.38425759 0.31815177 0.07400317
-0.26034335 -0.63831734 0.00000000
-0.65059262 -0.48666829 -0.00000025
0.17715631 0.23411985 0.00000582
-0.76510689 -0.53128643 -0.00000034
0.13995437 -0.16195671 0.00000000
-0.03998967 0.48943882 0.00000000
-0.03244451 -0.75490862 0.00000000
-0.17212036 0.38218178 0.18631400
-0.15739972 -0.59569116 0.00000000
0.02436064 -0.03947779 0.00000000
0.07453270 -0.17802987 0.00000000
-0.38443791 0.33207749 0.06330647
-0.20021747 -0.50188718 0.00000000
-0.16122134 0.47365928 0.12521118
0.28645035 0.05463971 0.00000000
-0.52372003 -0.13660400 -0.00000029
-0.34405013 -0.68135245 0.00000000
-0.56336645 -0.56066040 0.00000000
0.06227878 0.01920699 0.00000000
0.35414835 0.01165682 0.00000637
-0.00849212 0.73166804 0.00000000
-0.09789111 0.31647408 0.00000000
-0.26051991 0.11643573 0.32079623
-0.68794140 0.03547843 0.05806984
-0.34020682 0.33121382 0.09750226
0.14407360 0.43763931 0.00000326
-0.37364874 0.11080100 0.23928330
-0.48392669 0.12580365 0.14428197
0.06390734 0.36709156 0.00000000
-0.45799828 0.03318970 -0.00000030
0.11297883 -0.00418681 0.00000000
0.42782446 -0.63379916 0.00000000
0.32190611 0.39381662 0.00000060
0.00494545 0.32704616 0.00000702
-0.29293767 -0.04478689 0.00000000
-0.11330928 0.32489395 0.00000000
-0.60378675 -0.20030363 -0.00000040
0.30969650 -0.33569328 0.00000000
-0.52406541 0.24240633 -0.00000063
0.22069561 0.25690256 0.00000000
-0.09844315 -0.61472699 0.00000000
-0.23523791 0.33704238 -0.00000009
-0.41369416 0.15750167 -0.00000031
-0.49039339 -0.70317934 0.00000000
-0.10270710 0.41717324 0.21241609
0.03754046 0.02740216 0.00000000
0.11333096 0.52408500 0.00000243
0.39945112 0.13774228 -0.00000053
0.40946986 -0.72633351 0.00000000
0.48451212 -0.32330435 -0.00000008
-0.14342037 0.58550062 -0.00000012
0.08647835 0.07327486 0.00000000
0.24280262 0.44546128 -0.00000041
-0.12368117 -0.32115263 0.00000000
-0.39895035 0.21497117 -0.00000033
0.22791228 -0.50891110 0.00000000
0.20594922 -0.46678288 0.00000000
-0.00757321 -0.35328425 0.00000000
-0.41127156 -0.26286882 0.00000000
0.21677756 -0.19960637 0.00000000
0.32986263 0.10612272 -0.00000018
-0.33384485 0.06082088 -0.00000006
-0.14575607 0.40873811 0.00000000
0.39253870 0.10083964 -0.00000044
0.65534209 -0.76073568 -0.00000004
-0.42463939 0.01475187 -0.00000021
-0.59994950 0.13457377 0.04965031
-0.72699798 -0.16664530 -0.00000070
-0.44926419 -0.45164081 0.00000000
0.14498059 0.11009071 0.00000816
0.19667116 -0.78843897 0.00000000
-0.41059464 -0.26770374 0.00000000
0.21685550 -0.35061602 0.00000000
-0.06996307 -0.49159321 0.00000000
-0.73358630 0.05853588 -0.00000091
-0.11408671 0.25106310 0.32974855
0.08004221 0.19985247 0.00000779
-0.56525376 0.12934634 0.07992442
0.25800366 0.34920305 -0.00000030
-0.19903674 0.51632620 0.06418097
0.17684774 0.04213389 0.00000870
-0.13701152 0.24019514 0.32060583
0.64809322 0.05775912 -0.00000005
-0.62566774 -0.15151054 -0.00000049
0.34161305 -0.24480419 0.00000000
-0.16814639 0.61273583 -0.00000019
-0.40158494 0.27383981 0.09446573
0.19650669 -0.76170235 0.00000000
0.12837796 -0.73197209 0.00000000
0.23645647 -0.47493790 0.00000000
-0.43530994 -0.26517730 0.00000000
0.13384103 0.49905810 -0.00000004
-0.06915240 -0.31002292 0.00000000
-0.27112243 0.24814130 0.21288374
0.22779746 0.56133893 -0.00000039
0.01533998 0.71258571 0.00000000
0.72590108 0.07320785 -0.00000181
-0.28624896 0.07949664 0.00000000
0.00443002 -0.30062329 0.00000000
0.16739635 0.31663328 0.00000472
-0.64090823 -0.21173864 -0.00000047
0.29532065 0.22110545 -0.00000024
0.27556468 -0.68782538 0.00000000
0.45435036 0.17139179 0.00000178
0.16020085 -0.23462888 0.00000000
-0.21812620 0.35675909 -0.00000007
-0.30635959 0.11538729 -0.00000005
-0.76103808 -0.03577063 -0.00000089
-0.49131837 -0.46714111 0.00000000
0.49958162 -0.68447140 0.00000000
-0.66119448 -0.33928800 -0.00000040
0.70541622 0.00201778 -0.00000022
0.02074495 -0.15018763 0.00000000
0.07462837 0.23898388 0.00000000
0.26252959 0.00050846 0.00000000
-0.58956477 0.10058475 -0.00000064
-0.55724592 0.20015281 0.03230383
0.04095336 0.01225279 0.00000000
0.55140328 -0.58721201 0.00000000
0.56666048 -0.38247490 -0.00000033
-0.39764037 -0.64573839 0.00000000
0.70490194 -0.51567964 -0.00000068
-0.34175986 -0.25187285 0.00000000
-0.25980455 -0.74687729 0.00000000
0.34530513 -0.37178837 0.00000000
-0.11413000 0.59151306 -0.00000006
-0.12272298 0.12198887 0.00000000
0.27168308 0.14925590 0.00000565
-0.34050737 -0.61223297 0.00000000
-0.34529099 -0.08606859 0.00000000
0.24069187 -0.76046551 0.00000000
0.21728551 0.42326590 0.00000212
-0.23614530 -0.10264259 0.00000000
0.13989463 0.12019966 0.00000809
0.28224554 -0.14763490 0.00000000
-0.73236441 0.05874674 -0.00000091
0.10914963 0.20507623 0.00000728
-0.29235565 -0.51301603 0.00000000
0.76166583 -0.28232562 -0.00000129
0.28822492 0.40471730 0.00000107
-0.09854268 -0.10616241 0.00000000
-0.24832637 0.32499015 -0.00000011
-0.23888823 -0.64846625 0.00000000
0.32737377 -0.52617260 0.00000000
0.07975963 0.59292751 0.00000000
0.65595978 -0.77368988 -0.00000002
-0.20136805 0.15188697 0.00000000
0.36623524 -0.67033647 0.00000000
0.39120401 0.27499324 -0.00000074
0.13654575 0.09296655 0.00000000
0.77029584 -0.15427041 -0.00000160
0.52885551 -0.31587368 -0.00000028
0.13506650 0.38478663 0.00000000
-0.24242713 0.42958435 0.09705453
-0.27508657 0.38803155 0.10379832
0.57747629 0.12605748 0.00000017
0.19583409 0.27066303 0.00000499
-0.59084165 0.20227560 -0.00000073
0.75027788 -0.06296957 -0.00000168
-0.77387079 -0.71942437 -0.00000010
0.32443918 0.15194552 0.00000459
-0.52764950 -0.54442418 0.00000000
0.74116350 -0.57837535 -0.00000055
-0.36833523 -0.40393658 0.00000000
0.26743691 0.43398330 -0.00000049
0.06535482 0.50233653 0.00000000
0.06941278 0.35365725 0.00000565
-0.79392329 -0.32296770 -0.00000060
-0.71674951 -0.29180060 -0.00000056
-0.40606338 -0.18258318 0.00000000
0.64142301 -0.58866603 -0.00000028
0.61762799 0.02262319 -0.00000126
-0.45061139 0.20773207 -0.00000044
0.20607160 0.54062022 -0.00000042
-0.40189269 -0.33795995 0.00000000
-0.16121896 -0.61765873 0.00000000
0.01333946 -0.64082183 0.00000000
-0.22357429 0.36179639 0.16275469
0.60286702 0.02565362 0.00000136
-0.10931042 0.57640394 -0.00000004
0.07015527 0.41125981 0.00000477
-0.77155207 -0.40597526 -0.00000049
-0.51280514 -0.21404417 -0.00000020
0.10432500 -0.10118452 0.00000000
-0.39433808 0.19680735 -0.00000031
-0.48076397 0.03957172 -0.00000035
0.48703177 -0.26408450 -0.00000020
-0.47233621 -0.70399033 0.00000000
0.75691752 0.03270423 -0.00000172
0.67868519 -0.03388094 -0.00000142
-0.40018827 0.03773933 -0.00000018
-0.15607021 -0.47960080 0.00000000
0.15171853 -0.79598400 0.00000000
0.18289678 0.05025368 0.00000000
-0.50566911 -0.43543788 0.00000000
-0.14164651 -0.11897511 0.00000000
0.08773457 0.48988053 0.00000000
-0.27325287 0.09973094 0.32380809
-0.64756309 -0.73101356 -0.00000003
0.23248849 0.31590100 0.00000362
0.21473861 -0.11659289 0.00000000
0.31043128 0.39548040 0.00000080
0.62180425 0.09795389 -0.00000021
-0.35684878 0.16771333 -0.00000020
-0.13326102 0.05592041 0.00000000
-0.78477707 0.01366598 -0.00000098
-0.58309733 -0.67154030 0.00000000
0.27959353 -0.50452243 0.00000000
0.19762016 0.16549556 0.00000000
-0.43897932 -0.11528090 -0.00000013
-0.06409235 0.65641896 -0.00000001
-0.09237213 -0.55431810 0.00000000
-0.09358485 -0.47155503 0.00000000
0.38134014 -0.61898098 0.00000000
0.11694518 -0.08675816 0.00000000
-0.27651054 0.30057243 0.16903931
-0.19898068 0.25578514 0.00000000
-0.18332609 -0.44869115 0.00000000
-0.46955236 0.19118491 -0.00000046
0.38738638 0.34606920 0.00000014
-0.45266093 0.34202651 0.00402790
-0.49933097 -0.07858973 -0.00000029
0.30521755 0.18181768 0.00000446
0.41458127 0.12360103 -0.00000057
-0.08790355 0.52055218 0.14524919
0.33069305 0.35611598 0.00000106
0.27534763 0.48529879 -0.00000003
0.18741348 0.13021303 0.00000000
-0.17840260 -0.28868545 0.00000000
0.16183834 0.47895619 0.00000225
0.04333639 -0.45157484 0.00000000
-0.64895691 -0.61211348 -0.00000014
-0.33606822 0.38059412 0.06319520
0.07914109 0.53532260 0.00000278
0.38486150 -0.56226197 0.00000000
0.26633893 -0.05311513 0.00000000
-0.57579557 0.02405036 -0.00000054
-0.06982065 -0.69128441 0.00000000
0.66999130 0.03780761 -0.00000013
0.64266307 -0.60510671 -0.00000026
0.44468085 -0.35218797 0.00000000
0.41813585 -0.23178153 0.00000000
0.23417762 0.53380425 -0.00000005
-0.00864449 -0.07550061 0.00000000
-0.41523059 0.34655193 -0.00000049
0.37181024 -0.73501705 0.00000000
-0.62686734 -0.70912859 -0.00000000
-0.35579445 -0.59297991 0.00000000
0.36937063 0.10503662 0.00000452
-0.31148716 0.20743035 0.21314630
0.02888137 0.75423507 -0.00000004
-0.27765519 0.24205006 -0.00000010
-0.20797469 -0.55073357 0.00000000
0.44749408 -0.76109793 0.00000000
0.07693150 0.23182944 0.00000736
-0.58708179 -0.61107973 -0.00000001
0.76794781 -0.09909060 -0.00000169
0.32564443 -0.42712020 0.00000000
0.24766245 0.24030627 -0.00000007
-0.34230061 -0.02160415 -0.00000000
-0.12653233 0.47025912 0.00000000
0.03578576 -0.27396786 0.00000000
-0.19682899 0.48159314 -0.00000014
0.71701595 -0.13125188 -0.00000141
-0.61777880 -0.31077115 -0.00000034
-0.33118061 0.33975054 -0.00000030
0.57961722 -0.16676366 -0.00000076
0.08449809 0.65476021 0.00000080
-0.20993813 -0.62186371 0.00000000
0.17874431 -0.76916165 0.00000000
0.46410846 -0.70581655 0.00000000
0.34425861 -0.50762402 0.00000000
-0.12212656 0.22460788 0.00000000
0.35681599 -0.66632991 0.00000000
0.15971424 0.04566801 0.00000891
-0.38309564 0.04719959 -0.00000015
-0.51046242 0.06806388 -0.00000044
0.58936303 -0.69264387 0.00000000
-0.57967377 -0.38248911 -0.00000019
-0.00496849 0.03712978 0.00000000
0.77167200 -0.13732599 -0.00000164
-0.02223279 0.72104826 0.00000000
-0.26114419 0.00190071 0.00000000
0.08503632 -0.10836281 0.00000000
0.62987733 0.14275024 -0.00000153
-0.61524934 -0.46280987 -0.00000020
0.12423543 -0.58274968 0.00000000
0.35019147 0.29818432 0.00000166
-0.11628092 0.18761545 0.37619715
-0.40436083 0.05300820 -0.00000020
0.50947622 0.25354214 -0.00000121
0.59903872 -0.75830077 0.00000000
0.18086972 0.10138070 0.00000000
-0.15321645 -0.34087732 0.00000000
0.20542203 -0.62670096 0.00000000
-0.19714264 0.16522850 0.00000000
0.58417766 -0.22493077 -0.00000068
0.69517903 -0.77593100 -0.00000006
-0.44230473 0.27835201 -0.00000048
0.17925985 0.58977859 0.00000007
0.40215153 -0.59050018 0.00000000
-0.32501230 0.41637905 0.04444306
-0.09626092 0.15875846 0.00000000
0.22978953 0.42644594 0.00000183
-0.30865390 0.45634638 0.02654032
0.78059573 -0.52991317 -0.00000068
0.52414895 -0.79561567 0.00000000
0.21405106 -0.22485750 0.00000000
0.59045182 -0.67973585 0.00000000
0.75239367 -0.46303404 -0.00000084
0.63850549 -0.27198480 -0.00000083
-0.25636698 0.35743104 0.14119813
-0.31264649 0.40766846 0.06042547
0.15936115 -0.19373813 0.00000000
0.03748656 0.57902159 0.00000275
0.49752773 0.01514711 -0.00000074
0.07879957 -0.61094360 0.00000000
0.40385386 0.06817201 0.00000447
-0.07951220 0.38364758 0.25542739
-0.54618961 -0.77289421 0.00000000
-0.51905311 -0.29778865 -0.00000014
-0.26421125 0.23357984 0.22916648
-0.49903319 0.23173899 -0.00000056
-0.21940008 0.19478013 0.29256875
-0.67062133 -0.75095917 -0.00000006
0.21525831 -0.74024596 0.00000000
0.24583904 0.42938312 0.00000147
-0.43992475 0.34669745 -0.00000054
-0.28555294 0.25355080 -0.00000013
-0.73319706 -0.66818059 -0.00000016
0.11177556 0.25751951 0.00000645
0.00013349 0.22705004 0.00000859
0.01390975 -0.60059049 0.00000000
-0.02130440 0.52687302 0.00000000
0.64805775 0.12775870 -0.00000158
0.38858081 0.35188469 -0.00000087
0.16163448 -0.54629183 0.00000000
-0.26544657 0.18381176 -0.00000002
-0.29203755 0.47947131 0.02160486
-0.03796432 0.46631432 0.00000000
0.14950040 0.22575249 0.00000636
-0.16393712 0.02610956 0.00000000
-0.47186760 -0.02091572 -0.00000028
0.29845119 0.25726098 0.00000333
-0.07907040 -0.31166687 0.00000000
0.40460153 -0.74205367 0.00000000
-0.46820631 -0.67792155 0.00000000
0.37323269 0.30761162 0.00000106
-0.18083970 -0.75415853 0.00000000
0.04592514 0.38008001 0.00000561
-0.51496719 0.16782711 0.08887699
0.59165532 -0.76497707 0.00000000
0.51305717 -0.39868964 -0.00000007
0.40839792 -0.16286762 -0.00000004
0.26190381 0.11525275 0.00000632
0.40919023 -0.61958162 0.00000000
0.14289958 0.19627156 0.00000000
-0.43645124 0.35811119 0.00412274
0.35638116 0.00730352 0.00000640
-0.57712194 0.18260318 0.03053965
0.62183170 -0.28104252 -0.00000074
-0.15157525 0.31530281 0.25260784
-0.74928404 -0.34654142 -0.00000057
0.06030741 -0.07549158 0.00000000
0.10170188 0.27599980 0.00000000
-0.16139296 0.16160499 0.36171240
0.22848419 0.35147855 -0.00000018
0.06791154 0.03129694 0.00001051
-0.78481131 -0.58479006 -0.00000027
0.27300246 -0.21042892 0.00000000
0.47514044 -0.30876946 -0.00000007
-0.20187462 0.26063025 0.00000000
-0.14443387 0.37973578 0.00000000
0.57628111 -0.62278633 0.00000000
-0.20750976 0.56852763 -0.00000024
0.23916539 0.26688648 0.00000431
0.71145624 -0.22101966 -0.00000123
0.05089541 0.20934253 0.00000809
0.67202376 -0.24628042 -0.00000102
0.20273088 -0.59003440 0.00000000
-0.06779500 -0.44233985 0.00000000
0.52580279 0.12305620 -0.00000105
0.27254765 -0.18856618 0.00000000
0.41996328 0.05546435 -0.00000048
0.37213088 -0.29362037 0.00000000
0.31876527 -0.38044854 0.00000000
-0.07646567 -0.45281297 0.00000000
0.11653475 0.44042877 0.00000000
-0.76295740 -0.27707175 -0.00000065
0.31812177 0.27531874 0.00000266
-0.06757515 0.68660507 0.03474599
0.50184902 -0.07142495 -0.00000060
0.35462902 0.26425486 -0.00000057
0.41756219 -0.16212963 -0.00000008
0.27875468 0.37456357 0.00000175
-0.07821409 0.23081453 0.00000000
-0.56243251 0.04850175 -0.00000054
-0.76906774 -0.20149086 -0.00000075
0.46309735 0.22712162 -0.00000096
-0.46418017 -0.74850852 0.00000000
0.42282597 0.17523671 -0.00000070
0.76497367 -0.21968748 -0.00000145
0.15927593 -0.08368013 0.00000000
-0.48300815 0.27544474 0.03150469
-0.02250450 0.41662867 0.00000000
0.13915775 0.29533320 0.00000000
-0.22731456 0.19969635 0.28283922
-0.74309592 -0.60569862 -0.00000024
-0.37610147 0.23757724 0.14128823
-0.52130494 -0.23528557 -0.00000020
0.35147942 -0.63079041 0.00000000
0.25230431 0.29860152 0.00000353
-0.77931236 -0.55324327 -0.00000031
-0.20171847 0.08418214 0.00000000
-0.40303653 -0.50502910 0.00000000
-0.73720800 -0.53730777 -0.00000033
-0.65681500 0.12249191 0.01569040
0.45334355 0.34327076 -0.00000108
0.69043103 0.05528067 -0.00000082
-0.19353697 0.39676136 -0.00000006
0.72552981 -0.08040105 -0.00000154
0.13104781 -0.38672766 0.00000000
-0.40589735 0.12662047 0.20283296
-0.40375159 -0.61857951 0.00000000
-0.17944877 -0.76336062 0.00000000
0.10241614 -0.50720990 0.00000000
0.19229145 0.42624258 -0.00000016
0.37285620 -0.16488046 0.00000000
0.39915958 -0.72749167 0.00000000
-0.57047905 0.04194019 -0.00000055
0.02492563 0.51893350 0.00000384
-0.41357751 0.04464161 -0.00000021
-0.08106027 -0.04632810 0.00000000
-0.19078639 0.56315916 -0.00000020
-0.01685917 0.73856614 0.00000000
0.25499359 0.36135872 -0.00000031
0.29607276 -0.79177838 0.00000000
-0.11578322 -0.29243356 0.00000000
0.43492621 0.20372856 0.00000161
0.32462195 -0.28605060 0.00000000
0.40957610 -0.62283068 0.00000000
-0.48282889 -0.76772361 0.00000000
0.07873939 0.38733584 0.00000000
0.70769055 -0.64506710 -0.00000039
-0.16808211 0.21293771 0.31771431
0.51341258 0.04898622 0.00000269
0.45960043 0.29281388 -0.00000106
-0.16515001 -0.76793200 0.00000000
-0.04285210 -0.38569584 0.00000000
-0.00340257 0.45718417 0.00000000
-0.15658754 0.50877827 0.10209421
0.12232197 0.50436009 0.00000259
-0.58968202 0.04325261 0.12668567
-0.32993294 -0.19804923 0.00000000
0.18242374 0.31397266 0.00000000
-0.34211686 0.12872908 0.24959907
0.00601766 0.03121995 0.00001144
0.76614125 -0.27906780 -0.00000130
-0.06323126 0.40051103 0.00000000
0.06648034 0.40726912 0.00000489
-0.17495832 -0.34939904 0.00000000
0.47562116 0.23063702 0.00000038
0.01097340 0.19485301 0.00000891
-0.27445515 -0.36775900 0.00000000
0.34078235 -0.02142282 -0.00000000
0.64771961 -0.77801052 0.00000000
-0.38631556 0.18252614 -0.00000028
-0.11446896 0.34188193 0.00000000
0.09245427 -0.43692019 0.00000000
0.03729164 0.24546872 0.00000000
0.43704630 -0.61558176 0.00000000
0.36590220 0.40398068 -0.00000041
-0.42107306 -0.10038450 -0.00000010
-0.06722764 0.23004726 0.00000000
0.32603808 -0.59467446 0.00000000
0.64260428 -0.04592822 -0.00000125
0.69827474 -0.71862892 -0.00000020
0.03536339 0.55919973 0.00000000
0.25863778 -0.40936186 0.00000000
0.38063066 0.19536355 -0.00000056
-0.07637466 -0.78147902 0.00000000
0.75770731 -0.18013836 -0.00000150
0.67455785 0.12293855 -0.00000168
-0.64193665 -0.01747288 -0.00000065
0.13414726 0.21520275 0.00000000
-0.32040583 0.32840766 0.11464547
0.04825784 -0.33358993 0.00000000
0.06846709 -0.35250452 0.00000000
0.20470243 -0.77096362 0.00000000
0.12066971 0.02481873 0.00000000
0.50003943 -0.36057588 -0.00000008
0.42873785 0.16826496 0.00000232
0.51358163 -0.53999361 0.00000000
-0.09520114 0.39070563 0.23817831
-0.08657639 -0.11936527 0.00000000
-0.68573341 -0.60161917 -0.00000022
0.12188715 -0.08164531 0.00000000
0.14317153 0.18923491 0.00000700
0.05189703 0.15466979 0.00000890
-0.13129033 0.06939086 0.00000000
0.29423374 -0.49309306 0.00000000
0.78719753 -0.69684668 -0.00000026
-0.69041387 -0.76514052 -0.00000004
0.75726058 -0.45802996 -0.00000085
-0.06796988 0.48167394 0.00000000
0.33976833 0.02269658 -0.00000008
-0.04799361 0.50371289 0.00000000
0.12325051 0.51170059 -0.00000002
0.02338287 0.48616386 0.00000000
-0.20022958 -0.04715192 0.00000000
-0.40795475 0.25953413 0.10048353
-0.01121013 -0.13938291 0.00000000
-0.26419392 -0.02682158 0.00000000
0.01816892 0.60141349 0.00000270
-0.48699216 0.29531006 -0.00000059
0.14805660 -0.68285206 0.00000000
-0.45226016 0.24029752 0.08147355
-0.50556719 0.23805751 0.04274893
-0.51187216 -0.58890833 0.00000000
-0.53572527 -0.36383709 -0.00000011
-0.25064549 0.41701283 -0.00000020
-0.25640235 0.25448718 0.21923391
0.63420765 -0.73630823 0.00000000
-0.74822954 -0.73933437 -0.00000008
-0.13914749 0.49577523 -0.00000003
0.38923651 0.16929321 -0.00000055
0.14502536 0.23346598 0.00000631
0.41141426 0.06516503 -0.00000046
0.11024890 -0.49420119 0.00000000
-0.38894767 0.11861631 0.22175567
0.29607909 0.23153462 0.00000381
0.26556629 -0.33268861 0.00000000
-0.04531069 0.59442429 0.00000000
0.10328064 0.22061735 0.00000713
0.30336049 -0.34662908 0.00000000
0.70171672 -0.13309359 -0.00000135
-0.25475986 0.07409185 0.00000000
0.16563258 0.35291105 0.00000421
-0.22749436 -0.29527391 0.00000000
0.34748897 0.36941040 -0.00000072
-0.27143216 0.50071721 -0.00000031
-0.30039776 -0.31986961 0.00000000
-0.73546240 -0.60902954 -0.00000024
0.18757085 -0.73330898 0.00000000
-0.73946154 -0.59587834 -0.00000026
0.27190225 0.38852166 -0.00000043
0.47516052 0.01636367 0.00000397
0.42125372 0.25340533 0.00000104
-0.35312362 0.28739770 -0.00000030
-0.05139843 0.66023298 0.06701087
-0.40792637 -0.61348629 0.00000000
-0.13704266 -0.69978132 0.00000000
-0.29020458 0.42320821 -0.00000029
0.00766577 -0.40296716 0.00000000
0.18432622 0.32032706 0.00000441
-0.79661200 -0.79496761 -0.00000001
-0.09576298 0.53088419 0.13145460
0.51840045 -0.23515768 -0.00000038
0.60497484 -0.02201777 -0.00000113
-0.12834346 0.61263457 0.04475710
-0.73816068 0.01849116 0.03286964
-0.20327554 -0.43104516 0.00000000
-0.70450121 -0.33400722 -0.00000050
-0.25670397 0.51497581 0.02147537
-0.69621711 -0.10836770 -0.00000068
-0.24766289 0.52836564 0.01817770
0.01489233 0.62810179 0.00000235
-0.64109575 -0.00850680 -0.00000065
0.48625168 -0.01671715 -0.00000063
-0.78868232 -0.20198089 -0.00000075
0.02568120 0.55979289 0.00000322
-0.67374619 -0.07771345 -0.00000066
-0.03396035 0.76459510 -0.00000004
-0.34649266 0.16090645 0.22188073
-0.56997491 -0.79788164 0.00000000
-0.48300157 0.31443119 0.00194600
-0.57458740 0.11169604 0.08623096
-0.38404381 0.33799427 0.05911859
0.00482892 -0.78294443 0.00000000
0.07322355 0.17526624 0.00000827
-0.12401149 -0.24628044 0.00000000
-0.21254078 0.15853578 0.32525432
0.64768415 -0.45063317 -0.00000055
-0.75167938 -0.30038304 -0.00000062
0.08101154 -0.70271105 0.00000000
-0.13402907 -0.76085270 0.00000000
-0.27181975 0.18640322 0.25917106
0.31368945 -0.01501941 0.00000000
-0.30772480 -0.53108600 0.00000000
0.72263238 -0.45487445 -0.00000086
-0.49169793 -0.72376209 0.00000000
-0.01408251 0.58782931 0.00000000
-0.09195850 0.60178859 0.08057260
-0.39254401 -0.42163021 0.00000000
-0.00548519 0.52431612 0.00000000
0.39336144 -0.09711667 -0.00000009
-0.45437738 -0.03486138 -0.00000023
-0.76731361 -0.15149196 -0.00000080
-0.08122512 0.21760518 0.00000000
0.01619837 -0.12444280 0.00000000
0.69431562 -0.65682433 -0.00000036
0.05511813 0.60987016 0.00000000
-0.44483206 -0.05179162 -0.00000020
0.30001834 0.12108650 0.00000558
0.42003812 -0.78765848 0.00000000
0.16865983 0.55606343 -0.00000029
-0.49439546 0.21468251 0.06894598
-0.13351389 0.61227770 -0.00000012
-0.49409248 0.28882635 -0.00000060
0.36277049 0.04505085 -0.00000021
0.03813869 0.04370387 0.00000000
0.02958597 0.67121798 0.00000000
-0.04868969 -0.32808114 0.00000000
0.33664601 0.25822156 0.00000259
-0.32785264 -0.74528510 0.00000000
