ply
format ascii 1.0
element vertex 1393
property float x
property float y
property float z
end_header
-0.18682939 0.04223101 0.09321369
-0.06460301 -0.50049639 0.00000000
0.33223227 -0.76410862 0.00000000
0.25701213 0.22707264 0.00000463
0.64521385 -0.01726685 -0.00000131
-0.46229754 0.08961002 0.04050403
-0.24490184 -0.11783027 0.00000000
-0.04368681 -0.17440911 0.00000000
0.06644234 0.60939354 0.00000186
0.69299017 -0.21661198 -0.00000116
0.24987021 0.24316790 0.00000450
-0.72511275 -0.14540433 -0.00000142
-0.56388673 0.16899729 -0.00000129
-0.07430913 -0.63649403 0.00000000
-0.01700587 0.07449993 0.00000000
0.05934592 0.51639833 0.00000336
-0.44616327 0.01095969 -0.00000051
0.26895973 -0.10856963 0.00000000
0.41888645 0.09190627 0.00000378
0.29741322 0.46984299 -0.00000069
-0.28762142 0.40205339 -0.00000052
0.18719153 -0.26850709 0.00000000
0.00483422 -0.03339899 0.00000000
0.35934723 0.05535858 -0.00000022
-0.46181629 0.05705351 -0.00000066
-0.07685733 0.48172048 0.00000000
0.10628374 0.31789440 0.00000563
0.04293468 -0.05492385 0.00000000
0.27754026 -0.61505486 0.00000000
0.12435192 -0.37087236 0.00000000
0.41112542 0.02123093 0.00000511
-0.64319893 -0.48788226 -0.00000047
-0.10557012 0.34571161 0.05693300
-0.01306353 0.47947495 0.05019704
0.08638771 0.56999490 0.00000000
0.46631510 -0.38859869 0.00000000
0.09450864 0.01854880 0.00001030
0.46578675 -0.25871163 -0.00000012
-0.58292814 -0.32488516 -0.00000050
0.13328889 -0.21398838 0.00000000
0.10588222 0.20460443 0.00000733
-0.48977420 -0.26827688 -0.00000020
0.69219352 0.03490579 -0.00000051
-0.17347966 0.23262664 0.00000000
-0.43109639 -0.08396103 -0.00000028
-0.28806187 0.15655322 0.05802180
0.60704982 -0.02614100 -0.00000113
0.01863944 0.39410141 0.00000581
0.77005513 -0.18581297 -0.00000154
-0.11583403 -0.48844111 0.00000000
0.25262194 0.04974158 0.00000744
-0.14127801 0.05739362 0.09817491
-0.00054725 -0.24373508 0.00000000
0.24295186 -0.22577606 0.00000000
-0.28967681 -0.09061173 0.00000000
0.77801800 -0.35531255 -0.00000111
0.20545366 0.32099144 -0.00000003
-0.51789298 0.18337545 -0.00000112
0.17098876 0.62766446 -0.00000043
0.14838352 -0.70395106 0.00000000
0.34430450 0.41038143 -0.00000078
-0.44572844 0.33200073 0.00363489
0.28711409 0.44945892 -0.00000061
0.63286961 -0.65078764 -0.00000014
0.65132638 -0.33761442 -0.00000077
0.04327370 -0.36471061 0.00000000
0.53617934 -0.44126504 -0.00000009
-0.56909545 -0.06224157 -0.00000090
0.22313337 0.26697889 0.00000462
0.38326201 0.28478831 -0.00000072
0.73693982 -0.00513025 -0.00000172
-0.22838764 -0.04899221 0.00000000
-0.43351209 -0.20298346 -0.00000008
-0.46211026 0.32866181 -0.00000114
0.40946126 0.12671586 -0.00000056
-0.08403581 0.41059100 0.00000000
-0.02240271 0.20088763 0.00000000
0.30997644 -0.18429393 0.00000000
-0.01952785 -0.60026764 0.00000000
-0.21317676 -0.11599864 0.00000000
-0.50891196 -0.00634642 -0.00000075
0.78756197 -0.38137395 -0.00000105
0.27285232 0.32266101 0.00000273
0.55536017 0.23076247 -0.00000136
0.30024059 0.43233516 0.00000038
0.62616078 -0.04665135 -0.00000118
0.51110554 -0.38790278 -0.00000008
0.02235588 -0.01563958 0.00000000
-0.34085270 -0.16349494 0.00000000
-0.21591608 0.45957703 -0.00000032
-0.43292379 0.03904282 -0.00000050
-0.55657347 0.00702781 0.03859457
-0.58062710 -0.64860430 0.00000000
-0.53113435 0.19492518 -0.00000120
0.45634797 0.21851207 0.00000095
-0.39489067 0.19483424 0.03432989
0.39152125 -0.68181142 0.00000000
-0.55019487 0.10262784 0.02402769
-0.08717128 -0.23257531 0.00000000
0.15846949 0.47247889 -0.00000010
-0.12569115 -0.65018002 0.00000000
-0.25037952 0.03021336 0.08480054
-0.03318973 0.51215897 0.04157516
-0.03115900 0.51709586 0.00000000
0.26285140 0.24035391 0.00000430
-0.27027877 0.25481226 0.04488280
-0.08284908 0.58046387 0.00000000
-0.00439567 -0.64996984 0.00000000
-0.22919555 -0.58890939 0.00000000
0.20652866 0.57230302 -0.00000016
-0.06373612 0.44367224 0.04776949
-0.40468185 0.12097697 -0.00000053
-0.54773585 -0.40415117 -0.00000021
-0.32483402 -0.76896708 0.00000000
0.50669089 -0.79576109 0.00000000
0.11642286 0.66409011 0.00000003
-0.21851913 0.02454920 0.00000000
-0.64176282 0.14254287 -0.00000158
0.42653961 0.17029305 0.00000233
0.40215398 -0.78417672 0.00000000
0.63125870 -0.07301529 -0.00000115
-0.18919356 0.48101698 -0.00000024
0.03067463 -0.68686857 0.00000000
-0.01469114 0.14306177 0.00000000
0.05604596 0.48992780 0.00000381
-0.56967209 -0.55992431 -0.00000003
0.06234092 0.41056903 0.00000000
0.56588848 0.00198266 0.00000246
0.01703289 0.66127022 0.00000182
-0.12297138 -0.79235044 0.00000000
0.41961468 -0.76374051 0.00000000
0.29169279 -0.44857319 0.00000000
-0.28999595 0.44321533 0.01090360
-0.14357028 0.35677250 0.04892327
-0.58275705 -0.69404927 0.00000000
0.12005892 -0.41307651 0.00000000
-0.77053451 -0.68504527 -0.00000029
-0.59965161 -0.48497433 -0.00000029
0.57925745 -0.21498175 -0.00000068
-0.28363858 0.28863674 -0.00000031
-0.21143402 -0.55858087 0.00000000
0.56672131 -0.29077495 -0.00000049
-0.30248668 0.36879874 0.02101401
0.39352030 0.16533089 -0.00000056
-0.73725440 -0.60170478 -0.00000050
0.51938486 -0.73597383 0.00000000
-0.13648000 0.24361730 0.06855485
-0.19271205 -0.78339348 0.00000000
-0.59507262 -0.28693452 -0.00000062
0.37362562 -0.38846980 0.00000000
-0.65431147 0.04744812 0.01603764
0.62732936 -0.01195312 -0.00000124
0.40142559 -0.31692222 0.00000000
-0.08610136 -0.33139546 0.00000000
-0.17958207 0.42776590 -0.00000011
0.32633867 -0.64134930 0.00000000
0.28317558 0.44416494 -0.00000058
0.17907889 -0.10690930 0.00000000
0.01874517 0.24204312 0.00000809
-0.66653040 -0.75212105 -0.00000010
0.45654539 -0.31472949 0.00000000
0.05784057 0.57216262 0.00000254
-0.07255398 -0.37490893 0.00000000
0.20356689 0.20212347 0.00000000
0.76072002 -0.45984213 -0.00000085
0.17182682 0.19638093 0.00000646
-0.21132536 0.38464114 -0.00000017
0.26233180 0.49486738 0.00000006
-0.20035809 0.52314789 -0.00000037
0.27334601 -0.59905564 0.00000000
0.35126654 -0.42980063 0.00000000
-0.45958409 0.00859587 -0.00000056
0.46682695 -0.66741357 0.00000000
-0.27769829 0.35826389 0.02678119
-0.68823851 -0.75310561 -0.00000012
-0.51765924 0.19932570 -0.00000115
-0.45302735 -0.60466735 0.00000000
-0.33727841 -0.05120079 0.00000000
0.49584607 -0.07892398 -0.00000056
0.29273694 0.33021481 -0.00000042
-0.64186632 0.09756310 0.00988743
-0.05162310 0.41423363 0.00000000
-0.19360588 0.24283005 0.05935702
0.09814076 0.21052169 0.00000736
0.43107306 0.36058554 -0.00000094
0.66239546 -0.73841421 -0.00000011
-0.18573818 -0.43496241 0.00000000
0.18974699 0.44690111 -0.00000019
-0.11398645 -0.21724433 0.00000000
0.61312660 -0.41700442 -0.00000047
0.17838683 0.45630531 -0.00000015
-0.28448708 0.19706265 -0.00000015
-0.36145571 0.39998238 0.00629491
0.59551381 -0.58785382 -0.00000009
-0.16691407 0.23768227 0.06455516
0.53375860 -0.47022973 -0.00000003
-0.31382559 0.28639956 -0.00000043
0.15784162 -0.72183459 0.00000000
0.61165979 0.14693929 -0.00000084
0.20104586 0.04212824 0.00000000
0.52147970 -0.75031992 0.00000000
0.10610816 0.17417215 0.00000779
-0.23854609 0.15158157 0.06691757
-0.45665701 -0.53983086 0.00000000
-0.58345943 0.13835049 -0.00000132
0.53351804 0.22843944 -0.00000070
0.04211662 0.35479137 0.00000000
0.01570779 0.27489427 0.00000764
0.78786671 -0.41885967 -0.00000095
0.60237215 -0.11219711 -0.00000096
0.62984781 0.13104085 -0.00000092
-0.09486393 -0.35458423 0.00000000
-0.45671113 0.03844010 0.04977047
0.40408678 -0.56652545 0.00000000
-0.53718189 0.05402126 -0.00000097
0.04406655 -0.69780917 0.00000000
0.01992972 0.28395385 0.00000744
0.02056541 0.05632991 0.00001084
-0.26657555 -0.06271849 0.00000000
0.45925514 -0.79107842 0.00000000
-0.61433398 -0.64358816 -0.00000007
0.02887530 0.18242838 0.00000000
0.14155135 -0.75497259 0.00000000
-0.32395023 -0.23455572 0.00000000
-0.75428796 -0.28905295 -0.00000128
0.06069605 0.65168764 0.00000000
0.38912116 -0.30349621 0.00000000
0.07828741 0.64353952 -0.00000006
0.26961590 0.17414167 -0.00000004
0.54097328 -0.18424775 -0.00000057
-0.57745565 0.05879476 0.02673332
-0.24043015 0.46821547 0.01491449
0.15995527 0.05544125 0.00000000
0.17248069 0.19402339 0.00000000
0.73769826 -0.78395160 -0.00000004
0.07082941 -0.62763143 0.00000000
0.38553347 0.25154839 0.00000176
-0.08271377 -0.02121472 0.00000000
-0.74125319 0.01516655 -0.00000178
-0.46311694 -0.23949208 -0.00000014
-0.57565998 -0.57938131 -0.00000002
0.77717948 -0.31561147 -0.00000121
0.31898884 0.02410447 0.00000683
-0.38108114 -0.33248366 0.00000000
-0.35435197 0.03578141 -0.00000016
-0.56133060 -0.46913737 -0.00000015
-0.59338838 -0.06454714 -0.00000100
0.49599176 0.01903448 0.00000352
-0.64608825 0.09757971 0.00919541
0.35562513 0.40539104 -0.00000024
0.16843218 -0.65696290 0.00000000
-0.29707409 -0.70482993 0.00000000
-0.53125082 -0.54529052 0.00000000
-0.69355294 -0.76434968 -0.00000009
0.37371176 -0.05511929 -0.00000008
0.78265519 -0.12537397 -0.00000169
-0.10211820 -0.31200918 0.00000000
0.26431900 0.33103589 0.00000276
0.21294345 0.17752693 0.00000612
-0.23676402 -0.35494933 0.00000000
-0.54312597 -0.47644477 -0.00000006
-0.12043824 0.61438992 -0.00000019
-0.29710704 0.12149796 0.06226836
0.42527261 0.26768803 -0.00000087
-0.13256476 -0.65021342 0.00000000
0.62788583 -0.10644368 -0.00000108
0.39915154 0.33844183 0.00000004
0.77230823 0.00927010 -0.00000190
-0.57217652 0.16320916 -0.00000132
-0.27137301 0.51254995 -0.00000065
-0.16877911 0.29610166 0.00000000
0.21933247 0.54062005 -0.00000048
-0.18830926 0.02121338 0.09640348
-0.08107417 0.37993395 0.05534497
0.70892609 -0.55194567 -0.00000062
-0.10109371 0.16937249 0.08645341
0.20691782 -0.28069609 0.00000000
-0.46178297 -0.02579259 -0.00000051
0.22681673 0.48294600 0.00000094
0.22418675 0.20844876 0.00000549
0.40884318 -0.04628043 -0.00000025
-0.17240493 0.36221997 0.04332636
0.26421793 0.49033270 0.00000010
0.20740744 0.07415605 0.00000000
-0.12509041 0.12750325 0.00000000
-0.33040842 -0.08768140 0.00000000
0.08797401 0.70329293 -0.00000007
0.22591779 -0.61278015 0.00000000
0.31354479 -0.78063977 0.00000000
0.07036296 -0.67775723 0.00000000
-0.74399442 -0.37731266 -0.00000106
-0.24574163 0.50718012 0.00768565
0.05128974 0.35087522 0.00000596
0.08527780 -0.71318595 0.00000000
0.43545556 0.07742677 -0.00000058
0.04219971 0.21549144 0.00000000
-0.39036670 0.30774267 -0.00000080
0.69688136 -0.20860386 -0.00000119
-0.48113729 -0.27795736 -0.00000015
0.56211757 -0.02124481 -0.00000095
0.33166529 -0.48127691 0.00000000
0.06103250 -0.37299751 0.00000000
0.62242733 0.09921889 -0.00000142
0.35789759 0.27745514 0.00000186
-0.09031263 -0.72963316 0.00000000
-0.08967254 -0.61803048 0.00000000
-0.13284154 -0.50328637 0.00000000
0.17537797 -0.37467190 0.00000000
0.14095817 0.27894907 0.00000569
0.04950463 -0.72592854 0.00000000
-0.19315081 -0.35494801 0.00000000
0.44549478 -0.49879941 0.00000000
0.74001539 0.01782403 -0.00000115
-0.41087285 -0.11522834 -0.00000014
-0.75504328 -0.72476656 -0.00000019
-0.46040269 0.26470600 0.01222603
-0.23293899 0.19188178 0.06125346
-0.23151588 -0.42198292 0.00000000
-0.33561671 -0.00876679 -0.00000000
-0.26999215 0.19897525 -0.00000009
-0.12092163 0.50955469 0.02767725
0.00854966 0.64818663 0.00000215
-0.13880327 -0.36996818 0.00000000
-0.31662378 -0.28113994 0.00000000
0.26251276 0.49102586 -0.00000057
0.05725075 -0.24287679 0.00000000
-0.64378390 -0.76972003 0.00000000
-0.32876575 0.27020354 -0.00000047
0.76308132 -0.07622415 -0.00000171
0.78728920 -0.74003161 -0.00000015
0.35234429 -0.42998838 0.00000000
0.41388574 -0.41361574 0.00000000
0.28747626 0.02365247 0.00000000
-0.77374051 -0.22723587 -0.00000143
0.51528552 -0.49017797 0.00000000
-0.42849863 -0.13558390 -0.00000017
-0.32005908 0.17632039 0.04957031
-0.04664690 0.34403133 0.00000000
-0.04846934 -0.70007409 0.00000000
0.65660075 -0.52647007 -0.00000046
-0.03053436 0.33062061 0.00000000
0.14523497 0.49783720 -0.00000009
-0.15961493 0.20773146 0.00000000
-0.60667701 -0.62317200 -0.00000007
-0.37844375 -0.45206461 0.00000000
-0.54743197 0.02843912 -0.00000097
0.16244554 -0.50726447 0.00000000
-0.14159600 -0.72493194 0.00000000
-0.27160626 0.21499599 -0.00000013
0.73828566 -0.78265793 -0.00000004
-0.35826638 -0.52720653 0.00000000
-0.43603333 -0.03240827 -0.00000039
-0.23348601 0.28277168 0.04632509
0.76740750 -0.00514963 -0.00000185
0.27085039 0.35426251 -0.00000037
0.60662304 -0.11716496 -0.00000097
0.52786840 -0.17717249 -0.00000053
0.52901367 0.02789071 0.00000274
-0.65877942 -0.63728692 -0.00000027
-0.18349911 0.40777378 0.03407773
0.51902767 -0.66884081 0.00000000
-0.29633325 0.34525768 0.02586215
0.75979200 -0.21896721 -0.00000144
0.20753352 -0.66327237 0.00000000
0.02030649 -0.34899774 0.00000000
-0.09189476 0.33115927 0.06154149
-0.70701924 0.09208232 -0.00000177
0.11317778 -0.50485024 0.00000000
0.48246304 -0.27886395 -0.00000015
0.79122404 -0.47438979 -0.00000081
0.05892820 0.59195510 0.00000000
0.05762138 0.54896454 0.00000000
-0.07067495 0.57641811 0.00000000
0.01745422 -0.19115553 0.00000000
0.69352914 -0.42260321 -0.00000080
0.49863716 -0.16918732 -0.00000041
0.49017956 -0.58718538 0.00000000
0.14138523 0.02964514 0.00000942
-0.46047741 0.30371441 -0.00000109
-0.32451778 0.34031221 0.02206791
0.70802262 -0.53950651 -0.00000065
-0.58562683 0.05533883 0.02596345
0.19743793 -0.52447781 0.00000000
-0.16910015 0.37087396 0.00000000
-0.23914143 -0.05646120 0.00000000
-0.17636600 -0.47931590 0.00000000
0.10159224 0.40044528 0.00000446
0.08365650 -0.16473762 0.00000000
0.71246536 -0.22567491 -0.00000123
0.45337948 0.19435443 -0.00000086
0.15797517 0.01757520 0.00000935
-0.33301737 0.15821447 -0.00000029
0.30000744 -0.18980557 0.00000000
0.40465765 0.35348881 -0.00000094
0.24704895 0.10417490 0.00000000
0.33273734 -0.31690897 0.00000000
0.12301929 -0.22431608 0.00000000
0.16471763 0.01044501 0.00000936
-0.25058695 -0.23573446 0.00000000
0.26332933 0.52677218 -0.00000064
0.21430394 -0.54517337 0.00000000
-0.28035488 0.36383686 0.02543757
-0.03139774 0.61122516 0.00000000
0.27255900 0.12713273 0.00000598
0.09452287 0.38035498 0.00000487
0.36611915 0.32906322 -0.00000073
-0.63878987 -0.36657418 -0.00000066
-0.56760522 -0.43680089 -0.00000024
-0.59799009 0.15531867 -0.00000141
-0.79434895 -0.72060896 -0.00000020
-0.20592376 -0.33554358 0.00000000
0.59609653 -0.39612160 -0.00000043
-0.33394607 -0.76550665 0.00000000
0.28234307 -0.30330935 0.00000000
0.46185465 -0.35806746 0.00000000
-0.51079775 -0.29333674 -0.00000025
-0.35353020 0.35832717 -0.00000073
-0.30972441 0.48555256 -0.00000077
-0.45826339 0.29821317 -0.00000107
-0.21492171 0.04856301 0.08759356
0.23994698 -0.56815435 0.00000000
-0.50230586 -0.79325799 0.00000000
-0.65080693 0.11255915 0.00597935
0.25763736 0.30650585 0.00000330
0.42382722 0.35936455 -0.00000103
-0.09881997 0.35946741 0.00000000
0.01514708 0.39955939 0.00000578
0.15793998 -0.43855366 0.00000000
-0.03144206 0.10839241 0.10778050
-0.77487244 -0.38835167 -0.00000103
0.05643368 -0.32465419 0.00000000
0.32383696 0.27325884 -0.00000045
-0.63215650 0.15779922 0.00163819
0.02737593 -0.13878906 0.00000000
0.70052403 -0.29951841 -0.00000105
-0.12984391 0.58451355 -0.00000017
-0.49601591 0.12996056 0.02841094
-0.33893421 0.42970109 0.00511990
-0.76305239 -0.03779693 -0.00000178
-0.36604524 0.36170624 -0.00000079
0.47225819 -0.77044331 0.00000000
-0.54624391 -0.79351081 0.00000000
0.07606198 0.16521600 0.00000000
-0.56001907 -0.52835570 -0.00000004
0.16962370 0.53924116 0.00000110
-0.41312316 -0.21282092 0.00000000
0.35223598 -0.78824075 0.00000000
0.12208613 0.38806850 0.00000000
-0.13514017 -0.79648875 0.00000000
-0.76669436 -0.78080882 -0.00000005
0.10477059 0.37001825 0.00000487
0.31605243 -0.10955198 0.00000000
0.53264787 0.24319542 -0.00000093
0.03387967 0.76198620 -0.00000002
-0.34537345 0.36928338 -0.00000071
0.78683622 -0.00081315 -0.00000194
0.33051483 -0.59899124 0.00000000
-0.51343359 -0.25184009 -0.00000033
0.39432109 0.26678817 0.00000133
-0.34965272 0.17887612 0.04432130
-0.51780088 0.03458336 0.04042605
0.50822001 -0.39535092 -0.00000006
-0.05164937 0.59016572 0.00000000
-0.17224226 -0.06595578 0.00000000
0.10058604 0.45778550 0.00000000
0.01381325 -0.76637552 0.00000000
-0.25696489 0.43873867 0.01702746
0.11348018 0.22511874 0.00000691
-0.69461831 -0.09317429 -0.00000139
0.02404668 -0.41647260 0.00000000
-0.30180804 0.29835965 -0.00000040
-0.11394549 0.29712503 0.00000000
-0.41704988 0.22037486 -0.00000076
-0.35363679 0.38446706 0.01010464
-0.22220666 -0.33188445 0.00000000
-0.21907578 0.33976301 0.03937304
-0.55202480 -0.52435607 -0.00000001
0.32490346 -0.62888647 0.00000000
0.56750715 0.06560571 0.00000137
0.01449506 -0.19133796 0.00000000
0.66067634 -0.75666023 -0.00000007
-0.26116453 0.38467846 -0.00000038
0.37135299 -0.19804622 0.00000000
0.04561569 -0.19090546 0.00000000
0.02805233 -0.06384546 0.00000000
0.26926578 0.32449065 0.00000277
0.25291176 0.07896806 0.00000000
-0.36750670 -0.12057549 0.00000000
-0.06136871 -0.25453642 0.00000000
-0.57304813 -0.64356133 0.00000000
0.47499434 -0.40338546 0.00000000
0.26472486 -0.20118892 0.00000000
0.14903067 -0.60019716 0.00000000
0.11184828 0.29076924 0.00000000
-0.14228008 0.60246437 -0.00000026
0.56474891 -0.70608249 0.00000000
0.03231251 0.14351771 0.00000000
-0.01584409 -0.60776050 0.00000000
-0.46210478 0.03715578 0.04909954
-0.37419493 -0.59138192 0.00000000
-0.77380320 -0.28739446 -0.00000128
-0.13135034 0.19111130 0.00000000
0.78632677 -0.59887533 -0.00000050
0.30972435 -0.29440021 0.00000000
-0.06588235 -0.51112060 0.00000000
0.48545656 -0.62189468 0.00000000
0.15653156 -0.28765469 0.00000000
0.44834305 0.02284829 -0.00000054
-0.21141822 0.22679300 0.05906723
0.56114217 -0.70359022 0.00000000
-0.29588713 0.36711908 -0.00000050
0.60049483 -0.72688375 0.00000000
-0.10933499 -0.10493547 0.00000000
-0.00937706 0.33506251 0.07437605
-0.13074772 -0.03741357 0.00000000
0.31496835 0.38366771 -0.00000061
0.14936783 0.13322320 0.00000000
0.12207360 0.30267074 0.00000562
0.01047810 -0.56363508 0.00000000
0.44749648 -0.69528120 0.00000000
0.25313482 0.42814343 -0.00000042
0.22474143 0.54577774 -0.00000007
0.12148024 -0.47902421 0.00000000
-0.24454657 0.13326649 0.06892810
0.39284056 -0.49741743 0.00000000
-0.16131251 -0.58914954 0.00000000
-0.30019082 -0.54758468 0.00000000
0.36257227 0.07622229 0.00000513
-0.49615772 -0.09937885 -0.00000053
-0.70022944 -0.01939325 -0.00000154
-0.30899383 -0.12695197 0.00000000
-0.05095415 0.69052912 0.00955371
-0.19698438 -0.54371013 0.00000000
0.76951034 -0.67728270 -0.00000031
0.44503839 0.29459993 -0.00000101
-0.02217345 0.77553703 -0.00000005
0.02683338 -0.72954743 0.00000000
-0.04671566 0.45573726 0.04857848
0.58892764 -0.15499404 -0.00000083
0.14487648 -0.66951354 0.00000000
-0.15761285 -0.46858868 0.00000000
0.24517573 0.47822969 -0.00000048
-0.72681763 -0.26048151 -0.00000123
0.31890791 0.11650715 -0.00000015
0.48363913 0.21326502 -0.00000103
0.22957278 0.55672330 -0.00000035
0.18782414 0.16121115 0.00000000
0.71847104 -0.12498233 -0.00000143
-0.47177509 0.12058329 -0.00000081
-0.13664258 0.44860956 0.00000000
0.08886647 0.17015097 0.00000000
-0.01840940 -0.69090312 0.00000000
0.09247159 0.55577536 0.00000227
-0.42860051 0.27160139 0.01629257
0.13449500 -0.46724340 0.00000000
-0.15413032 0.59900782 -0.00000030
0.44372998 0.29651156 -0.00000011
-0.23304629 -0.24062402 0.00000000
0.08331288 -0.61971169 0.00000000
-0.15864307 0.39791911 0.00000000
0.20901479 0.12792699 0.00000000
0.28683110 0.04709729 0.00000697
-0.76405572 0.02433819 0.00189283
-0.11619641 0.45913493 0.03668035
-0.65699315 -0.50566239 -0.00000050
-0.45139841 -0.01193960 -0.00000049
0.39158327 0.14565628 0.00000341
0.14416349 -0.39954041 0.00000000
0.14394689 0.57879123 0.00000093
-0.00984535 0.49547559 0.04811013
0.49753124 0.11216500 -0.00000091
-0.66489829 -0.08079034 -0.00000128
0.00747075 -0.30348921 0.00000000
0.28864984 -0.61830554 0.00000000
-0.79566686 -0.72951219 -0.00000018
0.30618736 -0.71229232 0.00000000
0.35610994 -0.42195458 0.00000000
-0.22915018 0.29686227 0.04473247
0.13419499 -0.28494630 0.00000000
0.60613871 0.17621457 -0.00000122
0.08843311 -0.38632102 0.00000000
0.20567348 -0.75905887 0.00000000
-0.75947444 -0.10387584 -0.00000164
0.04761490 0.43989752 0.00000000
-0.40745740 -0.54721197 0.00000000
-0.49740684 -0.29116905 -0.00000019
0.01042853 0.51607533 0.00000410
-0.50500266 -0.31135507 -0.00000019
-0.66150580 -0.55363188 -0.00000043
-0.28515468 -0.40785177 0.00000000
0.34115776 -0.41750052 0.00000000
-0.02431639 0.67317783 0.00000000
0.06168209 0.01983684 0.00000000
-0.39818836 0.15604421 -0.00000056
-0.02056064 0.71356497 0.01075489
0.11879824 -0.12781601 0.00000000
0.19345636 -0.49700599 0.00000000
-0.06265568 0.10826091 0.00000000
-0.41960226 0.14971709 0.03766137
-0.00252061 0.70121581 0.00000000
0.30352788 0.28732632 -0.00000039
0.26333018 0.36811837 -0.00000036
-0.43687810 -0.30069239 0.00000000
-0.05250497 0.27085664 0.07781742
-0.08006958 0.54741967 0.02816481
-0.39787398 -0.01469387 -0.00000026
0.59735517 -0.52341939 -0.00000021
0.08060327 0.60680663 0.00000168
0.19965233 -0.68237854 0.00000000
0.12465498 -0.36691949 0.00000000
0.70340506 -0.19624700 -0.00000124
-0.72946168 0.04539992 0.00410230
-0.72059305 -0.17997906 -0.00000134
0.50222708 -0.22343531 -0.00000033
-0.00415458 -0.39537638 0.00000000
0.25673117 -0.51504141 0.00000000
0.12908048 0.38026914 0.00000435
-0.72250127 -0.78615556 -0.00000003
-0.67869936 -0.18070046 -0.00000116
-0.13698334 0.57772009 -0.00000019
0.40036026 0.26492546 0.00000125
-0.46743236 0.10538043 0.03709088
-0.47620251 0.11012479 0.03488439
-0.54447368 -0.43363791 -0.00000014
0.12211471 0.48532443 0.00000000
0.07681760 0.42496287 0.00000447
-0.48038708 -0.67358807 0.00000000
0.24839416 -0.79768142 0.00000000
-0.06095494 0.11061283 0.00000000
-0.14607032 -0.18297898 0.00000000
0.29611257 0.02560156 0.00000000
-0.78195541 -0.15964128 -0.00000160
-0.35943052 -0.27728149 0.00000000
0.11833794 -0.45975481 0.00000000
-0.71908111 -0.16390336 -0.00000136
0.49476066 0.06689579 -0.00000082
-0.50347828 0.23008588 0.01084541
0.63419738 -0.06628561 -0.00000118
-0.34804276 0.13052366 -0.00000030
-0.20305869 0.36742763 -0.00000010
-0.57892084 0.06499370 -0.00000117
0.07815066 0.45392409 0.00000000
-0.58692910 -0.16687017 -0.00000080
-0.25517774 -0.20858527 0.00000000
0.29388412 0.22149455 0.00000402
-0.51369262 0.20125129 -0.00000113
0.03260207 -0.52594841 0.00000000
-0.18226453 -0.28099505 0.00000000
0.12518839 -0.66070542 0.00000000
-0.66694224 -0.10369868 -0.00000125
0.38558464 -0.61843007 0.00000000
-0.54690796 -0.23984533 -0.00000050
0.57093116 -0.34458611 -0.00000041
-0.26056584 0.28346592 -0.00000020
0.36565924 -0.15277546 0.00000000
-0.27763554 0.12002110 0.06568848
-0.38760017 0.38166482 -0.00000091
0.71804432 -0.10589810 -0.00000146
0.70614306 0.01317359 -0.00000042
0.21039505 0.29191308 0.00000000
-0.78492163 -0.66987910 -0.00000033
-0.44188864 -0.46376128 0.00000000
-0.58183366 -0.45825504 -0.00000026
0.30375735 0.24745004 -0.00000032
-0.53626565 0.02552443 -0.00000092
-0.47655277 0.10517611 -0.00000081
0.04828681 0.31804265 0.00000650
0.01408632 0.42138986 0.00000547
-0.14250387 -0.00604339 0.00000000
-0.03088902 0.41972245 0.00000000
0.43767160 -0.63253651 0.00000000
0.27822272 -0.77414458 0.00000000
0.46924560 -0.58871950 0.00000000
-0.02582907 0.49484854 0.04560300
0.00354953 0.23320269 0.00000845
-0.56515551 -0.64516914 0.00000000
-0.36730951 -0.31030392 0.00000000
0.05026570 0.59699847 0.00000000
-0.18750943 0.43664431 0.02870936
-0.77825850 -0.46100642 -0.00000085
0.22619922 0.32745473 0.00000355
-0.41634470 -0.61667881 0.00000000
0.03292919 0.27927744 0.00000000
0.27456796 -0.23888763 0.00000000
-0.17839174 0.28326237 0.05523979
-0.51549064 0.20104020 -0.00000114
-0.07796849 -0.20218059 0.00000000
0.53879446 0.08556845 -0.00000104
0.65814410 -0.67559672 -0.00000020
0.08122286 -0.42044329 0.00000000
0.71016031 -0.10937987 -0.00000142
0.31635747 0.07796144 0.00000599
-0.76304920 -0.49332019 -0.00000077
0.20781704 0.25674382 0.00000501
-0.68503767 -0.73293644 -0.00000017
-0.15437758 -0.35274392 0.00000000
0.11904319 -0.63264214 0.00000000
0.19133356 0.50512638 -0.00000030
-0.49372896 -0.68650759 0.00000000
-0.18473006 -0.44130093 0.00000000
0.51524944 0.14319697 -0.00000104
0.41146787 -0.70990615 0.00000000
0.31528911 0.28006290 0.00000263
0.32140340 0.24555017 0.00000309
0.15911101 0.44669377 -0.00000005
-0.56174036 -0.65759002 0.00000000
0.23242426 -0.32139021 0.00000000
-0.51480184 -0.35190136 -0.00000016
0.68290920 -0.66796945 -0.00000032
-0.48206037 -0.31818778 -0.00000008
-0.01040290 0.29858517 0.08016396
0.11356978 -0.53585400 0.00000000
-0.42260290 0.03730714 0.05552428
-0.28508309 0.28664236 -0.00000031
-0.70732290 -0.43866487 -0.00000083
-0.18003517 0.13262580 0.00000000
-0.38767035 -0.33417866 0.00000000
0.05861768 0.71799367 0.00000024
0.06721609 0.35525531 0.00000566
0.02680754 0.28095856 0.00000738
-0.18253181 -0.14268456 0.00000000
0.16034352 0.37646483 0.00000393
-0.01001790 0.23795936 0.00000000
0.08436317 -0.65781171 0.00000000
-0.34170009 -0.73843847 0.00000000
0.23001411 0.30502720 0.00000385
-0.58340046 -0.25504242 -0.00000062
-0.33056767 0.24946421 0.03591261
-0.68159038 0.00375349 -0.00000150
0.29666461 -0.62923669 0.00000000
0.16332881 0.01956622 0.00000924
-0.66705255 -0.45613645 -0.00000063
-0.60934708 -0.30919995 -0.00000064
-0.72761043 -0.07474968 -0.00000156
0.61484837 0.10932204 -0.00000027
0.40774662 0.16617936 0.00000276
-0.18343011 0.02435239 0.09668757
0.41719648 -0.16248592 -0.00000008
-0.03807081 -0.42926046 0.00000000
-0.12481956 0.35487140 0.00000000
-0.10499511 0.65292136 0.00687056
0.63612332 -0.50994387 -0.00000040
-0.64622051 0.09009361 -0.00000150
0.56363000 -0.79938856 0.00000000
-0.13675345 -0.09056503 0.00000000
-0.06482331 0.22343431 0.08354863
0.22340511 0.41951960 0.00000207
-0.43821324 0.17748125 0.03008980
0.42122414 0.14966429 -0.00000065
-0.15151504 -0.61717515 0.00000000
-0.62188343 -0.39830988 -0.00000054
-0.48009480 0.21826904 -0.00000102
-0.29773350 -0.78862043 0.00000000
0.47471041 -0.02782372 -0.00000056
0.00544644 0.68227018 0.00000000
-0.20281721 0.17324303 0.06921414
0.05440634 0.03494235 0.00000000
-0.21970292 -0.68427497 0.00000000
0.45630624 -0.07860062 -0.00000039
-0.36604619 -0.49215761 0.00000000
-0.76509474 -0.65371892 -0.00000037
0.30957292 0.05046816 0.00000000
-0.79071765 -0.32247607 -0.00000119
0.33711554 0.43243047 -0.00000033
-0.07642756 0.27573472 0.00000000
-0.68022048 -0.21660927 -0.00000111
0.35320793 0.18146990 -0.00000041
-0.58639979 -0.14889090 -0.00000083
0.29869035 -0.65510508 0.00000000
-0.53703762 0.12211303 -0.00000109
-0.71082815 -0.76142468 -0.00000010
-0.16369382 0.57824423 0.00947915
-0.24782195 0.07305009 0.00000000
-0.36890324 -0.13858218 0.00000000
0.00009010 0.11089950 0.00000000
-0.17941408 -0.33777930 0.00000000
0.08659896 -0.30812485 0.00000000
0.25664411 -0.74329337 0.00000000
0.35309962 -0.68724010 0.00000000
-0.59040450 -0.18992201 -0.00000077
0.46696534 0.01749734 0.00000410
0.30222496 0.16740698 -0.00000017
0.06093433 -0.00314676 0.00000000
0.57336320 -0.08375965 -0.00000088
0.07962778 0.18412712 0.00000804
0.47969696 0.15246569 -0.00000090
0.42378445 -0.55534105 0.00000000
0.13577752 0.47882097 -0.00000001
0.24730623 -0.70319609 0.00000000
-0.64516831 0.02286768 0.02154361
-0.57517769 0.18337817 0.00676490
-0.01360973 0.02782106 0.00000000
-0.18937497 -0.44624726 0.00000000
-0.55869227 0.12498222 0.01899059
-0.70504377 -0.64465504 -0.00000039
0.39667470 0.14778752 -0.00000054
0.07848262 0.34894004 0.00000558
-0.25116797 -0.20924517 0.00000000
0.69412888 -0.00891040 -0.00000153
-0.20945296 0.15966644 0.00000000
-0.19590885 0.55397239 0.00818220
0.48408414 0.25142705 -0.00000110
0.16374297 0.45721666 0.00000258
0.41163057 -0.29567551 0.00000000
0.39874285 0.05170676 0.00000484
0.58961060 -0.42787678 -0.00000035
-0.01123990 0.62983996 0.02594577
-0.27697786 0.09301137 0.00000000
-0.24485773 0.18166644 0.00000000
0.07491213 0.47401434 0.00000376
0.39827503 0.01391484 0.00000548
0.26495188 0.32457252 -0.00000029
0.74900415 -0.70135005 -0.00000025
-0.26996396 -0.34736135 0.00000000
-0.77101532 -0.32207259 -0.00000119
-0.30113254 -0.10301361 0.00000000
0.19498633 -0.36763627 0.00000000
-0.63254288 0.06173008 -0.00000139
0.21775283 0.50899884 -0.00000041
-0.24003345 0.30113814 0.04225745
0.38369292 -0.09505883 -0.00000006
-0.62318968 0.04440663 0.02161545
-0.09665761 -0.04629870 0.00000000
0.16560444 0.33117174 0.00000000
-0.64574940 -0.57710238 -0.00000032
0.28406672 -0.03482016 0.00000000
0.75361731 -0.17779748 -0.00000149
-0.63701988 -0.28746341 -0.00000080
-0.05132653 0.49991450 0.00000000
-0.18478924 -0.03667180 0.00000000
-0.24243119 -0.00884526 0.00000000
-0.26389248 0.32633928 0.03424749
0.39266722 0.39582675 -0.00000096
0.14634266 -0.60463525 0.00000000
0.10718891 -0.20041576 0.00000000
-0.53282451 -0.76805343 0.00000000
-0.41953868 0.19509811 -0.00000072
-0.03011331 0.03138755 0.00000000
0.51278137 -0.65117416 0.00000000
-0.21014465 -0.78995477 0.00000000
0.47443067 0.08499528 0.00000283
-0.20947191 0.51308738 -0.00000039
0.55182094 -0.09582587 -0.00000077
-0.19584512 -0.61281873 0.00000000
-0.14281670 0.27573538 0.00000000
-0.11776100 0.13636616 0.08912102
-0.43073373 -0.77004604 0.00000000
0.25746006 -0.68123427 0.00000000
0.13705650 -0.62240969 0.00000000
-0.38237992 0.07691140 -0.00000035
-0.29787362 0.10517761 0.06480778
-0.33560927 0.07416845 0.06370946
-0.07054159 0.42495704 0.00000000
0.70285479 -0.61074465 -0.00000047
-0.13655879 0.60913266 -0.00000025
0.41335463 0.09797329 -0.00000052
-0.41951806 0.04602437 0.05460471
-0.59072222 -0.36180742 -0.00000047
0.17347231 0.37136187 0.00000000
0.30913505 0.27699345 0.00000280
-0.04628366 0.40284796 0.00000000
-0.00903944 -0.17943710 0.00000000
0.44972953 0.25408919 -0.00000095
-0.52178498 -0.35136863 -0.00000019
0.20661703 0.05655996 0.00000000
0.60820906 0.12161906 -0.00000035
-0.60379618 0.07934131 0.01907814
-0.24786481 -0.02829986 0.00000000
-0.53007409 -0.67113551 0.00000000
-0.34198982 -0.44046756 0.00000000
-0.50630597 0.06162200 -0.00000086
0.07484508 -0.62277553 0.00000000
0.65786090 0.07733946 -0.00000153
0.04385254 0.52758178 0.00000000
-0.33954497 0.39785237 -0.00000074
-0.08156299 -0.63474864 0.00000000
-0.43924121 0.26390842 0.01581127
0.00819697 0.77538573 0.00000025
-0.18111121 0.03768193 0.00000000
0.27372998 0.10901443 0.00000000
-0.60067218 -0.36264799 -0.00000051
0.09870438 0.66310786 -0.00000018
-0.01912282 0.72896099 0.00847604
-0.47008218 -0.55389597 0.00000000
-0.21969725 0.04179144 0.08791945
0.12627422 -0.36481149 0.00000000
0.41928323 -0.06622937 -0.00000026
0.51148248 -0.38143325 -0.00000009
0.67886977 -0.74955981 -0.00000013
-0.20535888 0.22836797 0.05979935
-0.00273965 0.13640533 0.00000000
-0.37886203 0.17154087 0.04074991
-0.11349404 0.54005141 0.02391087
0.76852339 -0.52749016 -0.00000068
0.48936579 0.13887381 0.00000165
-0.04832524 0.27727761 0.07745150
-0.68785763 -0.03887518 -0.00000145
0.19302842 0.14633887 0.00000000
-0.52060884 -0.32771042 -0.00000023
0.01636271 0.73804844 0.00000000
-0.27821353 0.18877374 -0.00000011
-0.16043809 -0.29892451 0.00000000
-0.38336673 0.39082600 -0.00000091
-0.38574717 0.30809483 0.01733104
-0.14971729 -0.10120130 0.00000000
-0.31803493 -0.50771637 0.00000000
-0.20214611 -0.78580311 0.00000000
0.36600324 -0.14814785 0.00000000
-0.45630000 -0.43992824 0.00000000
-0.20454260 -0.50023071 0.00000000
0.77906406 -0.67624633 -0.00000031
-0.70660266 -0.32505222 -0.00000103
-0.33945124 0.05135531 -0.00000013
-0.41905039 0.04069100 0.05555182
-0.20889579 -0.15187177 0.00000000
0.28927985 0.14897824 -0.00000008
0.14595687 0.47626965 0.00000260
0.63235609 0.10472071 -0.00000147
0.38871435 0.26901636 -0.00000072
-0.52571899 -0.42953004 -0.00000007
0.34555719 0.34442779 0.00000097
-0.48127136 -0.24942817 -0.00000020
0.16682919 -0.30257060 0.00000000
0.75678765 -0.23759502 -0.00000140
0.17784443 0.56580693 0.00000050
-0.35226270 -0.26906934 0.00000000
-0.27909331 -0.49702179 0.00000000
0.16197904 -0.77445648 0.00000000
-0.28373495 0.28024027 -0.00000029
0.76661929 -0.01931278 -0.00000182
-0.05157849 0.02790662 0.00000000
-0.36179320 0.22592791 -0.00000053
0.03753923 -0.12793287 0.00000000
-0.50675058 0.14659670 -0.00000101
0.64659249 0.13718800 -0.00000159
0.11089708 -0.56108400 0.00000000
-0.03538598 0.35025498 0.06764948
-0.50786351 0.15061779 -0.00000102
-0.01738725 -0.55396215 0.00000000
-0.61082309 -0.22108337 -0.00000080
-0.48670354 -0.75920897 0.00000000
-0.46795083 -0.36169725 0.00000000
-0.49997938 0.27310666 0.00439281
0.29429106 -0.38869189 0.00000000
-0.53223004 0.22384436 0.00717016
0.08318817 -0.61897365 0.00000000
-0.21569980 -0.27421972 0.00000000
0.46859663 0.00641302 0.00000426
-0.32047026 0.23157281 -0.00000036
-0.55347325 -0.25579210 -0.00000050
-0.12914902 -0.39038060 0.00000000
0.16610814 0.06681003 0.00000000
-0.04222647 -0.23567347 0.00000000
-0.52687578 -0.26340632 -0.00000037
-0.65147771 -0.62871852 -0.00000025
0.78464331 -0.78758424 -0.00000003
0.52538427 -0.46975798 0.00000000
-0.44610840 -0.58419765 0.00000000
0.74319376 -0.09242295 -0.00000159
0.42006065 -0.30519965 0.00000000
0.15400834 -0.23768567 0.00000000
-0.16627550 0.59942352 -0.00000036
-0.31897523 -0.35689712 0.00000000
0.41870473 -0.47210689 0.00000000
0.21672331 0.08953711 0.00000000
-0.33743978 0.33289182 -0.00000061
-0.07324057 0.50006691 0.00000000
0.18650302 0.06003588 0.00000000
0.12101836 0.09094786 0.00000000
-0.12028593 -0.60329751 0.00000000
-0.37022896 -0.24723380 0.00000000
0.29184578 0.28191603 0.00000305
0.25007834 -0.40130233 0.00000000
0.03903579 -0.44951723 0.00000000
-0.03975426 0.74456299 0.00256037
0.04709007 0.06609540 0.00001030
-0.28039893 -0.45373396 0.00000000
-0.22334104 0.09554825 0.00000000
-0.51893100 0.05018843 -0.00000089
0.18921268 -0.34981666 0.00000000
0.32638473 -0.30908259 0.00000000
-0.77527403 -0.62732710 -0.00000043
0.48299168 -0.67679448 0.00000000
0.65791767 -0.10042650 -0.00000122
-0.11423020 0.02313913 0.00000000
-0.07581169 0.66707049 -0.00000009
0.24704981 -0.22982701 0.00000000
-0.28672464 0.10377409 0.06685712
0.69060187 -0.54142738 -0.00000058
-0.43497387 0.04484822 -0.00000052
0.17099206 -0.79162809 0.00000000
0.72451155 -0.49747129 -0.00000076
-0.19624564 0.58097694 -0.00000045
-0.23462371 0.44441447 0.01974842
0.14879608 0.40884014 0.00000000
0.52537667 0.14623352 -0.00000109
-0.31500577 0.10014857 -0.00000011
0.62436307 -0.29711053 -0.00000073
0.11654094 0.00116762 0.00000000
-0.07123391 0.23286144 0.08096294
0.71923703 -0.48501023 -0.00000079
0.76431895 -0.19383193 -0.00000151
-0.40313376 0.29068662 -0.00000082
0.58108139 -0.68233316 0.00000000
0.22218918 -0.03873969 0.00000000
-0.02950025 0.04805422 0.11794849
-0.11569113 -0.08202714 0.00000000
0.06082478 0.03715102 0.00001052
0.42664387 0.25131931 -0.00000085
-0.69120036 -0.12732997 -0.00000131
-0.09517467 0.24275021 0.07543991
0.41134628 0.34409787 -0.00000028
0.11786626 -0.68543795 0.00000000
0.09981737 0.09297977 0.00000910
0.26965393 -0.23284662 0.00000000
0.08390498 -0.10451266 0.00000000
-0.78428608 -0.45597489 -0.00000086
0.05210380 0.64746464 0.00000000
0.44380475 -0.56465545 0.00000000
-0.27108478 0.11622497 0.06737772
-0.23390034 -0.03014928 0.00000000
-0.49841759 -0.28579311 -0.00000021
-0.38955992 -0.71803266 0.00000000
-0.07566265 0.59891834 0.02047647
-0.13705817 -0.62541295 0.00000000
0.76878327 -0.40583522 -0.00000099
-0.68805889 -0.37014756 -0.00000087
-0.07931031 -0.21927803 0.00000000
-0.17478588 0.58348002 -0.00000036
-0.03932583 0.58153718 0.00000000
0.03892925 0.26361030 0.00000000
-0.13854742 0.61515222 0.00755894
0.40518768 -0.45023350 0.00000000
0.56959818 -0.38794185 -0.00000033
-0.17324745 -0.32307674 0.00000000
0.76481057 -0.37158799 -0.00000107
-0.71822332 0.01505883 0.01089087
-0.64016612 -0.14551388 -0.00000106
-0.02719827 -0.04622690 0.00000000
0.66785864 0.11149688 -0.00000132
-0.71240038 -0.71568990 -0.00000021
0.60551067 -0.55056206 -0.00000020
-0.38548245 0.19156020 0.03640051
0.63975626 0.04864908 0.00000026
-0.78091223 -0.63870190 -0.00000040
-0.21886583 0.56735117 -0.00000052
0.40789046 -0.75137925 0.00000000
-0.10357194 -0.02096446 0.00000000
0.39225358 0.09942365 0.00000417
0.04337287 0.18516027 0.00000857
-0.02997550 -0.38110766 0.00000000
0.22591389 -0.19582287 0.00000000
-0.71952799 -0.11208385 -0.00000146
0.13538380 -0.76250087 0.00000000
0.43439675 -0.18880787 -0.00000011
0.29344089 0.05051710 0.00000681
0.24395231 0.15932110 0.00000593
-0.61095535 0.01543805 -0.00000122
-0.39971631 0.04652820 -0.00000037
0.48204674 -0.66413530 0.00000000
0.09371467 0.33176043 0.00000000
0.47462836 0.25720476 -0.00000005
-0.30350496 0.44212139 -0.00000066
0.25838858 -0.37733310 0.00000000
0.16684120 0.27230163 0.00000000
-0.45650407 -0.43569763 0.00000000
0.32443069 -0.08340808 0.00000000
0.73650240 -0.23282100 -0.00000132
0.46448305 -0.28814093 -0.00000006
0.48188253 0.19170862 0.00000091
0.03273749 -0.75223789 0.00000000
0.11624399 0.07613058 0.00000910
-0.22739634 0.00908500 0.00000000
-0.22292066 0.50947900 0.01103629
-0.23345150 0.14666916 0.06855132
-0.05903125 0.03558459 0.11516309
0.48352737 0.25451580 -0.00000110
-0.43528347 0.34504503 -0.00000105
-0.64091683 -0.41474606 -0.00000059
-0.51962212 0.19568126 -0.00000115
-0.03030843 0.75531934 -0.00000005
-0.08873412 -0.31024355 0.00000000
-0.10755843 -0.36193432 0.00000000
-0.11710345 -0.20501439 0.00000000
0.51762508 -0.59044312 0.00000000
-0.08220640 -0.29969781 0.00000000
0.41304247 -0.64676705 0.00000000
0.09354238 0.21017364 0.00000744
-0.69128572 -0.58953171 -0.00000049
0.63073133 -0.27956702 -0.00000078
0.03230996 0.67438401 0.00000000
-0.18264953 0.12565759 0.00000000
-0.72003901 -0.11673871 -0.00000145
0.52306861 -0.79364971 0.00000000
0.32440422 -0.09250513 0.00000000
-0.41916812 0.02479631 0.05812768
0.72914604 -0.03275213 -0.00000164
0.15593847 0.12646625 0.00000000
-0.35605276 -0.43900427 0.00000000
-0.59277869 0.00136600 -0.00000112
-0.03244634 -0.47750706 0.00000000
0.29087904 0.32142179 0.00000241
-0.21585492 0.47936725 -0.00000035
0.50907716 0.22049085 -0.00000010
-0.39690406 0.32045498 -0.00000085
0.20903736 -0.39393009 0.00000000
-0.75431775 -0.09571542 -0.00000164
0.39017966 -0.00425426 -0.00000024
0.00768769 0.43345205 0.00000538
-0.14208930 0.52359139 0.02192951
-0.27455855 0.30370423 -0.00000029
0.03075983 0.72611510 0.00000064
0.00956905 0.73906330 0.00000077
-0.30399491 0.34731142 0.02427593
0.32250088 0.11697417 -0.00000017
-0.26053803 0.12480787 0.00000000
0.73911545 -0.63939827 -0.00000040
-0.40334400 -0.36618734 0.00000000
0.29136518 -0.48867320 0.00000000
-0.13823857 0.55042175 0.01817771
0.54486797 0.24683407 -0.00000135
0.18937721 0.17938118 0.00000645
0.31096611 -0.16576961 0.00000000
-0.09307375 0.57992043 0.02073559
0.61800835 0.00961715 0.00000133
-0.01174223 0.30454885 0.00000000
0.11642312 0.16358158 0.00000779
0.62264153 0.11013475 -0.00000043
0.09358246 0.31441056 0.00000000
0.19915761 0.35869637 -0.00000007
0.54824274 -0.77664619 0.00000000
-0.60025946 -0.64631903 -0.00000001
-0.05575498 -0.64339728 0.00000000
-0.62213629 -0.35393213 -0.00000062
-0.66993478 -0.65789038 -0.00000028
-0.52147739 -0.46613269 0.00000000
-0.02608605 0.63400513 0.02284197
0.67104710 -0.60044674 -0.00000039
-0.17515935 0.40138990 0.03648163
0.48244196 -0.19201765 -0.00000031
0.57722038 0.17337307 -0.00000062
-0.71142977 0.01434791 -0.00000165
0.42300812 0.09575131 -0.00000056
-0.57012733 0.05646203 -0.00000112
0.17203014 -0.46643514 0.00000000
-0.55911701 -0.78580665 0.00000000
0.57527088 -0.51544844 -0.00000013
-0.56954097 -0.49786289 -0.00000014
0.34265972 0.39807629 0.00000013
0.66073905 -0.58235720 -0.00000038
0.20757696 0.43449114 -0.00000024
0.28869463 -0.66448037 0.00000000
0.20587857 0.51954145 0.00000073
0.78758620 -0.27477683 -0.00000131
-0.18299734 0.39376470 -0.00000006
0.56264538 -0.76577120 0.00000000
-0.64415036 -0.18144936 -0.00000101
0.60331457 -0.23578644 -0.00000074
0.50888893 0.16358731 -0.00000105
0.60453418 0.15099866 -0.00000143
-0.43148439 0.01841697 -0.00000046
-0.10595259 0.02775333 0.10878128
0.29268901 0.36155379 -0.00000047
0.47409333 -0.31179553 -0.00000006
-0.54266239 0.07131213 -0.00000103
0.51847497 -0.53662207 0.00000000
0.28387496 0.03410008 0.00000721
0.33125212 0.35606491 0.00000105
0.61445068 -0.50382682 -0.00000032
0.06145273 -0.69318417 0.00000000
0.14650626 -0.76513640 0.00000000
0.69457839 -0.58069882 -0.00000052
0.50471267 -0.39203637 -0.00000005
-0.10526726 0.02777066 0.00000000
-0.72172184 -0.37592580 -0.00000100
-0.20370186 -0.39681083 0.00000000
-0.56168755 -0.39522815 -0.00000028
0.23620841 -0.79312665 0.00000000
0.24311059 -0.67004424 0.00000000
0.15962279 0.53010614 -0.00000020
0.32963610 -0.22934775 0.00000000
-0.28824803 -0.57338932 0.00000000
0.07166591 -0.39620951 0.00000000
0.25636557 0.16281747 0.00000000
-0.10782589 -0.34489350 0.00000000
-0.01776421 0.12561683 0.00000000
-0.78604797 -0.77648201 -0.00000006
-0.18646266 -0.72049475 0.00000000
0.01453684 0.28246911 0.00000000
-0.54520733 0.07153292 -0.00000104
0.28242172 -0.72662485 0.00000000
-0.31880565 -0.30264918 0.00000000
0.33057706 -0.56946920 0.00000000
0.32076091 0.17696817 -0.00000027
-0.39647189 -0.36670164 0.00000000
0.69338434 0.08670446 -0.00000140
-0.13710665 -0.14014622 0.00000000
0.65041789 -0.66867861 -0.00000018
0.13670884 -0.36849445 0.00000000
-0.60381265 -0.55171755 -0.00000019
0.08952699 -0.00263225 0.00000000
0.20207190 0.28720672 0.00000000
0.73533446 -0.33438068 -0.00000113
0.38728324 0.28261036 -0.00000074
0.65938475 -0.13292035 -0.00000116
0.11944746 0.25491024 0.00000000
-0.77086505 -0.04346161 -0.00000180
0.76261134 -0.76860008 -0.00000008
-0.32481338 0.42594419 -0.00000072
-0.10268640 0.50704353 0.03106431
0.56506914 -0.13312349 -0.00000076
-0.70978904 -0.32355048 -0.00000104
-0.17255477 -0.56269995 0.00000000
-0.21959265 -0.42905126 0.00000000
0.11042947 0.55478088 -0.00000004
0.29027839 0.29387495 -0.00000034
-0.14797620 -0.37799094 0.00000000
-0.66177668 -0.69156619 -0.00000019
0.55894467 0.14171857 0.00000026
0.20979271 0.17920376 0.00000000
0.53870937 -0.29195091 -0.00000037
-0.08773845 0.34243925 0.06037845
0.34141320 -0.10073499 0.00000000
0.22786222 0.13617923 0.00000000
-0.52638005 -0.20847827 -0.00000046
0.61599946 0.09498014 -0.00000005
-0.37737133 -0.14629250 0.00000000
0.19266686 -0.73662351 0.00000000
0.07200194 0.49343897 0.00000351
-0.07233328 0.22132776 0.08266648
-0.48367728 0.02728367 -0.00000070
-0.13631053 0.26937176 0.06437777
-0.06292302 0.57881806 0.00000000
-0.10255910 0.33870550 0.00000000
0.70405130 -0.47979843 -0.00000074
-0.35459163 0.38103694 -0.00000077
0.23639584 0.14687626 0.00000623
0.09196414 -0.30676690 0.00000000
0.75029244 -0.14727612 -0.00000153
-0.53216010 -0.67331682 0.00000000
-0.41641055 -0.23587929 0.00000000
0.21456804 0.37365485 0.00000300
0.74035107 -0.19124821 -0.00000141
0.64151958 0.05646477 0.00000010
0.47379108 -0.74997922 0.00000000
-0.15511994 -0.79550148 0.00000000
0.30069392 -0.17446982 0.00000000
0.59929617 -0.08942156 -0.00000099
0.40334972 0.37867673 -0.00000098
-0.78910770 -0.68459309 -0.00000029
-0.72344216 -0.41199341 -0.00000094
0.54318139 -0.33512460 -0.00000031
0.66876120 -0.17704034 -0.00000113
0.31281208 0.22959018 0.00000352
-0.52276338 -0.62638278 0.00000000
0.18945855 -0.17245783 0.00000000
0.08078747 0.13034502 0.00000883
-0.20370692 -0.35500232 0.00000000
0.64433732 -0.51950048 -0.00000042
-0.21695072 -0.73970629 0.00000000
-0.41842568 -0.51832539 0.00000000
-0.13373195 0.04832359 0.10088767
-0.20483573 -0.62404545 0.00000000
0.64332383 -0.69710132 -0.00000010
0.50684860 0.02168785 -0.00000079
0.08277532 0.25542003 0.00000000
-0.78277772 -0.64833926 -0.00000038
0.29063262 -0.29060705 0.00000000
0.03461885 -0.37672576 0.00000000
-0.11614884 0.00990481 0.00000000
-0.01016056 0.03447738 0.00000000
-0.67446937 -0.53549357 -0.00000052
0.59920456 -0.28759221 -0.00000063
-0.37466389 0.23494256 -0.00000060
-0.21910018 0.55189508 0.00473492
-0.46996846 0.25216924 0.01271107
0.17856975 0.09102692 0.00000794
0.08017980 0.60543249 0.00000000
0.13695290 0.53910475 0.00000173
0.41882788 -0.29457560 0.00000000
0.17796517 -0.32800095 0.00000000
-0.37484745 0.34754206 -0.00000080
-0.71037963 0.03706202 -0.00000168
-0.08131267 0.67559221 -0.00000013
0.62476039 -0.38941586 -0.00000056
0.06745542 -0.18940457 0.00000000
-0.45017098 0.16303016 0.03049685
0.04730205 0.64264585 0.00000165
-0.66497905 -0.42494732 -0.00000067
0.04271843 -0.17948452 0.00000000
0.19862851 0.25073030 0.00000000
0.31211346 0.41043353 0.00000051
-0.36942915 0.42623748 0.00070650
0.28055284 0.10050394 0.00000000
-0.01966608 0.62306896 0.02567556
0.78251419 -0.40724207 -0.00000098
0.48564615 -0.08275025 -0.00000051
0.09455268 0.56841664 0.00000000
-0.04526878 -0.06726594 0.00000000
0.65084420 0.09066856 -0.00000152
0.25066858 -0.00560283 0.00000000
0.24351202 0.39966846 0.00000201
0.61545418 -0.40308215 -0.00000050
0.16283059 0.59347333 -0.00000033
-0.51087563 0.15853484 -0.00000105
-0.22567473 -0.23039219 0.00000000
0.46010223 -0.78149993 0.00000000
0.76585272 -0.62785205 -0.00000043
-0.21221019 0.26786427 0.00000000
0.07541852 -0.26717069 0.00000000
0.79224112 -0.77012968 -0.00000007
-0.07879044 0.66920414 -0.00000011
-0.03851280 0.65924743 0.00000000
0.09785007 0.60374775 0.00000140
0.26004705 -0.75616943 0.00000000
-0.03520522 -0.14823528 0.00000000
0.52506220 0.11318135 -0.00000103
0.01932467 0.20127232 0.00000000
-0.18320746 0.48756016 -0.00000023
0.77732335 -0.60950636 -0.00000048
-0.39500723 0.32725323 -0.00000085
0.78726951 -0.07486380 -0.00000181
-0.08603579 0.54007819 0.00000000
0.44028626 0.25327334 0.00000068
-0.03335740 -0.75658063 0.00000000
-0.48479901 -0.55493875 0.00000000
0.42033605 0.21205070 0.00000175
-0.18515525 0.29292851 0.05255746
-0.23782769 0.34353080 0.03569627
-0.20715933 -0.18620129 0.00000000
0.58614149 -0.61906572 0.00000000
0.60363958 -0.48555342 -0.00000030
-0.22053551 -0.58533404 0.00000000
-0.55776487 -0.22744595 -0.00000056
-0.70940846 -0.43774217 -0.00000084
0.36152384 0.23489131 -0.00000054
-0.22870758 0.56795024 0.00054505
-0.32121046 -0.37209095 0.00000000
0.29509606 0.29028241 0.00000285
-0.55782408 -0.62668913 0.00000000
-0.16900959 -0.63250152 0.00000000
0.08150513 -0.57467761 0.00000000
0.01778443 -0.43699319 0.00000000
0.31950425 -0.28859851 0.00000000
0.60736631 0.03518185 -0.00000124
0.59031239 0.12392280 -0.00000004
-0.45906525 -0.02919716 -0.00000049
-0.01341905 -0.40579366 0.00000000
0.03765720 -0.61053239 0.00000000
0.25662383 0.52881903 -0.00000062
-0.12691721 0.34949332 0.05283046
-0.59475696 0.05160865 0.02508180
-0.42801565 -0.53914954 0.00000000
0.64553388 -0.04296175 -0.00000126
-0.19092778 0.10042372 0.08304389
-0.29433168 0.20451077 0.04916826
-0.53987777 0.07300899 -0.00000102
0.12660391 -0.54403417 0.00000000
0.02373172 0.44211637 0.00000000
-0.23208074 -0.50940571 0.00000000
0.58527276 -0.50754822 -0.00000019
-0.50089252 0.14238897 -0.00000098
-0.55075870 -0.70362036 0.00000000
0.01411536 0.54585231 0.00000000
0.40035706 -0.69120353 0.00000000
-0.48048620 -0.05649805 -0.00000054
-0.50970673 0.21072151 0.01299006
0.76539824 -0.66430381 -0.00000034
0.30521050 0.01392152 0.00000719
-0.74343928 -0.13881000 -0.00000151
0.38175888 0.38491802 -0.00000040
-0.17486831 0.62336597 0.00028781
-0.56344914 -0.70332429 0.00000000
0.78686638 -0.03353497 -0.00000188
0.68692623 -0.48541477 -0.00000066
-0.16136648 0.34247479 0.00000000
0.24934476 0.03219404 0.00000775
-0.27877326 0.01343848 0.00000000
-0.20629950 0.50630507 -0.00000036
0.29147983 -0.01962695 0.00000000
0.25550973 0.20136700 0.00000509
-0.01684938 0.02659971 0.12351659
0.04710602 0.47562739 0.00000415
0.25350484 -0.29767649 0.00000000
0.34958410 -0.20835759 0.00000000
0.26046075 0.02279389 0.00000773
-0.53650183 -0.29722234 -0.00000035
-0.68975185 -0.32965042 -0.00000095
0.17773072 0.06884153 0.00000829
-0.24735568 -0.49544220 0.00000000
0.16353379 -0.36170586 0.00000000
0.03055831 0.48046251 0.00000433
-0.15483142 -0.22359240 0.00000000
