ply
format ascii 1.0
element vertex 1382
property float x
property float y
property float z
end_header
-0.62806087 -0.74659397 0.00000013
-0.42240105 -0.53800198 0.00000065
-0.18610003 -0.16648303 0.00000327
-0.56473721 -0.16781946 0.09831838
-0.34389275 0.05580904 0.00000184
-0.07620388 0.15901426 -0.00000675
-0.44511082 -0.66972981 0.00000436
-0.28078505 0.11158668 0.00000228
-0.62940045 -0.49988073 -0.00000003
-0.51446650 -0.44219965 0.00000555
-0.02295696 0.30662008 0.00000859
-0.33515960 -0.39101910 0.00000406
-0.54722983 -0.55837689 0.00000556
-0.41173152 -0.66847469 0.00000406
-0.23286469 0.51983102 0.07009394
-0.19106340 -0.07097537 0.00000355
-0.34075865 0.37755315 0.00000240
-0.49387899 -0.42558248 0.00000094
-0.00643493 0.20117349 0.00000250
-0.34895917 0.09188310 0.03338815
-0.53897901 -0.71638254 0.00000021
-0.59570922 -0.11669423 0.12960743
-0.02871314 0.35886249 0.00000316
-0.33087854 -0.64391711 0.00000339
-0.10045972 0.18004025 0.00000868
-0.34002740 0.00150053 0.00000192
-0.10555785 -0.79068684 0.00000002
-0.29977530 -0.77934792 0.00000277
-0.20556127 0.11241330 0.00000228
-0.22150332 -0.17521491 0.00000156
-0.24308499 0.53650840 0.00000220
-0.18341533 0.58977984 0.05780845
-0.15002757 0.62509350 0.04655219
-0.01056192 -0.44029854 0.00000099
-0.23388403 -0.79939640 0.00000212
-0.05190731 -0.75742884 0.00000058
-0.10585893 0.00507454 -0.00000902
-0.69443905 -0.38819543 0.12137027
-0.21824595 0.05002208 0.00000410
-0.37648728 0.16788349 0.06879940
-0.55270673 -0.27565477 0.00000040
-0.22807348 0.12789691 0.00000232
-0.00140377 0.56916922 -0.00000058
-0.17259658 0.35553548 0.00000289
-0.13976841 0.05229473 0.00000213
-0.10761443 -0.17213581 0.00000157
-0.40419510 0.09881636 0.00000128
-0.23810018 -0.58572637 0.00000269
-0.11071930 -0.17378742 0.00000157
-0.53147221 0.01677000 0.12423456
-0.03844030 0.15896721 -0.00000778
-0.64832199 0.00359880 0.19107084
-0.58111894 -0.52253688 0.01999118
-0.05705039 0.48697000 0.00000322
-0.50340652 -0.18003858 0.05848332
-0.02841237 -0.54366725 0.00000090
-0.53475256 -0.64134485 0.00000524
-0.16305371 -0.24859869 0.00000285
-0.16393069 0.40883317 0.00000543
-0.53206396 -0.25196364 0.00000055
-0.77711729 -0.29840773 -0.00000125
-0.50720755 -0.78995322 0.00000003
-0.32143799 0.11795185 0.00000196
-0.57228710 -0.56987778 0.00292670
-0.39754326 -0.08125450 0.00000152
-0.24789082 0.18032765 0.00000646
-0.03054573 0.07159651 -0.00000974
-0.39448053 -0.21659696 0.00000146
-0.29485382 -0.73305397 0.00000284
-0.10774262 0.65949598 0.02973118
-0.38079325 0.19272864 0.00000379
-0.21928072 -0.76063676 0.00000010
-0.21639017 0.29667853 0.00475025
-0.28343951 -0.63295246 0.00000042
-0.69232414 -0.43425024 0.10865554
-0.34596412 0.08985959 0.03108812
-0.11121806 0.29753369 -0.00000303
-0.66282292 -0.72536201 0.01860628
-0.51119632 -0.13886153 0.07339072
-0.42338219 -0.38200634 0.00000104
-0.47223010 0.23814587 0.00000055
-0.25044472 -0.65580738 0.00000263
-0.08594005 -0.11578024 0.00000249
-0.20826847 -0.60051612 0.00000050
-0.33246658 -0.29574395 0.00000427
-0.00855109 -0.79354840 0.00000002
-0.60412279 0.04197309 0.17408677
-0.39055734 0.29738939 0.10942559
-0.11897886 0.46638655 0.00000317
-0.08328439 0.57401929 0.00000174
-0.56643313 -0.71897906 0.00000533
-0.61114908 -0.10002409 0.14301426
-0.28287766 0.15527636 0.00949396
-0.70550151 -0.31010612 0.14741488
-0.26205511 0.26550778 0.02440241
-0.24098424 0.30673845 0.02200225
-0.39806506 -0.01569004 0.03612339
-0.64181690 0.13108633 -0.00000079
-0.72662159 -0.49478157 0.11419029
-0.52576396 -0.71019877 0.00000498
-0.31920370 0.15004645 0.02999641
-0.37424754 0.11359994 0.05395932
-0.14030763 0.29194639 -0.00000235
-0.20171614 -0.06563768 0.00000366
-0.10616635 -0.79252921 0.00000002
-0.55972767 0.11183638 -0.00000006
-0.22014143 0.03874136 0.00000409
-0.76177997 -0.20643442 -0.00000146
-0.08108401 0.67901762 0.00000386
-0.70443295 -0.15394246 0.18558434
-0.22495616 -0.37598985 0.00000106
-0.02823277 -0.20008131 0.00000176
-0.62629724 -0.52115462 0.04744161
-0.09689167 0.25658316 -0.00000424
-0.00292827 0.07725118 0.00000222
-0.04415357 -0.52131971 0.00000110
-0.12023905 0.36916198 0.00000401
-0.04928098 -0.73745015 0.00000060
-0.48736473 -0.22441707 0.03782911
-0.30990128 -0.29740188 0.00000406
-0.11930712 -0.17268003 0.00000157
-0.17797735 0.39160429 0.00529407
-0.17556699 0.29233768 0.00000432
-0.13478468 0.22450485 0.00000256
-0.25812342 0.45825816 0.06994567
-0.40029250 0.03466706 0.04997486
-0.50228251 -0.76572182 0.00000463
-0.49102119 -0.71203606 0.00000022
-0.15370810 0.51230830 0.02073055
-0.57297691 -0.76263918 0.00000009
-0.19207603 0.14314872 0.00000410
-0.01839760 0.73433459 0.00000400
-0.20266678 0.08625592 -0.00000477
-0.04544090 -0.53640865 0.00000107
-0.41057004 0.08777247 0.00000123
-0.02884569 -0.12967636 0.00000168
-0.43535048 0.22921460 0.00000232
-0.35506324 0.03254172 0.02230919
-0.19183694 0.27062202 -0.00000138
-0.21004234 0.40680550 0.00000261
-0.02305523 0.31950950 0.00000301
-0.52405914 -0.72442644 0.00000493
-0.63362141 0.01315765 -0.00000059
-0.35632422 0.22911792 0.00000384
-0.10172104 0.54161489 0.00000335
-0.54248346 0.05193497 0.13958068
-0.41411874 -0.60011007 0.00000050
-0.59147636 -0.35729470 0.06727245
-0.71117633 -0.59047877 0.08114002
-0.45560594 0.17634145 0.11837247
-0.24024910 0.31313572 0.02315559
-0.37624593 0.17437354 0.00000410
-0.16789211 0.16413644 -0.00000416
-0.40015900 0.18180907 0.08646324
-0.02259818 0.07815889 0.00000240
-0.17126208 -0.62379351 0.00000044
-0.51635394 0.18841776 0.15782242
-0.47953814 -0.00994136 0.08643577
-0.39040537 0.35030751 0.12248696
-0.13558957 0.14372540 0.00000359
-0.12665923 0.21380031 0.00000253
-0.23054596 0.32471316 0.00000514
-0.43604469 -0.15668717 0.00000127
-0.44455836 -0.62619606 0.00000446
-0.12725989 0.22085833 0.00000787
-0.12674149 -0.42610012 0.00000208
-0.50533714 -0.35320490 0.00000088
-0.69818907 -0.53435828 -0.00000058
-0.73050943 0.06438101 -0.00000142
-0.13348675 0.48213417 0.00000319
-0.33521510 0.20574209 0.00000452
-0.40041122 -0.26121488 0.00000135
-0.48283087 -0.51013647 0.00000072
-0.55855258 -0.34268361 0.05114948
-0.20620558 0.53095347 0.05686197
-0.40540091 -0.13555334 0.00000151
-0.65641981 0.12415819 -0.00000090
-0.36855178 -0.35322118 0.00000445
-0.38459430 0.12201844 0.00000455
-0.07143346 -0.72113526 0.00000084
-0.00473580 0.42119233 0.00000305
-0.45842818 -0.31284459 0.00000537
-0.29097397 0.32496648 0.05653065
-0.15713993 0.51616047 0.00000295
-0.42209700 -0.73380996 0.00000017
-0.20589659 -0.70103775 0.00000211
-0.04449114 0.12741593 0.00000272
-0.32302041 -0.14254745 0.00000457
-0.21593207 0.49114323 0.05280476
-0.29770730 0.36502469 0.00000337
-0.40057490 0.24637590 0.00000115
-0.03285034 -0.79034423 0.00000032
-0.14708435 0.49405580 0.00000476
-0.42547068 0.11438063 0.00000385
-0.35199053 0.05903674 0.02705024
-0.32984855 -0.10886592 0.00000173
-0.47076455 0.15550901 0.00000065
-0.20654276 -0.74845056 0.00000200
-0.10357943 0.24763526 0.00000796
-0.17404707 0.11223699 -0.00000503
-0.58650465 -0.68823266 0.00000028
-0.09929609 -0.44001548 0.00000090
-0.28252639 0.07294360 -0.00000287
-0.60117491 -0.69477481 0.00000026
-0.46683108 -0.37062647 0.00000530
-0.57735924 -0.28756216 0.07613250
-0.06824478 0.02549255 0.00000206
-0.45524410 0.27209381 0.00000144
-0.68002004 -0.40007666 -0.00000056
-0.61982174 0.17989600 -0.00000065
-0.22958881 0.44047012 0.04840523
-0.39563040 -0.17955022 0.00000513
-0.13858518 0.33998823 0.00000285
-0.48254627 -0.05577128 0.07685076
-0.33579113 -0.13961944 0.00000165
-0.60218157 -0.45453780 0.00000016
-0.08220535 0.55252145 0.00000523
-0.75441756 -0.21744257 -0.00000139
-0.25201108 0.01843989 -0.00000479
-0.61730599 0.15817549 -0.00000034
-0.70489379 -0.75894330 0.03550281
-0.53491223 -0.76295032 0.00000494
-0.05601603 0.72073921 0.01391581
-0.04200020 -0.33348749 0.00000155
-0.21407525 0.51560746 0.05776975
-0.04291489 0.33590998 0.00000284
-0.18614734 -0.43461581 0.00000260
-0.70166873 -0.02242161 -0.00000114
-0.40874404 0.21027257 0.00000112
-0.15260802 0.17177275 0.00000798
-0.17782194 -0.59702053 0.00000212
-0.07931030 -0.07425068 0.00000253
-0.55037054 -0.56002821 0.00000060
-0.20005582 -0.05275289 0.00000187
-0.51165994 -0.79685970 0.00000001
-0.50551076 -0.06977204 0.08714987
-0.33129361 0.35174003 0.00000288
-0.28992835 -0.56204270 0.00000059
-0.01585026 -0.65707198 0.00000036
-0.28162829 -0.19531954 0.00000406
-0.69440530 -0.36081031 0.12815591
-0.12637323 -0.63250243 0.00000042
-0.04781255 0.23261447 -0.00000605
-0.11670983 -0.45829716 0.00000085
-0.25873618 0.51613087 0.00000235
-0.08384714 -0.44011121 0.00000166
-0.07657566 0.10105842 -0.00000790
-0.66675868 -0.70095617 -0.00000014
-0.46725021 -0.62265348 0.00000044
-0.07202305 -0.19229749 0.00000152
-0.47359264 -0.72354539 0.00000448
-0.24927288 -0.45867083 0.00000085
-0.23164307 -0.08306609 0.00000389
-0.14704387 -0.19237871 0.00000152
-0.55189225 0.07577076 0.15114972
-0.48089329 -0.26810741 0.00000100
-0.06504486 -0.69788955 0.00000084
-0.02187949 0.38676642 0.00000317
-0.21627372 0.01926863 0.00000401
-0.48633709 -0.36109928 0.00000105
-0.12936010 0.57753464 0.00000313
-0.76835928 -0.63186560 0.10516384
-0.16859030 -0.39726149 0.00000101
-0.65720082 -0.47978853 -0.00000028
-0.46612828 0.18741714 0.00000222
-0.32027148 -0.15188479 0.00000162
-0.23650974 0.02095728 0.00000419
-0.52563001 -0.38483090 0.02092133
-0.46767996 -0.36835741 0.00000108
-0.47244536 -0.28833419 0.00000109
-0.30244317 -0.51607854 0.00000345
-0.64558347 -0.20133731 -0.00000047
-0.00370820 0.05919148 0.00000218
-0.54993198 -0.68316324 0.00000527
-0.06175633 0.07631871 0.00000275
-0.00659331 0.54252989 0.00000648
-0.01062320 0.40071907 0.00000310
-0.31408737 -0.13308780 0.00000451
-0.34834559 -0.71426769 0.00000021
-0.74864937 -0.43726607 -0.00000091
-0.61842838 0.14370725 -0.00000020
-0.06808311 0.37686749 0.00000356
-0.45960541 0.02552242 0.08328456
-0.05127494 -0.39533639 0.00000148
-0.33704104 0.35066783 0.00000279
-0.35769687 0.08255045 0.00000169
-0.68064252 -0.23669567 0.15074388
-0.49884486 -0.29156213 0.02802993
-0.37196567 -0.41471436 0.00000096
-0.06831137 0.65521628 0.00500751
-0.24619459 0.28199488 0.00000534
-0.31255709 -0.18326882 0.00000437
-0.04803682 0.58393085 0.00000098
-0.27509736 0.00484144 0.00000450
-0.03879577 0.29687188 0.00000309
-0.23928305 0.25560516 0.00827816
-0.42756612 0.08976972 0.00000109
-0.20131004 -0.73220872 0.00000017
-0.33745891 -0.36911945 0.00000413
-0.00033618 -0.69301685 0.00000027
-0.66080090 0.13231641 -0.00000095
-0.22323185 0.30254018 0.00000261
-0.11667204 0.48228381 0.00000542
-0.59012892 0.12472776 0.18625845
-0.06030376 0.39722279 0.00000712
-0.12040005 0.35632506 0.00000289
-0.24729606 -0.63471254 0.00000041
-0.07038601 0.60533350 0.00000202
-0.41022302 -0.11973059 0.00000145
-0.48526260 -0.07243990 0.07433798
-0.40456620 -0.13752582 0.00974481
-0.61976624 0.14166939 -0.00000061
-0.42493233 -0.49261484 0.00000077
-0.09625243 -0.73773064 0.00000016
-0.14679976 0.25183987 0.00000727
-0.28039931 -0.29792719 0.00000126
-0.30712110 -0.32707626 0.00000396
-0.06369329 -0.03256051 0.00000192
-0.17589852 -0.13165481 0.00000167
-0.77118557 -0.46698618 -0.00000083
-0.08816983 0.51046851 0.00000407
-0.34367079 0.20761211 0.00000168
-0.20270211 0.46294166 0.03785578
-0.71341515 -0.54899456 0.09279318
-0.04492375 0.74139586 0.01239399
-0.34263231 0.31182055 0.08425636
-0.50843911 0.23787075 0.00000082
-0.69011837 -0.24620209 0.15406678
-0.22868222 0.54954503 0.00000254
-0.03856523 0.12116738 0.00000230
-0.04313938 0.57255528 0.00000062
-0.19683607 0.20122988 0.00000429
-0.61129300 -0.63795474 0.00000027
-0.72605165 -0.11629024 -0.00000125
-0.46660821 -0.46940370 0.00000083
-0.54808444 -0.57330178 0.00000553
-0.66740198 -0.58774313 0.05555545
-0.41276534 -0.69489629 0.00000400
-0.40597908 0.21599390 0.00000114
-0.40731913 0.08630210 0.00000126
-0.73785773 -0.73049555 0.06235101
-0.60668232 0.05459126 0.17876002
-0.18299426 0.56137687 0.05049696
-0.35435250 0.24788805 0.07539859
-0.57283030 -0.61157031 0.00000566
-0.63373552 -0.43155225 -0.00000013
-0.15377710 0.55148955 0.03050947
-0.13749377 0.52154528 0.01329508
-0.54947665 -0.42776976 0.02455788
-0.12618089 -0.32352812 0.00000119
-0.73747660 -0.46581501 -0.00000084
-0.04478981 0.45489995 0.00000314
-0.01463465 -0.21673726 0.00000159
-0.50276295 0.08313971 0.12350051
-0.12588847 -0.63893783 0.00000040
-0.26127854 -0.23102284 0.00000142
-0.12091439 0.53823884 0.00749620
-0.16421425 0.24358764 -0.00000267
-0.65011390 -0.25365067 0.12821301
-0.11183334 0.26945339 0.00000762
-0.50887552 -0.79863049 0.00000461
-0.48134771 -0.17453689 0.04661538
-0.20900662 0.53279662 0.00000249
-0.30272249 -0.58924026 0.00000053
-0.33049802 0.16616701 0.04077934
-0.12460721 0.58518580 0.00000316
-0.71464876 -0.27571999 0.16144902
-0.15165863 0.53336849 0.00000298
-0.11514800 0.43617936 0.00000413
-0.25453888 0.17516849 0.00000244
-0.50571638 0.05013367 0.11707283
-0.24616418 0.40510603 0.00000389
-0.49707635 -0.51952927 0.00000070
-0.47635363 -0.72250853 0.00000019
-0.69536013 -0.42978930 0.11158579
-0.22925531 0.03025608 0.00000415
-0.46413290 -0.30494342 0.00387723
-0.00351615 0.75456739 0.00000319
-0.54341145 0.05987894 0.00000223
-0.53926196 0.18255789 0.00000004
-0.06712642 0.16281149 0.00000241
-0.27423157 -0.54619030 0.00000063
-0.26506176 -0.45830429 0.00000325
-0.23756182 -0.31865831 0.00000335
-0.30548594 0.20780183 0.00000201
-0.41792575 -0.43031544 0.00000092
-0.04814527 0.40989228 0.00000302
-0.08757448 0.24764543 0.00000262
-0.49901773 0.23664789 0.00000032
-0.43441256 -0.43425761 0.00000485
-0.08147071 0.16915765 0.00000908
-0.34727750 -0.10138667 0.00000175
-0.00341293 0.13344045 0.00000233
-0.66859687 -0.67108454 -0.00000018
-0.74918847 -0.63853215 0.09200464
-0.25043933 -0.62950510 0.00000269
-0.53916402 -0.57082119 0.00000057
-0.03992077 0.49275348 0.00000647
-0.51847059 0.08281705 0.13284797
-0.43408775 -0.33077499 0.00000510
-0.25357967 -0.33588102 0.00000346
-0.00258441 0.40268977 0.00000793
-0.45674044 0.18025253 0.12002516
-0.19155196 -0.35923179 0.00000284
-0.06254515 0.59804830 0.00000508
-0.36596854 0.17498389 0.06425280
-0.32177457 -0.71701038 0.00000312
-0.22952191 0.38334591 0.00000447
-0.50317186 -0.32101683 0.00000087
-0.30217728 0.15401789 0.00000576
-0.33489782 0.00520944 0.00341721
-0.28785576 0.40504066 0.00000309
-0.02450989 0.05116817 0.00000235
-0.73105951 -0.76061870 0.05078574
-0.54774135 -0.55161863 0.00000558
-0.49621983 0.08556380 0.00000283
-0.29555928 -0.07520935 0.00000449
-0.45381162 -0.47017105 0.00000082
-0.01864994 0.49197061 0.00000680
-0.19813317 0.38875996 0.01668063
-0.07334020 -0.67537484 0.00000031
-0.57975864 0.10779308 -0.00000023
-0.37456710 0.04870868 0.03802936
-0.44912864 -0.42073043 0.00000095
-0.77825768 0.00952991 -0.00000182
-0.27854247 0.33657758 0.00000210
-0.34369344 -0.03852548 0.00000502
-0.08923056 0.17422061 -0.00000609
-0.41667762 -0.35921364 0.00000487
-0.48851672 -0.25966215 0.00000093
-0.42326904 0.14002840 0.08994568
-0.61483809 -0.44278003 0.00000004
-0.24949422 -0.69645665 0.00000252
-0.49178637 0.08826155 0.00000289
-0.38799461 0.12761236 0.06569539
-0.11910349 0.53252036 0.00498833
-0.22472253 -0.75373027 0.00000215
-0.05531172 0.55706969 0.00000389
-0.61186059 0.10779897 0.19509034
-0.12882306 0.03695298 0.00000969
-0.52046977 0.19049074 0.16080660
-0.17961351 -0.24805063 0.00000301
-0.42531437 0.31149800 0.00000155
-0.16767517 -0.72126415 0.00000171
-0.67069515 -0.19378967 -0.00000070
-0.16316778 0.38377965 0.00000296
-0.10128486 0.31595419 0.00000279
-0.24413054 0.30652600 0.00000243
-0.00226291 0.62177702 0.00000575
-0.46727924 -0.62114574 0.00000045
-0.63228025 -0.49637407 0.05718999
-0.11045525 0.07989557 0.00000320
-0.65400547 0.05343282 -0.00000081
-0.25985469 -0.77715148 0.00000241
-0.46131095 -0.34651418 0.00000113
-0.43951487 0.20821306 0.11663676
-0.23166222 -0.61572713 0.00000046
-0.14595391 0.32465768 0.00000655
-0.09596889 -0.58161272 0.00000055
-0.62073839 0.01806069 0.00000123
-0.17577966 0.44860207 0.00000474
-0.32064510 -0.65837578 0.00000035
-0.12160941 -0.73271966 0.00000017
-0.63335090 -0.41207016 -0.00000015
-0.63525576 -0.71310249 0.00000014
-0.63069030 -0.06304618 0.16392891
-0.15031914 -0.69715006 0.00000026
-0.59985687 -0.05901985 0.14642955
-0.28917521 -0.74432781 0.00000276
-0.60242089 0.09932514 0.00000063
-0.51027956 -0.57986007 0.00000517
-0.53269544 -0.37710576 0.00000067
-0.05028794 -0.74903874 0.00000058
-0.16912361 0.31387779 -0.00000113
-0.19066656 -0.72003348 0.00000020
-0.63861529 -0.29329883 0.11146030
-0.45681736 -0.31996278 0.00000120
-0.33970037 0.36440755 0.09556740
-0.04449254 0.03225907 0.00000248
-0.75503139 -0.26615789 -0.00000133
-0.26091903 -0.67970669 0.00000030
-0.18570831 -0.18472197 0.00000322
-0.77550822 -0.12354177 -0.00000166
-0.01960313 -0.09999460 0.00000193
-0.08349756 -0.27558123 0.00000131
-0.43588247 0.20761310 0.00000256
-0.67390429 -0.06249440 0.18999434
-0.55919523 -0.52579211 0.00000060
-0.42264150 -0.03092698 0.04708244
-0.28944131 0.40720525 0.00000194
-0.15817988 0.56384779 0.00000373
-0.04537940 0.24016580 -0.00000596
-0.20371144 0.12226045 0.00000231
-0.25271197 0.47829371 0.00000218
-0.16410490 -0.68274179 0.00000029
-0.51625658 -0.78072220 0.00000472
-0.69068497 -0.26962121 0.14858650
-0.08868233 0.49764582 0.00000569
-0.34773052 0.07964731 0.02960978
-0.22264152 0.44016844 0.00000247
-0.51089397 -0.35992501 0.01826947
-0.10790978 0.02946282 -0.00000848
-0.17146250 -0.04763402 0.00000188
-0.49320151 0.18845157 0.00000169
-0.73821198 -0.47000017 0.12730328
-0.25035742 -0.59448654 0.00000051
-0.38727918 -0.19023462 0.00000503
-0.35787899 0.14589762 0.05216529
-0.31960420 -0.21210960 0.00000147
-0.25813987 0.51858928 0.00000209
-0.25048570 0.44496323 0.06205998
-0.35822138 0.17505337 0.00000159
-0.55051392 0.07294020 0.14961926
-0.53210883 -0.40597068 0.01955485
-0.63833598 -0.28828415 0.11253900
-0.28479643 0.44806756 0.08341786
-0.12837895 -0.71262341 0.00000022
-0.75286291 -0.57796096 0.10926277
-0.55564813 -0.34849274 0.04796309
-0.00349499 0.16511043 0.00000244
-0.69555115 0.01656416 -0.00000113
-0.19085998 0.36782320 0.00000539
-0.63448230 -0.49731928 -0.00000007
-0.03872074 0.00482455 0.00001137
-0.38606523 -0.18384720 0.00000504
-0.31574751 -0.39688255 0.00000387
-0.18072949 0.17106429 0.00000756
-0.65226485 -0.20001258 0.14283400
-0.35452650 -0.00701012 0.00000181
-0.28913423 -0.01816629 0.00000457
-0.20012831 -0.13012882 0.00000167
-0.23780825 0.09926100 0.00000742
-0.16343195 0.05227404 0.00000361
-0.51358267 -0.74421218 0.00000479
-0.69406046 -0.43595126 0.10927459
-0.18776276 -0.12268162 0.00000169
-0.52445859 0.18522603 0.00000112
-0.04371893 0.41747709 0.00000304
-0.74157215 -0.42774338 0.13982125
-0.69217279 -0.21551807 0.16292518
-0.56774311 -0.22494932 0.08592371
-0.65107964 -0.51886263 -0.00000019
-0.60850622 -0.13486585 0.13276950
-0.06642586 -0.54102234 0.00000125
-0.51567854 -0.78151336 0.00000005
-0.20177171 0.06838411 0.00000217
-0.36571931 -0.27796146 0.00000462
-0.18042770 0.43033941 0.00000284
-0.03487389 -0.41060440 0.00000129
-0.53237292 -0.16974347 0.07842170
-0.31279260 0.27828861 0.05801770
-0.23850486 0.50300504 0.00000290
-0.34573410 0.36419023 0.00000246
-0.06663656 -0.42754694 0.00000093
-0.37284079 0.41414986 0.00000122
-0.30308753 -0.06138698 0.00000185
-0.12586263 0.44433162 0.00000031
-0.28212471 0.24700287 0.03184039
-0.77399617 0.01659372 -0.00000169
-0.45734304 0.14883761 0.11257653
-0.68871854 -0.65685534 0.05116919
-0.35563178 0.02404995 0.00000177
-0.58761993 -0.40185101 0.00000023
-0.11917289 0.31274543 -0.00000251
-0.36497581 0.07537060 0.00000547
-0.22423230 0.22603203 0.00000636
-0.72564564 -0.13481324 0.20306601
-0.11390740 -0.21931760 0.00000248
-0.09790869 -0.71440324 0.00000110
-0.53662293 0.10225741 0.14857076
-0.31428476 0.03716997 0.00000494
-0.16902910 -0.23903788 0.00000140
-0.34276160 0.31926603 0.08618643
-0.35679344 0.15751877 0.05440724
-0.14880257 0.31212679 0.00000278
-0.15662474 0.57443250 0.03791894
-0.43748339 0.12722413 0.00000096
-0.61003424 -0.44335517 0.05701895
-0.18251828 -0.33081102 0.00000117
-0.16846452 0.35210241 0.00000441
-0.06102321 -0.74593850 0.00000014
-0.09254885 -0.50636763 0.00000073
-0.66135139 -0.02339265 -0.00000079
-0.62932604 -0.21292272 0.12586226
-0.65825109 -0.47016071 0.07928712
-0.06704911 0.13203042 0.00000967
-0.29027684 -0.64720146 0.00000038
-0.44261216 -0.77399013 0.00000407
-0.07947695 0.26525971 -0.00000454
-0.52729923 -0.37401914 0.02460986
-0.63939364 -0.73039187 0.00329870
-0.39979909 0.19773524 0.00000337
-0.31615510 -0.61551499 0.00000046
-0.31259594 0.24065982 0.00000454
-0.45588047 -0.33440459 0.00000529
-0.20931530 -0.10434480 0.00000363
-0.21911198 0.02731929 0.00000207
-0.74687908 -0.23685139 -0.00000130
-0.30068435 -0.57737593 0.00000328
-0.20609138 -0.18327637 0.00000341
-0.52097234 0.21116403 0.16624647
-0.35844101 0.13233224 0.04913630
-0.47555201 -0.23407987 0.00000101
-0.24739277 0.41694088 0.05323997
-0.72171417 -0.62081632 -0.00000045
-0.67686601 -0.02459010 0.20119154
-0.03579079 -0.05919864 0.00000185
-0.12843989 0.33779782 0.00000401
-0.11438367 -0.63604336 0.00000145
-0.02382059 -0.62312722 0.00000044
-0.12700792 0.41102761 -0.00000033
-0.03300292 0.45335443 0.00000343
-0.03348214 0.33361575 0.00000283
-0.38075469 -0.42236259 0.00000439
-0.00623733 0.59367275 0.00000348
-0.41139380 0.01726475 0.05231070
-0.33562061 -0.21395796 0.00000450
-0.25801613 -0.26696836 0.00000367
-0.61444460 -0.56293397 0.02994683
-0.52415645 -0.23989381 0.00000060
-0.22763371 0.46394076 0.05306522
-0.12847275 -0.13515194 0.00000283
-0.28015979 -0.06190389 0.00000438
-0.28954320 -0.19849274 0.00000413
-0.16361373 -0.40387009 0.00000099
-0.03209992 0.72454701 0.00051172
-0.16753204 0.39516730 0.00000450
-0.05633059 -0.45609709 0.00000086
-0.10786281 -0.49289076 0.00000077
-0.41318487 -0.08868750 0.02705354
-0.05432137 0.71949320 0.00000390
-0.17750144 -0.31415710 0.00000121
-0.62136129 0.01777157 -0.00000049
-0.06614799 0.30184303 0.00000275
-0.49531783 -0.14898416 0.00000075
-0.23929278 0.46296481 0.05981671
-0.39935534 0.13300024 0.00000414
-0.35502289 -0.51332501 0.00000393
-0.10323082 -0.07931997 0.00000274
-0.41792914 0.11651912 0.08089475
-0.56572388 -0.23890490 0.00000025
-0.53136060 0.11454678 0.00000182
-0.33582966 0.18000564 0.04741757
-0.17326694 0.16429517 -0.00000401
-0.23873691 0.48030252 0.00000229
-0.34944974 0.25302370 0.00000158
-0.30266760 -0.10665554 0.00000173
-0.69129749 -0.64670966 -0.00000038
-0.16355134 0.13419591 0.00000819
-0.10739017 -0.14364341 0.00000164
-0.25133460 0.17630061 0.00000644
-0.08492101 0.01118099 -0.00000947
-0.73465341 -0.32073373 -0.00000111
-0.47323927 0.05182906 0.00000367
-0.12001552 0.66563803 0.00000327
-0.21893248 -0.61873809 0.00000244
-0.69876654 -0.47879428 0.10145064
-0.25501164 -0.42377401 0.00000094
-0.07617574 0.00054877 0.00000269
-0.06728548 0.29500766 0.00000803
-0.59226722 -0.32761569 0.07512295
-0.44640933 0.22005089 0.12371582
-0.49371646 0.04900821 0.10959319
-0.18311831 0.55959653 0.05012823
-0.45504226 -0.73949168 0.00000427
-0.20337036 0.01413196 0.00000879
-0.77112521 -0.41774471 -0.00000096
-0.68874960 -0.00482804 -0.00000105
-0.07784020 0.03012913 0.00000278
-0.38937524 0.05477154 0.04842099
-0.38849127 0.24647918 0.00000126
-0.44074573 0.28617548 0.00000077
-0.68471698 -0.23660410 0.15321130
-0.07398780 -0.29046366 0.00000127
-0.10250739 0.23626936 -0.00000449
-0.01236686 0.41410832 0.00000315
-0.11055614 0.67526132 0.03533738
-0.30261030 0.43758057 0.09149941
-0.11981462 -0.79819410 0.00000000
-0.52878290 -0.32036776 0.00000065
-0.38122255 0.03160553 0.00000567
-0.47401016 0.27818177 0.00000100
-0.14442292 -0.13069162 0.00000167
-0.16978764 -0.22108224 0.00000298
-0.57795357 -0.55955974 0.00889086
-0.58921062 0.05294470 0.16786782
-0.13370806 -0.50507751 0.00000074
-0.08695440 -0.17739271 0.00000156
-0.45540185 -0.21642377 0.00000117
-0.19614289 -0.09989485 0.00000353
-0.03976236 -0.03824968 0.00000190
-0.24872129 -0.45983305 0.00000310
-0.49680930 -0.12933189 0.06712689
-0.07874497 -0.61772807 0.00000046
-0.13107752 0.50983082 0.00653361
-0.71505355 -0.44012592 -0.00000082
-0.43253235 0.30485461 0.00000082
-0.21508005 0.19092009 0.00000442
-0.27954928 0.29351993 0.04185668
-0.19941558 -0.43631877 0.00000091
-0.46697922 -0.39860423 0.00000100
-0.45176477 -0.21718129 0.00000120
-0.37611355 0.07680333 0.00000154
-0.18560127 0.09578791 -0.00000504
-0.79339697 -0.27350865 -0.00000132
-0.34283855 -0.21577404 0.00000456
-0.51572523 0.13787842 0.00000185
-0.56543179 -0.31956179 0.06102334
-0.79965181 -0.20278907 -0.00000149
-0.22287759 0.52581838 0.00000238
-0.00267645 0.42546670 0.00000306
-0.38610985 0.12697536 0.06440623
-0.53142047 -0.29690951 0.00000060
-0.12056753 0.28914848 0.00000381
-0.17486503 -0.32335999 0.00000119
-0.34447438 -0.56807866 0.00000058
-0.04435159 -0.70714422 0.00000023
-0.10881480 -0.12849389 0.00000168
-0.34563639 0.12745938 0.04023673
-0.07428875 0.47319265 -0.00000052
-0.51533707 -0.15226804 0.00000059
-0.13243644 0.25887281 0.00000385
-0.20158540 0.19045788 0.00000705
-0.32267920 0.21339858 0.00000185
-0.39675025 0.33374772 0.12217858
-0.03942187 0.10806800 0.00001032
-0.28378331 0.07302301 0.00000218
-0.20490583 -0.14484326 0.00000164
-0.62814617 -0.63677662 0.00000013
-0.29307087 -0.62326516 0.00000044
-0.36016513 -0.03602483 0.00000179
-0.10942928 0.41696823 0.00000618
-0.13532979 0.23381378 0.00000762
-0.73717031 -0.59048028 0.09673591
-0.05160504 -0.10693054 0.00000220
-0.14068152 -0.29443322 0.00000126
-0.07802166 0.59881017 0.00000210
-0.61766663 -0.53439476 0.00000011
-0.45661747 0.26508425 0.14103376
-0.23901946 0.06250445 0.00000432
-0.43953567 0.10241757 0.00000372
-0.26690569 -0.55791552 0.00000302
-0.03363075 -0.00185288 0.00000200
-0.19706810 -0.28906048 0.00000306
-0.03561657 0.01417016 -0.00001075
-0.34164470 0.24915821 0.06808933
-0.60083886 -0.71010640 0.00000022
-0.45607850 0.25985508 0.13941124
-0.25125264 -0.79116748 0.00000002
-0.02680170 0.23674564 0.00000283
-0.35918189 0.00354765 0.01757461
-0.18739326 -0.40988405 0.00000267
-0.16848479 0.57067929 0.00000345
-0.78133115 -0.45988834 -0.00000085
-0.11752868 -0.73354615 0.00000017
-0.74265366 -0.64203726 -0.00000039
-0.17799685 0.07974717 -0.00000557
-0.29959405 0.01514211 0.00000733
-0.11789370 -0.24425791 0.00000246
-0.38310343 0.29895653 0.10534259
-0.73697743 -0.49435360 0.12051011
-0.00587015 -0.27519663 0.00000131
-0.48545673 0.09198747 0.11531880
-0.53952923 -0.57255324 0.00000545
-0.29339231 -0.00217137 0.00000199
-0.66622537 0.08759992 -0.00000046
-0.07893310 -0.52636226 0.00000068
-0.67856907 0.08869604 -0.00000106
-0.08873664 0.38809326 0.00000678
-0.34366441 -0.40057082 0.00000100
-0.53420659 -0.49215597 0.00000077
-0.26953352 -0.67737048 0.00000275
-0.00438911 0.46971722 0.00000724
-0.07242667 0.59195178 0.00000348
-0.30802432 0.12736438 0.01765173
-0.27432192 0.19687918 0.01470654
-0.16922384 0.17723423 -0.00000386
-0.38646348 0.03654856 0.04213837
-0.17833938 0.44448517 0.00000285
-0.66468407 -0.35156372 0.11262123
-0.66021912 -0.34127415 0.11249949
-0.38037162 -0.26913461 0.00000133
-0.00110147 -0.02175964 0.00000196
-0.40396652 -0.49899237 0.00000441
-0.21313396 -0.66174888 0.00000228
-0.01971514 0.70144640 0.00000469
-0.07618148 0.15012685 0.00000307
-0.57748122 -0.38020299 0.00000029
-0.19941960 -0.79787680 0.00000001
-0.66801236 -0.79268015 0.00498966
-0.14100760 0.33435173 0.00000653
-0.39250389 0.12489084 0.06771982
-0.66637428 -0.12405729 -0.00000073
-0.06806975 0.54791999 0.00000399
-0.62123223 -0.72147736 0.00000582
-0.22258055 0.02783544 0.00000836
-0.50403570 -0.00954170 0.10122864
-0.06741866 0.70284811 0.00000384
-0.30299164 0.03879387 0.00000484
-0.11988371 0.35934870 0.00000290
-0.28614677 -0.25241131 0.00000137
-0.34255773 0.35954555 0.09607345
-0.14724915 -0.28543567 0.00000262
-0.53224438 0.13218755 0.15338203
-0.09309178 0.19332314 0.00000333
-0.07839390 -0.69958054 0.00000096
-0.03807927 -0.12116628 0.00000170
-0.45124213 -0.08507937 0.05078454
-0.03626727 -0.52319129 0.00000102
-0.43630267 -0.55486118 0.00000061
-0.60749524 0.10093331 0.00000052
-0.43169636 0.01950497 0.06504895
-0.59369202 -0.65722285 0.00000036
-0.41473460 0.19138907 0.09758945
-0.53873647 -0.22251588 0.06912455
-0.23027972 0.38857792 0.03592326
-0.47436976 0.06386679 0.00000071
-0.32875641 0.06150224 0.00000196
-0.15158058 0.08934744 -0.00000610
-0.63971388 0.13832911 -0.00000078
-0.61874424 -0.33943209 0.08807244
-0.46700965 0.10471673 0.00000073
-0.11237052 -0.59907284 0.00000050
-0.23576280 0.10278225 0.00000741
-0.17527544 0.08519423 0.00000850
-0.45040947 0.05541430 0.00000093
-0.00014693 -0.23307127 0.00000142
-0.11306631 0.02717486 0.00001002
-0.32734696 -0.76088322 0.00000010
-0.42777782 -0.40182938 0.00000100
-0.36396416 0.23250478 0.00000148
-0.37089257 0.25981319 0.00000320
-0.23119537 0.53032539 0.07170046
-0.14638254 0.01596831 0.00000337
-0.16861325 -0.58191592 0.00000207
-0.34024546 -0.17012340 0.00000466
-0.76016420 -0.13343042 -0.00000152
-0.17401460 0.46090287 0.00000463
-0.51705644 -0.18265121 0.06602394
-0.39150672 0.08152733 0.05634936
-0.57920850 -0.11123266 0.12106437
-0.68127928 -0.10384580 -0.00000088
-0.27521004 -0.30857149 0.00000123
-0.67109329 0.00758069 0.00000039
-0.50872920 0.05670278 0.12051310
-0.65951974 -0.10067736 0.17187421
-0.02519269 0.39859667 0.00000763
-0.15729855 0.61816759 0.00000285
-0.54500387 -0.48102376 0.00863927
-0.18396997 0.10318604 -0.00000494
-0.62825447 -0.40759905 -0.00000011
-0.46861214 0.02538621 0.08865998
-0.44152174 -0.44177193 0.00000090
-0.27895801 -0.68140086 0.00000282
-0.13320854 0.10092630 0.00000225
-0.07813616 0.09757454 0.00000985
-0.73681967 -0.27241343 -0.00000118
-0.36110048 0.33099496 0.00000140
-0.38629295 -0.36212979 0.00000109
-0.20954344 0.39566374 0.00000471
-0.19134979 0.56712896 0.05693944
-0.64504141 -0.30773404 -0.00000036
-0.60106135 -0.31587657 0.08331688
-0.69264139 0.00217657 0.21730893
-0.32470784 0.15497473 0.03452368
-0.18486434 -0.38132472 0.00000272
-0.48976725 0.12750816 0.12673288
-0.13807033 0.06152557 0.00000340
-0.00293723 -0.59851861 0.00000053
-0.61056121 -0.00307759 0.16675281
-0.73063265 -0.08268473 0.21901345
-0.18170191 0.06850184 0.00000857
-0.72523193 -0.74232272 0.05183623
-0.30702006 -0.70853690 0.00000023
-0.20147190 -0.47013703 0.00000082
-0.14675687 0.46193094 0.00000514
-0.04662887 -0.05567746 0.00000186
-0.00068108 0.54295128 0.00000336
-0.51232958 -0.33791482 0.02460093
-0.16458229 0.15521242 0.00000388
-0.68703278 -0.01762907 -0.00000102
-0.39467625 -0.00481447 0.00000146
-0.50943869 -0.23671971 0.04801592
-0.52913514 0.04221146 0.00000271
-0.04561787 0.71558235 0.00639465
-0.23384357 -0.54705466 0.00000063
-0.37016161 -0.67517505 0.00000031
-0.20832409 0.02524644 0.00000395
-0.19339720 -0.15368306 0.00000162
-0.40112788 -0.01166566 0.03896124
-0.33072196 -0.19835940 0.00000450
-0.11027333 -0.04568891 0.00000189
-0.53141991 0.18158448 0.00000010
-0.31820570 0.32367182 0.07254788
-0.32513819 -0.37642390 0.00000106
-0.12942863 0.41994483 0.00000585
-0.71083045 -0.20979156 -0.00000102
-0.11270146 0.51942564 0.00000511
-0.21229921 0.01429432 0.00000204
-0.41035245 -0.37272685 0.00000478
-0.75041257 -0.49773780 0.12773007
-0.41116562 0.04589251 0.00000127
-0.53040720 0.00228923 0.11999673
-0.63606327 0.04474757 0.19394213
-0.46350229 0.23977632 0.13887462
-0.18995897 0.53814078 0.00000265
-0.14317764 -0.46861947 0.00000212
-0.45147801 -0.40333659 0.00000099
-0.43332437 0.26075528 0.00000086
-0.09605783 -0.23850943 0.00000140
-0.58253651 -0.19721913 0.00000006
-0.10277035 0.14262289 0.00000329
-0.26162176 0.10655580 -0.00000276
-0.11594488 -0.40867593 0.00000203
-0.55980885 -0.28919318 0.00000035
-0.10073366 -0.56128686 0.00000060
-0.70740305 -0.46022379 0.11124774
-0.60075858 0.13554353 0.00000024
-0.45711184 0.15660548 0.00000076
-0.73409550 -0.77539586 -0.00000006
-0.37103420 -0.65054034 0.00000373
-0.49756502 -0.05731981 0.00000064
-0.18973973 -0.55218936 0.00000234
-0.04416381 0.05537386 0.00001078
-0.00746757 0.54036892 0.00000648
-0.26195263 -0.18880275 0.00000390
-0.66955597 -0.14901815 0.16588203
-0.67521270 -0.30097872 0.13151004
-0.44918172 -0.00351453 0.00000100
-0.40513029 0.02965091 0.05162447
-0.37512509 0.19656405 0.00000142
-0.61338179 0.10882454 0.19625803
-0.30883423 -0.78919150 0.00000282
-0.22897040 0.08386537 0.00000428
-0.16739482 -0.36312716 0.00000109
-0.14195493 -0.41647835 0.00000096
-0.30749998 -0.68205856 0.00000308
-0.16691915 -0.24765571 0.00000289
-0.14256756 -0.59493457 0.00000180
-0.51764643 0.06708810 0.00000264
-0.36764608 0.05270932 0.00000569
-0.40002092 0.36248068 0.00000104
-0.77412048 -0.34410912 -0.00000114
-0.33503967 0.01730235 0.00650771
-0.40315868 -0.66716474 0.00000033
-0.76173088 -0.22447022 -0.00000144
-0.37043655 0.12321079 0.00000481
-0.03735385 0.40270804 -0.00000293
-0.06567102 0.69688067 0.01377874
-0.16606434 -0.25185348 0.00000137
-0.72585616 -0.57040522 0.09493664
-0.19654368 0.22037846 0.00000255
-0.60649374 -0.11279473 0.13704724
-0.54022502 -0.49280950 0.00000073
-0.55484059 -0.40308147 0.00000051
-0.05227170 0.05083636 0.00000260
-0.31337219 -0.36786464 0.00000392
-0.47852208 -0.62090720 0.00000045
-0.66629098 -0.69568013 0.02806380
-0.22940476 0.48502237 0.05936715
-0.39324586 -0.31997205 0.00000120
-0.32900393 -0.30771359 0.00000421
-0.09170001 0.06782843 -0.00000815
-0.61465643 0.12183062 0.00000013
-0.30181802 -0.63577698 0.00000041
-0.04603500 -0.01157474 0.00000239
-0.42970985 0.24044317 0.00000230
-0.62762635 -0.13457781 0.14431313
-0.05962824 0.18251763 0.00000928
-0.35209836 -0.18647809 0.00000153
-0.02226503 -0.15807409 0.00000181
-0.44923369 0.06325150 0.00000093
-0.57135024 -0.65798628 0.00000553
-0.38182202 0.22156043 0.00000134
-0.03618832 0.54964553 0.00000337
-0.04131581 -0.20594354 0.00000149
-0.03828593 -0.70127804 0.00000025
-0.72550018 -0.51303756 0.10898037
-0.10213662 -0.39539126 0.00000194
-0.18194493 0.20671954 -0.00000292
-0.36339670 0.19269359 0.00000153
-0.18778401 0.05153446 0.00000213
-0.25669068 -0.26967343 0.00000133
-0.59294013 -0.47152316 0.00000026
-0.26283118 -0.19117347 0.00000390
-0.21386900 0.49171623 0.00000249
-0.29786960 0.18541536 0.00000547
-0.32162021 0.43594095 0.10249828
-0.26985721 0.12245990 0.00000231
-0.24025798 0.50843756 0.00000280
-0.29909434 0.37736634 0.00000188
-0.70894661 -0.41645613 0.12305125
-0.61887167 0.02659096 0.00000117
-0.11808741 0.36169077 -0.00000156
-0.40928477 0.09859712 0.00000123
-0.43102898 0.21543133 0.00000093
-0.03295460 -0.75475440 0.00000011
-0.01380951 0.27740532 0.00000282
-0.60519540 -0.51691911 0.03583317
-0.00538699 0.63062134 0.00000358
-0.62582155 -0.28980743 -0.00000021
-0.04487594 -0.07010254 0.00000223
-0.35486372 -0.74387881 0.00000014
-0.54301259 0.16441173 0.00000002
-0.33397469 -0.75918834 0.00000010
-0.03197201 0.47169136 0.00000318
-0.28385970 -0.42721155 0.00000093
-0.13397555 -0.12830407 0.00000289
-0.33756268 0.15442604 0.00000179
-0.07577523 0.07220763 0.00000218
-0.09307781 -0.31192293 0.00000122
-0.69342914 -0.42558057 0.11147318
-0.37433272 0.28100151 0.09561734
-0.14188379 0.46464433 0.00000314
-0.04607889 0.01278773 0.00001118
-0.01648302 0.35883373 0.00000816
-0.38086400 -0.09303283 0.00000167
-0.60845361 0.09500639 0.00000057
-0.44662379 -0.25083099 0.00682010
-0.73553859 -0.40791663 -0.00000098
-0.39048225 -0.58927836 0.00000406
-0.02659634 0.52846323 0.00000356
-0.14440114 0.29527040 0.00000405
-0.58550028 -0.35066530 0.00000019
-0.50055287 0.00881087 0.10370032
-0.59589866 0.13782852 0.00000031
-0.15207871 -0.31884147 0.00000120
-0.46193127 -0.29693414 0.00000119
-0.17538227 -0.13147858 0.00000326
-0.09716128 -0.63853614 0.00000040
-0.20467433 0.16759625 0.00000427
-0.69504340 0.04739893 -0.00000115
-0.29053291 -0.62744299 0.00000043
-0.52246197 -0.79226084 0.00000002
-0.67246729 -0.46157427 -0.00000043
-0.32507445 0.31847502 0.07537758
-0.45266969 0.25857975 0.13704834
-0.36807401 0.32584633 0.00000135
-0.47195197 -0.32365652 0.00391798
-0.19329040 0.54112915 0.00000262
-0.17393962 0.17286847 0.00000243
-0.59615413 0.09460442 0.18238741
-0.01380169 0.65182192 0.00000527
-0.41983149 0.05219572 0.00000119
-0.76195462 -0.53318237 -0.00000067
-0.53424715 0.17673109 0.00000009
-0.72705789 -0.77593591 -0.00000006
-0.05475141 0.06223400 0.00001055
-0.59188494 -0.69626649 0.00000562
-0.36458437 0.00189136 0.02040446
-0.36519037 -0.12729497 0.00000168
-0.36513318 -0.01509671 0.01651178
-0.02206367 0.26872684 0.00000287
-0.24704836 -0.32859355 0.00000342
-0.61142658 -0.77157479 0.00000561
-0.73813258 -0.50317523 -0.00000074
-0.44529149 0.09658332 0.00000093
-0.04342148 -0.70838429 0.00000023
-0.58902368 0.19561570 -0.00000040
-0.29070549 0.42336057 0.08082297
-0.18799102 0.18620310 -0.00000317
-0.11830175 0.64004959 0.00000316
-0.26458877 -0.46122600 0.00000085
-0.04463588 -0.59261613 0.00000092
-0.56521776 0.15359885 0.00000071
-0.34546383 -0.17847125 0.00000155
-0.61013589 -0.33326856 0.08443924
-0.00658252 -0.28559868 0.00000135
-0.44028223 -0.42483477 0.00000492
-0.25616596 0.28606624 0.00000510
-0.29298006 -0.10499661 0.00000174
-0.22041700 0.00775240 0.00000860
-0.54336433 -0.76059370 0.00000010
-0.58521978 -0.22290770 0.09691707
-0.30814970 0.16905366 0.00000202
-0.10814110 -0.23191006 0.00000142
-0.04909594 -0.45033411 0.00000087
-0.33341144 0.30361747 0.00000167
-0.73102028 -0.79265161 0.04280121
-0.50304646 0.19273318 0.15091044
-0.03165229 0.49177372 0.00000352
-0.18853145 0.07131715 0.00000844
-0.23822809 -0.11701961 0.00000386
-0.16281392 0.12936171 0.00000825
-0.45058848 0.25219113 0.13421255
-0.69169242 -0.36358276 0.12583916
-0.10283661 0.37019820 -0.00000180
-0.33794843 0.32470923 0.00000161
-0.15791140 -0.43917377 0.00000090
-0.60123364 -0.47053301 0.00000018
-0.28788496 0.26794235 0.00000209
-0.33543958 -0.15989539 0.00000160
-0.46484690 0.14447002 0.00000275
-0.48813288 -0.23098705 0.03665719
-0.44976051 -0.31203164 0.00000122
-0.08302112 0.46893961 -0.00000037
-0.64358202 -0.02217990 -0.00000064
-0.17685750 0.15086410 0.00000238
-0.60697262 -0.04664071 -0.00000030
-0.61153784 -0.49108370 0.00000012
-0.14792784 -0.49636131 0.00000210
-0.00330940 0.76593902 0.00000391
-0.41919143 -0.28691244 0.00000128
-0.48917342 -0.34852768 0.00806971
-0.25210544 -0.60684234 0.00000277
-0.30070690 0.39706096 0.00000294
-0.76938352 -0.63296950 -0.00000042
-0.12226758 -0.66976153 0.00000143
-0.02181968 -0.62794047 0.00000043
-0.15155725 -0.45821133 0.00000085
-0.35723499 0.23365196 0.00000154
-0.33353598 0.23437584 0.00000422
-0.59203152 0.17320435 -0.00000040
-0.37184266 -0.17678842 0.00000492
-0.43766654 0.20071694 0.11366459
-0.24057605 0.38957839 0.04234968
-0.75539757 -0.64954572 0.09299292
-0.27932902 -0.21376343 0.00000399
-0.77747587 -0.46862809 -0.00000083
-0.70072196 -0.46491079 -0.00000067
-0.33591535 -0.38230957 0.00000104
-0.48097518 0.14116280 0.12484878
-0.44034508 -0.48089584 0.00000478
-0.11916218 0.39134849 0.00000298
-0.56127258 -0.30821128 0.06134871
-0.59306643 -0.02961867 -0.00000020
-0.51412340 -0.64084606 0.00000040
-0.44502191 0.29050848 0.00000142
-0.67561369 -0.28942051 -0.00000064
-0.45704716 -0.39215177 0.00000102
-0.39234222 -0.43394625 0.00000447
-0.37357303 0.41474039 0.00000121
-0.31512636 -0.50436842 0.00000359
-0.13401847 0.61636983 0.00000305
-0.22342045 -0.54669391 0.00000063
-0.64138452 -0.23472666 -0.00000040
-0.31207257 0.15432776 0.02678176
-0.02197257 0.66291928 0.00000386
-0.32861851 -0.48079096 0.00000080
-0.19026870 -0.19915813 0.00000322
-0.55093029 -0.43950410 0.02251379
-0.36089412 -0.20776718 0.00000475
-0.44253728 0.22107216 0.00000228
-0.72079916 -0.03117303 0.22591532
-0.01801074 0.22033603 0.00000271
-0.23831118 0.26203780 0.00928822
-0.39944589 -0.42363923 0.00000456
-0.72280320 0.06430081 -0.00000141
-0.07249977 0.22568251 0.00000256
-0.42793869 -0.33337028 0.00000117
-0.01373811 0.07911439 0.00000220
-0.01187246 -0.45302853 0.00000087
-0.02553707 0.20142063 0.00000250
-0.14480525 0.24808027 -0.00000311
-0.02175475 0.62413301 0.00000543
-0.29089183 -0.31010119 0.00000386
-0.46235371 0.15516160 0.00000267
-0.15592928 -0.35487704 0.00000111
-0.43528843 -0.70330135 0.00000418
-0.02982266 0.20415031 0.00000251
-0.66282309 -0.75852475 0.01036460
-0.37343635 -0.41335638 0.00000097
-0.77648865 -0.69560706 -0.00000026
-0.11961549 -0.60390889 0.00000049
-0.29378365 -0.09733598 0.00000176
-0.56580252 -0.70821231 0.00000023
-0.65372374 -0.51106732 -0.00000022
-0.66779418 -0.15534727 -0.00000071
-0.49411111 0.08552328 0.00000287
-0.15081071 -0.54077054 0.00000065
-0.54527545 0.06498961 0.00000011
-0.05540035 0.18622325 -0.00000677
-0.51430240 -0.65150434 0.00000037
-0.28098043 0.21797081 0.02393801
-0.71013997 -0.29201693 -0.00000093
-0.30751692 0.08816108 0.00000211
-0.14115437 -0.19821371 0.00000150
-0.76059815 0.02028831 -0.00000148
-0.26808108 0.03162592 -0.00000409
-0.46446664 0.18670650 0.12626298
-0.68881476 -0.77193254 -0.00000007
-0.46663827 -0.35761475 0.00000533
-0.45990450 0.15291736 0.11512747
-0.31819717 -0.08105225 0.00000468
-0.48029735 -0.24537341 0.02838051
-0.44554796 0.18379135 0.11418683
-0.32952291 -0.24352172 0.00000437
-0.17663485 0.01602490 0.00000364
-0.34322889 0.38172265 0.10198884
-0.27498681 0.14973376 0.00000233
-0.30281435 -0.49930495 0.00000349
-0.60092498 0.10664243 0.18824129
-0.18179919 -0.09891262 0.00000175
-0.14679761 0.20943817 0.00000252
-0.01238810 0.76297421 0.00000418
-0.28296742 -0.37217848 0.00000107
-0.13940469 -0.47431739 0.00000081
-0.07908903 -0.46339390 0.00000156
-0.51415854 0.05900578 0.00000280
-0.26022440 -0.62859779 0.00000043
-0.09850020 0.00051185 0.00001051
-0.13718008 0.42900177 0.00000564
-0.06675693 -0.08463034 0.00000239
-0.30507608 -0.02392578 0.00000470
-0.12793547 0.48349949 0.00000523
-0.57422385 -0.45992884 0.00000040
-0.71114824 -0.70565433 -0.00000024
-0.16431905 -0.34291970 0.00000263
-0.68871896 -0.23898852 0.15501989
-0.51683098 0.02113938 0.00000319
-0.35816029 -0.40413495 0.00000423
-0.72263582 -0.10125152 0.20960105
-0.10229083 0.28810681 0.00000365
-0.62551207 -0.22291041 -0.00000028
-0.50201330 -0.68682401 0.00000028
-0.65210022 -0.58815154 -0.00000013
-0.61548365 -0.04473845 -0.00000038
-0.01617591 0.71805853 0.00000380
-0.07760110 0.69885896 0.02142873
-0.31025205 0.00870617 0.00000202
-0.45932744 -0.03531101 0.00000094
-0.46880700 0.12099214 0.00000070
-0.07274224 0.49977660 -0.00000003
-0.17315965 -0.24108187 0.00000140
-0.27461024 0.20801257 0.01764068
-0.25988604 -0.53271213 0.00000067
-0.16841412 0.50172996 0.00000287
-0.30147727 0.48053661 0.00000176
-0.25877872 -0.26309550 0.00000134
-0.79342822 -0.35512436 -0.00000111
-0.02581335 0.47048505 -0.00000189
-0.47060909 0.06567881 0.09987187
-0.25121018 -0.20313191 0.00000377
-0.38147577 -0.14800841 0.00000163
-0.68505603 -0.22204092 0.15703404
-0.22496631 0.42108944 0.04081259
-0.07462135 -0.62528855 0.00000111
-0.69971326 0.01126734 -0.00000116
-0.24359108 -0.63798045 0.00000041
-0.50187967 0.20953110 0.15438507
-0.29903622 0.06577006 0.00000683
-0.07748010 -0.73573040 0.00000086
-0.49797634 -0.51154791 0.00000523
-0.57843329 -0.21155805 0.09566586
-0.08210176 -0.08012439 0.00000180
-0.35465524 0.15877856 0.00000164
-0.35568806 -0.58462732 0.00000054
-0.25107597 -0.58176037 0.00000282
-0.70477846 -0.05634407 -0.00000113
-0.65318552 -0.59251841 0.04583883
-0.27273539 0.30192648 0.03985761
-0.51317922 0.18556805 0.15520937
-0.74271690 -0.72779437 -0.00000018
-0.44157304 -0.27462347 0.00000531
-0.64668699 -0.65992954 0.02518636
-0.47255289 -0.41630969 0.00000524
-0.31766843 -0.55296659 0.00000349
-0.01302876 -0.63056803 0.00000042
-0.56018116 0.09557284 -0.00000005
-0.06108689 0.31082885 0.00000333
-0.53779954 -0.18635252 0.07754989
-0.77000075 -0.65151074 -0.00000037
-0.24589444 0.10733319 -0.00000317
-0.57361912 0.15110040 0.00000058
-0.38833092 -0.28163893 0.00000130
-0.07656170 -0.63958686 0.00000109
-0.61658628 -0.30095536 0.09634010
-0.11096042 0.59975878 0.01681412
-0.44979233 -0.59660660 0.00000458
-0.20117246 -0.33043501 0.00000117
-0.58354393 -0.62002801 0.00000045
-0.47301461 0.00580658 0.08643543
-0.00731088 0.56194090 -0.00000056
-0.06861803 -0.67305620 0.00000094
-0.10096265 0.04193342 0.00000210
-0.45828824 0.20426622 0.00000071
-0.16684062 0.39329295 0.00000555
-0.46378285 0.04728651 0.09120048
-0.66729508 -0.51494172 0.07358430
-0.39371372 -0.53599577 0.00000422
-0.69584391 -0.07011971 -0.00000104
-0.12581348 0.01659072 0.00000318
-0.25328542 0.49477084 0.07611783
-0.01849114 0.57135266 -0.00000007
-0.54019059 0.14701005 0.00000007
-0.07994855 0.28566762 -0.00000412
-0.33733936 -0.70656924 0.00000329
-0.29477501 0.09840338 0.00000221
-0.46886197 -0.29636990 0.00884540
-0.38238033 -0.79998028 0.00000346
-0.23481632 0.09240319 0.00000753
-0.16084312 0.01551509 0.00000204
-0.24214441 0.32660160 0.02763528
-0.65549121 -0.75566610 0.00667593
-0.71731475 -0.25466427 0.16828148
-0.75393745 -0.51573893 -0.00000071
-0.61454397 -0.67429422 0.00233062
-0.10151913 0.16890139 -0.00000586
-0.35873999 -0.59395323 0.00000052
-0.49547173 0.08252111 0.00000288
-0.06717265 -0.36476716 0.00000170
-0.51098473 -0.18097309 0.06279798
-0.39292391 -0.64935599 0.00000038
-0.21665377 0.51069682 0.05809640
-0.42560469 -0.12255298 0.00000132
-0.03495291 0.58675767 0.00000347
-0.32248610 -0.58580871 0.00000054
-0.04041298 0.31444651 0.00000279
-0.34609168 0.30335989 0.00000317
-0.17324002 -0.52807453 0.00000225
-0.67102077 0.04144186 0.21409501
-0.22175181 0.16753301 0.00000698
-0.77687451 -0.57473075 -0.00000056
-0.24550374 0.49682772 0.07196044
-0.67274256 -0.05927675 0.19009698
-0.17008057 0.01957862 0.00000359
-0.44073211 0.11408994 0.09397325
-0.15654070 -0.44870557 0.00000088
-0.33993407 -0.72577390 0.00000326
-0.07160365 0.22300996 -0.00000560
-0.57572096 -0.71696531 0.00000542
-0.22078572 0.21255235 0.00000654
-0.17744953 0.33381597 0.00000444
-0.73570470 -0.26387315 0.17702672
-0.47993009 0.00244573 0.00000412
-0.72542692 -0.47278141 0.11894110
-0.35519704 -0.63191016 0.00000042
-0.42703305 0.02589187 0.00000116
-0.70380202 -0.35665716 0.13482608
-0.31809156 -0.18072272 0.00000443
-0.38533727 0.10543988 0.05859057
-0.21493224 0.00415484 0.00000201
-0.33933180 -0.35606070 0.00000111
-0.46814093 -0.39427086 0.00000525
-0.59437741 -0.71070554 0.00000022
-0.60394668 -0.34683489 0.00000003
-0.24447942 -0.47478293 0.00000081
-0.45459674 0.27737124 0.00000066
-0.14203283 0.01191217 -0.00000790
-0.17961594 -0.27606666 0.00000294
-0.41819415 0.26233718 0.11729619
-0.45770453 -0.68394130 0.00000443
-0.08707707 0.27867105 0.00000349
-0.78449782 -0.31713365 -0.00000121
-0.74416799 -0.46358152 -0.00000084
-0.48889143 -0.72758182 0.00000461
-0.03507526 -0.34428665 0.00000146
-0.25255980 0.24824637 0.00000242
-0.08435369 0.24270503 -0.00000485
-0.32427137 0.19674436 0.00000483
-0.03231822 -0.11612661 0.00000171
-0.75204894 -0.45759797 0.13868765
-0.10119552 0.38156251 0.00000387
-0.65705967 -0.36584266 0.10449793
-0.16335628 -0.56936836 0.00000206
-0.41262684 0.23928185 0.10822538
-0.30703408 -0.14390148 0.00000442
-0.44960527 -0.27489345 0.00262885
-0.55004118 0.03855100 0.00000235
-0.09952448 0.27815181 0.00000772
-0.76983244 -0.26166547 -0.00000135
-0.59381239 0.09827500 -0.00000034
-0.10493345 -0.29485193 0.00000126
-0.07566342 -0.79037737 0.00000071
-0.27249556 0.46061346 0.07915465
-0.37076204 0.38659879 0.00000126
-0.36502818 0.19584162 0.06887226
-0.10707801 0.43315038 -0.00000043
-0.25998403 0.19633428 0.00596841
-0.62158398 0.04379624 0.00000091
-0.51071279 0.03270690 0.00000317
-0.23876884 0.02742515 0.00000423
-0.29494147 0.41978799 0.00000279
-0.36466359 -0.30975401 0.00000453
-0.79184918 -0.40820718 -0.00000098
-0.10301694 0.12021742 0.00000230
-0.24830265 -0.57370574 0.00000057
-0.20310874 0.05168105 0.00000213
-0.78500020 -0.46901705 -0.00000083
-0.02226858 -0.52836865 0.00000088
-0.05884328 -0.67586162 0.00000084
-0.00909576 -0.01621717 0.00000204
