ply
format ascii 1.0
element vertex 1408
property float x
property float y
property float z
end_header
0.20219341 -0.17601473 0.00000000
-0.35807156 -0.61144387 0.00000000
0.68408447 0.63431450 0.18276085
0.59783270 -0.58286934 0.00000000
-0.32907464 0.67261627 0.00000000
0.77209649 -0.75508442 0.00000000
-0.32357011 -0.39872288 0.00000000
0.39258158 -0.43437489 0.00000000
-0.13968051 0.41099465 0.00000000
0.42936498 0.77294873 0.14183506
0.33178837 -0.63873508 0.00000000
-0.32860838 -0.14968776 0.00000000
-0.46999413 0.51823262 0.00000000
0.34599413 -0.74776386 0.00000000
0.00814650 0.71029651 0.00000000
0.18137010 0.55010112 0.00000000
-0.34593776 -0.54559854 0.00000000
-0.24986666 -0.36989891 0.00000000
-0.24161022 -0.70873326 0.00000000
-0.19922484 -0.56831200 0.00000000
-0.74821813 0.63760306 0.00000000
-0.38250177 -0.49655863 0.00000000
0.38050390 -0.30383621 0.00000000
-0.59036716 -0.71733253 0.00000000
0.21886916 0.53367133 0.00000000
0.57442896 -0.38211698 0.00000000
-0.10728941 -0.45461503 0.00000000
0.36282116 0.72631731 0.10193536
-0.09544141 -0.11755790 0.00000000
0.00620213 -0.58769659 0.00000000
0.72856031 0.29125260 0.07749485
0.50510435 0.02196792 0.00000000
0.49950710 0.24994361 0.00000000
-0.28890383 0.46055462 0.00000000
-0.62233832 -0.14875740 0.00000000
-0.04892638 -0.06191970 0.00000000
-0.01446765 0.27925070 0.00000000
0.52519686 -0.09922934 0.00000000
-0.21258164 -0.13565793 0.00000000
0.39597987 -0.34267861 0.00000000
0.37662888 -0.24756037 0.00000000
0.67784098 -0.08973764 0.00000000
0.35535105 0.09825197 0.00000000
-0.54014510 -0.42940660 0.00000000
0.18911647 -0.58991643 0.00000000
0.30724410 -0.09008065 0.00000000
0.46100748 0.61150600 0.09607435
-0.04455123 0.65623380 0.00000000
0.26155871 0.09812140 0.00000000
-0.02560326 -0.52343608 0.00000000
-0.37421613 -0.59423396 0.00000000
0.33809060 0.42551701 0.00000000
0.45847452 0.47283097 0.04629164
0.46119901 0.65308773 0.11080141
0.04454703 0.11531995 0.00000000
-0.26168321 0.62915377 0.00000000
-0.24948826 0.63907612 0.00000000
0.58016326 0.63002739 0.14461219
0.76481500 -0.31013587 0.00000000
0.43942728 -0.56771148 0.00000000
0.24149115 -0.39255885 0.00000000
0.06835676 0.16041802 0.00000000
-0.57812399 0.54628468 0.00000000
-0.15791540 0.45393070 0.00000000
-0.59017537 -0.52662986 0.00000000
-0.44544220 -0.00874255 0.00000000
0.05802370 0.72039122 0.00000000
-0.15519008 -0.26786807 0.00000000
-0.71292544 -0.32045917 0.00000000
-0.04117542 0.25812167 0.00000000
0.05354154 0.56374857 0.00000000
0.47733144 -0.09162397 0.00000000
0.44653991 0.20925842 0.00000000
-0.36786245 -0.03439237 0.00000000
-0.57632864 0.59297796 0.00000000
0.53794502 -0.24875930 0.00000000
-0.24825845 -0.35937255 0.00000000
-0.51866123 -0.13551289 0.00000000
-0.26747510 0.63924824 0.00000000
0.03414120 -0.29294258 0.00000000
-0.05610975 -0.53551268 0.00000000
0.44004777 -0.64820972 0.00000000
0.34543231 0.72209766 0.09431732
0.78245301 -0.76384366 0.00000000
0.40480206 -0.53810324 0.00000000
-0.10619735 -0.00234450 0.00000000
-0.77237591 0.37394577 0.00000000
0.19741732 0.68227062 0.02809391
0.65599143 -0.11297500 0.00000000
-0.07232719 -0.12902258 0.00000000
0.05660821 -0.42381331 0.00000000
-0.76199542 0.02998648 0.00000000
-0.40120698 0.78351718 0.00000000
0.52820789 0.58148918 0.10918340
0.36793202 0.43053170 0.00000000
-0.04851020 0.54946422 0.00000000
-0.44753155 0.20616675 0.00000000
0.54433976 0.64291757 0.13652708
0.65803633 -0.24348143 0.00000000
-0.11333173 -0.08823293 0.00000000
-0.75779420 0.22160916 0.00000000
-0.34782444 0.18531409 0.00000000
-0.66336054 0.23343608 0.00000000
0.43126190 -0.10666291 0.00000000
0.10881443 -0.09495819 0.00000000
0.07774276 -0.42654964 0.00000000
0.26729644 -0.51827424 0.00000000
0.30208542 -0.74463190 0.00000000
0.06128988 0.43536382 0.00000000
-0.52334305 0.28748044 0.00000000
0.26379025 -0.33271326 0.00000000
0.55142235 0.59446788 0.12194322
0.30473080 0.62132969 0.04444251
-0.12789374 0.74196098 0.00000000
-0.24246511 -0.14196468 0.00000000
0.31974807 -0.64564498 0.00000000
0.05514701 -0.69214865 0.00000000
0.75284371 0.51981326 0.16663469
0.31024549 0.07241000 0.00000000
-0.64991718 -0.03214160 0.00000000
-0.00276565 -0.28623858 0.00000000
-0.51973002 -0.45482339 0.00000000
-0.30901282 0.56151313 0.00000000
-0.00102550 -0.00064259 0.00000000
-0.14776830 -0.16633644 0.00000000
-0.50098856 -0.62211695 0.00000000
0.21384604 0.69387299 0.03797625
0.25287179 -0.13151376 0.00000000
-0.32455198 0.32522114 0.00000000
0.60682528 0.13337943 0.00000000
0.07839707 0.12337509 0.00000000
-0.63444397 0.35352549 0.00000000
0.14878945 0.41481306 0.00000000
-0.51023869 0.07250122 0.00000000
0.23876896 0.14405072 0.00000000
0.65711692 0.16164580 0.00661478
0.02355946 0.56053622 0.00000000
-0.52964134 0.57915212 0.00000000
0.63373095 0.24737639 0.02859432
-0.24235864 0.58325060 0.00000000
0.58429867 -0.69151136 0.00000000
-0.23018172 0.68998132 0.00000000
0.58103051 0.54447027 0.11475500
0.32530221 -0.43684498 0.00000000
-0.01813443 -0.75043293 0.00000000
-0.52308365 0.26759746 0.00000000
0.76562622 0.46628796 0.15227094
0.50446058 -0.68495603 0.00000000
0.20732499 -0.46080054 0.00000000
0.59306634 -0.60860529 0.00000000
-0.16762381 -0.06957734 0.00000000
-0.71130686 0.14299658 0.00000000
-0.28325501 -0.45495958 0.00000000
0.26618307 0.34336414 0.00000000
0.65059439 -0.34584085 0.00000000
0.50675835 -0.41899832 0.00000000
0.69304073 -0.07132247 0.00000000
-0.27141480 -0.50344928 0.00000000
-0.58897465 0.04809196 0.00000000
0.73600881 0.11906914 0.01941768
0.32916354 0.60317478 0.04665576
-0.71535433 0.52784231 0.00000000
0.40941136 -0.71479654 0.00000000
0.33136182 0.48735139 0.00659732
-0.40267608 0.09540422 0.00000000
0.17316525 -0.26530681 0.00000000
0.76402012 0.23268952 0.06934981
-0.79962669 -0.70120280 0.00000000
-0.04114440 -0.26574220 0.00000000
-0.66273948 0.79562568 0.00000000
0.32619035 0.40487628 0.00000000
0.73367383 0.52418559 0.16141784
-0.74109074 -0.03342863 0.00000000
-0.63858394 -0.39889803 0.00000000
0.14977630 0.53192424 0.00000000
0.34802299 0.20647462 0.00000000
-0.28979313 0.04957017 0.00000000
-0.53060397 0.31711654 0.00000000
-0.69459615 0.56579163 0.00000000
0.48061831 0.70431690 0.13570836
-0.78522511 0.48064271 0.00000000
-0.07910184 0.74719196 0.00000000
0.47980125 -0.79896542 0.00000000
-0.56336007 0.30846656 0.00000000
0.60858914 0.70735693 0.18189602
-0.19923048 -0.37885499 0.00000000
0.35070260 0.77532162 0.11493932
0.15474926 0.33595711 0.00000000
0.31314785 -0.79478132 0.00000000
0.51043981 0.37343554 0.02957018
0.31731753 -0.01981465 0.00000000
0.68609025 -0.10760481 0.00000000
-0.37957185 0.60795207 0.00000000
0.69092566 0.30407139 0.06874604
0.43566224 0.62528196 0.09199561
-0.00812660 0.67058338 0.00000000
-0.62149034 0.31685270 0.00000000
-0.01903933 0.05396213 0.00000000
-0.79397145 -0.36004425 0.00000000
-0.55721477 0.05076704 0.00000000
-0.31277235 0.06051073 0.00000000
0.52164600 -0.58423607 0.00000000
0.07068809 -0.51037002 0.00000000
0.49761543 0.50051711 0.06985146
0.54103398 0.72779586 0.16528525
0.28742334 -0.41867116 0.00000000
-0.53260903 0.61914232 0.00000000
0.50440443 -0.74801037 0.00000000
0.12446355 0.28278996 0.00000000
0.50880096 0.68075024 0.13733574
0.72751195 -0.22504961 0.00000000
-0.38644219 -0.16242266 0.00000000
-0.72655707 -0.71955649 0.00000000
-0.18943376 0.42367748 0.00000000
0.43649935 -0.56525315 0.00000000
-0.64769705 0.17925220 0.00000000
0.09098023 -0.41620971 0.00000000
-0.12143322 -0.07060904 0.00000000
-0.51279612 -0.59192210 0.00000000
0.08325990 -0.03041003 0.00000000
-0.02920052 -0.71932898 0.00000000
0.76407779 0.50823619 0.16651379
-0.13732877 0.56453448 0.00000000
-0.52526043 0.30355560 0.00000000
-0.03342101 0.22659580 0.00000000
0.65561649 0.40044604 0.09027463
0.29429482 0.22747354 0.00000000
-0.31881819 -0.66618362 0.00000000
0.39715031 -0.28288875 0.00000000
0.62140331 0.19569186 0.00602688
-0.46243716 0.57193828 0.00000000
0.03647461 0.70119079 0.00000000
0.30525263 -0.16805195 0.00000000
0.33393013 0.70222621 0.08325662
-0.75125261 -0.46716766 0.00000000
-0.43359407 0.59951875 0.00000000
-0.14602489 0.63608480 0.00000000
-0.25917041 0.33514708 0.00000000
0.26121072 0.42893741 0.00000000
0.29598245 -0.66403017 0.00000000
0.66758712 -0.42239413 0.00000000
-0.39761439 0.36159373 0.00000000
0.78986982 -0.35647178 0.00000000
0.12841344 0.65211868 0.00000000
-0.43585424 -0.46699156 0.00000000
0.20834597 -0.28933271 0.00000000
0.50147237 -0.08934335 0.00000000
-0.74990050 0.26703114 0.00000000
0.14392013 -0.24502589 0.00000000
0.70846116 -0.68163704 0.00000000
0.44071422 -0.65892115 0.00000000
-0.44606230 0.09316908 0.00000000
-0.72550223 0.44867439 0.00000000
0.67811033 -0.29890911 0.00000000
-0.72464191 0.47798105 0.00000000
0.28282258 0.74968718 0.08197098
0.57284196 -0.54386092 0.00000000
-0.49771019 -0.14308240 0.00000000
-0.33644904 -0.02672472 0.00000000
-0.52901675 0.69406175 0.00000000
0.15642086 -0.57199867 0.00000000
-0.24069973 -0.17253604 0.00000000
-0.61147879 0.57573557 0.00000000
-0.14959456 -0.44108351 0.00000000
-0.57339166 0.79003615 0.00000000
0.35355216 -0.71991440 0.00000000
-0.03554495 0.44052513 0.00000000
0.21792327 0.38756515 0.00000000
0.47165837 -0.29449486 0.00000000
-0.36418831 0.50104133 0.00000000
0.31140999 0.43368433 0.00000000
-0.58151377 -0.23420055 0.00000000
0.21176233 0.69310154 0.03696966
0.00524461 0.27692618 0.00000000
-0.45853364 -0.78769994 0.00000000
-0.69518146 -0.47153237 0.00000000
-0.46877182 -0.67778956 0.00000000
0.57837025 -0.61153230 0.00000000
0.78353701 -0.34726809 0.00000000
0.69365655 -0.21741534 0.00000000
-0.41706663 0.61667620 0.00000000
-0.40339052 0.65599093 0.00000000
-0.21809652 0.09158291 0.00000000
-0.17163779 0.07614124 0.00000000
-0.09818176 -0.56301036 0.00000000
-0.29706553 -0.60550956 0.00000000
0.41324064 -0.79249236 0.00000000
0.65259120 -0.78165615 0.00000000
0.12090318 -0.25112816 0.00000000
0.25081292 -0.66539277 0.00000000
0.01615335 0.45818260 0.00000000
-0.55041530 0.13800103 0.00000000
-0.19909396 0.10815695 0.00000000
-0.67319806 0.49500507 0.00000000
-0.50695187 -0.11803635 0.00000000
-0.42638758 0.03478094 0.00000000
-0.20862078 0.33870939 0.00000000
0.40961787 0.35563593 0.00000000
-0.41018889 -0.43932440 0.00000000
-0.43509345 0.57010849 0.00000000
-0.05877902 -0.36370148 0.00000000
0.08632007 -0.35776877 0.00000000
-0.09269254 -0.63106069 0.00000000
0.23836918 -0.29859831 0.00000000
0.01507673 0.45908161 0.00000000
0.30643958 0.58785592 0.03324380
-0.59206454 -0.03125937 0.00000000
-0.21051038 -0.54873802 0.00000000
-0.67648663 0.37852653 0.00000000
-0.38469080 0.18361017 0.00000000
0.79640625 -0.07703114 0.00000000
-0.74857201 0.21875276 0.00000000
0.28693775 0.01240561 0.00000000
0.79041768 -0.39405410 0.00000000
-0.54725430 0.38222986 0.00000000
0.64131824 0.35701771 0.06992317
0.21345229 -0.38109501 0.00000000
0.53054171 -0.36048040 0.00000000
0.67093749 0.40943476 0.09884500
-0.67880864 0.14250836 0.00000000
0.53096217 -0.24291704 0.00000000
-0.77896046 0.29014032 0.00000000
-0.45133668 0.01836566 0.00000000
0.02059266 0.63563196 0.00000000
-0.63212877 0.17312552 0.00000000
0.76901225 -0.48037562 0.00000000
-0.30154625 0.41155387 0.00000000
0.45320580 -0.36299098 0.00000000
0.61200312 0.08674555 0.00000000
-0.13233791 -0.62455170 0.00000000
-0.41252084 -0.68152685 0.00000000
-0.03049948 0.65471083 0.00000000
-0.35403799 -0.74026869 0.00000000
0.25938044 -0.03537913 0.00000000
0.62204696 0.19244620 0.00510955
-0.75649434 0.45218769 0.00000000
0.19719574 -0.36860419 0.00000000
-0.43980668 -0.40755841 0.00000000
0.20308053 -0.68494921 0.00000000
-0.58836145 0.16538579 0.00000000
-0.00326160 -0.03879032 0.00000000
-0.27630174 -0.65695955 0.00000000
0.74970750 -0.67762056 0.00000000
-0.35147170 0.21993625 0.00000000
0.49388831 0.29778512 0.00000000
-0.73793781 0.15566716 0.00000000
0.49660866 0.14710793 0.00000000
-0.44954767 0.44522508 0.00000000
-0.55405151 -0.35793932 0.00000000
0.59956239 0.09131704 0.00000000
0.63007829 -0.22256906 0.00000000
0.30701037 -0.04477078 0.00000000
0.32561433 -0.41068983 0.00000000
0.47779627 -0.55735531 0.00000000
-0.13655951 -0.68422714 0.00000000
0.63002552 0.22568557 0.01964089
-0.11024575 -0.00567214 0.00000000
0.61587812 0.61216918 0.15090754
0.05921018 0.66360313 0.00000000
-0.74139749 0.41331398 0.00000000
0.58148625 -0.36873140 0.00000000
0.37918330 -0.30159174 0.00000000
0.35293172 -0.50872692 0.00000000
0.37287663 -0.07767204 0.00000000
0.47575831 0.74957879 0.14995194
-0.31240495 0.36673663 0.00000000
-0.62944505 -0.45529743 0.00000000
-0.68238203 -0.14640789 0.00000000
0.72733784 -0.19854341 0.00000000
-0.47044672 0.49335591 0.00000000
0.16924476 0.77410094 0.05053631
-0.66725876 -0.01925894 0.00000000
-0.05288944 -0.33140214 0.00000000
0.52592195 0.60525471 0.11675597
-0.72669060 -0.14448560 0.00000000
0.28756118 -0.40506214 0.00000000
0.23205456 -0.49363849 0.00000000
0.60378675 -0.06135875 0.00000000
0.73337306 -0.11508104 0.00000000
0.08193048 0.34613518 0.00000000
-0.46793280 -0.52057601 0.00000000
-0.07848545 -0.66621599 0.00000000
0.10726246 0.16211916 0.00000000
0.30863144 0.09290328 0.00000000
-0.53558942 0.21765861 0.00000000
0.07367794 0.22711346 0.00000000
-0.11371249 0.60613466 0.00000000
-0.23516584 0.74625656 0.00000000
0.54892122 -0.02157393 0.00000000
-0.68251974 -0.34826780 0.00000000
0.78822404 -0.64395643 0.00000000
-0.23899334 0.03495775 0.00000000
0.39022740 0.02431227 0.00000000
-0.60614368 -0.41518398 0.00000000
-0.36968543 -0.76788737 0.00000000
0.32856703 -0.76066483 0.00000000
0.03257960 0.27370284 0.00000000
0.59511999 0.59532466 0.13765081
-0.07355233 -0.45407365 0.00000000
-0.40998895 0.48331256 0.00000000
-0.53584376 -0.24276281 0.00000000
0.23530101 0.70538989 0.04960043
-0.12483887 0.49268114 0.00000000
-0.05507596 -0.78463347 0.00000000
0.74009240 -0.01326254 0.00000000
0.47650052 -0.44147641 0.00000000
0.42343553 0.36830203 0.00000000
0.63962509 -0.16687637 0.00000000
-0.45087666 0.02043094 0.00000000
-0.45333819 -0.27855404 0.00000000
0.49494389 -0.29122438 0.00000000
0.57507813 0.08990565 0.00000000
-0.54239920 -0.78856636 0.00000000
0.24525973 -0.01042099 0.00000000
0.05956574 -0.55834356 0.00000000
-0.13154313 -0.09010645 0.00000000
0.15413789 0.52753278 0.00000000
-0.60325006 0.47742591 0.00000000
-0.19369222 0.09446210 0.00000000
0.65816012 -0.02312977 0.00000000
-0.24211295 -0.44507306 0.00000000
0.66006800 0.15095415 0.00388585
-0.09552006 0.55554144 0.00000000
-0.63460124 -0.05724674 0.00000000
0.10623859 -0.25539111 0.00000000
-0.38123951 -0.01519636 0.00000000
-0.21255566 -0.70294385 0.00000000
-0.46685766 0.33269238 0.00000000
-0.12197206 -0.16367746 0.00000000
-0.67942851 0.58147464 0.00000000
0.21629353 0.15679932 0.00000000
0.54394248 -0.62996106 0.00000000
-0.23821782 -0.66568456 0.00000000
0.61224243 -0.55227644 0.00000000
-0.58521598 -0.40836640 0.00000000
-0.65422510 -0.16828964 0.00000000
0.50993749 -0.11944451 0.00000000
-0.46279443 0.65707572 0.00000000
0.74621975 0.48489241 0.15198818
0.24798459 0.26885090 0.00000000
-0.74291684 0.14452344 0.00000000
-0.37628115 0.28984061 0.00000000
-0.36607354 0.54283830 0.00000000
-0.13757816 0.15876283 0.00000000
-0.09423763 0.69776026 0.00000000
-0.17996751 0.33690011 0.00000000
-0.06847402 0.12784232 0.00000000
-0.31056356 -0.31611659 0.00000000
0.70528083 -0.36227682 0.00000000
0.08482159 -0.37114706 0.00000000
0.73418191 -0.74597773 0.00000000
0.20878342 0.06045401 0.00000000
0.56987587 0.75657764 0.18560035
0.02880575 0.76170179 0.00000000
0.43595237 0.73084875 0.12931519
-0.38855049 -0.12222909 0.00000000
0.23728778 -0.44137923 0.00000000
-0.04614450 -0.17910949 0.00000000
0.13787931 0.72180695 0.02104234
-0.35324101 0.05690871 0.00000000
-0.08710225 0.45343062 0.00000000
0.72354775 0.15999895 0.02945432
-0.18253295 0.57975024 0.00000000
0.28532239 -0.33149733 0.00000000
-0.59048247 -0.48354743 0.00000000
0.07038547 -0.46608370 0.00000000
-0.27906652 0.59181312 0.00000000
-0.55113621 -0.41224845 0.00000000
-0.29241066 -0.19685153 0.00000000
0.01098999 -0.11813488 0.00000000
0.52031429 0.47187240 0.06775525
-0.41747344 -0.25358113 0.00000000
-0.39520239 -0.14070035 0.00000000
0.61286327 0.58748942 0.14114388
-0.63479796 -0.22565684 0.00000000
0.40766427 0.71252689 0.11288294
0.09017274 -0.75087241 0.00000000
-0.63872623 -0.46710271 0.00000000
0.36210264 -0.43723188 0.00000000
-0.79582025 0.21054610 0.00000000
-0.45088435 -0.33891585 0.00000000
-0.77676404 -0.08076036 0.00000000
0.56488955 0.01371696 0.00000000
-0.63187602 0.45222456 0.00000000
-0.18448830 0.72952465 0.00000000
-0.04754848 0.57051676 0.00000000
0.55653811 -0.16301129 0.00000000
-0.09509886 -0.76164196 0.00000000
0.25350981 0.02890603 0.00000000
-0.51514247 -0.49060713 0.00000000
0.16941742 0.33034037 0.00000000
0.61048173 -0.56739744 0.00000000
0.35915130 0.39709911 0.00000000
-0.75900516 0.49985883 0.00000000
-0.09263535 0.58104063 0.00000000
0.66237285 -0.33331362 0.00000000
0.56463258 -0.48051563 0.00000000
-0.54630601 -0.10756016 0.00000000
0.77868815 -0.27052375 0.00000000
0.05580394 0.61798242 0.00000000
-0.08192415 0.19272379 0.00000000
-0.23858770 0.35084445 0.00000000
-0.68369278 0.11152609 0.00000000
0.78692092 -0.10160801 0.00000000
0.23987267 0.74669977 0.06577585
0.21484972 0.17896774 0.00000000
-0.59277536 -0.49896070 0.00000000
-0.03158008 -0.49925449 0.00000000
-0.72186298 0.71952408 0.00000000
-0.16654518 0.28344625 0.00000000
0.74308408 -0.21973971 0.00000000
-0.52600407 -0.27435574 0.00000000
0.08735947 -0.08633799 0.00000000
-0.51358865 -0.38463002 0.00000000
0.67282968 0.04384493 0.00000000
0.59278595 0.55869733 0.12391507
-0.46791474 -0.19233521 0.00000000
-0.10038765 0.03699472 0.00000000
0.07397785 0.35736379 0.00000000
0.67303788 -0.17946558 0.00000000
-0.71855589 -0.00732050 0.00000000
-0.57509595 0.32437313 0.00000000
-0.06788914 -0.48347164 0.00000000
-0.60873573 0.35751637 0.00000000
0.72507662 0.50824505 0.15276711
0.43530944 -0.57725825 0.00000000
-0.40746943 -0.31068949 0.00000000
-0.30114961 -0.01036520 0.00000000
0.59003612 0.18042962 0.00000000
-0.47775866 -0.09289203 0.00000000
0.51698232 -0.40206603 0.00000000
-0.31361652 0.68963762 0.00000000
0.11619200 0.65987615 0.00000000
0.70173069 0.71726135 0.21822469
0.04165566 -0.62965896 0.00000000
-0.74454477 -0.39248967 0.00000000
-0.41558407 0.05118509 0.00000000
-0.65039904 0.74880694 0.00000000
-0.16679320 0.39874703 0.00000000
-0.60613292 0.36289001 0.00000000
-0.66461391 -0.09111843 0.00000000
0.09652256 -0.32740965 0.00000000
0.70290274 -0.55630884 0.00000000
-0.46960091 0.28843068 0.00000000
0.35987899 0.09132962 0.00000000
0.72477928 -0.50073319 0.00000000
0.21208567 0.46567646 0.00000000
-0.00632296 -0.78799281 0.00000000
0.24213368 -0.58360222 0.00000000
-0.27258860 0.37777617 0.00000000
-0.20605822 -0.02236354 0.00000000
0.46254313 -0.71299997 0.00000000
-0.71270561 -0.62916530 0.00000000
0.64353109 0.06668059 0.00000000
0.03970093 -0.46869873 0.00000000
0.79483425 -0.23711500 0.00000000
-0.22146912 -0.08870684 0.00000000
0.14289256 0.70576303 0.01715348
-0.19413849 -0.20684163 0.00000000
-0.25519153 -0.62228832 0.00000000
0.72862739 -0.17911173 0.00000000
-0.58509215 -0.39371443 0.00000000
-0.01149243 0.01103729 0.00000000
-0.58750826 -0.51955876 0.00000000
-0.06379634 0.65875757 0.00000000
0.15167902 0.52078212 0.00000000
0.22946191 -0.01190008 0.00000000
0.04400738 -0.32055116 0.00000000
-0.73894087 -0.72357185 0.00000000
-0.18265280 0.52382665 0.00000000
-0.00838457 0.75372169 0.00000000
0.48408987 0.40315104 0.03075671
-0.45798616 -0.60156853 0.00000000
0.31601194 -0.65701363 0.00000000
-0.75601733 0.16110010 0.00000000
-0.14164176 -0.11247723 0.00000000
0.72969535 -0.24912875 0.00000000
0.24023142 0.49077116 0.00000000
-0.01826378 0.62374517 0.00000000
0.56803471 -0.09719293 0.00000000
0.66382454 0.73550579 0.21129298
0.03464491 0.48742991 0.00000000
-0.59727975 0.62157410 0.00000000
-0.22928352 0.25744836 0.00000000
0.12221734 -0.79042894 0.00000000
0.75844367 0.55361182 0.18052455
-0.14457702 0.65734785 0.00000000
-0.66982860 -0.72671919 0.00000000
-0.75682832 -0.78759614 0.00000000
-0.71275200 0.44996549 0.00000000
0.48241527 -0.46976948 0.00000000
-0.34763763 0.16035662 0.00000000
-0.29941665 0.07295200 0.00000000
0.00735705 0.30538309 0.00000000
0.75680973 0.41485222 0.13102910
-0.69526479 0.79308202 0.00000000
0.36530240 -0.55844690 0.00000000
0.59334958 -0.28531608 0.00000000
-0.06595964 -0.43244363 0.00000000
-0.08002092 -0.14363920 0.00000000
0.10197089 0.18480759 0.00000000
-0.29417141 -0.22387249 0.00000000
0.18698984 -0.55745560 0.00000000
0.01250465 -0.38166423 0.00000000
0.53985296 -0.46976846 0.00000000
-0.03439171 0.04822658 0.00000000
-0.70111290 0.48423845 0.00000000
0.47696242 -0.65039018 0.00000000
-0.49248817 -0.35152628 0.00000000
-0.77015076 -0.06414755 0.00000000
-0.55122940 -0.47336936 0.00000000
0.28492238 -0.69358945 0.00000000
0.45877277 0.54809491 0.07293102
-0.64165918 -0.01644640 0.00000000
-0.03624289 -0.62825158 0.00000000
0.48280438 0.16934615 0.00000000
0.72800935 0.03741796 0.00000000
0.39943062 0.73019425 0.11620877
-0.06996647 0.71832513 0.00000000
-0.70655362 0.63936597 0.00000000
-0.02477849 -0.09466760 0.00000000
-0.38372748 0.12741324 0.00000000
-0.44761990 -0.76531873 0.00000000
0.55385648 0.48254065 0.08334161
-0.64934570 0.41889026 0.00000000
-0.12287141 0.47856883 0.00000000
-0.43210528 -0.05574692 0.00000000
0.66094344 0.31712696 0.06277857
-0.45060237 0.62547277 0.00000000
-0.37318008 -0.76414984 0.00000000
-0.08057278 -0.34278982 0.00000000
-0.51460203 -0.59971805 0.00000000
0.44187191 -0.32132854 0.00000000
0.31968446 -0.11240631 0.00000000
-0.48693157 0.67832209 0.00000000
0.36484604 -0.37734954 0.00000000
-0.15755402 -0.19197994 0.00000000
0.04203189 -0.60461523 0.00000000
0.47057527 0.61267604 0.09985995
0.67212481 -0.58302210 0.00000000
0.55068549 -0.07694925 0.00000000
0.35680109 -0.32781751 0.00000000
0.09571423 -0.59971953 0.00000000
-0.08362949 -0.05538428 0.00000000
-0.58903739 -0.00403470 0.00000000
-0.22768640 -0.78798478 0.00000000
-0.39242103 0.77845636 0.00000000
-0.76854835 -0.57894822 0.00000000
-0.14333729 -0.46741164 0.00000000
0.21920617 -0.21401281 0.00000000
0.32832159 -0.18578304 0.00000000
0.69753271 -0.02699623 0.00000000
-0.48487382 -0.36073749 0.00000000
0.40263428 0.49386295 0.03402001
-0.49198632 0.58382567 0.00000000
-0.08951079 -0.29930400 0.00000000
0.26013314 0.74910442 0.07376640
0.75088831 0.13094320 0.02884963
0.63780369 -0.50309305 0.00000000
-0.04934420 0.55551412 0.00000000
-0.01863809 -0.08485649 0.00000000
-0.37263736 -0.52005277 0.00000000
0.47405281 -0.08807668 0.00000000
-0.62336983 -0.79236645 0.00000000
-0.33138584 0.70786834 0.00000000
0.06570467 0.23673495 0.00000000
0.59126497 0.75866880 0.19387828
0.34530020 0.56843289 0.04009650
-0.66331282 -0.49183825 0.00000000
-0.04467477 0.38497308 0.00000000
0.73022423 -0.66307221 0.00000000
0.64826731 0.52732713 0.13241545
-0.37973737 0.06911307 0.00000000
-0.05670599 0.64059206 0.00000000
0.54502417 -0.55248062 0.00000000
0.23715502 -0.57705408 0.00000000
0.64704557 -0.68329309 0.00000000
-0.56608810 -0.00600176 0.00000000
0.13196818 -0.59653837 0.00000000
0.46001638 -0.74116891 0.00000000
0.03542383 -0.60904340 0.00000000
-0.66198585 0.07221752 0.00000000
-0.58121646 0.25488067 0.00000000
0.22130529 -0.09944230 0.00000000
0.56165222 -0.78271444 0.00000000
0.56654284 0.28719969 0.01894688
-0.64066560 0.05882923 0.00000000
0.07164345 0.75994120 0.01113514
-0.29598895 0.53864896 0.00000000
0.64286420 0.32824368 0.06032393
-0.43823532 0.27182336 0.00000000
-0.70255702 -0.57324212 0.00000000
-0.00093296 -0.55633298 0.00000000
-0.63153363 -0.08239092 0.00000000
-0.55288858 0.75648834 0.00000000
-0.15632956 0.66312435 0.00000000
-0.53391870 0.57824851 0.00000000
0.28970332 -0.48715823 0.00000000
0.65842422 0.55971209 0.14741349
-0.29258132 -0.51549461 0.00000000
-0.12946403 -0.75088157 0.00000000
0.52342765 0.51256542 0.08319915
-0.57022729 -0.78049854 0.00000000
0.73343651 -0.40624046 0.00000000
0.75831168 -0.54301708 0.00000000
-0.19892122 -0.44816504 0.00000000
-0.24071832 -0.55605089 0.00000000
0.28630301 0.64885577 0.04765011
-0.46203374 -0.69004020 0.00000000
0.61403268 -0.19510703 0.00000000
-0.28691875 0.08002172 0.00000000
-0.06512022 -0.73259323 0.00000000
-0.53960493 -0.14715489 0.00000000
0.18987038 -0.38501388 0.00000000
0.48967032 -0.65916391 0.00000000
0.39964384 0.30953622 0.00000000
0.69843072 0.71147376 0.21502090
0.61603166 0.54969147 0.12893532
0.10491556 -0.72509491 0.00000000
0.75791920 -0.36038447 0.00000000
0.56385683 0.22583198 0.00000000
-0.02581871 0.31059365 0.00000000
0.57782488 -0.69626795 0.00000000
0.18773207 -0.23100457 0.00000000
-0.38522848 -0.62984350 0.00000000
0.54163704 0.44329504 0.06519765
0.20208998 -0.57192476 0.00000000
-0.52369797 0.08044936 0.00000000
-0.76425275 0.63478895 0.00000000
-0.31126439 -0.48076997 0.00000000
-0.03931193 0.65521591 0.00000000
0.33314485 0.51324940 0.01635625
-0.71216002 0.46840159 0.00000000
0.01303241 -0.24067357 0.00000000
-0.25371977 0.37697837 0.00000000
0.71518005 -0.26143197 0.00000000
0.08786134 0.48583574 0.00000000
-0.29000905 -0.47750563 0.00000000
-0.04086433 -0.45941281 0.00000000
-0.03760311 0.18086779 0.00000000
-0.73931893 -0.49854848 0.00000000
0.58600542 -0.04765477 0.00000000
-0.17332422 0.61951040 0.00000000
0.75325680 0.55522050 0.17926306
0.18414769 -0.00426332 0.00000000
0.75545959 0.26175060 0.07657727
0.55487993 -0.45076359 0.00000000
0.75906538 -0.05497243 0.00000000
0.51880543 -0.09588267 0.00000000
0.76204497 -0.49863880 0.00000000
-0.63762855 0.24439187 0.00000000
-0.69268701 0.74926340 0.00000000
0.45321063 0.31482145 0.00000000
0.31055323 -0.71276607 0.00000000
0.53234034 0.47169265 0.07193165
-0.44468242 0.00568982 0.00000000
0.76597763 -0.71362217 0.00000000
0.05345489 0.33146128 0.00000000
0.51371702 -0.35013984 0.00000000
0.38387465 0.49401290 0.02745918
-0.33689305 0.45304925 0.00000000
0.02939488 -0.66675345 0.00000000
0.23797039 0.31810735 0.00000000
0.00574198 -0.69893154 0.00000000
0.64091254 0.51072424 0.12396923
0.14233418 -0.70850484 0.00000000
0.41342642 0.57535235 0.06655379
0.76652359 -0.74333126 0.00000000
0.46437834 -0.54201339 0.00000000
0.39144831 -0.58902679 0.00000000
-0.41807490 -0.10002763 0.00000000
0.48966718 0.34568687 0.01246404
-0.31943209 0.26586456 0.00000000
-0.54345129 0.50372020 0.00000000
0.59363845 -0.68169296 0.00000000
-0.42332814 0.78401164 0.00000000
0.60896843 -0.71704131 0.00000000
0.43516921 -0.38341323 0.00000000
-0.69515268 -0.59277636 0.00000000
-0.42148544 -0.21441742 0.00000000
-0.59215679 -0.59777978 0.00000000
0.26677511 -0.44544110 0.00000000
0.72643476 -0.12120329 0.00000000
0.57347670 -0.04493189 0.00000000
-0.31059779 -0.37752296 0.00000000
-0.31908358 0.38994376 0.00000000
-0.68678833 0.25962744 0.00000000
-0.37056184 -0.40033599 0.00000000
0.42558883 -0.30474358 0.00000000
0.56635262 0.52876371 0.10404301
-0.68829464 0.47641173 0.00000000
-0.61327572 -0.65831902 0.00000000
-0.43773995 0.54233300 0.00000000
0.66559343 0.42742707 0.10330412
-0.30358290 -0.13247349 0.00000000
0.54601698 -0.17121254 0.00000000
0.75648918 -0.40477560 0.00000000
-0.62285664 -0.51630881 0.00000000
-0.34370928 0.41279566 0.00000000
-0.23538847 -0.33107989 0.00000000
-0.01367772 -0.19934411 0.00000000
-0.73756266 -0.13326346 0.00000000
0.25718951 0.38014963 0.00000000
0.19951604 0.19207249 0.00000000
0.20076450 -0.38809616 0.00000000
-0.28249099 0.57845327 0.00000000
0.07953600 0.14904629 0.00000000
-0.00804944 0.72365159 0.00000000
-0.59118481 -0.61358923 0.00000000
-0.72450334 0.23681357 0.00000000
0.35959260 0.26028806 0.00000000
0.43959845 0.72633073 0.12900779
0.28418364 0.03333036 0.00000000
-0.20102322 -0.44425214 0.00000000
0.34930270 -0.17370641 0.00000000
-0.18051740 0.64898695 0.00000000
0.73964969 -0.77036975 0.00000000
0.23273746 -0.45613797 0.00000000
-0.14742651 -0.73568187 0.00000000
0.73641693 0.60546393 0.19103938
-0.08293268 0.08958551 0.00000000
0.56545204 -0.34200084 0.00000000
-0.32105566 -0.24235332 0.00000000
-0.10423277 -0.22429351 0.00000000
-0.16175398 -0.52760623 0.00000000
0.75211032 -0.39245399 0.00000000
0.26876510 -0.53849092 0.00000000
0.40747859 -0.70938233 0.00000000
-0.36414000 -0.19039133 0.00000000
0.04702954 -0.71442167 0.00000000
0.75835885 0.31870881 0.09767996
0.19531657 -0.38337636 0.00000000
0.22353828 -0.06756426 0.00000000
-0.31594600 -0.04253076 0.00000000
0.76512933 -0.59370589 0.00000000
0.36918045 0.29531722 0.00000000
-0.42468608 -0.58389505 0.00000000
0.36089483 0.39920609 0.00000000
0.64351276 0.48068186 0.11429453
-0.49634407 0.70642982 0.00000000
0.65308457 0.46631966 0.11260569
0.65952155 -0.79705194 0.00000000
0.12154539 0.24734133 0.00000000
0.74187231 0.28554613 0.08017618
0.79984672 -0.03145233 0.00000000
0.53797394 -0.04862214 0.00000000
-0.09190409 -0.09071788 0.00000000
0.18498722 0.64536265 0.01069982
0.42851594 0.12880588 0.00000000
-0.32567847 -0.56529146 0.00000000
0.52584216 -0.15240933 0.00000000
0.71810821 0.06973625 0.00000000
0.01204609 -0.37993297 0.00000000
-0.16594750 0.29780153 0.00000000
-0.26464580 0.45085973 0.00000000
-0.02899184 -0.33416754 0.00000000
0.35960327 0.56540933 0.04407308
0.61179616 0.39867151 0.07420020
0.12343179 0.42629419 0.00000000
-0.63499521 0.63984862 0.00000000
0.19159951 -0.35066842 0.00000000
-0.62446849 0.53355869 0.00000000
0.77683375 -0.74980993 0.00000000
0.27383362 0.06796121 0.00000000
0.49798409 -0.04442204 0.00000000
-0.08447754 0.64297961 0.00000000
0.49065020 0.31216764 0.00099342
0.60992927 -0.76482911 0.00000000
-0.40993523 -0.50731948 0.00000000
-0.02161130 0.23080245 0.00000000
0.62060808 0.08189291 0.00000000
0.05509290 0.29833991 0.00000000
-0.43946434 -0.65530838 0.00000000
0.33440453 -0.25129103 0.00000000
-0.01429891 -0.09169559 0.00000000
0.54195543 -0.12529737 0.00000000
-0.38998376 -0.64520659 0.00000000
0.20885011 0.11257645 0.00000000
0.09148820 -0.34241342 0.00000000
-0.26962514 0.02186843 0.00000000
0.39031307 -0.08090650 0.00000000
-0.27822987 -0.52794088 0.00000000
0.18705651 0.06009607 0.00000000
-0.51758929 0.40331348 0.00000000
0.26281091 -0.29516477 0.00000000
0.45203821 -0.47320521 0.00000000
0.32298416 -0.41515330 0.00000000
0.15869706 0.23355628 0.00000000
0.56910147 -0.31542639 0.00000000
-0.62047495 0.20152450 0.00000000
-0.09782682 -0.59410222 0.00000000
-0.41318420 0.55743646 0.00000000
-0.00011593 -0.69704455 0.00000000
-0.25099727 0.37705964 0.00000000
-0.10482909 -0.53349655 0.00000000
-0.02116472 -0.76367064 0.00000000
-0.03830363 -0.70047799 0.00000000
-0.22354589 0.56005535 0.00000000
0.28432786 0.37496807 0.00000000
-0.18332094 0.79684641 0.00000000
0.60215926 0.27139773 0.02593245
-0.61273440 0.24802722 0.00000000
-0.63331393 -0.67872868 0.00000000
0.17647588 0.43485452 0.00000000
-0.57223629 -0.77930368 0.00000000
-0.51555198 0.17907638 0.00000000
-0.61662393 0.62251201 0.00000000
-0.10854011 -0.27900458 0.00000000
0.65184544 -0.16992673 0.00000000
0.33793779 -0.77247840 0.00000000
-0.51139244 -0.02430274 0.00000000
0.55842296 0.38756653 0.05146847
-0.26131776 0.42498398 0.00000000
-0.53189344 -0.10876039 0.00000000
0.29901677 0.51442947 0.00474046
0.15666746 -0.30492336 0.00000000
-0.53667461 -0.69952266 0.00000000
0.40447239 0.16815400 0.00000000
-0.32358627 -0.19324311 0.00000000
0.31503282 0.04419825 0.00000000
0.43707506 0.49095652 0.04513742
-0.42350648 -0.05565946 0.00000000
0.47081159 -0.47306164 0.00000000
-0.70507741 0.32555520 0.00000000
-0.36621259 -0.40281206 0.00000000
0.35385746 0.75973323 0.11055592
-0.72556725 0.30756974 0.00000000
0.56982778 0.55169051 0.11335097
-0.65620474 -0.32649645 0.00000000
0.26697339 0.59153899 0.02062849
-0.34803706 -0.00877316 0.00000000
0.37838317 -0.37283859 0.00000000
-0.28117650 0.47556918 0.00000000
-0.38538984 -0.69112902 0.00000000
-0.46858728 0.61625681 0.00000000
-0.19754157 0.36728504 0.00000000
-0.78347249 0.43716034 0.00000000
-0.27223066 -0.71105079 0.00000000
-0.48095855 0.28352288 0.00000000
-0.23529421 -0.23231844 0.00000000
-0.49463193 0.77761088 0.00000000
0.77583223 0.10819892 0.02962511
-0.53159168 -0.26860634 0.00000000
-0.10399970 -0.32950665 0.00000000
0.59486110 -0.33539461 0.00000000
-0.73819076 -0.03846056 0.00000000
-0.54062446 0.79448379 0.00000000
0.47034769 0.36592616 0.01278831
-0.65663554 -0.47265346 0.00000000
-0.69674529 0.61575602 0.00000000
-0.13950573 0.17247453 0.00000000
-0.11737864 0.31559450 0.00000000
-0.34768683 0.52393739 0.00000000
0.04253322 0.25132267 0.00000000
-0.78516817 -0.48124904 0.00000000
0.79286602 -0.64749964 0.00000000
-0.30134720 -0.49438249 0.00000000
0.74596212 0.53414582 0.16926151
0.56448801 0.59466661 0.12661956
0.74376636 -0.39058466 0.00000000
-0.07189602 -0.17858528 0.00000000
0.20981731 0.13479267 0.00000000
0.10606477 -0.66466590 0.00000000
-0.43474830 -0.69854158 0.00000000
0.65174823 -0.57699823 0.00000000
-0.62451991 0.00630990 0.00000000
0.26733640 0.65888602 0.04449960
0.70702166 0.58986634 0.17517724
0.38969900 -0.78761300 0.00000000
-0.52862148 0.36980431 0.00000000
0.58475266 -0.62069396 0.00000000
0.53125001 0.12546076 0.00000000
-0.18782168 -0.52551184 0.00000000
0.55136557 -0.18234499 0.00000000
0.43916712 -0.49708686 0.00000000
0.43956608 0.69696049 0.11864198
0.23116393 0.11129338 0.00000000
-0.27423194 0.01213228 0.00000000
-0.05428885 0.79124365 0.00000000
-0.58600553 -0.34428296 0.00000000
-0.39246632 -0.73271577 0.00000000
0.41631526 -0.26445152 0.00000000
-0.74716587 -0.59001872 0.00000000
-0.41990664 -0.21395803 0.00000000
-0.02493687 -0.69495131 0.00000000
0.50378846 -0.72262070 0.00000000
0.17836952 0.31408149 0.00000000
0.08865855 -0.77843906 0.00000000
-0.19541238 0.10621864 0.00000000
0.54262207 0.61125082 0.12475748
0.65127999 0.54034450 0.13806681
-0.35010307 -0.49223894 0.00000000
-0.21253685 -0.62942963 0.00000000
0.60516545 -0.50974972 0.00000000
-0.45048817 0.64538395 0.00000000
-0.21665646 0.37747951 0.00000000
-0.07767341 0.44968893 0.00000000
-0.67704265 -0.65639522 0.00000000
-0.17064208 0.47726452 0.00000000
-0.35674981 -0.69834489 0.00000000
-0.49015092 0.23364264 0.00000000
0.28578074 0.30890848 0.00000000
0.78523016 -0.43877961 0.00000000
0.24785729 -0.34299106 0.00000000
-0.57937783 -0.58263050 0.00000000
-0.32945656 -0.55318622 0.00000000
0.39488414 0.11980894 0.00000000
-0.77778098 0.04680401 0.00000000
0.60943292 -0.23460634 0.00000000
-0.05134754 0.03364295 0.00000000
-0.48308306 -0.51874041 0.00000000
0.77884351 0.10976683 0.03123949
0.65864508 -0.31724515 0.00000000
-0.27598803 0.42415118 0.00000000
-0.28086538 -0.33137869 0.00000000
0.35026615 0.17661369 0.00000000
-0.35418444 -0.62496587 0.00000000
-0.71600712 -0.22993627 0.00000000
-0.56486366 0.38173326 0.00000000
0.73998229 -0.40784964 0.00000000
-0.13442593 -0.24678681 0.00000000
-0.15061276 0.39135639 0.00000000
-0.48394004 0.11692762 0.00000000
-0.57975258 -0.29207967 0.00000000
-0.53595205 0.47878072 0.00000000
-0.21865545 0.11858309 0.00000000
-0.12071279 0.54697700 0.00000000
-0.66344448 0.51536471 0.00000000
-0.45073522 -0.38865947 0.00000000
-0.26265251 0.46660883 0.00000000
0.08422686 0.32212553 0.00000000
-0.53717943 0.46183311 0.00000000
0.77300042 -0.79618094 0.00000000
-0.56528547 0.61870084 0.00000000
0.71709985 0.45392484 0.13080444
-0.45185474 0.72873904 0.00000000
-0.39517958 0.30430558 0.00000000
-0.08264804 0.44615502 0.00000000
-0.23083332 -0.70142951 0.00000000
0.16956303 0.31196080 0.00000000
0.72707662 -0.21294467 0.00000000
0.67944306 -0.55050848 0.00000000
-0.36203002 0.08674697 0.00000000
0.29233505 -0.11657507 0.00000000
0.63780173 0.52787354 0.12891847
0.31968483 0.68355646 0.07165249
0.74107501 0.11309167 0.01909641
0.57415430 0.05398671 0.00000000
-0.22089936 0.44077937 0.00000000
-0.16902831 0.42306268 0.00000000
-0.74566960 -0.28796001 0.00000000
-0.18738526 0.31185362 0.00000000
0.21744951 0.66151456 0.02783871
0.08963304 0.72980186 0.00685175
0.79293945 -0.52392259 0.00000000
0.28656589 0.52969202 0.00573171
0.41908361 0.10186836 0.00000000
0.30167223 0.30133541 0.00000000
-0.76545685 -0.78915533 0.00000000
-0.36033087 0.50164311 0.00000000
-0.27844794 0.07451686 0.00000000
0.05652056 0.61816284 0.00000000
-0.21821576 0.57833836 0.00000000
-0.33189074 0.62404207 0.00000000
0.46051711 -0.00810319 0.00000000
-0.29667640 0.28737156 0.00000000
-0.52787363 -0.00058668 0.00000000
0.21506522 -0.22861844 0.00000000
0.07421880 -0.78230035 0.00000000
0.27345896 0.13643780 0.00000000
-0.32998694 -0.29919775 0.00000000
0.69136749 0.30690896 0.06990219
-0.30804016 -0.14053139 0.00000000
0.18160094 -0.02521567 0.00000000
-0.66353350 0.35468233 0.00000000
0.27463584 0.71772428 0.06781632
0.40306789 -0.21868609 0.00000000
-0.03580684 -0.61068320 0.00000000
0.72589687 -0.14707994 0.00000000
0.02534119 0.12840781 0.00000000
0.21113519 0.53044487 0.00000000
0.02370302 0.27765845 0.00000000
0.06744309 0.59313604 0.00000000
0.36316964 -0.03105611 0.00000000
0.52219697 0.29411747 0.00575164
-0.64989476 -0.26139430 0.00000000
-0.08284402 -0.78784862 0.00000000
-0.62218248 0.45661686 0.00000000
-0.74905985 0.45526555 0.00000000
0.48506778 0.58096007 0.09378788
-0.73091639 0.38877567 0.00000000
0.58055850 -0.56980335 0.00000000
-0.79395366 -0.08213767 0.00000000
-0.20136158 0.45149871 0.00000000
0.27783316 -0.02307267 0.00000000
0.18974750 -0.13256190 0.00000000
0.26249052 -0.64517095 0.00000000
0.65657732 -0.51543161 0.00000000
0.05181295 0.78575059 0.01324298
0.40194550 -0.34451978 0.00000000
0.61970810 -0.69830766 0.00000000
-0.16938821 -0.05691777 0.00000000
0.08555540 0.01411755 0.00000000
0.74035866 -0.39257709 0.00000000
-0.18638605 -0.14863223 0.00000000
0.40891466 0.32386066 0.00000000
0.41251728 0.25318461 0.00000000
-0.02207180 -0.64966299 0.00000000
-0.40714188 0.06881645 0.00000000
0.43786003 -0.03725045 0.00000000
-0.46794234 -0.52811383 0.00000000
-0.51386110 -0.44150144 0.00000000
-0.69059087 0.50122689 0.00000000
0.73253507 0.61832596 0.19420531
-0.11640568 -0.62939920 0.00000000
0.45870064 0.21249726 0.00000000
-0.71420019 0.52393151 0.00000000
-0.39032280 -0.44189950 0.00000000
0.69033010 -0.23913887 0.00000000
-0.57689230 -0.70568713 0.00000000
0.57450232 0.06964714 0.00000000
-0.78514538 0.10468343 0.00000000
0.01930039 -0.43046190 0.00000000
0.55906883 -0.06460844 0.00000000
0.09386146 -0.72118399 0.00000000
0.67165220 0.60359916 0.16754926
0.47100632 0.73864614 0.14442235
0.77072707 -0.05697610 0.00000000
-0.37261334 0.63771658 0.00000000
-0.70322140 -0.04526708 0.00000000
0.41809240 0.48476489 0.03626225
-0.68393416 0.31318704 0.00000000
-0.13153815 0.26811459 0.00000000
-0.07380523 -0.40127466 0.00000000
-0.50054124 -0.58049556 0.00000000
-0.35320009 -0.29627382 0.00000000
-0.51505495 0.66911144 0.00000000
-0.71901256 0.76867783 0.00000000
-0.69738265 -0.27983529 0.00000000
0.59760517 0.39296348 0.06718481
-0.48807891 -0.36373030 0.00000000
-0.20456911 0.31252510 0.00000000
-0.05379298 -0.11333904 0.00000000
0.50437466 -0.69198076 0.00000000
-0.31465837 -0.45776983 0.00000000
0.11654014 -0.16958486 0.00000000
0.02012088 -0.40341361 0.00000000
0.35156047 0.70049633 0.08886230
-0.64814405 0.79376171 0.00000000
-0.29707514 0.22272527 0.00000000
-0.53779040 0.52535425 0.00000000
-0.44747263 0.32418524 0.00000000
-0.43917280 0.03408322 0.00000000
-0.44352224 0.34212778 0.00000000
0.52903341 -0.26694730 0.00000000
-0.47392790 0.13811527 0.00000000
-0.06405536 0.00705628 0.00000000
0.00292251 -0.69789534 0.00000000
-0.47278813 -0.23574560 0.00000000
-0.61049573 0.41935527 0.00000000
-0.04993823 0.31624982 0.00000000
-0.79887876 -0.28555393 0.00000000
0.02284124 0.22890793 0.00000000
0.52695989 -0.54722936 0.00000000
-0.73812701 0.62321772 0.00000000
0.04382574 -0.24699610 0.00000000
0.41367781 0.12585334 0.00000000
0.28617085 -0.40967002 0.00000000
0.66321474 0.54226976 0.14295313
0.61369926 0.31505239 0.04539128
-0.51233578 0.08386697 0.00000000
-0.10293568 0.56861477 0.00000000
-0.35847149 -0.02030683 0.00000000
0.07014052 -0.58549085 0.00000000
0.12783372 -0.34266721 0.00000000
-0.20339319 -0.02282672 0.00000000
0.03234390 0.64886126 0.00000000
-0.35094992 0.28493989 0.00000000
-0.47456867 -0.12276886 0.00000000
-0.38538286 -0.63325256 0.00000000
0.65510180 -0.21293872 0.00000000
0.51686752 0.26545859 0.00000000
-0.35995739 0.79237005 0.00000000
-0.40157364 0.35841753 0.00000000
-0.25678326 0.68980707 0.00000000
0.48075951 0.50071528 0.06397878
0.15286893 0.25005423 0.00000000
0.74506179 -0.61123159 0.00000000
-0.22187537 -0.70152255 0.00000000
-0.27409618 0.66145468 0.00000000
0.29911433 0.51088080 0.00352377
0.03075956 0.32207155 0.00000000
-0.76129323 0.31005351 0.00000000
0.35951282 -0.64164041 0.00000000
0.64274847 -0.54137331 0.00000000
-0.59775311 0.43138613 0.00000000
0.46341849 -0.65044063 0.00000000
-0.06951829 -0.10294305 0.00000000
0.39560536 0.00722437 0.00000000
0.30719937 0.64906878 0.05509220
-0.07598873 0.46054127 0.00000000
-0.14875088 0.00809662 0.00000000
-0.39093986 0.76829568 0.00000000
0.13400688 0.31534295 0.00000000
-0.60177081 0.77220369 0.00000000
-0.07831991 -0.43362509 0.00000000
0.65492501 0.42806181 0.09976676
-0.48223635 0.05654118 0.00000000
-0.58403635 0.50441211 0.00000000
0.43131311 0.48265780 0.04018034
-0.49607896 -0.68006575 0.00000000
0.65203231 0.60835158 0.16230776
-0.62062039 0.15318219 0.00000000
-0.69854745 -0.46019213 0.00000000
0.15184991 -0.33737693 0.00000000
-0.65480525 -0.27033627 0.00000000
0.28152248 0.36887958 0.00000000
-0.36074676 -0.40590348 0.00000000
-0.40056413 -0.51163384 0.00000000
0.76409209 0.47461977 0.15466745
-0.25788223 0.14436828 0.00000000
-0.70321876 -0.03692205 0.00000000
-0.73937421 -0.01755586 0.00000000
0.73928324 -0.55556281 0.00000000
0.20805216 -0.01168957 0.00000000
0.00157247 0.17562452 0.00000000
-0.35125835 0.21890670 0.00000000
-0.13797969 -0.27324940 0.00000000
0.48410408 0.00996205 0.00000000
0.04160825 0.23473803 0.00000000
0.08726178 0.00717058 0.00000000
-0.24213326 -0.50620310 0.00000000
0.48914376 0.74685305 0.15371000
0.64840696 0.41498128 0.09285730
0.29799712 -0.59814728 0.00000000
-0.17686809 0.58697645 0.00000000
-0.00158281 0.14200174 0.00000000
0.28750056 -0.35979327 0.00000000
0.27428185 -0.06228770 0.00000000
-0.73080481 0.60081014 0.00000000
-0.11424294 -0.10335997 0.00000000
-0.62557582 -0.02185222 0.00000000
-0.28868929 -0.52090913 0.00000000
-0.37835934 -0.44569290 0.00000000
0.21353839 -0.47456597 0.00000000
-0.71330804 -0.18357568 0.00000000
-0.61320187 0.52535213 0.00000000
-0.73862718 0.35066524 0.00000000
-0.44488061 0.41618168 0.00000000
0.58281907 -0.71840901 0.00000000
-0.51558317 0.68479758 0.00000000
0.27077821 0.10592204 0.00000000
-0.74065863 0.21084595 0.00000000
-0.27377792 0.40461123 0.00000000
0.58773062 -0.44810639 0.00000000
-0.28063880 0.67094902 0.00000000
-0.19244957 -0.21892054 0.00000000
-0.63935671 -0.03902387 0.00000000
0.71477691 0.07207728 0.00000000
-0.00003211 -0.60614762 0.00000000
-0.70670317 -0.28060592 0.00000000
0.42407975 0.32846609 0.00000000
-0.65406016 0.27046022 0.00000000
0.11975639 0.56546736 0.00000000
0.14839500 -0.41757090 0.00000000
0.22918143 0.12748864 0.00000000
0.59887689 0.35772810 0.05521095
0.44788786 0.39737050 0.01595579
0.23904812 -0.78160236 0.00000000
-0.63325682 0.65745303 0.00000000
0.03851313 -0.30193694 0.00000000
-0.57856428 0.34673606 0.00000000
0.33978775 0.57524154 0.04055347
-0.73187116 0.15313340 0.00000000
0.57060005 -0.68314966 0.00000000
-0.40565785 -0.11706235 0.00000000
-0.61305709 0.46607988 0.00000000
0.72549108 -0.71841897 0.00000000
0.00823232 0.25488542 0.00000000
0.07935360 0.55834267 0.00000000
-0.61568012 -0.06449746 0.00000000
0.60256568 0.35240946 0.05463635
0.27575541 0.78339501 0.09136306
0.18207570 0.06831725 0.00000000
0.76630234 0.22587326 0.06775134
0.07486603 -0.20523795 0.00000000
-0.02484419 -0.24704982 0.00000000
-0.23498710 -0.15271285 0.00000000
0.24089593 -0.53862304 0.00000000
0.58054686 0.10796524 0.00000000
-0.04165424 -0.68472749 0.00000000
-0.13414619 -0.33220021 0.00000000
-0.12060945 -0.39358510 0.00000000
0.02534477 -0.69329013 0.00000000
-0.38068627 0.02006485 0.00000000
-0.63808554 0.06691313 0.00000000
-0.46643585 0.11876825 0.00000000
0.11355464 0.43240111 0.00000000
0.39662798 -0.74385590 0.00000000
0.15960721 0.49466803 0.00000000
-0.73001192 -0.79878658 0.00000000
-0.68015082 0.38943681 0.00000000
-0.17702707 -0.59436066 0.00000000
-0.37006910 0.38210822 0.00000000
-0.67413878 0.35461659 0.00000000
0.53040744 -0.48295683 0.00000000
-0.61685013 0.44340966 0.00000000
-0.69955794 -0.72995493 0.00000000
0.22666759 0.74069738 0.05900430
-0.40115215 0.50828110 0.00000000
-0.64984082 0.00695798 0.00000000
-0.54514707 0.34749410 0.00000000
0.66284069 0.31889302 0.06407006
-0.55791600 0.40098467 0.00000000
0.54065472 0.41741585 0.05572764
0.11064460 0.69723786 0.00277895
0.61827203 0.39548562 0.07536008
0.51629478 0.30226729 0.00654404
-0.26216083 0.32992715 0.00000000
0.30798895 0.20856264 0.00000000
0.49456581 -0.21991487 0.00000000
-0.50273357 0.05531497 0.00000000
0.36659561 0.40879951 0.00000000
0.19053676 -0.56832310 0.00000000
0.41676812 -0.57949045 0.00000000
-0.59722990 -0.38510052 0.00000000
0.10436750 0.45280234 0.00000000
-0.22079404 0.46088207 0.00000000
-0.58284637 -0.54342192 0.00000000
0.53227919 0.12828318 0.00000000
0.78142934 -0.02402044 0.00000000
0.36260873 0.05989377 0.00000000
-0.63527058 -0.78803670 0.00000000
-0.15058762 -0.39534207 0.00000000
-0.20859547 -0.11551933 0.00000000
-0.26863988 -0.29879445 0.00000000
0.27566662 0.36613565 0.00000000
-0.63112731 0.11698233 0.00000000
-0.62955439 0.09271206 0.00000000
0.08534835 0.22319528 0.00000000
0.58375962 -0.33657673 0.00000000
0.60724965 -0.17112877 0.00000000
-0.05035084 -0.01750315 0.00000000
0.60409072 0.70319376 0.17884240
-0.77497867 -0.70649878 0.00000000
0.63638838 -0.12583312 0.00000000
0.07898164 0.65288011 0.00000000
0.49383763 0.36618984 0.02116263
0.16904078 0.19415382 0.00000000
0.05996442 -0.69993779 0.00000000
-0.16804725 -0.58644546 0.00000000
0.27204733 -0.78945173 0.00000000
0.77631498 -0.32565509 0.00000000
0.14147792 -0.06621292 0.00000000
-0.76393350 0.42013299 0.00000000
-0.18187157 -0.47051801 0.00000000
0.21292943 0.40228476 0.00000000
0.16123306 0.11665787 0.00000000
-0.65890989 -0.39531579 0.00000000
-0.75288495 -0.41440344 0.00000000
-0.50851038 -0.17060015 0.00000000
0.33408136 -0.21938961 0.00000000
-0.36138218 0.66063871 0.00000000
-0.08939578 -0.17217868 0.00000000
-0.16087284 0.20994394 0.00000000
-0.42840067 0.00307484 0.00000000
0.09781688 0.65282988 0.00000000
-0.00768397 -0.66358965 0.00000000
0.07210518 0.07535611 0.00000000
-0.26544691 -0.43803834 0.00000000
0.28634319 -0.37617324 0.00000000
-0.60855835 0.09319099 0.00000000
-0.29404672 -0.39568351 0.00000000
0.14171359 0.54428690 0.00000000
0.06613311 0.15088095 0.00000000
-0.59025280 -0.58064593 0.00000000
-0.20191269 0.36507466 0.00000000
0.15863479 -0.60402625 0.00000000
0.65926459 -0.43127305 0.00000000
0.46587903 0.41399015 0.02815781
0.40216335 0.09474463 0.00000000
0.18240414 -0.64771830 0.00000000
-0.51302293 0.18882236 0.00000000
0.42169323 -0.65566612 0.00000000
0.39627328 -0.62983812 0.00000000
-0.28966702 0.41931019 0.00000000
-0.49761995 0.66471371 0.00000000
-0.25468530 0.36681654 0.00000000
-0.62792529 -0.26370786 0.00000000
-0.02766388 0.50411180 0.00000000
-0.42015698 0.04927818 0.00000000
-0.63192741 0.67458704 0.00000000
-0.25380565 0.52016588 0.00000000
-0.18108392 0.14203321 0.00000000
-0.79647846 0.39352811 0.00000000
0.44702812 -0.23259037 0.00000000
0.11306645 0.58728815 0.00000000
-0.14115467 0.36528633 0.00000000
0.19648266 0.02793095 0.00000000
0.14001370 -0.25237856 0.00000000
-0.37429838 0.58451730 0.00000000
-0.28967058 0.33017894 0.00000000
0.32127281 -0.04971775 0.00000000
-0.59221975 0.41383735 0.00000000
-0.08041401 -0.47933352 0.00000000
-0.57792214 -0.38872943 0.00000000
0.10427036 0.14747511 0.00000000
-0.10266216 0.40657869 0.00000000
