ply
format ascii 1.0
element vertex 1381
property float x
property float y
property float z
end_header
-0.05045655 -0.16508029 0.04013604
-0.50477935 0.09225836 0.40153195
-0.08939754 0.15161068 0.00000838
-0.15524092 -0.21718275 0.00000000
-0.09846975 0.33983611 0.00000000
-0.15541161 0.49961135 0.12362209
-0.13304080 0.41592765 0.10582465
-0.06400706 -0.08119449 0.00000000
-0.25375444 0.26651527 0.20185161
-0.03337753 0.20221083 0.02655041
-0.43987465 -0.73730791 0.00000000
-0.17870393 0.10479499 0.00000000
-0.30776666 -0.53675575 0.00000000
-0.05374050 0.67166040 0.04274736
-0.09113705 -0.50209650 0.00000000
-0.02809302 0.10015181 0.02233475
-0.25593654 0.44125050 0.00000108
-0.42027883 -0.37486860 0.33431431
-0.06303208 -0.72146136 0.05013934
-0.01418352 0.16908896 0.00000925
-0.01935322 0.04784058 0.00001099
-0.29576620 0.17856478 0.23526606
-0.28073979 -0.24360178 0.22331657
-0.15393341 0.60083711 0.12244826
-0.16265501 0.42850156 0.12938269
-0.03459390 -0.44123214 0.00000000
-0.46071425 0.01308365 0.36647703
-0.11163127 0.61226445 0.00000099
-0.04763293 0.70663123 -0.00000004
-0.08381467 0.06744719 0.06665974
-0.26768753 -0.25972012 0.00000000
-0.02516478 0.66978122 0.02001751
-0.49093105 -0.11791071 0.39051656
-0.72641283 -0.54206690 -0.00000064
-0.05360377 -0.11472508 0.00000000
-0.53435928 -0.63499588 0.42506073
-0.06074203 0.13575946 0.04830711
-0.69819355 -0.61546766 -0.00000046
-0.44346047 0.20578861 0.35275626
-0.34308871 0.06725782 0.00000565
-0.18060256 0.55636905 0.00000060
-0.54391940 -0.47892664 -0.00000006
-0.52230474 -0.12285549 -0.00000060
-0.03358878 0.52290221 0.02671423
-0.09174630 -0.28893663 0.07298028
-0.46977891 -0.02907675 0.37369100
-0.38940158 -0.40761970 0.00000000
-0.45029413 0.05703770 0.35819176
-0.22058413 -0.11095732 0.17546530
-0.52122269 -0.75075346 0.41461067
-0.55873821 -0.70453132 0.44445305
-0.23978810 -0.76874253 0.00000000
-0.20964021 -0.20787258 0.16675988
-0.37083021 0.42618256 -0.00000092
-0.17206348 -0.53435863 0.13686919
-0.00421644 0.02491738 0.00333999
-0.08393380 0.03930981 0.06676577
-0.15847244 0.01792476 0.12604776
-0.58367556 -0.26663564 -0.00000061
-0.22661616 0.21064553 0.00000000
-0.04371338 0.54998203 0.00000309
-0.76069347 -0.71903192 -0.00000020
-0.21954356 0.47424140 0.00000123
-0.66670906 -0.41398611 -0.00000070
-0.33416469 -0.27835077 0.00000000
-0.08440453 -0.11089441 0.06714021
-0.25243818 -0.09499831 0.20080385
-0.02105241 0.14676689 0.01673492
-0.46970619 0.00525214 0.00000426
-0.24577400 0.03060483 0.19550277
-0.31305782 0.18342090 0.24902146
-0.45660641 -0.47249958 0.36321140
-0.12421956 -0.16600033 0.00000000
-0.25346315 -0.25949479 0.00000000
-0.59729473 -0.56936015 0.47512379
-0.05924790 0.67645554 -0.00000003
-0.49056657 -0.06559925 -0.00000056
-0.42440272 0.14024582 -0.00000064
-0.01627371 0.66141525 0.00000183
-0.08222622 0.48375061 0.06540747
-0.31013181 0.46490630 -0.00000073
-0.52928634 -0.75358704 0.00000000
-0.08382424 0.68333482 0.06667888
-0.48961939 0.10897544 0.38947386
-0.38095176 0.24055059 0.30303277
-0.18993468 -0.55643437 0.00000000
-0.51584621 -0.25627143 -0.00000033
-0.22564518 0.11494550 0.17949118
-0.67945878 -0.24397522 -0.00000105
-0.24823331 -0.43159203 0.00000000
-0.02478642 0.57114157 0.01971654
-0.43285129 -0.61845885 0.00000000
-0.66244880 -0.14888023 -0.00000115
-0.14536150 0.27503990 0.00000568
-0.02627257 0.33718708 0.00000655
-0.45262267 -0.62150031 0.36004210
-0.05368388 -0.22069257 0.00000000
-0.43956670 0.15994711 0.00000225
-0.74822739 -0.30941652 -0.00000123
-0.30507429 0.40271413 0.24267512
-0.04679359 -0.52241371 0.03722232
-0.02945703 -0.40203439 0.00000000
-0.52619579 -0.08252275 0.41856859
-0.70898739 -0.34095693 -0.00000101
-0.01729452 0.55265557 0.01375706
-0.79421117 -0.22572971 -0.00000144
-0.19117811 0.40271090 0.00000297
-0.70664524 -0.21921329 -0.00000121
-0.18525473 -0.35621118 0.14736227
-0.38987662 -0.78132844 0.31013028
-0.60520031 -0.17564890 -0.00000086
-0.27097165 0.41695203 0.21554778
-0.41395665 -0.15294255 -0.00000008
-0.32640291 0.01885323 0.25964031
-0.55437720 0.02720204 0.44098517
-0.09480691 -0.23287919 0.07541487
-0.22157403 -0.24532660 0.17625272
-0.18105281 0.26330740 0.14401988
-0.22981290 0.46058417 0.18280750
-0.24271648 0.05654672 0.00000749
-0.31365185 -0.15257781 0.00000000
-0.28351595 -0.56281285 0.00000000
-0.38846729 0.40028076 -0.00000078
-0.51164183 0.03831456 0.00000290
-0.49570097 -0.42346073 0.00000000
-0.02725100 0.60755191 0.00000000
-0.33907236 -0.35480181 0.00000000
-0.44793632 0.04010167 0.35631615
-0.04891538 0.48836025 0.00000394
-0.42989979 0.12185604 0.00000307
-0.69897770 0.09469794 -0.00000164
-0.06614922 0.30817033 0.00000000
-0.49311038 -0.12246456 0.39225013
-0.25681086 -0.11504795 0.00000000
-0.79498152 -0.43545457 -0.00000091
-0.09981515 -0.71833125 0.07939871
-0.07658250 0.11664638 0.06091812
-0.49685952 -0.25304953 0.39523206
-0.30500881 -0.21701933 0.00000000
-0.23770416 0.29368168 -0.00000012
-0.23122102 0.44576854 0.18392756
-0.32980879 0.08331106 0.26234462
-0.30802950 -0.33146898 0.24502438
-0.12722443 0.61549600 -0.00000022
-0.47642384 -0.13323881 -0.00000038
-0.53487077 -0.42992417 0.42546822
-0.04835787 0.73476174 0.03846688
-0.25024493 -0.73763929 0.00000000
-0.17105614 -0.27422686 0.13606789
-0.00107868 -0.46312927 0.00085804
-0.15439778 0.41090411 0.00000351
-0.12434745 -0.69835236 0.00000000
-0.19781177 -0.00786404 0.00000000
-0.02106241 -0.68742105 0.01675425
-0.49939656 -0.50742290 0.39724943
-0.16339926 0.28322593 0.00000000
-0.67266376 0.00744765 -0.00000147
-0.12570503 0.52779117 0.09999141
-0.43547219 0.06566556 -0.00000056
-0.07695080 -0.65915696 0.06121109
-0.01557298 -0.36599583 0.01238764
-0.21663497 0.18930892 0.00000000
-0.07626084 0.20790162 0.06065336
-0.34902096 -0.37145119 0.00000000
-0.02659551 0.56989598 0.02115206
-0.06800300 -0.36242121 0.00000000
-0.54447999 -0.15314841 0.43311285
-0.41414686 0.13383826 -0.00000059
-0.09835759 0.58943396 0.07823956
-0.45070739 -0.44857751 0.35851900
-0.58041253 0.03575336 -0.00000113
-0.56765452 -0.11040546 -0.00000081
-0.36805653 -0.00831348 0.29277430
-0.14462481 -0.53877984 0.11504289
-0.42550100 -0.27019303 0.00000000
-0.43000948 0.18431827 0.34205638
-0.61020665 0.00296516 -0.00000120
-0.34964152 0.13464874 -0.00000032
-0.15580820 0.13747328 0.00000000
-0.04923850 -0.47307336 0.03916714
-0.09693407 0.67122464 0.07710744
-0.25356040 0.21185451 0.20169250
-0.37274196 0.19925578 -0.00000053
-0.03293293 -0.08414476 0.02619674
-0.02384931 0.42879428 0.01897112
-0.59710764 -0.71530315 0.47497446
-0.03295747 0.08976972 0.00001016
-0.32631198 0.31476230 0.25956887
-0.15737765 -0.24688759 0.00000000
-0.14234483 0.31128700 0.11322387
-0.08352936 0.28939964 0.00000000
-0.54936985 -0.65995720 0.43700102
-0.43902356 0.07797148 0.34922646
-0.02962938 -0.16772408 0.00000000
-0.46088376 -0.63391061 0.00000000
-0.28149854 0.17503584 0.22391622
-0.05553075 0.26663969 0.00000716
-0.55861788 -0.64765534 0.00000000
-0.21119075 0.31971440 0.16799011
-0.10622814 0.26723253 0.00000639
-0.18759288 -0.56017911 0.14922216
-0.16704808 0.21741830 0.00000000
-0.54892942 -0.19705289 -0.00000058
-0.20224273 0.24032874 0.00000534
-0.10074269 0.28033083 0.08012955
-0.34454569 0.29728662 -0.00000058
-0.32932651 -0.79568709 0.26196524
-0.47367873 0.05470401 0.37679099
-0.13257825 0.55145948 0.10545946
-0.20808256 0.38041131 0.00000301
-0.66419986 -0.24584828 -0.00000099
-0.02817684 0.33524470 0.02240571
-0.39812983 0.21155531 0.31669726
-0.24952686 0.39975056 0.19848769
-0.28749036 0.41881316 0.22868787
-0.41351827 0.17780760 0.00000245
-0.39145216 0.14068897 -0.00000051
-0.18551379 -0.36641532 0.14756834
-0.38862663 -0.16129843 0.00000000
-0.09439837 0.22329498 0.07508989
-0.55594900 0.07499108 0.00000143
-0.25515352 0.15278654 0.20295860
-0.31915672 0.16753817 0.00000444
-0.20070124 -0.65188767 0.15964931
-0.17356962 0.22496553 0.13806107
-0.17395346 0.16000252 0.13836523
-0.31147123 0.07976050 0.00000605
-0.20033353 0.13288405 0.00000000
-0.18676145 0.19013114 0.14855430
-0.25187189 -0.09266139 0.20035338
-0.29459400 -0.68914913 0.00000000
-0.09308727 0.41068055 0.00000444
-0.45699874 0.22843194 0.00000077
-0.20232362 -0.20230359 0.16093984
-0.10033172 -0.34064559 0.07980962
-0.08431560 0.57450534 0.00000211
-0.37263570 -0.54274262 0.29641586
-0.13941986 0.02065657 0.00000000
-0.18485309 -0.25233410 0.00000000
-0.42067064 0.11653857 0.33462490
-0.48960898 -0.63356438 0.38946337
-0.49010566 -0.48144028 0.00000000
-0.43992491 0.14043537 0.34994195
-0.49671875 -0.74179336 0.00000000
-0.51963043 0.22182371 -0.00000032
-0.54077407 -0.28825704 0.43016452
-0.10526920 0.10340589 0.08372708
-0.00089541 0.66926080 0.00000000
-0.03866455 -0.60167621 0.00000000
-0.38980648 0.12493126 -0.00000047
-0.04556285 -0.06098285 0.03624331
-0.63397540 0.10733837 -0.00000060
-0.73101791 -0.75275191 -0.00000012
-0.37094424 0.19326295 -0.00000051
-0.51902250 -0.69364281 0.41286066
-0.05203510 0.34741303 0.04139171
-0.53369714 0.10323986 0.42453596
-0.04490316 -0.67345471 0.03571855
-0.50332028 0.03857147 0.40037018
-0.57524264 0.15025663 -0.00000131
-0.40272622 -0.50798279 0.32035159
-0.51231245 0.11547921 -0.00000098
-0.14362981 0.65279279 -0.00000035
-0.34474840 0.10801381 0.27423380
-0.61306895 -0.31611469 -0.00000064
-0.17585557 -0.76199291 0.13988563
-0.33171040 -0.39504349 0.00000000
-0.41254111 0.13643567 0.00000316
-0.04303972 0.29349012 0.00000000
-0.14261991 0.54185269 0.11344862
-0.56117696 -0.41103448 -0.00000025
-0.10568310 -0.51826848 0.00000000
-0.11813960 0.16563931 0.00000000
-0.28565458 -0.07573588 0.22722610
-0.47325353 -0.79756553 0.37645307
-0.00483919 0.35563405 0.00384140
-0.45202467 0.18711531 0.35956874
-0.30135098 0.29328371 0.23971316
-0.05926200 0.07038014 0.00000000
-0.34386743 -0.13026137 0.00000000
-0.16628791 -0.16346008 0.00000000
-0.53324242 -0.57336253 0.42417250
-0.17887693 0.23325556 0.14228309
-0.79447868 -0.08847911 -0.00000178
-0.32417964 -0.37565657 0.00000000
-0.31407199 -0.70446269 0.00000000
-0.53733851 0.05707147 0.00000209
-0.26689773 -0.14878610 0.21230580
-0.40267678 -0.21905863 0.32031293
-0.30415221 0.02478019 0.24193391
-0.00835485 0.10421378 0.00664592
-0.76468177 -0.78389886 -0.00000004
-0.33221408 0.00314556 -0.00000001
-0.20865091 0.27444747 0.00000000
-0.02976113 -0.67999309 0.02367371
-0.74353921 -0.10835699 -0.00000157
-0.66163407 -0.17656853 -0.00000110
-0.29763531 0.41759027 0.23675784
-0.12487313 -0.54853506 0.09933127
-0.40936641 -0.65218155 0.32563358
-0.40465730 0.01053397 0.32188905
-0.00811230 0.74592922 0.00645221
-0.44018428 0.01043001 -0.00000048
-0.19902499 0.55316582 0.00000030
-0.47347485 -0.37896673 0.37662996
-0.30274600 0.20693770 0.24082259
-0.09730950 0.23680204 0.07740557
-0.31675422 -0.40005002 0.25196452
-0.11533063 0.46431936 0.09174068
-0.51907294 -0.50786157 0.41290133
-0.60310624 -0.73426626 0.00000000
-0.23655216 -0.35566249 0.18816719
-0.32693706 -0.69519330 0.00000000
-0.38404760 -0.38233464 0.30549355
-0.03824856 0.27975433 0.03041657
-0.02006295 0.06639099 0.01594636
-0.26463169 -0.58741706 0.21050327
-0.37106545 -0.03053717 -0.00000012
-0.10081456 -0.25312200 0.08019370
-0.31613851 -0.06607034 0.25147507
-0.24789326 -0.54010730 0.00000000
-0.26536506 -0.61233973 0.00000000
-0.62455387 -0.64993492 -0.00000010
-0.31101405 -0.51839481 0.24739846
-0.00414657 -0.61127935 0.00329842
-0.31463358 -0.32023015 0.00000000
-0.08687188 -0.50156496 0.06910289
-0.17047437 0.20541210 0.13559850
-0.14025542 0.39115603 0.11156730
-0.09867840 0.11739736 0.07848448
-0.18436082 0.59479876 -0.00000042
-0.15945981 -0.38522185 0.00000000
-0.28566034 0.22749237 0.22723158
-0.23297826 0.32497311 0.18532194
-0.16572894 0.15970353 0.13183033
-0.15406522 -0.02114677 0.12255233
-0.71437919 -0.15811558 -0.00000136
-0.24310367 0.06740888 0.19337869
-0.03953840 0.37857781 0.00000572
-0.14677532 -0.09857163 0.00000000
-0.58777061 -0.64036627 0.00000000
-0.73245585 0.06330820 -0.00000182
-0.23161143 -0.07347031 0.18423705
-0.36731497 -0.63549451 0.29218345
-0.11219067 -0.74714500 0.08924291
-0.50345440 -0.74261930 0.40047661
-0.52651576 -0.75234904 0.41882112
-0.59836108 -0.57329412 -0.00000013
-0.14508793 0.13568579 0.11541128
-0.39403002 -0.47934615 0.31343413
-0.11008957 -0.10619076 0.08757157
-0.24677668 0.32362782 0.19629840
-0.09489866 -0.64220673 0.07548785
-0.44523179 0.20045613 0.35416527
-0.09746055 -0.61180470 0.07752572
-0.40201652 -0.02641989 0.31978829
-0.49385086 -0.32716421 -0.00000012
-0.08539269 -0.04161966 0.06792625
-0.01285921 0.69242226 0.01022896
-0.41706336 -0.77313063 0.00000000
-0.24152980 -0.00008740 0.19212669
-0.29772087 0.04407627 0.23681824
-0.22780399 0.44177179 0.18120825
-0.32188659 -0.77692239 0.25604710
-0.54017980 -0.38274782 -0.00000021
-0.54070661 0.12079317 -0.00000111
-0.67486000 -0.17160726 -0.00000116
-0.06393268 -0.54499698 0.05085573
-0.22784262 0.33221574 0.00000344
-0.29296503 -0.32156336 0.23304123
-0.37165728 0.30281909 0.00000117
-0.62223503 -0.78291331 0.00000000
-0.19400300 0.42011290 0.15431949
-0.13407844 -0.59479393 0.10665370
-0.54623674 0.09546100 0.43451091
-0.21186620 0.52334792 0.00000055
-0.45231855 -0.49781767 0.00000000
-0.21628671 0.30630221 0.17204361
-0.34411286 -0.45080485 0.00000000
-0.17106297 0.13049907 0.00000000
-0.34626853 -0.72408256 0.00000000
-0.32544584 0.21799275 0.25887669
-0.17299877 0.15656563 0.00000000
-0.07144771 0.57999795 0.00000222
-0.12414352 0.62845412 0.00000048
-0.74902490 0.02852112 -0.00000150
-0.43103749 -0.78750210 0.00000000
-0.03881347 0.61181538 0.00000224
-0.00839999 0.10926716 0.00668183
-0.46946678 0.00919493 -0.00000061
-0.52941471 -0.42572331 0.42112811
-0.09503493 -0.77193258 0.07559625
-0.00110426 0.50785903 0.00087839
-0.22491471 0.43733663 0.17890976
-0.32386504 0.00334370 0.00000706
-0.12790323 0.11765447 0.10174158
-0.14108156 0.48283296 0.11222474
-0.59402476 -0.13006130 0.47252414
-0.19232882 0.58643374 -0.00000013
-0.03081552 0.45078522 0.00000000
-0.21134052 -0.45622470 0.16811240
-0.56190302 -0.08673897 0.44697249
-0.49635653 -0.34549342 0.39483168
-0.13929975 0.44593335 0.11080726
-0.58054724 -0.41775738 -0.00000032
-0.79514575 -0.17561791 -0.00000156
-0.24269294 -0.77912943 0.19305192
-0.24838815 0.38872576 0.19758327
-0.30784309 -0.70395563 0.00000000
-0.29722043 0.28942614 0.00000282
-0.32644557 -0.57121106 0.25967358
-0.60550964 0.11742914 -0.00000138
-0.51595111 -0.40925324 0.41041832
-0.06408013 0.71131561 0.05097335
-0.00171757 -0.64175886 0.00000000
-0.58299313 0.08354460 -0.00000122
-0.04232130 0.00172808 0.03366480
-0.26749453 -0.25032964 0.21278053
-0.09655055 0.66963321 0.07680236
-0.01340870 -0.26300223 0.01066605
-0.00310501 0.32733117 0.00246991
-0.05100548 0.20757091 0.04056316
-0.08192834 0.18844381 0.00000794
-0.27691718 0.02471659 0.22026874
-0.29650207 0.31868111 -0.00000041
-0.63498056 -0.27964203 -0.00000080
-0.03930334 0.38382815 0.00000565
-0.49876854 -0.15704217 0.39675091
-0.14383459 0.31901926 0.00000000
-0.37259460 -0.33510473 0.00000000
-0.36178278 0.11104483 0.28778015
-0.18209023 -0.47527336 0.14484504
-0.44131055 -0.71285555 0.35104379
-0.51499791 0.04671049 0.40966144
-0.17482328 -0.52825583 0.00000000
-0.17132067 0.04619418 0.13626881
-0.15277958 0.59895377 0.12153037
-0.54639973 -0.32391448 0.43463943
-0.24421172 -0.37535656 0.19426005
-0.21325622 0.15450056 0.00000000
-0.30604540 -0.63248403 0.00000000
-0.24304649 -0.42005987 0.19333315
-0.32215210 -0.22822131 0.25625831
-0.59561563 0.01067142 0.47379004
-0.19928474 0.52168215 0.15852354
-0.18246342 0.40327572 -0.00000008
-0.31617442 -0.57783780 0.00000000
-0.60265499 -0.78974566 0.47938691
-0.39720624 0.11129038 0.31595912
-0.37299545 0.24853757 -0.00000062
-0.01845777 -0.16196742 0.01468237
-0.20300138 -0.06124186 0.16147897
-0.12543543 0.50072471 0.09977881
-0.51288759 -0.04428834 -0.00000070
-0.48652843 -0.77575036 0.38701269
-0.21198706 0.17768856 0.16862066
-0.27094953 0.04440898 0.00000000
-0.34933429 -0.16084788 0.27788093
-0.39736106 0.08777503 0.00000427
-0.72128666 -0.59853621 -0.00000050
-0.58263878 0.17255519 -0.00000071
-0.48288798 -0.19432609 -0.00000030
-0.62072221 0.07477198 -0.00000137
-0.13859670 0.15024164 0.11023937
-0.47703040 0.17335723 0.37945962
-0.33697298 -0.35081594 0.26804769
-0.60749552 -0.72312769 0.48323760
-0.53194939 -0.52416902 0.00000000
-0.19173924 -0.78081512 0.15252042
-0.11747638 -0.66116434 0.09344747
-0.75119267 -0.23969039 -0.00000137
-0.78552272 -0.45894118 -0.00000085
-0.19628576 0.47303409 0.15613781
-0.19377006 -0.62410514 0.15413585
-0.61634372 -0.19029300 0.49027788
-0.27034362 0.50719714 -0.00000064
-0.05868072 0.42461256 0.04667263
-0.06944775 0.63434039 0.05524288
-0.49252848 -0.29465575 0.39178674
-0.25704718 0.40265736 0.20447008
-0.06590195 -0.29629206 0.05242220
-0.62644062 -0.07572155 -0.00000113
-0.09419935 0.04456211 0.07492015
-0.38364868 -0.15813185 0.00000000
-0.31701632 -0.18274388 0.25217301
-0.59391429 -0.79612745 0.47243398
-0.59908955 -0.46658547 0.47655187
-0.40580341 -0.29844362 0.32279982
-0.10384629 -0.12471297 0.00000000
-0.31306516 0.22970715 -0.00000033
-0.50871341 -0.07432059 -0.00000063
-0.35849178 -0.38071693 0.28516498
-0.21894531 -0.36837448 0.00000000
-0.12271348 0.61454368 0.09761343
-0.37491121 -0.44142823 0.00000000
-0.02412781 0.31971174 0.00000000
-0.13945706 0.18324811 0.00000000
-0.36824223 -0.36762209 0.00000000
-0.52953665 -0.08662722 -0.00000069
-0.02057762 0.01784220 0.01635489
-0.38395853 0.02894719 0.00000551
-0.07685274 0.14119914 0.00000000
-0.22919392 0.49039896 0.18231491
-0.25492413 -0.39602687 0.20278131
-0.01230451 0.10410334 0.00001025
-0.30613978 0.27585377 -0.00000038
-0.11583782 -0.12272865 0.09214407
-0.01972870 0.58036916 0.00000300
-0.03435357 0.27814913 0.02731815
-0.45223610 0.26859853 0.00000019
-0.14422409 0.17695341 0.00000000
-0.10862053 -0.56281910 0.00000000
-0.20438436 0.30431293 0.16257947
-0.62275610 -0.78778053 0.00000000
-0.23628494 0.54061709 -0.00000020
-0.62222166 -0.26950518 0.49495328
-0.43965221 -0.72737620 0.00000000
-0.12865423 -0.28334130 0.00000000
-0.15687302 -0.27425464 0.00000000
-0.46980355 0.18077712 -0.00000091
-0.54784801 0.00638732 0.00000274
-0.11431315 0.63169264 0.00000062
-0.39993968 0.35109256 -0.00000018
-0.50686496 0.27466824 -0.00000123
-0.67798251 -0.45741248 -0.00000067
-0.05622430 -0.13302176 0.00000000
-0.22855013 0.07193209 0.18180192
-0.11520464 0.29303658 0.00000587
-0.27867543 0.30769406 0.00000287
-0.38849122 -0.36691672 0.30902835
-0.16362417 0.42960001 -0.00000004
-0.34129668 0.34800205 0.27148879
-0.56200625 -0.67614027 0.00000000
-0.30795063 -0.56089545 0.00000000
-0.74494891 0.02188879 -0.00000131
-0.41631803 0.28880017 -0.00000087
-0.35932359 -0.44298482 0.28582665
-0.06942504 -0.64846407 0.00000000
-0.42902101 -0.22541445 0.34126886
-0.46198688 0.10296263 0.36749123
-0.45675013 0.33902220 -0.00000107
-0.23664946 0.52108650 0.00000011
-0.40832747 -0.40965153 0.32480730
-0.02769332 0.29174215 0.02202028
-0.02165473 0.22292227 0.01721545
-0.00875361 -0.57918630 0.00696313
-0.23894204 -0.30729822 0.00000000
-0.04855138 0.60592063 0.03861822
-0.17669811 0.36263571 0.14055247
-0.18034406 -0.29195336 0.00000000
-0.57031093 -0.29357585 0.45366008
-0.66065311 0.06219763 -0.00000036
-0.20820149 0.04621352 0.00000817
-0.60097921 0.02755578 0.00000136
-0.09074031 -0.58170657 0.00000000
-0.30661885 0.17100689 0.24390320
-0.35849686 -0.50640036 0.28516901
-0.58156076 -0.00772359 0.46260980
-0.19845764 -0.03870280 0.15786462
-0.41381509 0.21319856 0.00000186
-0.60663901 -0.73093471 0.48255625
-0.30871405 0.06259478 0.24556357
-0.67142344 -0.30498524 -0.00000091
-0.01010853 -0.73878991 0.00804091
-0.20444003 -0.45427854 0.16262336
-0.55559128 0.01517196 0.00000244
-0.41751701 -0.32794905 0.00000000
-0.10999577 -0.63164331 0.08749696
-0.57669983 -0.12045802 -0.00000083
-0.01779733 0.05023862 0.01414380
-0.61658178 -0.64315260 0.49046566
-0.56469770 -0.56070035 0.44919410
-0.02172203 0.40221588 0.01727895
-0.46017912 -0.50647958 0.36605327
-0.14197069 0.37779828 0.11292750
-0.15149370 0.06650541 0.00000872
-0.59474817 -0.27438322 0.47309913
-0.29847920 0.36315633 0.23742896
-0.30242478 -0.32167602 0.00000000
-0.28772233 0.29763445 -0.00000034
-0.37428567 -0.05153482 -0.00000009
-0.27956010 0.21870969 0.00000434
-0.44426053 -0.04961773 -0.00000039
-0.56140638 -0.14920138 -0.00000072
-0.02284120 -0.44239886 0.00000000
-0.08056622 0.69858141 -0.00000016
-0.16368084 -0.43936483 0.13020115
-0.09170056 0.16827971 0.00000000
-0.10664136 0.65683663 0.08482910
-0.13283048 0.35731257 0.10565622
-0.03172830 0.05319718 0.00000000
-0.20150129 0.36556363 -0.00000009
-0.26291812 -0.19815270 0.20914020
-0.21670004 0.06838299 0.17237567
-0.17568392 -0.34433795 0.00000000
-0.36620215 -0.32306298 0.29129827
-0.57315467 -0.14093329 -0.00000078
-0.08169818 -0.23363397 0.00000000
-0.08488965 0.37577756 0.00000000
-0.44793950 -0.18182925 0.35631803
-0.29752746 -0.45207098 0.00000000
-0.07934579 -0.15822482 0.00000000
-0.34899903 -0.34858507 0.27761389
-0.52240118 -0.25641357 0.41554959
-0.01301557 0.65650217 0.01035333
-0.57718432 -0.01865296 0.45912846
-0.07620941 0.10783212 0.00000000
-0.17620962 0.14335352 0.00000000
-0.20196907 0.16756792 0.00000644
-0.39471452 0.07452109 0.31398009
-0.17608657 0.04186779 0.00000000
-0.60521909 -0.75939843 0.48142666
-0.58696894 -0.79748932 0.46690922
-0.10764215 0.38399175 0.08561983
-0.71288577 -0.29031948 -0.00000112
-0.13025002 0.50004259 -0.00000003
-0.32975090 -0.07224489 0.26230326
-0.05099928 0.35970590 0.00000000
-0.16026175 0.63125350 -0.00000039
-0.52760574 0.15250675 0.00000068
-0.23526746 -0.52794798 0.18714526
-0.16640351 0.16880171 0.13236692
-0.54683611 -0.13648399 0.43498712
-0.55540434 -0.13047318 -0.00000073
-0.00193514 0.76838487 0.00153932
-0.21588045 -0.15733747 0.00000000
-0.06916586 0.55174281 0.05501569
-0.71648108 0.01817416 -0.00000168
-0.62204103 -0.79506883 0.00000000
-0.19366413 0.03084493 0.00000000
-0.11430871 0.34558735 0.09092226
-0.30028066 0.09088128 -0.00000003
-0.56315571 0.10457339 -0.00000117
-0.02784676 0.40511492 0.02214441
-0.25465798 0.00397239 0.20256139
-0.52477911 -0.41038732 -0.00000010
-0.35281193 -0.32585030 0.28064690
-0.11843474 0.36211109 0.09420981
-0.46855897 0.18901101 0.37272101
-0.07102185 0.06959521 0.05649486
-0.15071588 -0.64626864 0.11988807
-0.51294196 0.10798912 0.40802554
-0.33141907 -0.36162120 0.00000000
-0.16793601 -0.74586431 0.00000000
-0.03453259 0.72166388 0.02746869
-0.46857729 -0.41596677 0.37273401
-0.12768864 0.55386394 0.00000166
-0.03488802 0.45243862 0.02774647
-0.39146200 -0.79563675 0.00000000
-0.59514401 -0.44336900 0.47341341
-0.09721351 0.26089028 0.00000662
-0.62331660 -0.03513661 0.49582509
-0.69976174 -0.51123861 -0.00000067
-0.53578652 0.00788860 0.42619609
-0.08312226 -0.04601514 0.06612023
-0.37712823 -0.27179568 0.29998975
-0.02724029 0.16993262 0.00000904
-0.26388472 -0.34842688 0.00000000
-0.24080359 0.09504752 0.19154221
-0.65525814 0.08320244 -0.00000153
-0.43592159 0.19850389 0.34675931
-0.11221348 0.29096711 0.08926105
-0.27248165 0.35272158 -0.00000037
-0.20757906 0.39964487 -0.00000018
-0.22831828 0.32042196 0.18161489
-0.27579872 0.06541274 0.00000686
-0.29361910 -0.40659561 0.23356152
-0.28621013 -0.71245169 0.22766799
-0.37802436 0.29846294 0.00000112
-0.18065403 -0.02508063 0.00000000
-0.04370557 -0.44069294 0.00000000
-0.38229592 0.01306461 0.30409612
-0.25198876 -0.77392469 0.20044635
-0.60243162 -0.21993831 0.47921122
-0.41322032 0.14417116 0.32869881
-0.37483995 0.25935779 0.29817000
-0.11924572 -0.43539992 0.09485491
-0.16520604 0.46074431 0.13141265
-0.06080429 -0.64118756 0.04836723
-0.25753177 -0.05780093 0.00000000
-0.64018115 -0.15277410 -0.00000105
-0.01463394 -0.07215434 0.01164067
-0.30362174 -0.50498667 0.24151819
-0.43531873 0.14856374 -0.00000071
-0.07963229 0.45103460 0.06333971
-0.73050616 -0.53996735 -0.00000065
-0.42830152 0.24797824 0.34069786
-0.53445410 0.19540335 -0.00000016
-0.39193163 0.02438411 0.31176146
-0.21126546 0.31494780 0.16805319
-0.02999785 0.61375314 0.02385936
-0.03589529 -0.26043038 0.02855318
-0.09971868 0.50435528 0.07932201
-0.09125411 0.47309977 0.00000000
-0.01482763 0.56184624 0.01179475
-0.35745633 -0.11790254 0.00000000
-0.12113984 0.09926457 0.09635182
-0.37560149 -0.43529322 0.29877502
-0.10355736 -0.31316005 0.08237548
-0.13438603 -0.73174487 0.10689837
-0.43504433 -0.38348544 0.34605975
-0.52015622 -0.57175118 0.41376286
-0.14988919 -0.40322749 0.11923048
-0.67531641 0.07777313 -0.00000161
-0.06382799 -0.78138159 0.05077246
-0.17245897 -0.31221353 0.13718378
-0.30366450 -0.15145000 0.24155221
-0.00156919 -0.05502453 0.00124822
-0.31181247 0.19858855 0.24803464
-0.29916308 0.00843731 0.23796477
-0.50094554 -0.11105778 -0.00000053
-0.04214609 -0.12201446 0.00000000
-0.02286098 0.36994668 0.00000000
-0.05542994 0.73154842 0.00000008
-0.57928287 -0.31769919 0.46079690
-0.06330325 0.49935533 0.05035504
-0.43334185 -0.32617912 0.00000000
-0.18081456 0.19975588 0.14382383
-0.28808003 -0.48417800 0.00000000
-0.50519880 -0.11855061 0.40186608
-0.61431272 -0.36553169 0.48866169
-0.15698182 0.57713912 0.12487315
-0.14968017 -0.79901294 0.11906421
-0.72798144 0.02247916 -0.00000173
-0.51377288 0.02992041 -0.00000083
-0.54333338 0.05159781 0.00000207
-0.17283984 -0.65918446 0.13748675
-0.49211144 -0.72388105 0.39145373
-0.02862900 0.54215813 0.02277316
-0.54974397 0.02141763 0.00000245
-0.41649019 -0.51822066 0.33130025
-0.40273937 0.21193022 0.32036400
-0.75172808 -0.72660170 -0.00000018
-0.16380214 -0.19396652 0.13029764
-0.54356623 -0.31141171 0.43238552
-0.26827090 -0.23382134 0.21339810
-0.14158907 -0.28347593 0.11262809
-0.08991692 0.18802652 0.07152509
-0.26544935 -0.42618821 0.21115368
-0.18438121 0.20112912 0.14666741
-0.29451628 -0.07505476 0.00000000
-0.30681407 -0.33758269 0.00000000
-0.37114882 0.18451490 0.29523223
-0.16010896 -0.10323506 0.12735987
-0.02643842 -0.34467767 0.00000000
-0.40887168 0.12560932 -0.00000055
-0.00045157 0.26356534 0.00000804
-0.57024320 -0.18547309 0.45360653
-0.01181331 0.40487616 0.00000575
-0.17742899 0.38031799 0.14113424
-0.28057968 0.45495914 0.00000038
-0.30066727 -0.26866243 0.23916804
-0.18871702 0.26962950 0.15011148
-0.31780139 0.32854633 0.25279788
-0.14991542 -0.78963864 0.00000000
-0.61818874 -0.13593299 0.49174571
-0.40452974 -0.22858062 0.32178687
-0.16918525 -0.03785399 0.00000000
-0.57967113 -0.49438421 -0.00000019
-0.25180201 0.09755566 0.20029139
-0.66956345 -0.25530377 -0.00000099
-0.26435125 0.35953044 -0.00000035
-0.39352107 0.33039318 -0.00000085
-0.22187289 -0.08946015 0.00000000
-0.16869901 0.17782350 0.13419289
-0.07605328 0.10369231 0.00000000
-0.33950639 0.13205789 0.27005995
-0.59129818 0.00226894 0.00000197
-0.09927509 -0.65651372 0.00000000
-0.23125693 -0.40619505 0.00000000
-0.71940573 0.06566078 -0.00000155
-0.34436586 0.28746670 0.27392878
-0.58785951 0.02118581 -0.00000113
-0.03110157 -0.78146673 0.02473998
-0.24932232 -0.56576962 0.19832531
-0.40363851 0.02061660 0.32107407
-0.72697246 -0.38797637 -0.00000100
-0.07631692 0.21378856 0.06069808
-0.15497197 0.31943491 0.12327361
-0.62186718 -0.79692517 0.49466946
-0.24920553 -0.22251200 0.00000000
-0.03556863 -0.07491055 0.02829333
-0.53253080 -0.55437554 0.42360648
-0.30274127 0.47534720 -0.00000039
-0.56241400 -0.45339292 0.44737787
-0.07365493 -0.31803126 0.05858937
-0.17230019 -0.64976343 0.00000000
-0.23322865 0.31180076 0.18552085
-0.42659821 0.32326231 -0.00000023
-0.64963768 -0.16974167 -0.00000106
-0.33466879 -0.25933185 0.00000000
-0.18014529 0.09965358 0.14329792
-0.18725578 0.50208567 0.00000138
-0.75573791 -0.40257270 -0.00000099
-0.45797228 0.14790098 0.00000210
-0.73465264 -0.61345304 -0.00000047
-0.58493938 -0.75077473 0.46529494
-0.30925962 0.07391711 0.24600356
-0.58529305 -0.13515207 0.46557833
-0.73456699 -0.08665026 -0.00000157
-0.09469174 0.15227602 0.00000000
-0.45641355 0.12165012 0.36305810
-0.50480096 0.10761782 0.00000187
-0.22310285 0.23550456 0.00000510
-0.29823129 -0.11623616 0.23723033
-0.11814457 0.52021517 -0.00000001
-0.15887079 0.34992460 0.12637077
-0.31800290 -0.68789226 0.25295779
-0.03976269 -0.15556361 0.03162953
-0.17515283 0.42064878 0.13932440
-0.33509626 -0.18650231 0.26655497
-0.35924389 -0.16028324 0.28576369
-0.05474348 0.74240807 -0.00000009
-0.25102712 0.04430058 0.00000000
-0.36874148 0.06770169 0.29331483
-0.61212467 0.09716599 -0.00000002
-0.51278997 0.09479065 0.40790524
-0.00399371 0.37332330 0.00316915
-0.01641943 0.01071749 0.01306096
-0.69557503 -0.67017911 -0.00000032
-0.19284981 -0.17189365 0.15340383
-0.17498072 0.53391884 0.13919054
-0.01516010 0.59842107 0.00000279
-0.12070998 0.01597561 0.09600836
-0.31190430 -0.15356757 0.00000000
-0.14383447 -0.67234539 0.11441421
-0.40104080 -0.15206058 0.31901176
-0.36786071 -0.78007722 0.29261756
-0.16798163 -0.72947537 0.00000000
-0.32069005 0.14099641 0.25509629
-0.49855313 -0.44121789 0.39657871
-0.19632348 0.01211350 0.00000000
-0.75859265 -0.70235095 -0.00000024
-0.21009895 -0.13852611 0.16712479
-0.43667605 -0.79772565 0.34735724
-0.27148920 0.42719519 0.00000101
-0.50324701 -0.78081875 0.40031161
-0.16615543 0.53651152 0.13217032
-0.00032157 0.64339600 0.00025295
-0.16545875 0.49418256 0.13161601
-0.27144487 0.31728926 0.21592391
-0.25026017 -0.65393144 0.00000000
-0.55714328 0.00634038 0.44318655
-0.00878468 0.40043646 0.00698078
-0.52145929 0.15450137 0.00000077
-0.79782192 -0.40468180 -0.00000099
-0.16305838 0.41913654 -0.00000002
-0.28022870 -0.42498185 0.22291002
-0.32694813 -0.19069036 0.26007340
-0.32462131 -0.53835729 0.25822246
-0.15239449 0.34278234 0.12122338
-0.41288529 -0.70702792 0.32843271
-0.41169124 0.30804227 0.00000031
-0.63971194 0.02107068 -0.00000135
-0.69678953 -0.12646953 -0.00000134
-0.06569606 -0.72199856 0.05225842
-0.20747813 -0.71078633 0.16504003
-0.00030781 -0.26930708 0.00000000
-0.54098721 -0.14602117 0.43033449
-0.08877520 -0.76663033 0.07061690
-0.22035540 0.25137593 0.00000000
-0.34805788 -0.45735635 0.27686525
-0.04420238 0.67856194 0.03516003
-0.08065213 0.36884048 0.06414948
-0.38307598 -0.11475228 -0.00000002
-0.32277841 0.29102194 0.00000230
-0.58140300 -0.45820503 0.46248290
-0.21064937 0.16787433 0.00000630
-0.23076728 -0.48741312 0.00000000
-0.28148718 0.19848022 0.22391189
-0.38587805 -0.59979657 0.00000000
-0.40765930 -0.57933095 0.32427565
-0.61921613 -0.51851403 0.49256163
-0.12195153 0.59478799 0.00000109
-0.32002733 -0.30304521 0.25456814
-0.39366068 0.15809088 0.31313962
-0.46528523 -0.16608859 0.37011602
-0.44351400 -0.43249033 0.35279695
-0.49379069 -0.42917052 0.00000000
-0.31764495 -0.78183204 0.25267306
-0.18931970 -0.44242511 0.15059578
-0.08224154 -0.60639303 0.06541965
-0.01114099 0.42933226 0.00000000
-0.25811689 0.28695372 0.20531867
-0.10469263 0.40893832 0.00000429
-0.57281366 0.01608202 -0.00000106
-0.43095745 0.17876939 -0.00000074
-0.16936666 0.42436037 0.13472442
-0.55512859 0.01315622 0.44158395
-0.08117326 0.26421732 0.06456988
-0.12170141 -0.33552189 0.00000000
-0.61864288 0.00050975 0.49210742
-0.40831321 0.30734420 0.00000039
-0.38266275 -0.50337944 0.30439195
-0.04267471 0.35002334 0.00000000
-0.58429215 -0.09568074 0.46478227
-0.40742879 -0.58536637 0.32409229
-0.19539398 -0.59836112 0.15542761
-0.13389099 0.65374146 -0.00000031
-0.17501684 -0.31170432 0.00000000
-0.01674758 0.64636522 0.01331960
-0.57017690 -0.33174138 0.45355336
-0.58729628 0.20954041 -0.00000146
-0.14969736 -0.61894572 0.11907789
-0.29023753 0.37009034 0.00000161
-0.79880225 -0.27948791 -0.00000130
-0.50200945 0.13006378 0.39932930
-0.77816028 -0.64641803 -0.00000038
-0.30437712 -0.19336419 0.00000000
-0.26810810 -0.50669736 0.00000000
-0.14139146 0.14193452 0.11247090
-0.30856352 0.27071302 0.24544807
-0.54261605 -0.09140163 -0.00000074
-0.11210223 -0.55944695 0.00000000
-0.55686864 -0.62201309 0.44296616
-0.06149247 0.08176154 0.04890308
-0.29485367 0.14141196 0.23454431
-0.41896946 0.22711251 0.33327454
-0.11423682 0.25211378 0.00000000
-0.54208094 0.03512666 0.00000237
-0.18872688 0.48279015 0.15012500
-0.45526298 -0.18163389 0.36214361
-0.32686933 0.12011632 0.00000508
-0.17508948 0.40607910 0.13927371
-0.71549486 -0.26941880 -0.00000116
-0.59166914 0.04965642 0.00000117
-0.11205187 -0.67841193 0.08913250
-0.26747872 0.50461474 -0.00000020
-0.39613565 0.22397927 0.31510978
-0.24727389 -0.77796192 0.19669587
-0.14652127 0.45393945 -0.00000001
-0.30822946 -0.27834864 0.24518344
-0.04883959 0.45751577 0.03884478
-0.41516857 -0.07771002 0.33025015
-0.30626861 -0.71707810 0.00000000
-0.07302409 0.58059554 0.00000219
-0.29462804 -0.62658716 0.23436409
-0.32269929 -0.09189889 0.25669388
-0.44479718 -0.06633284 -0.00000037
-0.41840333 0.15693494 0.33282210
-0.00790831 -0.27888439 0.00000000
-0.08588654 -0.55547667 0.00000000
-0.27053782 0.07069188 0.00000000
-0.33014219 0.04694804 -0.00000008
-0.15193717 0.33119853 0.12085478
-0.58686683 -0.07207758 0.46683041
-0.06930487 0.21631032 0.05512908
-0.05134424 0.60416705 0.00000216
-0.12066101 -0.48246212 0.09598070
-0.26906624 -0.57677975 0.21403076
-0.13094727 0.13008558 0.10415402
-0.12729306 0.15240017 0.00000779
-0.03880264 -0.75509181 0.03086585
-0.54081425 -0.70067071 0.43019522
-0.23412573 -0.30782704 0.18623707
-0.54901782 0.19701780 -0.00000047
-0.47877092 0.14598551 0.38084437
-0.17920354 -0.33200368 0.14254880
-0.50778638 0.00898627 -0.00000077
-0.02050973 0.76914205 0.01631471
-0.27854012 0.12421044 0.00000000
-0.64567137 -0.40402927 -0.00000063
-0.40081043 0.04591694 0.00000490
-0.12783466 0.55406806 0.10168604
-0.38357903 -0.16422794 0.00000000
-0.53881830 -0.73909287 0.00000000
-0.02169123 0.43034094 0.01725445
-0.32154719 0.02356273 0.00000679
-0.29719259 -0.24506820 0.23640408
-0.11921250 -0.41297780 0.00000000
-0.40523756 -0.02167258 0.32235053
-0.07811771 -0.76942302 0.06213932
-0.56749192 0.17625105 -0.00000048
-0.17263454 0.30416609 0.13732355
-0.50089622 -0.69244953 0.00000000
-0.59385115 -0.77664129 0.00000000
-0.61364279 -0.72583081 0.48812752
-0.54477508 -0.75882960 0.43334570
-0.31290594 0.01913171 0.00000000
-0.11723945 -0.43557698 0.00000000
-0.03386991 -0.53227264 0.02694208
-0.36287503 0.12310204 0.28865298
-0.15716824 -0.58082762 0.00000000
-0.19792487 0.44885887 -0.00000022
-0.24157434 0.01584012 0.00000000
-0.53036860 0.25447912 -0.00000130
-0.20773115 0.11669218 0.00000712
-0.20777988 0.36133351 0.00000334
-0.09897132 -0.33199205 0.07872748
-0.19770927 0.02437677 0.00000000
-0.01185392 0.02565553 0.00941548
-0.32148520 0.04944049 0.00000636
-0.36248573 -0.01847052 0.28834288
-0.61157711 -0.14630360 0.48648637
-0.65742128 -0.67165085 -0.00000020
-0.25316721 -0.20751153 0.20138375
-0.04627714 -0.45695082 0.03681149
-0.05624172 -0.78547036 0.00000000
-0.01283157 -0.47482686 0.01020697
-0.10377895 0.69204795 -0.00000019
-0.45329488 -0.06589781 0.36057840
-0.01543855 -0.49818158 0.01228071
-0.20603461 -0.25504830 0.16389177
-0.75811998 -0.23586797 -0.00000140
-0.34304399 -0.48643300 0.00000000
-0.02740379 0.42585614 0.00000000
-0.38792189 -0.73411917 0.30857538
-0.07509572 0.03245426 0.00001038
-0.15989783 0.05236296 0.12718226
-0.31299866 0.39191111 0.24897865
-0.02953780 0.14649028 0.02349607
-0.28335260 -0.37535608 0.22539495
-0.11780635 0.19416285 0.00000731
-0.28520828 -0.11885185 0.22687106
-0.34732261 -0.74247698 0.00000000
-0.32144917 0.08645156 0.25569470
-0.17129800 0.58039550 0.13626120
-0.15745131 -0.33044607 0.12524583
-0.00548086 -0.68949223 0.00000000
-0.34920705 -0.18522901 0.27777964
-0.42388540 0.14791652 -0.00000066
-0.25783506 -0.64037919 0.00000000
-0.19988065 -0.32439039 0.00000000
-0.43381320 0.13522302 0.34508196
-0.37535526 0.36381471 0.00000008
-0.06052740 -0.43484783 0.00000000
-0.00012804 0.18616845 0.00010185
-0.17788084 -0.09907544 0.00000000
-0.60077866 -0.02573256 -0.00000110
-0.21675507 0.14639490 0.17241949
-0.24220937 0.00471331 0.19266726
-0.78771001 -0.69855492 -0.00000025
-0.19417936 -0.16079274 0.00000000
-0.38214064 -0.22634676 0.00000000
-0.41266526 0.35057873 -0.00000097
-0.16862703 -0.70748699 0.13413564
-0.44296840 -0.02866776 0.35236413
-0.11296320 0.50394827 0.00000274
-0.42899713 0.06478679 0.00000404
-0.09752056 0.19730708 0.00000000
-0.11716020 -0.22055072 0.00000000
-0.33757909 -0.79160199 0.00000000
-0.04952798 0.64690644 0.03939740
-0.07462535 -0.63494855 0.00000000
-0.46559653 -0.60278482 0.00000000
-0.12632657 -0.13715427 0.00000000
-0.03029919 0.58106031 0.02410172
-0.51423900 0.09389066 -0.00000095
-0.02263061 0.45627608 0.01799599
-0.31720542 0.26125284 0.25232474
-0.73707756 -0.43575784 -0.00000091
-0.67604775 0.08220457 -0.00000162
-0.36528855 -0.60850657 0.29057152
-0.07476214 -0.44317328 0.05947010
-0.31828691 0.47352865 -0.00000078
-0.18705006 0.61293067 -0.00000047
-0.64061932 -0.78013915 0.00000000
-0.16019682 0.42722958 -0.00000002
-0.01108228 0.70881276 0.00881548
-0.06962831 0.47097603 0.00000000
-0.17885699 0.53849486 0.14227400
-0.13274799 0.01131160 0.10559538
-0.28885016 0.28988026 0.22976670
-0.43507585 -0.02172093 -0.00000040
-0.52160852 -0.54420026 0.41491820
-0.51710806 -0.37012994 0.41133875
-0.63077693 0.10583037 -0.00000146
-0.14073735 0.12324500 0.11195058
-0.10089876 -0.10658475 0.00000000
-0.49522771 -0.50992905 0.00000000
-0.53629139 -0.37642379 0.42659843
-0.08468660 0.21198183 0.06736459
-0.20762218 0.21791562 0.16514927
-0.06022167 0.55365013 0.04790078
-0.22247661 0.24549260 0.00000496
-0.05188828 -0.09408947 0.00000000
-0.06753657 -0.72671113 0.00000000
-0.58229132 -0.45616721 -0.00000026
-0.26066844 0.29745146 0.20734861
-0.27387710 0.19502146 0.21785386
-0.52812649 0.09555827 0.42010441
-0.55111045 0.20612046 -0.00000130
-0.31797960 0.07087333 0.25293438
-0.21925837 0.53338085 0.00000024
-0.22881096 -0.31890093 0.18200940
-0.28535910 -0.76629017 0.22699103
-0.03030730 0.54359022 0.00000000
-0.69628468 -0.37533773 -0.00000089
-0.11204309 -0.65611200 0.08912551
-0.16420408 0.28287452 0.13061737
-0.26893099 0.05383958 0.21392342
-0.01939522 0.77685333 0.00000001
-0.39663652 0.22070343 0.00000206
-0.13181911 0.28956469 0.10485650
-0.33829584 -0.71424132 0.26909996
-0.52106480 -0.54147915 0.41448569
-0.49720041 -0.65853146 0.39550202
-0.12551849 -0.37132182 0.09984463
-0.03530990 0.14324223 0.00000932
-0.08011491 0.27995879 0.00000000
-0.54447808 0.09382999 0.43311207
-0.39979670 0.20799652 0.31802319
-0.15559276 0.05205387 0.12375765
-0.13341868 -0.65371278 0.00000000
-0.56128814 -0.59285414 0.44648181
-0.06731504 -0.08608154 0.00000000
-0.61327229 0.02392792 0.00000119
-0.50691292 0.29263255 -0.00000127
-0.65262884 -0.36196398 -0.00000073
-0.71680289 -0.32829323 -0.00000106
-0.33368861 -0.67661904 0.26543511
-0.14427674 -0.67383482 0.00000000
-0.44644331 -0.35765653 0.00000000
-0.19388376 0.38725900 0.15422396
-0.28552321 0.13371352 0.00000565
-0.11839624 0.61871063 0.09417920
-0.03249126 0.28961154 0.02583693
-0.04511607 0.17331102 0.03587762
-0.74718262 -0.39561242 -0.00000101
-0.07730378 -0.10580524 0.00000000
-0.41277851 -0.28932951 0.32834831
-0.43957183 -0.58183822 0.00000000
-0.30000479 0.06502736 0.23863550
-0.24940373 -0.22293754 0.19839007
-0.32308043 0.16602170 0.25699398
-0.49370606 0.14241860 0.00000150
-0.40365372 0.01430360 0.00000537
-0.10059480 0.22763161 0.08001094
-0.12971792 0.17942533 0.10318509
-0.24446206 -0.79748413 0.00000000
-0.65640317 -0.65737473 -0.00000023
-0.23564136 -0.07849632 0.18744268
-0.18734482 0.48138060 0.14902423
-0.71484172 -0.22672551 -0.00000124
-0.61330632 0.00749266 0.48786238
-0.23805417 -0.26349845 0.00000000
-0.03297285 0.14179784 0.00000000
-0.38513053 0.11938381 0.00000397
-0.09174369 0.49782533 0.07297821
-0.48845651 -0.02352948 0.38854842
-0.06425321 0.37051401 0.05110446
-0.21574219 0.19924378 0.17161394
-0.31971241 0.24331551 -0.00000038
-0.26249917 0.53088715 -0.00000055
-0.53819834 0.11906505 -0.00000109
-0.02009022 0.36644107 0.01597351
-0.34893926 -0.56479455 0.27756635
-0.24783832 -0.50043824 0.19714485
-0.01855658 0.47526772 0.01475551
-0.26070892 0.33691735 -0.00000029
-0.35417846 0.10961025 -0.00000029
-0.11797501 0.23650000 0.09383676
-0.10481941 0.53206146 0.08337955
-0.43366435 -0.37910375 0.34496203
-0.62493448 -0.41307865 -0.00000052
-0.33586252 -0.63485828 0.26716437
-0.03817187 -0.05268860 0.03036410
-0.33151298 -0.39248815 0.00000000
-0.43830481 -0.12203960 -0.00000024
-0.11353833 0.04874749 0.09031491
-0.31330322 0.38088817 0.24922102
-0.12525964 0.20359480 0.09963872
-0.40447213 -0.76805788 0.32174039
-0.78469979 -0.33257091 -0.00000117
-0.29729228 0.23096709 -0.00000026
-0.38622683 -0.13111830 -0.00000000
-0.71408991 -0.03247513 -0.00000158
-0.31164293 0.15587765 -0.00000019
-0.33024683 -0.15421916 0.26269751
-0.09951027 -0.45415440 0.07915619
-0.00110880 0.47602404 0.00000000
-0.10740177 0.04569041 0.08543354
-0.29267861 0.38774665 0.23281419
-0.17253502 -0.43853883 0.13724428
-0.04762589 0.36174193 0.03787757
-0.64971013 -0.20988827 -0.00000099
-0.15618769 0.09269385 0.12423164
-0.10172063 0.20953650 0.08090619
-0.62597782 -0.14147047 -0.00000101
-0.61889701 0.16458928 -0.00000127
-0.46475788 -0.34745885 0.36969600
-0.08001733 0.25093227 0.00000000
-0.42721492 -0.19776819 -0.00000006
-0.18192122 -0.02063495 0.00000000
-0.26208758 0.16722479 0.00000554
-0.23171791 -0.16680184 0.18432175
-0.65321537 -0.58537975 -0.00000034
-0.04181266 -0.36000580 0.03326020
-0.50020334 -0.12995443 -0.00000049
-0.45956050 0.09025036 0.00000303
-0.60682890 -0.42490183 0.48270838
-0.61194862 -0.66316647 0.48678009
-0.58178772 -0.14347668 0.46278993
-0.06380131 -0.38093664 0.05075123
-0.03761758 -0.38302382 0.00000000
-0.18644157 -0.04945657 0.14830634
-0.79520687 -0.03020015 -0.00000192
-0.21966739 0.48913594 0.17473716
-0.02433774 -0.31323247 0.01935964
-0.59496020 -0.66128053 0.00000000
-0.13614392 0.34172439 0.00000000
-0.15142753 0.54860995 0.12045481
-0.31610029 -0.55967053 0.25144435
-0.07592628 0.20072180 0.06038709
-0.21688897 -0.76072727 0.17252596
-0.05382988 0.57950509 0.04281938
-0.41700239 -0.70213285 0.33170768
-0.01503872 0.47284373 0.00000000
-0.01476059 0.02842562 0.00001135
-0.51646549 0.18755964 -0.00000112
-0.49251411 0.07604987 -0.00000082
-0.36228839 0.02935865 0.28818605
-0.10081988 -0.56412624 0.08019793
-0.52944088 0.05272442 0.00000232
-0.43459238 0.08890049 0.00000353
-0.33191417 -0.37166111 0.00000000
-0.24691804 0.39726464 0.19641236
-0.05606245 -0.13853687 0.00000000
-0.00101487 0.02278776 0.00079316
-0.28721779 -0.14081341 0.22846955
-0.37127360 -0.64322889 0.00000000
-0.11511126 -0.70088701 0.00000000
-0.17414450 -0.64611743 0.00000000
-0.29680340 -0.34098328 0.00000000
-0.17648025 -0.08749606 0.14038254
-0.20951987 -0.60256242 0.16666415
-0.50539069 -0.24796097 0.40201834
-0.52874696 -0.19997751 -0.00000049
-0.03303431 0.21548617 0.02627739
-0.29025978 -0.48195530 0.23088932
-0.30963379 0.00945572 0.00000000
-0.35219945 -0.07823379 0.00000000
-0.11123432 -0.02701068 0.08848217
-0.01033643 -0.60320160 0.00822219
-0.04301372 0.71022638 0.03421511
-0.53337882 -0.52274949 0.00000000
-0.03708022 0.48769251 0.00000000
-0.02644521 0.51182195 0.02103604
-0.17947702 0.28213105 0.00000000
-0.46021389 -0.41707955 0.36608119
-0.11423668 0.31382828 0.09086439
-0.40473946 0.22259569 0.32195399
-0.73107549 -0.67432630 -0.00000031
-0.18503858 -0.08507023 0.14719033
-0.41332239 0.27095383 0.00000090
-0.03786543 -0.69167107 0.00000000
-0.40102322 0.04118113 0.31899406
-0.46124379 -0.48917849 0.36690023
-0.35216226 -0.55743287 0.00000000
-0.03201026 0.42425957 0.00000515
-0.42765989 0.29228285 0.00000027
-0.23290610 -0.76278105 0.00000000
-0.00633367 0.66032005 0.00000200
-0.16193347 0.58485371 0.12881190
-0.63459025 0.15846772 -0.00000157
-0.42467027 0.25650361 0.33780943
-0.03307133 0.28302213 0.02629824
-0.49168957 -0.51707364 0.00000000
-0.16758264 -0.21477669 0.13330487
-0.60257503 -0.61117135 0.47932393
-0.67078000 -0.15177813 -0.00000118
-0.28806126 -0.78516034 0.00000000
-0.29291081 -0.66784443 0.23299810
-0.15887564 0.50230997 -0.00000015
-0.22451821 0.19867153 0.17859496
-0.10952191 -0.69929216 0.00000000
-0.04404511 -0.51698106 0.03503602
-0.14114402 -0.24530429 0.11227407
-0.11243679 0.37789350 0.00000000
-0.42295914 -0.66264233 0.00000000
-0.57545684 -0.66754753 0.45775222
-0.09745102 0.14375737 0.00000837
-0.22275583 -0.39085473 0.17719279
-0.31189806 0.45620923 -0.00000025
-0.30522575 -0.44483428 0.24279411
-0.20273336 0.43940260 -0.00000023
-0.47119702 0.18939845 0.37481956
-0.13404236 -0.50988207 0.10662500
-0.10126613 -0.05133500 0.08055290
-0.11734544 -0.28236869 0.09334331
-0.61613840 -0.68166237 0.49011283
-0.41244343 -0.25639498 0.32808187
-0.20082395 0.53467455 0.15974782
-0.30707980 -0.71317503 0.00000000
-0.23359720 0.23508077 0.00000495
-0.47290909 0.07348192 -0.00000073
-0.02925716 0.16257777 0.02327283
-0.66378528 -0.24030777 -0.00000099
-0.00605976 -0.75722158 0.00000000
-0.28250331 -0.78715924 0.22471938
-0.25198925 -0.47078263 0.20044674
-0.30557936 0.27046692 0.24307663
-0.05933984 0.48161888 0.00000388
-0.34030865 0.13867884 0.27069828
-0.60652236 -0.72972137 0.48246346
-0.18155974 0.05398691 0.14442305
-0.05469255 0.35045643 0.04349876
-0.10538836 -0.55193523 0.08383196
-0.10404327 -0.04844801 0.00000000
-0.25573141 0.11688697 0.00000000
-0.00418193 -0.63699551 0.00000000
-0.41386129 -0.36595084 0.00000000
-0.28432402 0.27201168 0.22616871
-0.75930125 -0.31349270 -0.00000122
-0.35419198 -0.65162367 0.00000000
-0.06486627 -0.16254558 0.05159836
-0.70735304 -0.48192377 -0.00000075
-0.22714711 0.24910026 0.18068632
-0.19707164 -0.04744328 0.15676212
-0.68218041 -0.45282441 -0.00000070
-0.01948598 -0.57532635 0.00000000
-0.15728516 0.44241290 0.00000295
-0.44889623 -0.58485126 0.00000000
-0.03321489 -0.55803588 0.02642103
-0.24417885 0.04878000 0.19422625
-0.21848264 0.51845439 0.17379482
-0.09175949 0.24322804 0.00000697
-0.26546540 0.00620399 0.00000790
-0.28267804 0.35596016 0.22485819
-0.62219021 0.07420040 0.00000018
-0.43334706 -0.72448483 0.00000000
-0.06466357 -0.66553664 0.05143712
-0.62743219 -0.75167423 0.00000000
-0.47587825 -0.53878159 0.37854131
-0.03810925 -0.02251845 0.03031429
-0.18568912 0.03298204 0.00000000
-0.04955599 -0.26493753 0.03941968
-0.34074266 0.18172389 0.00000378
-0.48459304 -0.68952446 0.00000000
-0.10637331 0.51428168 0.08461297
-0.10306821 -0.63060137 0.08198638
-0.79082344 0.00395478 -0.00000197
-0.50312895 -0.33847760 -0.00000013
-0.43806204 -0.02328874 -0.00000041
-0.05709638 -0.75864554 0.00000000
-0.06056618 0.12411315 0.04816701
-0.38934305 0.21209333 -0.00000062
-0.01526974 0.06195381 0.00001084
-0.25207460 0.41118253 -0.00000039
-0.61867951 -0.77870921 0.49213386
-0.63150226 0.08445790 -0.00000143
-0.50221185 -0.23753700 -0.00000031
-0.51150027 -0.12878253 0.40687866
-0.14127947 0.05752879 0.11238181
-0.53881256 -0.57020526 0.00000000
-0.03772599 0.37428313 0.03000260
-0.20194519 -0.30059773 0.00000000
-0.23456701 -0.46092797 0.18658809
-0.30334688 -0.51677886 0.00000000
-0.55894696 -0.09661247 0.44462102
-0.12840683 -0.17732543 0.00000000
-0.15961049 0.12676244 0.00000769
-0.55300382 -0.57077367 0.00000000
-0.43595643 0.07249482 0.34678368
-0.37507501 0.09785843 0.00000453
-0.24496828 -0.29974485 0.19486186
-0.00842061 0.18456541 0.00669824
-0.39398724 -0.74473128 0.31340011
-0.03904665 -0.56322989 0.00000000
-0.19827529 -0.48382912 0.00000000
-0.13863229 0.17423117 0.00000000
-0.56538248 -0.21310934 0.44973991
-0.35781033 -0.52493619 0.00000000
-0.20989913 -0.49793342 0.16696584
-0.01898042 -0.09058460 0.01509812
-0.07451245 -0.12737148 0.00000000
-0.14835148 -0.28049792 0.00000000
-0.54786914 0.24086729 -0.00000118
-0.02430669 -0.12203932 0.01933494
-0.12004132 0.11174045 0.00000851
-0.72593472 -0.25834914 -0.00000123
-0.27925867 -0.13703197 0.22213840
-0.28980677 -0.62878278 0.23052897
-0.03160088 0.64398036 0.02513715
-0.07210174 -0.63843953 0.00000000
-0.68243664 -0.19677508 -0.00000115
-0.55831145 0.09432062 0.00000107
-0.43843880 -0.17121827 0.34876056
-0.15421043 -0.24714499 0.00000000
-0.02725164 0.04235206 0.02167752
-0.18845574 0.45366455 0.00000217
