ply
format ascii 1.0
element vertex 1380
property float x
property float y
property float z
end_header
-0.26060631 -0.31083601 0.00000000
-0.11121910 -0.15785074 0.08534397
-0.51023733 -0.41620019 0.39153109
-0.24274516 -0.30618382 0.18627048
-0.00134029 0.09012733 0.00000000
-0.15856740 0.52056435 -0.00000018
-0.29981322 -0.68283518 0.00000000
-0.09511743 0.57241381 -0.00000000
-0.08196183 0.31608588 0.00000602
-0.61975107 -0.18607293 0.47556724
-0.40015712 -0.78362908 0.00000000
-0.36515153 0.41690944 -0.00000088
-0.02059409 0.72506735 0.01580191
-0.44258216 -0.57792140 0.00000000
-0.49373057 -0.59339981 0.37886429
-0.26653645 0.48265612 -0.00000058
-0.67024681 -0.55383159 -0.00000047
-0.03719177 0.50122401 0.00000000
-0.54872588 0.18283363 -0.00000125
-0.55366990 -0.37504569 -0.00000029
-0.19072156 0.55590733 0.00000041
-0.45264747 0.33776732 -0.00000097
-0.08033270 0.12613416 0.00000000
-0.74558138 -0.79649463 -0.00000001
-0.37502719 0.32026901 0.28777808
-0.62658599 0.10744388 -0.00000145
-0.06067956 -0.43500994 0.04656245
-0.39530534 -0.35419969 0.30333760
-0.02241771 -0.77933356 0.01720223
-0.43115150 -0.57874915 0.33084408
-0.42866902 -0.15853835 0.32893967
-0.33367305 -0.65588407 0.00000000
-0.30021877 -0.77027945 0.23037286
-0.16676417 -0.58713920 0.00000000
-0.40802636 0.23718606 0.00000157
-0.42976289 0.20694233 -0.00000079
-0.14095396 -0.30881120 0.00000000
-0.37569040 0.07383344 0.00000492
-0.49563030 -0.20598099 0.38032264
-0.47774778 0.17843398 0.00000121
-0.21134430 0.14591514 0.00000000
-0.34703477 -0.03212977 0.26629744
-0.59272803 -0.32133557 0.45483083
-0.27686328 -0.19410443 0.00000000
-0.29551500 0.24284031 -0.00000028
-0.30117719 -0.11473348 0.00000000
-0.13051723 0.60117696 -0.00000021
-0.40337012 -0.33060463 0.30952619
-0.43262284 -0.72306112 0.00000000
-0.02333156 0.45550772 0.01789772
-0.08786023 -0.66338807 0.00000000
-0.04609486 0.27440814 0.03537089
-0.07906411 -0.74611818 0.00000000
-0.27888711 0.51680034 -0.00000069
-0.06019130 -0.42395746 0.04618779
-0.10652007 0.03956182 0.00000980
-0.37067651 -0.76840890 0.28443860
-0.03411968 -0.39230063 0.02618174
-0.33390535 -0.39655107 0.25622225
-0.14149393 0.55824206 0.00000132
-0.01928845 0.11546487 0.01480099
-0.15229816 0.58663890 0.11686636
-0.16201650 0.14538691 0.00000737
-0.09034424 0.53642036 0.06932566
-0.30692820 0.20713668 -0.00000026
-0.22207818 0.35343289 0.17041202
-0.41521968 -0.78279225 0.00000000
-0.41124043 0.11494114 -0.00000054
-0.53715435 -0.13316095 0.41218641
-0.51397552 0.20834722 -0.00000115
-0.61966342 -0.23152138 -0.00000082
-0.22035388 0.39131328 0.16908629
-0.20917455 -0.64379877 0.16051008
-0.20970821 -0.33377917 0.00000000
-0.13234121 0.27032725 0.10154498
-0.71916885 -0.27217625 -0.00000117
-0.24243753 -0.77622031 0.00000000
-0.43413131 0.02311314 -0.00000048
-0.30290924 0.41221337 0.23243819
-0.12846481 0.39638634 0.00000000
-0.33401831 -0.01927315 0.25630922
-0.42665763 0.14211587 0.32739424
-0.13453066 -0.14255103 0.00000000
-0.17155748 0.55039930 0.00000087
-0.61450533 -0.48990899 0.47154126
-0.14424121 0.05985743 0.00000893
-0.08568540 -0.20726626 0.00000000
-0.10654639 0.27936372 0.08175837
-0.29102414 0.34571919 0.00000200
-0.43596161 -0.24994873 -0.00000000
-0.18493940 -0.13422346 0.14191323
-0.19233648 0.05660413 0.14757962
-0.32397628 0.27982679 0.00000247
-0.67082204 -0.52109701 -0.00000053
-0.29662779 -0.04793269 0.00000000
-0.36319914 0.24045309 0.27869961
-0.75517351 -0.24301731 -0.00000138
-0.04874295 0.71264595 -0.00000005
-0.38094771 -0.59047967 0.29232020
-0.42674370 -0.37280633 0.32746194
-0.25722697 0.08061427 0.19737522
-0.02865790 0.46208251 0.02199064
-0.40064927 0.22615281 0.00000189
-0.44306972 -0.17431669 0.33999008
-0.61121109 -0.21071340 0.46901404
-0.16516175 0.33558592 0.12673175
-0.43694796 -0.10201374 -0.00000027
-0.34852701 0.16127641 0.26744282
-0.44349023 -0.64699634 0.34031220
-0.04821585 -0.00736499 0.03699843
-0.73887209 -0.78941303 -0.00000003
-0.60108395 0.11329477 -0.00000007
-0.08254876 0.65745676 0.06334395
-0.14148031 -0.66889983 0.00000000
-0.57894392 0.20153267 -0.00000112
-0.09598224 -0.67966758 0.00000000
-0.00561730 0.09846628 0.00000000
-0.47587637 -0.22747018 0.36516434
-0.27804427 -0.34728321 0.21335726
-0.64331117 0.07301620 -0.00000021
-0.06597956 0.23209083 0.00000000
-0.25744054 0.13531777 0.19754030
-0.10692356 -0.68096432 0.08204779
-0.21397736 -0.26147582 0.00000000
-0.43955185 -0.46578735 0.33729019
-0.54241490 0.18550498 -0.00000015
-0.34478054 0.26092291 0.26456598
-0.58792354 -0.20025314 0.45114428
-0.07137674 -0.11231785 0.00000000
-0.32432508 -0.41349839 0.00000000
-0.04091151 0.41093285 0.03139345
-0.35754884 -0.05654641 -0.00000001
-0.30513469 0.43587599 -0.00000066
-0.04935117 0.27997429 0.00000000
-0.06518866 -0.10538121 0.00000000
-0.24934725 -0.50161344 0.19133659
-0.36513926 -0.20920136 0.00000000
-0.66404237 -0.23456160 -0.00000101
-0.77261111 -0.19457024 -0.00000151
-0.00585892 0.44743859 0.00448962
-0.14864955 0.46087822 0.00000281
-0.60656820 -0.30185352 -0.00000064
-0.25755459 -0.31722550 0.19763450
-0.53050822 -0.55599167 0.00000000
-0.19705352 0.53607591 0.15120920
-0.29179638 -0.78800082 0.22390993
-0.10055425 0.35509558 0.00000516
-0.00471252 0.46587096 0.00361615
-0.15075978 0.48982753 0.11568331
-0.58663896 -0.74895453 0.00000000
-0.20034271 -0.57033680 0.15373297
-0.18265478 0.31948490 0.00000445
-0.06389065 0.52489636 0.00000000
-0.30063356 0.36862376 0.00000143
-0.21918812 0.54953703 -0.00000049
-0.78277069 -0.42472580 -0.00000094
-0.54176018 0.05546669 -0.00000100
-0.72320607 -0.09767251 -0.00000150
-0.40119978 0.02088724 0.30786129
-0.27689716 -0.11932582 0.21247702
-0.25064460 0.26127358 0.00000419
-0.24662333 -0.58871195 0.18924640
-0.37367912 0.30361567 -0.00000072
-0.33941740 -0.67488074 0.26045192
-0.38560484 0.19355578 0.29589227
-0.53253144 -0.25293528 -0.00000041
-0.33402914 -0.56820729 0.25631724
-0.49432813 -0.06263976 0.37932363
-0.04413405 0.52551575 0.00000000
-0.40296279 0.39012952 -0.00000100
-0.37594768 -0.00136923 0.28848394
-0.26009887 -0.11477822 0.00000000
-0.56357671 -0.50769933 0.43246116
-0.29242617 -0.44885349 0.00000000
-0.11927356 0.51825255 0.09152468
-0.26375708 -0.18074440 0.20239398
-0.00885199 0.09437087 0.00001045
-0.03163115 0.32190318 0.00000669
-0.69769435 -0.52373522 -0.00000064
-0.46040827 -0.60393920 0.35329426
-0.15697423 0.47948548 0.12045193
-0.03108704 0.60191252 0.00000250
-0.60696617 -0.22953182 0.46575666
-0.58137131 -0.13635451 0.44611649
-0.10782148 -0.08723755 0.00000000
-0.40280231 0.16591856 0.30909122
-0.56888253 -0.73512778 0.00000000
-0.19158673 -0.52424181 0.14701407
-0.41093207 -0.61200249 0.00000000
-0.53423083 0.15164963 0.00000057
-0.40352270 0.09263964 0.00000407
-0.17615464 0.48769340 -0.00000020
-0.41178200 0.23883501 -0.00000077
-0.02196146 0.54615871 0.01684798
-0.35468686 -0.05878029 0.00000000
-0.03812899 0.64065658 0.00000181
-0.35778725 -0.43064979 0.00000000
-0.14287065 -0.49274141 0.00000000
-0.23337620 0.08439265 0.17908121
-0.57776064 0.02471540 -0.00000110
-0.04006778 0.24564288 0.03074601
-0.34800648 0.40318688 -0.00000005
-0.00049186 0.61057096 0.00000283
-0.40818145 0.24638723 0.31321905
-0.22802738 -0.58246244 0.17497680
-0.09836064 0.31807217 0.07547021
-0.23495235 -0.24048177 0.00000000
-0.07373661 0.07984450 0.05657022
-0.32059335 -0.51090623 0.24600728
-0.29188538 -0.17739535 0.00000000
-0.11629860 -0.15341781 0.08924172
-0.00664353 -0.57987235 0.00509791
-0.28163050 -0.70577626 0.21610914
-0.53107777 -0.09817251 0.40752358
-0.00961613 0.25836226 0.00737893
-0.21071727 -0.74832424 0.00000000
-0.34082337 0.07703863 0.00000553
-0.01628419 0.32814909 0.01248750
-0.50530821 -0.79349532 0.38774822
-0.39660640 -0.75539921 0.00000000
-0.31815103 0.18995051 0.24412949
-0.00145752 0.71543580 0.00111694
-0.25287729 -0.73928896 0.19404537
-0.31020353 -0.79589100 0.00000000
-0.01180785 0.28320331 0.00906075
-0.00085909 0.48548480 0.00000000
-0.27739465 0.29010252 0.00000319
-0.10584203 -0.06754596 0.08121788
-0.53177613 0.22016682 -0.00000124
-0.14238491 -0.68429693 0.00000000
-0.75708321 -0.18689473 -0.00000149
-0.25557667 -0.41666178 0.19611674
-0.42419797 -0.32301293 0.00000000
-0.27708945 0.43904460 0.00000071
-0.05626309 -0.34208558 0.00000000
-0.12335768 -0.38965298 0.09465851
-0.43629410 0.17503667 0.33479131
-0.66210589 -0.65566771 -0.00000025
-0.31036096 0.01285486 0.23815570
-0.29823461 -0.69990788 0.00000000
-0.08335882 0.60370174 -0.00000001
-0.34949218 0.41860767 -0.00000034
-0.22913924 -0.28868530 0.17582998
-0.49625899 -0.49094877 0.38080463
-0.02877494 0.38444292 0.02207352
-0.52913929 -0.66690306 0.40603522
-0.24586245 0.02966524 0.18865329
-0.37778452 -0.52344370 0.00000000
-0.12323289 0.19734238 0.09456275
-0.20070629 0.26928461 0.15401208
-0.57224753 0.17697536 -0.00000058
-0.78792034 -0.65543860 -0.00000036
-0.11763987 0.11635151 0.09027095
-0.16443913 0.13757006 0.12617353
-0.39903076 -0.28678418 0.00000000
-0.51266535 0.00040008 0.00000351
-0.00134676 0.26134821 0.00000000
-0.09396737 0.50433379 0.00000000
-0.78821296 -0.16578225 -0.00000159
-0.10077775 0.52462818 0.07732885
-0.57271688 -0.23327829 0.43947533
-0.04346580 -0.43429193 0.00000000
-0.05736168 -0.53389455 0.00000000
-0.08628949 0.45126133 0.00000393
-0.03791926 0.30620481 0.00000000
-0.06719304 0.09994689 0.00000000
-0.27174244 -0.22780782 0.20852154
-0.01248458 0.13692285 0.00958004
-0.09297418 0.46718356 0.00000000
-0.74410515 -0.41423416 -0.00000096
-0.41935567 -0.47544457 0.00000000
-0.19575157 -0.20042666 0.00000000
-0.18780913 0.06265730 0.14411532
-0.53183020 -0.07134093 0.40810099
-0.06423604 0.58401237 0.00000000
-0.14976299 0.38396578 0.11491609
-0.00736643 0.21136958 0.00000872
-0.04524978 0.07162152 0.03471018
-0.44735153 0.20164472 0.34327562
-0.39624141 0.29386636 0.30405674
-0.04908906 -0.57392977 0.03766849
-0.04189235 -0.30594015 0.00000000
-0.56822838 0.16297480 -0.00000130
-0.40145564 -0.73490039 0.00000000
-0.45382332 -0.16612194 -0.00000023
-0.35303570 0.24026175 0.27090270
-0.42456097 -0.05050190 -0.00000031
-0.09707191 0.07587981 0.07447693
-0.08576560 0.56956717 0.06581228
-0.05055306 -0.11868260 0.03879189
-0.08711959 -0.18103826 0.06685121
-0.47111202 -0.27822774 0.36150831
-0.26934478 -0.45629778 0.20668170
-0.29973812 -0.24504480 0.23000403
-0.02223291 0.67346695 0.00000156
-0.44467731 0.20928384 -0.00000085
-0.31206051 0.29287162 0.23945798
-0.23459053 -0.77171093 0.18001303
-0.10318910 -0.70093946 0.00000000
-0.30730137 0.10232935 0.23580178
-0.18116322 -0.44869281 0.13901559
-0.04093483 0.50271177 0.03141134
-0.04011313 0.56204337 0.00000296
-0.43602386 -0.37239747 0.33458312
-0.27285055 0.24081590 0.20936792
-0.02593751 -0.20338905 0.00000000
-0.28787378 -0.23468012 0.00000000
-0.43718732 -0.40167350 0.00000000
-0.20946074 0.32806948 -0.00000006
-0.07786810 0.68073213 -0.00000012
-0.55462867 0.24023577 -0.00000130
-0.29555124 -0.57764318 0.00000000
-0.02222776 0.05129424 0.01705647
-0.19042574 -0.70516583 0.14612318
-0.27213863 -0.23944409 0.00000000
-0.49686459 -0.50026388 0.00000000
-0.55077446 0.05287997 0.42263708
-0.50792003 -0.21005258 0.38975321
-0.16974329 0.04609704 0.13025250
-0.00439413 0.63560691 0.00000240
-0.10091719 0.17557159 0.07742947
-0.31255171 0.37429864 0.23983733
-0.30417077 0.29945340 0.23340606
-0.19713883 -0.58804204 0.15127447
-0.09071251 -0.18849661 0.06960824
-0.03434217 0.07395679 0.00001037
-0.46581393 -0.19837575 -0.00000022
-0.31709990 0.11113981 0.24332117
-0.37327154 0.05676397 0.28643048
-0.04157479 0.35476325 0.00000605
-0.17028599 0.22230683 0.00000610
-0.17772905 0.33800916 0.13638049
-0.58883485 -0.42660602 0.45184317
-0.54888022 0.21522638 -0.00000077
-0.09320774 0.30893549 0.07151587
-0.11725942 0.00287235 0.00001019
-0.69191601 -0.35373742 -0.00000091
-0.12447682 -0.04783645 0.09551728
-0.41015180 -0.66158597 0.31472996
-0.34407758 0.12999415 -0.00000028
-0.15434914 -0.03013455 0.00000000
-0.28033229 0.28504276 0.21511021
-0.27375278 0.25297885 0.21006461
-0.54053441 0.16359012 0.00000025
-0.16944991 0.22057851 0.00000613
-0.25709794 -0.08209550 0.00000000
-0.13485090 -0.62205575 0.10347783
-0.16033264 -0.00463155 0.00000000
-0.31399212 -0.05948750 0.24094198
-0.73981406 -0.05434886 -0.00000165
-0.26565977 0.26009671 -0.00000018
-0.36986956 -0.27024209 0.28381947
-0.53462892 0.10521673 0.41024845
-0.07189644 0.38554226 0.05516362
-0.29086953 -0.43875483 0.00000000
-0.62396046 -0.67628907 -0.00000005
-0.69238482 -0.19541843 -0.00000120
-0.40268571 -0.53789298 0.30900085
-0.05120076 0.45166367 0.03928360
-0.53801933 0.06571652 -0.00000100
-0.61793777 -0.31876288 -0.00000066
-0.02850750 0.37585988 0.00000593
-0.37257706 0.04321810 0.00000549
-0.30500281 -0.60867200 0.23404389
-0.17219854 0.19361797 0.13213654
-0.34411399 0.11046321 -0.00000025
-0.05716569 0.06521699 0.00001016
-0.42202562 0.02167606 -0.00000043
-0.56504669 -0.52411586 -0.00000007
-0.59446498 -0.06991959 0.45616408
-0.06660829 -0.67467027 0.05111187
-0.08904876 0.17995802 0.06833156
-0.26176098 0.42995480 -0.00000046
-0.03322067 -0.32341327 0.02549188
-0.12884097 0.05868714 0.00000918
-0.52374844 -0.59843354 0.40189862
-0.14137148 0.58793016 0.10848104
-0.14798674 -0.32110497 0.00000000
-0.27525718 0.06300184 0.00000000
-0.05293644 0.59878269 0.00000000
-0.54157160 -0.32252692 -0.00000033
-0.03303479 0.59366258 0.02534615
-0.29424702 -0.05384989 0.22579049
-0.56828818 -0.72180491 0.43607605
-0.20745536 -0.76811297 0.00000000
-0.63714176 0.03111553 -0.00000136
-0.71891574 -0.62944825 -0.00000043
-0.38288848 -0.57878280 0.00000000
-0.36042243 -0.39893750 0.27657013
-0.77249344 -0.65318565 -0.00000037
-0.42118236 -0.36606802 0.32319443
-0.70109992 -0.07817669 -0.00000144
-0.37179807 0.04730584 0.28529980
-0.07547812 -0.20465457 0.00000000
-0.06943152 -0.72473093 0.05327827
-0.56560907 -0.10296866 0.43402131
-0.43289275 -0.27263504 0.00000000
-0.40948735 0.08087053 -0.00000048
-0.02842972 -0.60787001 0.00000000
-0.69978131 -0.41139034 -0.00000085
-0.07558909 0.43589810 0.00000000
-0.37894607 -0.67765360 0.29078424
-0.13970737 -0.48265151 0.00000000
-0.70938345 -0.67264197 -0.00000032
-0.08898066 0.07363623 0.06826792
-0.28525202 -0.41194014 0.00000000
-0.26348127 -0.06511823 0.20218234
-0.52064568 0.11525849 0.39951878
-0.71825422 -0.64235306 -0.00000039
-0.10389567 -0.38805257 0.07972434
-0.01577309 0.42383248 0.01209701
-0.07257249 0.57198513 0.00000000
-0.29301911 0.18761397 0.00000460
-0.17616338 -0.78009231 0.13517896
-0.09330144 0.23863869 0.00000701
-0.06635253 0.67702386 -0.00000007
-0.17617881 0.32054192 0.00000000
-0.30736235 0.14171545 0.00000509
-0.10159200 -0.46457849 0.00000000
-0.25840648 -0.71416143 0.00000000
-0.14703344 0.20451224 0.00000671
-0.23125457 0.30332809 0.17744935
-0.54255640 -0.63835923 0.00000000
-0.23303213 0.19276859 0.17881734
-0.04454309 0.46846238 0.00000430
-0.13770869 -0.60273875 0.00000000
-0.18252411 0.06261564 0.14005987
-0.25377462 0.42097301 0.19473453
-0.23863930 0.08625070 0.00000000
-0.42825693 -0.45959096 0.32862299
-0.07397242 -0.17738234 0.00000000
-0.24654819 0.38421469 0.18918712
-0.35594856 0.11429715 0.27313770
-0.67561326 -0.74363233 -0.00000014
-0.41379364 0.17157314 0.00000255
-0.39659759 -0.36624188 0.30432920
-0.26411184 0.05164677 0.00000724
-0.38025213 -0.73326895 0.00000000
-0.32108369 0.12242711 0.24637849
-0.17348638 0.47309917 0.13312506
-0.29190744 0.01285109 0.00000000
-0.31942536 -0.60560037 0.24511103
-0.60644209 -0.42635149 -0.00000042
-0.13046526 -0.13610380 0.00000000
-0.39887781 0.12039221 0.00000369
-0.35261803 -0.05132048 0.27058176
-0.27366238 -0.71269689 0.00000000
-0.11060060 -0.74058425 0.00000000
-0.06884201 -0.22219719 0.05282591
-0.29987054 -0.06872641 0.00000000
-0.61788907 -0.29389060 0.47413820
-0.48249960 -0.78983593 0.37024604
-0.63325919 -0.17033345 0.48593273
-0.04853394 0.20263704 0.03724251
-0.39966087 0.13617380 0.30668058
-0.07960778 -0.29609079 0.00000000
-0.53357530 0.01582767 -0.00000089
-0.18449165 -0.43681166 0.14156966
-0.11270782 0.47715522 0.08648637
-0.30299485 -0.18536968 0.23250308
-0.00917151 0.60369863 0.00703440
-0.20084941 -0.22185007 0.15412178
-0.54412628 -0.59394388 0.41753566
-0.47382671 -0.65804600 0.00000000
-0.41596433 0.33438376 -0.00000095
-0.17449653 0.35696183 0.00000000
-0.31743848 0.37439399 -0.00000060
-0.35628936 0.04310937 0.00000580
-0.03078154 0.58152745 0.02361686
-0.10283166 -0.75236302 0.07890787
-0.04448737 0.68414487 0.03413620
-0.61269434 -0.30488710 -0.00000066
-0.53682071 -0.27809809 0.41193017
-0.14022519 0.18002519 0.10759328
-0.38654040 0.10524608 0.00000418
-0.01346548 0.49820400 0.00000432
-0.02976181 0.13337652 0.00000955
-0.02584418 -0.54365695 0.00000000
-0.17820896 -0.49049702 0.13674864
-0.03171084 -0.73303006 0.00000000
-0.12417970 -0.67697637 0.09528929
-0.25187738 -0.38618030 0.19327809
-0.56634478 0.07107723 0.43458613
-0.44116286 0.32951236 -0.00000105
-0.58146281 -0.44518866 0.44618620
-0.11050982 -0.29897552 0.08479971
-0.38823505 -0.79260562 0.29791214
-0.23411466 -0.54815299 0.00000000
-0.63189726 -0.61515404 0.48488668
-0.04262379 0.12855082 0.03269610
-0.37330909 -0.21347960 0.00000000
-0.24214811 0.05981461 0.00000745
-0.09131463 -0.43127999 0.00000000
-0.63841510 -0.63488020 -0.00000019
-0.24339916 0.31587091 -0.00000018
-0.01499690 0.72209850 0.01150787
-0.36693518 0.12853911 0.00000417
-0.60330251 0.03066079 0.00000127
-0.03084018 -0.60808793 0.02366521
-0.25503056 0.22276641 -0.00000007
-0.26088414 0.26523974 -0.00000017
-0.49734473 0.09309608 0.38163866
-0.58795268 0.05886418 0.45116703
-0.26514870 -0.21977549 0.00000000
-0.09080993 -0.41397684 0.06968300
-0.24890312 -0.18793408 0.19099579
-0.20121969 0.28009319 0.00000476
-0.37122476 -0.36734104 0.00000000
-0.10223854 0.29738403 0.00000000
-0.33497888 -0.41647821 0.25704602
-0.25087109 -0.49608888 0.19250591
-0.03492615 0.57243331 0.02679714
-0.65222478 -0.20699529 -0.00000100
-0.05894415 0.62028787 0.00000181
-0.30163351 -0.19477827 0.23145846
-0.03609635 0.05252121 0.00001067
-0.67014215 -0.64700325 -0.00000030
-0.08630652 -0.78659577 0.00000000
-0.15233360 0.61230331 -0.00000032
-0.61916020 -0.03015309 0.47511413
-0.10150212 -0.32768533 0.00000000
-0.14574625 0.46550987 0.00000279
-0.22335312 0.45130315 0.17138914
-0.46970330 0.17257010 0.36042729
-0.11343818 0.42426247 0.08704215
-0.31381724 0.36479008 0.24080842
-0.59301938 -0.73862907 0.45505349
-0.14271753 -0.47773114 0.10951429
-0.14723431 -0.28346172 0.11298024
-0.29609210 0.39884762 0.22720701
-0.54141217 -0.26915070 -0.00000042
-0.33964812 0.30219522 0.26062977
-0.32242259 0.07289551 -0.00000009
-0.38102852 -0.45536870 0.00000000
-0.09665064 -0.12447373 0.07416486
-0.20114305 -0.22333855 0.15434710
-0.14910855 -0.11840348 0.00000000
-0.75143685 -0.53748339 -0.00000066
-0.28832371 0.33570057 0.00000222
-0.04743008 0.35593224 0.00000000
-0.41042767 -0.39446030 0.31494173
-0.16619752 -0.03837644 0.00000000
-0.33449433 0.37464472 0.25667510
-0.73056137 0.01585423 -0.00000173
-0.22578534 0.19289768 0.17325649
-0.17945204 -0.49237658 0.13770251
-0.39598873 -0.40848534 0.30386193
-0.47373694 -0.47479388 0.36352226
-0.49474836 0.04366033 0.37964358
-0.13387177 0.29186571 0.10272650
-0.20710968 -0.51155573 0.15892560
-0.16883728 -0.10094854 0.12955728
-0.07425710 -0.66838578 0.05698118
-0.62331818 -0.72044199 0.47830329
-0.42664393 0.05148220 0.32738602
-0.03771503 0.25550233 0.02894062
-0.12386836 0.15940662 0.00000000
-0.38799880 0.01124178 0.29772540
-0.36177906 0.33546118 0.00000081
-0.63377733 -0.65497992 0.48632926
-0.33670006 0.24640540 0.25836487
-0.18516379 0.46408317 0.00000206
-0.42343364 -0.62167918 0.00000000
-0.07680053 0.25876088 0.00000000
-0.00728715 0.69074453 0.00000153
-0.79209374 -0.31316710 -0.00000122
-0.42175890 0.21537576 0.32363665
-0.63497605 -0.63513051 -0.00000017
-0.33934927 0.23485491 -0.00000045
-0.23404044 0.01835312 0.00000000
-0.04589865 0.42165310 0.03521439
-0.03262116 0.14773172 0.02503184
-0.31818619 0.00111177 0.00000000
-0.07595803 -0.70612337 0.00000000
-0.41026452 -0.58480926 0.00000000
-0.10094289 0.30456630 0.00000591
-0.50898419 -0.11146716 -0.00000056
-0.54654233 -0.62752131 0.41938958
-0.00925556 0.02516914 0.00001148
-0.04498350 -0.36113638 0.03451808
-0.05168113 -0.00644910 0.03965751
-0.50810002 -0.20936326 0.38989133
-0.32534883 0.13449145 0.00000487
-0.05356177 0.36960524 0.00000000
-0.31015970 0.07968526 -0.00000005
-0.17462589 0.30494068 0.13399922
-0.53582398 -0.42573685 0.41116511
-0.26979665 0.27161772 0.20702508
-0.45082642 -0.38703077 0.00000000
-0.16174969 0.41344649 -0.00000001
-0.17903772 0.00863195 0.00000000
-0.57098756 -0.52105133 -0.00000010
-0.05139657 0.55820198 0.00000285
-0.62821803 -0.42021017 0.48206385
-0.05878569 0.02888087 0.00000000
-0.24356124 0.36225031 -0.00000027
-0.45864741 -0.00765216 0.35194395
-0.13956563 -0.64397286 0.10709568
-0.38868597 0.31854007 0.00000058
-0.37242177 0.23463660 0.28577674
-0.60897382 -0.55220170 -0.00000021
-0.59297409 -0.75695125 0.00000000
-0.60177902 -0.69124097 0.46177529
-0.07050549 -0.67392186 0.05410238
-0.07344744 0.54229550 0.05635663
-0.23493418 0.10594989 0.18026873
-0.14948248 0.32700818 0.11469967
-0.33356033 0.15817092 0.25595806
-0.41229713 0.15827617 0.31637710
-0.09172270 -0.46127503 0.07038341
-0.01040831 0.60642031 0.00798682
-0.11710076 -0.50946562 0.00000000
-0.37538831 0.05207466 -0.00000028
-0.08351086 -0.65296446 0.00000000
-0.31704525 -0.67827909 0.24328465
-0.25940540 0.16881173 0.19905495
-0.40447773 -0.35344296 0.00000000
-0.17492684 -0.15334068 0.00000000
-0.37050581 -0.46114172 0.28430761
-0.14523166 0.09256129 0.00000842
-0.09439248 -0.73476107 0.00000000
-0.55571754 -0.08586393 0.42643103
-0.62520403 -0.24088389 -0.00000083
-0.51508794 -0.63279054 0.39525290
-0.06515641 0.02202018 0.00001069
-0.44509674 -0.32247987 0.00000000
-0.18895398 -0.64944513 0.00000000
-0.36039979 -0.61550577 0.00000000
-0.05817467 0.57932200 0.04464033
-0.59093797 -0.60376802 -0.00000004
-0.61357559 -0.29672143 0.47082825
-0.35602548 -0.64187208 0.00000000
-0.04196751 0.70239696 0.00000082
-0.02706004 -0.41734539 0.00000000
-0.53226365 0.25091295 -0.00000130
-0.25772754 0.36262237 -0.00000033
-0.36116315 -0.67963894 0.27713852
-0.33308250 -0.72268574 0.00000000
-0.14915391 0.51343252 -0.00000013
-0.56622652 0.01822984 0.43449530
-0.53797237 0.02908516 0.41281437
-0.18204449 -0.58780717 0.13969183
-0.07880858 0.46407874 0.06047376
-0.12007015 0.35102795 0.09213000
-0.28361683 0.37137322 0.21763401
-0.36185258 -0.75918825 0.27766755
-0.20041565 -0.64421474 0.00000000
-0.31496773 0.19898607 0.24169100
-0.09292420 0.61785355 -0.00000007
-0.62816664 -0.79747935 0.48202358
-0.57005485 -0.08224716 0.43743283
-0.45521413 -0.78251267 0.00000000
-0.54119820 -0.54016134 0.41528887
-0.13248354 0.04648655 0.10165017
-0.55483830 0.05963035 0.42575574
-0.76262231 -0.25284973 -0.00000137
-0.09085745 0.30311670 0.06971223
-0.10452007 0.55526736 0.08020358
-0.21462189 -0.67190059 0.16469010
-0.44374278 -0.51304124 0.00000000
-0.35664973 -0.48414496 0.00000000
-0.61571052 0.18172534 -0.00000153
-0.29378545 -0.61399143 0.22543624
-0.28649771 -0.18769059 0.21984400
-0.14805203 -0.27924827 0.11360771
-0.05900079 0.30217911 0.04527425
-0.55702758 0.21249234 -0.00000088
-0.43644515 -0.55245821 0.00000000
-0.17883816 0.33821945 0.00000000
-0.20562075 -0.40780581 0.00000000
-0.39285862 -0.55034589 0.30146004
-0.10780254 -0.27495588 0.08272227
-0.01740771 0.51078213 0.00000000
-0.25002329 0.33181773 -0.00000024
-0.48001531 0.13778842 0.00000184
-0.05595693 -0.79066448 0.04293855
-0.18288414 -0.35901429 0.00000000
-0.19034491 0.56338077 0.00000030
-0.43833639 0.01119008 0.33635822
-0.43175000 -0.69206874 0.00000000
-0.34366946 -0.30813242 0.00000000
-0.07019621 -0.16879403 0.00000000
-0.39591968 -0.61932538 0.30380895
-0.21391457 0.22183363 0.00000000
-0.31049103 -0.57771879 0.23825527
-0.33511593 0.29242497 -0.00000053
-0.50497014 0.19031701 0.00000049
-0.14721819 0.22011638 0.11296787
-0.24147255 0.37032039 -0.00000027
-0.28218941 -0.56582942 0.00000000
-0.42939582 -0.11639255 0.32949744
-0.07905402 -0.47994987 0.00000000
-0.00021292 0.00039815 0.00001199
-0.22338487 -0.12484995 0.17141437
-0.20816313 0.48998879 0.00000118
-0.03228744 0.32752184 0.02477576
-0.24420367 0.40248207 -0.00000034
-0.28933521 0.23621877 0.22201781
-0.18379688 0.03410403 0.00000872
-0.11085704 -0.51930558 0.08506615
-0.12468530 0.19805723 0.00000000
-0.13569647 -0.06302792 0.00000000
-0.24197545 -0.45083183 0.00000000
-0.00868518 -0.11678442 0.00000000
-0.25354732 -0.42061882 0.00000000
-0.19278625 0.47782642 0.14793332
-0.62731262 -0.00774856 0.48136996
-0.05983537 -0.28945143 0.04591466
-0.56127280 0.20089484 -0.00000077
-0.19701933 -0.38490918 0.15118277
-0.45937025 0.29311269 -0.00000035
-0.35273828 0.27173284 0.27067452
-0.27015438 -0.32368105 0.00000000
-0.60150626 -0.44893451 0.46156652
-0.00193691 0.78182167 0.00148600
-0.29831234 -0.15135505 0.22890995
-0.05719989 -0.25644711 0.00000000
-0.53209437 0.09959833 0.40830336
-0.43660692 -0.24057012 -0.00000002
-0.14288077 0.56997202 -0.00000020
-0.74006292 -0.48229822 -0.00000079
-0.19642885 -0.69038417 0.15072966
-0.38384098 0.19904689 0.29454120
-0.23656578 0.04543435 0.18151960
-0.23047007 0.14050368 0.17684381
-0.16386312 0.48595605 -0.00000014
-0.09479814 -0.72283153 0.00000000
-0.52664490 -0.64939820 0.00000000
-0.12786057 0.35453904 0.09811380
-0.61029444 -0.74441050 0.46830948
-0.12721637 -0.39588530 0.00000000
-0.04388242 0.39561209 0.03366673
-0.59481247 -0.50620166 0.45642992
-0.09253630 -0.41378402 0.07100773
-0.07020427 0.59374175 0.05386888
-0.15546500 0.43953974 0.11929623
-0.56704384 -0.60679507 0.43512146
-0.11549886 0.66962661 -0.00000004
-0.51319731 0.26239411 -0.00000088
-0.44190174 0.17900566 0.33909436
-0.07930508 0.42777736 0.06084954
-0.79483604 -0.05452288 -0.00000186
-0.22869428 0.54542516 -0.00000053
-0.29277820 0.42864331 0.00000058
-0.49617887 -0.17033409 0.38074363
-0.25134767 0.31307510 -0.00000021
-0.69192752 0.10806179 -0.00000173
-0.28880026 -0.34731305 0.22161086
-0.01178297 -0.17173508 0.00000000
-0.00148948 0.08999361 0.00113023
-0.00766504 -0.28450319 0.00000000
-0.06854292 0.59032612 0.05259640
-0.44177892 -0.72851940 0.00000000
-0.03104299 0.31377752 0.00000682
-0.74282314 -0.50061269 -0.00000075
-0.66902927 -0.29977709 -0.00000091
-0.15286298 0.40046485 0.11729950
-0.45905316 0.11354773 -0.00000075
-0.41145613 0.22862485 0.31573186
-0.70390011 -0.20873090 -0.00000122
-0.25562675 0.14163569 0.19615535
-0.40631045 0.02392902 0.00000516
-0.31672672 0.39121162 0.24304087
-0.26557247 0.11335529 0.00000000
-0.68657504 0.07657001 -0.00000110
-0.32075682 0.02913079 0.24612563
-0.06219453 -0.62274113 0.00000000
-0.30420292 0.20214479 0.23343059
-0.54394297 -0.72841483 0.00000000
-0.38287908 0.24186216 0.29380163
-0.11599317 0.64038082 -0.00000021
-0.28816676 -0.54036432 0.00000000
-0.05256658 0.57099618 0.00000264
-0.51092909 0.01287443 0.39206256
-0.38588217 0.32838817 -0.00000081
-0.25486144 0.47206228 0.00000058
-0.49608467 -0.75970732 0.38067054
-0.14739645 -0.15546092 0.11310465
-0.38150125 0.23477324 -0.00000063
-0.33424712 -0.68213231 0.25648451
-0.48438524 0.17683882 0.37169401
-0.59928403 -0.29470600 -0.00000062
-0.37901139 0.39154705 -0.00000046
-0.59288037 0.15237597 -0.00000057
-0.60795549 -0.10197738 0.46651603
-0.30328583 0.22243923 0.23272688
-0.40812650 0.10912134 0.00000370
-0.31693249 0.35074821 0.00000142
-0.14209349 0.32913925 0.10902963
-0.20678317 -0.67137896 0.00000000
-0.19479609 0.36837453 0.14947325
-0.14803420 0.56213550 0.11359332
-0.06334296 -0.75417717 0.00000000
-0.49468161 0.23488127 -0.00000111
-0.52246590 -0.18797488 -0.00000048
-0.00323136 -0.26391097 0.00247958
-0.23889100 -0.53435470 0.18331300
-0.53321036 -0.78238990 0.40915897
-0.57077692 -0.67447612 0.00000000
-0.53050035 -0.44456609 0.40707997
-0.17478031 -0.68858328 0.13411766
-0.40819974 0.10439206 0.00000378
-0.56985925 0.15861330 -0.00000130
-0.68761531 0.01343138 -0.00000154
-0.11394658 0.57476836 0.00000157
-0.20499240 0.00155393 0.15729039
-0.06273194 0.51668422 0.04813344
-0.23983003 0.21025628 0.00000523
-0.08813943 0.18051727 0.00000796
-0.23680338 -0.05852993 0.00000000
-0.31361652 -0.42020276 0.00000000
-0.72931017 -0.29260697 -0.00000118
-0.58602644 0.14982742 -0.00000039
-0.45014507 0.21671333 0.34541998
-0.57980036 0.20251546 -0.00000142
-0.72564716 -0.51681142 -0.00000071
-0.29139881 0.24132336 0.22360149
-0.29091440 -0.51619293 0.22323314
-0.08657290 0.53779683 0.06643171
-0.21458143 -0.09286376 0.00000000
-0.20215902 -0.13825593 0.15512672
-0.50779334 -0.16339172 0.38965607
-0.28580914 0.27493698 0.21931282
-0.14200410 -0.76013102 0.10896684
-0.58901412 0.12988255 -0.00000012
-0.51286188 -0.62969410 0.39354473
-0.22493719 -0.63949198 0.00000000
-0.49962061 0.20841613 -0.00000109
-0.48375061 -0.59074473 0.37120612
-0.07903227 0.53795027 0.06064218
-0.24092688 0.01320977 0.18487523
-0.55268126 0.00514787 0.00000266
-0.73490757 0.00916169 -0.00000174
-0.35439150 0.32357479 0.27194321
-0.07089488 -0.44554851 0.00000000
-0.42974921 -0.55245328 0.00000000
-0.00314008 0.36083933 0.00240954
-0.64572631 0.15073088 -0.00000161
-0.09806094 0.42691294 0.00000000
-0.28518434 0.26271557 0.00000350
-0.07348682 -0.49909173 0.05639011
-0.62341968 -0.38877863 0.47838190
-0.41818708 0.05203673 0.32089662
-0.11288058 0.56390058 0.08661718
-0.07441363 -0.63475346 0.05710129
-0.19380907 0.50544761 0.00000120
-0.19335759 0.54575146 0.00000053
-0.79406345 -0.21806020 -0.00000145
-0.02900969 -0.09824150 0.02226058
-0.47444335 0.32431639 -0.00000118
-0.45946601 -0.51640500 0.00000000
-0.04605575 -0.21479894 0.00000000
-0.51706574 0.11526802 0.39677170
-0.11359282 -0.44162586 0.08716544
-0.14722488 -0.75424475 0.11297300
-0.03240810 0.12380607 0.00000000
-0.31776831 0.39518242 -0.00000064
-0.56619920 0.06166114 0.43447391
-0.20695001 -0.49978847 0.00000000
-0.60572410 -0.37583078 -0.00000051
-0.58351362 0.03307942 0.44776066
-0.46439814 -0.03856589 0.35635675
-0.22318025 -0.58583114 0.00000000
-0.12163556 -0.45463983 0.00000000
-0.16001132 -0.58814665 0.00000000
-0.10108477 0.46024644 0.07756739
-0.51975229 -0.52440516 0.39883227
-0.08689650 0.64069370 0.06667918
-0.38479629 -0.40095260 0.29527341
-0.03987699 -0.07165334 0.03059960
-0.00974027 0.20625231 0.00000000
-0.12720238 0.05412663 0.09760874
-0.31955752 0.34644453 -0.00000056
-0.71421436 -0.28396860 -0.00000113
-0.54341122 -0.19456842 -0.00000056
-0.59734905 -0.30140666 -0.00000060
-0.45367042 -0.75144415 0.34812397
-0.42215001 0.22896602 0.32393707
-0.66397014 -0.16458739 -0.00000113
-0.19512461 -0.08838615 0.14972886
-0.30212208 0.19517068 0.23182932
-0.40219094 -0.55373179 0.30862119
-0.20766438 -0.73043478 0.00000000
-0.09822112 0.63823392 0.00000082
-0.41143444 0.34777498 -0.00000096
-0.19490741 0.31987214 0.14956236
-0.00171067 -0.41750335 0.00131268
-0.42716228 -0.01108317 -0.00000039
-0.58193699 0.06363825 0.44655081
-0.47255504 -0.14877278 0.36261582
-0.22341388 0.35526702 0.00000314
-0.50711629 0.11307679 0.38913598
-0.14971928 -0.09471556 0.00000000
-0.49998687 -0.59943311 0.00000000
-0.58038115 -0.53298699 -0.00000012
-0.09057848 -0.10420457 0.06950539
-0.17073406 -0.07201948 0.00000000
-0.34793723 -0.66605919 0.00000000
-0.28411221 -0.50585220 0.00000000
-0.35418285 0.14488164 -0.00000035
-0.58304478 0.06065214 0.44740085
-0.36944582 -0.54524106 0.00000000
-0.47828588 0.15105765 0.36701385
-0.07845121 0.05757765 0.00000000
-0.28855530 -0.78429762 0.00000000
-0.54899024 0.05259968 0.00000194
-0.18705904 0.07820109 0.00000000
-0.23077457 0.04876267 0.17708485
-0.47370531 -0.51089886 0.36349794
-0.16919264 -0.08099484 0.00000000
-0.11083650 -0.48589411 0.08505038
-0.26905661 0.05589700 0.20646068
-0.21375162 -0.28390216 0.16402229
-0.04149035 0.20067899 0.00000000
-0.43023208 -0.69758452 0.33013856
-0.42595800 0.15512308 0.32685983
-0.27709176 0.35034119 0.21262693
-0.07535544 0.47842130 0.00000000
-0.13851167 0.15395789 0.10628692
-0.01313746 0.35268365 0.00000000
-0.03302364 0.27790129 0.00000000
-0.12045350 -0.56412448 0.00000000
-0.46117717 -0.28510807 0.35388475
-0.46963830 0.12339944 -0.00000081
-0.22526413 -0.51589374 0.17285642
-0.22245350 -0.44189433 0.17069968
-0.25913052 0.28936232 -0.00000020
-0.06817051 -0.65991940 0.05231064
-0.37054079 0.19563090 0.28433247
-0.27077795 0.24648183 -0.00000018
-0.01115195 0.16966982 0.00000000
-0.06020177 -0.15451291 0.04619583
-0.12368473 -0.08311448 0.09490947
-0.14768741 0.51205519 0.11332611
-0.40566667 -0.33471612 0.00000000
-0.08794647 -0.74086599 0.00000000
-0.50408803 0.17384388 0.00000078
-0.55774373 0.13355572 -0.00000120
-0.20581812 -0.46895199 0.00000000
-0.41850804 -0.79089666 0.00000000
-0.07402071 -0.37601761 0.05679979
-0.32902162 -0.33419702 0.25247472
-0.22431935 -0.48742576 0.17213144
-0.11987105 0.46394459 0.09197936
-0.02456085 -0.14236962 0.01884676
-0.62551385 -0.07724894 -0.00000112
-0.63591938 -0.65611552 -0.00000014
-0.74061342 -0.62855430 -0.00000043
-0.05165592 -0.50990134 0.03963817
-0.36986413 0.38940993 -0.00000085
-0.19332297 -0.10455581 0.14834637
-0.06587831 0.15412194 0.05054135
-0.23702309 0.20803133 0.00000530
-0.32404421 -0.20653247 0.24865530
-0.21634774 0.03747146 0.16600477
-0.30064773 -0.32563906 0.23070202
-0.19389209 0.31964567 0.00000428
-0.01807298 0.42325337 0.01386830
-0.37585650 0.08352679 0.00000475
-0.10931921 0.14814478 0.00000000
-0.38374562 0.00985629 0.29446156
-0.44173060 0.14987077 -0.00000074
-0.18074889 0.28294496 0.13869186
-0.15017560 -0.07119180 0.00000000
-0.09240057 -0.27594990 0.00000000
-0.57879916 -0.47168756 0.44414220
-0.29925606 0.22139684 -0.00000025
-0.11270764 -0.66213833 0.08648620
-0.08043528 0.24124855 0.06171347
-0.00938946 -0.79421045 0.00720500
-0.25468562 0.40575769 0.19543209
-0.02670981 0.11997887 0.00000980
-0.29722623 -0.67798821 0.22807653
-0.12648342 -0.25741509 0.00000000
-0.62077817 -0.24151294 -0.00000081
-0.49985836 0.07672479 0.00000248
-0.05626411 0.35814234 0.04316737
-0.13340433 0.38221151 0.00000000
-0.53671376 0.13331945 -0.00000111
-0.31477354 0.20396272 0.24154200
-0.27808362 -0.23511399 0.21338745
-0.00741784 0.71467807 0.00000117
-0.14939983 0.37770254 0.11464200
-0.15289399 -0.05911188 0.00000000
-0.57410063 -0.66890198 0.44053635
-0.06389154 -0.45704199 0.04902717
-0.42516194 0.18092341 -0.00000072
-0.27468302 -0.78028426 0.21077800
-0.01623944 -0.43133277 0.01246133
-0.56324021 -0.63123800 0.00000000
-0.57277464 -0.17195682 0.43951974
-0.26419072 -0.24132666 0.00000000
-0.24995737 -0.17726686 0.19180477
-0.02856446 -0.49751379 0.02191894
-0.53160806 0.04704780 -0.00000094
-0.04116581 -0.36160362 0.03158858
-0.77384858 0.01345927 -0.00000191
-0.11849738 0.17085053 0.09092896
-0.58954976 -0.29026721 -0.00000059
-0.57559929 -0.17038625 0.44168725
-0.45862228 0.11793611 0.00000259
-0.23566175 0.40737820 -0.00000031
-0.30943626 0.03686972 0.00000678
-0.06760159 0.50311130 0.00000000
-0.44850968 -0.09568380 -0.00000033
-0.39471578 -0.36220199 0.00000000
-0.32997105 -0.29593100 0.25320327
-0.24394130 -0.31839330 0.00000000
-0.20778258 0.36634236 0.15943878
-0.18531296 0.07062407 0.00000814
-0.33738426 0.36661597 0.25889269
-0.11004524 0.50632097 0.08444014
-0.12281878 0.17781195 0.00000000
-0.13269461 0.49854283 0.00000249
-0.50786005 0.14885567 0.38970772
-0.22904817 0.30926157 0.00000380
-0.21451689 0.13597678 0.16460952
-0.46952219 -0.19905217 0.36028847
-0.33077017 -0.72560412 0.00000000
-0.10453104 -0.04546562 0.08021189
-0.45514870 -0.50964361 0.34925844
-0.05021570 -0.11284004 0.00000000
-0.54425238 -0.24001443 0.41763296
-0.30372260 0.07514868 0.23306182
-0.08246133 -0.59009617 0.06327670
-0.14027904 0.59710579 0.00000070
-0.77558530 -0.72847386 -0.00000018
-0.32611342 0.11526838 0.00000518
-0.47048473 0.11814814 0.00000235
-0.04757948 0.28654977 0.03651011
-0.20084255 -0.69871551 0.00000000
-0.09302127 -0.07813341 0.00000000
-0.16787261 0.35142106 0.00000000
-0.02859399 0.74533134 -0.00000003
-0.10345577 -0.08770067 0.00000000
-0.71557417 -0.68500487 -0.00000029
-0.33859836 0.01812849 0.00000656
-0.39220888 0.17300762 -0.00000057
-0.10541122 -0.57835853 0.08088730
-0.17896523 0.35611932 0.13732470
-0.04317802 0.50465476 0.03313265
-0.17697345 0.03263967 0.13580056
-0.29449984 -0.71073415 0.00000000
-0.14467335 0.07925236 0.11101509
-0.10242725 0.48266870 0.00000000
-0.17177081 -0.62321292 0.13180832
-0.51048006 -0.13071501 0.39171778
-0.55227070 -0.05142485 -0.00000085
-0.07753617 0.60478277 0.05949547
-0.15075293 -0.72765389 0.11568025
-0.57218225 -0.31997540 0.43906495
-0.43462786 -0.56248579 0.33351166
-0.01028389 0.35907558 0.00788361
-0.25837254 -0.22282492 0.00000000
-0.59573579 -0.34522013 0.45713878
-0.42887738 0.12956772 0.32909998
-0.28411734 0.03716615 0.00000716
-0.17730633 0.39195017 -0.00000004
-0.47616134 0.19204126 0.00000101
-0.14316941 -0.53151300 0.00000000
-0.11056874 -0.23891152 0.00000000
-0.50138317 0.23553544 -0.00000114
-0.43238019 0.17640029 0.00000211
-0.47408984 -0.62501825 0.36379283
-0.33882680 -0.03750239 0.00000000
-0.09635328 -0.49563755 0.00000000
-0.39092016 0.27304105 0.29997286
-0.43065843 0.05714614 0.00000414
-0.53895069 -0.46878883 0.41356434
-0.08947124 0.18687557 0.00000785
-0.09256230 0.36355529 0.00000515
-0.01055718 -0.06142850 0.00000000
-0.37791939 0.29052929 0.28999672
-0.35326017 0.13985493 0.27107046
-0.17484951 -0.61908954 0.13417076
-0.02866605 0.49001105 0.00000422
-0.30363653 0.18896728 -0.00000022
-0.42584941 -0.40240518 0.32677566
-0.42061296 -0.76047893 0.32275733
-0.30342939 -0.11751224 0.00000000
-0.03266743 0.32819536 0.00000000
-0.66219874 -0.33996591 -0.00000081
-0.44403892 0.05431327 0.34073415
-0.47450656 -0.65291156 0.36411258
-0.10244874 0.35051556 0.00000000
-0.23183506 0.17562675 0.00000000
-0.03196721 0.46646977 0.00000000
-0.16542467 -0.68963384 0.12693861
-0.33741804 0.19522652 -0.00000037
-0.15121899 -0.24689421 0.00000000
-0.06330683 0.42565134 0.04857295
-0.30743644 -0.61557614 0.00000000
-0.16910195 0.40497515 0.12975688
-0.66505578 -0.63796301 -0.00000030
-0.56603977 -0.61815887 0.00000000
-0.44155332 0.32142622 -0.00000049
-0.36980619 -0.09064957 -0.00000000
-0.00398925 -0.63560597 0.00306115
-0.35670901 0.01790665 0.27371438
-0.04767308 0.38561251 0.03657538
-0.01116447 0.72038135 0.00856583
-0.03433677 0.60150802 0.02634540
-0.41843798 0.19254597 0.32108775
-0.28542249 0.14746417 0.21901925
-0.19984584 0.15435017 0.15334383
-0.44668194 0.11095009 0.00000293
-0.07236068 0.16015949 0.00000000
-0.35161181 0.18863460 0.00000346
-0.17839504 0.31478500 0.13689151
-0.00808905 0.24619055 0.00000000
-0.28794579 -0.17935803 0.22095519
-0.45890461 0.28182327 -0.00000104
-0.00154674 0.01599306 0.00117283
-0.61413858 -0.67566960 0.47125943
-0.09970794 -0.01204306 0.00000000
-0.54143289 0.13484406 0.00000071
-0.34789253 -0.66376637 0.26695531
-0.06531321 0.63644559 0.05011814
-0.04691489 -0.18332156 0.00000000
-0.44287507 -0.14295135 -0.00000022
-0.31920661 -0.00894391 0.00000000
-0.35304032 0.30672828 0.27090537
-0.39059734 -0.78088737 0.00000000
-0.08908467 0.58280492 0.00000191
-0.69250440 -0.16497007 -0.00000125
-0.61760109 0.00245011 0.47391740
-0.16076941 0.14545021 0.12336640
-0.27589203 -0.13160201 0.00000000
-0.21467249 0.16439986 0.00000000
-0.32754057 -0.43462907 0.25133823
-0.21841942 -0.29445994 0.00000000
-0.20372271 0.27165991 0.00000000
-0.24430131 0.09938328 0.18745674
-0.09341419 0.49703844 0.00000000
-0.38615565 -0.11814010 0.29631690
-0.43486732 0.07046291 0.33369630
-0.37410070 -0.65226941 0.00000000
-0.62804128 -0.78857005 0.48192740
-0.23467382 -0.54094072 0.18007694
-0.21025571 0.26999652 0.00000478
-0.22016459 -0.67254038 0.00000000
-0.51952268 0.04704595 0.00000260
-0.64929475 -0.04258734 -0.00000128
-0.05064911 -0.68699599 0.00000000
-0.55067705 0.05511753 -0.00000103
-0.35055934 -0.59112045 0.26900169
-0.33146476 0.29517753 -0.00000052
-0.02842591 0.12315572 0.00000000
-0.05699230 0.73902417 -0.00000014
-0.01086813 -0.18817661 0.00833966
-0.29389518 0.29040612 0.22551822
-0.05315319 0.46024635 0.04078710
-0.28544320 0.01468068 0.21903495
-0.14559446 0.24691677 0.11171468
-0.29586853 -0.49321475 0.22703470
-0.11505140 0.53662776 -0.00000003
-0.02103671 -0.20511561 0.01614252
-0.21640986 0.00325661 0.00000000
-0.05077250 -0.49257498 0.00000000
-0.32547980 0.12983453 0.00000494
-0.75010568 -0.14517929 -0.00000153
-0.00813087 -0.46077647 0.00000000
-0.47501728 -0.71169757 0.00000000
-0.40551459 -0.61737654 0.31117159
-0.11263475 0.01833005 0.08643027
-0.08213471 -0.54775496 0.00000000
-0.08789894 0.42332623 0.00000000
-0.29462234 -0.11121930 0.00000000
-0.28938727 0.33370584 0.22205988
-0.68640278 -0.66178722 -0.00000035
-0.56328670 -0.45600296 -0.00000018
-0.17982263 0.40648133 -0.00000007
-0.28524274 -0.42508188 0.00000000
-0.51481947 -0.70012129 0.39504679
-0.36193141 0.31497255 0.00000115
-0.13332810 -0.76667011 0.00000000
-0.22401611 -0.43987914 0.17189875
-0.39347752 0.20823919 -0.00000063
-0.04385483 0.11999809 0.00000954
-0.39888410 -0.27001696 0.30608390
-0.56777116 -0.34267693 0.43568004
-0.17907458 -0.05476008 0.00000000
-0.28558568 0.32273582 0.00000249
-0.36823418 0.05117950 0.28255929
-0.44923046 -0.02203237 0.34471778
-0.23360899 -0.76797369 0.17925985
-0.04080366 0.55369847 0.00000000
-0.22792993 0.29078009 0.00000413
-0.40341094 -0.44135236 0.00000000
-0.02320442 -0.57342409 0.00000000
-0.33475255 -0.12072570 0.00000000
-0.14183090 0.22984565 0.10882634
-0.01088693 0.67938572 0.00000000
-0.20062999 0.22233422 0.00000000
-0.43030496 0.10052019 0.33019540
-0.07050039 0.09028808 0.00000958
-0.11878406 -0.78128469 0.09114894
-0.30306174 0.02852943 0.23254677
-0.02018109 -0.32268732 0.01548596
-0.57407202 -0.47854214 -0.00000019
-0.28905722 0.33863289 0.22180671
-0.68009060 -0.71008072 -0.00000022
-0.20608141 0.17586626 0.00000625
-0.04586752 -0.11271045 0.00000000
-0.18237320 -0.00071571 0.00000000
-0.00305062 0.72031063 0.00233952
-0.46520251 -0.25982186 -0.00000011
-0.16527864 -0.41271452 0.12682655
-0.18890555 0.11531449 0.14495667
-0.06930399 0.69245160 0.05318016
-0.07406411 0.45664300 0.05683309
-0.76810706 -0.32243566 -0.00000119
-0.45185127 0.03737731 0.34672507
-0.02025947 0.41659071 0.00000000
-0.64000511 -0.05594321 -0.00000122
-0.53149542 0.11867134 0.00000117
-0.43564889 0.19719130 0.33429624
-0.28873423 0.47202073 -0.00000065
-0.55653873 0.22880222 -0.00000137
-0.37241940 0.29883460 0.28577696
-0.16244790 0.47106659 0.00000237
-0.48907396 -0.02427448 0.37529187
-0.10626139 -0.14576182 0.08153967
-0.41286735 -0.27325528 0.00000000
-0.58903958 -0.22402759 0.45200064
-0.61586942 -0.33700440 0.47258833
-0.11334272 -0.10723296 0.00000000
-0.21907184 0.18845826 0.00000587
-0.05389409 0.28140706 0.04135562
-0.19406561 0.33940410 0.14891643
-0.01870591 -0.61961257 0.01435398
-0.10619175 0.64381580 0.00000057
-0.61294043 -0.15932423 -0.00000092
-0.00811735 0.67529354 0.00622676
-0.48554314 -0.38984456 0.00000000
-0.46835965 -0.30057674 0.35939624
-0.48651042 0.11479255 0.37332493
-0.03702138 0.73624448 0.02840842
-0.34899693 0.20207229 0.26780028
-0.18561072 -0.48059986 0.14242837
-0.12623978 0.41124720 0.09687009
-0.02968348 0.04681764 0.02276464
-0.35450855 -0.13462135 0.27203233
-0.06280511 -0.75759148 0.00000000
-0.05973046 0.56504436 0.04583417
-0.02895744 0.29467071 0.02222049
-0.07967526 0.49241228 0.00000000
-0.46022411 -0.23907049 0.35315349
-0.37575619 0.07660676 0.28833712
-0.25453250 0.07938645 0.00000697
-0.17614268 0.45175088 0.13516336
-0.15143898 0.48748338 0.11620446
-0.40447348 -0.13167636 0.31037315
-0.48161416 0.00993651 0.36956392
-0.61565316 -0.05323527 0.47242295
-0.61308447 -0.29827308 -0.00000068
-0.49307689 0.01402327 0.37836027
-0.78991678 -0.33632649 -0.00000116
-0.43536272 -0.14260153 -0.00000019
-0.52983025 -0.13676801 0.40656623
-0.50792363 -0.34531007 0.38975576
-0.43776940 0.31087284 -0.00000100
-0.21139921 0.05091603 0.16221717
-0.32095723 -0.48773924 0.00000000
-0.47970992 -0.55642980 0.36810553
-0.06892889 -0.13757702 0.05289258
-0.26703422 0.06116222 0.20490068
-0.01266898 0.29052159 0.00971262
-0.16735566 0.35544991 0.12842045
-0.47249828 -0.08843988 0.36257235
-0.53740918 -0.64944269 0.00000000
-0.06478846 0.63348699 0.00000152
-0.13668239 -0.21611494 0.10488322
-0.32277468 0.21024889 -0.00000033
-0.29705238 -0.78587896 0.00000000
-0.26499945 -0.30391483 0.00000000
-0.04367984 0.39527666 0.00000541
-0.54380269 -0.60623044 0.41728733
-0.08970943 0.02814075 0.00001022
-0.05087061 -0.16531967 0.03903556
-0.00968517 -0.16021097 0.00000000
-0.71240110 -0.29726044 -0.00000110
-0.31109319 -0.73666390 0.00000000
-0.40402547 -0.62270978 0.00000000
-0.10099995 0.63603886 -0.00000014
-0.24137293 0.18889478 0.18521149
-0.14189305 0.38563018 0.10887689
-0.65348945 -0.13316461 -0.00000114
-0.21410866 0.29696659 0.16429178
-0.14545841 -0.54327896 0.11161750
-0.49466560 -0.45917948 0.00000000
-0.44223583 -0.08736323 0.33935033
-0.39727717 -0.37269705 0.30485066
-0.25346527 0.16988029 0.19449677
-0.74415001 -0.34038792 -0.00000115
-0.12826584 0.52465443 -0.00000006
-0.04469211 0.73727416 0.00000019
-0.38895051 0.31649817 0.00000061
-0.08398095 -0.43115076 0.00000000
-0.22934744 0.04797898 0.00000782
-0.46702620 -0.50209828 0.35837271
-0.25753696 0.34127463 0.00000272
-0.28211670 -0.45424953 0.21648223
-0.22062061 0.09190260 0.00000729
-0.67975792 -0.36816600 -0.00000084
-0.08734936 -0.46217173 0.06702753
-0.17604879 0.50163856 0.13509139
-0.57912737 -0.16227395 0.44439456
-0.21781920 0.00461673 0.16713334
-0.43511977 -0.02475060 -0.00000040
-0.20863273 -0.55030225 0.00000000
-0.31148883 -0.47133428 0.23902093
-0.57532118 -0.08843491 -0.00000088
-0.12351177 0.54387820 -0.00000007
-0.62856756 -0.16772168 -0.00000097
-0.13590392 -0.19013427 0.00000000
-0.13669479 0.44355196 0.10489283
-0.15038863 -0.53232675 0.11540070
-0.17515454 0.01390959 0.00000000
-0.15581422 -0.35245848 0.11956403
-0.38955615 -0.35401615 0.29892593
-0.46341543 0.21254668 -0.00000094
-0.01702045 0.63228432 0.00000000
-0.02235154 0.63537681 0.01715145
-0.41821547 0.02535637 0.32091836
-0.79359923 -0.24766375 -0.00000138
-0.54475616 -0.04479761 0.41801983
-0.53859228 -0.02015661 0.41328999
-0.21026484 0.40204737 0.16134439
-0.28549935 -0.09571601 0.21907791
-0.08361923 -0.68648840 0.06416521
-0.61243700 -0.02621609 -0.00000115
-0.18216036 -0.16718458 0.13978074
-0.20370174 -0.58400181 0.00000000
-0.25939573 0.18421194 -0.00000002
-0.15439393 0.25318470 0.11846724
-0.58049959 -0.21549726 -0.00000068
-0.17740522 0.17551222 0.13613188
-0.46141329 -0.51013117 0.00000000
-0.17560338 0.54843833 0.13474906
-0.46405210 -0.60470048 0.00000000
-0.32405923 0.25327905 0.24866749
-0.17059176 -0.40035047 0.00000000
-0.39451956 -0.15464186 0.30273493
-0.16930926 0.43668447 -0.00000008
-0.19322952 -0.09413955 0.14827466
-0.08424772 0.70645856 -0.00000019
-0.53131326 -0.49917256 0.00000000
-0.07641650 0.26960007 0.05863009
-0.13845617 0.63115074 -0.00000029
-0.33612267 0.39220149 -0.00000071
-0.24057532 0.25231840 0.18460080
-0.57204936 0.08128029 -0.00000117
-0.20198531 -0.58952993 0.15499342
-0.24610591 -0.64857886 0.18884935
-0.49160991 -0.27572308 -0.00000020
-0.37997292 0.12297806 0.00000401
-0.12456778 0.33108864 0.00000000
-0.11150532 0.23816571 0.00000000
-0.25076883 0.42429454 0.19242803
-0.11624845 -0.57689578 0.08920324
-0.38826958 -0.08111934 -0.00000010
-0.55727845 -0.66700570 0.42762786
-0.00631790 0.00917478 0.00484804
-0.29718678 -0.46321694 0.00000000
-0.41349459 -0.34942737 0.31729521
-0.69959095 -0.75519270 -0.00000011
-0.74441685 0.02968712 -0.00000143
-0.45145803 -0.20434752 -0.00000015
-0.14341639 0.43109961 0.00000337
-0.30613446 -0.73808596 0.23491226
-0.72505495 -0.00797435 -0.00000167
-0.51527179 0.20105110 0.00000011
-0.46425802 0.01183475 0.35624520
-0.03157215 -0.76397268 0.00000000
-0.11902790 0.28090381 0.00000000
-0.01335970 0.38218139 0.01024431
-0.33575444 -0.76207734 0.00000000
-0.02582265 0.76075790 0.00000016
-0.11672795 0.48942763 0.00000290
