ply
format ascii 1.0
element vertex 1368
property float x
property float y
property float z
end_header
-0.05597123 -0.76723805 -0.00000032
-0.07385658 0.40307369 0.00000031
-0.64044843 -0.74618925 0.15166529
-0.56798787 -0.54827738 -0.05542835
-0.33712764 0.00504090 -0.04572283
-0.48121035 -0.41866359 -0.00000267
-0.31578038 0.07029601 -0.07886458
-0.05796832 -0.41470192 -0.00000011
-0.46809463 -0.19178178 -0.33411639
-0.00126835 -0.78359443 0.00000000
-0.21000997 0.29297919 0.21519101
-0.34548842 0.01664237 -0.12251927
-0.33961638 -0.26817995 -0.00000172
-0.12419491 0.42187080 0.00000170
-0.44205554 -0.26723127 0.20364996
-0.30303011 0.14612381 -0.18771860
-0.22983562 -0.47467767 0.00000194
-0.37490529 -0.49686812 -0.00000207
-0.31742941 -0.34561932 0.00000268
-0.03874722 0.43721013 0.00000107
-0.23882663 0.22341078 0.20935822
-0.10681628 -0.00103945 0.00000131
-0.06749391 0.37840112 0.00000496
-0.10968732 0.53518530 0.10474474
-0.02724377 -0.73664999 0.00000025
-0.22091946 0.30465014 -0.09178134
-0.28323613 0.19641110 -0.19376253
-0.25899119 0.18071916 -0.01441696
-0.02446728 0.69856549 0.00000009
-0.31591313 0.15093974 -0.27450577
-0.30942337 0.05298488 0.10791351
-0.25082416 -0.01246231 -0.00000102
-0.43839391 -0.51827880 0.00000348
-0.00718873 -0.15286995 0.00000036
-0.08060307 0.19302977 -0.00000643
-0.47475757 -0.36845722 0.00000385
-0.33366787 0.08355270 -0.21524877
-0.10506089 0.56004260 -0.03304439
-0.42674055 -0.17690651 -0.12882670
-0.43267290 -0.44505619 0.00000349
-0.35710264 0.01193847 -0.17891056
-0.21065440 -0.08337892 0.00000204
-0.57407614 -0.58594998 0.00389341
-0.26568458 -0.55080229 -0.00000145
-0.31758146 -0.20758749 0.00000277
-0.35419851 -0.70046293 0.00000273
-0.49872060 -0.78816734 0.00000377
-0.39697809 -0.64043542 0.00000309
-0.12179204 0.34536802 0.00000163
-0.20887494 -0.49843543 -0.00000107
-0.18410232 0.35553429 0.09947037
-0.53696672 -0.49636855 0.27873469
-0.37795092 -0.09694416 -0.03743282
-0.39799567 -0.27773034 0.00000333
-0.03140847 0.62677130 0.00000113
-0.45242928 -0.14363034 -0.35908323
-0.17029621 0.38886102 0.12059672
-0.03641784 -0.20301725 0.00000065
-0.58356987 -0.60887564 0.15355804
-0.20132020 -0.37183334 -0.00000095
-0.49899605 -0.26066767 -0.34792617
-0.33522057 -0.40787968 0.00000277
-0.26754585 0.21091354 -0.13727373
-0.25424324 0.18619719 0.04622525
-0.42915879 -0.19938024 -0.08862993
-0.51424197 -0.29850502 -0.34543591
-0.51723823 -0.40592069 -0.10336441
-0.58096998 -0.78436498 0.00000439
-0.26142128 0.25294352 -0.20310671
-0.47423212 -0.20149943 -0.34643774
-0.36282583 -0.07595206 0.18711255
-0.36659115 -0.02305117 -0.14971490
-0.50119856 -0.35008695 -0.14471044
-0.16031413 0.44836039 -0.08550061
-0.35822268 0.03249586 -0.23511691
-0.19419083 0.33117651 0.06400269
-0.33583814 -0.69116845 0.00000260
-0.03890267 -0.49526713 -0.00000004
-0.08826659 0.00846563 -0.00000920
-0.12656472 0.27807560 0.00000163
-0.05706156 -0.22621387 0.00000079
-0.29038171 0.09893933 0.30219791
-0.16726301 -0.48115107 0.00000146
-0.10332718 0.55752284 -0.01684202
-0.56754801 -0.46302318 -0.25886479
-0.10608103 0.56038119 -0.03981577
-0.12996821 -0.11375413 0.00000141
-0.55643839 -0.54876304 0.00000435
-0.07107383 0.40466612 -0.00000328
-0.22012809 -0.68917548 0.00000173
-0.26661072 0.25477776 -0.23781170
-0.42835287 -0.47563654 0.00000343
-0.40944488 -0.75020343 0.00000312
-0.25458536 0.01703309 -0.00000103
-0.19853810 0.36411798 -0.10491942
-0.33323778 0.08420247 -0.21430993
-0.12832209 0.45945122 -0.00000066
-0.31924150 -0.30406502 -0.00000162
-0.18804450 0.07742336 -0.00000507
-0.39137311 -0.14487015 0.15311938
-0.26135679 0.18085929 -0.02855492
-0.49025163 -0.38357914 0.01513676
-0.56211600 -0.55707806 0.06136612
-0.31006851 0.12989139 -0.18955360
-0.11939249 0.39327309 0.00000335
-0.30785223 -0.41230404 0.00000256
-0.04782038 -0.66530397 -0.00000020
-0.16016552 -0.71335210 -0.00000091
-0.06896910 -0.13029596 0.00000000
-0.21147207 0.33814487 -0.11760896
-0.34591182 -0.63116553 -0.00000198
-0.29234086 0.09421532 0.17139920
-0.13629324 0.47095621 0.02346364
-0.04315973 0.07539341 -0.00000947
-0.18197897 0.12023960 0.00000195
-0.58834440 -0.56765791 -0.12734593
-0.08950814 0.58390760 0.03571588
-0.12697710 0.06277731 -0.00000715
-0.46882770 -0.41735466 0.00000378
-0.04432514 0.40973416 0.00000516
-0.34376205 -0.21018951 -0.00000171
-0.09571716 -0.10383919 0.00000116
-0.50594303 -0.42146374 0.06054050
-0.13091894 0.48392837 0.08210955
-0.56269104 -0.55847001 0.14351051
-0.37629723 -0.10847393 0.16129878
-0.32105128 -0.50100975 -0.00000175
-0.52265560 -0.36733488 -0.22820067
-0.24632400 0.05433207 -0.00000368
-0.38692191 -0.00743352 -0.30604620
-0.02945383 0.72889189 0.01249580
-0.20168469 -0.18683828 -0.00000083
-0.66337248 -0.80029976 -0.00287874
-0.39530623 -0.02579803 -0.31058271
-0.17736998 0.11871997 0.00000191
-0.22686688 0.10766067 0.00000436
-0.33161752 -0.39723045 -0.00000175
-0.35240434 0.04399347 -0.22895819
-0.23630652 0.22950212 0.01002119
-0.05013766 0.12508769 0.00000028
-0.23201308 0.32474729 -0.20505894
-0.59354718 -0.62752295 -0.01304371
-0.01315687 -0.13949954 0.00000051
-0.12040735 0.52955111 -0.04888914
-0.29484635 0.14162216 -0.12910251
-0.19496256 0.40304082 -0.17811127
-0.06428581 0.64479660 0.06492585
-0.44887652 -0.24265412 -0.09908765
-0.51237049 -0.36165390 -0.18193102
-0.18425314 0.34450687 -0.00000084
-0.48424737 -0.22292483 -0.35308999
-0.61810196 -0.69224086 0.06183743
-0.34111894 -0.77912704 -0.00000205
-0.30182769 0.11881447 -0.11471693
-0.32952846 -0.21937486 -0.00000163
-0.26921674 0.15004043 0.24589595
-0.34232998 -0.01157803 -0.03591354
-0.27019848 0.13250022 0.00000284
-0.28612096 0.10923321 0.13448866
-0.07106708 0.60807759 0.00000003
-0.38613123 -0.15891513 0.00000331
-0.53663129 -0.49555753 0.18067734
-0.28453520 0.19994419 -0.20987750
-0.29815013 0.15201822 -0.17349071
-0.41077244 -0.19171131 0.30550788
-0.19015163 0.34092354 0.16549104
-0.46068772 -0.31221105 0.14711845
-0.23203747 0.23980155 0.16724951
-0.07852875 0.53468801 0.00000143
-0.15463165 0.42668310 0.08651465
-0.13913642 0.49442899 -0.07327917
-0.38975456 -0.14097045 0.36958649
-0.56502019 -0.53343334 -0.07398451
-0.48236810 -0.73880734 -0.00000287
-0.04219701 0.55896067 -0.00000164
-0.44859867 -0.14175397 -0.34127184
-0.38372650 -0.73547554 0.00000294
-0.09453829 -0.46602391 -0.00000036
-0.11097544 0.53207930 0.01937855
-0.09561484 -0.73621225 0.00000076
-0.43854661 -0.25875802 0.16152896
-0.01283254 0.14762845 -0.00000921
-0.35975312 -0.06853768 0.32371215
-0.21488294 0.28122618 0.07247812
-0.37593813 -0.10760101 0.02749675
-0.31225524 -0.31330193 -0.00000158
-0.05745873 0.66127991 0.03850507
-0.48491979 -0.24353630 -0.30720895
-0.16184230 0.40927534 0.01567159
-0.10780496 -0.26268247 0.00000115
-0.01981372 0.30315056 0.00000729
-0.14997411 0.46236528 -0.05902065
-0.66607222 -0.80804896 0.04552844
-0.49101808 -0.48245891 0.00000390
-0.03231014 0.49201556 0.00000061
-0.11665319 0.51837391 0.04062581
-0.36837943 0.03533121 -0.30121582
-0.39962904 -0.16481179 0.37639834
-0.37620023 -0.05031528 -0.13988974
-0.37343659 0.03482023 -0.32948074
-0.37009092 -0.09349568 0.33108038
-0.25046486 0.19532602 0.05564640
-0.28388211 -0.55226905 0.00000230
-0.06407720 0.42426113 0.00000038
-0.36480624 -0.00680526 -0.17855788
-0.26527307 0.21234020 -0.12746721
-0.20182640 0.36904104 -0.13599682
-0.04684750 0.68690073 0.00671940
-0.26927599 0.14989902 0.22512060
-0.15319376 0.22775659 0.00000471
-0.27221399 0.14281811 0.07336913
-0.20754168 0.21665858 0.00000220
-0.30325116 0.06787188 0.25023551
-0.01907636 0.30120400 0.00000734
-0.22369165 0.25994816 0.22631267
-0.06028245 0.60969772 0.00000198
-0.54361394 -0.64624610 0.00000420
-0.09921920 0.43739837 0.00000329
-0.65022718 -0.76796313 -0.00433242
-0.09639931 -0.73021263 0.00000077
-0.33038602 0.00238384 0.02225401
-0.24906111 0.07338293 0.00000242
-0.15570020 0.22871574 -0.00000030
-0.07019823 0.03551229 0.00000105
-0.24005033 0.22054536 -0.00016029
-0.05425551 0.02487431 -0.00000996
-0.02665657 -0.40436222 0.00000009
-0.08889880 -0.28639613 -0.00000022
-0.22754531 0.27601579 -0.06124730
-0.09321730 0.43373745 -0.00000214
-0.36456797 0.04010352 -0.29051355
-0.33642881 -0.01221830 0.06676979
-0.45988517 -0.38047818 0.00000373
-0.39012187 -0.19512558 0.00000332
-0.55539097 -0.54084750 0.23830016
-0.21463099 -0.09018060 0.00000206
-0.28268794 0.21373512 -0.23242480
-0.30374295 0.06668600 0.26621263
-0.43663213 -0.24209452 -0.02901403
-0.19527929 0.32854909 0.12340785
-0.04558363 0.61224282 0.00000061
-0.61167520 -0.59368337 -0.20056170
-0.08180312 0.10296745 0.00000836
-0.37998852 -0.11738941 0.31899026
-0.41164293 -0.36575511 0.00000338
-0.52342101 -0.46366068 0.08570815
-0.11380727 0.52523952 0.08928042
-0.04902726 -0.54526449 0.00000053
-0.15123859 0.08969128 0.00000170
-0.45356769 -0.29501859 0.07758315
-0.21999872 0.16147515 -0.00000274
-0.53399893 -0.48919712 0.06195272
-0.16083247 -0.11005517 0.00000164
-0.41081363 -0.19181163 0.32468198
-0.47034083 -0.18764834 -0.35720687
-0.03560593 -0.61840371 -0.00000010
-0.57335964 -0.58422128 0.02852759
-0.06431037 0.13938960 0.00000107
-0.16140209 0.38133911 0.00000196
-0.03418120 0.10044105 0.00000036
-0.12027658 0.41289869 0.00000003
-0.22393758 0.25936301 0.11769808
-0.03328516 0.72249276 -0.00688128
-0.16349381 0.15579433 0.00000183
-0.31141103 0.06593247 -0.04283183
-0.11542225 -0.24009703 0.00000122
-0.19575253 0.32740727 0.11509539
-0.30244325 0.06982466 0.25451645
-0.59364696 -0.70500952 -0.00000352
-0.29284112 -0.57042585 -0.00000162
-0.43673491 -0.25438602 0.20257861
-0.25033656 0.19562064 0.22906480
-0.04931308 0.68094889 0.00018794
-0.41104951 -0.08677426 -0.25508193
-0.39847741 -0.27931120 -0.00000208
-0.17772831 0.14240909 -0.00000048
-0.16543402 0.22705077 0.00000189
-0.47679610 -0.19889420 -0.36768932
-0.51307511 -0.43868319 0.08268144
-0.18222493 0.20134642 0.00000200
-0.40102629 -0.69106698 -0.00000235
-0.36381774 -0.07835574 0.39067479
-0.18013206 0.38863941 -0.05680170
-0.27363004 0.13939895 0.08030970
-0.19396220 -0.66980783 0.00000154
-0.56967619 -0.57533098 0.08198089
-0.35333886 -0.05304945 0.28579087
-0.54484802 -0.51539517 0.19412274
-0.47393925 -0.49963652 -0.00000267
-0.01749130 0.28122851 0.00000081
-0.40913091 -0.25093072 0.00000343
-0.27627155 0.13301221 0.12793314
-0.35426775 0.00319005 -0.14122775
-0.50390410 -0.35977912 -0.13707361
-0.19468820 -0.09793599 0.00000191
-0.49900677 -0.40472434 0.20166218
-0.15257240 0.45274285 -0.05092625
-0.46909914 -0.40896132 0.00000378
-0.00077465 0.09964586 0.00001061
-0.25646566 0.23578663 -0.13274411
-0.52893363 -0.41253318 -0.15561000
-0.41037153 -0.03449956 -0.37743835
-0.23499931 0.14837345 -0.00000250
-0.33543366 -0.18181824 0.00000292
-0.09217781 0.23914619 0.00000009
-0.49086084 -0.22454183 -0.38776252
-0.44889003 -0.28887460 0.00000371
-0.41245798 -0.32373588 0.00000341
-0.20004271 0.31704264 0.20782152
-0.29056432 -0.51017350 -0.00000157
-0.32316982 0.01668428 0.00000299
-0.63669286 -0.73712165 0.02025065
-0.23035014 -0.42409532 -0.00000116
-0.55893335 -0.54939931 0.18218977
-0.00349935 0.59748198 0.00000090
-0.45700520 -0.31213386 0.00000375
-0.03027924 0.00963846 0.00000073
-0.41861367 -0.21063646 0.18544637
-0.41684292 -0.07031058 -0.32865808
-0.28593814 0.10966889 0.28250743
-0.00730904 0.40153602 0.00000081
-0.06823807 -0.46511317 -0.00000020
-0.11258832 -0.17103734 -0.00000029
-0.28655314 0.10819975 0.08516446
-0.27146125 -0.31350140 0.00000235
-0.25855027 0.17579505 0.19825376
-0.13606923 -0.73234247 0.00000107
-0.38761488 -0.34273522 0.00000321
-0.12818101 -0.74027835 0.00000100
-0.23400509 0.23506513 0.02898214
-0.51915276 -0.55078099 -0.00000298
-0.06106991 -0.74759701 -0.00000034
-0.05769533 -0.44842192 0.00000066
-0.25590981 0.21426582 -0.07749486
-0.42029571 -0.28781952 0.00000349
-0.38524396 0.01366875 -0.34724918
-0.09629717 -0.10474495 -0.00000015
-0.21082152 0.29102323 0.13182217
-0.23734836 0.22698555 0.13399192
-0.15458154 0.42680592 0.06326984
-0.11324496 0.52660013 0.06477615
-0.05063447 0.40187698 -0.00000394
-0.03071801 0.44857711 0.00000101
-0.06357755 0.33563245 0.00000566
-0.14760646 -0.32304239 -0.00000059
-0.20150392 -0.63071008 0.00000163
-0.11093909 0.52621402 0.00000167
-0.18402907 0.36437799 -0.02091148
-0.11641872 -0.35193624 -0.00000042
-0.16050785 0.46022649 -0.11530264
-0.43826853 -0.17044113 -0.21169576
-0.40427045 -0.19015441 0.00000343
-0.31381315 0.06155947 -0.04628706
-0.35617422 -0.22841949 -0.00000179
-0.33793928 0.05298208 -0.16629762
-0.49002614 -0.43617034 0.00000392
-0.42839782 -0.23426633 0.38075183
-0.25492970 0.23416491 -0.11986574
-0.22445041 0.25811663 0.22303657
-0.29102146 0.09739887 0.21127932
-0.59548825 -0.78874636 0.00000450
-0.19675690 0.37665196 -0.12481274
-0.26691976 0.22794837 -0.17478422
-0.43017849 -0.13482583 -0.25056097
-0.36543222 -0.20576201 -0.00000183
-0.18877641 0.34424575 0.11788314
-0.46687402 -0.36860457 -0.00000255
-0.55197198 -0.53259345 0.18120553
-0.01269412 0.50275783 -0.00000345
-0.14951407 0.36423558 -0.00000157
-0.40855254 -0.14337180 -0.10375963
-0.27620506 -0.61976907 0.00000220
-0.47080643 -0.27044123 -0.15987047
-0.01477489 0.61078530 0.00000079
-0.21296819 0.06307005 0.00000215
-0.07806596 -0.24611127 0.00000094
-0.23339253 0.23652982 0.17417635
-0.32154954 0.07728919 -0.12942384
-0.03675607 -0.19713932 0.00000015
-0.47301980 -0.18374921 -0.38225572
-0.41040355 -0.19082506 0.40252528
-0.05108370 -0.44732389 -0.00000009
-0.12004552 0.20417742 -0.00000010
-0.24797205 -0.78979751 0.00000188
-0.01153894 0.20723495 0.00000884
-0.06214083 0.38226913 -0.00000391
-0.38333828 -0.12546750 0.04665761
-0.36212656 0.01961208 -0.22675445
-0.49756104 -0.29740429 -0.25078860
-0.48527394 -0.37156963 0.18925363
-0.50146880 -0.34215891 -0.16544337
-0.22363570 -0.29114096 0.00000201
-0.30602650 -0.54491517 0.00000247
-0.19793621 -0.30891725 0.00000180
-0.25226800 0.19096389 0.09029099
-0.12463005 -0.69592531 -0.00000069
-0.14184669 -0.27420915 0.00000140
-0.22386519 0.25953324 0.17497628
-0.15519599 0.02780005 -0.00000042
-0.61097235 -0.67502944 0.14734955
-0.54316400 -0.51132348 0.05794581
-0.05655313 -0.16067979 0.00000083
-0.52521797 -0.60220231 0.00000409
-0.16259024 -0.14293870 0.00000164
-0.25190443 0.10629256 0.00000370
-0.05358139 0.67064061 0.04027437
-0.34829168 -0.18579547 0.00000301
-0.58151865 -0.57631132 -0.06661972
-0.43871458 -0.25143224 -0.01859895
-0.19995274 0.31726902 0.09140230
-0.37803523 -0.01557074 -0.23454711
-0.12784407 0.05131514 -0.00000731
-0.17814859 0.33002585 -0.00000126
-0.60132700 -0.79040146 0.00000454
-0.65229480 -0.77478818 0.11915661
-0.10566833 0.54489323 0.04326227
-0.20417731 0.31331622 -0.01506268
-0.29475829 0.17687122 -0.21375886
-0.36124033 -0.42890051 -0.00000195
-0.58554218 -0.70156373 0.00000448
-0.16868002 0.14485668 -0.00000456
-0.10001880 -0.72917516 -0.00000056
-0.12269052 0.35699306 -0.00000002
-0.41936105 -0.21243485 0.05167209
-0.29300563 -0.17968692 0.00000260
-0.01978400 -0.04674054 0.00000062
-0.20721686 0.34569645 -0.11103069
-0.25485495 -0.40750691 -0.00000129
-0.14536297 0.16251488 0.00000582
-0.42177288 -0.46367015 -0.00000234
-0.26990272 0.01629641 0.00000255
-0.07359138 -0.67109569 -0.00000036
-0.46062819 -0.42957538 -0.00000255
-0.01531289 0.10651356 -0.00000981
-0.06713977 -0.43430937 0.00000074
-0.11061595 0.53294886 0.04201587
-0.59644419 -0.79768421 0.00000450
-0.15241035 0.08343483 -0.00000604
-0.54429267 -0.47095797 -0.10403282
-0.13302950 0.23580234 -0.00000016
-0.14900309 -0.33753176 -0.00000061
-0.50469180 -0.43548633 0.00000404
-0.04643568 -0.57055848 -0.00000014
-0.20520500 0.34102382 -0.08800739
-0.20503202 0.16980218 0.00000215
-0.02279093 0.24203056 0.00000082
-0.16609481 -0.00488870 -0.00000051
-0.26230501 -0.76951655 -0.00000156
-0.32621505 -0.13318362 0.00000288
-0.53155960 -0.42581884 -0.13882603
-0.15262913 0.43151275 0.14741469
-0.13345996 0.47779404 0.10590686
-0.01031287 0.31883188 0.00000734
-0.28507445 0.11175322 0.28026340
-0.14480863 -0.49280387 0.00000128
-0.12966408 0.48024066 -0.00000028
-0.10987671 0.44782631 0.00000161
-0.07163286 0.62706165 0.03888554
-0.36678965 -0.12832285 -0.00000179
-0.42829252 -0.75514522 -0.00000256
-0.32524837 0.12993814 -0.27821600
-0.32972099 -0.68494717 -0.00000192
-0.39926068 -0.16391363 0.17775073
-0.12481702 0.51317065 -0.03503150
-0.36959448 -0.61204200 -0.00000211
-0.02618492 -0.22093569 0.00000020
-0.20053441 0.32476881 -0.02148526
-0.67763135 -0.77829837 -0.13922554
-0.21719478 -0.44328441 -0.00000109
-0.40198258 -0.18544686 0.00000342
-0.05706803 -0.69165880 -0.00000028
-0.23025713 0.07921524 0.00000229
-0.46673145 -0.19174060 -0.32626397
-0.00284292 0.00437910 0.00001186
-0.40350526 -0.03464980 -0.33702198
-0.19496273 0.32930799 0.17559138
-0.09885607 -0.15633335 -0.00000019
-0.48846164 -0.28483549 -0.22807860
-0.30454532 -0.52260822 -0.00000166
-0.20271074 -0.11705137 -0.00000080
-0.53459727 -0.49064255 0.08234919
-0.06790362 0.63606437 0.02059048
-0.37462998 -0.67384660 0.00000291
-0.31765031 -0.17391832 0.00000279
-0.13839856 -0.50200328 0.00000123
-0.45455289 -0.52022429 0.00000360
-0.57988306 -0.58103946 -0.04565419
-0.24810830 -0.57283338 -0.00000136
-0.14255102 0.48201895 -0.06321133
-0.46441406 -0.32120680 0.13678874
-0.23516930 0.23224458 0.07791294
-0.21877829 -0.11595180 0.00000208
-0.01688875 -0.26825158 0.00000023
-0.30211867 0.07199122 -0.00326480
-0.38064460 0.01426312 -0.32185601
-0.51874803 -0.37164660 -0.19498805
-0.23771999 0.22608211 0.21328491
-0.52673853 -0.47167608 0.22865322
-0.55415398 -0.50003541 -0.09129752
-0.04451319 -0.11746335 0.00000076
-0.31429865 0.04120627 0.12561904
-0.06062902 0.36873700 0.00000119
-0.08625749 0.22072625 0.00000129
-0.03483967 0.53425604 0.00000062
-0.04346500 0.00924244 -0.00001054
-0.61183505 -0.78693081 0.00000462
-0.31868519 0.03061122 0.28394032
-0.27947849 -0.35754939 -0.00000141
-0.44955524 -0.23062085 -0.13212284
-0.21723203 0.27592943 -0.00087770
-0.27497563 0.22237989 -0.20832452
-0.13957588 0.43368365 -0.00000074
-0.15080765 0.47860835 -0.10313273
-0.55265987 -0.53425197 0.13208526
-0.53646767 -0.42625790 -0.16639564
-0.57612650 -0.52822615 -0.15135361
-0.57560555 -0.69144600 -0.00000341
-0.34401871 -0.37476801 0.00000286
-0.38513545 -0.36592473 -0.00000205
-0.41257660 -0.27963913 -0.00000216
-0.15753004 0.10291373 -0.00000557
-0.27113791 -0.61705788 -0.00000152
-0.24072361 0.11742558 -0.00000088
-0.22612577 0.15683532 0.00000370
-0.38706558 -0.07215148 -0.15050830
-0.59493429 -0.53177627 -0.25249297
-0.42103024 -0.21646557 0.07222490
-0.11155814 0.33164489 0.00000441
-0.42309597 -0.22145723 0.17383988
-0.04449871 0.51778404 -0.00000224
-0.27264762 0.06530502 0.00000370
-0.18000205 -0.64254718 0.00000146
-0.55259499 -0.76485608 0.00000419
-0.16701175 0.40145136 -0.01122392
-0.10928223 0.53616270 0.11770249
-0.35085614 0.04442553 -0.22096706
-0.09963235 0.55946242 0.07888544
-0.49451219 -0.36371428 -0.07277882
-0.43421915 -0.41332185 -0.00000238
-0.38131100 -0.63730291 -0.00000220
-0.42198426 -0.05918808 -0.38552442
-0.23090706 -0.46811710 -0.00000119
-0.54566385 -0.51735833 0.05009603
-0.03945777 0.28380000 0.00000098
-0.20103232 -0.14533809 -0.00000080
-0.50458055 -0.53311745 0.00000397
-0.09814277 0.09888637 -0.00000743
-0.56430937 -0.68088873 0.00000433
-0.16769246 0.37276313 -0.00000088
-0.55116088 -0.53063135 0.09334833
-0.23201683 -0.49510574 0.00000194
-0.30980771 0.05205865 0.08717450
-0.07195184 0.43368466 0.00000131
-0.32542166 0.12906354 -0.27711267
-0.32868656 -0.38117229 0.00000274
-0.22374104 0.06837795 0.00000498
-0.11786475 -0.58649102 -0.00000058
-0.38783637 -0.13633631 0.25734962
-0.48200741 -0.34201499 -0.05226605
-0.32132895 0.11190993 -0.21178787
-0.35258902 -0.05123769 0.17844470
-0.24839909 0.20030327 0.18112707
-0.38286778 -0.28251532 0.00000321
-0.24459663 0.25606939 -0.11251714
-0.15795527 -0.37958442 0.00000145
-0.02110787 0.05975531 0.00000041
-0.28088130 -0.09930558 0.00000256
-0.37148072 -0.09685074 0.32888137
-0.25653996 0.18065043 0.09020489
-0.11382010 0.31296710 0.00000461
-0.31529983 0.03878930 0.12353487
-0.49433939 -0.52424086 0.00000390
-0.43935677 -0.14276456 -0.28491872
-0.37840299 -0.21719623 0.00000322
-0.07929428 0.30934139 -0.00000458
-0.39377060 -0.15065224 0.01905972
-0.27658025 0.13226205 0.23779818
-0.16108542 0.12192601 -0.00000516
-0.34355753 -0.66642407 -0.00000199
-0.02999745 -0.47395565 0.00000002
-0.63156616 -0.72474604 0.08666926
-0.32082316 0.05400427 -0.06891461
-0.10592013 -0.11325763 -0.00000021
-0.09355930 -0.69228824 -0.00000050
-0.64300346 -0.67303446 -0.19157710
-0.35965266 -0.06829208 0.28479765
-0.17085189 0.41139706 -0.05765272
-0.37309471 -0.71589499 0.00000287
-0.12268531 -0.15638792 0.00000133
-0.52782227 -0.47429243 0.24941710
-0.18971697 -0.22890073 0.00000179
-0.47113232 -0.53854305 0.00000372
-0.04639748 0.26466421 -0.00000630
-0.26572113 0.11542795 0.00000320
-0.42389079 -0.11907069 -0.25195175
-0.01720939 0.07444425 0.00000068
-0.14122126 0.00214184 -0.00000035
-0.61345141 -0.68101382 0.07130379
-0.03282830 -0.20798092 0.00000017
-0.35370811 -0.45736416 0.00000288
-0.12857393 0.36973913 0.00000342
-0.17420984 0.07509817 -0.00000050
-0.41534953 -0.20274881 0.02220553
-0.14533641 -0.39017837 -0.00000062
-0.32869856 0.00643338 0.33047475
-0.20770711 -0.47117908 -0.00000105
-0.34618817 -0.03577820 0.03540645
-0.17572064 -0.67313398 0.00000140
-0.58268684 -0.60674392 0.20534232
-0.29708851 0.08275641 0.10413164
-0.35641661 -0.06048460 0.31828860
-0.52909211 -0.36331243 -0.27546656
-0.28341370 0.11577398 0.02633568
-0.07637843 0.24292591 0.00000659
-0.08798087 0.50137684 0.00000028
-0.52688448 -0.77239382 -0.00000316
-0.02732732 0.41588993 0.00000097
-0.18085932 -0.25276461 -0.00000075
-0.02353773 0.38600994 0.00000605
-0.21079788 -0.57569313 0.00000173
-0.29492783 0.12004657 -0.07744473
-0.51553073 -0.53219729 0.00000406
-0.39776550 -0.16031173 0.35293847
-0.39448715 -0.15239101 0.21737132
-0.54576383 -0.45481985 -0.15160917
-0.09350092 0.57426740 0.00519299
-0.28452073 0.11310295 0.12845896
-0.23501937 0.22954716 0.00000246
-0.01750231 0.50658589 0.00000456
-0.58082928 -0.49616613 -0.25625705
-0.23868451 -0.29771185 -0.00000113
-0.44453110 -0.27320579 0.15793736
-0.10826805 0.53477737 0.00000018
-0.16325122 0.16434549 0.00000183
-0.26167274 0.21703576 -0.11781114
-0.11989003 -0.24011930 0.00000125
-0.32835653 0.07822448 -0.17139127
-0.18846216 -0.04701154 -0.00000067
-0.24524096 0.09228563 -0.00000092
-0.12240384 0.21157307 -0.00000011
-0.25248194 0.19044251 0.23169187
-0.58389827 -0.59021905 -0.04689564
-0.26496978 0.09187444 0.00000256
-0.50046189 -0.36462938 -0.10527433
-0.09821069 0.56289404 0.08593570
-0.02774391 0.05913942 -0.00001020
-0.32686020 0.05393365 -0.10396123
-0.39894897 -0.16315662 0.07750074
-0.41430535 -0.25033441 0.00000347
-0.26394597 0.16276538 0.24170801
-0.33283288 0.00230542 -0.01406023
-0.30315334 0.06810681 0.27786666
-0.21680019 -0.00224961 -0.00000081
-0.43716169 -0.25541914 0.26517801
-0.16963373 0.28660060 0.00000196
-0.10612972 -0.25226674 0.00000114
-0.06044608 0.26297160 0.00000674
-0.28300146 -0.10364249 0.00000257
-0.11036709 0.26172706 -0.00000000
-0.45896069 -0.30805003 0.35526530
-0.39664699 -0.15523312 -0.00564991
-0.48577175 -0.37277602 0.29609644
-0.55066134 -0.52942945 0.24405951
-0.51849800 -0.75894674 0.00000394
-0.20504017 -0.44494902 -0.00000102
-0.30610982 0.09092257 -0.07230085
-0.55754111 -0.53282408 -0.03182859
-0.64097815 -0.68279876 -0.15616738
-0.16197794 0.30294310 0.00000344
-0.34741403 -0.03874807 0.26746112
-0.18549362 -0.36817380 0.00000167
-0.22224778 -0.63520374 -0.00000124
-0.10156582 0.30707099 0.00000502
-0.45769013 -0.30498072 0.29362658
-0.26547464 0.19879902 -0.09592351
-0.04618715 -0.41099370 -0.00000004
-0.12838247 0.26355972 0.00000163
-0.47098081 -0.22197753 -0.27799047
-0.08671540 0.61049245 -0.04793315
-0.24623005 0.20554914 0.06232411
-0.50000663 -0.27089116 -0.32911822
-0.10790280 -0.28300857 -0.00000033
-0.55872989 -0.54890817 0.23090884
-0.24331118 0.10786784 -0.00000290
-0.37041577 -0.09427044 0.06492746
-0.15205667 0.41474798 -0.00000067
-0.44766879 -0.55338472 -0.00000255
-0.40363181 -0.06668064 -0.26036409
-0.12540914 0.42506008 0.00000171
-0.00606880 -0.73481045 0.00000000
-0.42705873 -0.44590068 0.00000344
-0.04496685 0.25740272 0.00000724
-0.40422917 -0.40261700 0.00000330
-0.08577346 0.59369894 -0.00185741
-0.05738586 0.06291981 -0.00000925
-0.10120671 0.58066171 -0.06038602
-0.41745623 -0.17943593 -0.06855624
-0.58286559 -0.59101423 -0.03895027
-0.57021799 -0.57664220 0.24513096
-0.36401961 0.01702553 -0.23155149
-0.32995086 0.00342902 0.09052221
-0.15114477 0.45542148 -0.04907422
-0.29393010 -0.24868268 -0.00000143
-0.07608329 0.62694439 -0.02566344
-0.45832153 -0.44839160 0.00000368
-0.22282742 -0.70083245 -0.00000128
-0.31525360 0.03891739 0.00929950
-0.51315411 -0.32380544 -0.27795533
-0.54436224 -0.41982898 -0.22798164
-0.25236869 -0.34210617 -0.00000124
-0.11723901 0.30848771 -0.00000345
-0.49577002 -0.39690255 0.03240831
-0.20033183 0.33549538 -0.04621684
-0.11632802 0.48227353 0.00000010
-0.20899509 0.17304194 0.00000218
-0.15380773 -0.71685858 -0.00000088
-0.09083308 0.43126309 0.00000145
-0.37831398 -0.66040040 0.00000294
-0.05063402 0.37213035 0.00000111
-0.50993311 -0.32766992 -0.24982834
-0.15553923 0.03109150 -0.00000680
-0.16661431 0.45652851 -0.14198836
-0.15130036 0.49238017 -0.13928507
-0.22996628 0.07627029 -0.00000084
-0.10102320 0.45661220 0.00000298
-0.09548898 -0.22359561 -0.00000022
-0.28911998 -0.79868845 0.00000218
-0.09766129 0.37012378 0.00000426
-0.41687246 -0.43279903 0.00000337
-0.23113491 0.30882986 -0.16147338
-0.17555827 -0.22391005 0.00000168
-0.36926197 -0.14045365 0.00000320
-0.22174465 -0.55049177 0.00000183
-0.29833541 0.05378732 -0.00000127
-0.50369974 -0.30539761 -0.26728349
-0.05827710 0.40774368 0.00000481
-0.34142610 -0.00371875 -0.04962119
-0.38637839 -0.13281069 0.12907533
-0.33050444 0.00208713 0.00698638
-0.22598110 0.08740678 -0.00000376
-0.66367461 -0.78899323 -0.03196254
-0.34308088 0.02714495 -0.13386012
-0.07277429 0.51204244 0.00000038
-0.40041651 -0.16670858 0.27895855
-0.27077799 0.17424774 -0.06753655
-0.32935208 -0.17196382 0.00000288
-0.21316262 0.28538206 0.03832037
-0.19156174 0.12254371 0.00000202
-0.11176276 0.19282295 -0.00000005
-0.03068976 0.47398633 -0.00000337
-0.16450362 -0.17834781 -0.00000060
-0.22769773 0.32427828 -0.17875190
-0.04366166 -0.78993450 -0.00000026
-0.16229029 0.17039079 0.00000525
-0.25903907 0.17461639 0.10384909
-0.22362339 0.29808878 -0.09169997
-0.22321309 -0.47647992 -0.00000115
-0.43739263 -0.25597559 0.24085611
-0.48328866 -0.72122662 -0.00000287
-0.08908922 -0.11364555 0.00000110
-0.24668005 0.20445258 0.13273506
-0.08857230 0.56276375 0.00000032
-0.37251008 -0.09932557 0.04216526
-0.66905863 -0.78554854 -0.07169525
-0.20438567 0.32478980 -0.04400169
-0.01771999 0.38493016 -0.00000521
-0.19989163 0.27554608 -0.00000149
-0.04659363 -0.70402968 0.00000041
-0.24946906 -0.25122773 -0.00000116
-0.01707347 -0.50617966 0.00000031
-0.22209762 0.30922156 -0.10970050
-0.39086097 -0.52895654 -0.00000219
-0.10479297 0.54700299 0.06843027
-0.11584463 -0.79654489 0.00000088
-0.31900366 -0.36057054 0.00000268
-0.35336849 -0.77158249 0.00000268
-0.51529018 -0.44403804 0.27733951
-0.15972448 0.01415954 -0.00000046
-0.04972449 -0.19213265 0.00000076
-0.02547140 0.21314087 0.00000048
-0.44642243 -0.27777527 0.23389984
-0.01283195 0.55226062 0.00000406
-0.01212651 0.51864900 0.00000454
-0.10556845 0.03922881 -0.00000818
-0.27419218 -0.26466325 -0.00000132
-0.44561526 -0.27581653 0.00857371
-0.24143234 -0.52327803 0.00000199
-0.59943600 -0.64717615 0.04247567
-0.20600548 0.14960500 -0.00000335
-0.00115190 0.18032480 0.00000062
-0.13675823 0.02646550 0.00000155
-0.27870419 0.21556614 -0.21360880
-0.43011362 -0.23839957 0.17709902
-0.00705976 0.73820756 0.00000101
-0.03205454 -0.57796285 0.00000038
-0.31442014 -0.38230403 0.00000263
-0.55714529 -0.77236214 0.00000422
-0.17461486 -0.45970483 0.00000153
-0.37994302 -0.11727315 0.10437846
-0.38951560 -0.58429757 0.00000307
-0.11531580 -0.46643681 -0.00000049
-0.23440510 0.23587877 -0.00427983
-0.06088601 0.59970976 0.00000210
-0.21375433 0.26062037 -0.00000063
-0.12628386 -0.46298965 0.00000116
-0.03206514 0.48390822 0.00000061
-0.20962954 0.29390693 0.09730073
-0.65847558 -0.78970955 0.13988362
-0.10428357 0.54823318 0.05973302
-0.52525906 -0.44031911 -0.06703582
-0.63170124 -0.72507135 0.03343084
-0.02924907 0.72988335 -0.00119615
-0.05835957 -0.78906712 -0.00000035
-0.64110811 -0.71164384 -0.08722385
-0.43755332 -0.25636685 0.31523562
-0.32030651 0.12802205 -0.24475853
-0.51713897 -0.44850129 0.26491926
-0.24888850 -0.39384342 0.00000213
-0.37901310 -0.43255538 0.00000309
-0.23357894 -0.44561088 0.00000198
-0.31098432 0.12258841 -0.17724967
-0.39350241 -0.15001074 0.15263877
-0.42918001 -0.10159413 -0.32503418
-0.47872593 -0.35576119 0.18819636
-0.33912580 -0.01873228 0.13006501
-0.34951669 -0.79919931 0.00000264
-0.24485583 0.20886937 0.02917853
-0.17851752 -0.46926691 -0.00000087
-0.54173260 -0.50786725 0.04641291
-0.20211574 0.15425655 -0.00000062
-0.04693040 0.52690006 -0.00000202
-0.52362907 -0.42031876 -0.10585435
-0.54912072 -0.47223863 -0.12910210
-0.06862665 0.52284988 0.00000041
-0.30710819 0.17429195 -0.27956994
-0.20421882 0.06014453 0.00000563
-0.01225903 0.53728914 0.00000076
-0.28208547 0.21796220 -0.23912425
-0.43205955 -0.24310338 0.30923353
-0.44842331 -0.60716987 -0.00000259
-0.03470529 0.47624032 0.00000106
-0.29851606 0.07930606 0.19246456
-0.35215879 0.00574262 -0.13509306
-0.10297749 -0.16214283 -0.00000022
-0.27260874 0.14184997 0.24205946
-0.36191462 -0.07375963 0.37024421
-0.04211606 -0.54442571 0.00000048
-0.67117638 -0.82037119 0.05568088
-0.46148880 -0.49871771 -0.00000260
-0.03226578 0.47063332 0.00000060
-0.16813629 0.43741206 -0.10467359
-0.26666156 -0.33320979 -0.00000132
-0.55663389 -0.54384809 0.23091188
-0.44082194 -0.26425274 0.19628297
-0.42798743 -0.61084945 0.00000335
-0.51569804 -0.47802470 0.00000409
-0.13489059 -0.74427845 0.00000105
-0.13117149 0.45169376 -0.00000001
-0.18951651 0.15056559 0.00000478
-0.64868374 -0.76607002 0.01262624
-0.19402002 -0.56772214 -0.00000103
-0.41128669 -0.48349094 -0.00000228
-0.28860224 0.10323757 0.25253767
-0.03239498 0.28770670 0.00000716
-0.20831522 0.34792522 -0.12282355
-0.06851959 0.36020118 0.00000031
-0.44401547 -0.55183155 -0.00000252
-0.34512071 -0.03319559 0.11216320
-0.29653653 -0.74310419 0.00000227
-0.40932548 -0.66385616 0.00000317
-0.42926271 -0.23635305 0.35134906
-0.12533598 0.54108381 -0.10550835
-0.59237414 -0.68370721 0.00000454
-0.15174031 0.26302148 0.00000181
-0.64833791 -0.68978065 -0.18223108
-0.38573756 -0.52594893 -0.00000216
-0.22370141 -0.13897300 -0.00000094
-0.22155239 0.06882736 0.00000504
-0.09037097 -0.70447334 0.00000074
-0.28025772 0.12339408 0.13599494
-0.26727010 0.24620639 -0.22094746
-0.21512861 0.26770563 -0.00000116
-0.39195272 -0.03836141 -0.26065978
-0.01257082 0.66619186 0.00000084
-0.07597093 0.33027848 0.00000540
-0.47576537 -0.28462606 -0.15452290
-0.29824364 0.07996908 0.18121523
-0.24037669 -0.51611005 -0.00000127
-0.14499593 0.14245062 0.00000168
-0.05219435 -0.43651458 -0.00000009
-0.01460347 0.05485495 0.00001085
-0.12490214 0.52469376 -0.06337238
-0.49662966 -0.71444307 0.00000380
-0.50646018 -0.65703441 -0.00000297
-0.15489302 0.39862520 -0.00000085
-0.15782721 0.03209922 0.00000171
-0.33691952 -0.01341136 0.30218137
-0.34092557 -0.02307778 0.23958912
-0.16361155 0.22970084 -0.00000333
-0.08195759 0.51991294 -0.00000108
-0.22187673 0.27860804 -0.03444419
-0.15087817 0.47268931 -0.08924330
-0.23803014 0.30995982 -0.20442737
-0.49915147 -0.35590752 -0.11870481
-0.21560230 0.27949266 0.03272845
-0.15940154 0.30281224 0.00000189
-0.10008901 -0.61659804 -0.00000049
-0.61885518 -0.69405726 0.01602258
-0.59699364 -0.64128268 0.13295691
-0.24391631 0.28534035 -0.17927600
-0.49749720 -0.30948464 -0.22122649
-0.04306472 -0.34801407 0.00000061
-0.23267058 0.23828724 0.02432767
-0.46630112 -0.32576326 0.15165012
-0.54328648 -0.73876431 -0.00000324
-0.37169494 -0.09735776 0.04516753
-0.04205099 -0.20266588 0.00000012
-0.05412265 0.32454674 0.00000607
-0.28472236 -0.29052825 -0.00000140
-0.02740257 -0.40745218 0.00000008
-0.41509144 -0.20212510 0.00805589
-0.08562007 0.14356631 -0.00000708
-0.00959147 0.17160133 0.00000938
-0.22068376 0.26721423 0.11676153
-0.30680822 0.10071819 -0.10004402
-0.47541830 -0.19760099 -0.36277695
-0.00342802 -0.57851931 0.00000012
-0.50763987 -0.42556170 0.09162984
-0.57181886 -0.78429939 -0.00000344
-0.35561122 -0.43560405 0.00000291
-0.47920465 -0.32958776 -0.06594451
-0.42694828 -0.23075157 0.03909616
-0.54181228 -0.50806241 0.10914361
-0.09447936 0.57190402 0.06248432
-0.28846130 0.18244463 -0.19049561
-0.25938475 0.17378692 0.11639874
-0.18363411 0.35665933 0.14247472
-0.12305763 -0.35599701 0.00000121
-0.12093989 0.50802240 0.07377278
-0.14503735 0.15482350 -0.00000511
-0.26219918 0.21238231 -0.10963286
-0.48763472 -0.77423701 -0.00000293
-0.56330916 -0.73816101 -0.00000336
-0.37622234 -0.18509405 -0.00000189
-0.53237238 -0.34562728 -0.33733691
-0.28369512 0.11509282 0.06526348
-0.26959843 0.15266084 -0.00849539
-0.24943083 0.06665139 -0.00000339
-0.44160646 -0.26614820 0.22886033
-0.16977985 0.34046201 -0.00000031
-0.37122776 -0.09623264 0.10670689
-0.09114735 0.57338909 0.00000007
-0.36057272 -0.17987498 -0.00000179
-0.35913280 0.01115296 -0.18884969
-0.03201214 -0.38015780 0.00000050
-0.51541763 -0.43880339 -0.01328978
-0.07047305 0.33716782 -0.00000439
-0.01037569 -0.34259155 0.00000022
-0.52656554 -0.41400308 -0.13824441
-0.55839599 -0.54810205 0.20941486
-0.35968237 -0.06837137 0.37381006
-0.01402800 0.74174415 0.00000107
-0.06709882 0.63584924 0.00000140
-0.06657758 -0.07612855 0.00000005
-0.06886496 -0.08015461 0.00000003
-0.12873682 -0.08844636 0.00000142
-0.04896887 -0.17543691 0.00000009
-0.38589284 -0.62680982 0.00000302
-0.49159299 -0.30461929 -0.19854130
-0.19535479 0.36762681 -0.09482519
-0.04392424 0.69395692 0.02088860
-0.37048225 -0.02817363 -0.16002866
-0.00038836 0.64129033 0.00000090
-0.63024076 -0.77462276 -0.00000379
-0.06872514 0.43757341 0.00000129
-0.23719648 0.24668014 -0.04665569
-0.27227184 0.17243301 -0.07186576
-0.19069671 0.33960674 0.18435575
-0.17187121 -0.49287776 0.00000149
-0.21567145 0.05400609 -0.00000461
-0.07668450 -0.31341659 -0.00000016
-0.28859236 -0.56708327 0.00000232
-0.21150956 -0.27742767 0.00000192
-0.06529334 -0.64956729 -0.00000030
-0.09516500 0.11606283 0.00000129
-0.32005865 -0.53944109 -0.00000177
-0.49860740 -0.40375326 0.04671547
-0.36031864 0.01481706 -0.20462610
-0.33102212 0.10676179 -0.25589336
-0.08253269 0.35450304 0.00000022
-0.59566927 -0.67000677 -0.00000351
-0.13865004 -0.45756109 0.00000126
-0.31295111 0.06182800 -0.04189790
-0.20288662 0.36158268 -0.12415740
-0.28465168 -0.02424042 0.00000263
-0.31323867 0.04377590 0.08426222
-0.22123554 0.23911483 -0.00000069
-0.16724099 0.39623816 0.13215854
-0.08565393 -0.58566982 0.00000078
-0.43869360 -0.41988521 0.00000355
-0.09713020 -0.35698812 -0.00000031
-0.23292256 0.10601343 0.00000422
-0.24719947 0.05773754 0.00000240
-0.02919491 -0.68659305 0.00000029
-0.13126303 -0.12520198 -0.00000037
-0.03212463 -0.56314528 0.00000039
-0.52972594 -0.78340066 0.00000401
-0.02901589 0.72265626 0.00000128
-0.19145698 0.13744236 -0.00000057
-0.61322115 -0.58534484 -0.22972965
-0.18830971 0.34537600 0.11042057
-0.11357485 -0.18838729 -0.00000030
-0.01666321 0.57464181 -0.00000216
-0.30831770 0.06686181 -0.02703238
-0.31282660 -0.62829548 0.00000247
-0.15097761 0.43550215 0.08336756
-0.30331448 0.06771957 0.23745891
-0.48160029 -0.24221287 -0.29104295
-0.60467694 -0.65982744 0.00847131
-0.02186511 0.18859574 0.00000881
-0.11328017 -0.25249672 -0.00000034
-0.02174840 -0.70956129 -0.00000007
-0.00477537 -0.36460301 0.00000031
-0.06348641 -0.14078742 0.00000003
-0.02923848 0.26524931 0.00000049
-0.24606904 0.14173226 0.00000244
-0.03899461 -0.39001638 0.00000002
-0.31376205 -0.76713335 -0.00000187
-0.35474222 0.07122216 -0.30838853
-0.29414114 -0.39896724 -0.00000152
-0.52202215 -0.41232845 -0.11578762
-0.49643641 -0.30410863 -0.22802854
-0.36234587 -0.21023768 -0.00000182
-0.50449626 -0.77714027 -0.00000303
-0.06676653 0.53420132 0.00000043
-0.05597234 -0.25461237 0.00000076
-0.48370864 -0.36778977 0.16960587
-0.58535940 -0.51695199 -0.23245728
-0.30732753 -0.41176078 -0.00000161
-0.35650564 -0.34562266 -0.00000187
-0.08849280 0.43887880 0.00000144
-0.44384298 -0.27155355 0.36146211
-0.23297826 -0.74357425 -0.00000137
-0.09597063 0.29821718 0.00000141
-0.11157432 0.39653818 0.00000159
-0.36136665 -0.39010239 -0.00000192
-0.25323891 0.18861408 0.24397703
-0.10974873 0.12057747 -0.00000673
-0.15113695 0.30918927 -0.00000022
-0.60821499 -0.62397400 -0.10718147
-0.08384641 -0.01482121 0.00000112
-0.03343743 0.72891179 -0.02328047
-0.12269362 0.53223025 -0.06870175
-0.32408172 0.01760144 0.04981592
-0.20032176 -0.34419126 0.00000180
-0.21760643 -0.23486701 0.00000199
-0.06649583 -0.40117827 0.00000075
-0.10743581 -0.62914025 0.00000092
-0.33548950 0.03367911 -0.10536548
-0.45930548 -0.68047143 -0.00000270
-0.22092941 0.02075906 0.00000571
-0.32088528 0.14253809 -0.28320934
-0.47596186 -0.45335180 0.00000381
-0.37098865 -0.18231504 0.00000318
-0.08168574 0.60278918 0.06653761
-0.33619234 0.01806496 -0.07173691
-0.08582073 -0.41066365 0.00000089
-0.27854208 -0.31484287 0.00000240
-0.20257106 -0.42512397 -0.00000099
-0.19442177 0.35420574 -0.05695654
-0.48411343 -0.36637261 -0.00569594
-0.17150129 0.05989865 0.00000652
-0.49728690 -0.43001485 0.00000398
-0.03933474 0.64268150 -0.00000037
-0.50224558 -0.73076236 -0.00000299
-0.22664816 -0.43101768 -0.00000114
-0.38430731 -0.12781675 0.26641544
-0.33243313 0.09770251 -0.24223625
-0.40166020 -0.15185276 -0.04306170
-0.24627230 0.19823852 -0.00000135
-0.38703587 -0.03074297 -0.25038625
-0.14104845 0.45947030 0.15259724
-0.48160624 -0.73057181 -0.00000286
-0.53623690 -0.49459814 0.01882199
-0.20495725 -0.32806669 0.00000184
-0.54076745 -0.37199398 -0.32259857
-0.27231007 -0.68575523 0.00000213
-0.62497799 -0.70884122 0.15446049
-0.19730551 0.32366195 0.06578034
-0.00751614 -0.74342416 -0.00000001
-0.22824031 0.17479912 0.00000233
-0.02422137 -0.71519537 0.00000024
-0.64479894 -0.75669199 0.03842509
-0.21602903 0.29505067 -0.04006286
-0.20627108 0.30201802 0.05763934
-0.10629884 0.49542714 0.00000017
-0.33857023 0.10099535 -0.28599263
-0.08071136 -0.39566556 -0.00000023
-0.53997974 -0.46097205 -0.10300303
-0.32688132 0.04167294 -0.07445775
-0.05907375 0.59314085 0.00000224
-0.22397044 0.34141632 -0.19842115
-0.57607279 -0.55187117 -0.09390683
-0.36834405 -0.38789494 -0.00000197
-0.05365500 -0.49662646 0.00000059
-0.10145950 0.38400604 -0.00000270
-0.48312829 -0.70222406 0.00000371
-0.18380236 0.19277270 -0.00000332
-0.22900231 -0.45117414 0.00000195
-0.14412274 -0.01435088 0.00000158
-0.10584136 0.55519075 -0.02587333
-0.41956536 -0.41394868 0.00000341
-0.35659171 0.05149847 -0.27151886
-0.08640392 -0.67097394 -0.00000044
-0.08778387 -0.25413804 -0.00000019
-0.36243999 -0.07502077 0.19162168
-0.30927806 0.05332442 0.25068570
-0.40924803 -0.08291428 -0.25389540
-0.06035735 -0.48545716 -0.00000017
-0.46926234 -0.52242834 -0.00000266
-0.25211390 0.11820475 -0.00000095
-0.42847311 -0.23443913 0.17967696
-0.31513201 0.00465512 -0.00000140
-0.18431400 0.35502525 0.07437615
-0.07935535 0.27271712 -0.00000517
-0.35128562 -0.04809823 0.35801750
-0.35142301 -0.00225337 -0.11148754
-0.35121167 -0.28003168 -0.00000179
-0.09970964 0.08518715 0.00000812
-0.10182616 -0.63277481 -0.00000051
-0.34476839 -0.04853624 0.00000307
-0.12659545 0.24478689 -0.00000011
-0.10829528 -0.79713669 0.00000082
-0.28691500 0.10732354 0.11827221
-0.25322963 0.28541063 -0.23377367
-0.15304121 0.10828140 -0.00000562
-0.56815637 -0.46803665 -0.25029920
-0.15085877 0.01848075 0.00000765
-0.11402615 0.44714268 0.00000275
-0.59002281 -0.62445407 0.21905213
-0.42047043 -0.49925022 -0.00000235
-0.56740657 -0.58174071 -0.00000329
-0.10227568 0.20560763 0.00000001
-0.26932190 0.10106960 -0.00000106
-0.14899091 0.44030450 0.04089002
-0.51938134 -0.43895399 -0.03604758
-0.21652173 0.07627839 -0.00000076
-0.27520221 0.13558833 0.25138028
-0.36355266 -0.37860250 0.00000301
-0.05271524 0.59789473 -0.00000069
-0.03754871 -0.79078797 -0.00000022
-0.03449880 -0.36001589 0.00000007
-0.01416162 -0.57794693 0.00000025
-0.44200132 -0.25216691 -0.03599648
-0.13119265 0.47628678 0.00000179
-0.39721926 -0.01782922 -0.34099710
-0.36310860 0.03866854 -0.27853109
-0.33966106 -0.02002992 0.25103115
-0.26616803 0.15741023 0.12380012
-0.26417279 0.16222219 0.10904952
-0.54940567 -0.57843098 0.00000428
-0.05902233 -0.08472766 0.00000089
-0.13914121 -0.03658166 -0.00000036
-0.27967918 0.01015363 -0.00000340
-0.21576232 -0.26022862 0.00000197
-0.52299615 -0.40773953 -0.13255748
-0.26907217 -0.22944774 0.00000239
-0.25821859 0.17660464 0.08604719
-0.65317084 -0.77690305 0.05349432
-0.37252125 -0.02325896 -0.18380513
-0.04565644 0.09589154 -0.00000906
-0.55348591 -0.43954737 -0.23355765
-0.34549568 0.03965725 -0.17817997
-0.38136780 -0.04299637 -0.18771238
-0.66453558 -0.74498335 -0.14333130
-0.11004584 0.02551807 0.00000866
-0.23961963 0.22149262 0.25647979
-0.30995850 0.05168269 0.23845043
-0.11553768 0.00014914 0.00000137
-0.04798217 0.00166567 0.00000021
-0.10533949 0.27362459 0.00000004
-0.33905593 -0.60590525 0.00000268
-0.03203750 0.69138336 0.00000074
-0.29941692 -0.05217017 -0.00000134
-0.20825071 0.29723728 0.07686354
-0.13723439 -0.71482233 -0.00000078
-0.15771573 0.35782679 0.00000191
-0.52089108 -0.38790318 -0.16820846
-0.13602172 -0.28553970 -0.00000050
-0.30027638 -0.26825489 0.00000260
-0.32229160 -0.26720983 0.00000276
-0.09910560 0.00846767 0.00000919
-0.31393238 0.10291985 -0.14692164
-0.41801233 -0.69948578 0.00000322
-0.13048384 0.07301460 0.00000153
-0.36824183 -0.08903028 0.31415061
-0.12310794 -0.09454074 0.00000137
-0.35004369 0.02794994 -0.17641613
-0.34054062 -0.02213980 0.13012723
-0.52253268 -0.71415900 -0.00000310
-0.04546748 0.18063918 0.00000828
-0.30560345 0.11318292 -0.12313468
-0.27943406 0.20498861 -0.19230704
-0.03403675 -0.18241215 0.00000018
-0.13173312 0.05238353 -0.00000717
-0.11925431 -0.49657698 -0.00000053
-0.15793969 0.15953254 0.00000552
-0.28984623 0.10025264 0.04650087
-0.44453235 -0.49999562 0.00000354
-0.26988116 0.21578581 -0.16267346
-0.11513034 -0.24133788 -0.00000035
-0.17798412 0.37030060 0.12202621
-0.05934157 -0.16496226 0.00000084
-0.34247937 -0.02683128 0.19100732
-0.02116076 0.28791265 0.00000055
-0.02996299 0.39032722 0.00000097
-0.16074504 -0.01067552 0.00000171
-0.61090470 -0.69562999 0.00000467
-0.45169936 -0.29051792 0.29990612
-0.32989844 0.00354407 0.14312227
-0.19617588 0.32637859 0.18879436
-0.52050698 -0.45662288 0.02625778
-0.02173028 -0.11584890 0.00000059
-0.17093721 0.38868469 -0.00327437
-0.35249572 0.03870718 -0.21671382
-0.53966801 -0.45223743 -0.12229002
-0.30959542 -0.16900080 -0.00000147
-0.44968597 -0.63062471 -0.00000261
-0.49518053 -0.34773336 -0.11529220
-0.33191377 0.06243814 -0.15399737
-0.59156682 -0.65737915 0.00000455
-0.34420179 -0.03099193 0.24366079
-0.54578115 -0.46527324 -0.12645167
-0.20513275 0.12906325 0.00000213
-0.22767071 0.25034349 0.20682564
-0.30136011 -0.04790452 -0.00000135
-0.17572636 -0.26610876 0.00000166
-0.30575657 -0.58705924 -0.00000171
-0.18382339 0.33357020 -0.00000040
-0.33058729 -0.46787329 -0.00000179
-0.40078901 -0.06128645 -0.25681504
-0.35285295 -0.16709940 0.00000306
-0.08896991 0.60862815 -0.05657978
-0.08774226 0.01440674 0.00000942
-0.61250752 -0.64946755 -0.07062125
-0.13948473 -0.78614338 0.00000106
-0.33813508 -0.01634292 0.18533241
-0.33457662 -0.77642868 0.00000254
-0.40330123 -0.76086229 0.00000307
-0.13723451 0.20670054 0.00000543
-0.22736552 -0.60391616 -0.00000125
-0.20234155 0.38386664 -0.17482447
-0.07548538 -0.18149950 0.00000096
-0.07415712 0.51212520 0.00000138
-0.13747768 0.25010184 0.00000169
-0.28979920 -0.54219616 -0.00000159
-0.23907586 0.29651524 -0.17804185
-0.30885828 -0.61632210 -0.00000175
-0.37436526 0.00621147 -0.26576818
-0.02768215 -0.56585301 0.00000036
-0.60934746 -0.67110317 0.00892078
-0.16598053 0.21031856 -0.00000037
-0.66517728 -0.73895314 -0.16164626
-0.10712166 0.57342694 -0.07740858
-0.29305478 0.09248853 0.27562552
-0.22872321 -0.68984229 -0.00000131
-0.14544604 0.45169329 -0.00682314
-0.22625742 0.33006840 -0.18434096
-0.20215182 -0.20716059 0.00000190
-0.14775093 0.25607706 -0.00000338
-0.26131949 -0.09541070 0.00000241
-0.18566298 0.31648258 -0.00000125
-0.00063897 0.74784780 0.00000017
-0.37974986 -0.41766367 -0.00000205
-0.43177155 -0.12185187 -0.29120275
-0.01923923 -0.01879894 0.00000063
-0.13345909 0.09725957 0.00000704
-0.19035559 0.34043491 0.08061175
-0.32496053 0.07622101 -0.14674028
-0.43626149 -0.25324324 0.20673314
-0.30075991 -0.77894117 0.00000228
-0.34550278 -0.01277974 -0.05150775
-0.16488395 0.08113022 -0.00000044
-0.26872656 -0.48835380 0.00000222
-0.14485297 0.47229088 -0.05313041
-0.46049516 -0.51936235 0.00000365
-0.22019996 0.26838714 0.00635738
-0.04344993 0.40228875 0.00000049
-0.04453333 -0.65961962 0.00000042
-0.55441243 -0.50214579 -0.08770581
-0.25668008 0.18031096 0.11688681
-0.24181267 -0.32545282 -0.00000116
-0.09106971 -0.77468297 0.00000070
-0.13876311 0.45785265 0.00000183
-0.26445573 0.17816775 -0.04012853
-0.25883208 0.17511573 0.18548144
-0.42848716 -0.09766723 -0.33047864
-0.15508208 0.40062274 0.00000192
-0.09982070 0.53553253 -0.00000029
-0.27857010 0.22900291 -0.24529506
-0.31423575 0.04135727 0.22993973
-0.33004382 0.00318417 0.34311830
-0.60097743 -0.65090018 0.14674170
-0.33434887 -0.04988416 0.00000299
-0.04777844 0.59537516 -0.00000088
-0.51892817 -0.53301522 -0.00000297
-0.24338507 0.21241000 0.15680089
-0.29353345 -0.56405878 -0.00000162
-0.31056406 -0.24094110 -0.00000153
-0.01855838 -0.24584073 0.00000049
-0.09184253 0.13259998 0.00000128
-0.22965381 -0.02813672 -0.00000090
-0.23270598 0.29965759 -0.14847444
-0.27347564 -0.28855235 0.00000238
-0.26166861 0.02345031 -0.00000106
-0.23986915 -0.50082637 -0.00000126
-0.45612444 -0.30120287 0.34345279
-0.29228228 0.14996184 -0.13429143
-0.05858385 0.20061637 0.00000765
-0.02747737 0.17269725 -0.00000836
-0.28552008 0.11069316 0.09256483
-0.33163360 -0.29080539 -0.00000168
-0.23516652 -0.01178287 -0.00000093
-0.32780770 0.00860038 0.12393130
-0.22653963 0.25307634 0.12769214
-0.25916494 0.00535095 0.00000246
-0.03879323 0.28700247 -0.00000617
-0.31672371 0.10032551 -0.15693571
-0.16737038 0.39592925 0.01698836
-0.42172940 -0.05798307 -0.38694953
-0.44408000 -0.27211026 0.01284025
-0.20030546 0.31641590 0.03059468
-0.05218642 0.14987887 0.00000028
-0.21272593 0.28643623 0.03940080
-0.02079085 -0.10149226 0.00000031
-0.45399161 -0.65115675 -0.00000265
-0.21452953 0.25522030 0.00000228
-0.19644542 0.32572741 0.19841980
-0.30686087 0.05916782 0.01242243
-0.44941750 -0.33122551 0.00000368
-0.25959978 0.17326860 0.10627957
-0.59997017 -0.64846783 0.08926391
-0.25519165 0.18390208 0.16813585
-0.30566780 -0.41353132 -0.00000160
-0.04325674 0.11102257 0.00000090
-0.23178083 0.26644037 -0.06281177
-0.10697104 0.30948441 0.00000005
-0.01615889 -0.34151808 0.00000041
-0.11292811 -0.36142402 0.00000113
-0.14999023 0.27691910 -0.00000023
-0.41023598 -0.19041625 0.30672052
-0.20015680 -0.23277306 0.00000186
-0.34190660 -0.02544014 0.00425767
-0.33832103 -0.01679770 0.31671985
-0.45532642 -0.13102698 -0.40643673
-0.35551679 -0.05830289 0.10876567
-0.40515360 -0.04614957 -0.31884833
-0.35462126 -0.70812178 -0.00000208
-0.17869687 0.42505821 -0.13642848
-0.57350744 -0.58458340 0.18374233
-0.53374687 -0.56245198 0.00000418
-0.23081655 0.24274741 0.20582026
-0.38355555 -0.05557453 -0.17008797
-0.11695449 -0.12490798 0.00000130
-0.52514617 -0.46783191 0.26421517
-0.19891493 -0.59565085 0.00000163
-0.64697136 -0.69600306 -0.15922310
-0.49660507 -0.40360989 -0.00000275
