ply
format ascii 1.0
element vertex 1408
property float x
property float y
property float z
end_header
-0.77501421 0.62601338 0.00000000
0.54132745 0.20204177 0.00000000
0.76824176 0.27773000 0.01368841
-0.04279705 -0.19745559 0.00000000
-0.56582163 0.10338341 0.00000000
-0.07601573 0.22326207 0.00000000
-0.65717727 -0.70620668 0.00000000
0.15298469 0.10202221 0.00000000
-0.47151590 0.56061461 0.00000000
-0.61238159 0.19761921 0.00000000
-0.64362003 0.74912850 0.00000000
0.77324391 -0.31255556 0.00000000
0.20365771 -0.08207785 0.00000000
-0.00721440 0.24194145 0.00000000
-0.56348200 0.14999831 0.00000000
0.53819955 0.59734487 0.01867316
-0.53097036 -0.15755174 0.00000000
0.79000300 0.18575318 0.00978089
0.40701387 -0.45064527 0.00000000
0.52297842 0.14985087 0.00000000
0.04321598 -0.56516721 0.00000000
0.46276015 0.16740134 0.00000000
0.24595607 -0.35868180 0.00000000
-0.73532099 0.21358802 0.00000000
0.47003573 -0.42449433 0.00000000
0.04565748 0.17640672 0.00000000
-0.40708278 0.64145867 0.00000000
0.40072843 -0.09155069 0.00000000
0.09422541 0.02866247 0.00000000
0.47299789 0.44925771 0.00680356
0.68921377 0.15097911 0.00223675
-0.71600045 -0.04857799 0.00000000
0.01652802 -0.46572041 0.00000000
-0.15992960 0.25791281 0.00000000
-0.58464003 -0.06603955 0.00000000
-0.66948790 0.08247882 0.00000000
-0.30533552 -0.06166759 0.00000000
-0.02431675 0.72543234 0.00000000
0.27082320 -0.10768631 0.00000000
-0.17213196 -0.49640159 0.00000000
-0.73958077 0.50146783 0.00000000
-0.40615341 0.34781310 0.00000000
0.67962151 -0.56711513 0.00000000
-0.65107999 0.61579491 0.00000000
0.05157101 0.17758243 0.00000000
-0.72129945 0.16956353 0.00000000
-0.47863123 -0.26273908 0.00000000
-0.11921542 -0.08403747 0.00000000
0.39626895 -0.63569582 0.00000000
-0.25264851 -0.32292226 0.00000000
-0.35106990 -0.45498819 0.00000000
0.38815095 0.40590424 0.00000000
-0.03844255 0.65761501 0.00000000
-0.73722548 0.01130296 0.00000000
0.46549791 0.25769913 0.00000000
-0.58365270 -0.75385570 0.00000000
-0.42468381 0.07183660 0.00000000
0.68320893 -0.50144114 0.00000000
-0.04664249 -0.04141209 0.00000000
-0.62917139 0.23363511 0.00000000
-0.72757808 -0.56111886 0.00000000
-0.74675352 -0.50008082 0.00000000
-0.56726496 -0.75540120 0.00000000
-0.08609007 0.66676766 0.00000000
-0.59726794 0.24066150 0.00000000
-0.65129553 0.73956032 0.00000000
0.66329534 0.74420360 0.03380750
-0.43627442 -0.60681280 0.00000000
0.58951731 0.46602843 0.01422120
0.21469294 -0.49249023 0.00000000
-0.45004182 -0.20943309 0.00000000
0.77118270 0.56000810 0.02956094
-0.52377500 -0.74419653 0.00000000
-0.11825777 -0.36276862 0.00000000
-0.21249176 0.20490861 0.00000000
-0.78879538 -0.40025770 0.00000000
0.48661076 0.16726325 0.00000000
0.29541018 -0.53768958 0.00000000
-0.23145526 -0.03615253 0.00000000
0.29451289 -0.60963022 0.00000000
-0.30208369 0.28681826 0.00000000
-0.34770911 -0.03692538 0.00000000
0.67991283 0.10377817 0.00000000
0.34245452 -0.73936845 0.00000000
0.52623531 0.54544868 0.01511930
0.12440206 0.68873405 0.00073103
-0.61043537 0.02220944 0.00000000
0.25388544 -0.03750045 0.00000000
0.60572030 0.62885989 0.02418452
0.36970246 -0.13293346 0.00000000
-0.39091584 -0.64044932 0.00000000
0.22275848 -0.24762908 0.00000000
0.64121957 -0.00200207 0.00000000
0.77337316 0.64853080 0.03460915
0.57334449 0.07804176 0.00000000
-0.44236911 -0.50702574 0.00000000
-0.61815360 0.19406322 0.00000000
0.45022978 -0.16062469 0.00000000
0.05257769 0.06690207 0.00000000
0.22090108 -0.02619588 0.00000000
-0.71331992 0.63049329 0.00000000
-0.53458280 0.17866087 0.00000000
-0.36738104 -0.14756743 0.00000000
0.70843305 0.17869092 0.00484848
0.26658474 0.06579856 0.00000000
-0.54699651 -0.51157909 0.00000000
-0.40047718 -0.62229028 0.00000000
0.69401966 -0.01502545 0.00000000
0.06830258 -0.12061197 0.00000000
0.09327377 -0.79088132 0.00000000
0.65958806 -0.12648216 0.00000000
-0.34628291 -0.29718777 0.00000000
-0.76075525 -0.27487775 0.00000000
-0.74973661 0.13488309 0.00000000
-0.01315906 -0.11584529 0.00000000
-0.71582741 -0.54783983 0.00000000
0.64736433 -0.66507689 0.00000000
-0.70977867 -0.25115609 0.00000000
-0.73113256 -0.67925608 0.00000000
0.32241575 0.60178582 0.00691186
-0.27301271 -0.11329549 0.00000000
-0.41188922 0.12697485 0.00000000
-0.50322081 -0.15781764 0.00000000
-0.06790040 -0.05302505 0.00000000
0.68445465 -0.71923728 0.00000000
-0.67038543 -0.05652749 0.00000000
0.40336230 -0.47696196 0.00000000
-0.69928014 -0.72393006 0.00000000
0.33950974 0.45456037 0.00000000
0.25803795 0.46168860 0.00000000
-0.66405985 -0.58460872 0.00000000
-0.32464189 -0.71355194 0.00000000
0.27087555 -0.47029241 0.00000000
0.31461762 0.69834233 0.01185129
0.19274386 -0.35868149 0.00000000
0.61683667 0.14590222 0.00000000
0.28726374 0.48225618 0.00000000
-0.76729445 0.74409707 0.00000000
0.19342100 0.04893211 0.00000000
-0.17705478 0.37855266 0.00000000
0.26863992 0.62396216 0.00515334
-0.75351367 0.15188448 0.00000000
0.70926924 0.46584856 0.02087543
0.33133200 0.51097365 0.00235432
0.47471190 0.03614589 0.00000000
-0.27930291 -0.49111736 0.00000000
0.63580320 -0.21638779 0.00000000
-0.70683755 -0.33997005 0.00000000
-0.17381151 0.08719482 0.00000000
0.07960038 0.56865972 0.00000000
-0.68705261 0.29462625 0.00000000
0.03778284 -0.54015736 0.00000000
0.78271831 0.12481645 0.00598434
0.43318948 -0.46316572 0.00000000
-0.53699078 0.36758003 0.00000000
-0.09103857 -0.78918418 0.00000000
0.13127428 0.52651589 0.00000000
0.07613059 -0.60576920 0.00000000
0.47810131 -0.75529708 0.00000000
-0.40732433 -0.20447584 0.00000000
-0.18961827 0.41100708 0.00000000
-0.54708443 0.38637919 0.00000000
-0.46496644 0.40812682 0.00000000
0.69849731 0.16062402 0.00329012
0.41217838 -0.65670625 0.00000000
-0.24861228 -0.16268357 0.00000000
0.13129499 -0.69896259 0.00000000
-0.78713907 -0.66633806 0.00000000
0.07814249 0.16689053 0.00000000
-0.73404660 0.64462803 0.00000000
0.00088802 -0.11744137 0.00000000
-0.57129413 -0.17280827 0.00000000
0.11530437 0.60067792 0.00000000
0.72300340 0.42885695 0.01958114
0.08027587 -0.25833334 0.00000000
0.77442324 -0.59349564 0.00000000
-0.62743105 0.24073731 0.00000000
0.50161221 -0.25446752 0.00000000
-0.08676165 0.26800011 0.00000000
-0.46966908 0.15466072 0.00000000
0.72535931 0.04515888 0.00000000
0.10921956 0.15161543 0.00000000
0.75563010 0.79488269 0.04176626
0.68994043 -0.36452403 0.00000000
0.31220061 0.66897512 0.01008249
0.48287376 -0.08065506 0.00000000
0.34010751 -0.43033712 0.00000000
-0.79901703 0.44795857 0.00000000
0.39742779 0.42101135 0.00102614
-0.12990845 -0.18622167 0.00000000
-0.24742524 -0.47933963 0.00000000
0.45817263 -0.57497087 0.00000000
0.21038666 0.11316240 0.00000000
-0.09810815 0.62966462 0.00000000
-0.22369853 0.65344740 0.00000000
0.27470780 -0.34380063 0.00000000
0.74536492 0.34397446 0.01610183
0.45623220 -0.48632929 0.00000000
-0.59767102 -0.29812582 0.00000000
0.13271233 0.52606427 0.00000000
-0.64469573 -0.78029770 0.00000000
-0.67182392 -0.35056221 0.00000000
0.23487964 -0.52760969 0.00000000
-0.62920936 -0.24897730 0.00000000
0.10129712 -0.62595191 0.00000000
0.22264022 0.12970490 0.00000000
0.70707843 0.64839223 0.03091211
0.62032193 0.56840202 0.02163261
-0.04301223 -0.02931798 0.00000000
-0.21776574 0.32150417 0.00000000
-0.28455218 -0.20708710 0.00000000
-0.49720114 0.12631905 0.00000000
0.71756550 -0.37441736 0.00000000
0.20490851 -0.05075604 0.00000000
0.54772759 -0.52760392 0.00000000
0.51979537 0.30544057 0.00140439
-0.41293076 -0.64361744 0.00000000
0.07879490 0.27575604 0.00000000
-0.19507339 -0.62378545 0.00000000
-0.77424359 -0.21029034 0.00000000
0.71130863 0.42155541 0.01852399
-0.42945932 0.16921128 0.00000000
0.00368005 0.58423971 0.00000000
0.45217750 0.73476891 0.02153369
0.05217238 -0.51438133 0.00000000
-0.16086011 -0.40700687 0.00000000
0.16792526 -0.56850478 0.00000000
0.15720955 -0.01983259 0.00000000
-0.74204127 -0.33491766 0.00000000
0.49663710 -0.68245514 0.00000000
0.63903703 0.49772664 0.01874101
-0.12434810 -0.05448039 0.00000000
-0.59144154 -0.28815266 0.00000000
0.64083646 0.73433491 0.03200846
-0.44711212 0.58367056 0.00000000
-0.36725578 0.04584526 0.00000000
0.50285241 -0.65534713 0.00000000
-0.00240865 0.59086852 0.00000000
0.44715235 -0.29540330 0.00000000
0.65515643 -0.02770438 0.00000000
0.53609699 0.43727776 0.00964836
0.43551207 -0.43047456 0.00000000
0.67201080 -0.13651916 0.00000000
-0.42405111 -0.11754685 0.00000000
-0.61733358 -0.19508718 0.00000000
-0.11094648 0.37471702 0.00000000
0.23686602 0.04554220 0.00000000
-0.32849884 -0.66142587 0.00000000
0.37964925 -0.59694918 0.00000000
-0.42783580 -0.79665819 0.00000000
0.19644348 -0.70111775 0.00000000
-0.28306646 0.40423697 0.00000000
-0.52907524 -0.75850231 0.00000000
-0.38341535 -0.08955153 0.00000000
-0.29227431 0.56427210 0.00000000
-0.38999498 0.15681523 0.00000000
0.07419502 0.34834896 0.00000000
-0.29659297 -0.40570635 0.00000000
0.56661519 0.18929325 0.00000000
0.48170467 -0.48652409 0.00000000
-0.14160751 0.61896039 0.00000000
0.64352314 -0.16979173 0.00000000
-0.76487379 0.54885998 0.00000000
0.11138990 0.48284560 0.00000000
0.16916746 -0.46480328 0.00000000
-0.55004072 -0.50671541 0.00000000
0.49987745 0.41029983 0.00613140
0.25841696 -0.33420681 0.00000000
0.57526827 -0.10904589 0.00000000
-0.40033211 -0.45425205 0.00000000
-0.28882137 0.22356667 0.00000000
0.70592187 -0.78351441 0.00000000
-0.27119348 -0.03227607 0.00000000
0.74495489 -0.12946995 0.00000000
0.14854089 0.68533303 0.00188509
-0.01160162 0.24658477 0.00000000
0.49994320 -0.65358420 0.00000000
-0.28459562 -0.10814061 0.00000000
-0.40776605 0.51210220 0.00000000
0.22542445 0.72916263 0.00860282
-0.52001611 0.33846462 0.00000000
-0.74187135 -0.73153723 0.00000000
0.44731425 -0.16579374 0.00000000
-0.68056627 0.24824490 0.00000000
-0.07463607 -0.24932312 0.00000000
-0.21820696 -0.08733353 0.00000000
0.08359135 -0.11619984 0.00000000
0.14333585 0.07048517 0.00000000
-0.47218288 -0.20372998 0.00000000
-0.11056401 -0.48455582 0.00000000
0.01246485 0.44496707 0.00000000
0.07703085 -0.02538460 0.00000000
-0.64140814 -0.19568982 0.00000000
0.32279744 -0.31428902 0.00000000
-0.14500546 0.75418876 0.00000000
0.59601216 -0.77716231 0.00000000
-0.22229087 -0.50683551 0.00000000
-0.54824534 -0.23001939 0.00000000
-0.59331287 0.15148972 0.00000000
-0.04650403 -0.76548212 0.00000000
0.47111678 -0.45897526 0.00000000
0.22782449 0.50420391 0.00000000
-0.62164948 0.23702411 0.00000000
-0.67890080 0.08158153 0.00000000
-0.64554772 0.59361507 0.00000000
-0.35228611 0.35002719 0.00000000
-0.03011501 -0.72197368 0.00000000
-0.46316951 0.01338775 0.00000000
-0.01749073 -0.36546778 0.00000000
0.64254804 -0.15743425 0.00000000
-0.23049993 0.31811490 0.00000000
0.09624141 0.51983322 0.00000000
0.05956008 -0.32355106 0.00000000
-0.62190486 -0.56329149 0.00000000
0.66918666 -0.00701179 0.00000000
0.62555285 0.01786349 0.00000000
0.50774375 -0.02641443 0.00000000
-0.38510068 -0.02343555 0.00000000
0.36511482 0.29004112 0.00000000
0.52969593 -0.20204266 0.00000000
-0.31751848 -0.61923819 0.00000000
-0.61971838 0.56409480 0.00000000
0.23275648 0.75180286 0.01027078
0.12217693 0.27991542 0.00000000
0.29843661 0.00000487 0.00000000
0.68889960 -0.31552671 0.00000000
-0.29505061 -0.64490645 0.00000000
-0.34570051 0.28765349 0.00000000
-0.26825300 0.55602751 0.00000000
-0.56529501 -0.08039805 0.00000000
-0.60087775 0.36344738 0.00000000
0.70521511 0.46999055 0.02088032
0.23444887 -0.19959275 0.00000000
-0.00145388 0.53170869 0.00000000
0.15161212 -0.35669030 0.00000000
0.04594664 0.61424738 0.00000000
0.33283664 -0.24658263 0.00000000
0.66279058 -0.56948259 0.00000000
0.28194264 -0.49624559 0.00000000
0.66466759 0.06714934 0.00000000
-0.77636887 -0.63529935 0.00000000
0.36575530 0.39500850 0.00000000
-0.42951529 0.24352263 0.00000000
-0.66806740 0.68099615 0.00000000
-0.25472353 -0.73878508 0.00000000
0.63716659 -0.15721585 0.00000000
0.42182747 -0.66618329 0.00000000
-0.57532625 -0.69640273 0.00000000
0.63595889 -0.29559332 0.00000000
-0.34049476 -0.66001874 0.00000000
-0.24682918 -0.68902036 0.00000000
0.19967581 -0.28303326 0.00000000
0.18767866 0.32486711 0.00000000
-0.63237103 0.16194136 0.00000000
0.33612867 0.23437650 0.00000000
0.65269016 -0.61172702 0.00000000
-0.42246410 -0.54082143 0.00000000
-0.15269671 -0.54176598 0.00000000
-0.32258154 -0.74837229 0.00000000
-0.31145477 0.51579255 0.00000000
0.06435422 0.68373593 0.00000000
-0.13678946 0.31810160 0.00000000
-0.66862488 0.15878811 0.00000000
-0.47158037 0.23843614 0.00000000
-0.16030282 0.69088333 0.00000000
-0.38237604 0.45549736 0.00000000
0.74288169 0.15876951 0.00565692
-0.37204969 -0.31627978 0.00000000
0.74468545 -0.59026903 0.00000000
-0.54638716 -0.03843145 0.00000000
0.33009864 0.38374117 0.00000000
0.55967308 0.67407582 0.02413826
0.78165593 -0.06803129 0.00000000
0.02549775 -0.16620364 0.00000000
0.47520969 0.25544432 0.00000000
-0.03126509 0.45322718 0.00000000
0.19181903 -0.13741755 0.00000000
0.32605414 0.43054107 0.00000000
0.28189550 -0.29049337 0.00000000
-0.47263300 -0.19488308 0.00000000
0.05618480 0.69844289 0.00000000
-0.39763457 -0.12344884 0.00000000
0.65908343 -0.72794411 0.00000000
0.19455864 0.49592812 0.00000000
-0.36737587 0.59795755 0.00000000
-0.69205289 0.06617670 0.00000000
-0.74613861 0.47326675 0.00000000
-0.11082508 -0.25572762 0.00000000
-0.01599868 -0.68278184 0.00000000
-0.63326145 0.41429733 0.00000000
0.55584375 0.69684395 0.02519221
-0.00044719 -0.07903909 0.00000000
-0.40899016 0.24184551 0.00000000
-0.29730368 0.67796107 0.00000000
-0.55799026 -0.05171409 0.00000000
0.71655126 -0.23623300 0.00000000
0.68471038 0.48060143 0.02032972
-0.21544467 0.55922334 0.00000000
0.55788710 -0.65236420 0.00000000
-0.41376551 -0.60565256 0.00000000
0.49108832 0.38962370 0.00449165
-0.71090100 0.23469076 0.00000000
-0.01462063 -0.19783743 0.00000000
-0.18537696 0.59369525 0.00000000
0.27308301 0.25799688 0.00000000
-0.77114295 -0.32681870 0.00000000
-0.75181869 -0.75354806 0.00000000
-0.43714349 0.20491710 0.00000000
0.49508192 0.35316772 0.00268511
-0.23496526 0.55731178 0.00000000
0.57902151 0.31266211 0.00510222
0.43411527 -0.71849771 0.00000000
-0.73851106 0.15738638 0.00000000
0.68685191 -0.64920650 0.00000000
0.00329687 0.31273991 0.00000000
0.05625014 0.30808253 0.00000000
-0.44548025 -0.34310258 0.00000000
0.46238274 0.46690835 0.00719509
-0.47734675 0.65602422 0.00000000
-0.73392578 0.19836943 0.00000000
0.30756909 0.73014298 0.01322875
0.64418567 -0.71077700 0.00000000
-0.69622764 0.14218712 0.00000000
-0.27258989 -0.13721904 0.00000000
-0.06470370 -0.44313074 0.00000000
0.49507769 0.52104148 0.01202710
0.71997978 -0.10707448 0.00000000
-0.51040655 -0.23709956 0.00000000
-0.43497328 0.32307306 0.00000000
-0.34197558 -0.76167203 0.00000000
0.48718484 0.59594425 0.01575623
0.78266506 0.43979360 0.02350996
-0.50623312 0.57121919 0.00000000
-0.03547796 -0.48605296 0.00000000
0.48144823 -0.24920174 0.00000000
-0.16742603 -0.13428218 0.00000000
-0.34781411 -0.23731190 0.00000000
0.55265922 0.01145385 0.00000000
-0.70472687 -0.15031610 0.00000000
0.40093868 -0.37335686 0.00000000
0.65628763 0.22601146 0.00457997
-0.06607444 -0.63516257 0.00000000
-0.04792266 -0.75888573 0.00000000
-0.69515186 0.75608313 0.00000000
-0.33015835 -0.70596703 0.00000000
-0.41189161 0.79616685 0.00000000
0.27668374 -0.78754641 0.00000000
0.17505023 -0.23848330 0.00000000
-0.01352226 -0.60475320 0.00000000
0.16663876 0.49284257 0.00000000
-0.15723410 -0.07874532 0.00000000
0.52480796 -0.71737730 0.00000000
-0.25665769 -0.58354673 0.00000000
-0.16741757 0.39013523 0.00000000
0.28945600 0.61244447 0.00567079
-0.52382005 -0.74077464 0.00000000
-0.32938840 -0.39345689 0.00000000
0.05688790 -0.57761059 0.00000000
0.36923656 -0.58828463 0.00000000
0.27706953 -0.47330620 0.00000000
0.04467485 0.08925663 0.00000000
-0.00075532 0.70090345 0.00000000
-0.46297093 0.33913826 0.00000000
-0.49307327 0.31039075 0.00000000
0.08271959 0.51783750 0.00000000
0.53424228 0.73896642 0.02633421
-0.66120155 -0.73104897 0.00000000
-0.47167110 -0.37296377 0.00000000
0.71729765 -0.68751133 0.00000000
-0.62935671 0.58085642 0.00000000
0.04628193 0.50984028 0.00000000
-0.20397230 0.00560411 0.00000000
0.27253010 0.47752072 0.00000000
-0.23051328 0.77523969 0.00000000
-0.16741265 0.25665665 0.00000000
0.28326581 0.03745613 0.00000000
0.47652941 0.08636287 0.00000000
-0.42506455 0.78154120 0.00000000
-0.33393713 -0.20983993 0.00000000
-0.74261832 -0.00366171 0.00000000
0.45793354 -0.34643922 0.00000000
0.29967553 0.30587446 0.00000000
-0.45599307 -0.12210730 0.00000000
-0.24409842 -0.64011434 0.00000000
-0.55509219 0.40402342 0.00000000
-0.36599107 0.24209067 0.00000000
0.46640492 0.40506754 0.00397747
-0.33902001 0.09714977 0.00000000
0.57719788 -0.60274743 0.00000000
0.48046478 -0.58310379 0.00000000
-0.56593249 0.22899424 0.00000000
-0.34814735 0.49391672 0.00000000
-0.57988936 -0.08671599 0.00000000
-0.45651976 -0.75451089 0.00000000
0.37348771 0.33972808 0.00000000
-0.03240120 0.18625022 0.00000000
0.58920655 0.54354529 0.01851775
-0.54833030 0.08491253 0.00000000
-0.18893117 -0.77781729 0.00000000
0.31034037 0.13177784 0.00000000
-0.04472387 -0.58064480 0.00000000
-0.74041395 0.03499075 0.00000000
0.37015600 0.62548676 0.01088758
0.16185272 0.40830726 0.00000000
-0.52816781 0.01885265 0.00000000
-0.58587400 0.59373295 0.00000000
-0.02128940 -0.27180249 0.00000000
0.61388323 0.22920720 0.00239800
0.03552797 0.10137735 0.00000000
-0.17414379 -0.50895505 0.00000000
0.40230168 -0.65742275 0.00000000
0.20219664 0.65126131 0.00297495
-0.71864871 -0.36574050 0.00000000
0.56963587 -0.52745290 0.00000000
-0.21279516 0.27162476 0.00000000
-0.34748049 -0.00716844 0.00000000
0.43337546 -0.15277718 0.00000000
-0.67110785 0.79576164 0.00000000
-0.64152042 -0.44879868 0.00000000
0.03742667 0.62755979 0.00000000
0.60418931 0.00061684 0.00000000
0.32027182 -0.14487998 0.00000000
-0.04492150 -0.48695815 0.00000000
0.15453858 0.22991710 0.00000000
-0.56525323 0.48808035 0.00000000
0.61422795 0.05169270 0.00000000
-0.59058796 0.59955050 0.00000000
0.00355007 0.23214860 0.00000000
-0.60873183 -0.47063055 0.00000000
-0.06041064 0.73796192 0.00000000
-0.53808239 0.56807061 0.00000000
-0.78103440 0.60300801 0.00000000
0.25239219 -0.09780029 0.00000000
-0.04445091 -0.41496129 0.00000000
0.42975238 0.04162719 0.00000000
-0.66098796 -0.29257170 0.00000000
0.77884255 -0.05672355 0.00000000
-0.41497760 -0.67247641 0.00000000
-0.61553908 -0.11144196 0.00000000
-0.36707846 0.23780540 0.00000000
-0.39712522 -0.53820160 0.00000000
-0.68920161 -0.17803682 0.00000000
0.63679417 -0.20117768 0.00000000
-0.64743951 -0.15042927 0.00000000
-0.76459735 -0.03215454 0.00000000
0.19256366 0.17470621 0.00000000
0.50724366 -0.56611702 0.00000000
-0.26760991 -0.49727633 0.00000000
-0.71875057 -0.49679558 0.00000000
0.32383424 0.25597699 0.00000000
0.41571998 -0.00832214 0.00000000
-0.59531083 0.69434396 0.00000000
-0.40973741 0.75440985 0.00000000
0.07394718 0.57602692 0.00000000
0.69521681 -0.31795852 0.00000000
0.59843794 0.28354351 0.00456229
-0.43048326 -0.61177458 0.00000000
0.52014549 -0.16074332 0.00000000
-0.51053075 0.71937809 0.00000000
0.32255956 0.56939971 0.00511756
0.20027136 0.66868482 0.00383743
-0.73874362 0.12732363 0.00000000
-0.01310548 -0.77106541 0.00000000
0.37325499 0.12315200 0.00000000
-0.11468919 -0.56070888 0.00000000
0.79866678 0.29022035 0.01607666
0.68531727 0.31862676 0.01134955
0.28458036 -0.18131441 0.00000000
0.01100713 0.48637257 0.00000000
-0.77789515 -0.20230833 0.00000000
0.17453085 0.32838788 0.00000000
0.08533852 -0.42615325 0.00000000
-0.25160281 -0.74501309 0.00000000
0.38652329 0.13514168 0.00000000
0.35493877 -0.44092517 0.00000000
0.03184318 0.46911780 0.00000000
0.21873914 0.78117904 0.01112551
-0.03729956 -0.42308671 0.00000000
-0.64809087 -0.24798435 0.00000000
0.33663819 -0.51997426 0.00000000
0.18017664 -0.06711545 0.00000000
0.47864856 -0.54899625 0.00000000
-0.79475483 -0.73943145 0.00000000
0.46658233 -0.47996444 0.00000000
-0.54057353 0.75506599 0.00000000
0.59439192 -0.64875946 0.00000000
-0.58285602 -0.46844615 0.00000000
0.50788429 -0.18137097 0.00000000
0.18747633 -0.21124075 0.00000000
0.74192669 -0.37225396 0.00000000
-0.65536623 -0.71793066 0.00000000
-0.04862147 0.39934583 0.00000000
-0.52556662 0.17456505 0.00000000
-0.49065595 0.26680617 0.00000000
0.01224712 -0.44559948 0.00000000
0.33047353 0.52817305 0.00326370
0.43346160 0.15406465 0.00000000
0.78492198 -0.57245809 0.00000000
0.59035433 -0.38853646 0.00000000
-0.77287801 -0.77796436 0.00000000
0.09164026 -0.55205672 0.00000000
-0.11314645 -0.35190122 0.00000000
0.08554126 0.08136887 0.00000000
-0.00923668 0.19257937 0.00000000
0.54283569 0.63220056 0.02087089
0.32944415 -0.37032181 0.00000000
0.22525349 -0.06499435 0.00000000
0.78225943 0.01206855 0.00000000
-0.06142676 -0.64028069 0.00000000
-0.64584562 -0.13268019 0.00000000
-0.69040336 -0.62265936 0.00000000
-0.67398466 -0.49577547 0.00000000
0.18193264 0.40710712 0.00000000
-0.42101797 -0.13524910 0.00000000
-0.08192362 -0.45438026 0.00000000
-0.74619988 -0.79805851 0.00000000
-0.03194803 -0.45312387 0.00000000
-0.02293076 -0.57298953 0.00000000
-0.03756222 0.16400070 0.00000000
0.03292310 -0.22398228 0.00000000
-0.61885413 -0.27452360 0.00000000
0.40402390 -0.32317661 0.00000000
-0.41258811 -0.19017079 0.00000000
0.79856245 -0.38513477 0.00000000
0.41753199 0.62941760 0.01374283
-0.24524079 0.47429842 0.00000000
0.58410656 0.57606105 0.02004344
-0.77483073 0.35317112 0.00000000
-0.11069278 0.23356478 0.00000000
0.78750740 0.73649790 0.04029111
0.58471899 0.36810324 0.00850461
0.26788674 -0.01762363 0.00000000
-0.54996182 0.22701354 0.00000000
0.03155282 -0.40144303 0.00000000
-0.70939857 -0.71893568 0.00000000
0.60268275 -0.40842993 0.00000000
0.45824460 -0.28650498 0.00000000
-0.13405494 -0.55205372 0.00000000
-0.67141157 0.31999727 0.00000000
-0.62309575 0.64383792 0.00000000
0.75155206 -0.37816554 0.00000000
-0.09678340 -0.04012246 0.00000000
-0.56623409 -0.40161214 0.00000000
-0.54677174 0.68223477 0.00000000
0.53401422 0.71427676 0.02494753
0.35915220 -0.07012250 0.00000000
0.18127033 0.62523655 0.00036211
-0.58031266 0.66592658 0.00000000
-0.27211759 -0.62253420 0.00000000
0.33424473 0.78451278 0.01773895
0.21272655 0.02575220 0.00000000
0.43619955 0.28934759 0.00000000
0.51707367 0.79066917 0.02825604
0.51463581 -0.69865527 0.00000000
0.49903222 -0.29100356 0.00000000
-0.23886788 -0.53605666 0.00000000
-0.68446175 0.44040130 0.00000000
0.45764462 0.78148755 0.02443784
0.73628084 0.09748453 0.00187905
0.31366871 0.37118698 0.00000000
-0.41572313 0.19965396 0.00000000
0.41619436 0.21690364 0.00000000
0.43675015 0.28762898 0.00000000
0.76595687 0.68146050 0.03602897
-0.18418157 -0.20773669 0.00000000
-0.27513726 0.14576418 0.00000000
0.77798773 -0.35007116 0.00000000
0.51343757 -0.52953490 0.00000000
-0.00300385 -0.71709941 0.00000000
0.57255022 -0.30992870 0.00000000
0.28039796 0.17694941 0.00000000
0.58547650 0.66977179 0.02533471
0.54686659 0.07209457 0.00000000
-0.41837961 -0.04243578 0.00000000
0.77852810 0.11067074 0.00496394
0.29773584 0.41601406 0.00000000
-0.60397340 -0.76097278 0.00000000
0.53524107 -0.63325679 0.00000000
0.50926405 -0.62430240 0.00000000
-0.77221179 -0.74752726 0.00000000
0.72523535 0.50723002 0.02406684
-0.60839137 0.09868563 0.00000000
0.16915720 -0.54425836 0.00000000
0.20631673 0.35432392 0.00000000
-0.08688162 0.62772058 0.00000000
0.38255597 0.32374459 0.00000000
0.79220651 -0.60152498 0.00000000
-0.18552848 0.00024664 0.00000000
0.76529429 0.06733663 0.00181592
0.79576053 0.63900608 0.03532496
-0.48193333 0.72549030 0.00000000
-0.10992091 0.60968082 0.00000000
-0.37231491 0.05243357 0.00000000
0.50648453 -0.19670785 0.00000000
0.08061899 0.44266406 0.00000000
0.72430845 0.58786786 0.02850277
-0.40475370 0.33834134 0.00000000
-0.61462666 -0.73600150 0.00000000
-0.19519074 -0.00032820 0.00000000
0.16010239 0.68267313 0.00238047
-0.54193066 -0.71826150 0.00000000
-0.08468738 0.78677053 0.00000000
0.01411331 0.06793029 0.00000000
-0.39461830 0.42964653 0.00000000
0.11634104 0.41995578 0.00000000
-0.22998796 0.13179432 0.00000000
-0.64494110 -0.48244791 0.00000000
-0.79408085 -0.32693571 0.00000000
0.06410247 -0.25998195 0.00000000
-0.67416251 0.09273503 0.00000000
0.28205126 0.25277066 0.00000000
0.00835487 -0.21618730 0.00000000
0.35885384 0.74218601 0.01675296
0.38118116 0.54602623 0.00707913
0.78139281 -0.75635993 0.00000000
0.63465196 -0.52321844 0.00000000
0.67530837 -0.74218466 0.00000000
-0.67912809 0.45311454 0.00000000
0.48153674 -0.53830720 0.00000000
-0.47185673 0.62868116 0.00000000
0.56840828 0.51486907 0.01576448
0.29379560 0.66971921 0.00909965
-0.20942845 0.60318561 0.00000000
0.65568124 0.79770450 0.03636111
-0.69693199 -0.25583794 0.00000000
0.00731708 -0.70083133 0.00000000
-0.16570891 -0.71081591 0.00000000
0.62419922 -0.71651541 0.00000000
0.33692661 0.46476348 0.00009405
0.33882985 0.72759957 0.01482688
-0.79295162 0.59619844 0.00000000
-0.29420586 0.30912423 0.00000000
-0.00280531 0.66638521 0.00000000
-0.67187331 0.67236316 0.00000000
0.42580393 -0.72142989 0.00000000
-0.53539580 -0.36734103 0.00000000
0.64856974 0.34833592 0.01095786
0.03076951 -0.14389314 0.00000000
0.60563020 -0.00399758 0.00000000
0.68969472 -0.06740910 0.00000000
-0.31469630 0.50570475 0.00000000
0.47650111 0.08393633 0.00000000
-0.37159815 -0.48585188 0.00000000
-0.01315719 0.25590328 0.00000000
0.04276805 0.15787838 0.00000000
-0.76044724 -0.63557781 0.00000000
-0.09476313 0.73807702 0.00000000
0.76914643 -0.73755432 0.00000000
0.75480710 0.46776869 0.02351648
-0.27966654 -0.52257749 0.00000000
-0.38375590 0.69457878 0.00000000
-0.69611810 0.06606939 0.00000000
0.70330378 0.58508373 0.02717892
0.76335249 0.20738337 0.00950151
0.51163832 -0.69173190 0.00000000
0.21572712 0.57587746 0.00000000
0.45643221 0.03669936 0.00000000
-0.38357443 0.71776994 0.00000000
-0.09460972 0.67472803 0.00000000
-0.70020753 0.05390081 0.00000000
0.35667474 -0.50618388 0.00000000
-0.07007052 -0.32478269 0.00000000
0.30774474 0.44751246 0.00000000
-0.03292704 -0.67193831 0.00000000
0.29390986 -0.78025414 0.00000000
-0.29788084 0.77884185 0.00000000
0.41926341 0.72247677 0.01901795
-0.27429039 -0.01355861 0.00000000
-0.77134425 0.53238148 0.00000000
-0.01470844 0.09518901 0.00000000
-0.26619856 0.68947570 0.00000000
0.23590120 -0.41279389 0.00000000
-0.38428768 -0.13253160 0.00000000
-0.58844373 0.16207703 0.00000000
-0.17092728 0.15341355 0.00000000
-0.58040875 -0.25040251 0.00000000
0.14809852 0.60494006 0.00000000
0.55918365 0.28120634 0.00224772
0.16505488 -0.63867030 0.00000000
0.20051393 -0.63605469 0.00000000
0.18724972 0.31912068 0.00000000
0.26561112 -0.50656894 0.00000000
0.52463338 0.46285866 0.01043399
-0.37170857 -0.49114639 0.00000000
0.02590167 -0.42727840 0.00000000
0.62485491 -0.09866481 0.00000000
-0.09818941 0.19264062 0.00000000
-0.35437603 0.20031882 0.00000000
0.70108601 0.00489840 0.00000000
-0.06765244 -0.61401607 0.00000000
-0.45020656 -0.10483883 0.00000000
0.28923058 -0.17327226 0.00000000
-0.13351400 -0.46003391 0.00000000
0.37814123 0.61489026 0.01074227
-0.00326240 0.18385137 0.00000000
-0.61860518 -0.02939373 0.00000000
0.32854556 -0.53780628 0.00000000
-0.00186076 -0.35981350 0.00000000
0.51839582 -0.60655954 0.00000000
0.15200340 -0.77295124 0.00000000
-0.08460512 -0.34147004 0.00000000
0.63996670 0.33204471 0.00957249
0.46198676 0.39172923 0.00298931
-0.67228150 0.18434023 0.00000000
0.22765970 -0.40568689 0.00000000
-0.00771240 0.08225345 0.00000000
-0.47427207 0.13641956 0.00000000
-0.50699520 0.69270514 0.00000000
-0.43181701 0.39296142 0.00000000
-0.12656621 -0.11161513 0.00000000
0.74167217 -0.28052555 0.00000000
0.59239166 -0.07339500 0.00000000
-0.19871889 -0.21561784 0.00000000
0.43536901 0.04911900 0.00000000
0.24988385 0.35504187 0.00000000
0.00484986 0.69193251 0.00000000
-0.32564744 -0.31510023 0.00000000
-0.22326112 0.63552736 0.00000000
-0.77455197 0.33777787 0.00000000
0.79141446 -0.03708184 0.00000000
0.56551311 -0.35316725 0.00000000
-0.16895260 0.49340132 0.00000000
0.43575441 0.03780656 0.00000000
0.44420182 -0.44489853 0.00000000
0.50887562 0.23631131 0.00000000
-0.22924006 -0.56274456 0.00000000
0.25965545 -0.79953880 0.00000000
0.54517456 0.47376392 0.01218400
0.71448117 0.69147704 0.03372176
-0.20583259 -0.24856383 0.00000000
0.06396733 0.68297101 0.00000000
0.41696740 -0.08768746 0.00000000
0.42587259 -0.72022937 0.00000000
-0.56151927 0.68885251 0.00000000
0.63384235 -0.17547914 0.00000000
-0.23557522 0.07892591 0.00000000
0.39237538 0.02170412 0.00000000
0.78083414 0.14481694 0.00699252
0.70550828 0.44722598 0.01962978
-0.09433645 0.63469405 0.00000000
0.73285060 -0.61246688 0.00000000
-0.69045577 0.24746815 0.00000000
-0.34965438 0.08822338 0.00000000
-0.34128492 -0.77604906 0.00000000
0.48727354 -0.26244864 0.00000000
0.55436241 0.69120684 0.02479607
0.78355663 0.16686160 0.00837082
-0.72608868 -0.33429558 0.00000000
-0.04114944 -0.61433218 0.00000000
-0.01990996 -0.64927529 0.00000000
0.62675574 -0.13804344 0.00000000
0.65095664 0.40572774 0.01428457
-0.76853292 -0.14426354 0.00000000
0.04413846 -0.64603595 0.00000000
0.60542926 0.15563187 0.00000000
-0.74190600 0.48577778 0.00000000
-0.03747792 -0.15153316 0.00000000
-0.71450847 0.53838078 0.00000000
0.48379613 0.23996787 0.00000000
0.74439485 0.06087057 0.00029302
-0.12848378 0.01495101 0.00000000
0.73988016 0.09181298 0.00176373
0.29812175 0.09891692 0.00000000
-0.78426490 -0.24212520 0.00000000
-0.71093092 -0.79946489 0.00000000
0.31446544 -0.51955180 0.00000000
0.55682098 0.29021399 0.00261751
0.77748047 -0.39771887 0.00000000
-0.08030159 0.59773354 0.00000000
0.59625582 -0.33477531 0.00000000
0.70057425 0.00352870 0.00000000
0.43488546 0.67573184 0.01728595
0.19305145 -0.76468321 0.00000000
0.61076051 -0.48251843 0.00000000
-0.71825446 -0.15352533 0.00000000
0.19857581 0.28796412 0.00000000
-0.14694381 0.76356725 0.00000000
-0.55530324 -0.57257692 0.00000000
-0.38426730 0.05150292 0.00000000
-0.36185161 -0.12534048 0.00000000
-0.06862297 -0.26713068 0.00000000
-0.22121167 -0.30948266 0.00000000
0.31159119 -0.33743573 0.00000000
0.39551472 -0.55386784 0.00000000
-0.02249662 -0.55415996 0.00000000
0.76924845 -0.09913574 0.00000000
0.19054267 -0.42890331 0.00000000
-0.18763927 -0.08150021 0.00000000
0.18327133 0.33718571 0.00000000
0.37634986 0.52187755 0.00546639
-0.37660123 0.32902713 0.00000000
-0.38836261 0.67957962 0.00000000
0.70480816 0.79704915 0.03905857
-0.19924885 0.62053712 0.00000000
-0.44236897 -0.25194553 0.00000000
0.61272992 0.66498283 0.02658486
0.31509833 0.71154605 0.01261283
0.19504736 -0.11186517 0.00000000
-0.01884409 0.16688881 0.00000000
-0.79125788 0.66715036 0.00000000
0.39820382 -0.06280741 0.00000000
0.33365445 0.19920011 0.00000000
0.08428740 0.79066326 0.00417103
-0.29499553 -0.06181297 0.00000000
0.15520862 -0.46107656 0.00000000
-0.15857486 -0.22728765 0.00000000
0.15954104 -0.08108759 0.00000000
-0.38431969 -0.16651897 0.00000000
0.58582370 0.78791242 0.03192859
0.06439388 0.49328592 0.00000000
0.41740965 0.00868717 0.00000000
0.68380928 0.26742850 0.00841643
-0.44528926 -0.33821456 0.00000000
-0.67372289 -0.36006869 0.00000000
-0.50959247 0.19659465 0.00000000
-0.51469787 -0.22563426 0.00000000
-0.71063203 -0.69885640 0.00000000
-0.66719414 0.00333631 0.00000000
0.37584034 -0.54187034 0.00000000
0.33659625 0.15953015 0.00000000
0.71313662 -0.18418481 0.00000000
0.59915127 -0.67960512 0.00000000
-0.19087832 -0.79180773 0.00000000
0.38723848 0.08417525 0.00000000
-0.36407927 0.39514268 0.00000000
0.78725845 -0.09582400 0.00000000
0.49753943 0.56056249 0.01436346
-0.52080616 -0.38303014 0.00000000
0.76393425 0.61614351 0.03228151
0.56012279 -0.37043635 0.00000000
-0.78491458 0.17735297 0.00000000
0.32122850 -0.48042001 0.00000000
-0.09393504 0.51152690 0.00000000
0.66302166 -0.65261370 0.00000000
-0.31302501 -0.27669043 0.00000000
-0.29358251 0.62714578 0.00000000
0.57893514 0.60982229 0.02163447
0.00811038 0.23626436 0.00000000
0.75269479 -0.57743539 0.00000000
0.51518035 -0.52922343 0.00000000
0.42037626 0.25976548 0.00000000
-0.46635125 0.11991379 0.00000000
-0.76138685 -0.75473475 0.00000000
0.64093658 0.04135489 0.00000000
-0.57645054 0.07382452 0.00000000
0.11119218 0.71493571 0.00145402
-0.20064310 -0.54876149 0.00000000
-0.54328392 0.75532015 0.00000000
-0.05894064 -0.49485950 0.00000000
0.44181267 -0.48134663 0.00000000
0.47442257 0.43568600 0.00612758
0.59043401 -0.60668245 0.00000000
-0.08312255 -0.15113311 0.00000000
-0.02323149 -0.23283870 0.00000000
0.34819460 0.25569458 0.00000000
0.24637720 0.07500157 0.00000000
-0.44377720 0.50273594 0.00000000
-0.22675200 0.34211926 0.00000000
-0.37476082 0.72514149 0.00000000
-0.36879497 -0.40468864 0.00000000
0.21547965 -0.05333422 0.00000000
0.74307767 0.79425798 0.04103295
-0.51937822 0.70163492 0.00000000
-0.67181752 -0.41293048 0.00000000
-0.72363655 -0.03605217 0.00000000
0.60135122 -0.05620010 0.00000000
0.66669466 0.59214420 0.02553453
0.67768789 -0.06670357 0.00000000
-0.23522675 -0.50753942 0.00000000
-0.61158144 -0.23290326 0.00000000
0.72615920 0.51070528 0.02431165
0.43659199 0.78898902 0.02368371
-0.53055139 0.38988583 0.00000000
0.71311299 0.28163480 0.01083778
-0.67418205 -0.45433924 0.00000000
-0.64783567 -0.77773632 0.00000000
0.43963926 -0.04259786 0.00000000
-0.39272717 -0.56970125 0.00000000
0.40625047 0.07295191 0.00000000
-0.17515859 -0.45688552 0.00000000
0.04698870 0.65133324 0.00000000
-0.56797736 -0.19795131 0.00000000
0.02371623 0.24101835 0.00000000
0.68059323 0.13005313 0.00059247
0.63715331 0.74149229 0.03220180
0.28637714 -0.79988267 0.00000000
0.31937347 -0.75805286 0.00000000
0.04035017 -0.53843345 0.00000000
-0.10784308 0.67486073 0.00000000
-0.52344374 -0.01141520 0.00000000
0.25388153 -0.36327008 0.00000000
-0.73723571 -0.29762398 0.00000000
-0.29485263 0.30598459 0.00000000
0.79457890 -0.45272222 0.00000000
-0.46641799 -0.49200321 0.00000000
0.51188801 -0.53546163 0.00000000
0.74735359 -0.14543758 0.00000000
-0.00740435 0.61866546 0.00000000
0.79750131 0.36659645 0.02026216
-0.05880571 0.28271498 0.00000000
0.14124134 -0.31983559 0.00000000
0.14446322 -0.59954260 0.00000000
0.69033633 -0.43566157 0.00000000
0.52474294 -0.39581664 0.00000000
0.27350044 -0.08830523 0.00000000
-0.68665640 -0.05184625 0.00000000
0.34441890 0.13402923 0.00000000
-0.06512217 -0.74657547 0.00000000
-0.79036781 0.73350944 0.00000000
0.63617971 0.33900718 0.00974921
0.46378056 0.48207061 0.00811667
-0.09857600 -0.07438126 0.00000000
-0.45171147 0.78654208 0.00000000
-0.72677718 0.77854768 0.00000000
-0.70615905 -0.50348581 0.00000000
-0.75971608 0.21952723 0.00000000
0.50934010 0.47880446 0.01047031
0.60497037 0.02580970 0.00000000
0.58377486 0.67025601 0.02526696
0.03777751 -0.78710831 0.00000000
0.21718322 -0.68451408 0.00000000
-0.40815021 0.28771860 0.00000000
0.61215439 0.32951309 0.00788384
-0.35953037 0.45221914 0.00000000
-0.65962979 0.47602591 0.00000000
-0.62825813 -0.24534725 0.00000000
-0.69205819 -0.08560330 0.00000000
0.15616406 -0.34377378 0.00000000
-0.64947862 -0.26145868 0.00000000
0.50003394 0.28675020 0.00000000
-0.13758539 -0.28715415 0.00000000
0.64235888 0.28079909 0.00685378
0.66843974 -0.35267316 0.00000000
-0.37694147 -0.71502798 0.00000000
-0.21432435 -0.45398926 0.00000000
-0.16151539 -0.68724730 0.00000000
0.29521376 0.04379577 0.00000000
0.08589171 0.18928881 0.00000000
-0.43591442 0.01255921 0.00000000
0.33138338 0.64152856 0.00962261
-0.65787134 -0.10128116 0.00000000
0.52346780 0.69375557 0.02321861
0.61226487 -0.67540798 0.00000000
0.39999864 -0.75893993 0.00000000
-0.74138164 -0.18772735 0.00000000
-0.05160465 -0.49108641 0.00000000
-0.62935492 -0.06516764 0.00000000
-0.53930588 -0.67139660 0.00000000
-0.59244319 0.21830637 0.00000000
-0.21998328 -0.16405499 0.00000000
-0.77928069 0.50098576 0.00000000
0.02147039 0.69649813 0.00000000
-0.58440665 -0.05522218 0.00000000
0.09251076 0.09938724 0.00000000
0.15308220 -0.18912193 0.00000000
0.33562163 -0.23192496 0.00000000
0.59702991 -0.72214374 0.00000000
-0.49870940 0.35234801 0.00000000
-0.71521361 0.49950880 0.00000000
-0.02384766 0.08117956 0.00000000
-0.34840021 0.32706573 0.00000000
0.35428559 0.34070699 0.00000000
-0.05401510 -0.69852941 0.00000000
0.35283320 -0.57060627 0.00000000
0.01537917 0.44605602 0.00000000
-0.57742500 0.51447865 0.00000000
-0.32120003 -0.13800732 0.00000000
-0.74061662 -0.54945415 0.00000000
-0.44851887 -0.30873020 0.00000000
-0.61427500 -0.05253786 0.00000000
0.71918994 0.50489605 0.02360052
-0.42061387 -0.62664923 0.00000000
0.04200192 -0.13268806 0.00000000
-0.47399186 0.06921907 0.00000000
0.13090759 0.62426914 0.00000000
0.70940869 -0.09667670 0.00000000
0.68483897 -0.08772052 0.00000000
-0.25859360 0.18198646 0.00000000
0.29100698 -0.61764564 0.00000000
-0.55873327 -0.36747158 0.00000000
0.68601743 0.25515857 0.00785649
0.04409787 0.09584283 0.00000000
-0.77021317 0.02191935 0.00000000
-0.22112672 -0.74838942 0.00000000
-0.55483683 0.12228769 0.00000000
-0.79937049 0.75086220 0.00000000
-0.27653481 -0.55417445 0.00000000
-0.45985493 0.27157316 0.00000000
0.00484787 -0.79912015 0.00000000
0.30298244 -0.56916416 0.00000000
-0.70839866 -0.34320078 0.00000000
0.31761512 0.50625257 0.00132824
-0.47871661 0.36045568 0.00000000
-0.43049500 0.64301494 0.00000000
0.37826292 -0.09514974 0.00000000
0.24413729 0.26121888 0.00000000
0.74874003 -0.07344598 0.00000000
0.52379595 0.45714642 0.01006950
-0.17101082 0.45729702 0.00000000
0.48176044 -0.22953062 0.00000000
-0.61217642 -0.10195662 0.00000000
-0.58290217 0.32451764 0.00000000
0.76442433 -0.22336341 0.00000000
0.19302721 -0.29624500 0.00000000
0.08411512 -0.56970604 0.00000000
0.74404004 0.48897749 0.02409757
0.23532349 -0.55519123 0.00000000
0.47620879 0.33871892 0.00083073
0.52519167 0.09634216 0.00000000
0.32532093 -0.16904685 0.00000000
0.70651723 0.30522014 0.01178325
-0.15850633 0.15709448 0.00000000
-0.08307894 0.23372835 0.00000000
0.13508325 0.71350330 0.00270386
0.63625262 -0.19273798 0.00000000
0.03741399 -0.26952793 0.00000000
-0.49733624 -0.58576236 0.00000000
-0.65760354 0.72475792 0.00000000
-0.01946550 0.60737462 0.00000000
-0.59308172 0.49796358 0.00000000
0.76905501 0.05497877 0.00133749
-0.00999042 0.62565679 0.00000000
-0.02791390 0.57858118 0.00000000
0.46240317 -0.36777187 0.00000000
-0.19623617 -0.76815658 0.00000000
0.50857753 -0.41809257 0.00000000
-0.02868129 0.09591915 0.00000000
-0.56278445 -0.66780159 0.00000000
-0.16564006 0.57547789 0.00000000
-0.59387074 0.05051708 0.00000000
0.13832661 -0.57427985 0.00000000
-0.41380928 -0.70593484 0.00000000
0.35903341 -0.49087610 0.00000000
-0.73358819 -0.67777387 0.00000000
-0.62767927 0.10732195 0.00000000
0.06575668 -0.37893210 0.00000000
-0.17282244 0.15810904 0.00000000
0.33479904 -0.04140475 0.00000000
0.53420069 0.72445005 0.02552405
-0.65448453 -0.05820529 0.00000000
-0.19734779 -0.55649885 0.00000000
0.30862779 0.66379617 0.00959545
0.73296880 0.25680792 0.01056114
0.57898339 0.71069903 0.02725098
-0.59932625 -0.37523578 0.00000000
-0.46525455 0.31557948 0.00000000
0.18103255 -0.21170836 0.00000000
0.54471074 0.35227825 0.00539747
-0.27878717 0.59140601 0.00000000
-0.26732026 -0.17827529 0.00000000
0.01859371 0.22502138 0.00000000
0.20739382 0.74966272 0.00874024
-0.00825545 0.58131303 0.00000000
0.60632639 0.36280765 0.00941236
0.13330952 0.43492445 0.00000000
0.70636690 -0.54127385 0.00000000
-0.09456412 -0.42998985 0.00000000
-0.13719875 -0.13063044 0.00000000
0.73394411 0.56697034 0.02787605
0.07940265 -0.61677614 0.00000000
0.77668737 0.62208737 0.03332200
0.55287544 0.40591410 0.00883669
0.01887983 0.78343824 0.00012900
-0.05052280 0.45340397 0.00000000
0.14076626 0.03322292 0.00000000
0.69670683 -0.58298558 0.00000000
0.05140595 0.56989458 0.00000000
-0.24019391 -0.58776426 0.00000000
0.17149821 0.09153146 0.00000000
-0.76548347 0.77923325 0.00000000
-0.62258092 -0.57483067 0.00000000
-0.19105653 0.73369591 0.00000000
-0.66405321 0.64484717 0.00000000
-0.11918222 -0.28647600 0.00000000
-0.73031222 0.11836041 0.00000000
-0.26487261 0.56191828 0.00000000
0.46484076 -0.49766849 0.00000000
-0.28723799 0.79587710 0.00000000
0.64196628 -0.76705260 0.00000000
0.58162739 0.30141792 0.00462150
-0.73444347 0.79177041 0.00000000
0.39913317 -0.00068641 0.00000000
0.06640518 0.38847098 0.00000000
-0.40225568 0.67146794 0.00000000
-0.59101300 0.66768301 0.00000000
-0.15993568 -0.45956630 0.00000000
-0.13990850 -0.77293410 0.00000000
0.37524397 -0.78252092 0.00000000
-0.76556479 0.40108843 0.00000000
0.37829290 -0.15053312 0.00000000
-0.78137621 0.59575981 0.00000000
0.54610649 0.15374658 0.00000000
0.63272298 -0.04398712 0.00000000
0.50945299 0.73479488 0.02472253
-0.57761802 -0.18410977 0.00000000
0.60040615 0.46147978 0.01457404
-0.55416247 0.54089921 0.00000000
-0.22773508 -0.41501453 0.00000000
-0.10467947 -0.61576443 0.00000000
0.62257486 -0.75151632 0.00000000
0.65833988 -0.22715952 0.00000000
0.34954804 0.12705350 0.00000000
0.26605082 0.75883506 0.01251497
0.70464301 -0.24296345 0.00000000
0.46016822 -0.37092326 0.00000000
-0.14336387 -0.56819156 0.00000000
-0.48019262 -0.33944000 0.00000000
-0.23429955 -0.15933171 0.00000000
-0.32001863 0.58674786 0.00000000
0.53310658 -0.41912813 0.00000000
-0.64823011 0.34546549 0.00000000
-0.42308269 0.20793846 0.00000000
-0.25827508 -0.16157360 0.00000000
-0.20317580 -0.44896780 0.00000000
0.53212968 0.16597207 0.00000000
-0.04230645 -0.79485891 0.00000000
0.28242678 0.73056689 0.01185316
-0.56774861 0.40848647 0.00000000
0.17466066 0.69552683 0.00390596
0.35749002 0.50660038 0.00356665
0.03519548 0.50442476 0.00000000
-0.50435920 -0.79900401 0.00000000
-0.19653708 -0.23543567 0.00000000
-0.57973819 -0.49647023 0.00000000
0.28058541 -0.01873026 0.00000000
-0.50419027 0.51835203 0.00000000
-0.05902764 0.05184840 0.00000000
0.71689970 -0.28908051 0.00000000
0.47833056 -0.08618816 0.00000000
0.48226120 -0.23176974 0.00000000
-0.39655614 -0.22964229 0.00000000
0.53207467 -0.45584472 0.00000000
0.75981790 -0.76929511 0.00000000
0.73076768 -0.45170549 0.00000000
-0.71903737 0.60683523 0.00000000
-0.64511512 0.73463472 0.00000000
-0.45690289 -0.51406199 0.00000000
0.54983760 0.58164086 0.01844688
-0.21246606 0.19322626 0.00000000
-0.35404012 -0.21062147 0.00000000
0.53241128 0.68050514 0.02297893
0.78787204 0.68298526 0.03733341
-0.27147414 0.62108561 0.00000000
-0.60138365 0.19713856 0.00000000
0.45534354 -0.25199180 0.00000000
0.26760410 0.09150298 0.00000000
0.25584785 0.32550963 0.00000000
0.77258546 -0.18109647 0.00000000
-0.79634689 -0.26058289 0.00000000
-0.29369577 0.37596766 0.00000000
-0.77193479 -0.26568037 0.00000000
0.40136400 -0.45730318 0.00000000
0.68724526 -0.45907196 0.00000000
0.18401857 -0.00588165 0.00000000
-0.50832043 0.27372022 0.00000000
0.54876725 -0.57920895 0.00000000
0.60906330 -0.06909113 0.00000000
0.55997015 0.37869294 0.00771665
-0.39284919 -0.05742229 0.00000000
0.14812280 0.65736636 0.00030547
-0.71134876 -0.35256318 0.00000000
-0.29412056 -0.55480498 0.00000000
0.24958406 -0.38762969 0.00000000
0.14079008 0.60875783 0.00000000
-0.70214677 0.34152503 0.00000000
-0.72416052 -0.08770368 0.00000000
0.05565059 0.19543199 0.00000000
-0.16875114 -0.34198576 0.00000000
-0.55962071 0.64479479 0.00000000
0.33141427 0.46130945 0.00000000
0.64152731 -0.40333414 0.00000000
-0.77208516 -0.51469081 0.00000000
0.22710822 -0.34067170 0.00000000
-0.51872340 0.56534047 0.00000000
-0.43184961 -0.27987030 0.00000000
-0.50789428 0.48371272 0.00000000
0.37854051 -0.12582606 0.00000000
0.14916808 0.15537258 0.00000000
-0.26895090 0.49399720 0.00000000
-0.53397043 0.17160811 0.00000000
-0.68503603 -0.39454004 0.00000000
0.64642189 0.66262060 0.02832837
-0.50071214 0.62787158 0.00000000
0.77955024 0.51768781 0.02767146
-0.15489669 -0.76169658 0.00000000
0.21708299 0.57932147 0.00000000
-0.19484918 -0.62266374 0.00000000
-0.22741360 0.30186724 0.00000000
0.78415363 -0.17594658 0.00000000
-0.49325628 -0.33211200 0.00000000
0.11385779 -0.55575630 0.00000000
-0.25248885 -0.73888394 0.00000000
-0.76522155 0.18130229 0.00000000
-0.74451021 0.56186012 0.00000000
0.13099248 0.06552172 0.00000000
0.75879772 0.11010414 0.00383441
0.35574176 0.71681591 0.01516792
-0.42016136 0.20326732 0.00000000
0.42157810 0.76123471 0.02130365
-0.13575286 0.54330240 0.00000000
-0.02567453 0.64971913 0.00000000
-0.62686746 -0.26168509 0.00000000
-0.40218662 -0.57054348 0.00000000
-0.67701092 -0.23516804 0.00000000
-0.23314908 0.61565953 0.00000000
-0.69716102 0.53268079 0.00000000
-0.71207072 -0.60930616 0.00000000
-0.35562098 -0.31378825 0.00000000
-0.31111413 -0.64174861 0.00000000
-0.15347229 0.74816470 0.00000000
0.42452109 0.12220917 0.00000000
-0.23120967 0.73524691 0.00000000
0.50711804 0.17228976 0.00000000
-0.59001105 0.66524837 0.00000000
-0.45338940 0.74329610 0.00000000
0.63168447 -0.52100267 0.00000000
0.78613848 0.22208876 0.01158791
-0.45778544 0.57865021 0.00000000
-0.48736023 0.51015011 0.00000000
-0.46910987 0.02976656 0.00000000
-0.65133664 -0.45738693 0.00000000
-0.11418405 0.10522012 0.00000000
0.02297259 -0.72546218 0.00000000
-0.54518723 -0.51811805 0.00000000
0.52875221 0.31619374 0.00250126
-0.68305103 -0.19203207 0.00000000
0.64860913 0.48791185 0.01872750
-0.66039761 -0.40437151 0.00000000
-0.61677262 -0.63838238 0.00000000
0.60016497 0.08315726 0.00000000
0.13500479 0.41531288 0.00000000
0.09990926 -0.74312514 0.00000000
0.51566294 0.31363833 0.00163062
0.70937663 -0.55544702 0.00000000
0.04180672 -0.47373526 0.00000000
0.38531323 -0.59371416 0.00000000
-0.14330803 -0.52962395 0.00000000
0.78554148 0.64356529 0.03500999
-0.06917502 0.56848738 0.00000000
0.15248192 0.38043431 0.00000000
-0.76577097 0.54629981 0.00000000
-0.41840321 0.31338873 0.00000000
-0.39210310 -0.44686559 0.00000000
0.07229886 0.44166985 0.00000000
-0.31478115 0.29961505 0.00000000
0.79354076 0.13574529 0.00719481
0.76594894 -0.38720582 0.00000000
0.26106417 0.02104507 0.00000000
0.24815747 0.03932321 0.00000000
-0.71527732 0.19377262 0.00000000
0.27292032 -0.33198967 0.00000000
0.48058013 -0.47431879 0.00000000
-0.78646351 -0.71908471 0.00000000
-0.21365705 0.79854201 0.00000000
-0.79507524 0.60761349 0.00000000
-0.76100697 0.46568803 0.00000000
0.34908953 -0.35468090 0.00000000
-0.57984648 0.46418245 0.00000000
0.07206892 0.36903906 0.00000000
-0.56215601 0.59327245 0.00000000
-0.79314777 0.72002767 0.00000000
0.10106734 -0.71097125 0.00000000
-0.79729325 0.39780134 0.00000000
-0.01115076 -0.31135016 0.00000000
-0.04126640 -0.75359929 0.00000000
-0.10401666 0.78404401 0.00000000
-0.25816770 0.60345190 0.00000000
0.41936909 -0.66579217 0.00000000
0.13167233 -0.30408324 0.00000000
-0.44595415 0.42151530 0.00000000
-0.19352500 -0.07648791 0.00000000
-0.38816719 -0.22827383 0.00000000
0.03292288 0.24983818 0.00000000
0.79400016 -0.18763357 0.00000000
-0.01436151 0.78412207 0.00000000
-0.77869255 -0.19304693 0.00000000
-0.67728224 0.46448503 0.00000000
0.66392135 0.50964963 0.02078935
-0.34838527 0.42815866 0.00000000
-0.01209090 0.11598168 0.00000000
-0.40081982 0.37037366 0.00000000
-0.48632454 -0.55974146 0.00000000
0.02975974 -0.26742559 0.00000000
0.08219445 -0.01576197 0.00000000
-0.74438657 -0.68339976 0.00000000
-0.33133096 0.70448865 0.00000000
0.29485840 -0.29590280 0.00000000
-0.44876825 0.40924730 0.00000000
-0.37785807 -0.06728671 0.00000000
0.53506786 -0.35997123 0.00000000
-0.05714780 -0.18969958 0.00000000
0.78230099 0.44344971 0.02369317
-0.39080351 -0.29364882 0.00000000
0.50747901 0.45212405 0.00888196
0.24500650 0.22657611 0.00000000
-0.54435319 0.71508098 0.00000000
-0.07404844 -0.57759844 0.00000000
-0.34986097 -0.14880199 0.00000000
0.26235298 -0.55710182 0.00000000
-0.23838463 0.79303461 0.00000000
-0.54019755 0.32009306 0.00000000
-0.22937983 -0.15827979 0.00000000
-0.79658153 0.46487960 0.00000000
-0.46555740 -0.30412818 0.00000000
-0.23642096 -0.50903073 0.00000000
-0.74095908 0.11945938 0.00000000
-0.47279229 0.04828410 0.00000000
-0.09594573 0.76890659 0.00000000
