ply
format ascii 1.0
element vertex 1394
property float x
property float y
property float z
end_header
0.56816199 -0.39323397 -0.00000032
0.53340141 -0.44704934 -0.00000007
0.34612044 -0.76327741 0.00000000
0.77376022 -0.60585686 -0.00000049
-0.67412612 -0.23878470 -0.00000104
0.27106017 -0.56155671 0.00000000
-0.38968852 -0.79819635 0.00000000
-0.08555825 0.57695743 0.01714382
-0.05611936 -0.19401597 0.00000000
0.47713022 0.05470064 -0.00000072
-0.76135269 -0.66769431 -0.00000033
0.60147626 0.15979822 -0.00000086
0.75271677 -0.23697193 -0.00000138
0.40313329 -0.24576084 0.00000000
-0.45684273 -0.60552559 0.00000000
-0.26587627 -0.37410405 0.00000000
-0.00704372 -0.53586169 0.00000000
-0.62034620 -0.43522661 -0.00000046
0.29352338 0.27314168 -0.00000032
-0.19121042 -0.36177579 0.00000000
-0.32630544 0.07741574 -0.00000012
0.69941068 -0.55999173 -0.00000058
-0.31402549 0.04039036 0.00000000
0.21154485 0.07060451 0.00000000
0.08629612 -0.77581893 0.00000000
-0.19225658 -0.41261440 0.00000000
-0.49167965 -0.72727833 0.00000000
0.24231778 -0.01393051 0.00000000
-0.29696200 0.18860904 -0.00000019
0.39891229 -0.28339416 0.00000000
-0.63754251 -0.64141577 -0.00000017
-0.28498083 -0.17014902 0.00000000
0.15986367 0.26142069 0.00000567
-0.49290723 -0.27983288 -0.00000019
-0.19869938 -0.45010378 0.00000000
0.20966992 -0.57489056 0.00000000
0.63322380 -0.77112254 0.00000000
0.04219156 -0.41490928 0.00000000
-0.14443905 0.04207102 0.07649987
0.08315268 0.42846287 0.00000432
0.23330057 -0.53108469 0.00000000
0.01267828 0.68922195 0.00000147
0.36647728 -0.42170424 0.00000000
0.00384978 0.17021127 0.00000939
-0.24762428 -0.30240528 0.00000000
-0.71720117 0.01439782 -0.00000167
-0.78687138 -0.29177207 -0.00000127
0.17436229 0.39272874 -0.00000002
0.69650643 -0.55281677 -0.00000058
-0.53694484 -0.25983250 -0.00000042
0.42767852 -0.61611478 0.00000000
-0.38637324 -0.07299469 -0.00000011
0.45771943 0.14409921 0.00000217
-0.21249633 -0.12702115 0.00000000
-0.10676249 -0.13275510 0.00000000
-0.03422009 0.66661586 0.00000000
0.53366728 0.22285270 -0.00000126
0.42446443 0.01537362 0.00000496
-0.04692988 0.67149009 0.01017275
0.01461875 0.51236314 0.00000000
0.02580048 -0.60731622 0.00000000
0.14458513 0.32409830 0.00000496
0.22301260 0.28190306 -0.00000004
0.09294372 0.35954639 0.00000520
-0.35006061 -0.35783548 0.00000000
0.64240920 -0.07054709 -0.00000120
0.23010046 0.42293337 0.00000188
-0.70093553 -0.02157836 -0.00000154
-0.40640651 -0.23513921 0.00000000
0.39651869 -0.77258510 0.00000000
-0.16275906 0.52844417 -0.00000021
-0.02426427 -0.76517560 0.00000000
0.56806627 -0.52959945 -0.00000007
0.08886347 0.35067634 0.00000540
-0.77743940 -0.52031780 -0.00000070
0.18919284 0.39931011 0.00000306
-0.22982335 0.01780206 0.00000000
-0.57786224 0.10085536 0.01512221
0.01475953 -0.74933502 0.00000000
0.73209315 -0.39006150 -0.00000102
0.73889307 0.04856509 -0.00000183
-0.23763826 -0.11139325 0.00000000
0.35213204 0.25871526 -0.00000055
-0.49841806 0.17374069 -0.00000102
0.34097353 -0.07582716 0.00000000
-0.49669207 -0.35605926 -0.00000008
-0.18670078 -0.59110683 0.00000000
0.03459757 -0.15214810 0.00000000
0.22123307 -0.51980464 0.00000000
0.53650108 -0.06105010 -0.00000077
-0.52394920 -0.37321217 -0.00000016
0.58902182 0.06567764 -0.00000122
0.52739320 -0.75057559 0.00000000
-0.08196143 -0.68308094 0.00000000
0.18866293 0.39498060 0.00000314
-0.40889127 -0.44245247 0.00000000
0.78877944 -0.75346400 -0.00000012
0.16986136 -0.14348072 0.00000000
0.16656073 -0.68664145 0.00000000
0.48965267 0.23046190 0.00000011
-0.64509744 -0.64763262 -0.00000019
-0.34026565 -0.32141230 0.00000000
-0.72242439 -0.71694892 -0.00000021
-0.13051559 -0.15154339 0.00000000
-0.50325043 0.26329182 -0.00000120
-0.49246082 -0.35212164 -0.00000007
0.07403341 -0.66542532 0.00000000
-0.73230726 -0.49896573 -0.00000075
0.10870065 0.48030556 0.00000316
0.45223125 0.08604688 0.00000324
-0.70897318 -0.55643688 -0.00000061
0.01793263 0.44405389 0.00000507
0.20214334 0.36768454 -0.00000010
0.20304280 0.25382887 0.00000000
-0.68495159 -0.26845457 -0.00000103
0.19157122 -0.12695109 0.00000000
0.25672014 0.38197271 0.00000205
-0.46329709 -0.07325311 -0.00000043
-0.26552991 0.17063529 -0.00000002
0.25168835 -0.26580036 0.00000000
0.50017846 -0.27282811 -0.00000024
-0.03986048 -0.17003844 0.00000000
-0.31280312 -0.77729527 0.00000000
-0.15900639 0.33783217 0.03780316
-0.45663254 -0.09554332 -0.00000037
-0.61290928 -0.74082655 0.00000000
0.16707085 0.19918573 0.00000000
0.38026403 -0.62096434 0.00000000
0.10125776 -0.17507027 0.00000000
-0.17975005 -0.50948033 0.00000000
-0.47248709 0.26953374 -0.00000108
0.28918158 0.08663525 0.00000634
-0.06009341 0.16340254 0.07188780
-0.24257843 -0.70193090 0.00000000
0.73197975 -0.33000668 -0.00000113
-0.01032906 -0.44040540 0.00000000
-0.27657539 -0.78778839 0.00000000
-0.05252328 0.55483426 0.02402179
-0.21130676 0.04080928 0.00000000
-0.06603268 0.31024758 0.05283622
-0.65621829 -0.68322274 -0.00000018
-0.53605989 -0.45554631 -0.00000007
0.26721269 0.13185359 0.00000000
-0.38255633 -0.72078803 0.00000000
-0.16383481 -0.36288998 0.00000000
0.65109892 0.10806282 -0.00000095
-0.77358847 -0.26188426 -0.00000135
-0.08886796 0.02887228 0.00000000
0.54968117 -0.66305441 0.00000000
0.60705628 -0.67102121 0.00000000
0.51481194 0.11873397 0.00000149
-0.56462664 0.07732010 -0.00000113
0.26772894 -0.65352176 0.00000000
-0.70579064 -0.45742331 -0.00000079
0.39368295 0.35172465 -0.00000089
0.27940008 -0.15961441 0.00000000
0.19762697 0.09769034 0.00000755
-0.25800826 0.24803117 -0.00000013
-0.23324156 -0.55417977 0.00000000
0.22759680 -0.78133975 0.00000000
0.36436259 -0.30462332 0.00000000
-0.51472244 0.28192247 0.00041701
0.27294426 0.18513018 0.00000503
0.58127262 -0.21389482 -0.00000069
0.33871594 0.01528671 0.00000660
-0.25300169 0.12396715 0.05275052
-0.50713679 -0.10567249 -0.00000056
-0.33572122 -0.00201959 -0.00000001
-0.64761382 -0.29047725 -0.00000084
0.03504464 0.64415800 0.00000000
0.05255485 0.21035526 0.00000000
0.06849751 0.02508531 0.00000000
0.43011353 0.17786403 -0.00000074
0.02240940 -0.48446737 0.00000000
0.32022576 -0.50255291 0.00000000
0.72935307 -0.26777318 -0.00000123
-0.02302718 -0.74178028 0.00000000
0.26456816 0.19791241 0.00000498
-0.46184437 0.23753386 0.01254617
-0.01513443 0.67455366 0.01375547
0.60322161 -0.18330486 -0.00000084
-0.39871344 0.04231712 0.04476192
-0.17911715 -0.45516377 0.00000000
-0.50368496 -0.69369032 0.00000000
0.54606362 -0.14562795 -0.00000066
-0.48104013 -0.72900364 0.00000000
-0.19692797 -0.50139280 0.00000000
0.52044401 0.13067572 -0.00000104
-0.37120255 0.16950452 -0.00000047
0.33912771 -0.28081368 0.00000000
-0.39211373 -0.17187408 0.00000000
-0.05406696 0.13352091 0.07636539
0.04842587 0.35880489 0.00000589
0.58505680 -0.59740993 -0.00000003
-0.08485824 0.39681247 0.03969447
-0.14861983 0.01952703 0.00000000
0.07129103 -0.72295988 0.00000000
0.50798982 -0.77433158 0.00000000
0.39585670 -0.55689759 0.00000000
0.48764437 0.16477903 0.00000125
-0.40166062 0.25693766 0.01763153
-0.41331672 0.36787671 0.00234406
0.40871750 -0.43587252 0.00000000
0.31403005 -0.52098764 0.00000000
0.30766043 -0.33447706 0.00000000
-0.07611294 0.38650369 0.04207043
0.28237580 0.14555279 -0.00000005
-0.17060934 0.33369677 0.00000000
-0.05913103 0.73588696 0.00062109
-0.52065851 0.27626655 0.00038206
-0.28283225 -0.36821251 0.00000000
0.16468663 -0.22855794 0.00000000
-0.16531271 -0.08217486 0.00000000
-0.03481829 0.19906503 0.00000000
0.57815954 -0.76266978 0.00000000
0.18186134 -0.26489264 0.00000000
0.06079056 -0.75852130 0.00000000
-0.27461763 0.03586114 0.06104158
-0.43053941 -0.30467020 0.00000000
0.13702551 0.49005616 -0.00000004
-0.21954133 -0.32051221 0.00000000
0.07821199 0.68115678 0.00000048
0.13650616 0.18143242 0.00000000
-0.39199113 -0.28022155 0.00000000
0.25968021 -0.21558738 0.00000000
-0.53320195 -0.06977169 -0.00000074
0.01805053 0.26079443 0.00000000
-0.44115468 -0.17260353 -0.00000016
-0.58265035 -0.56272122 -0.00000008
-0.17997378 0.17246240 0.05580958
0.41423021 0.33939959 -0.00000026
-0.39381780 0.15151675 -0.00000053
0.33351968 -0.25090532 0.00000000
0.50702379 -0.25864510 -0.00000029
-0.18198568 0.06515964 0.06893893
-0.26031661 0.47334349 0.00827180
-0.14553361 0.60358500 -0.00000027
0.15950271 -0.09189099 0.00000000
0.08477536 0.44666997 0.00000402
-0.28408272 -0.55760255 0.00000000
0.01764080 0.72204463 0.00000000
0.46743895 -0.63389531 0.00000000
0.47428774 -0.68330322 0.00000000
0.49521487 -0.14204263 -0.00000045
-0.34781724 -0.07014543 0.00000000
0.12214097 0.50185101 0.00000263
-0.23380561 0.16698627 0.00000000
-0.05005200 0.71783887 -0.00000007
0.32515458 0.44457745 -0.00000076
-0.65819941 -0.07784644 -0.00000126
0.62029221 0.17774217 -0.00000155
0.51378875 0.22938146 -0.00000118
-0.61354710 -0.02051022 -0.00000117
-0.62847978 0.15510073 -0.00000154
0.22253565 0.30477092 0.00000400
0.19670541 0.40219117 0.00000287
-0.58178221 0.08305922 -0.00000122
-0.34761542 0.41212719 0.00501912
-0.31678331 -0.45376920 0.00000000
-0.48336606 0.28479671 0.00396877
-0.00769643 0.63453856 0.01967267
-0.54764687 -0.52984996 0.00000000
-0.59449336 -0.24105998 -0.00000070
0.64440973 0.06441511 -0.00000145
0.18229098 0.47382648 0.00000195
-0.28996983 0.26920560 0.03002971
-0.04128768 0.51087362 0.00000000
-0.45778028 0.30059284 -0.00000107
0.13131415 -0.00857984 0.00000000
0.24092337 -0.00672011 0.00000000
0.03032681 -0.63410764 0.00000000
0.28132852 -0.20807762 0.00000000
0.24984574 -0.32223805 0.00000000
-0.36962143 -0.03933970 -0.00000009
0.22327965 -0.42964236 0.00000000
0.75341101 -0.50373013 -0.00000074
-0.04264341 -0.02858162 0.00000000
0.01769898 0.66643855 0.00000174
0.45823241 -0.32286291 0.00000000
0.37522306 0.31163451 -0.00000074
-0.43247070 0.33136122 -0.00000102
-0.34437818 -0.05152527 0.00000000
0.38680621 -0.13737223 0.00000000
-0.40380653 -0.48801882 0.00000000
0.30541872 -0.77238749 0.00000000
0.53512505 -0.53073241 0.00000000
0.20733223 0.42242793 -0.00000022
-0.22493205 0.03552800 0.06727867
-0.21169456 0.07041591 0.06457894
0.05363591 0.20020479 0.00000000
-0.16151305 -0.56704884 0.00000000
0.44251460 -0.34322870 0.00000000
0.15337005 0.16521419 0.00000721
0.02800061 0.40058757 0.00000000
0.03556668 0.38287427 0.00000572
-0.25588269 0.27537501 -0.00000016
0.13290144 0.46190071 0.00000000
-0.32742196 0.47245326 -0.00000082
-0.51939737 -0.79766996 0.00000000
-0.71085390 0.00515944 -0.00000163
0.26499220 0.41417573 -0.00000045
0.45242249 -0.14980231 -0.00000025
0.24710089 0.18961257 0.00000543
0.19292341 0.52485182 0.00000089
-0.73305159 -0.78670663 -0.00000003
0.13349539 -0.13797700 0.00000000
0.09212928 0.65727060 0.00000061
-0.17326132 0.50927061 0.01464764
-0.45570881 -0.16386404 -0.00000024
-0.21906878 0.29739768 0.03535565
0.16123576 -0.20589125 0.00000000
0.33634542 0.32432796 0.00000149
-0.24388497 0.17286733 0.00000000
-0.15894031 0.51163739 -0.00000017
0.13919786 -0.13471222 0.00000000
-0.33886243 -0.02457302 0.00000000
-0.76790943 -0.18004637 -0.00000154
0.57616385 0.02769147 0.00000184
-0.55513446 -0.64182233 0.00000000
-0.45203482 -0.09675075 -0.00000034
0.78866030 -0.46089405 -0.00000085
0.38591573 0.14047465 0.00000361
-0.27149254 0.47609463 0.00653509
0.19321310 0.02535447 0.00000000
-0.20102005 -0.21363183 0.00000000
-0.78418446 -0.30333183 -0.00000124
0.37652549 0.11564985 0.00000420
0.22126433 0.29716363 0.00000415
0.50869342 0.22178099 -0.00000115
-0.08478050 0.52645527 0.00000000
0.07445141 0.65400059 -0.00000006
-0.39078342 0.12969071 0.03485544
-0.04272140 -0.20454786 0.00000000
0.09876350 0.22563126 0.00000000
-0.44149956 0.33583449 -0.00000106
-0.05861087 -0.56082689 0.00000000
-0.19368224 -0.35378841 0.00000000
-0.06651350 0.69415419 0.00490451
0.38622871 0.28256228 -0.00000073
-0.52151440 -0.20302219 -0.00000045
0.10297834 0.02054383 0.00001014
0.68625763 0.07022187 -0.00000099
0.72139801 -0.49509849 -0.00000076
-0.14739242 0.29866522 0.00000000
-0.43418231 -0.79948386 0.00000000
-0.40001084 -0.29725674 0.00000000
0.34783802 -0.44490412 0.00000000
-0.61588024 -0.23248997 -0.00000080
0.04820702 -0.01137954 0.00000000
0.22069473 -0.42754030 0.00000000
0.37658170 0.12039704 0.00000412
-0.40716964 0.15643769 0.02947675
0.12970885 -0.65322832 0.00000000
-0.26190315 0.47804682 -0.00000055
0.35129252 0.18666058 0.00000350
-0.14238493 0.62262850 -0.00000029
-0.65803189 -0.73379887 -0.00000010
-0.29631691 0.30474203 0.02480688
-0.29899232 -0.37533038 0.00000000
-0.30592776 -0.00900826 0.00000000
0.00215359 -0.22877491 0.00000000
0.61230436 -0.77110355 0.00000000
0.55115723 0.13518506 -0.00000118
-0.63544296 -0.04231007 -0.00000122
0.31163127 -0.79422205 0.00000000
0.64674714 0.07063475 -0.00000024
-0.71680219 -0.39743289 -0.00000094
-0.67772536 -0.21455009 -0.00000110
-0.14115454 -0.67874218 0.00000000
0.25792396 0.29629812 0.00000346
0.59385090 -0.64571234 0.00000000
-0.25190705 0.49913556 0.00610425
0.27697905 0.07492084 0.00000670
0.15890124 0.36464755 0.00000413
0.06162033 -0.54069865 0.00000000
0.74495840 -0.51518656 -0.00000071
-0.01275642 -0.60673235 0.00000000
0.07102407 0.70891176 0.00000016
-0.24245963 -0.62725796 0.00000000
-0.49504090 -0.58295461 0.00000000
0.53248204 -0.30184153 -0.00000032
-0.34283493 -0.23242732 0.00000000
0.31581989 0.25486549 0.00000304
0.02534692 -0.12616643 0.00000000
-0.41083839 0.15783017 -0.00000062
-0.36983489 -0.18062046 0.00000000
-0.02341018 0.05065996 0.00000000
0.02817419 0.71036983 0.00000092
-0.02393094 0.60764608 0.02100169
0.06392388 -0.55472981 0.00000000
0.44210320 0.17759262 0.00000191
-0.63623133 -0.75579253 0.00000000
-0.03799281 0.69856978 0.00000000
0.42283249 -0.23626343 0.00000000
0.48544630 0.02163083 0.00000368
-0.31861931 0.04056420 -0.00000002
0.49058424 -0.19441678 -0.00000034
0.04887355 0.30862473 0.00000000
0.09838097 0.67150343 -0.00000019
0.12885341 0.45670820 0.00000321
-0.21357836 -0.20168555 0.00000000
0.30976265 -0.57100977 0.00000000
0.68472738 -0.27951173 -0.00000101
0.01938595 0.58243369 0.00000000
-0.27911920 0.19084977 0.04115366
-0.12697779 -0.61816757 0.00000000
-0.49431986 -0.56633175 0.00000000
0.00056171 -0.53051922 0.00000000
0.12438946 0.38059345 0.00000441
-0.15225768 0.55503404 -0.00000022
-0.42101759 -0.28267119 0.00000000
0.62408118 0.03160256 -0.00000131
0.64734441 -0.22058702 -0.00000096
-0.53630077 -0.30561001 -0.00000033
0.21741453 0.17479290 0.00000610
-0.22556135 0.40151467 0.02156277
0.37655445 -0.06587871 -0.00000008
0.21728020 -0.01506258 0.00000000
0.11477976 0.31289825 0.00000000
0.10771581 -0.10577575 0.00000000
-0.40741566 -0.57566358 0.00000000
-0.19528455 0.40683854 0.02467445
-0.12860894 -0.15457271 0.00000000
0.30531533 0.06036316 0.00000000
0.15846531 0.01043965 0.00000945
0.07083715 -0.71050250 0.00000000
0.47082016 0.04792830 0.00000352
-0.38244500 0.31964611 0.01220809
-0.13943324 0.49343450 -0.00000005
0.38806790 0.22080226 0.00000222
-0.72087877 -0.58940919 -0.00000053
-0.06672558 0.61129124 0.00000000
-0.42635756 -0.29085612 0.00000000
0.21236929 0.06462554 0.00000000
-0.38021135 0.27631560 -0.00000070
-0.35133420 -0.64608982 0.00000000
0.36411229 0.37889275 0.00000004
0.76670390 -0.13247538 -0.00000162
0.28808895 -0.03908304 0.00000000
-0.20651362 0.27365805 0.03988150
0.23747573 -0.09795385 0.00000000
-0.12325678 0.62688910 -0.00000022
-0.47065005 -0.01416043 -0.00000057
-0.01057759 -0.66551701 0.00000000
-0.48388223 -0.32764122 -0.00000007
-0.27859108 -0.49655851 0.00000000
0.15176151 0.57450532 0.00000085
0.41797782 -0.56208907 0.00000000
0.24249583 -0.46554868 0.00000000
-0.06281237 0.30636442 0.05372199
0.00777415 -0.34494970 0.00000000
0.58947445 0.19762350 -0.00000126
-0.47132961 -0.21640656 -0.00000021
-0.13149674 -0.64838945 0.00000000
-0.41181765 -0.05164031 -0.00000025
0.55557832 -0.68024334 0.00000000
0.52986334 0.21725502 -0.00000123
-0.28418997 0.35245757 0.02036906
-0.32803045 -0.52648357 0.00000000
-0.06373114 0.46660737 0.00000000
0.07421709 0.42592332 0.00000449
-0.26696308 -0.70375063 0.00000000
-0.18751977 -0.16023029 0.00000000
0.69974804 -0.63163805 -0.00000042
0.38776930 -0.62108795 0.00000000
0.26097184 -0.32300502 0.00000000
-0.19706160 0.46517449 0.01717844
-0.15228494 0.14033291 0.00000000
0.02552670 0.73710962 0.00000000
0.17188777 -0.51321095 0.00000000
0.15168921 0.45834843 0.00000279
-0.48731613 -0.21655135 -0.00000028
0.11090685 0.46943993 0.00000000
-0.03155710 -0.07827223 0.00000000
-0.47273062 0.25705489 0.00875439
0.08511039 -0.63852921 0.00000000
0.00546271 0.22310128 0.00000857
0.27391006 0.18408224 0.00000503
-0.65706167 -0.53188999 -0.00000045
-0.27576705 0.33958195 0.02302498
-0.55150446 0.01977264 0.02851996
-0.46960374 0.28655365 0.00546586
0.62965561 -0.68636907 -0.00000006
-0.27880663 0.32263901 0.02475871
0.13266224 -0.32031648 0.00000000
0.59349536 -0.69317480 0.00000000
-0.25904201 0.05486627 0.06061392
0.19345606 -0.22379763 0.00000000
-0.07813067 0.54347250 0.02224544
-0.30657846 0.19919094 0.03668932
0.36876166 0.21565544 0.00000268
0.43757782 0.25142130 -0.00000090
-0.38747936 -0.09552927 -0.00000007
0.45170526 0.23475671 0.00000077
0.22139354 0.17628473 0.00000602
-0.46573753 0.06363177 0.03374603
0.57329923 -0.69354128 0.00000000
0.51664096 0.01442039 -0.00000082
0.52361668 -0.56288797 0.00000000
0.69900866 0.03850812 -0.00000164
0.17533914 0.00687848 0.00000000
0.05178859 -0.28265686 0.00000000
0.18690324 0.24140337 0.00000556
0.66639141 0.11367618 -0.00000163
-0.05538899 0.33192711 0.05146008
-0.08660505 -0.51215846 0.00000000
-0.30815959 0.32642069 0.02062679
-0.11126230 0.12776403 0.00000000
-0.31200254 0.39349777 0.01178315
-0.11330730 0.40100965 0.00000000
0.75972708 -0.57511597 -0.00000056
-0.39274042 -0.10829381 -0.00000007
0.29386740 0.32325630 -0.00000041
0.04295647 -0.40821104 0.00000000
0.22376275 -0.14180236 0.00000000
-0.23975936 -0.07392985 0.00000000
-0.18616449 0.40218481 -0.00000009
-0.45190724 -0.41327920 0.00000000
-0.47471460 0.11890847 -0.00000082
0.77288726 -0.26563544 -0.00000134
-0.03073575 0.57592432 0.02410874
0.03957905 0.66049409 0.00000150
-0.42565273 -0.10887332 -0.00000021
0.37291387 0.35922308 -0.00000081
-0.54962354 -0.15302735 -0.00000066
-0.36637198 0.06905670 -0.00000027
0.47556299 -0.13152945 -0.00000038
-0.39886420 -0.27886745 0.00000000
0.18165775 0.04225443 0.00000863
-0.51287103 0.14844913 0.01729182
0.69484228 -0.56629059 -0.00000055
-0.42802695 0.03453700 0.04207666
0.25683956 0.07117526 0.00000000
0.01625407 -0.60130773 0.00000000
-0.30595181 0.33648095 0.01964760
-0.67433274 0.07586062 -0.00000160
0.65781272 -0.58326783 -0.00000036
-0.31399648 -0.01059762 0.00000000
-0.48321332 -0.07510922 -0.00000052
0.72452619 0.01789816 -0.00000085
-0.22845146 0.49079071 0.01006978
0.58693569 -0.02444427 -0.00000105
0.58733418 -0.42572013 -0.00000034
-0.17396346 0.27179279 0.04417293
-0.34417143 0.28486313 -0.00000056
-0.40436439 -0.63090789 0.00000000
0.43994636 -0.03064098 -0.00000041
0.41706579 -0.68563255 0.00000000
0.31214684 -0.20178547 0.00000000
0.15101960 0.06172284 0.00000880
-0.00131165 0.01318276 0.00000000
0.63482929 0.02180278 0.00000081
-0.40488376 -0.24643758 0.00000000
0.32405804 0.00032836 0.00000711
0.33480787 0.01363162 -0.00000004
0.47621156 -0.25365096 -0.00000017
-0.68229752 -0.17428084 -0.00000119
0.38861449 0.12559093 0.00000380
0.28772032 -0.33867872 0.00000000
0.46404296 -0.18746752 -0.00000023
-0.31078956 -0.73377874 0.00000000
-0.35909787 -0.09111324 0.00000000
0.10430735 0.36704724 0.00000492
0.02620703 0.27429249 0.00000000
-0.27628503 0.37482055 0.01856619
0.01279795 0.29528342 0.00000000
0.76293484 0.00692371 -0.00000140
0.36327359 0.39317239 -0.00000083
-0.35403386 -0.30754805 0.00000000
0.62917794 0.08464898 -0.00000013
0.01472740 -0.43137280 0.00000000
-0.58838860 0.18046503 0.00388235
0.24131082 0.39398166 0.00000215
0.34702516 0.45234900 -0.00000087
0.07868325 0.06300649 0.00000000
0.02335344 0.22613424 0.00000000
0.32750698 -0.44578282 0.00000000
0.12417111 0.52061943 0.00000228
-0.00401773 0.23789158 0.00000000
-0.32487662 0.01337215 0.05757882
-0.23117802 -0.35281398 0.00000000
0.28314765 0.47895536 -0.00000064
0.32640691 -0.24030815 0.00000000
0.23761578 0.55397448 -0.00000045
-0.01517937 0.12427164 0.08236783
-0.19417392 0.28900794 0.03950613
-0.08233101 0.20845846 0.00000000
-0.74921424 -0.75003790 -0.00000012
-0.16218109 0.51129532 -0.00000018
-0.42694476 0.08491760 0.03592922
0.20601887 -0.02817174 0.00000000
-0.05043146 0.49700040 0.03149428
-0.67030872 0.12271236 0.00086848
0.17648188 0.41939589 0.00000297
0.43447051 0.35652465 -0.00000107
-0.27371627 0.49157416 -0.00000062
-0.12235589 0.04902266 0.00000000
-0.00534001 -0.78343278 0.00000000
0.47088813 -0.29376884 -0.00000008
-0.22855277 -0.34241040 0.00000000
0.01512308 0.52648328 0.00000387
-0.78348052 -0.68620599 -0.00000028
-0.45423338 -0.16190950 -0.00000024
-0.08895740 -0.50096225 0.00000000
-0.24018240 0.20657423 0.00000000
0.13904299 -0.25891456 0.00000000
-0.08864910 -0.18509566 0.00000000
-0.12179424 -0.62602240 0.00000000
-0.43798262 0.03167864 0.04119161
-0.31118699 0.27428712 -0.00000040
0.56518049 0.16012962 -0.00000017
-0.10349730 0.14809136 0.00000000
-0.11888027 0.43930821 0.03015304
-0.12691414 0.31978324 0.00000000
0.31287671 0.37324177 -0.00000058
-0.03237454 -0.45064996 0.00000000
-0.54850788 -0.39247853 -0.00000023
0.78805379 -0.32996328 -0.00000118
0.24578704 -0.61420190 0.00000000
0.26368164 0.46362922 0.00000056
0.01240931 -0.39420898 0.00000000
0.24914946 0.43391358 0.00000133
-0.04289346 -0.28320943 0.00000000
0.75362987 -0.35536098 -0.00000111
0.24579169 -0.53595541 0.00000000
0.50691630 -0.67326258 0.00000000
0.50072783 -0.16215253 -0.00000044
-0.15196558 -0.21431241 0.00000000
-0.32528343 0.30099469 -0.00000051
0.50042404 0.16497427 -0.00000101
0.11377704 -0.49368016 0.00000000
0.76713747 -0.73425448 -0.00000016
-0.03675991 0.17434076 0.00000000
0.60626630 0.12925258 -0.00000044
0.04564363 0.40128625 0.00000000
-0.15764320 0.49076112 0.01890335
0.00497772 0.64268895 0.00000000
-0.50661319 -0.07490044 -0.00000062
-0.04331371 -0.14246034 0.00000000
-0.42847234 0.25627727 -0.00000087
0.43706598 0.31676490 -0.00000032
-0.01553850 0.76447896 -0.00000000
-0.06541310 0.51467978 0.00000000
-0.06264908 0.55456686 0.02279250
-0.44856831 -0.06042141 -0.00000039
0.29942090 0.38857768 -0.00000055
0.20384558 -0.44385162 0.00000000
0.74466691 -0.74009653 -0.00000015
0.62445682 -0.67560737 -0.00000006
-0.17529883 0.29291080 0.04137309
-0.67292530 -0.52909238 -0.00000052
-0.40488701 -0.45626126 0.00000000
0.15762280 -0.13778096 0.00000000
0.73351048 -0.52101262 -0.00000070
-0.54273782 -0.03175991 -0.00000085
-0.22936458 0.31600385 -0.00000012
-0.30873241 0.25576010 -0.00000036
0.45333973 0.29254230 -0.00000023
0.30778690 0.15379042 0.00000488
-0.18559559 0.47994520 -0.00000023
0.51665657 -0.57002742 0.00000000
-0.23610357 0.15452504 0.05104718
-0.79360376 -0.70374171 -0.00000024
0.13575071 0.64654751 -0.00000004
0.54435204 0.18150549 -0.00000012
0.34586495 0.30098950 0.00000169
0.21969724 0.38771049 0.00000267
-0.52960601 -0.55634811 0.00000000
-0.08423055 0.34321828 0.00000000
0.35370426 -0.30858577 0.00000000
0.35416839 0.15701151 0.00000394
0.40628490 -0.17417503 -0.00000001
0.04261059 -0.25594959 0.00000000
-0.05157845 -0.17097827 0.00000000
-0.44411882 0.22399518 -0.00000088
0.47820105 0.04288211 -0.00000070
-0.05700712 0.58781020 0.00000000
-0.00313681 0.16038326 0.00000000
-0.58601261 -0.75461000 0.00000000
-0.20705325 -0.26573140 0.00000000
0.33544691 0.35940817 0.00000092
-0.10326766 0.56409079 0.01653994
0.30203597 0.49730082 -0.00000074
0.23267377 -0.06425152 0.00000000
-0.07485479 -0.09971000 0.00000000
0.14980630 -0.05695372 0.00000000
0.04153534 -0.15631832 0.00000000
-0.09305172 -0.73748837 0.00000000
0.45710837 -0.53086101 0.00000000
0.04264074 -0.31141000 0.00000000
0.14762303 0.27900134 0.00000000
0.37154030 -0.07314494 -0.00000004
-0.03891441 -0.01104389 0.00000000
-0.48689625 -0.25723006 -0.00000021
-0.75986290 -0.25112022 -0.00000137
0.65438001 0.08259526 -0.00000058
-0.35872484 -0.40846910 0.00000000
0.18340922 0.34530510 0.00000405
0.23092604 0.11926931 0.00000673
0.09723083 -0.60020759 0.00000000
0.68360941 -0.32769363 -0.00000092
0.44468916 0.23801132 0.00000085
-0.08459357 0.11704920 0.07461283
-0.19697228 -0.05733530 0.00000000
0.46426953 -0.45572790 0.00000000
0.30778931 -0.50732064 0.00000000
0.27816130 -0.24034177 0.00000000
0.77170108 -0.37608730 -0.00000106
0.04199712 0.43247099 0.00000000
0.35683497 -0.77264802 0.00000000
-0.30434814 -0.77871877 0.00000000
-0.05047043 -0.14107618 0.00000000
-0.36619744 -0.69661235 0.00000000
0.02621543 0.74886365 0.00000035
0.00335277 0.27802691 0.00000778
-0.70397358 -0.78997661 -0.00000003
-0.55690669 -0.38179961 -0.00000029
-0.09386738 0.47842495 0.00000000
0.08568458 -0.53430603 0.00000000
-0.55544056 0.04719516 0.02460957
-0.11005547 0.41520361 0.03425919
-0.13974616 0.13696239 0.00000000
-0.09620380 -0.11940043 0.00000000
-0.31197568 -0.54969987 0.00000000
-0.42087350 0.10988667 0.03357271
0.01481701 0.47174889 0.00000000
0.19089745 -0.11660435 0.00000000
-0.17868279 0.31916503 0.03767733
0.67512557 -0.19007926 -0.00000113
0.14593967 -0.30753427 0.00000000
0.54896928 -0.40247170 -0.00000022
-0.19477887 0.24816004 0.00000000
-0.27437733 0.13944082 -0.00000000
0.40228045 -0.52358093 0.00000000
0.49456409 -0.20541038 -0.00000033
-0.36991013 0.23517124 -0.00000058
0.33614981 -0.22703075 0.00000000
-0.04664236 0.13294074 0.00000000
-0.60202393 0.16874887 -0.00000145
0.20687030 0.19855227 0.00000590
0.07430411 0.05930295 0.00000999
-0.52573825 -0.66648605 0.00000000
-0.79222484 -0.49141760 -0.00000077
-0.11957675 0.38942933 0.03628589
0.33627428 -0.09605632 0.00000000
-0.35044157 0.10779240 0.04261681
0.41824666 0.31035412 -0.00000092
-0.40181512 0.02275369 0.04681467
-0.61425364 -0.35826246 -0.00000057
-0.38022673 0.41687135 0.00036086
0.07945077 0.19855362 0.00000000
-0.10033700 0.26538192 0.05415320
-0.54616161 -0.61325251 0.00000000
-0.22763083 -0.35935592 0.00000000
-0.56379268 -0.01461825 -0.00000097
-0.50106301 0.07132226 0.02838190
-0.11062996 0.23383703 0.00000000
0.09124499 -0.22583796 0.00000000
0.14964127 0.38451105 0.00000000
0.09935484 0.68063674 0.00000009
-0.61548411 -0.37554108 -0.00000055
-0.65869898 -0.22872400 -0.00000099
-0.22079978 0.30567969 0.03410703
-0.46279477 0.29525272 0.00523019
-0.19791604 -0.04635074 0.00000000
-0.38472348 0.07388841 0.04256959
-0.11522353 -0.54648517 0.00000000
0.45336615 -0.20903122 -0.00000015
0.74359244 -0.14097152 -0.00000151
0.77498112 -0.60741592 -0.00000048
0.54251933 -0.46092153 -0.00000009
0.51065289 0.05408150 -0.00000086
-0.34053195 -0.32336878 0.00000000
0.23979525 0.45896616 0.00000109
0.47680950 -0.60315351 0.00000000
0.05938310 0.38843756 0.00000528
0.55348180 -0.77958756 0.00000000
0.06696335 0.59302858 0.00000209
0.17962250 0.46787455 0.00000210
-0.49962568 -0.44015671 0.00000000
-0.36387985 -0.34137146 0.00000000
0.58758123 -0.20587250 -0.00000073
0.66986502 -0.33529700 -0.00000085
-0.78785732 -0.43130175 -0.00000092
-0.11094258 0.20969887 0.00000000
0.44244000 -0.67159911 0.00000000
-0.00273596 0.55306931 0.00000000
0.70287797 -0.16551819 -0.00000129
0.31184090 -0.38885011 0.00000000
-0.21640622 -0.01749537 0.00000000
-0.24297922 -0.50216127 0.00000000
-0.13785850 0.33525029 0.00000000
-0.70768131 -0.06226928 -0.00000150
-0.57734944 -0.69747824 0.00000000
-0.58068341 -0.60649958 0.00000000
-0.29465255 0.08417864 0.00000000
0.20975939 0.31655049 -0.00000004
0.25125804 0.47684048 -0.00000050
-0.77579537 -0.48299460 -0.00000079
0.04926282 0.05189397 0.00001048
-0.22816623 0.34477426 -0.00000017
-0.63587388 -0.45340895 -0.00000050
-0.25396546 0.16135102 0.00000000
-0.45085007 0.20178357 0.01837518
-0.27394524 0.48268278 0.00540770
-0.13401018 0.07924416 0.07316496
-0.48293795 0.03202595 -0.00000070
-0.06578090 0.32242144 0.00000000
0.44080134 0.03045176 -0.00000052
-0.60663889 0.18681217 -0.00000151
0.26184545 0.45250344 -0.00000050
0.26306376 0.16381141 0.00000557
0.02727471 0.54921395 0.00000000
0.20842144 0.20531043 0.00000578
-0.20538191 -0.65061115 0.00000000
-0.25574506 0.36327146 -0.00000032
-0.45017901 0.13732788 0.02649639
-0.26619820 -0.64186715 0.00000000
-0.10488677 0.48955929 0.00000000
0.06516865 0.37438383 0.00000000
0.01227748 -0.41474787 0.00000000
0.64847291 -0.19406594 -0.00000101
0.54837312 -0.16529908 -0.00000063
-0.66624138 -0.79945719 -0.00000000
0.77967221 0.00104578 -0.00000192
0.67865417 -0.22476517 -0.00000108
-0.15936290 -0.36825456 0.00000000
0.10716021 -0.40308713 0.00000000
0.48892947 -0.65624759 0.00000000
0.46031187 0.10091754 -0.00000073
-0.37183928 0.10281072 -0.00000035
-0.44856970 0.03995918 0.03883881
-0.51481540 -0.57155166 0.00000000
0.47561183 -0.44124003 0.00000000
-0.79013032 -0.34002500 -0.00000115
-0.77417166 -0.79872392 -0.00000000
-0.16503482 -0.04826852 0.00000000
0.74113549 -0.72431620 -0.00000019
-0.09868842 0.44424664 0.03205506
-0.61848619 0.04793416 0.01665555
0.37329956 0.32969662 0.00000069
-0.01531871 0.54662740 0.02968438
0.06585938 -0.48011363 0.00000000
0.18098421 0.54899764 -0.00000033
-0.02810025 0.21942389 0.00000000
-0.00556005 0.62805364 0.02074771
0.60776653 0.11506203 -0.00000023
0.54905489 -0.78692174 0.00000000
0.57133544 -0.58021064 0.00000000
-0.05320254 0.64571513 0.00000000
0.25498845 0.51712726 -0.00000017
0.05563396 0.07158165 0.00001009
-0.33945737 -0.32224891 0.00000000
0.26175056 0.40946742 0.00000150
0.32967677 -0.77370950 0.00000000
-0.39602628 -0.62652408 0.00000000
-0.27217842 0.27077137 0.03205307
-0.22551576 0.27984053 0.03674105
0.04305587 0.73993785 0.00000018
-0.45755208 0.31875295 -0.00000110
-0.77886741 -0.40248377 -0.00000099
-0.43776081 -0.56114521 0.00000000
-0.79317327 -0.05824311 -0.00000185
-0.44189567 -0.59031407 0.00000000
-0.14794083 0.02485311 0.00000000
-0.43905107 -0.36992588 0.00000000
0.03204372 0.02345452 0.00001116
0.30665403 -0.21162783 0.00000000
0.28367049 0.03505629 0.00000000
-0.12406493 -0.59875434 0.00000000
0.42506799 0.11887403 0.00000321
-0.50127295 -0.54222576 0.00000000
0.03773029 0.17822684 0.00000876
-0.62092473 -0.50196275 -0.00000035
0.50171939 0.15860893 -0.00000101
-0.47638385 0.12623754 0.02461157
0.50902021 0.06208672 -0.00000087
-0.03470411 0.10557077 0.00000000
-0.69533823 -0.32153027 -0.00000098
0.64590655 0.08153159 -0.00000149
-0.69621156 -0.28238763 -0.00000106
-0.54887817 -0.35133230 -0.00000031
-0.36110246 0.31571328 -0.00000068
0.14107450 -0.51209934 0.00000000
0.69894027 -0.59734420 -0.00000051
0.56410362 -0.71839376 0.00000000
0.06817873 0.42963443 0.00000000
-0.16747899 0.18515095 0.00000000
-0.70217168 -0.59190170 -0.00000052
-0.33890520 -0.79675941 0.00000000
0.18998225 0.57214233 0.00000016
-0.11871268 0.26487249 0.00000000
-0.72101701 -0.17460312 -0.00000135
-0.42986439 0.31482141 -0.00000098
0.14777441 0.50622709 0.00000207
0.15254108 -0.32066434 0.00000000
0.03448136 0.70062390 0.00000097
0.40493100 0.09563306 -0.00000048
0.06691996 -0.19397686 0.00000000
-0.35764726 -0.67918380 0.00000000
0.27406490 0.47148523 0.00000022
-0.45492964 0.01261064 0.04145605
-0.00510932 0.27010125 0.00000000
0.02018089 0.42127837 0.00000538
-0.15530759 -0.33092581 0.00000000
0.18540220 0.37492238 -0.00000004
0.39873496 -0.59440923 0.00000000
0.79921142 -0.52207434 -0.00000069
-0.51557546 -0.40185232 -0.00000008
0.05318120 -0.02904756 0.00000000
-0.03520605 0.11554213 0.08095914
-0.34846237 0.01928476 -0.00000011
0.70960115 -0.02243664 -0.00000157
0.01859127 0.33809351 0.00000665
0.22291407 0.43981373 0.00000174
-0.27767719 -0.25287687 0.00000000
-0.25374778 -0.22137919 0.00000000
0.14483522 -0.64908448 0.00000000
-0.33613458 0.23062531 -0.00000043
-0.36226262 -0.68782176 0.00000000
-0.14372095 0.05764250 0.00000000
0.78351386 -0.50536867 -0.00000074
-0.06193584 -0.49055257 0.00000000
-0.64866144 -0.46916213 -0.00000052
0.23007795 0.38037957 -0.00000024
0.18939211 -0.04089304 0.00000000
0.10613517 0.18012948 0.00000770
0.73011926 -0.65839014 -0.00000035
0.09161479 -0.16243454 0.00000000
-0.01375977 -0.40562087 0.00000000
-0.05282389 0.56421940 0.02281402
0.28334742 -0.48123852 0.00000000
-0.12105188 0.02017818 0.00000000
-0.30408481 -0.39270453 0.00000000
0.56605470 0.10517167 0.00000074
0.22892380 0.17228785 0.00000000
-0.72820881 -0.50575461 -0.00000074
-0.65331097 -0.74180835 -0.00000006
0.34283682 0.26849513 0.00000229
0.69902850 0.04077484 -0.00000074
-0.65180652 0.12253353 0.00319803
0.35490107 0.08068475 -0.00000024
-0.57632554 0.07235633 0.01886763
0.07437194 0.30229874 0.00000634
-0.01435936 0.50218583 0.03534569
-0.34533797 -0.18062002 0.00000000
-0.11305723 -0.05329491 0.00000000
-0.26621281 -0.65125575 0.00000000
0.41437378 0.28318892 0.00000068
0.10940312 -0.60934717 0.00000000
0.08992731 0.19187929 0.00000000
-0.48145464 -0.44761653 0.00000000
0.50515650 -0.29040955 -0.00000023
-0.22770862 -0.19357628 0.00000000
0.20224661 -0.46776653 0.00000000
0.02875854 0.32884393 0.00000663
0.21581649 0.37741076 -0.00000017
-0.02253975 0.16199887 0.07674559
0.30883639 0.07540159 0.00000617
-0.11291055 0.50773882 0.02236441
0.48241103 0.25353117 -0.00000109
0.46637830 -0.27701183 -0.00000009
-0.15784783 0.34437143 0.00000000
-0.27574079 0.01496558 0.00000000
0.02570844 0.71054159 0.00000000
-0.59026096 -0.79859042 0.00000000
0.40504409 0.25272840 -0.00000076
-0.72416847 -0.55573084 -0.00000061
0.60215435 -0.53820622 -0.00000020
-0.00617659 -0.36598024 0.00000000
0.10548367 0.13778288 0.00000000
0.15869097 -0.56955483 0.00000000
0.74435330 -0.71758373 -0.00000021
0.53782966 -0.20276088 -0.00000052
-0.18391085 0.04602195 0.00000000
-0.22628494 0.32638855 0.03084066
0.42937342 -0.68514877 0.00000000
-0.51366231 -0.61572010 0.00000000
-0.64656278 -0.67189778 -0.00000016
-0.59223358 -0.70784354 0.00000000
-0.21290713 0.51657489 -0.00000041
-0.04558540 -0.43531070 0.00000000
-0.00381194 0.72500783 0.00887589
0.64593461 -0.68189773 -0.00000014
-0.07604934 0.39635291 0.04085020
-0.07348455 -0.52849414 0.00000000
0.20337921 0.52530496 0.00000068
0.01840163 0.51014362 0.00000407
-0.07288824 -0.61007061 0.00000000
0.42671948 0.10051287 0.00000349
-0.37718518 -0.74562123 0.00000000
0.15124188 0.61424195 0.00000020
0.61215841 -0.09540617 -0.00000103
-0.77579441 -0.59256234 -0.00000052
-0.54246399 -0.33471964 -0.00000031
-0.36629995 0.31599159 0.01467711
0.35180696 0.11406054 -0.00000029
0.28860599 -0.31894761 0.00000000
0.36092708 0.16806387 -0.00000042
0.09352238 0.47318951 0.00000000
-0.23274378 -0.15562058 0.00000000
0.44308472 -0.13919950 -0.00000023
-0.21285120 0.15402316 0.00000000
-0.21885504 -0.55180779 0.00000000
-0.19567586 0.38059081 0.02789871
-0.36829321 -0.06675545 -0.00000004
0.24372184 0.25947243 -0.00000008
0.07324769 -0.48562795 0.00000000
0.33179150 0.16438574 0.00000425
-0.35040991 0.16038062 -0.00000036
-0.74621460 -0.49882138 -0.00000075
-0.57922567 -0.09153070 -0.00000090
-0.19878253 0.33195829 -0.00000002
-0.75760626 -0.73961399 -0.00000015
0.20243486 -0.66467768 0.00000000
0.47622788 -0.11272443 -0.00000042
-0.22180644 -0.08531209 0.00000000
0.02616326 0.29156329 0.00000723
0.30548278 0.13903886 0.00000517
0.58977663 -0.34364392 -0.00000050
0.03583287 -0.09198789 0.00000000
0.40076355 0.20718692 -0.00000066
0.22842064 0.52143694 -0.00000048
-0.01094674 -0.27052802 0.00000000
-0.01199036 0.36078024 0.00000000
0.34750552 -0.12374813 0.00000000
-0.43066064 0.10669363 -0.00000061
0.66201858 -0.15912805 -0.00000113
-0.30087442 -0.71470083 0.00000000
-0.06773807 -0.17301093 0.00000000
0.45175911 0.20323213 0.00000129
0.11517640 -0.52145233 0.00000000
0.12075176 0.10280168 0.00000864
0.26798419 0.34849927 -0.00000035
-0.28043139 -0.10050387 0.00000000
-0.69452420 -0.79441860 -0.00000001
0.61630382 -0.62465713 -0.00000011
-0.06344365 -0.61980203 0.00000000
0.54390212 -0.40311289 -0.00000019
-0.75709035 -0.04834164 -0.00000173
-0.24382433 0.00780474 0.00000000
0.39390026 0.07454909 -0.00000040
0.15058036 0.32366083 0.00000487
0.45003914 0.06575610 -0.00000062
-0.55409597 0.02689015 -0.00000100
0.17665421 0.31372341 0.00000000
-0.30657382 0.41005984 -0.00000062
0.17808094 -0.51684032 0.00000000
0.46068841 0.30101464 -0.00000051
0.79618055 -0.39121317 -0.00000102
-0.31704571 -0.57846219 0.00000000
-0.35616516 -0.00738257 -0.00000009
0.43926698 -0.29832378 0.00000000
-0.16016721 0.24556842 0.00000000
0.57780365 -0.43288576 -0.00000029
-0.14363825 0.07499536 0.07249419
-0.31032752 -0.77318554 0.00000000
-0.42865717 -0.66852646 0.00000000
0.23874228 -0.44298567 0.00000000
-0.45991021 -0.59743521 0.00000000
-0.51243944 -0.11301892 -0.00000057
-0.20622693 0.58768888 0.00075814
-0.03432823 0.71350947 0.00650446
-0.58144245 -0.36519451 -0.00000042
0.48784443 0.09364213 -0.00000083
-0.16158243 -0.02120285 0.00000000
-0.61643021 0.13452701 -0.00000145
-0.01268064 0.56817619 0.02732629
-0.33310197 -0.15582991 0.00000000
0.62803771 0.12653807 -0.00000081
-0.29876166 -0.31633779 0.00000000
-0.39465321 0.24281692 0.02026619
0.11251770 -0.47871749 0.00000000
0.37408057 -0.40608236 0.00000000
0.29312631 -0.02466927 0.00000000
-0.10309921 0.04070831 0.00000000
-0.50936878 0.27896689 -0.00000125
-0.35374943 0.23471264 -0.00000051
0.15301818 0.24996919 0.00000594
-0.63841136 -0.11295426 -0.00000111
-0.18186834 0.18776559 0.05366509
-0.44752420 0.23297115 0.01490087
-0.39115596 0.21301750 -0.00000063
-0.36883956 0.03649282 0.04921351
0.56563960 -0.11112365 -0.00000080
0.20268594 0.34694243 -0.00000006
0.37624169 0.10460001 0.00000439
0.44713544 -0.63821222 0.00000000
0.46983683 -0.10247360 -0.00000041
0.63000537 -0.47818248 -0.00000043
0.52544577 -0.51171627 0.00000000
-0.00663374 -0.26824055 0.00000000
0.54395706 -0.36312090 -0.00000027
0.09960699 0.39675475 0.00000455
-0.11730864 0.53846772 0.01798417
-0.36989290 0.00612859 -0.00000018
-0.06427400 -0.21808636 0.00000000
-0.01850986 -0.70488910 0.00000000
0.35788946 0.25101084 -0.00000056
0.02950608 -0.50561758 0.00000000
-0.60475319 -0.72152852 0.00000000
-0.04597338 0.32283998 0.00000000
-0.12034474 -0.15442787 0.00000000
0.18240076 0.02413201 0.00000889
0.21096441 -0.07773974 0.00000000
-0.31235237 0.12431674 0.04530601
0.76481161 -0.20133489 -0.00000149
-0.47322283 0.01703014 -0.00000064
0.44145349 0.23234056 -0.00000088
0.60118041 -0.71353687 0.00000000
-0.17287443 0.54113660 -0.00000028
-0.02011569 0.33461852 0.05552288
-0.57838677 0.16587540 -0.00000135
-0.19818896 0.55847345 0.00540361
0.39198411 0.23189664 0.00000196
0.69571532 -0.45046955 -0.00000076
0.79360404 -0.54399678 -0.00000064
0.28133951 0.47580898 -0.00000063
0.08104448 0.61362844 -0.00000002
0.36005980 0.01136129 -0.00000014
-0.21571682 0.46753616 0.01455761
-0.46082823 0.18216111 0.01957778
-0.16183332 0.52009437 -0.00000020
-0.04879974 -0.54893313 0.00000000
-0.13281251 0.30790380 0.00000000
0.24895443 -0.63910100 0.00000000
-0.03634984 -0.19879126 0.00000000
-0.21427920 0.03166633 0.06908857
0.16935229 0.56026872 0.00000075
-0.13341272 0.19626750 0.00000000
-0.32218657 0.26237566 0.02686393
0.46415396 -0.73415674 0.00000000
0.14692479 -0.02308015 0.00000000
-0.26161840 0.13186907 0.05069072
-0.64089998 0.07057646 0.01103706
0.01250528 0.04516288 0.00000000
-0.68874114 -0.47252802 -0.00000069
0.49963946 0.12704424 0.00000165
-0.43471034 0.27043368 0.01182725
-0.18463446 -0.04944569 0.00000000
-0.22784254 0.22533231 0.04324791
-0.10582706 0.17472444 0.06477324
0.55596758 0.00404163 -0.00000097
-0.50223874 -0.23464416 -0.00000031
0.12512359 0.63332520 0.00000038
-0.47830741 0.15350180 -0.00000090
-0.17048446 0.31945998 0.03866284
0.00417432 0.58842016 0.00000311
0.53932290 -0.16624504 -0.00000059
0.03459861 0.50866157 0.00000000
0.25364841 -0.21662606 0.00000000
-0.10454115 0.42062151 0.03427121
0.05249357 0.08682384 0.00000000
-0.64877484 0.09620633 0.00685905
0.25623599 0.37165333 0.00000223
-0.27145857 0.45576788 0.00907404
-0.66731006 0.12357999 0.00113423
0.14139083 -0.16335983 0.00000000
0.00039596 0.45234619 0.00000000
0.44034490 -0.54547190 0.00000000
0.20953419 -0.66900636 0.00000000
-0.24653174 0.47925534 -0.00000049
-0.77795957 -0.10665950 -0.00000172
-0.54481852 -0.51315780 -0.00000000
-0.33752464 -0.13679117 0.00000000
0.09309696 -0.07357884 0.00000000
-0.07032064 -0.35260913 0.00000000
0.13841344 0.12016270 0.00000000
0.76362409 -0.27155003 -0.00000132
-0.51593376 -0.52484469 0.00000000
0.02803043 0.09788345 0.00000000
0.15175652 0.08922605 0.00000000
-0.54055455 -0.71783638 0.00000000
-0.41862910 -0.56633650 0.00000000
-0.27870548 0.48424787 -0.00000063
-0.14974213 0.59137784 -0.00000027
0.22023165 0.38819363 0.00000265
-0.12796618 0.57670361 -0.00000015
-0.23427612 -0.40922830 0.00000000
-0.27346657 0.33791873 -0.00000035
0.15130418 0.03693024 0.00000916
0.47787804 -0.53674796 0.00000000
-0.42815246 0.14907853 -0.00000068
0.18175687 -0.60540785 0.00000000
0.35768651 -0.42665947 0.00000000
-0.37795504 -0.64301362 0.00000000
0.31650940 0.10211795 -0.00000012
-0.53893086 0.09954228 -0.00000106
-0.62861553 0.02166154 0.01866857
-0.29464230 0.37542762 0.01620131
-0.09799709 -0.18262748 0.00000000
0.31763490 0.07958957 0.00000593
0.00078089 0.10770047 0.00001037
0.59641990 -0.66482064 0.00000000
-0.07312504 -0.57614467 0.00000000
-0.09102377 0.59210490 0.01457345
0.09563783 -0.01052308 0.00000000
-0.05021194 0.22159675 0.00000000
0.39338275 0.06050243 0.00000480
-0.57976358 -0.46276860 -0.00000024
-0.22440004 -0.46603153 0.00000000
0.28149690 0.11800818 0.00000000
0.31760577 0.23268331 0.00000338
-0.66122205 -0.60621589 -0.00000034
-0.13302722 0.61919051 -0.00000025
0.72713383 -0.41142096 -0.00000096
0.10178581 -0.46625726 0.00000000
0.33384183 0.22018707 -0.00000040
0.30173327 0.39878318 -0.00000058
0.21979802 -0.40219649 0.00000000
-0.25925461 0.47687913 -0.00000054
0.74963804 -0.06294132 -0.00000167
-0.08415203 0.06991183 0.00000000
-0.30436141 0.44380667 0.00646256
-0.17280108 -0.48361246 0.00000000
0.47739910 -0.56213798 0.00000000
-0.23839732 0.37499786 -0.00000027
0.68243964 0.00777847 -0.00000151
-0.33653123 0.44576451 0.00220680
0.11563798 0.30802295 0.00000000
0.22921842 0.25881068 -0.00000002
-0.32402815 -0.76641617 0.00000000
0.44666001 0.34838499 -0.00000111
0.40742883 -0.38548996 0.00000000
0.19195994 -0.38269248 0.00000000
0.73515499 -0.19999537 -0.00000137
-0.48591389 -0.51360591 0.00000000
0.00731129 -0.55371261 0.00000000
-0.23046227 -0.19907826 0.00000000
0.01135491 -0.69979968 0.00000000
0.26520958 0.34090049 0.00000258
0.23438719 -0.54297822 0.00000000
-0.02643783 0.19922773 0.00000000
-0.34783716 0.20415449 0.03092536
0.39536809 -0.44523344 0.00000000
0.02865986 0.68681711 0.00000000
0.61498824 -0.37117537 -0.00000055
0.06366087 0.48023850 0.00000000
0.11288063 -0.47280161 0.00000000
0.57761094 -0.10284851 -0.00000087
0.58969523 -0.31611179 -0.00000054
-0.57033058 0.18591925 0.00545407
-0.69258197 -0.38231703 -0.00000087
-0.48409826 -0.70587775 0.00000000
0.55689506 -0.29564498 -0.00000044
-0.71656076 -0.07223206 -0.00000152
0.48671864 -0.18404452 -0.00000034
-0.52486026 0.19678730 0.00976904
0.24978284 -0.77405092 0.00000000
0.27552882 0.49126605 -0.00000063
-0.18642226 0.58626012 0.00340597
-0.59687113 0.12434179 0.00982305
-0.04661299 0.22805497 0.06550685
0.07922011 0.07633892 0.00000966
-0.07083538 0.05900858 0.08356584
-0.30293059 0.23776289 -0.00000030
0.79568777 -0.06848203 -0.00000183
0.05104804 0.13086084 0.00000927
0.14832373 -0.51595384 0.00000000
0.30895187 0.30191763 -0.00000044
0.77281328 -0.07693821 -0.00000175
0.27755207 0.48796153 -0.00000012
-0.11583107 0.38915008 0.00000000
0.17725332 0.37960087 0.00000362
-0.55296316 -0.49604568 -0.00000007
0.31983825 0.43110665 0.00000002
-0.35067165 -0.04439539 -0.00000000
0.33440330 -0.34780388 0.00000000
-0.50312032 -0.30493788 -0.00000019
-0.21403539 -0.46535143 0.00000000
0.14440185 -0.50387412 0.00000000
-0.59964863 0.18429532 -0.00000147
0.33655030 -0.56938911 0.00000000
0.79575871 -0.38028940 -0.00000105
-0.32549353 -0.29878706 0.00000000
0.06674479 0.66808846 0.00000092
-0.21993017 -0.07854546 0.00000000
0.57568732 -0.63182561 0.00000000
-0.33143152 0.07466880 0.04911785
-0.48656297 -0.30425843 -0.00000012
-0.09293485 -0.16874722 0.00000000
0.61625528 0.09478274 -0.00000138
-0.03480585 -0.10153186 0.00000000
-0.21931347 -0.59840749 0.00000000
-0.47571973 -0.06261985 -0.00000051
0.26415340 0.53496925 -0.00000066
0.34543410 0.23803958 -0.00000048
0.01101278 0.68452008 0.00000157
0.79489874 -0.35137437 -0.00000112
-0.73104131 -0.35103300 -0.00000109
-0.19916057 0.57201925 0.00359331
-0.64334671 -0.02369867 -0.00000129
-0.48526161 -0.59713401 0.00000000
-0.33604466 -0.71730193 0.00000000
0.38597523 -0.58398582 0.00000000
-0.27901267 0.22140271 0.03735703
0.57734362 0.05271817 -0.00000114
-0.06672633 -0.21366538 0.00000000
0.13120319 0.07523985 0.00000889
0.34457243 0.05663547 -0.00000016
-0.11391295 0.22112838 0.00000000
-0.05725689 -0.76602371 0.00000000
0.12840427 0.59312657 0.00000099
0.55659052 0.09732649 -0.00000113
-0.38178983 0.33441014 -0.00000081
0.44422096 -0.02028329 -0.00000045
0.12243687 -0.42789512 0.00000000
-0.24164616 0.37285302 -0.00000028
-0.26571327 0.47843279 0.00696420
0.61429736 -0.70654152 0.00000000
-0.14030216 -0.62611705 0.00000000
0.57824840 -0.15987526 -0.00000077
-0.02155032 0.74448032 0.00000000
-0.14109905 0.07084070 0.00000000
-0.47523499 -0.62149216 0.00000000
0.23342692 -0.16969541 0.00000000
0.21903036 -0.10666966 0.00000000
0.76335087 -0.00910334 -0.00000183
0.11086926 0.54138851 0.00000219
0.01428202 -0.30134225 0.00000000
-0.76429931 -0.54101131 -0.00000065
0.38732256 -0.67504272 0.00000000
0.34245472 0.20563448 -0.00000041
0.15569118 0.28847310 0.00000532
0.18213187 -0.53142511 0.00000000
0.55961840 0.01394298 0.00000238
0.26302283 0.46906670 -0.00000054
0.45593156 0.23610504 0.00000066
0.65761565 -0.19634215 -0.00000105
-0.37516859 0.12564652 -0.00000041
-0.56697642 -0.18302190 -0.00000068
0.42783142 -0.24296181 0.00000000
0.15176381 0.42477956 0.00000334
-0.10649341 -0.74759356 0.00000000
-0.30085041 0.12552004 0.04659027
-0.05662971 -0.00599306 0.00000000
0.14357880 0.30543261 0.00000000
0.60177347 -0.44984923 -0.00000036
0.79260018 -0.08344461 -0.00000179
0.47740792 -0.62468527 0.00000000
-0.42370164 0.32673858 0.00617891
0.15723324 0.18277808 0.00000689
0.02033064 0.45219348 0.00000000
0.51330227 0.08321229 -0.00000092
-0.71226294 -0.64548357 -0.00000039
0.30904714 -0.27076236 0.00000000
-0.75547822 -0.74856554 -0.00000013
0.06955747 0.33668891 0.00000590
-0.10493632 -0.07260295 0.00000000
-0.13878052 0.26397139 0.04953537
0.06788594 0.50002228 0.00000000
0.57789875 -0.70563870 0.00000000
-0.54521014 0.06610158 -0.00000103
0.22670359 0.27850289 0.00000436
0.18025480 0.03318685 0.00000000
-0.72714550 -0.13689191 -0.00000145
0.72788049 0.06669371 -0.00000181
0.09096928 0.02140093 0.00000000
-0.19515985 0.33662242 -0.00000001
-0.16379487 -0.53351750 0.00000000
0.14622480 0.00513621 0.00000972
0.22076403 0.07056940 0.00000761
0.79274709 -0.46358769 -0.00000084
-0.69643367 -0.76805920 -0.00000008
0.07972093 0.51461922 0.00000308
-0.15605355 0.08170632 0.00000000
-0.74767511 -0.08550540 -0.00000163
0.74040288 -0.68300753 -0.00000029
0.24751470 0.45089583 -0.00000044
-0.56345418 -0.71244541 0.00000000
0.79445422 -0.40201824 -0.00000099
-0.71210295 -0.47745299 -0.00000078
0.63007062 0.02133695 -0.00000131
-0.68504055 -0.33187227 -0.00000092
-0.52936316 -0.61723420 0.00000000
-0.23259191 0.48004067 -0.00000043
-0.52482819 0.11184979 0.02036463
-0.50111705 -0.30365790 -0.00000019
0.18801278 -0.38736446 0.00000000
0.38703360 0.24539621 -0.00000067
0.34348625 0.00772111 -0.00000007
0.77478674 -0.38412501 -0.00000104
-0.51217710 0.19085655 0.01209021
0.03569784 0.06678775 0.00000000
0.45062511 -0.55780054 0.00000000
0.05945767 0.39698814 0.00000515
-0.54520956 -0.19724477 -0.00000056
0.05966647 0.57731570 0.00000000
-0.38962527 -0.60637604 0.00000000
0.70242360 -0.77830102 -0.00000005
0.72456539 -0.62647275 -0.00000043
0.42334516 -0.14042469 -0.00000014
-0.49976776 -0.37510563 -0.00000006
0.28128546 0.19325880 0.00000473
