ply
format ascii 1.0
element vertex 1372
property float x
property float y
property float z
end_header
-0.01750159 -0.30550728 -0.00000031
-0.22458435 0.40813293 -0.00000069
-0.68015516 -0.56361416 -0.00000002
-0.36364369 -0.70302905 -0.00000006
-0.01572093 -0.36694336 -0.00000027
-0.00182538 -0.38106204 -0.00000026
0.59082917 -0.19382723 -0.00000057
-0.27333525 0.47783223 -0.00000065
-0.52215962 -0.01039060 -0.00000029
0.62476206 -0.48825602 -0.00000029
0.79280099 -0.68880119 -0.00000014
0.52805079 -0.57705538 -0.00000014
-0.03735749 0.65088969 -0.00000091
0.65694183 -0.07027223 -0.00000077
-0.76698218 -0.26625918 0.00000000
-0.15265162 -0.26171001 -0.00000034
-0.78430213 0.36157053 -0.00000002
-0.40973827 -0.51278639 -0.00000018
0.31840614 0.08035170 -0.00000057
-0.39383887 0.17384949 -0.00000047
0.40575694 0.01902972 -0.00000060
0.17238055 -0.13338169 -0.00000042
-0.51390784 -0.37005942 -0.00000024
0.21107643 -0.39397010 -0.00000025
0.49966050 -0.74036281 -0.00000004
0.33499198 -0.30244329 -0.00000031
0.04313320 0.62691485 -0.00000089
-0.31672993 -0.18314622 -0.00000039
0.79968606 -0.46955505 -0.00000041
-0.28563747 0.07937400 -0.00000055
0.79912439 -0.35933258 -0.00000055
0.44461499 0.10022602 -0.00000073
-0.37573271 -0.11719231 -0.00000043
0.33597791 0.30910735 -0.00000083
0.24973161 0.46960235 0.15672094
0.16917585 -0.68431428 -0.00000007
0.34200051 -0.37482783 -0.00000027
-0.35047923 0.64496340 -0.00000056
0.45928322 0.24619423 0.18364237
0.47787484 -0.70415618 -0.00000006
0.46836303 -0.48636432 -0.00000020
0.20692339 0.37910866 0.41570512
-0.70689010 -0.54059295 -0.00000000
0.42455753 0.36842965 -0.00000099
0.35426718 -0.00293184 -0.00000052
-0.27730537 -0.30759039 -0.00000031
0.29108795 0.27312582 0.45809545
0.15435512 0.39303599 -0.00000075
-0.37249372 -0.78840120 -0.00000001
0.79146842 -0.38014019 -0.00000052
0.51495667 -0.17208395 -0.00000051
0.35040827 -0.36430100 -0.00000027
0.60640928 0.17905724 0.02823379
0.06223195 0.29316645 -0.00000068
0.71819016 0.07336532 0.01640371
0.32706156 0.09481712 -0.00000060
0.26933021 -0.70368553 -0.00000006
0.08253662 -0.03205974 -0.00000048
-0.05683135 0.73617031 -0.00000093
-0.15038610 0.16584702 -0.00000060
-0.24113787 -0.70190489 -0.00000006
0.06537290 -0.69210974 -0.00000007
-0.75360319 0.30900392 -0.00000006
0.65574111 -0.34735715 -0.00000048
0.43896378 0.26340737 -0.00000090
-0.69717812 0.04754959 -0.00000012
-0.78117259 -0.11243751 0.00000000
-0.55686792 -0.40105653 -0.00000019
-0.48619853 0.69676112 -0.00000039
-0.79165977 0.06342966 -0.00000001
0.18064880 -0.51013806 -0.00000018
0.40574540 0.28702309 0.20833423
0.34765683 0.28752261 -0.00000082
-0.12818377 -0.72340382 -0.00000005
0.29917646 -0.30574123 -0.00000031
-0.36260341 0.77179394 -0.00000055
0.74909390 -0.16751976 -0.00000077
-0.38302542 0.55873461 -0.00000052
-0.30601211 -0.00495143 -0.00000050
-0.53294000 -0.15898967 -0.00000026
-0.73166505 0.67174272 -0.00000009
-0.46625178 -0.57854330 -0.00000014
-0.09297417 0.33565556 -0.00000071
0.07484727 0.68683311 -0.00000096
-0.52845156 -0.10365273 -0.00000027
-0.35775950 0.38199344 -0.00000054
-0.61088311 -0.61887249 -0.00000009
-0.72843253 0.23236020 -0.00000009
-0.44193120 0.72531344 -0.00000045
-0.04477499 -0.36802420 -0.00000027
0.11259538 0.04432054 -0.00000053
0.04168882 -0.23863195 -0.00000035
-0.34258779 0.65144319 -0.00000057
-0.54680476 -0.79953878 -0.00000000
0.08465187 -0.77379316 -0.00000002
0.74898028 0.03130459 0.03830106
-0.79091823 -0.68584744 0.00000000
0.08132323 0.63794476 -0.00000091
0.13783896 -0.17083055 -0.00000039
-0.60679532 -0.39857272 -0.00000013
0.28627638 0.47585292 -0.00000096
-0.14971039 -0.55786891 -0.00000015
0.76376467 -0.45181132 -0.00000044
-0.42626393 0.23856840 -0.00000044
0.17653176 0.44440831 0.34788405
0.13525967 0.62335906 0.08039560
0.02967902 0.74084284 0.05726876
0.77601761 -0.09260018 -0.00000088
0.18413919 -0.51812821 -0.00000018
0.15636863 -0.13702809 -0.00000041
0.25298620 0.24639709 -0.00000068
0.06438310 0.41977624 -0.00000076
-0.16440413 0.60730300 -0.00000079
0.48494815 -0.42249586 -0.00000024
-0.28979802 -0.49264318 -0.00000019
0.50804623 0.28244045 0.01848024
0.57112591 0.22148571 0.01435175
-0.54063365 -0.19899087 -0.00000024
-0.41365696 -0.63204988 -0.00000010
0.07985477 -0.66893699 -0.00000008
0.00710234 0.24615217 -0.00000065
-0.17379295 -0.27700897 -0.00000033
0.76289687 -0.24535794 -0.00000069
-0.58675791 0.76945897 -0.00000027
-0.50043281 0.51860372 -0.00000037
-0.77137119 -0.04671528 -0.00000002
0.10996511 -0.58336496 -0.00000014
-0.16359472 0.20140146 -0.00000063
0.05503990 -0.51550359 -0.00000018
0.45276251 -0.00087270 -0.00000063
0.13069055 0.61742674 -0.00000094
0.16901541 -0.29285014 -0.00000032
0.00142147 0.73765491 -0.00000096
0.25734665 0.46987853 0.14138928
-0.32388136 -0.63819585 -0.00000010
0.61038754 0.16587852 0.04610910
0.05159890 -0.09958382 -0.00000044
0.29270995 -0.31856926 -0.00000030
0.61364676 0.17233671 -0.00000099
0.76206579 -0.55834940 -0.00000030
0.04905171 0.14300149 -0.00000059
-0.20891056 0.30597598 -0.00000069
0.34713787 0.27430506 0.34690880
-0.30566136 -0.55412442 -0.00000015
-0.72656414 0.02543959 -0.00000008
-0.49615687 -0.49347216 -0.00000019
0.25480101 0.38657444 0.30818211
-0.06654123 0.32895796 -0.00000071
0.20914221 -0.65738561 -0.00000009
0.25156848 0.46357873 -0.00000091
-0.28215295 0.17228620 -0.00000058
0.36833856 -0.04871601 -0.00000049
-0.57624887 0.46779464 -0.00000028
-0.18043517 -0.03027393 -0.00000048
0.23115442 -0.17035258 -0.00000039
0.00745154 0.37303323 -0.00000073
0.36228281 0.29412789 0.27897209
-0.41818220 -0.51180352 -0.00000018
-0.15059886 0.72170913 -0.00000081
0.07966430 -0.39450289 -0.00000025
-0.05257086 -0.22082924 -0.00000036
-0.18744592 0.43884984 -0.00000073
-0.09808468 -0.66981964 -0.00000008
-0.71813062 0.77261290 -0.00000010
0.52426407 -0.79454471 -0.00000000
-0.79784461 -0.06582311 0.00000000
0.63690205 -0.76649045 -0.00000002
-0.16559206 -0.31746075 -0.00000030
0.41045868 0.19427144 0.37937978
0.74738787 -0.10139919 -0.00000084
0.00984186 -0.69219010 -0.00000007
0.01166288 0.77741615 0.02121491
0.17541573 -0.20424800 -0.00000037
-0.66397609 -0.36436671 -0.00000008
0.00311888 -0.27326309 -0.00000033
0.05967265 -0.51187951 -0.00000018
-0.74773262 0.66870926 -0.00000007
-0.78223076 0.66368535 -0.00000002
-0.72030190 -0.43167870 -0.00000001
0.27732927 0.04932214 -0.00000053
-0.63931151 0.38383984 -0.00000020
0.14002985 -0.52226207 -0.00000017
-0.51989339 0.17427497 -0.00000033
-0.72792188 0.26064954 -0.00000009
-0.13972045 -0.34760252 -0.00000028
0.49241171 0.19702694 0.21480371
0.16989332 -0.48335209 -0.00000020
0.54882944 -0.33947869 -0.00000037
0.32590821 0.31684891 0.30549846
-0.58638127 0.58518457 -0.00000027
-0.70715627 0.19991415 -0.00000012
-0.77263032 -0.43691306 0.00000000
0.41326969 -0.61810678 -0.00000011
-0.34217808 0.39494033 -0.00000056
-0.12694697 -0.10265086 -0.00000044
0.37169284 0.11107297 -0.00000066
-0.79866798 -0.34185619 0.00000000
0.41521543 -0.46564278 -0.00000021
-0.66063498 -0.08025082 -0.00000013
0.39457820 -0.29882476 -0.00000031
0.39779816 -0.55505294 -0.00000015
0.04482260 0.03107538 -0.00000052
0.46746380 0.08829517 -0.00000074
0.32771870 -0.67005556 -0.00000008
-0.19218622 0.00070399 -0.00000050
0.20102431 -0.77323111 -0.00000002
-0.25283290 -0.28149105 -0.00000032
-0.12245560 -0.32524114 -0.00000030
-0.22913395 0.21105063 -0.00000063
-0.58873221 0.48156479 -0.00000026
0.05524983 0.67804555 -0.00000093
-0.67605520 -0.77352293 0.00000000
-0.00251473 -0.32117845 -0.00000030
-0.28321637 -0.59399059 -0.00000013
-0.70745003 0.44924518 -0.00000012
-0.15176790 0.50638235 -0.00000078
0.05635284 0.70092341 0.08300315
0.17626766 -0.61998113 -0.00000011
0.39381059 -0.46265153 -0.00000021
-0.14555317 0.53414345 -0.00000080
0.40775945 -0.27078251 -0.00000033
0.13047410 -0.31179795 -0.00000031
0.16706629 0.41936224 -0.00000077
-0.69636230 -0.18096474 -0.00000008
0.38819377 0.34419488 -0.00000093
0.68617703 -0.35957110 -0.00000049
0.18261601 0.58272803 0.06732921
-0.69769639 -0.56998118 -0.00000000
0.02638521 0.74796784 0.04982532
0.06535709 0.35430680 -0.00000072
-0.54912774 0.27175350 -0.00000031
0.64540040 0.10416566 0.09798381
-0.35655442 0.41561436 -0.00000055
0.08712941 0.40922176 -0.00000076
0.53387441 -0.71186548 -0.00000006
-0.03634441 -0.32013030 -0.00000030
-0.49926361 0.72496086 -0.00000038
0.45369864 0.20082263 0.28264372
0.37467565 0.40333461 0.04272035
-0.02564169 -0.21842890 -0.00000036
-0.57526250 -0.47296434 -0.00000015
0.40966969 -0.15064168 -0.00000042
-0.53967144 0.17733596 -0.00000031
-0.69411676 -0.01223256 -0.00000011
-0.24915274 -0.76271777 -0.00000002
0.06272760 0.67627952 0.11849726
-0.68549229 0.73773418 -0.00000014
-0.72896319 0.70279281 -0.00000009
-0.14347484 -0.44545362 -0.00000022
-0.30411618 0.00828597 -0.00000051
-0.28319104 -0.26836155 -0.00000033
0.18553896 -0.22151643 -0.00000036
0.28356912 -0.62511955 -0.00000011
0.12085386 -0.20278239 -0.00000037
0.08407116 0.69255831 0.04540305
0.49749593 0.23368376 0.13370619
-0.36393503 -0.52096589 -0.00000017
0.57210840 0.17994689 0.09314754
0.37770596 0.38175281 -0.00000096
-0.78745553 -0.35453510 0.00000000
0.11285851 -0.70092492 -0.00000006
0.21217405 0.12782641 -0.00000058
-0.25144091 -0.35155569 -0.00000028
0.43259845 0.00323771 -0.00000061
0.54081997 0.24048633 -0.00000098
-0.39119308 -0.30875488 -0.00000031
0.08379965 0.22396741 -0.00000064
0.74483779 -0.38375724 -0.00000052
-0.37975869 0.66048189 -0.00000053
-0.62097320 0.37782818 -0.00000022
-0.57203862 -0.24869978 -0.00000020
-0.77625777 -0.65745697 0.00000000
0.73691896 -0.29421383 -0.00000062
-0.10634248 0.24653188 -0.00000065
-0.49480429 0.53917604 -0.00000038
0.55296453 0.21223863 0.06760292
0.28335906 -0.15668398 -0.00000040
0.64713437 -0.73985061 -0.00000005
-0.52117248 0.21187551 -0.00000034
0.41930853 -0.70529597 -0.00000006
-0.57202355 -0.64507030 -0.00000010
-0.11950533 0.10185309 -0.00000056
-0.09805126 0.65776140 -0.00000087
0.36341999 -0.01799784 -0.00000051
0.00730562 0.49048153 -0.00000081
-0.67992039 0.30023922 -0.00000015
-0.34854117 -0.78558293 -0.00000001
-0.56453744 0.56756152 -0.00000029
-0.50642765 -0.21700990 -0.00000027
-0.26081634 -0.26616992 -0.00000033
0.10566160 0.20011213 -0.00000063
0.18041635 0.52605699 0.18170643
0.03315426 -0.47748201 -0.00000020
0.43959786 -0.17717486 -0.00000043
0.72456813 0.04185209 0.06523831
-0.79279206 0.43444832 -0.00000001
-0.08013617 0.02485425 -0.00000052
-0.53452507 -0.10771402 -0.00000026
0.01694657 -0.75621165 -0.00000003
0.20129653 0.45949570 -0.00000085
0.06450035 0.70590912 0.05748746
0.08623421 -0.60148300 -0.00000012
-0.44840571 -0.62704331 -0.00000011
-0.28744166 -0.72166358 -0.00000005
-0.79778147 -0.71264592 0.00000000
-0.46649522 0.67103210 -0.00000042
-0.29704043 -0.67152980 -0.00000008
-0.08858289 -0.45940533 -0.00000021
0.29306309 0.20369573 -0.00000068
-0.11605761 -0.70945035 -0.00000006
-0.25849824 -0.25135776 -0.00000034
-0.49176820 0.08938614 -0.00000035
-0.13420601 -0.61814235 -0.00000011
-0.47256044 0.14592868 -0.00000038
-0.71796194 0.50500880 -0.00000010
-0.66575081 -0.73324106 -0.00000001
0.31857849 -0.30296820 -0.00000031
-0.29669869 0.74131253 -0.00000063
0.03812866 -0.04928838 -0.00000047
0.57970916 0.17822143 0.08173258
0.63341846 -0.73096520 -0.00000004
0.15520666 0.29450198 -0.00000068
-0.65136138 0.68919926 -0.00000019
0.01745555 -0.47478024 -0.00000020
0.35457688 -0.69640382 -0.00000006
0.75207746 0.02918613 0.03639955
-0.47208417 0.27643490 -0.00000040
0.12596093 -0.03807757 -0.00000048
-0.65797070 -0.74511780 -0.00000002
-0.07418215 0.25878218 -0.00000066
-0.53221097 0.44633672 -0.00000033
0.06380170 -0.67359758 -0.00000008
-0.53728854 0.65876539 -0.00000033
-0.07123939 -0.24061638 -0.00000035
-0.68374851 0.52403788 -0.00000015
0.44578430 0.33870341 0.03013548
0.38895228 0.22543163 0.36062376
0.61661839 -0.15386421 -0.00000064
-0.39656784 -0.55527313 -0.00000015
-0.43057429 -0.15302769 -0.00000037
-0.34711788 -0.09830558 -0.00000044
-0.31039677 -0.69830278 -0.00000006
0.45031839 -0.70171856 -0.00000006
-0.06830098 -0.79548580 -0.00000000
0.62612133 -0.15020038 -0.00000065
0.01104929 0.27531477 -0.00000067
0.62410022 -0.44442149 -0.00000034
0.05433030 0.43094255 -0.00000077
0.35145840 0.02397785 -0.00000055
-0.78416516 -0.69116190 0.00000000
0.22599336 0.45782648 0.22571907
0.32985951 0.45217376 -0.00000098
-0.59946404 -0.45490168 -0.00000013
-0.30998767 0.56823438 -0.00000061
-0.06310936 -0.66225830 -0.00000009
0.02592319 -0.39382836 -0.00000025
0.01397958 0.61073198 -0.00000088
-0.06693800 0.55999064 -0.00000085
-0.42398588 -0.56080216 -0.00000015
-0.66027698 0.69744321 -0.00000017
0.42018034 -0.01980186 -0.00000057
-0.51054321 0.51352576 -0.00000036
0.28971855 0.14338510 -0.00000061
0.00724135 -0.59947975 -0.00000013
-0.21050183 -0.16060126 -0.00000040
-0.08500041 -0.64993213 -0.00000009
-0.00854770 -0.08709785 -0.00000045
-0.57144053 -0.03219146 -0.00000024
-0.30815552 0.36217696 -0.00000059
-0.74413079 -0.13357880 -0.00000004
0.45096452 0.32308830 0.05040914
0.64439707 -0.11592468 -0.00000071
-0.04351550 -0.78284844 -0.00000001
0.51997545 0.23504672 0.08738328
0.09113245 -0.22452054 -0.00000036
0.30507489 -0.72211147 -0.00000005
-0.09701391 0.46304041 -0.00000079
0.08162931 -0.64173789 -0.00000010
0.67679365 -0.46197536 -0.00000038
0.25606250 -0.05347144 -0.00000047
0.64364976 0.08051541 -0.00000092
0.11516624 -0.13320671 -0.00000042
-0.19265845 0.00898274 -0.00000051
0.07357949 0.27068733 -0.00000067
-0.31523108 0.62324791 -0.00000061
-0.08049412 0.48784159 -0.00000080
-0.10789959 -0.02551853 -0.00000048
-0.78883081 0.58605083 -0.00000001
-0.65115998 0.08155724 -0.00000017
-0.11844287 -0.62453176 -0.00000011
0.14021000 -0.40777391 -0.00000025
0.74199784 -0.66434199 -0.00000017
-0.48245410 0.12389207 -0.00000036
0.31831748 0.32253080 -0.00000083
-0.25240339 0.35468241 -0.00000065
-0.67439895 -0.08213131 -0.00000012
0.59938530 -0.56761882 -0.00000018
0.66090472 -0.01229974 -0.00000084
0.31769147 -0.38092186 -0.00000026
0.55516240 0.17898108 0.12794791
-0.11625114 0.68936225 -0.00000085
-0.31040647 0.67333427 -0.00000061
-0.04533712 0.39263679 -0.00000075
-0.72204493 0.07874526 -0.00000010
-0.67699040 -0.39668860 -0.00000006
-0.77755937 0.15164847 -0.00000003
-0.59516655 0.25845325 -0.00000026
0.56537394 -0.64602702 -0.00000010
0.24455487 -0.40547090 -0.00000025
0.48393390 0.16493849 -0.00000084
-0.08407421 -0.39525695 -0.00000025
-0.71074087 0.08204098 -0.00000011
0.18353641 -0.13547926 -0.00000042
-0.51942236 -0.60807866 -0.00000012
-0.77267944 0.73496145 -0.00000003
0.16350725 0.47456940 -0.00000083
0.38683120 0.10254963 -0.00000067
-0.61253571 0.71256757 -0.00000023
-0.33366392 0.39640698 -0.00000057
0.37888320 0.01434357 -0.00000057
0.27959391 0.29447913 0.43894033
0.43119302 -0.08710560 -0.00000051
-0.65409938 -0.55406845 -0.00000005
-0.00647402 0.33447805 -0.00000071
-0.40507020 -0.08428152 -0.00000041
-0.50532015 -0.47021791 -0.00000021
-0.06517724 -0.24454689 -0.00000035
0.59348075 0.13528518 0.13839580
-0.01722394 -0.70077581 -0.00000006
0.44582941 0.26798802 0.16743883
0.62749969 0.12200954 -0.00000095
0.08811977 -0.12271412 -0.00000042
0.53590696 0.12846469 -0.00000086
-0.16537510 -0.14263911 -0.00000041
-0.20991853 -0.01427052 -0.00000049
0.30179261 0.25006557 0.48210052
-0.56313656 -0.40534970 -0.00000018
0.41035605 -0.48116824 -0.00000020
0.15909236 -0.13911289 -0.00000041
0.64974873 -0.72600953 -0.00000007
-0.08476972 -0.65632811 -0.00000009
0.55153597 -0.08522258 -0.00000064
0.75213933 0.03819672 0.01877290
0.08602443 -0.60557247 -0.00000012
0.42345448 -0.48967146 -0.00000019
0.26243434 -0.06408278 -0.00000046
-0.05143053 0.09135219 -0.00000056
0.64694539 -0.27688804 -0.00000054
-0.28625572 -0.31794834 -0.00000030
-0.65429941 -0.63537081 -0.00000004
0.43561526 0.29267646 0.13931715
0.63598726 -0.21216104 -0.00000060
-0.18196679 -0.79153324 -0.00000001
-0.68148193 -0.61741989 -0.00000001
0.15267416 0.36047324 -0.00000073
0.10753405 -0.49945861 -0.00000019
-0.73055340 0.26679952 -0.00000009
0.52853084 0.22664347 0.08708770
0.18026824 0.44250725 -0.00000081
0.78472968 -0.30112050 -0.00000062
0.54882172 -0.27047974 -0.00000044
-0.31551439 0.37290103 -0.00000059
0.10804967 0.53423675 -0.00000083
-0.26690550 -0.60930419 -0.00000012
-0.40716394 0.35234742 -0.00000048
0.69175932 -0.41413616 -0.00000044
0.42538052 0.21580750 0.30854796
0.44552079 -0.73933429 -0.00000004
-0.79448296 0.67092905 -0.00000001
-0.62885667 -0.62228751 -0.00000007
-0.17478085 0.79208521 -0.00000078
0.22483239 -0.06706088 -0.00000046
-0.54852070 -0.47390083 -0.00000018
0.25593777 0.28300516 0.50719235
-0.68823425 -0.66178726 0.00000000
0.59815819 0.04325101 -0.00000083
0.27278456 0.11441701 -0.00000057
0.18110525 0.51892355 0.19422717
0.26157907 0.39260228 0.28330234
0.33009697 0.14515020 -0.00000065
0.45075766 -0.06508942 -0.00000056
-0.01778892 -0.45703975 -0.00000021
0.06601383 -0.73633511 -0.00000004
-0.56571669 -0.00964697 -0.00000025
0.34730854 0.30508980 0.28676732
0.70210010 -0.48454855 -0.00000038
0.19014548 0.42524114 0.35867365
0.12670221 -0.68400864 -0.00000007
0.71446394 -0.18838388 -0.00000071
-0.72534610 -0.44887083 0.00000000
0.63618163 -0.41706982 -0.00000038
0.74310430 0.05323377 0.00711174
-0.36105105 -0.52160377 -0.00000017
-0.48652814 0.66070497 -0.00000039
-0.29778760 0.35275211 -0.00000060
-0.15919629 0.73159073 -0.00000080
-0.46565715 -0.41145658 -0.00000024
-0.61053165 -0.74511886 -0.00000003
0.63806524 -0.19728596 -0.00000062
0.25706160 -0.40745953 -0.00000025
0.49393362 0.20118117 0.20377569
-0.16647341 0.52090246 -0.00000077
-0.66693393 -0.51275687 -0.00000005
-0.37059102 0.44724429 -0.00000054
0.21822177 0.18768233 -0.00000062
-0.77477835 -0.14679109 -0.00000000
0.31647601 0.46177412 -0.00000098
0.59555609 -0.06824449 -0.00000071
-0.19466866 -0.33274670 -0.00000029
0.20979853 0.52714046 -0.00000093
0.05168628 -0.73290815 -0.00000004
0.00421921 0.22138747 -0.00000064
0.02475987 -0.77694433 -0.00000001
0.70924399 -0.30310929 -0.00000058
0.53549621 -0.24515120 -0.00000046
-0.66807045 -0.67272123 -0.00000002
0.07118295 -0.32463658 -0.00000030
0.23727480 0.47333545 -0.00000090
-0.32934949 -0.39341815 -0.00000025
-0.79009448 0.61089079 -0.00000001
-0.32263346 0.33258149 -0.00000057
-0.37673958 -0.34032589 -0.00000029
-0.39119708 -0.20679372 -0.00000037
0.06563705 -0.08010716 -0.00000045
0.20713875 -0.39740852 -0.00000025
-0.65255868 0.26430839 -0.00000018
-0.54046448 0.67208804 -0.00000032
-0.16767244 -0.35639249 -0.00000028
0.25197709 0.39668372 0.29402777
-0.05209845 0.12664330 -0.00000058
0.66775092 -0.32728885 -0.00000051
-0.67881417 0.50499671 -0.00000015
0.78796358 -0.10173399 -0.00000087
0.17606496 -0.09063026 -0.00000044
0.32362151 0.40687950 -0.00000093
0.64620969 -0.79919005 -0.00000000
0.20058476 0.11181443 -0.00000057
0.05164914 -0.55073848 -0.00000016
-0.04106941 -0.71603390 -0.00000005
0.26653708 0.36098173 0.33510349
-0.30762362 0.21658238 -0.00000056
-0.73687961 0.64832624 -0.00000008
-0.37624044 -0.75372750 -0.00000003
0.76832427 -0.01772485 -0.00000095
-0.74394258 0.45541031 -0.00000007
0.26261647 -0.39477022 -0.00000025
-0.00746473 0.24492816 -0.00000065
0.15349468 0.14991709 -0.00000059
0.01292440 -0.23755715 -0.00000035
0.34185300 0.24505504 0.41400458
-0.39310703 0.45906833 -0.00000051
-0.25117222 0.65504040 -0.00000069
0.60522484 -0.16060661 -0.00000062
-0.66750269 -0.10078991 -0.00000012
-0.20218914 -0.73917896 -0.00000004
-0.10155395 -0.44128243 -0.00000022
0.53399440 0.06282071 -0.00000078
0.46412800 -0.24518184 -0.00000038
-0.51465372 -0.39518544 -0.00000023
0.33991267 -0.33184685 -0.00000029
0.12205629 -0.63597090 -0.00000010
-0.26589328 -0.71868894 -0.00000005
0.16133160 -0.12779209 -0.00000042
-0.35769211 0.74983930 -0.00000055
-0.05149085 -0.48817220 -0.00000019
0.38464381 0.25942092 0.30295857
0.57813289 0.13293276 0.17278521
-0.52618496 0.13734712 -0.00000032
0.26964956 0.31940702 0.40982959
0.64280185 0.11149287 0.08879661
-0.67211080 0.42182061 -0.00000016
0.74204255 -0.69990515 -0.00000013
0.37981569 0.32151627 0.19169652
-0.08072408 -0.24385818 -0.00000035
0.08671951 0.25392264 -0.00000066
0.61046454 -0.52003572 -0.00000024
0.30690848 -0.20793946 -0.00000037
-0.56338553 -0.40675916 -0.00000018
0.31882270 -0.18976879 -0.00000038
0.43861077 0.26877745 -0.00000090
0.13812748 -0.46812223 -0.00000021
0.31170138 0.30113951 0.36362085
0.44535935 0.27997917 0.14505483
0.20405445 -0.10840310 -0.00000043
0.16474328 -0.10897437 -0.00000043
0.02174571 -0.73687129 -0.00000004
0.51926527 0.16452581 0.22577620
0.08314331 -0.79384161 -0.00000000
-0.74492884 0.66054004 -0.00000007
0.26321338 -0.11261168 -0.00000043
-0.42278782 0.19464830 -0.00000044
-0.02685543 -0.11692434 -0.00000043
0.08134536 0.58309654 -0.00000086
-0.54688531 0.43267408 -0.00000032
0.72773142 -0.00186018 -0.00000092
-0.56414516 -0.72454375 -0.00000005
0.44506845 0.34304855 0.02308423
0.63699865 0.04134542 -0.00000087
-0.48407673 -0.06882626 -0.00000032
0.28038018 -0.41964618 -0.00000024
0.41548261 -0.43643068 -0.00000023
0.33124746 0.46563980 0.00604473
0.54393678 -0.49832134 -0.00000020
0.15101457 -0.36257611 -0.00000027
-0.19416073 0.50931707 -0.00000074
-0.54007229 0.44735924 -0.00000032
-0.03254877 -0.62095837 -0.00000011
-0.17930466 0.37375403 -0.00000073
-0.62701478 -0.06059239 -0.00000017
0.54526047 -0.55832289 -0.00000015
-0.66642093 0.66581362 -0.00000017
0.36898568 0.34955178 0.15826841
-0.06351283 -0.34962809 -0.00000028
0.00509486 -0.72471895 -0.00000005
-0.35500771 -0.19638849 -0.00000038
0.38836865 0.24179490 0.32996641
0.52756999 -0.10909993 -0.00000059
-0.01752150 0.14323964 -0.00000059
0.25182000 0.09709840 -0.00000056
0.05460076 0.56548569 -0.00000085
-0.56691605 0.39698209 -0.00000029
-0.79613868 -0.17106525 0.00000000
0.19836287 0.50286454 -0.00000089
0.46121020 -0.56778613 -0.00000015
-0.17907321 0.03051717 -0.00000052
0.37222519 0.21708206 -0.00000078
-0.32265176 -0.54912055 -0.00000016
0.04822072 -0.55784507 -0.00000015
-0.31707822 0.27404101 -0.00000057
0.36754744 0.32058216 0.21734702
0.68573484 0.11221093 0.00398819
0.41456869 -0.60387453 -0.00000012
-0.08593999 0.57047093 -0.00000086
-0.00808838 -0.06574426 -0.00000046
0.40356531 -0.70116258 -0.00000006
-0.50488359 0.15848206 -0.00000034
0.13922040 -0.54713405 -0.00000016
0.25079959 0.41030436 -0.00000085
-0.20559494 -0.00807927 -0.00000049
-0.78701564 -0.59852745 0.00000000
0.33859310 0.37665772 0.16465395
0.72718037 -0.62668516 -0.00000022
0.59735183 -0.02558397 -0.00000076
0.10233898 -0.44708001 -0.00000022
-0.27651510 0.27171509 -0.00000061
0.66191758 -0.58944591 -0.00000022
-0.19327806 0.13945566 -0.00000059
0.71879888 0.07436941 0.01327022
-0.57049813 -0.69683046 -0.00000006
-0.45076669 -0.61781316 -0.00000011
-0.07064726 -0.25629461 -0.00000034
-0.27203293 -0.03979931 -0.00000048
0.32704301 0.00649857 -0.00000050
0.72101085 -0.37070260 -0.00000052
-0.36051524 0.37776961 -0.00000054
-0.73072246 0.64773939 -0.00000009
-0.70113834 -0.11521781 -0.00000008
-0.15190547 0.47421197 -0.00000078
0.19032156 0.51183596 0.19009149
-0.37888462 0.49164814 -0.00000053
-0.11445019 -0.34753803 -0.00000028
0.31972004 0.44732222 -0.00000096
-0.78576493 0.59689156 -0.00000002
-0.67380392 0.74032520 -0.00000016
-0.53473039 0.32423898 -0.00000033
-0.31159318 -0.01907469 -0.00000049
0.00162300 0.56572815 -0.00000085
0.26903196 0.38777125 0.27820856
-0.11670446 -0.26376135 -0.00000034
0.51691283 0.26453918 0.03603345
-0.59109391 -0.78005981 -0.00000001
0.27662841 0.30087557 -0.00000076
0.34454843 0.01811567 -0.00000053
0.29690258 -0.68472420 -0.00000007
-0.24248983 0.79113088 -0.00000070
-0.55755810 -0.14735179 -0.00000023
0.51675700 -0.48262569 -0.00000020
-0.67040338 0.03405600 -0.00000014
-0.04559061 -0.43961100 -0.00000023
-0.51472653 0.07089572 -0.00000032
0.39074988 0.34561338 -0.00000093
-0.65049797 -0.35050553 -0.00000010
-0.26839428 0.02545267 -0.00000052
-0.07943354 -0.01620665 -0.00000049
-0.32276078 0.40078150 -0.00000058
-0.32154018 -0.51436270 -0.00000018
-0.40661277 -0.06205069 -0.00000041
-0.68479392 -0.14828756 -0.00000010
-0.29009854 0.76942283 -0.00000064
0.48329724 0.17011900 0.28479066
-0.19146197 0.36523781 -0.00000072
0.43626288 -0.35741422 -0.00000028
0.07762506 -0.07571420 -0.00000045
0.04499785 -0.31062094 -0.00000031
-0.19763798 -0.72796093 -0.00000005
0.03695755 0.63391761 -0.00000090
-0.16687179 0.14459915 -0.00000059
-0.17830990 0.75672467 -0.00000078
-0.20954276 0.04021463 -0.00000053
-0.01774754 -0.12275115 -0.00000042
0.05080505 -0.74461863 -0.00000003
0.22849202 -0.19451517 -0.00000038
0.00032155 0.20666519 -0.00000063
0.65113765 -0.63764755 -0.00000016
0.67943733 -0.21033765 -0.00000065
0.17727507 0.47236735 0.29211992
0.13554912 0.10203344 -0.00000056
-0.63978912 0.26662440 -0.00000020
0.45878970 -0.05157322 -0.00000058
-0.34651884 -0.31019888 -0.00000031
0.13548291 -0.05193082 -0.00000047
0.27492406 0.41649314 0.21095909
-0.10975851 -0.45898849 -0.00000021
0.45147154 0.25330624 0.18500174
-0.08881470 -0.51802752 -0.00000018
0.26252552 -0.22486546 -0.00000036
0.53430211 -0.60988708 -0.00000012
-0.00586320 0.20677896 -0.00000063
0.64496285 0.09663485 0.11346532
-0.40649434 -0.74911768 -0.00000003
-0.26419624 -0.60862021 -0.00000012
0.11496571 -0.14428365 -0.00000041
-0.06319154 0.26273695 -0.00000066
-0.22782673 0.21271794 -0.00000063
0.67624396 -0.71036139 -0.00000011
-0.47597475 -0.37543940 -0.00000027
-0.62788116 -0.67358985 -0.00000006
0.67446427 -0.53361967 -0.00000030
0.78417703 -0.60782370 -0.00000024
0.15974411 0.54798735 -0.00000090
0.34371690 0.25852143 0.38422026
0.22958899 -0.76412701 -0.00000002
-0.26651386 -0.40364182 -0.00000025
0.75345017 -0.09532278 -0.00000085
-0.03165076 -0.72351787 -0.00000005
-0.22681658 -0.78071102 -0.00000001
-0.55828216 -0.32059290 -0.00000020
0.21364602 0.43826919 -0.00000084
0.63940682 0.15278453 0.01516830
-0.23558763 0.44860988 -0.00000068
0.47081632 0.31779452 -0.00000099
0.14011239 0.44051622 -0.00000078
0.18082884 -0.13890914 -0.00000041
-0.38430889 0.31885628 -0.00000050
-0.44397811 0.40632272 -0.00000045
0.02940525 -0.40455669 -0.00000025
-0.52964535 0.21352237 -0.00000033
-0.29210786 0.57932850 -0.00000063
0.56387759 -0.54863408 -0.00000016
0.36664033 0.01682184 -0.00000056
-0.40423075 -0.40356665 -0.00000025
0.34109976 -0.75034766 -0.00000003
0.79397925 -0.73947963 -0.00000008
0.01495467 0.20282153 -0.00000063
-0.38922630 0.27860311 -0.00000049
-0.60489846 -0.12662953 -0.00000018
0.50810846 0.25639541 0.06896153
0.18730272 0.27872713 -0.00000067
0.15178612 0.13139862 -0.00000058
-0.44694385 -0.01481656 -0.00000037
0.51329801 0.27849837 0.01593568
-0.45840167 -0.68477490 -0.00000007
-0.21959137 0.07622628 -0.00000055
-0.41927186 -0.16663394 -0.00000038
0.30207900 -0.13865295 -0.00000041
0.59800638 0.11769712 -0.00000091
-0.60151709 -0.63588842 -0.00000010
0.72502459 -0.31347104 -0.00000059
0.61740944 -0.19102582 -0.00000060
0.38627130 -0.79888899 -0.00000000
-0.00437717 0.26506729 -0.00000067
-0.55706113 -0.58944649 -0.00000013
0.09807156 0.44399931 -0.00000078
0.66646102 -0.15865449 -0.00000069
0.42658956 -0.47837382 -0.00000020
-0.63144621 0.44515006 -0.00000021
0.63312738 -0.17945987 -0.00000063
-0.15448925 0.08950892 -0.00000056
-0.02528706 -0.41226669 -0.00000024
0.66829377 -0.75168802 -0.00000006
-0.71652483 0.21281047 -0.00000010
0.12922486 -0.11220681 -0.00000043
-0.02975867 0.51150253 -0.00000082
0.22369320 -0.30541810 -0.00000031
-0.59861427 -0.49995482 -0.00000012
0.26575738 -0.35332337 -0.00000028
-0.64639481 0.36309118 -0.00000019
-0.08821057 0.50129904 -0.00000081
0.17571229 0.41141824 -0.00000077
0.56178257 -0.17785419 -0.00000056
0.03795819 0.72271274 -0.00000096
-0.50733744 0.49449151 -0.00000037
0.21341983 -0.13554586 -0.00000042
-0.22257883 0.45168569 -0.00000070
0.62912287 -0.73845726 -0.00000004
-0.25005753 0.31318661 -0.00000064
-0.59698113 0.33786571 -0.00000025
-0.27798081 0.66838908 -0.00000065
-0.43678356 0.56728919 -0.00000045
-0.17411404 0.56035150 -0.00000077
-0.43460484 -0.05580001 -0.00000038
0.25021888 0.43241365 -0.00000087
-0.40871938 -0.30646458 -0.00000031
-0.57112243 -0.54267777 -0.00000014
0.30514472 0.06554865 -0.00000054
0.68908068 -0.26757675 -0.00000060
-0.24398430 0.40021305 -0.00000067
0.31722642 0.28870482 -0.00000079
-0.72187043 -0.12128566 -0.00000006
0.47904990 0.19029281 0.25384754
0.07968963 -0.61488253 -0.00000012
-0.19565367 0.16811342 -0.00000061
-0.00339056 -0.61685817 -0.00000011
0.39147011 0.06431950 -0.00000063
-0.28395173 0.41615703 -0.00000063
-0.55544576 0.61613519 -0.00000031
0.26801151 -0.46423174 -0.00000021
-0.40543995 0.50137643 -0.00000049
0.61832305 -0.53231127 -0.00000024
-0.12174052 -0.56930045 -0.00000014
0.09986752 0.01087356 -0.00000051
0.62896086 -0.26532162 -0.00000053
0.45933445 -0.69027664 -0.00000007
-0.29487417 0.31764659 -0.00000060
-0.76498222 -0.37518582 0.00000000
-0.01732303 0.69599704 -0.00000093
0.12539017 -0.47348927 -0.00000020
0.74455341 0.03645568 -0.00000098
-0.68671576 0.76092835 -0.00000014
0.19589371 0.47916540 0.24273949
-0.33995739 -0.26753345 -0.00000033
-0.45936069 0.31029983 -0.00000042
0.29006790 0.47246827 0.07278453
0.17688960 0.30320770 -0.00000069
-0.56189459 -0.44758054 -0.00000017
0.58114144 0.02857476 -0.00000080
0.30574765 0.30579704 0.36613909
-0.32612628 -0.51241005 -0.00000018
0.15866216 0.57078907 0.13706381
-0.39154200 0.54763980 -0.00000051
-0.26810087 -0.25185614 -0.00000034
-0.78140889 -0.20893222 0.00000000
-0.20717730 -0.20895352 -0.00000037
-0.53525484 -0.25739124 -0.00000024
-0.04634418 -0.38659386 -0.00000026
0.66745396 0.01881405 -0.00000088
0.37841107 0.15318741 -0.00000071
0.75470121 -0.01058475 -0.00000094
-0.47668901 0.47837448 -0.00000040
-0.32074124 0.46437018 -0.00000060
0.68498207 -0.12008119 -0.00000075
0.73384524 -0.18759728 -0.00000073
-0.18837693 -0.13047995 -0.00000042
0.43938109 0.13007051 -0.00000075
0.79461338 -0.34046224 -0.00000057
-0.25050105 0.61455529 -0.00000069
0.37595732 -0.38502184 -0.00000026
0.24705179 -0.47826388 -0.00000020
0.26144909 -0.15249058 -0.00000040
-0.36573076 -0.50609209 -0.00000018
-0.11095363 0.40931479 -0.00000076
0.43603165 0.25079841 0.21987187
0.44882131 0.29095332 0.11700730
0.16237158 0.35256388 -0.00000072
-0.16062491 0.73613562 -0.00000080
0.27155858 -0.29024605 -0.00000032
-0.44284911 0.57425496 -0.00000045
0.15218447 0.49620231 0.29455917
0.02562597 0.40058012 -0.00000075
-0.68518274 0.69192100 -0.00000014
-0.07822113 0.69823013 -0.00000090
0.25107363 -0.18745023 -0.00000038
-0.66621796 0.75518548 -0.00000017
0.13548946 0.50035425 -0.00000082
-0.11406628 -0.53002077 -0.00000017
0.63833533 0.15918944 -0.00000100
0.00810205 -0.02517626 -0.00000048
-0.05711541 -0.05766656 -0.00000046
0.44943203 0.17387552 0.34328716
-0.46920820 -0.76811306 -0.00000002
-0.28928066 -0.60624946 -0.00000012
-0.54979093 -0.44200852 -0.00000019
0.37365153 -0.06880867 -0.00000047
-0.54315979 -0.32733281 -0.00000021
-0.07543766 0.02297573 -0.00000051
-0.41300119 0.60328350 -0.00000048
0.62378976 -0.17460113 -0.00000063
0.50732683 -0.41242060 -0.00000025
-0.62524930 -0.29774409 -0.00000013
-0.66808610 -0.42572719 -0.00000006
0.55739739 -0.52938919 -0.00000018
-0.49401328 -0.21320458 -0.00000029
0.72705274 0.05866976 -0.00000098
0.42950318 0.25885758 0.21689790
-0.28739199 -0.73638153 -0.00000004
0.72473623 -0.78424987 -0.00000002
-0.03483158 0.61320065 -0.00000088
0.50971661 0.17355627 0.22678301
-0.78419362 0.06221776 -0.00000002
-0.42669337 -0.69938341 -0.00000006
-0.15566840 -0.59188368 -0.00000013
0.12372007 0.25601820 -0.00000066
-0.55059114 -0.50930670 -0.00000017
-0.33711409 -0.55466123 -0.00000015
-0.09568413 0.54258540 -0.00000084
0.15986323 -0.01385334 -0.00000049
0.48248535 -0.04082153 -0.00000062
-0.09638957 -0.27364226 -0.00000033
0.01668256 0.51076124 -0.00000082
-0.59650315 -0.69323965 -0.00000007
-0.54565760 0.39504006 -0.00000032
-0.49165689 0.41014291 -0.00000039
-0.38630695 -0.26803713 -0.00000033
-0.20270514 -0.61711328 -0.00000011
-0.37921311 -0.74033525 -0.00000004
0.73072319 -0.78400881 -0.00000002
-0.46290409 0.58378655 -0.00000042
0.22576312 0.44526715 0.25056719
0.28879529 0.43539561 0.14728451
0.77467194 0.02059641 0.00919008
0.40850992 0.37271754 -0.00000098
0.64594426 -0.52513590 -0.00000028
-0.76254123 0.52588232 -0.00000005
-0.42052075 -0.04019096 -0.00000040
-0.79119265 0.36132792 -0.00000001
-0.10066063 -0.29364140 -0.00000032
0.21129382 0.39180799 -0.00000079
-0.16793446 0.54057238 -0.00000077
-0.68067982 0.58317388 -0.00000015
0.33610515 -0.74118370 -0.00000004
0.26100397 -0.41317038 -0.00000024
0.74398248 -0.66889146 -0.00000016
-0.06936924 -0.14596538 -0.00000041
0.32547743 0.40260375 0.13972618
0.42003121 0.14982217 -0.00000075
0.12022052 -0.00699311 -0.00000050
-0.05855073 0.46731574 -0.00000079
-0.17570498 0.56877252 -0.00000077
-0.24495994 -0.78262872 -0.00000001
0.07212053 0.60449842 -0.00000088
-0.75701448 -0.46474832 0.00000000
0.02170865 0.25659800 -0.00000066
-0.48729849 0.23042935 -0.00000038
-0.36798251 0.76097505 -0.00000054
-0.19769840 0.61510881 -0.00000075
-0.74019179 -0.21082534 -0.00000003
-0.60106798 -0.25872485 -0.00000016
0.24796888 -0.77275420 -0.00000002
0.09780772 0.24763971 -0.00000065
0.51204470 -0.13050759 -0.00000055
0.79385817 -0.60971584 -0.00000024
-0.58136066 -0.05296062 -0.00000022
0.25875211 0.30029434 -0.00000074
-0.06857691 -0.00413983 -0.00000050
-0.17866862 0.44907269 -0.00000075
-0.49528181 -0.05212205 -0.00000032
-0.41830124 -0.56752802 -0.00000015
0.00647312 -0.75482626 -0.00000003
-0.39191842 -0.57879065 -0.00000014
-0.38631363 0.30151259 -0.00000050
0.08234599 -0.39710593 -0.00000025
0.26941992 0.22570513 -0.00000067
0.28944631 0.41534489 0.18497564
-0.60819285 -0.75333276 -0.00000003
-0.21847250 0.76291646 -0.00000073
0.66250280 -0.56180489 -0.00000025
-0.10086812 0.22751585 -0.00000064
-0.08201860 -0.74762270 -0.00000003
-0.55030883 -0.35914767 -0.00000020
-0.44042655 -0.42551522 -0.00000023
0.20860998 0.12747890 -0.00000058
0.34216665 -0.71373406 -0.00000005
-0.14827446 0.36318435 -0.00000073
-0.34285065 -0.76555901 -0.00000002
-0.74735612 0.66194726 -0.00000007
0.68501795 -0.17491000 -0.00000069
-0.59003615 -0.46461431 -0.00000014
-0.79209984 -0.20056112 0.00000000
-0.56792034 0.41545554 -0.00000029
-0.51718720 0.37518518 -0.00000035
0.52835899 -0.51280496 -0.00000018
-0.20643125 -0.62417036 -0.00000011
0.31843230 0.43234170 0.09563693
-0.70937157 -0.40151966 -0.00000002
-0.65469370 -0.03601982 -0.00000015
-0.76943156 -0.09522101 -0.00000002
0.51210772 0.25443234 0.06500548
-0.04819909 0.18951150 -0.00000062
0.72369677 -0.60063084 -0.00000025
-0.43965454 0.49504063 -0.00000045
0.34018789 -0.29955058 -0.00000031
0.02225147 -0.05012009 -0.00000047
-0.08291884 -0.59720673 -0.00000013
-0.14892752 -0.09046070 -0.00000044
-0.01206601 -0.15310949 -0.00000040
-0.11063966 0.22678293 -0.00000064
-0.06804503 -0.13317727 -0.00000042
0.29669708 0.40130965 0.19815689
0.42606037 0.24829963 0.24409961
0.34563346 -0.27150673 -0.00000033
-0.65737763 0.75167824 -0.00000018
-0.17756637 -0.50006516 -0.00000019
-0.39597821 0.77133218 -0.00000051
-0.49238248 0.75577439 -0.00000038
0.39564166 0.21454534 0.36877777
0.05644012 -0.32154093 -0.00000030
-0.23519518 -0.40757527 -0.00000025
-0.23898590 0.15465248 -0.00000060
0.41692710 -0.17031079 -0.00000041
-0.58608769 0.48846383 -0.00000027
-0.35730543 -0.32859552 -0.00000029
-0.51596386 -0.74519340 -0.00000003
0.02247445 0.76511856 0.02410212
-0.48216990 0.51893246 -0.00000040
-0.55663077 -0.29676831 -0.00000021
0.37889958 0.15746400 -0.00000072
0.14116698 0.63953796 0.03748493
0.34846084 0.27378671 0.34534555
0.16948393 -0.05715993 -0.00000046
-0.33095498 0.23748859 -0.00000054
-0.10605063 -0.75270288 -0.00000003
-0.34926791 -0.43464046 -0.00000023
0.25987742 -0.02483610 -0.00000048
0.36581735 -0.19959514 -0.00000038
0.47604005 0.24707788 0.14936916
-0.63161861 0.10571794 -0.00000020
-0.16443607 0.27870721 -0.00000067
-0.45132701 -0.13020702 -0.00000035
-0.42725003 -0.51957838 -0.00000018
-0.29604591 -0.48057680 -0.00000020
-0.25007283 0.08309520 -0.00000055
0.00634395 -0.32046540 -0.00000030
-0.65957601 0.33349507 -0.00000018
0.32279813 -0.70864256 -0.00000006
-0.75578538 -0.73465679 0.00000000
-0.48459048 -0.19580647 -0.00000030
0.77950479 -0.38587973 -0.00000052
0.07058998 -0.15573780 -0.00000040
-0.00122132 -0.24670651 -0.00000035
0.31076800 0.41583255 0.14260288
0.55457560 -0.63374438 -0.00000010
-0.42392127 0.05318204 -0.00000041
-0.76278186 -0.16182350 -0.00000001
0.75730369 -0.63026874 -0.00000021
0.61958794 0.06653545 -0.00000088
-0.43393479 -0.50062553 -0.00000019
0.15586538 -0.38930465 -0.00000026
0.73067668 -0.12165473 -0.00000080
0.68215398 0.01880116 -0.00000089
0.29878275 -0.18757746 -0.00000038
0.30116076 0.45982737 0.07579218
-0.47587122 0.72118818 -0.00000041
0.47309995 0.05239003 -0.00000071
-0.08077515 0.45238504 -0.00000078
-0.61828351 0.15504237 -0.00000022
-0.55549984 -0.08163074 -0.00000025
-0.19920699 -0.63376285 -0.00000010
0.21450919 0.39747501 0.36528425
0.25635467 0.31158417 0.45085786
0.17974263 -0.07271909 -0.00000045
-0.27044281 -0.76137459 -0.00000002
0.22739877 0.46816173 0.20290885
-0.53952825 -0.78102410 -0.00000001
0.17127670 0.04458606 -0.00000053
-0.76479789 0.16578277 -0.00000004
0.33865601 -0.18320233 -0.00000039
-0.78683930 0.50335302 -0.00000002
0.20768946 -0.32842301 -0.00000029
-0.29917209 -0.23052202 -0.00000036
-0.25632426 0.77901063 -0.00000068
-0.69550004 -0.66664645 0.00000000
-0.73213740 -0.61110236 0.00000000
0.39758962 0.01547752 -0.00000059
-0.31451075 0.10396895 -0.00000054
0.49766526 0.06305070 -0.00000074
-0.45526933 -0.37719440 -0.00000026
0.00697333 -0.17978313 -0.00000039
-0.09806147 0.57313270 -0.00000085
-0.52250279 0.33701272 -0.00000035
-0.77146189 -0.58186493 0.00000000
0.15245691 -0.40323536 -0.00000025
0.07840017 0.61852220 -0.00000089
-0.53116756 -0.62998422 -0.00000011
-0.05092478 0.06191015 -0.00000054
0.33256174 0.39764431 -0.00000093
0.57936926 -0.01461887 -0.00000075
-0.25568711 -0.19363401 -0.00000038
0.58570269 -0.43198090 -0.00000031
-0.43932005 0.09184771 -0.00000040
-0.48113645 -0.24363970 -0.00000030
0.39751178 0.38620888 0.03162577
-0.22549243 -0.67872723 -0.00000008
0.32454090 -0.62278405 -0.00000011
-0.09010484 -0.41317996 -0.00000024
-0.60792589 -0.11427768 -0.00000018
-0.47108845 0.28787114 -0.00000040
-0.58792970 -0.37040759 -0.00000016
-0.14498262 0.09349553 -0.00000056
-0.51537437 0.43215980 -0.00000036
-0.79074871 0.60756491 -0.00000001
0.02757487 0.27436635 -0.00000067
0.54436939 -0.60752303 -0.00000012
-0.30991474 0.72361213 -0.00000061
-0.53707715 0.10576770 -0.00000030
-0.28919692 0.53282084 -0.00000064
-0.29965946 0.13014472 -0.00000056
0.24997966 -0.13390438 -0.00000042
0.03709911 0.21831717 -0.00000064
0.44978260 -0.69103499 -0.00000007
-0.06482377 -0.55536222 -0.00000015
-0.15725116 0.17495620 -0.00000061
0.23616303 0.38700238 0.34356116
-0.31229738 -0.35199073 -0.00000028
-0.27502545 0.64883716 -0.00000066
-0.04950255 0.33481441 -0.00000071
-0.26213864 -0.43530452 -0.00000023
0.06823923 0.20031691 -0.00000063
-0.49112462 0.17957938 -0.00000036
0.20767644 -0.28047618 -0.00000032
-0.31185081 -0.42933349 -0.00000023
0.01272243 -0.05630360 -0.00000046
-0.46787776 -0.42613489 -0.00000023
0.12475404 0.26924348 -0.00000067
0.27717251 -0.49555236 -0.00000019
-0.51353884 0.19447003 -0.00000034
0.37053072 0.34748017 -0.00000091
0.40866959 0.24987247 0.27483165
-0.09470363 -0.01862826 -0.00000049
0.27786814 0.33942704 0.35496651
0.40830183 -0.08738193 -0.00000049
0.56827728 0.14336059 -0.00000091
-0.33799847 -0.52884329 -0.00000017
0.43193853 -0.17578315 -0.00000042
0.67850008 -0.48903133 -0.00000035
-0.41486282 0.75894803 -0.00000048
-0.23375630 0.45430163 -0.00000069
-0.47286836 -0.77805822 -0.00000001
-0.42808002 -0.18719504 -0.00000036
-0.15168628 -0.61325062 -0.00000012
-0.13563835 -0.71703613 -0.00000005
-0.20273818 0.30062574 -0.00000069
0.58281864 -0.14139811 -0.00000062
-0.53226649 -0.32541982 -0.00000023
-0.38654403 -0.03485189 -0.00000043
0.78211975 -0.46549968 -0.00000042
-0.46719136 0.10405867 -0.00000037
-0.43747803 -0.09358450 -0.00000037
-0.42676267 0.78167919 -0.00000047
-0.34601232 -0.79964095 -0.00000000
0.53903242 0.12841857 -0.00000086
0.45160036 0.22244741 0.24470623
-0.17006175 0.38404607 -0.00000074
-0.45243774 0.56631871 -0.00000043
-0.57262248 -0.71805210 -0.00000005
0.07862316 0.61332739 -0.00000088
0.14882469 0.47434612 -0.00000081
-0.62253977 -0.30247998 -0.00000013
-0.23648084 -0.00372228 -0.00000050
-0.67762167 0.51078859 -0.00000015
-0.12897895 -0.76244803 -0.00000002
-0.11183856 -0.72090163 -0.00000005
0.68149020 0.08867119 0.05796969
-0.51951706 0.36242747 -0.00000035
-0.62073558 -0.38911226 -0.00000012
0.18570017 -0.16687487 -0.00000040
0.25763304 -0.65365886 -0.00000009
0.62789602 -0.24743375 -0.00000055
0.45831874 0.28293500 0.11413359
0.34696943 -0.43509706 -0.00000023
0.74719699 -0.62991486 -0.00000021
-0.08046384 0.78106724 -0.00000090
-0.66480296 0.07369246 -0.00000016
0.61516305 -0.17430839 -0.00000062
0.54225862 0.23794799 0.03845311
0.52494315 0.23316084 0.08139570
0.10987141 -0.66887514 -0.00000008
-0.46873809 0.21201205 -0.00000039
0.15785962 -0.20661971 -0.00000037
-0.19151444 -0.06107820 -0.00000046
-0.36262862 0.25737734 -0.00000051
-0.38532073 -0.37203834 -0.00000027
0.51792537 0.15027723 -0.00000086
-0.17406588 0.16391223 -0.00000060
-0.45775456 0.72524575 -0.00000043
0.72982217 -0.27645590 -0.00000063
-0.01072877 -0.74655100 -0.00000003
0.67417857 -0.10901348 -0.00000075
0.68827885 -0.27378073 -0.00000059
-0.49557179 -0.04701871 -0.00000032
-0.63620741 0.62621395 -0.00000020
0.33792245 0.19356080 -0.00000071
0.40127868 -0.57923308 -0.00000014
0.53167615 0.19560822 0.14127429
0.25383514 0.42625734 0.23296102
-0.74521738 0.59974321 -0.00000007
0.24166022 0.33449934 0.43488617
0.36160273 -0.17374013 -0.00000039
0.04548143 -0.40840445 -0.00000024
-0.69051727 0.59570347 -0.00000014
0.22029513 0.44936950 0.25322037
0.37915535 -0.55806835 -0.00000015
0.00013850 0.14582118 -0.00000059
-0.75266763 0.56083273 -0.00000006
0.79217813 -0.50030772 -0.00000037
-0.75463845 0.48451461 -0.00000006
-0.57656297 0.09383140 -0.00000026
-0.12781423 -0.68343474 -0.00000007
-0.16635840 0.67099900 -0.00000079
-0.76253337 0.69814391 -0.00000005
0.24529466 0.54577822 -0.00000099
-0.37622017 0.56362447 -0.00000053
0.23817599 -0.57969759 -0.00000014
0.12460433 -0.71034782 -0.00000006
-0.23683918 -0.72595391 -0.00000005
0.56970388 -0.41445283 -0.00000031
-0.61749459 -0.48793104 -0.00000011
0.56980047 -0.15589793 -0.00000059
-0.57021523 -0.45138683 -0.00000016
0.48469514 -0.67560067 -0.00000008
0.23557116 0.44702472 -0.00000087
0.16789583 0.62780396 0.00835185
-0.22948868 -0.22235595 -0.00000036
-0.49039455 -0.13862278 -0.00000030
-0.67166696 -0.55042419 -0.00000004
-0.26887334 0.11630079 -0.00000057
0.02848079 -0.42738743 -0.00000023
0.37008656 -0.00471247 -0.00000054
0.76408093 -0.04897010 -0.00000091
0.37977235 0.28832533 -0.00000086
-0.07301360 -0.00891380 -0.00000049
-0.51114086 -0.59377272 -0.00000013
0.68437957 0.05809363 -0.00000094
-0.46876413 0.33655071 -0.00000041
-0.42747893 0.05685348 -0.00000041
0.50811831 -0.12721870 -0.00000055
-0.11846667 0.34013861 -0.00000071
0.04749805 -0.12213202 -0.00000042
-0.73518354 0.71485473 -0.00000008
-0.32100885 0.64477557 -0.00000060
-0.03243044 -0.63675530 -0.00000010
0.05396764 0.29202359 -0.00000068
-0.40438183 -0.48308774 -0.00000020
0.32838213 0.27615714 -0.00000079
-0.67101424 0.11918073 -0.00000016
-0.24892758 0.60828904 -0.00000069
-0.40410588 -0.17690757 -0.00000039
-0.28158126 0.58850372 -0.00000065
0.56927227 0.13420452 0.18752939
0.21013467 0.12389504 -0.00000058
-0.68349454 0.38326301 -0.00000015
0.37778252 0.25809112 0.31887250
0.45120795 -0.08570508 -0.00000054
-0.72770033 0.63232049 -0.00000009
-0.48788208 0.74364739 -0.00000039
0.18752451 0.53580218 -0.00000092
0.53506151 -0.15394524 -0.00000055
0.32456449 0.20070164 -0.00000071
-0.40856995 -0.12401344 -0.00000039
0.04177930 0.04967232 -0.00000053
0.11723854 -0.47032582 -0.00000021
0.30669950 -0.75771019 -0.00000003
0.33427684 0.06207823 -0.00000057
-0.12094500 -0.56258331 -0.00000015
0.27138766 -0.62476726 -0.00000011
0.57620668 -0.51135761 -0.00000022
-0.76055130 -0.67336434 0.00000000
0.05102351 -0.14874223 -0.00000041
0.40070762 0.28559026 0.22090583
-0.21624538 -0.64148695 -0.00000010
-0.11977841 -0.37718792 -0.00000026
-0.62819283 0.60548993 -0.00000021
0.32930125 -0.73344775 -0.00000004
0.54960582 -0.77473969 -0.00000002
-0.36663338 0.68491626 -0.00000054
0.29903929 -0.75124500 -0.00000003
0.36802230 0.25556693 0.34273907
0.02274661 0.21552214 -0.00000063
-0.72766550 -0.49353808 0.00000000
0.42368586 -0.01900494 -0.00000058
0.19046431 -0.56595668 -0.00000015
0.32947412 -0.70406805 -0.00000006
-0.27572028 0.11123093 -0.00000057
0.55175364 -0.36075531 -0.00000035
-0.31928991 0.64405098 -0.00000060
0.58245000 -0.59365400 -0.00000013
-0.37559765 0.15116724 -0.00000048
-0.25050874 0.18772422 -0.00000062
0.24408981 0.54058163 0.02977852
0.31268712 0.48513332 0.00423168
-0.23088469 0.14943401 -0.00000059
-0.10533295 0.76559136 -0.00000087
0.12630986 0.65537834 0.03557459
0.17447792 0.55732219 -0.00000093
-0.57168176 0.48675219 -0.00000029
-0.59785852 0.61597267 -0.00000025
-0.26513568 0.64494135 -0.00000067
-0.30994330 0.57736513 -0.00000061
0.74210678 -0.22130975 -0.00000070
0.51726370 0.23783405 0.08723644
-0.25591371 0.68786925 -0.00000068
-0.00274441 -0.61754356 -0.00000011
-0.15453428 0.64117364 -0.00000081
0.40198858 0.35793210 0.07786609
0.11667790 0.39441709 -0.00000075
-0.01571182 0.31541305 -0.00000070
0.23910990 0.45421182 -0.00000089
0.33317744 0.46155719 0.01022703
0.17780179 0.27543583 -0.00000067
0.43816885 0.25039914 0.21649528
-0.67927370 0.61524299 -0.00000015
0.52028825 -0.15707523 -0.00000053
-0.29362756 -0.19118845 -0.00000038
-0.54233644 -0.56319506 -0.00000015
-0.60512115 -0.20695782 -0.00000017
0.09718614 -0.71181848 -0.00000006
-0.37093735 -0.65422860 -0.00000009
-0.22870618 -0.33697069 -0.00000029
0.06127063 0.32693521 -0.00000070
-0.00519284 -0.69516611 -0.00000007
-0.56616379 0.25360052 -0.00000029
0.46540225 0.22184285 0.21906548
-0.10705871 -0.39917369 -0.00000025
-0.41698951 -0.32675813 -0.00000030
0.47184402 0.19088101 0.26670486
-0.46075757 0.34381436 -0.00000042
-0.10000612 0.25348854 -0.00000066
0.41155704 -0.34426800 -0.00000028
-0.58803187 -0.32008721 -0.00000017
-0.28411529 0.60277247 -0.00000064
-0.39857829 -0.12479073 -0.00000041
-0.14063142 0.06996960 -0.00000054
-0.43252041 -0.26157594 -0.00000034
0.56156968 -0.34390869 -0.00000038
-0.46100380 0.43176013 -0.00000042
-0.77427217 0.55188410 -0.00000003
-0.29761277 -0.23177589 -0.00000036
0.74686271 -0.16807672 -0.00000076
-0.06741485 -0.40683348 -0.00000025
0.43772431 0.31658774 -0.00000095
0.53465746 -0.45212328 -0.00000023
-0.70391957 0.28277028 -0.00000012
-0.02945954 0.23923094 -0.00000065
-0.03522899 0.70198963 -0.00000094
0.68444407 -0.72908179 -0.00000009
0.40180982 0.37588584 -0.00000098
0.11912684 -0.59813458 -0.00000013
0.40922993 0.27248626 0.22980748
-0.03872452 0.44912469 -0.00000078
-0.12864515 -0.28681957 -0.00000032
0.38787649 0.24268633 0.32919069
-0.32721342 0.16318570 -0.00000053
-0.20732288 0.66693245 -0.00000074
0.28333642 0.06330718 -0.00000054
0.40768093 0.30106193 0.17729809
0.77630020 -0.28826884 -0.00000064
0.29883975 0.44225107 0.11445013
-0.73527669 -0.11543136 -0.00000005
0.76236999 -0.14466390 -0.00000081
0.46640170 0.02853016 -0.00000067
0.17247258 -0.53051861 -0.00000017
-0.38512785 0.32098851 -0.00000050
0.66075628 0.12008014 0.03722946
-0.43306682 0.56487008 -0.00000046
0.67968971 -0.29094007 -0.00000056
0.38163876 -0.19854534 -0.00000038
0.67773297 0.11927366 0.00581281
0.58301838 -0.10659731 -0.00000065
-0.11112895 0.03142244 -0.00000052
-0.33787631 -0.24105251 -0.00000035
0.32100479 0.22988541 -0.00000073
0.35457673 -0.40289288 -0.00000025
-0.23598945 -0.38699118 -0.00000026
