ply
format ascii 1.0
element vertex 1400
property float x
property float y
property float z
end_header
0.01141745 0.24955663 0.02689726
-0.13566361 0.53264923 0.00000186
0.22293788 -0.41832221 0.52519730
-0.06419794 -0.63145928 0.00000000
-0.14310769 -0.52353251 0.00000000
0.14968887 -0.13837552 0.35263747
0.15651475 -0.22304969 0.36871790
0.11756313 -0.59456168 0.27695555
0.11050636 -0.14664780 0.26033119
0.01632791 0.21780598 0.03846533
-0.55825102 -0.07038614 -0.00000084
-0.45158104 -0.59326744 0.00000000
0.20505202 0.10730015 0.48306075
0.27353496 -0.30768874 0.64439304
0.25767529 -0.50357606 0.60703148
-0.53701072 -0.22118755 -0.00000049
-0.76595856 -0.06384469 -0.00000174
0.30528194 -0.64940157 0.71918396
-0.07916353 -0.09367595 0.00000000
-0.39338339 0.07680196 0.00000453
0.01394081 0.61197170 0.03284784
0.22392062 -0.59146693 0.52751283
0.05778786 -0.04276501 0.13613680
0.10783831 0.11963048 0.25404580
-0.67174263 -0.76006293 -0.00000010
-0.66532079 -0.63318903 -0.00000031
0.16640136 -0.11926018 0.39200853
-0.02084720 0.68595382 0.00000140
0.18665836 -0.07366338 0.43972963
-0.43242203 -0.50535700 0.00000000
0.00784976 0.35921794 0.01849248
-0.25247193 -0.19444592 0.00000000
-0.13386359 0.30549465 0.00000000
0.20212047 -0.58704969 0.47615597
0.08879464 -0.67589595 0.20918267
0.19545113 0.07274975 0.46045261
0.00154627 0.48416356 0.00365478
0.16102535 0.14298371 0.37935335
-0.06274760 -0.40791663 0.00000000
-0.36648276 0.24209582 -0.00000058
0.20523908 -0.49038492 0.48350279
0.22828020 0.08580669 0.53778687
-0.11551080 0.05624542 0.00000941
-0.24506749 0.11411903 0.00000659
-0.08472139 -0.77884422 0.00000000
0.26356563 -0.78355767 0.62090864
0.06396564 0.35586521 0.15070195
0.21842380 -0.14032431 0.51456242
-0.42118944 -0.38434095 0.00000000
0.29211391 -0.54525210 0.68816209
0.26287068 -0.42274685 0.61927053
0.04454159 0.28116558 0.10493121
0.22130933 -0.59463400 0.52136114
0.07555593 -0.33934504 0.17799487
-0.24409116 0.37709419 0.00000238
-0.08365830 -0.61807671 0.00000000
-0.13021748 -0.33282958 0.00000000
0.04694444 0.08744377 0.11061524
-0.00209206 -0.61544525 0.00000000
-0.00793669 -0.16143234 0.00000000
0.05932257 -0.26924860 0.13975228
-0.01460342 0.53571859 0.00000374
-0.11326561 0.07021410 0.00000924
-0.20974108 0.48094476 0.00000130
0.30937237 -0.31937917 0.72881888
0.12712153 -0.10314239 0.29947326
-0.47814421 -0.00388915 -0.00000062
-0.66183265 -0.47415845 -0.00000057
0.25625612 -0.00492380 0.60368702
0.08786063 -0.14508262 0.20698232
-0.71130880 -0.50936418 -0.00000072
0.12840290 -0.39569157 0.30249193
0.02588902 0.52112069 0.06099791
-0.08867926 0.12195210 0.00000000
0.03680213 -0.20690355 0.08669857
0.05708597 -0.28794758 0.13448328
0.23709171 -0.39864795 0.55854068
0.21507150 0.16563185 0.50666787
-0.33178654 0.36765541 -0.00000065
-0.52575832 -0.41920876 -0.00000009
0.03232328 -0.66575695 0.07614727
0.04094233 0.19152511 0.09647196
-0.03671146 -0.08480475 0.00000000
0.02790206 -0.65442962 0.06573176
0.14779149 -0.56000746 0.34816760
0.02305776 -0.33699621 0.05431954
-0.27295463 -0.03083588 0.00000000
-0.34693916 0.21882182 -0.00000045
-0.11681228 -0.33026028 0.00000000
0.08968778 0.55243483 0.21128673
0.14514616 -0.33452776 0.34193574
-0.08113991 0.24430984 0.00000000
-0.33273318 0.32035746 -0.00000057
0.23545612 0.04643851 0.55468651
-0.29516590 -0.56108487 0.00000000
0.26187539 -0.07635389 0.61692500
0.10482016 -0.32672173 0.24693563
0.28092284 -0.77080216 0.66179895
0.24499690 0.16087485 0.57716280
0.27766111 -0.03080182 0.65411271
0.06986276 0.31640781 0.16459540
0.20624106 -0.21162457 0.48586264
0.02545424 0.21868423 0.05998538
-0.19664067 0.30406677 0.00000447
-0.30652631 -0.59795301 0.00000000
-0.34282764 -0.78733863 0.00000000
-0.26938983 0.13774185 0.00000000
-0.22584124 0.49208751 0.00000081
-0.43636092 -0.26608211 0.00000000
0.07766108 0.48868987 0.18295380
-0.46728696 0.33067108 -0.00000116
-0.30373641 0.15185784 -0.00000015
-0.54975227 -0.05718120 -0.00000083
-0.09466659 0.13847607 0.00000000
0.23993312 -0.37321256 0.56523438
-0.36372239 0.40233647 -0.00000085
0.01836243 0.41918981 0.04325827
0.25439490 -0.39220748 0.59930330
-0.30724467 0.18123079 0.00000444
0.25005819 -0.42530983 0.58908702
0.07802024 0.33489479 0.18381129
0.10564886 0.10152814 0.24890555
0.03504283 0.41815584 0.08255401
-0.16281598 0.33596560 0.00000450
0.08019252 0.09467204 0.18891777
0.12246364 0.19345315 0.28849984
0.03234697 0.01789626 0.07620308
0.20898600 0.17272025 0.49232820
0.04453187 -0.26246683 0.10490831
-0.15921970 -0.28458551 0.00000000
-0.15949169 -0.16439290 0.00000000
0.10714455 0.45709245 0.25241066
-0.02111764 0.60640518 0.00000000
-0.00773058 0.33138841 0.00000691
0.00462030 0.52909251 0.01088452
-0.19823529 -0.23841485 0.00000000
-0.40647694 -0.46644763 0.00000000
-0.20522624 -0.28194837 0.00000000
0.05122204 0.61399984 0.12066872
0.13221477 0.38027128 0.31147434
-0.57744835 -0.63342680 0.00000000
-0.33159922 -0.14718365 0.00000000
0.10843580 0.50019893 0.25545339
-0.79031243 -0.10466215 -0.00000174
-0.14047065 0.29037649 0.00000000
-0.23406372 0.33464070 -0.00000018
-0.13238186 -0.29375336 0.00000000
0.04439069 -0.79905601 0.10457570
0.06202859 -0.34264460 0.14612714
0.02858172 0.61798171 0.06733289
-0.49862158 -0.23747370 -0.00000029
-0.04342989 -0.18472327 0.00000000
0.17595908 -0.69308839 0.41452490
-0.50571075 0.24879472 -0.00000118
0.17662457 -0.35701045 0.41609267
-0.05872158 0.48806888 0.00000379
-0.02664634 -0.24295764 0.00000000
0.27297051 -0.76813437 0.64306474
-0.65672618 -0.52436464 -0.00000046
-0.26335556 -0.08384827 0.00000000
-0.59203313 -0.24627334 -0.00000068
0.29941011 -0.65702988 0.70535104
-0.11249451 0.31326747 0.00000000
0.09726082 0.46946280 0.22912666
-0.15006567 -0.55730858 0.00000000
-0.59030786 -0.14374548 -0.00000085
-0.18484250 -0.69985948 0.00000000
0.00737573 0.55979706 0.01737576
-0.00203734 -0.10466865 0.00000000
-0.25260420 0.39599001 0.00000190
0.05822336 -0.69688434 0.13716276
0.24792912 0.05947104 0.58407463
-0.61272865 0.15972510 -0.00000107
0.29824909 -0.59204964 0.70261564
-0.63350555 -0.09920420 -0.00000111
-0.39370738 -0.27873688 0.00000000
-0.17527397 0.14677505 0.00000715
0.27778158 -0.15099940 0.65439680
-0.64757752 0.09005359 -0.00000058
0.07055173 0.11021515 0.16620598
-0.23187067 -0.39141728 0.00000000
-0.39784651 0.17530445 -0.00000059
0.24380585 -0.56404337 0.57435817
-0.40398241 0.38500974 -0.00000083
0.29911432 -0.47276515 0.70465346
0.23406343 0.18503438 0.55140528
-0.24154693 -0.27141827 0.00000000
0.08401830 0.39707032 0.19793026
0.13896471 -0.40721236 0.32737345
-0.05538997 -0.09787018 0.00000000
0.13304161 0.31638115 0.31342494
-0.46476967 0.33386167 -0.00000114
0.25819726 -0.45671991 0.60826103
0.12040791 -0.50085872 0.28365729
0.00873625 0.12276461 0.02060628
-0.37433356 -0.05514309 -0.00000009
0.06806163 -0.21500182 0.16033977
-0.71025653 0.05981894 -0.00000172
0.01873174 0.38260808 0.04414275
-0.30126831 0.09540796 0.00000598
-0.06995901 0.38028073 0.00000524
-0.12347195 0.44540801 0.00000346
-0.56822809 -0.71601333 0.00000000
0.22333113 -0.36577776 0.52612359
-0.08718279 0.37550710 0.00000505
-0.52121561 -0.25663814 -0.00000036
0.04628455 -0.65035856 0.10903727
-0.27025858 -0.08411027 0.00000000
0.27569948 -0.39308691 0.64949239
0.18221737 -0.13393270 0.42926772
0.23597971 -0.79018515 0.55592168
-0.17359290 0.23869437 0.00000580
-0.12342712 0.05624409 0.00000929
-0.00039268 0.43766394 0.00000543
0.09426632 -0.45721140 0.22207287
-0.01346047 -0.49152032 0.00000000
0.24654320 0.05229408 0.58081016
0.21375320 -0.42609591 0.50356015
-0.33915261 -0.46754668 0.00000000
-0.61362355 -0.36783447 -0.00000055
-0.57080595 0.10361761 0.00000067
0.25023659 0.15822129 0.58950589
-0.13605968 -0.67872260 0.00000000
0.03688927 0.48534842 0.08690384
0.24514224 -0.29828420 0.57750578
0.23791427 -0.42567556 0.56047853
-0.54813311 -0.47414473 -0.00000009
0.28150503 -0.51518427 0.66316942
-0.08883261 -0.42212389 0.00000000
-0.46164110 -0.30031747 -0.00000003
0.19859232 0.22672588 0.46784547
-0.21647780 0.28989120 0.00000436
0.16672589 0.22836876 0.39277222
-0.16949054 0.57086516 0.00000057
0.13180609 -0.54234474 0.31050916
0.02478085 -0.22435828 0.05837879
0.21276841 -0.23473649 0.50123976
0.12973910 0.41355439 0.30564099
-0.75114960 -0.08187600 -0.00000165
-0.32526990 0.04748086 -0.00000006
0.03488739 0.29656299 0.08220418
0.24599354 -0.26944962 0.57951119
-0.45604220 0.10745487 0.00000281
0.29689084 -0.58399987 0.69941582
0.09336376 0.01761672 0.21996860
0.18557906 -0.19068291 0.43718729
0.08606181 0.05570369 0.20274466
0.20039142 -0.15345064 0.47208200
0.10745790 0.35886511 0.25315600
-0.25567345 -0.79989569 0.00000000
0.27592308 -0.23244554 0.65001875
-0.13617518 0.08630986 0.00000865
-0.22455509 0.22054367 0.00000530
-0.07583587 0.43609478 0.00000431
-0.28461984 0.45824707 0.00000024
-0.28479526 0.43531710 0.00000062
0.24273383 -0.54738714 0.57183266
-0.69950548 -0.10726672 -0.00000138
-0.52821150 -0.34375707 -0.00000023
-0.28057265 -0.46555854 0.00000000
-0.18546910 -0.04268245 0.00000000
-0.44600321 0.16652606 0.00000202
0.19524050 0.25684349 0.45994833
-0.66560795 -0.59624803 -0.00000037
0.03330700 -0.50279111 0.07846473
-0.61194262 -0.37373302 -0.00000054
-0.25925889 0.41358564 0.00000148
0.11101873 0.25458306 0.26154876
0.22486847 -0.59246843 0.52974577
-0.11267561 0.64333849 -0.00000020
0.08390623 0.11274211 0.19768569
0.09074179 0.55772027 0.21376899
0.22624396 -0.67817889 0.53298615
0.10147212 -0.41750480 0.23904832
-0.73800634 0.01575140 -0.00000176
0.27565322 -0.32901992 0.64938325
0.02055381 -0.63257674 0.04842073
0.11470634 0.20856581 0.27022524
-0.46121639 -0.68301336 0.00000000
-0.33557033 0.22739282 0.00000312
-0.70516670 -0.41621767 -0.00000086
0.30628850 0.00192024 0.72155267
-0.25679537 -0.09073654 0.00000000
0.19672322 0.21025556 0.46344320
-0.02393137 -0.66369551 0.00000000
0.03766059 -0.23912647 0.08872093
-0.74812064 -0.04431330 -0.00000170
-0.29746689 -0.46727267 0.00000000
-0.26240427 -0.68992758 0.00000000
-0.18792848 0.51840029 -0.00000030
-0.55050807 0.18874808 -0.00000036
0.03711465 0.03908933 0.08743479
-0.57309298 0.09445512 -0.00000120
-0.24274422 0.29454991 -0.00000014
0.17773661 -0.05890178 0.41871183
-0.62181901 0.15580149 -0.00000151
-0.60132118 0.06768973 -0.00000127
-0.25063889 0.45751193 -0.00000046
-0.38210041 -0.66575468 0.00000000
-0.56017545 0.11991377 0.00000060
0.03683290 0.22794221 0.08677106
0.05675017 -0.15642983 0.13369222
-0.36002704 0.02685983 -0.00000017
-0.49900968 -0.10006144 -0.00000054
-0.59093236 0.10862635 0.00000020
0.22988577 -0.51112591 0.54156529
0.26317533 -0.41646340 0.61998821
0.06547643 0.16530968 0.15426830
0.05745439 0.15185162 0.13537119
-0.17709064 0.38540681 -0.00000002
0.09567635 -0.65481106 0.22539461
-0.59562063 -0.39781043 -0.00000042
0.09173347 0.16340643 0.21610596
0.21152076 -0.26068364 0.49830062
0.05484743 0.31529663 0.12920974
0.03025371 0.08840832 0.07129659
0.05958627 0.16533389 0.14039275
-0.66019475 -0.14959169 -0.00000114
-0.10202955 0.02936289 0.00000000
-0.34839011 0.30645621 -0.00000061
0.21848498 0.09866277 0.51470597
-0.10833717 -0.16074408 0.00000000
-0.25657206 -0.02781115 0.00000000
0.25325961 0.10735556 0.59662760
-0.11439387 -0.28936051 0.00000000
0.31139070 -0.15513929 0.73357299
0.24091591 0.10039020 0.56755194
0.30035045 -0.69270751 0.70756646
0.26232862 -0.58119437 0.61799394
0.07390725 0.46935605 0.17411061
0.18740060 0.11252161 0.44147773
0.09410166 0.47269002 0.22168794
0.23012966 -0.33967285 0.54213943
-0.24586853 0.37376387 0.00000240
-0.39511487 -0.00691550 -0.00000026
-0.25879796 0.26718084 -0.00000016
-0.03648996 0.37508931 0.00000000
-0.05532289 0.59758205 0.00000220
0.10263176 0.00851181 0.24178019
-0.39262590 -0.60306957 0.00000000
-0.02200914 0.27440350 0.00000000
0.02326810 -0.44912966 0.05481507
0.27002226 -0.19914514 0.63611760
0.06861523 0.44873828 0.16164379
0.08846839 -0.21461138 0.20841408
0.14520030 0.35563992 0.34206522
0.03489049 0.10885142 0.08219512
0.19392184 0.11214497 0.45684835
0.09323837 -0.70009158 0.21965121
-0.59047500 -0.63076186 0.00000000
-0.47528963 0.28848097 -0.00000058
0.04671653 0.35858702 0.11006787
-0.13455845 0.01065422 0.00000981
0.06210070 -0.47759109 0.14629701
0.07751572 0.29907167 0.18262427
0.08373269 0.58561013 0.19725697
0.25963730 -0.55175941 0.61165367
0.02851991 0.32324418 0.06718729
-0.18439181 -0.06337304 0.00000000
-0.29670315 0.21946636 0.00000400
-0.56165864 -0.24748839 -0.00000055
0.20881714 -0.78299720 0.49193201
0.09946400 -0.00863272 0.23431757
0.17607775 0.07701896 0.41481490
0.20310514 -0.52216408 0.47847566
0.08346190 -0.44013997 0.19661978
-0.41226925 -0.07428865 -0.00000021
0.00930572 -0.41673815 0.02192243
-0.66924193 -0.74361761 -0.00000013
-0.08528796 0.53590720 0.00000267
-0.08177336 -0.18157407 0.00000000
0.16459527 -0.17203883 0.38775390
0.29914710 -0.64496721 0.70473139
-0.58906483 -0.73210107 0.00000000
0.25675701 -0.16571151 0.60486739
-0.20677318 0.44885528 -0.00000026
-0.09739263 -0.61843025 0.00000000
-0.10673447 0.28398583 0.00000000
-0.10346229 -0.37977874 0.00000000
-0.08596232 -0.03392368 0.00000000
-0.11505620 0.07713921 0.00000911
-0.63804716 -0.58704243 -0.00000027
0.18889338 -0.40459783 0.44499557
-0.28695833 -0.74686876 0.00000000
0.02262225 0.02267237 0.05329356
0.23586085 -0.08322508 0.55564027
0.01220667 0.48759313 0.02875651
0.08753533 0.33140719 0.20621581
0.27183041 -0.49778789 0.64037792
-0.00251029 0.55855540 0.00000358
-0.26013962 -0.70270800 0.00000000
0.29933968 -0.62368622 0.70518498
0.19580021 0.00362424 0.46127798
0.24440609 -0.16202845 0.57577124
-0.38705062 -0.73882412 0.00000000
0.06797602 0.09233008 0.16013811
0.20828267 -0.52336601 0.49067291
-0.26310232 -0.57082907 0.00000000
0.03625449 -0.34899908 0.08540843
0.17278871 0.32174247 0.40705622
-0.22047598 0.00860247 0.00000000
-0.50478734 -0.11892437 -0.00000053
0.27864381 -0.24741475 0.65642826
-0.49664831 -0.65627802 0.00000000
0.09570604 0.48923106 0.22546663
-0.25401220 0.42628903 0.00000136
-0.28140240 -0.44120726 0.00000000
-0.50303742 -0.46847193 0.00000000
-0.27971541 -0.62255603 0.00000000
0.04588580 0.47953482 0.10809789
-0.22416211 -0.55946274 0.00000000
-0.14902806 -0.01659479 0.00000000
0.11536544 0.15015578 0.27177807
-0.16638038 0.57069681 -0.00000030
-0.77231722 -0.25450156 -0.00000136
0.13554019 -0.44308114 0.31930597
-0.09984267 -0.56744050 0.00000000
-0.39019985 -0.12490569 -0.00000003
0.12614025 0.40453815 0.29716366
0.13371157 -0.41968182 0.31499809
-0.09118959 -0.40646723 0.00000000
-0.70816499 -0.37448253 -0.00000095
-0.05313248 0.54828922 0.00000000
0.16910767 0.33138499 0.39838295
0.30377924 -0.15923536 0.71564183
0.00337088 0.05275089 0.00794113
-0.53293077 -0.70737441 0.00000000
0.08228349 -0.00466067 0.19384367
0.04937431 0.16877162 0.11631615
-0.12380400 0.13493157 0.00000811
-0.63418667 -0.27046928 -0.00000081
0.12012377 0.36958842 0.28299227
0.08685781 0.40632159 0.20462665
0.28265981 -0.35435842 0.66588936
-0.14069729 0.23859070 0.00000630
-0.30718951 -0.07717698 0.00000000
-0.16018148 0.36334613 0.00000000
-0.17560134 -0.42757986 0.00000000
-0.37640646 0.37688557 -0.00000086
0.01460603 0.51113478 0.03441880
-0.34811739 0.28862494 -0.00000058
0.01110713 0.48516859 0.02616621
0.28260985 -0.47447424 0.66577201
0.21195147 0.12818758 0.49931433
0.14751063 -0.62916314 0.34750597
0.04976934 0.38002819 0.11724675
0.10927185 0.01947013 0.25744344
0.02421744 0.37107920 0.05706595
-0.03482254 -0.51251731 0.00000000
0.20317211 -0.10768135 0.47863259
0.05988434 -0.38506526 0.14107570
-0.30421419 -0.59353924 0.00000000
-0.48005279 -0.31057344 -0.00000009
-0.17477556 -0.13609314 0.00000000
0.18482590 0.00715966 0.43542583
0.03087378 0.49808660 0.07274148
0.13582251 -0.76625639 0.31997105
-0.31009742 0.06359620 -0.00000002
-0.36401581 0.24903958 -0.00000058
-0.25152755 -0.66241969 0.00000000
0.19109965 0.14014229 0.45019894
0.27581166 -0.75546485 0.64975789
0.08252020 -0.64960403 0.19440131
-0.15888968 0.27676358 0.00000000
0.15981385 0.31631482 0.37649181
0.28620527 -0.08727764 0.67424108
-0.51095698 -0.38755691 -0.00000008
0.00530866 0.07455030 0.01253371
-0.19509524 0.25469735 0.00000000
0.03578184 -0.45981745 0.08429496
-0.33911478 0.09296082 -0.00000020
0.03589070 -0.45532562 0.08455141
0.18335595 -0.25100354 0.43195027
-0.32049403 -0.22356222 0.00000000
-0.13975794 0.22920925 0.00000000
0.19734714 -0.30101981 0.46491066
0.03899687 -0.72479213 0.09186893
-0.18526487 0.21693034 0.00000000
0.17423927 0.23715158 0.41047698
-0.09199741 0.28203015 0.00000000
-0.68980380 -0.40655664 -0.00000081
0.30950608 -0.27853442 0.72913371
0.05496499 0.58137056 0.12948638
0.30975228 -0.53911824 0.72971479
0.02606081 0.37237831 0.06139414
0.03006723 0.46656300 0.07084269
-0.66500896 -0.34946433 -0.00000081
0.27282727 -0.11470580 0.64272540
0.12493477 0.00679976 0.29432168
0.05077058 0.00435023 0.11960547
0.14112834 -0.18647799 0.33247055
-0.33251375 0.32789967 -0.00000058
0.23900577 -0.36285315 0.56304972
0.16846896 -0.74910195 0.39687966
-0.51302212 -0.03696201 -0.00000071
-0.14913645 0.55183167 -0.00000020
0.02299922 0.17166669 0.05420388
-0.22395790 0.55561055 -0.00000052
-0.03640532 0.65874739 0.00000157
0.05418410 -0.68604104 0.12764707
0.10999310 0.40689423 0.25912602
0.01500651 0.16573495 0.03535238
0.23419376 -0.04656870 0.55171289
0.02273000 0.72058207 0.05354812
0.17414326 -0.78007826 0.41024718
-0.55841540 -0.73171940 0.00000000
0.07920671 0.00445258 0.18659540
-0.13607494 0.16104097 0.00000000
-0.32083002 0.03814707 0.00000657
0.23466757 -0.23025103 0.55282953
0.05082724 -0.46143009 0.11973895
-0.67030924 0.04986163 -0.00000153
0.12776014 0.11978085 0.30099212
0.08300568 0.44582031 0.19555054
0.04612954 0.48565243 0.10868018
-0.06140123 -0.33959525 0.00000000
0.04842871 0.44791178 0.11408848
-0.20143312 0.52426575 -0.00000037
-0.26220482 0.46139597 -0.00000052
0.07566431 -0.21786094 0.17825019
0.20434928 -0.76327066 0.48140662
0.02018708 0.22700367 0.04757713
-0.09594858 -0.08601402 0.00000000
-0.29196478 0.37455136 0.00000150
-0.49131746 0.04118583 0.00000324
-0.50134774 -0.48433925 0.00000000
0.16050097 -0.31843559 0.37810864
-0.06026416 -0.58494021 0.00000000
0.19435856 -0.39539752 0.45787042
-0.02443293 0.22478162 0.00000000
-0.21914750 0.10498011 0.00000000
-0.34820963 -0.51095132 0.00000000
-0.02448728 0.70652511 0.00000103
0.21266797 -0.09909513 0.50100281
0.06860443 0.22653027 0.16161850
-0.47913399 -0.15769991 -0.00000035
0.12281711 0.32487329 0.28933889
0.17516193 -0.76448162 0.41264696
0.25137167 -0.59432232 0.59218171
-0.69452781 0.04470382 -0.00000072
-0.14939651 -0.26080617 0.00000000
0.06824953 -0.01230190 0.16078244
-0.06271931 0.03096959 0.00000000
0.30655959 -0.49120286 0.72219321
-0.23923525 0.42966459 0.00000159
0.06421629 0.34271057 0.15128091
-0.39451772 -0.19710308 0.00000000
0.00781680 0.54802438 0.01842388
0.11730051 -0.01455634 0.27633688
0.04190863 0.25591507 0.09874580
-0.09773396 0.19226492 0.00000000
0.14132690 0.02430286 0.33295528
0.22492640 -0.42742614 0.52988185
-0.76897388 0.01780156 -0.00000170
-0.15569072 0.43277962 -0.00000002
-0.17547407 0.56672501 0.00000053
0.07988600 0.53075430 0.18819782
0.09007136 0.41569128 0.21218996
0.09776574 -0.10654724 0.23031680
-0.71947154 -0.46540453 -0.00000083
-0.50750587 -0.49899683 0.00000000
0.13179242 0.08393357 0.31049246
0.15246745 0.30050349 0.35918219
-0.17466376 -0.75458585 0.00000000
-0.33885143 0.40060928 -0.00000074
0.22171360 0.03822537 0.52232014
-0.01928865 -0.08984931 0.00000000
0.13545171 -0.77544943 0.31909753
-0.35661349 -0.44966351 0.00000000
0.12245711 0.21008501 0.28848440
-0.63896248 -0.66913290 -0.00000013
0.26891003 -0.47000408 0.63349806
-0.49442383 -0.08211982 -0.00000055
-0.21162739 0.26484098 0.00000483
-0.11049488 -0.21758647 0.00000000
-0.79335761 -0.03446791 -0.00000191
-0.34359717 0.26049829 0.00000241
-0.56365628 -0.35681545 -0.00000036
-0.74434272 -0.68594761 -0.00000029
-0.24160554 0.27807552 -0.00000011
-0.07591530 0.56863648 0.00000232
-0.22728678 0.01388016 0.00000000
-0.33637641 0.35510441 -0.00000065
0.19510262 -0.62968550 0.45962331
-0.04181758 0.25952070 0.00000000
-0.45758857 -0.20762857 -0.00000017
0.22483762 -0.01450584 0.52967172
0.17136201 0.19554159 0.40369402
0.24153805 -0.56669661 0.56901573
-0.74416619 -0.04405720 -0.00000168
0.15413212 0.05220859 0.36310439
-0.51953853 -0.78648138 0.00000000
0.12775867 0.31202440 0.30098019
0.19889857 -0.39444937 0.46856574
0.28439271 -0.12288852 0.66997113
0.27117003 -0.57870894 0.63882241
0.01084059 0.08763487 0.02553828
0.31194830 -0.42655807 0.73488774
0.17941934 0.24798722 0.42267911
0.02546279 0.56604605 0.05999211
0.11393507 -0.37130982 0.26840857
0.24062173 -0.29535218 0.56685642
-0.33193386 -0.21378121 0.00000000
0.30709398 -0.36233917 0.72345159
0.04964217 0.61682296 0.11694921
-0.23291845 0.20941736 0.00000534
0.12884129 0.16688145 0.30353688
-0.40212291 0.04449249 -0.00000038
0.03784998 0.30613353 0.08916710
0.01328935 -0.56194912 0.03130708
0.19002708 0.13604576 0.44767249
-0.40906641 -0.38256150 0.00000000
-0.16261954 0.26944431 0.00000550
-0.01960476 0.67920419 0.00000000
-0.52631868 -0.55702101 0.00000000
-0.07714950 0.39831432 0.00000000
0.05941368 0.31309533 0.13996691
-0.07413708 -0.59894930 0.00000000
0.00335698 0.50956841 0.00791930
-0.54890390 -0.49629519 -0.00000005
-0.42175694 -0.11558115 -0.00000018
-0.28757999 0.41350957 -0.00000054
0.04936466 0.63815021 0.11629454
0.08309024 0.07334454 0.19576497
0.02687634 0.53225169 0.06331535
0.17358806 -0.66072888 0.40893923
0.13782716 0.06990613 0.32469332
-0.40343516 0.36992136 -0.00000096
0.03729932 0.33050814 0.08788469
0.01670246 0.74970952 0.03934790
-0.02288136 0.38042108 0.00000000
0.15332304 -0.15626992 0.36119885
-0.76460482 -0.26869440 -0.00000133
0.09730396 -0.21794080 0.22922894
-0.15411003 -0.08340870 0.00000000
0.17627835 -0.69523849 0.41527703
-0.68714600 -0.43487407 -0.00000075
-0.29900912 0.48647751 -0.00000072
0.08621723 -0.64061110 0.20311079
-0.34046605 -0.41857301 0.00000000
-0.57768894 0.17500336 -0.00000065
0.06091123 0.63629894 0.14349466
0.21730936 0.08029485 0.51193650
0.14191480 0.32353177 0.33432232
0.01027593 0.39646240 0.02420806
-0.75729735 -0.22227906 -0.00000142
-0.00209442 -0.21924405 0.00000000
-0.02157106 -0.46043667 0.00000000
0.04574812 0.39249578 0.10777356
-0.71682643 -0.28583268 -0.00000114
-0.08533495 0.42482906 0.00000000
0.13002681 -0.78998290 0.30631754
0.10305534 0.49449174 0.24277725
-0.68008271 0.10307072 -0.00000142
-0.30423991 0.06901930 -0.00000001
0.05974268 0.21394292 0.14075935
-0.26002602 -0.21810760 0.00000000
-0.23773137 0.47704070 -0.00000044
-0.35353710 0.34837488 0.00000075
-0.23306376 0.12381470 0.00000000
0.08681816 -0.39379389 0.20452648
-0.06307892 -0.69168044 0.00000000
-0.25525122 -0.12292803 0.00000000
-0.06973068 0.44749818 0.00000424
-0.19339799 -0.09473880 0.00000000
0.19829329 0.01437837 0.46715039
-0.08718654 0.49420232 0.00000327
0.11452262 -0.14966472 0.26979272
0.07723120 0.22341789 0.18195693
-0.31552365 0.08725240 -0.00000009
-0.11624861 -0.54895934 0.00000000
-0.04132301 0.63069693 0.00000192
0.22904622 0.12364042 0.53958969
0.15560064 0.12211242 0.36656375
-0.78591490 -0.51065810 -0.00000072
-0.39133707 -0.45942969 0.00000000
0.02283726 0.51691064 0.05380009
-0.65343601 0.03023867 -0.00000143
0.07589362 0.33431228 0.17880168
0.06709615 -0.53319102 0.15806531
-0.41305549 0.02141277 0.00000507
-0.39035553 -0.21070621 0.00000000
-0.71221416 -0.54204356 -0.00000064
0.08697343 0.21827414 0.20489225
-0.28532984 -0.11272430 0.00000000
-0.13225472 -0.10782895 0.00000000
-0.09425152 -0.00110352 0.00000000
0.25520249 0.01690658 0.60121024
0.07008361 0.55274033 0.16510271
0.12179847 -0.09984658 0.28693318
-0.10363468 0.64408711 -0.00000017
0.00847675 0.42776906 0.01998318
-0.26610891 -0.05818430 0.00000000
-0.69207866 -0.36604643 -0.00000089
-0.04555852 0.29918738 0.00000682
-0.06388442 0.21205679 0.00000000
0.04611902 0.55672365 0.10865243
0.06752142 -0.57128789 0.15906715
0.19783140 -0.20357546 0.46605124
-0.02357038 -0.64829767 0.00000000
-0.63561492 -0.72045767 -0.00000002
-0.62767574 -0.31941346 -0.00000070
0.06388410 0.50901994 0.15050338
-0.21365925 0.42054383 0.00000224
-0.38812793 0.13513035 -0.00000048
-0.01379400 0.05839007 0.00000000
0.04783663 -0.67800806 0.11269367
0.12195831 0.23114197 0.28730929
0.10338889 -0.26590368 0.24356385
0.07725581 0.52038916 0.18200239
-0.04822862 0.20159237 0.00000000
0.25164647 -0.32008825 0.59282842
-0.71366630 -0.05888959 -0.00000153
-0.72865945 -0.04223992 -0.00000162
-0.41826462 -0.29139325 0.00000000
-0.06475698 0.36409622 0.00000556
0.07545699 0.00145100 0.17776178
-0.48434498 0.27246412 -0.00000113
-0.10361390 -0.79725452 0.00000000
-0.45638912 -0.46021843 0.00000000
0.02215107 0.17198797 0.05220585
0.02155431 0.12540687 0.05077771
-0.07515832 0.24115555 0.00000725
0.19859413 0.20515541 0.46785070
-0.13297161 -0.36837447 0.00000000
0.14650005 -0.56019440 0.34512524
0.05651139 -0.11258534 0.13312970
-0.66699448 0.10967381 -0.00000163
0.04539309 0.47821750 0.10693718
0.18896824 0.28628361 0.44517158
-0.34442654 0.34818810 0.00000093
-0.32093737 0.29929375 -0.00000048
0.17746034 0.31575195 0.41806136
-0.75972576 -0.55507148 -0.00000061
-0.63358922 0.02335865 0.00000081
-0.45688663 0.28769018 -0.00000022
-0.54598867 -0.71531799 0.00000000
0.24750045 -0.62484269 0.58306200
0.16855842 -0.35278569 0.39709041
0.01035020 0.61230167 0.02438303
0.09400707 0.21710778 0.22147634
-0.37347418 -0.73683979 0.00000000
-0.04938245 -0.54526999 0.00000000
0.26911598 -0.66440760 0.63398373
-0.11712603 0.29608966 0.00000579
-0.28998789 0.20695079 -0.00000019
-0.20528596 0.26828147 0.00000000
-0.48562591 0.06424635 -0.00000077
0.06951482 -0.14282325 0.16376320
0.24116676 -0.28387885 0.56814036
-0.21187141 -0.63925865 0.00000000
-0.26222817 0.45675400 -0.00000051
0.20373889 -0.09832733 0.47996780
-0.27797314 0.37250399 -0.00000043
0.10409564 0.33915179 0.24522837
0.06186727 0.28049063 0.14574710
0.26667076 -0.20617637 0.62822219
0.23901454 -0.72263205 0.56307113
-0.63873842 -0.39049695 -0.00000062
0.04557434 0.56492092 0.10736896
-0.01396414 0.22083828 0.00000000
0.03176690 0.23071579 0.07483656
0.05448893 0.59844445 0.12836744
-0.55147206 -0.62298903 0.00000000
0.24495007 0.07753122 0.57705613
-0.78595040 -0.46434781 -0.00000084
-0.65433065 -0.53121854 -0.00000044
0.12770531 -0.30714992 0.30084853
0.10070683 0.16900311 0.23724544
-0.00652394 0.76386333 0.00000000
0.09548937 0.23930249 0.22495406
-0.35525771 0.32936700 0.00000104
0.09416277 -0.20298045 0.22182893
-0.16626229 -0.53500388 0.00000000
0.02578805 -0.01196695 0.06075156
-0.02824894 0.57945405 0.00000000
-0.51937146 0.04433158 -0.00000088
0.21791468 0.23904654 0.51336227
0.09267140 0.08507087 0.21831554
0.18310361 0.11508627 0.43135493
-0.29124470 0.12894955 -0.00000006
-0.77558492 -0.05480534 -0.00000180
0.05369999 -0.27985823 0.12650658
0.23916220 -0.34444655 0.56341819
0.12479807 -0.30832229 0.29399965
-0.10794669 0.30870001 0.00000000
0.29120045 -0.02708021 0.68600851
-0.67774512 -0.08274457 -0.00000133
-0.04052722 0.69644955 0.00000094
0.15723276 -0.12972630 0.37040927
-0.15130542 -0.46098958 0.00000000
0.04188573 0.10372068 0.09867452
0.09724846 0.47266639 0.22909754
-0.02629086 0.26543139 0.00000762
0.11756918 0.24678708 0.27696939
-0.60698400 0.13218741 -0.00000050
-0.33276280 0.39866178 -0.00000071
-0.70809336 -0.57685049 -0.00000056
-0.11974160 -0.26575598 0.00000000
0.05421801 0.34447097 0.12772695
0.23799442 0.02779393 0.56066624
0.03404879 0.31407334 0.08021223
-0.06139508 -0.42665668 0.00000000
0.05610096 0.64181178 0.13216296
-0.65396999 0.05753766 -0.00000016
0.27356731 -0.21788836 0.64446901
0.05256047 -0.58331652 0.12382211
0.08547517 0.57918152 0.20136200
0.03713286 0.02427399 0.08747769
-0.03407315 0.10852400 0.00000986
0.01018217 -0.79308473 0.02398720
0.03647761 -0.75978754 0.08593405
0.20621790 -0.57731069 0.48580871
-0.24643811 0.54268741 -0.00000043
0.11912017 -0.42875000 0.28062363
0.05125169 -0.59292869 0.12073887
-0.06609306 -0.68710225 0.00000000
-0.29306136 0.14722730 -0.00000010
-0.02193326 0.60046036 0.00000266
-0.21314709 0.13822425 0.00000000
-0.07333548 0.62015393 0.00000159
-0.21229508 0.42050311 -0.00000024
0.30650967 0.01170966 0.72207385
-0.33119874 0.08705764 -0.00000015
-0.55672314 0.13392635 -0.00000120
-0.79037275 -0.78945082 -0.00000003
0.00074352 -0.10197700 0.00175160
-0.28125800 -0.51665845 0.00000000
0.30311907 -0.11957829 0.71408646
-0.05736190 -0.48017920 0.00000000
0.19431130 -0.61754021 0.45775911
0.12625053 -0.43010940 0.29742135
-0.34763880 -0.29439025 0.00000000
0.21755458 -0.59385290 0.51251569
-0.34617392 -0.32526994 0.00000000
-0.11224079 -0.28691629 0.00000000
-0.66437323 -0.49818389 -0.00000054
-0.76847183 0.00285381 -0.00000144
-0.29931051 0.42694396 0.00000048
-0.68709668 0.00037976 0.00000016
0.05791569 0.51126798 0.13644361
-0.57956567 0.10906801 -0.00000125
-0.21686896 -0.15144707 0.00000000
-0.60952062 -0.04413367 -0.00000111
-0.48791911 0.00473574 0.00000391
0.15600706 -0.38946276 0.36752188
-0.64283573 -0.15979451 -0.00000105
-0.49001475 0.12698902 -0.00000090
-0.05081138 0.59984466 0.00000224
-0.53627274 -0.55349815 0.00000000
-0.24269395 -0.69050085 0.00000000
-0.40727359 0.30740062 -0.00000087
0.12557476 -0.16522876 0.29582938
0.05690233 0.08754142 0.13405067
0.12093308 -0.66278363 0.28489448
0.25582803 -0.51122074 0.60267975
-0.23167594 0.00078649 0.00000000
0.26547258 0.04952604 0.62539892
-0.09743910 0.02225721 0.00001020
-0.22303535 -0.46020526 0.00000000
0.20900528 -0.16298644 0.49237444
0.14294337 -0.77968766 0.33674640
-0.59805210 -0.43280165 -0.00000037
0.22748116 0.01633890 0.53589926
-0.22172679 0.09174760 0.00000728
-0.38570176 0.26603310 -0.00000070
-0.31608301 0.44513292 -0.00000072
-0.52104913 -0.41603206 -0.00000007
0.02213880 -0.38293808 0.05215464
-0.01206317 0.27642661 0.00000767
0.10111839 0.50207413 0.23821420
-0.54569916 0.02582457 -0.00000096
-0.48399152 -0.57893864 0.00000000
0.06603807 -0.17670732 0.15557268
-0.00173777 -0.49322749 0.00000000
0.02238795 0.36006674 0.05274159
0.11004719 0.21286158 0.25926197
-0.79130861 -0.19516732 -0.00000151
-0.09138430 0.32957350 0.00000000
0.00345703 0.64273853 0.00814986
0.26570648 -0.26961110 0.62595070
-0.67981364 -0.16976075 -0.00000119
-0.79911203 -0.35763721 -0.00000111
-0.02147524 -0.56443498 0.00000000
0.12818474 0.07111534 0.30199449
0.11827738 -0.53031823 0.27863820
0.29727510 -0.24371125 0.70031964
-0.24181283 0.11474172 0.00000663
-0.37595988 0.28567796 -0.00000070
0.14860145 0.12377591 0.35007512
-0.79780736 -0.12134714 -0.00000170
0.23159462 -0.30451711 0.54559048
0.06398086 0.61562635 0.15072577
0.14079214 0.39485632 0.33167741
-0.28580021 0.41128207 -0.00000053
-0.22959075 -0.08766975 0.00000000
0.23611897 -0.45211730 0.55624925
-0.03908129 0.08778308 0.00001009
0.19170431 -0.41216821 0.45161756
0.00985676 0.56343712 0.02322059
-0.13813711 0.07366038 0.00000000
0.27369861 -0.21977079 0.64477833
-0.22949405 0.53356567 0.00000004
-0.64510353 -0.32713543 -0.00000076
-0.39163429 -0.07644101 -0.00000012
-0.12215755 0.55426180 -0.00000009
-0.22557659 0.43099365 0.00000183
-0.66781890 -0.77103773 -0.00000007
-0.48002233 0.30590914 -0.00000097
-0.77197296 -0.60233612 -0.00000049
0.00191530 0.55482334 0.00451208
0.25809612 -0.19753971 0.60802212
0.12702512 0.28507621 0.29925339
-0.16351841 -0.03916954 0.00000000
0.26883129 0.09353989 0.63331123
-0.52130807 -0.45631446 -0.00000000
0.25874296 -0.18981645 0.60954593
-0.79905512 -0.75116767 -0.00000012
-0.65732025 -0.68599306 -0.00000018
0.03536112 -0.41212334 0.08330383
0.07003958 0.29975243 0.16499945
-0.33832640 -0.53911692 0.00000000
-0.07480335 -0.21051778 0.00000000
-0.62922271 0.13213508 -0.00000150
-0.29522901 0.22152501 -0.00000024
0.09321293 0.21912821 0.21960550
-0.21596000 -0.18334943 0.00000000
0.11279770 0.28092916 0.26573828
0.00459364 0.24101636 0.01082172
0.15837881 -0.22405103 0.37310924
-0.53268748 -0.77794853 0.00000000
-0.00581883 0.59835044 0.00000000
0.22232341 0.16693173 0.52374834
-0.47309695 -0.60973290 0.00000000
-0.24245916 -0.22915327 0.00000000
0.01883651 -0.39821834 0.04437512
-0.11260412 0.41950597 0.00000401
0.18019674 0.16564962 0.42450685
-0.35465482 -0.37247103 0.00000000
0.00891565 0.67899846 0.02100351
-0.21058069 0.10983852 0.00000000
-0.01015897 0.32565729 0.00000696
-0.79358442 -0.78805153 -0.00000003
-0.08817125 -0.14314103 0.00000000
-0.08762903 -0.36366533 0.00000000
0.06386984 -0.26097846 0.15046476
-0.16571039 -0.32205531 0.00000000
0.30528378 -0.17183009 0.71918630
-0.19390520 -0.43227018 0.00000000
0.08216909 0.12070512 0.19359316
0.12611436 -0.12225191 0.29710055
-0.29074206 0.26570996 -0.00000030
-0.31504577 0.32201844 -0.00000050
-0.07713977 -0.03068515 0.00000000
0.06149541 0.38926156 0.14487106
-0.75672305 -0.55561732 -0.00000061
0.23530548 0.07962451 0.55433646
-0.07830307 -0.52891445 0.00000000
0.15814805 -0.39747356 0.37256562
0.04722933 -0.09229068 0.11126299
0.28767640 -0.54844438 0.67770815
-0.03608300 0.08905698 0.00000000
-0.36018660 0.31771487 -0.00000068
-0.60345221 -0.52359762 -0.00000024
0.04780619 -0.25189599 0.11262196
-0.36037684 0.20007298 -0.00000048
0.07121768 -0.74354072 0.16777480
0.22059764 -0.70396577 0.51968454
0.00495429 -0.12301079 0.01167132
0.01947393 0.24337986 0.04589652
-0.07864602 -0.46968533 0.00000000
0.00649492 0.10190152 0.01532715
0.18732309 -0.64265972 0.44129626
-0.26826233 -0.43649839 0.00000000
-0.35426323 -0.60776798 0.00000000
0.06210007 -0.39300972 0.14629551
0.15606332 -0.49282630 0.36765442
0.06055691 0.42531575 0.14266015
0.18050672 0.17169480 0.42523707
0.11474061 0.43411138 0.27030843
-0.13338581 0.14448766 0.00000782
0.10571487 -0.44808497 0.24904339
0.03052669 0.47385750 0.07192478
-0.32823571 -0.17827976 0.00000000
-0.02405842 -0.78477861 0.00000000
0.21926520 0.09753986 0.51654988
-0.14842833 -0.73069108 0.00000000
-0.55705859 -0.05737372 -0.00000086
0.04157314 -0.25885785 0.09793811
-0.39028363 -0.71846258 0.00000000
0.09860457 0.02566715 0.23231413
-0.10244344 0.57520294 -0.00000004
0.01077012 0.22053591 0.02539371
0.20974613 0.11088697 0.49411906
-0.74191876 -0.09619278 -0.00000158
-0.36737191 0.33300020 -0.00000074
0.21319040 -0.66118428 0.50223456
-0.11647572 -0.72982247 0.00000000
-0.36896495 -0.05313356 -0.00000007
-0.06323467 0.57544673 0.00000000
0.04813929 0.30652785 0.11340667
0.17183102 -0.48405417 0.40480000
0.28415898 -0.22375650 0.66942076
-0.15553019 0.47075908 0.00000251
0.08915353 -0.09573084 0.21002813
-0.27549462 0.09299075 0.00000000
-0.03080976 -0.72906783 0.00000000
0.27810416 0.05744490 0.65515751
-0.10761053 -0.46300405 0.00000000
-0.08026161 -0.37060262 0.00000000
0.09023576 0.15974961 0.21259443
0.23616178 -0.63406497 0.55635054
0.17813858 -0.33749951 0.41965938
-0.13078757 0.48800330 -0.00000001
0.20876850 0.16551553 0.49182000
-0.08046124 0.55100300 0.00000000
0.16412306 0.27057110 0.38664041
0.06958315 0.34100287 0.16393577
-0.17427261 -0.35748590 0.00000000
0.21906481 -0.21811730 0.51607270
0.28759281 0.00077041 0.67750960
-0.34099872 0.03157992 -0.00000010
-0.13257460 0.03347809 0.00000950
0.20141499 -0.49438278 0.47449401
-0.61287155 -0.47870097 -0.00000036
-0.23899911 -0.56224531 0.00000000
-0.33598514 0.29010391 0.00000207
0.27598261 -0.06566154 0.65015859
-0.62300764 -0.60703489 -0.00000017
0.08202722 -0.34975559 0.19323996
0.16940681 0.27726128 0.39909150
0.13010176 -0.37428870 0.30649409
0.20326383 -0.04140975 0.47884851
-0.39190270 -0.07395667 -0.00000013
-0.65626106 -0.76159746 -0.00000004
-0.66401278 -0.55908846 -0.00000043
0.15839135 0.36838430 0.37313856
0.14155168 0.13728135 0.33347982
0.21223402 0.14183264 0.49997994
-0.36973026 0.30177197 0.00000122
-0.21464648 0.06297248 0.00000000
0.21358369 0.09802485 0.50315957
0.17571446 -0.45324258 0.41394861
-0.09705837 0.27381611 0.00000643
-0.18622919 0.59457226 -0.00000043
-0.46380826 -0.45948243 0.00000000
0.25928259 -0.12473516 0.61081704
0.22364128 -0.65259368 0.52685477
-0.38816651 0.27388038 -0.00000073
0.27593645 0.04869095 0.65004958
-0.70728247 0.05125698 -0.00000108
0.11111583 -0.50641683 0.26176699
-0.22497835 0.09466893 0.00000000
0.31172987 -0.47465900 0.73437335
0.20113565 -0.17211351 0.47383528
0.17562644 -0.04682875 0.41374069
-0.23726745 -0.25850094 0.00000000
0.06983717 0.48484969 0.16452800
-0.00550767 0.29535120 0.00000000
-0.74609580 -0.71821006 -0.00000020
-0.52106692 0.05940443 -0.00000091
-0.20916990 -0.77258864 0.00000000
-0.26277641 -0.43176720 0.00000000
0.09636287 0.39718483 0.22701145
0.05113455 0.17134142 0.12048270
0.03059446 -0.74701117 0.07207451
0.07811154 0.03032430 0.18401538
0.23805622 0.02685342 0.56081183
0.18598315 0.01742097 0.43813874
0.06311264 0.18153863 0.14868094
-0.24034455 0.35933436 0.00000275
0.08024378 0.49279153 0.18903806
0.01274980 0.30483219 0.03005402
0.26627828 -0.58432742 0.62729850
0.08398623 0.28167308 0.19785499
-0.44233028 -0.38835661 0.00000000
-0.05388924 0.28564168 0.00000000
-0.50929085 -0.12388095 -0.00000054
0.22874863 -0.21751818 0.53888573
-0.58888088 0.18769901 -0.00000108
0.05142109 0.34869229 0.12115084
-0.65717562 -0.62378857 -0.00000029
0.21828260 -0.47273524 0.51423058
-0.34067858 0.09503830 -0.00000021
-0.27328695 -0.22089298 0.00000000
-0.28280491 -0.63571937 0.00000000
-0.79309634 -0.63210768 -0.00000042
0.24939517 -0.03357954 0.58752416
-0.58357031 -0.22341670 -0.00000068
0.13169361 -0.11640306 0.31024419
0.13128917 0.06755508 0.30929120
0.25859040 0.06668674 0.60918592
-0.08547858 0.11279488 0.00000902
-0.72743540 -0.39086402 -0.00000100
0.07940651 0.26802566 0.18706607
0.22744587 -0.39690912 0.53581712
0.03608176 -0.17206046 0.08500151
-0.36393817 -0.25625231 0.00000000
0.12502649 0.06387995 0.29453768
-0.19266961 0.36084098 -0.00000005
0.24143779 -0.14784997 0.56877853
0.04041153 0.26626371 0.09520160
0.29230408 -0.64954387 0.68861054
0.12218733 0.03136660 0.28786817
0.03676178 -0.13308894 0.08660351
0.12985205 0.23873236 0.30591476
-0.25203178 0.53264757 -0.00000037
0.26592869 -0.14133362 0.62647387
0.23702708 -0.03877720 0.55838757
0.19996231 0.22928169 0.47107264
-0.14969084 0.23671837 0.00000000
0.04487688 0.35072874 0.10572107
-0.38697708 0.17043760 -0.00000054
-0.50753823 0.06046746 0.00000261
-0.70654173 -0.33059183 -0.00000102
0.16088170 -0.37737412 0.37900555
0.30627369 -0.65609714 0.72152036
0.09288883 -0.62168397 0.21882776
-0.59208732 0.08211979 -0.00000126
-0.09641962 -0.74307430 0.00000000
-0.11540575 -0.65028503 0.00000000
0.01528318 -0.02486057 0.03600416
-0.21143900 0.56501150 -0.00000014
0.01786816 0.71265148 0.04209380
0.02671094 -0.10907401 0.06292571
-0.45470428 0.17371405 0.00000173
0.28917421 0.03910517 0.68123583
0.07197385 -0.79753228 0.16955621
-0.08479772 0.53182746 0.00000274
0.20064214 0.04304967 0.47268229
-0.32644108 -0.60797986 0.00000000
0.15314614 -0.14669436 0.36078210
-0.08526096 -0.18753410 0.00000000
-0.13973812 -0.71618676 0.00000000
0.13117415 -0.30411247 0.30902044
-0.06581642 -0.16995212 0.00000000
-0.11421063 0.48353715 0.00000302
-0.02122307 -0.67434385 0.00000000
-0.16810570 -0.60967351 0.00000000
-0.18593652 -0.12744828 0.00000000
0.12332344 -0.78959436 0.29052570
-0.07044312 -0.30311671 0.00000000
-0.75587806 -0.11523997 -0.00000161
-0.09670521 0.28386742 0.00000000
-0.22674379 0.40990530 0.00000216
0.05132374 -0.62682501 0.12090860
-0.74392674 -0.40512816 -0.00000099
-0.11247663 -0.53723293 0.00000000
-0.38788235 -0.26737110 0.00000000
0.07818981 0.53087176 0.18419926
-0.30054873 -0.00871285 0.00000000
0.10591121 -0.77603440 0.24950592
0.02457781 0.37384835 0.05791478
0.19828137 0.04431572 0.46712101
0.21936315 0.10397400 0.51678033
-0.55688477 -0.55605740 0.00000000
0.31079546 -0.68694265 0.73217295
0.15494422 0.37788654 0.36501782
0.21674315 -0.55915569 0.51060413
0.01545144 0.37493847 0.03641560
0.04083614 0.10499741 0.09620189
0.22690843 0.16340250 0.53455199
0.11233815 -0.76800857 0.26464653
-0.28075470 0.10039248 0.00000626
0.28622515 -0.33756186 0.67428851
-0.21945645 0.43089424 -0.00000028
0.16997849 -0.71339154 0.40043581
-0.07019908 0.60702997 0.00000000
0.03468569 0.10288623 0.08173653
0.26675305 0.10171332 0.62841596
0.02074955 -0.47413621 0.04888184
-0.06443183 -0.49032036 0.00000000
0.28014502 -0.58646277 0.65996578
0.14068725 0.06362191 0.33143109
-0.53439660 -0.09675936 -0.00000070
-0.04516357 0.34141528 0.00000000
-0.24460749 0.23374020 0.00000476
0.11792777 0.06846328 0.27783242
0.07381205 0.15623748 0.17390499
-0.12857056 -0.11779838 0.00000000
0.18393304 -0.20202271 0.43330964
0.16851603 0.00243517 0.39700518
0.11236140 0.40755783 0.26470495
-0.45974162 -0.62657628 0.00000000
-0.11740702 -0.17929025 0.00000000
0.07785552 0.09253131 0.18341225
0.17709229 0.14723208 0.41720175
-0.29188127 0.45082446 -0.00000063
0.26969798 -0.28564638 0.63535386
-0.14267271 0.16156514 0.00000742
0.12454423 0.30045124 0.29340852
0.14072875 0.22888526 0.33153724
-0.76646837 -0.18520119 -0.00000153
0.25038725 -0.31714514 0.58986196
-0.69495102 0.09603550 -0.00000172
0.17411736 -0.61609207 0.41018616
0.10498258 0.18038083 0.24731819
-0.20307372 0.08401410 0.00000000
0.16567852 0.35387264 0.39030547
-0.62498562 0.03808186 0.00000072
-0.17467827 -0.53938256 0.00000000
-0.08850900 0.61282910 -0.00000005
0.24136463 -0.24815594 0.56860641
-0.57208322 0.05922499 0.00000139
0.10249103 -0.30781311 0.24144866
-0.09888765 -0.22400957 0.00000000
0.04639207 0.52878424 0.10929052
0.24715076 -0.15567633 0.58223708
-0.16749175 0.00589957 0.00000000
-0.15002323 0.31799964 0.00000000
-0.63849271 -0.79864460 0.00000000
0.01249441 0.72252124 0.02943625
-0.24848809 -0.12415912 0.00000000
0.17694106 0.24425200 0.41683695
0.17371070 0.35237882 0.40922678
0.28950086 -0.11447374 0.68200484
-0.37507795 0.00716411 0.00000604
-0.08971264 0.68234322 -0.00000017
-0.01443421 0.47304827 0.00000000
0.17979238 0.30638870 0.42355391
-0.03023764 0.46709060 0.00000454
-0.44830162 -0.09230418 -0.00000034
0.22419339 -0.72103734 0.52815542
0.12132943 0.34710945 0.28583342
0.12697411 -0.34420240 0.29912596
0.00191873 0.06060971 0.00452014
0.15613608 0.33277148 0.36782463
-0.23965948 0.24740923 -0.00000005
-0.23428064 0.09642232 0.00000000
0.01039522 0.44176990 0.02448910
-0.48115253 0.31351378 -0.00000111
-0.14248052 -0.55752393 0.00000000
-0.61433655 -0.50261523 -0.00000032
-0.19027792 0.28044400 0.00000492
0.09431488 0.47753083 0.22219002
-0.54193509 0.02049494 -0.00000093
-0.48881847 0.00943238 0.00000382
0.26847005 0.07219239 0.63246027
-0.44152555 -0.32312381 0.00000000
-0.58209052 0.08720596 -0.00000122
-0.09874738 -0.46363745 0.00000000
0.11720006 0.47709060 0.27609927
-0.63442843 -0.69595007 -0.00000006
-0.76651268 -0.74158205 -0.00000015
-0.06901198 -0.01044038 0.00000000
-0.19550798 -0.68827198 0.00000000
-0.60926754 -0.10165928 -0.00000101
-0.00593792 0.74762067 0.00000070
0.29684723 -0.06609197 0.69931122
-0.74663109 -0.08094813 -0.00000163
-0.01395269 0.71825240 0.00000000
-0.37902811 0.05900766 0.00000510
0.03327245 0.22714635 0.07840253
-0.19589896 -0.17095213 0.00000000
0.18040673 0.18059201 0.42500148
-0.14343993 -0.12067258 0.00000000
-0.38503055 -0.22268174 0.00000000
0.26874185 -0.73611695 0.63310266
-0.18978485 -0.60092091 0.00000000
-0.12907215 0.56773156 -0.00000014
-0.44634377 -0.34009346 0.00000000
0.14319548 -0.47748543 0.33734032
0.21936748 -0.37388333 0.51678610
0.09368101 -0.70871657 0.22069400
-0.32675446 0.23898266 -0.00000040
0.18862172 -0.25594840 0.44435532
-0.51075550 -0.55417538 0.00000000
-0.18614220 -0.48613978 0.00000000
0.18209117 0.00184882 0.42898390
0.17506663 -0.58625414 0.41242247
0.18889265 0.15945245 0.44499258
-0.11216923 -0.65968754 0.00000000
-0.17633795 0.56181590 -0.00000033
0.21610944 0.02989821 0.50911890
-0.09971277 -0.49453844 0.00000000
0.03045387 -0.59852991 0.07174332
-0.49133871 -0.75940500 0.00000000
-0.41610786 0.03653472 0.00000476
0.19417339 0.20725216 0.45743275
-0.23466558 0.09129438 0.00000000
-0.07750654 0.42738346 0.00000442
-0.53932511 -0.31634655 -0.00000033
-0.48295308 0.22196078 0.00000038
0.07531770 -0.50650224 0.17743364
0.07867313 0.33803844 0.18533833
0.18427335 0.26909769 0.43411268
0.24802985 -0.44416487 0.58430872
-0.09675715 -0.32549820 0.00000000
0.00023696 -0.08579423 0.00055823
-0.31268388 -0.07628203 0.00000000
-0.28378376 0.04637273 0.00000000
-0.52990601 -0.47808890 -0.00000000
-0.18923887 -0.63934605 0.00000000
-0.25853401 0.45539928 0.00000079
0.27684663 -0.73491114 0.65219600
0.19759500 0.02460575 0.46550499
0.19448590 -0.60766383 0.45817044
-0.53381395 -0.15511935 -0.00000059
-0.55434738 -0.53214875 -0.00000001
0.12939308 0.12293134 0.30483867
-0.20527259 -0.26366849 0.00000000
-0.03756356 0.65464493 0.00000161
-0.22589326 -0.25168534 0.00000000
0.08582172 0.31545733 0.20218996
-0.32109410 -0.17159650 0.00000000
-0.18996228 -0.49653495 0.00000000
-0.34192937 -0.22388946 0.00000000
-0.06573119 0.59705349 0.00000205
0.15088058 0.19544347 0.35545319
0.16606551 0.18503225 0.39122450
0.17006320 -0.65681164 0.40063536
-0.23037893 -0.60431651 0.00000000
0.10634147 -0.77543786 0.25051955
-0.36938011 0.19814869 -0.00000051
0.22417945 -0.67407166 0.52812259
-0.56287375 -0.03762431 -0.00000092
0.15616104 0.24864996 0.36788993
-0.45859154 0.17599090 0.00000162
-0.08114662 0.04632601 0.00001008
0.09786952 -0.34348003 0.23056129
-0.32017386 0.32962996 -0.00000053
0.14060696 -0.50950627 0.33124226
-0.53212253 0.07935543 -0.00000100
-0.14010610 -0.24443647 0.00000000
-0.01470157 -0.15380219 0.00000000
-0.09207523 0.14606807 0.00000000
-0.01530064 0.72316962 0.00000092
0.03139869 0.63669353 0.07396904
0.05004116 0.20651149 0.11790562
0.19742032 0.08389998 0.46508214
0.09512676 -0.02591475 0.22409989
0.02701398 -0.43867719 0.06363961
0.17802130 0.02393471 0.41938230
-0.35206732 -0.32997326 0.00000000
0.03163558 0.61947019 0.07453130
-0.52498510 0.02526866 0.00000286
-0.23924013 0.35266028 0.00000288
-0.50294337 -0.10044232 -0.00000055
0.30079277 -0.70680321 0.70860855
0.10513008 -0.12194309 0.24766574
0.05357654 -0.56049066 0.12621577
0.15589213 -0.51583741 0.36725113
-0.02861505 -0.22410208 0.00000000
-0.30710689 -0.30246313 0.00000000
-0.56640774 -0.43042938 -0.00000024
-0.75433657 -0.69883277 -0.00000025
0.13017596 -0.72174380 0.30666889
0.00746262 -0.03023480 0.01758045
0.31181968 -0.25381629 0.73458401
-0.74787556 -0.69730884 -0.00000026
-0.18640781 0.03002603 0.00000000
-0.63249395 -0.36175563 -0.00000065
0.04074948 0.00764133 0.09599774
0.00783480 0.36810669 0.01847324
-0.69701235 -0.48087995 -0.00000071
-0.39806860 -0.79934416 0.00000000
0.14330926 0.07008822 0.33760798
-0.08783523 -0.30920274 0.00000000
-0.40642323 0.11614853 -0.00000053
-0.19780789 0.51951427 -0.00000035
-0.48687762 -0.37409954 -0.00000000
-0.00084190 0.36596031 0.00000650
-0.43619818 0.24578390 0.00000088
0.25196107 -0.73452017 0.59357055
0.08562025 0.05156365 0.20170443
-0.50006583 -0.48890763 0.00000000
-0.03607400 0.35908767 0.00000000
0.25540209 -0.24258373 0.60167569
-0.32220402 0.38631787 -0.00000064
-0.36710304 -0.65333433 0.00000000
-0.15313849 0.17463277 0.00000707
-0.61627675 0.00378951 -0.00000122
0.02421680 0.07020571 0.05705000
-0.15255954 0.02135324 0.00000000
0.19123458 -0.24556995 0.45051064
0.28499822 0.04874055 0.67139717
0.06879242 0.16500180 0.16207984
0.10404934 -0.00957636 0.24511973
0.22899202 -0.63476932 0.53946005
0.10977779 -0.01237356 0.25861483
0.04362760 -0.59998284 0.10277803
-0.64600173 -0.75746674 -0.00000000
-0.22465594 -0.31184697 0.00000000
0.07222134 0.16273801 0.17015749
0.03484102 0.56637270 0.08208452
-0.33468635 0.36444114 0.00000085
0.01195597 -0.79145249 0.02816592
-0.02367334 -0.27247921 0.00000000
0.29033781 -0.10803786 0.68397649
-0.18358319 0.13802038 0.00000716
-0.33371085 0.33001879 0.00000144
-0.27719449 -0.46865918 0.00000000
-0.31704530 0.16679350 0.00000449
-0.55064701 0.11852857 0.00000081
0.19034271 -0.65937512 0.44840990
0.28935303 -0.49209636 0.68165776
-0.03781541 0.61838273 0.00000215
-0.60532829 0.11253275 -0.00000014
-0.17977171 0.23994640 0.00000000
0.06865743 -0.28754368 0.16174336
