ply
format ascii 1.0
element vertex 1409
property float x
property float y
property float z
end_header
0.52573073 -0.63154389 0.00000000
-0.41162076 0.69034198 0.00000000
-0.10743383 0.78381572 0.00000000
0.68325162 0.38633757 0.22319415
0.41488900 0.66334928 0.23035531
0.10112696 -0.49373699 0.00000000
0.28244484 0.59309932 0.06254395
0.55096415 0.40502846 0.12914735
0.09223211 -0.30676892 0.00000000
-0.77415236 0.05157427 0.00000000
0.13286825 0.26347604 0.00000000
0.43946332 -0.69266178 0.00000000
-0.59040850 0.45221975 0.00000000
-0.63164262 0.78142961 0.00000000
0.38128289 0.49018015 0.05916519
0.21471504 -0.20441665 0.00000000
0.71720947 -0.04571021 0.00000000
-0.79657735 0.45049471 0.00000000
0.06196468 0.58526850 0.00000000
0.20636713 -0.42794041 0.00000000
0.35415790 0.40289759 0.00000000
-0.69333432 -0.13265336 0.00000000
0.47903834 0.23663071 0.00000000
0.33501309 0.51879150 0.04454572
0.79806159 -0.29769192 0.00000000
-0.17076510 0.75066079 0.00000000
-0.64047384 -0.16254584 0.00000000
0.63694901 -0.33959017 0.00000000
-0.56868439 -0.03195492 0.00000000
-0.06355515 -0.31071722 0.00000000
0.18600665 -0.76434094 0.00000000
-0.11962391 -0.06258134 0.00000000
0.59125239 0.30105944 0.07642593
0.43319884 0.22301825 0.00000000
-0.76936988 -0.06504232 0.00000000
0.68067879 -0.52261627 0.00000000
-0.57828008 0.32067384 0.00000000
0.10182180 -0.50652941 0.00000000
0.34006167 0.46047814 0.00044773
-0.42530514 0.36700275 0.00000000
-0.60322993 -0.49532477 0.00000000
-0.50053895 0.09382722 0.00000000
0.59343674 -0.41661374 0.00000000
-0.55968945 0.79395756 0.00000000
-0.60021025 0.33345020 0.00000000
0.59153657 -0.79705986 0.00000000
-0.01359378 0.57334620 0.00000000
0.25356372 0.19714170 0.00000000
0.21557599 0.55644015 0.00000000
-0.66981232 -0.40767189 0.00000000
-0.50049007 -0.28713198 0.00000000
0.40225187 0.64947648 0.20840757
-0.41926362 -0.46568314 0.00000000
0.55991950 -0.12507465 0.00000000
-0.59786265 -0.02257372 0.00000000
-0.22073562 0.65183244 0.00000000
0.40965285 -0.61277724 0.00000000
0.14308129 -0.30214056 0.00000000
-0.46614758 -0.14726114 0.00000000
-0.31601300 -0.19046470 0.00000000
-0.56649014 -0.13819094 0.00000000
0.51695653 0.51478209 0.19185767
0.68268187 -0.12439326 0.00000000
0.16741885 0.07245224 0.00000000
0.29726172 0.50104390 0.00000000
-0.02517932 0.48643837 0.00000000
0.53146513 0.12798063 0.00000000
-0.31718240 -0.74014862 0.00000000
0.48313274 0.02945347 0.00000000
0.00221720 0.61196072 0.00000000
0.41535511 0.31854695 0.00000000
0.36709859 -0.73975566 0.00000000
-0.25232763 -0.72675716 0.00000000
-0.04679882 -0.49713786 0.00000000
0.55506001 0.33458742 0.07422007
-0.06254474 -0.72722637 0.00000000
-0.60885575 0.61157935 0.00000000
-0.09234742 -0.13991267 0.00000000
0.21873207 0.67191217 0.07504534
0.07487376 -0.69187389 0.00000000
0.00255092 -0.33637038 0.00000000
-0.30425595 -0.76544722 0.00000000
-0.49329302 0.19886495 0.00000000
-0.15597792 -0.67695087 0.00000000
0.23308746 0.57133642 0.00366336
0.15571365 -0.32969952 0.00000000
0.35476527 0.37501021 0.00000000
0.14616423 0.68467939 0.02553630
0.71673144 -0.28652754 0.00000000
-0.26876969 0.19027165 0.00000000
-0.05433796 0.74005479 0.00000000
-0.54409796 -0.49657036 0.00000000
0.64650034 -0.09795322 0.00000000
-0.56528511 0.28122127 0.00000000
-0.16864848 0.57165298 0.00000000
-0.65387112 -0.27219212 0.00000000
-0.10697634 0.08751590 0.00000000
-0.37818391 0.28025079 0.00000000
0.47317806 -0.32016800 0.00000000
0.12564009 0.51100048 0.00000000
0.78375735 -0.78178504 0.00000000
0.16206229 -0.22710621 0.00000000
0.02357638 0.49065813 0.00000000
-0.66688073 -0.72203005 0.00000000
-0.75561267 -0.29976423 0.00000000
-0.68002920 -0.63978417 0.00000000
0.26571560 0.67726180 0.11837221
0.52933095 -0.58799894 0.00000000
-0.12968768 0.18289656 0.00000000
0.43192896 -0.69360650 0.00000000
0.72922841 -0.46364606 0.00000000
0.55745814 0.33581531 0.07722206
0.50433762 0.44961194 0.12745591
0.37358336 0.67283198 0.20400897
-0.09583605 -0.04508675 0.00000000
0.58018911 -0.06631444 0.00000000
0.32817890 -0.35461519 0.00000000
0.74915617 0.20710455 0.12936933
0.52260262 0.52981337 0.20897660
0.66038668 0.48080744 0.28247632
-0.32080613 -0.46798070 0.00000000
0.33686241 -0.05571987 0.00000000
-0.54817568 0.37323614 0.00000000
0.10332205 0.40857188 0.00000000
0.04913162 -0.42680533 0.00000000
-0.73789209 0.04167547 0.00000000
0.03086073 -0.51714538 0.00000000
-0.34248088 0.13505549 0.00000000
0.58093033 0.42034666 0.16663836
0.03223915 -0.47966025 0.00000000
0.44600212 0.66734602 0.25942293
0.09047597 -0.20564532 0.00000000
-0.27909497 -0.13044171 0.00000000
0.02970465 -0.03417967 0.00000000
0.41361588 -0.76157501 0.00000000
-0.76157608 -0.46309635 0.00000000
-0.37811134 0.53224546 0.00000000
-0.67824180 -0.74917440 0.00000000
-0.21208672 -0.03638308 0.00000000
0.03227566 0.01999319 0.00000000
-0.29083958 0.07235369 0.00000000
0.70783232 -0.35756103 0.00000000
-0.23093366 -0.64894621 0.00000000
0.60005263 -0.05522168 0.00000000
0.41963113 0.15602239 0.00000000
0.46092534 -0.13634418 0.00000000
-0.69941214 -0.43413691 0.00000000
-0.27587390 -0.43390809 0.00000000
0.30284906 -0.16895460 0.00000000
0.33041562 -0.21124963 0.00000000
-0.12153394 0.16926769 0.00000000
-0.02708640 -0.58535029 0.00000000
-0.71662499 0.29179797 0.00000000
-0.60442014 0.55221175 0.00000000
0.14194775 0.46387288 0.00000000
-0.57823902 0.28762455 0.00000000
0.09142630 0.71085210 0.00188711
0.66968041 0.01680957 0.00000000
0.21416057 -0.32198124 0.00000000
-0.47473737 0.43097565 0.00000000
0.42679245 -0.15119347 0.00000000
-0.05285006 -0.75102924 0.00000000
-0.15000081 -0.48923894 0.00000000
0.75583842 -0.52089168 0.00000000
-0.55366581 -0.49704695 0.00000000
-0.78425938 0.42697657 0.00000000
-0.74163874 -0.06526897 0.00000000
-0.59989476 0.77676607 0.00000000
0.63477778 -0.25122301 0.00000000
-0.29144628 -0.13491615 0.00000000
0.19176578 0.27050411 0.00000000
0.30829178 -0.69196461 0.00000000
-0.45808340 0.17479393 0.00000000
-0.18473799 0.23414831 0.00000000
0.64337279 -0.35765813 0.00000000
0.01671518 0.79303737 0.00807499
-0.65533570 0.73775683 0.00000000
-0.05890073 -0.54451078 0.00000000
-0.73716467 -0.33825357 0.00000000
0.32829451 0.40557032 0.00000000
-0.07822535 0.68512557 0.00000000
-0.11120870 0.07560903 0.00000000
0.47441325 0.16797354 0.00000000
0.08662706 -0.61028744 0.00000000
0.51526878 -0.33679226 0.00000000
-0.17010548 -0.41848695 0.00000000
-0.45421164 0.51696322 0.00000000
-0.20620242 0.59394909 0.00000000
0.23957093 0.38927829 0.00000000
-0.28393175 0.46266698 0.00000000
0.55570031 -0.66759113 0.00000000
0.24535008 -0.68469963 0.00000000
0.20181612 -0.09736371 0.00000000
0.79809786 -0.01487431 0.00000000
-0.37477826 0.46694385 0.00000000
-0.22351202 -0.56314817 0.00000000
0.50656212 0.54888008 0.21148206
-0.29166276 0.10794342 0.00000000
0.27329063 -0.07818659 0.00000000
0.65004227 -0.00871957 0.00000000
-0.49266080 -0.38511238 0.00000000
-0.52766380 0.21774421 0.00000000
-0.50900098 0.09908879 0.00000000
-0.04675072 -0.15894528 0.00000000
-0.60899092 0.44534967 0.00000000
-0.51923988 -0.66100425 0.00000000
0.21890647 0.01131264 0.00000000
-0.17558294 -0.27419360 0.00000000
0.71489700 0.16531973 0.06641238
-0.16460353 0.00296290 0.00000000
0.23455743 0.49395943 0.00000000
-0.50317109 -0.39100998 0.00000000
0.34606679 0.10552457 0.00000000
-0.61893794 0.24263051 0.00000000
0.38257401 -0.44741296 0.00000000
0.66387231 -0.18548879 0.00000000
-0.09542318 -0.78100961 0.00000000
-0.01428208 0.36003335 0.00000000
-0.09533103 -0.61123352 0.00000000
0.34519594 0.44305240 0.00000000
0.11699583 0.77162743 0.07337238
0.36694929 0.58433852 0.12525225
0.47313298 0.22006186 0.00000000
0.58491156 0.38593698 0.14144660
0.25417421 0.01415923 0.00000000
0.30632154 0.56835444 0.06182519
-0.73050805 -0.09796869 0.00000000
0.06628097 -0.32540890 0.00000000
0.44811414 0.36193325 0.00831907
0.07492853 0.14461139 0.00000000
-0.76063640 0.15184106 0.00000000
0.01833139 -0.78487226 0.00000000
0.42772341 0.36005039 0.00000000
0.66795654 0.17684851 0.03709499
0.32797316 -0.27511007 0.00000000
-0.69198763 0.11655870 0.00000000
-0.03490942 -0.00200906 0.00000000
0.36079896 -0.08279278 0.00000000
0.01052955 0.47534610 0.00000000
0.50258509 0.14835005 0.00000000
-0.09130839 0.71848664 0.00000000
0.28781423 -0.10176585 0.00000000
0.75328998 -0.57723679 0.00000000
0.53045649 -0.23985193 0.00000000
-0.37547519 0.32735105 0.00000000
0.43446149 0.70724029 0.28289715
-0.04929064 0.21741501 0.00000000
-0.10789820 -0.15894291 0.00000000
0.70391641 -0.46272058 0.00000000
-0.46679115 0.67413265 0.00000000
-0.10159575 -0.49894164 0.00000000
-0.56559608 -0.73218576 0.00000000
-0.19305246 0.14928185 0.00000000
-0.57268643 0.14251131 0.00000000
0.56099143 0.02256266 0.00000000
0.10633047 0.71417228 0.01697508
0.13147443 -0.54446980 0.00000000
-0.48553984 -0.21408736 0.00000000
0.59969007 -0.67484186 0.00000000
0.76898914 -0.00524693 0.00000000
0.47669751 0.12074374 0.00000000
-0.78795559 -0.39254210 0.00000000
-0.40990734 -0.52200996 0.00000000
-0.19132633 0.75674922 0.00000000
0.60348198 0.66502728 0.38788156
0.25918130 0.32650674 0.00000000
-0.31808629 -0.74240662 0.00000000
-0.38466670 0.26775037 0.00000000
-0.62913173 -0.58803859 0.00000000
-0.43649052 -0.09906651 0.00000000
0.18704973 0.68150568 0.05675795
0.03577781 0.17482004 0.00000000
0.35748308 -0.38118140 0.00000000
-0.36853293 -0.13299489 0.00000000
0.28532040 0.22665910 0.00000000
-0.48831498 0.72350904 0.00000000
0.31994463 0.65753813 0.14693931
0.62123694 0.50579361 0.27075029
0.30416608 0.54284953 0.03892512
0.33369580 0.33150560 0.00000000
-0.57129468 0.50652383 0.00000000
-0.49423122 -0.51463166 0.00000000
0.33584362 -0.66510622 0.00000000
0.31684994 -0.05800974 0.00000000
-0.78925084 -0.08353413 0.00000000
0.66571640 0.23247718 0.08129545
0.01617340 0.62059776 0.00000000
-0.73489228 0.00119388 0.00000000
0.43050104 -0.39482056 0.00000000
-0.20347286 0.15960693 0.00000000
0.35480171 0.11359534 0.00000000
-0.54773372 0.19435328 0.00000000
0.24507897 0.33666369 0.00000000
-0.41691477 -0.60871507 0.00000000
0.07203992 0.75908204 0.02576674
0.22211121 0.69435997 0.09642762
-0.27623135 0.78430032 0.00000000
-0.16336400 -0.26480213 0.00000000
-0.41900191 -0.75552687 0.00000000
0.34615523 0.52098054 0.05558263
0.27566167 0.18537956 0.00000000
-0.49287634 -0.43862893 0.00000000
0.61479009 0.56636509 0.31556047
-0.78876852 0.70477836 0.00000000
-0.19273401 0.14422322 0.00000000
-0.41909555 0.17183315 0.00000000
0.47064968 -0.44097106 0.00000000
-0.00658824 -0.27704940 0.00000000
0.02535294 -0.11610925 0.00000000
0.77970614 -0.22034239 0.00000000
0.39484653 0.23574153 0.00000000
0.52500191 0.49205895 0.17970586
-0.26213173 -0.47496012 0.00000000
-0.66876999 0.05831664 0.00000000
0.07815776 0.58062110 0.00000000
-0.18527241 0.63262590 0.00000000
-0.64753214 0.65750611 0.00000000
0.05999102 0.04633023 0.00000000
0.53335352 -0.19886015 0.00000000
-0.31033189 -0.41390418 0.00000000
0.23461219 0.44460472 0.00000000
0.16262865 -0.63448707 0.00000000
0.02511282 0.57197790 0.00000000
0.71969135 -0.54113536 0.00000000
-0.32008861 0.07216753 0.00000000
-0.55040006 0.75628547 0.00000000
-0.75658747 -0.19745213 0.00000000
0.13495194 -0.73159996 0.00000000
-0.24878022 -0.24339352 0.00000000
0.20030686 0.23133013 0.00000000
0.14564175 -0.61042356 0.00000000
-0.57881666 0.60195876 0.00000000
-0.29942430 -0.75068612 0.00000000
-0.22234541 0.32490469 0.00000000
0.41657560 -0.30256332 0.00000000
0.02154381 0.72944997 0.00000000
-0.36047649 -0.66418448 0.00000000
0.75251438 -0.56515378 0.00000000
0.68925922 -0.03401808 0.00000000
0.05468181 -0.40197691 0.00000000
0.15268713 -0.50052221 0.00000000
-0.11062963 -0.21315378 0.00000000
0.08090865 0.40978773 0.00000000
0.30209790 -0.10652107 0.00000000
-0.20676834 -0.67050846 0.00000000
0.67314841 0.29335961 0.13785308
0.49320595 0.53492035 0.18886706
0.01615853 -0.32365858 0.00000000
0.15046854 -0.35444720 0.00000000
0.07553291 -0.40794713 0.00000000
-0.03980704 -0.51171118 0.00000000
0.10932225 0.55449016 0.00000000
-0.04859677 -0.34209009 0.00000000
0.72452018 -0.69454976 0.00000000
0.25338519 0.28550212 0.00000000
-0.60161631 0.23906562 0.00000000
-0.24829605 -0.77980075 0.00000000
0.46486691 -0.58628177 0.00000000
0.43287280 0.19605094 0.00000000
0.16021133 -0.48757939 0.00000000
0.56547792 0.56418519 0.27292994
0.08996598 -0.74566098 0.00000000
-0.01932242 -0.02717028 0.00000000
0.69663513 -0.49354386 0.00000000
-0.22073611 0.33417656 0.00000000
0.68223517 0.31178704 0.16063212
-0.03009501 -0.15043596 0.00000000
0.34842657 0.18195221 0.00000000
-0.39280164 0.23210736 0.00000000
-0.15712288 -0.36321601 0.00000000
-0.79981747 0.37851672 0.00000000
-0.44435291 -0.30587238 0.00000000
0.40588121 0.71190114 0.26309414
-0.11821718 -0.21842451 0.00000000
-0.65923697 0.19159420 0.00000000
0.33955703 -0.44832939 0.00000000
0.03775207 0.47377962 0.00000000
0.77401268 0.02889000 0.00240395
-0.55553692 0.56542508 0.00000000
0.70184667 -0.08137512 0.00000000
-0.15172661 0.61443208 0.00000000
0.61671689 0.30044672 0.09700076
-0.22566395 0.46163909 0.00000000
0.34484151 -0.29583846 0.00000000
0.50431838 0.26583959 0.00000000
0.78259947 -0.00666683 0.00000000
0.20395198 0.46155287 0.00000000
-0.14110584 0.18453323 0.00000000
-0.29216043 -0.44989083 0.00000000
-0.75081122 -0.16019022 0.00000000
-0.31444131 -0.59792684 0.00000000
-0.76025959 -0.56890249 0.00000000
-0.71516881 -0.66870386 0.00000000
-0.72220780 -0.36839816 0.00000000
-0.73007398 0.29385000 0.00000000
0.60682195 -0.73260355 0.00000000
-0.75762827 -0.77164752 0.00000000
0.73399156 -0.77380504 0.00000000
0.39067748 -0.76173752 0.00000000
0.60389257 0.22855600 0.02686504
-0.11524591 -0.09130401 0.00000000
-0.63999746 -0.05158783 0.00000000
0.19313157 0.32632371 0.00000000
0.08412194 -0.58848897 0.00000000
0.44771943 -0.48376513 0.00000000
0.33451772 -0.53798061 0.00000000
0.78503678 -0.19811059 0.00000000
0.37690315 -0.58861456 0.00000000
-0.77269511 0.04729308 0.00000000
-0.04447829 -0.52406633 0.00000000
-0.60599182 0.32741475 0.00000000
0.14953930 0.09584400 0.00000000
-0.54224009 0.23461076 0.00000000
0.64483375 0.47714711 0.26656956
0.26114240 -0.27551045 0.00000000
-0.60861035 -0.78638271 0.00000000
0.03448805 -0.65029192 0.00000000
0.21877245 -0.69559238 0.00000000
-0.61080952 -0.22023029 0.00000000
-0.54530341 -0.28508486 0.00000000
0.51298559 0.05238631 0.00000000
0.00439171 -0.23758016 0.00000000
0.20385895 0.73400006 0.11413480
-0.13507068 -0.75814620 0.00000000
-0.59331358 -0.15770972 0.00000000
-0.09590836 0.38871902 0.00000000
0.68309811 -0.36129012 0.00000000
-0.41214493 0.72140432 0.00000000
0.23967142 -0.19511839 0.00000000
-0.11284080 -0.12621701 0.00000000
0.14726552 -0.23167247 0.00000000
-0.07037898 0.04436382 0.00000000
-0.74836836 -0.47760520 0.00000000
-0.47002731 0.17384549 0.00000000
-0.24478294 -0.27454999 0.00000000
-0.63696798 0.67059117 0.00000000
0.50069817 -0.41013130 0.00000000
0.70145694 -0.21565882 0.00000000
0.32520739 -0.58255123 0.00000000
0.04364146 0.22137663 0.00000000
-0.77201607 0.50711413 0.00000000
0.31204333 0.41088139 0.00000000
-0.63419930 0.53553335 0.00000000
0.59391905 0.62695334 0.34844268
-0.58623424 0.32242946 0.00000000
0.23284402 0.30423975 0.00000000
0.05683305 -0.34382786 0.00000000
-0.04074163 0.11388270 0.00000000
0.54952856 -0.29368282 0.00000000
-0.11015309 0.53537931 0.00000000
0.75696430 -0.41263585 0.00000000
0.41269862 -0.27504096 0.00000000
0.47761684 0.60316819 0.23246363
0.06983167 0.13073340 0.00000000
-0.37739601 0.15634441 0.00000000
-0.59416860 -0.20979399 0.00000000
-0.43504304 0.24533107 0.00000000
0.64577476 0.07683503 0.00000000
0.08806053 -0.76804742 0.00000000
0.16223844 -0.36384084 0.00000000
0.12763821 -0.62004512 0.00000000
-0.57537554 0.27217454 0.00000000
0.06994050 -0.34560969 0.00000000
0.48527195 0.10553864 0.00000000
0.13209611 0.26658603 0.00000000
0.46517391 0.52147087 0.15452434
-0.34372976 -0.59572412 0.00000000
0.39929814 0.56730983 0.13793583
0.03528297 -0.05831155 0.00000000
-0.58053989 -0.37034960 0.00000000
0.78879186 -0.29716348 0.00000000
0.28647884 0.53045053 0.01401667
-0.36364706 -0.07195141 0.00000000
-0.17223409 -0.44052518 0.00000000
0.50973056 0.09555336 0.00000000
0.49698141 0.33611308 0.02739980
-0.44653542 0.54624680 0.00000000
0.14033358 -0.67535270 0.00000000
0.15630177 0.16837179 0.00000000
-0.58136585 0.29163368 0.00000000
-0.43584514 0.56103973 0.00000000
0.13673065 -0.26357702 0.00000000
-0.00549737 0.04850734 0.00000000
-0.28907613 -0.39010448 0.00000000
0.27876397 0.73067879 0.17339932
-0.09310700 -0.03617137 0.00000000
-0.02564382 0.66309236 0.00000000
-0.03045574 0.41297687 0.00000000
-0.55964959 0.74436653 0.00000000
-0.55013894 0.18678045 0.00000000
0.07886650 -0.57351204 0.00000000
0.66883634 -0.56315796 0.00000000
0.23262024 -0.36039439 0.00000000
0.31343727 0.32624179 0.00000000
0.04602712 -0.73552890 0.00000000
-0.04950243 0.40273899 0.00000000
0.33014984 -0.44316799 0.00000000
-0.17862155 -0.16970248 0.00000000
0.25023328 0.67513402 0.10379272
0.50572178 0.42170619 0.10549864
-0.12663193 0.16900545 0.00000000
0.46185821 -0.11057293 0.00000000
-0.28185549 0.74998707 0.00000000
0.02965068 -0.05145614 0.00000000
0.61389051 0.31423233 0.10607393
0.40635538 0.27383580 0.00000000
0.45644733 -0.48037019 0.00000000
-0.15059278 -0.44743741 0.00000000
-0.29074385 -0.75496807 0.00000000
-0.11194224 -0.78690806 0.00000000
0.12612262 -0.10562837 0.00000000
0.75435728 -0.22565825 0.00000000
0.70380293 0.40159064 0.25283669
-0.45394054 -0.17347469 0.00000000
-0.04329818 0.65495148 0.00000000
0.52287123 0.29637099 0.01593149
-0.25429425 -0.28541918 0.00000000
0.10791122 -0.27060548 0.00000000
0.05637007 0.68278898 0.00000000
-0.63379153 -0.03999742 0.00000000
-0.27917363 -0.17864851 0.00000000
0.72743120 0.27744902 0.16962149
-0.57581936 0.64199821 0.00000000
-0.41880729 -0.19418083 0.00000000
0.75551033 -0.77617400 0.00000000
-0.26789794 0.45980451 0.00000000
0.76202335 -0.55627750 0.00000000
-0.12226406 -0.04039168 0.00000000
-0.77546905 0.50048801 0.00000000
-0.49380608 -0.58906145 0.00000000
-0.65071722 -0.64245278 0.00000000
-0.46558502 0.08948943 0.00000000
-0.77876064 -0.45973924 0.00000000
-0.42464285 -0.75194347 0.00000000
0.29959379 0.57369964 0.06068057
-0.01437994 -0.07583112 0.00000000
-0.49196400 0.61039430 0.00000000
0.16082311 -0.47805552 0.00000000
0.05135515 0.44254719 0.00000000
-0.71736439 -0.09924225 0.00000000
0.72994915 0.32372410 0.21001732
0.06171593 0.71006162 0.00000000
-0.12819644 0.07510703 0.00000000
0.01478238 -0.72538377 0.00000000
-0.73669299 0.79108785 0.00000000
-0.16622261 0.04781183 0.00000000
-0.17910929 -0.48688776 0.00000000
0.68007305 0.12379595 0.00320397
-0.48134215 0.75376259 0.00000000
-0.39736336 -0.59715196 0.00000000
0.52062584 -0.40566413 0.00000000
0.58691376 0.07636006 0.00000000
-0.64204626 0.52537274 0.00000000
0.28710449 0.00658199 0.00000000
0.21441137 -0.36865627 0.00000000
0.04798083 -0.74328392 0.00000000
-0.05698305 -0.55724950 0.00000000
-0.29512661 -0.41487260 0.00000000
0.62775865 0.02588783 0.00000000
-0.16391894 0.25148261 0.00000000
0.25733887 0.54640380 0.00309938
-0.04570567 -0.39202485 0.00000000
0.66627981 0.41826382 0.23557496
0.17905071 -0.53435948 0.00000000
-0.05152808 -0.63540017 0.00000000
-0.79842042 -0.49814966 0.00000000
-0.03038806 -0.02870585 0.00000000
-0.71078077 0.57886545 0.00000000
0.64554662 -0.72293445 0.00000000
0.38916319 0.69450925 0.23485434
0.17396109 -0.62800489 0.00000000
0.49719898 -0.06465805 0.00000000
-0.05030412 -0.14926848 0.00000000
0.47105111 0.66181610 0.27558286
-0.41073086 -0.39026397 0.00000000
0.22847027 -0.27602287 0.00000000
-0.60030834 0.72636922 0.00000000
0.29848866 0.13612577 0.00000000
0.12425391 0.66631991 0.00000000
-0.20208855 0.57228190 0.00000000
-0.50312660 -0.53815728 0.00000000
0.58703104 -0.49182161 0.00000000
0.25738858 0.20921819 0.00000000
-0.06840998 -0.32249644 0.00000000
0.36362416 0.69030450 0.21022931
0.59680522 -0.58726094 0.00000000
-0.40405429 -0.06249574 0.00000000
-0.48804461 -0.27699184 0.00000000
0.41334983 0.50600728 0.09881677
0.21497080 0.37814121 0.00000000
0.32688617 0.64043137 0.13852344
0.27035813 -0.17518050 0.00000000
-0.15757405 0.34766494 0.00000000
0.05761213 0.66411621 0.00000000
0.52895515 0.31408640 0.03563499
0.51426435 0.43097939 0.12024835
0.52319407 0.02731238 0.00000000
0.22660610 -0.71792027 0.00000000
-0.52359384 -0.57641908 0.00000000
-0.11733742 -0.55440644 0.00000000
-0.56782537 -0.68846320 0.00000000
-0.45507908 -0.64637446 0.00000000
0.35033564 -0.08719273 0.00000000
-0.58589568 -0.38395014 0.00000000
-0.13770626 -0.57196872 0.00000000
-0.06354856 -0.38365307 0.00000000
-0.42781689 -0.21846498 0.00000000
0.22199715 0.54770146 0.00000000
-0.19429456 0.43242958 0.00000000
0.20563254 0.22849697 0.00000000
0.52680010 -0.26172891 0.00000000
0.27466301 -0.06339557 0.00000000
-0.40514317 0.52217887 0.00000000
-0.69341412 -0.36092141 0.00000000
-0.12357967 -0.13889871 0.00000000
0.26635363 -0.07740047 0.00000000
0.64252477 -0.68365836 0.00000000
0.42201639 -0.05657986 0.00000000
0.69492241 0.37540653 0.22380659
-0.69890190 0.25594539 0.00000000
-0.65494634 -0.02233017 0.00000000
0.39023422 0.26273121 0.00000000
0.64741101 0.62623108 0.39213097
0.48198323 0.58825170 0.22372912
-0.75523168 -0.63168172 0.00000000
-0.62697862 -0.62887129 0.00000000
-0.72035357 0.45217481 0.00000000
-0.71623198 -0.34007139 0.00000000
0.66397052 0.14948941 0.01114431
-0.77120360 -0.00760754 0.00000000
-0.53170501 -0.75927626 0.00000000
-0.10382140 0.55189820 0.00000000
-0.04152545 -0.75545575 0.00000000
0.03695547 0.15910999 0.00000000
0.76000849 -0.63901222 0.00000000
-0.47305899 0.39803800 0.00000000
0.37665818 0.54403639 0.09992405
0.66609191 -0.20033979 0.00000000
0.48530811 0.50448009 0.15712678
0.15452740 0.00513909 0.00000000
-0.44404933 0.52500179 0.00000000
-0.43965165 0.34959732 0.00000000
-0.72340102 0.11807064 0.00000000
0.50624515 0.64034428 0.28694350
0.25396405 -0.48981256 0.00000000
0.04329035 -0.49703679 0.00000000
0.46473948 -0.57555343 0.00000000
-0.66259701 0.49689280 0.00000000
-0.77739969 0.21298311 0.00000000
-0.36098580 -0.05093941 0.00000000
0.36555444 -0.40137904 0.00000000
-0.67780732 -0.56627844 0.00000000
-0.39975589 0.68769405 0.00000000
-0.12486138 0.06218017 0.00000000
0.30052339 0.00167381 0.00000000
-0.02898442 -0.47168662 0.00000000
-0.02413727 0.76566824 0.00000000
0.40912154 0.17017378 0.00000000
0.00516909 -0.35762503 0.00000000
0.19627717 -0.75390370 0.00000000
0.02231180 0.23132838 0.00000000
0.00034682 0.65813153 0.00000000
-0.00470352 -0.24491322 0.00000000
0.22300842 0.57354088 0.00000000
0.29355825 -0.68076686 0.00000000
0.48558496 -0.76778486 0.00000000
-0.55694621 -0.54610635 0.00000000
-0.42705860 0.00935507 0.00000000
0.15191846 -0.08837921 0.00000000
0.02178577 -0.26359101 0.00000000
-0.48197362 -0.55057904 0.00000000
0.77047534 -0.50311215 0.00000000
0.01970360 0.75207628 0.00000000
-0.67363543 -0.35447418 0.00000000
-0.71976250 0.45404707 0.00000000
-0.21840387 0.56843448 0.00000000
0.56424158 -0.03040832 0.00000000
-0.05601629 0.13463229 0.00000000
0.72821543 -0.75347569 0.00000000
-0.17297171 -0.54315631 0.00000000
0.27247946 0.01127975 0.00000000
0.26761916 -0.46616871 0.00000000
-0.12904509 0.10501247 0.00000000
0.66601292 0.03480940 0.00000000
0.40622655 0.32929989 0.00000000
0.07161091 0.28660154 0.00000000
0.24173027 0.38699319 0.00000000
-0.16515451 -0.48433715 0.00000000
-0.43484830 0.21485952 0.00000000
-0.75573350 0.05961935 0.00000000
-0.48081114 0.01884862 0.00000000
-0.11912895 -0.39001491 0.00000000
-0.38456689 -0.74782237 0.00000000
-0.01505538 0.58354121 0.00000000
-0.39864179 0.69809400 0.00000000
-0.67544941 -0.53187386 0.00000000
-0.65271515 0.24712846 0.00000000
-0.04001326 -0.46807403 0.00000000
-0.61292235 0.23814454 0.00000000
0.25842030 0.69997519 0.13113698
0.57809116 -0.40058508 0.00000000
0.30276426 -0.11387266 0.00000000
-0.24981394 -0.07677480 0.00000000
-0.50028839 0.09288803 0.00000000
-0.03929118 -0.00201803 0.00000000
-0.67261333 0.03611430 0.00000000
-0.60817745 0.47014771 0.00000000
0.61130286 -0.57141256 0.00000000
-0.50632204 0.16884716 0.00000000
-0.50024789 0.51621211 0.00000000
-0.18425714 -0.56512463 0.00000000
-0.78141482 0.45960658 0.00000000
0.65869988 0.18750160 0.03825110
0.11247533 -0.16534284 0.00000000
0.14707183 0.48442984 0.00000000
-0.41849223 -0.21792441 0.00000000
0.47695858 0.09866910 0.00000000
-0.72767856 -0.65201699 0.00000000
0.08281541 0.39334142 0.00000000
-0.56933905 -0.44759965 0.00000000
0.28189295 -0.08413163 0.00000000
-0.05882638 0.22745919 0.00000000
0.53714063 0.32127373 0.04836216
-0.04143801 -0.08558912 0.00000000
-0.51044977 -0.64664922 0.00000000
0.62487667 -0.62540140 0.00000000
-0.69051103 -0.17601029 0.00000000
-0.67380662 0.10846508 0.00000000
-0.57233730 0.06809131 0.00000000
0.07177291 0.53564612 0.00000000
-0.05018717 0.56895793 0.00000000
0.43517343 0.18795234 0.00000000
0.72078842 0.14013328 0.05043800
0.06131769 -0.22237869 0.00000000
-0.24061911 0.16017252 0.00000000
-0.48218113 0.48036133 0.00000000
-0.37782620 -0.04420242 0.00000000
-0.49216666 0.47624543 0.00000000
-0.72594555 0.01021115 0.00000000
0.34792000 0.61822708 0.13755436
0.33004678 -0.20646805 0.00000000
0.69243485 0.16828884 0.05027407
-0.03422305 0.03528819 0.00000000
0.50479541 0.09735025 0.00000000
0.35666480 -0.78565809 0.00000000
-0.35284408 0.41805815 0.00000000
-0.69039200 0.47946747 0.00000000
-0.77111430 -0.13494238 0.00000000
0.20825637 -0.21710218 0.00000000
-0.75818419 0.46765549 0.00000000
-0.44190578 -0.32395875 0.00000000
0.65072413 -0.24146794 0.00000000
-0.67469592 -0.59820645 0.00000000
-0.02577996 -0.38045184 0.00000000
-0.50656350 0.26355768 0.00000000
0.62525892 0.53574469 0.29887682
0.62099093 -0.26624357 0.00000000
0.67683787 -0.76093568 0.00000000
0.03285925 -0.43144591 0.00000000
0.47577027 0.36996151 0.03786223
0.10346468 0.70934351 0.01060474
-0.40537534 0.69692464 0.00000000
0.68057696 0.32661183 0.17153276
0.41686169 0.13540372 0.00000000
-0.63638023 0.37053272 0.00000000
-0.59553620 -0.30195041 0.00000000
-0.23556774 -0.28895908 0.00000000
-0.29230336 0.43084866 0.00000000
0.01205082 0.34548709 0.00000000
0.21030274 -0.21340486 0.00000000
0.08085308 -0.22911390 0.00000000
0.72911340 -0.09287953 0.00000000
0.50798738 -0.25084484 0.00000000
-0.40682610 0.19123888 0.00000000
-0.72686354 0.61479306 0.00000000
0.08220320 -0.73802371 0.00000000
0.18665247 0.06692399 0.00000000
0.09125584 -0.71936242 0.00000000
0.07712492 -0.68850607 0.00000000
0.18699941 -0.21178855 0.00000000
0.04609554 0.62265757 0.00000000
0.21862737 -0.64248814 0.00000000
-0.03579746 -0.48862649 0.00000000
0.16634540 -0.69901077 0.00000000
-0.38625136 0.27869011 0.00000000
0.17066914 -0.43504500 0.00000000
0.33092845 -0.41210223 0.00000000
-0.05662641 -0.13640656 0.00000000
-0.41104420 -0.09174567 0.00000000
-0.21747678 0.30862465 0.00000000
0.59097434 -0.10819128 0.00000000
0.42727844 -0.24943209 0.00000000
-0.07174864 -0.50996704 0.00000000
-0.53799162 -0.66391105 0.00000000
-0.69140943 -0.68019673 0.00000000
0.27703109 0.07958534 0.00000000
0.49931553 -0.41740416 0.00000000
0.48639870 -0.37511653 0.00000000
-0.54369862 -0.58869787 0.00000000
-0.67327317 0.63242309 0.00000000
-0.74755655 -0.43772660 0.00000000
0.07278626 -0.07887582 0.00000000
-0.12029298 -0.21389092 0.00000000
-0.50031967 -0.72910691 0.00000000
-0.23446952 0.74165768 0.00000000
0.05285828 0.13649769 0.00000000
0.45738772 -0.12783197 0.00000000
-0.13960390 -0.64735066 0.00000000
0.44910213 -0.31082192 0.00000000
0.65083828 0.13476000 0.00000000
0.42782500 -0.75895021 0.00000000
0.17676388 0.38221944 0.00000000
0.08935853 -0.46721971 0.00000000
0.67335357 -0.45197600 0.00000000
0.38685661 0.01086884 0.00000000
-0.68759732 0.73581782 0.00000000
-0.26276825 0.18863555 0.00000000
-0.15775445 0.55486834 0.00000000
0.42721177 -0.59982957 0.00000000
0.40667426 -0.77300703 0.00000000
-0.04072881 0.52412231 0.00000000
0.10669461 0.65675972 0.00000000
-0.35346495 0.42131077 0.00000000
-0.73935306 0.46256288 0.00000000
0.43041972 -0.38577917 0.00000000
0.66118800 -0.12501263 0.00000000
-0.34756537 -0.29497315 0.00000000
-0.24375233 -0.24568676 0.00000000
0.06647422 -0.09479376 0.00000000
-0.59292029 -0.00989054 0.00000000
-0.19989699 -0.51248149 0.00000000
0.41617738 -0.77222518 0.00000000
-0.78452367 0.25052045 0.00000000
-0.03812330 0.56245513 0.00000000
-0.08393387 0.47995509 0.00000000
0.72737350 -0.60920714 0.00000000
0.44121704 -0.57007698 0.00000000
0.39984083 -0.49676725 0.00000000
0.07901269 0.61075737 0.00000000
-0.01205217 -0.50058523 0.00000000
0.44870098 -0.56279363 0.00000000
-0.11308114 0.48555025 0.00000000
-0.57417094 0.15035644 0.00000000
0.54392985 0.32795417 0.05951371
0.55561987 0.67693521 0.35811495
0.32198706 0.48128250 0.00270769
0.43912917 -0.46990435 0.00000000
-0.11837128 0.41415929 0.00000000
0.50204016 0.60867521 0.25724311
-0.02194301 0.26641678 0.00000000
0.53002254 0.29530467 0.02096926
0.36424815 -0.09427245 0.00000000
0.23290529 -0.47798239 0.00000000
-0.46838572 0.60123681 0.00000000
0.49966468 -0.03845545 0.00000000
0.40127336 -0.06875508 0.00000000
0.11532195 0.23984598 0.00000000
-0.26834305 0.00133629 0.00000000
-0.01265318 -0.32334273 0.00000000
-0.51641505 0.44947653 0.00000000
-0.25999352 -0.23995807 0.00000000
0.11721990 0.73222375 0.04093530
-0.44571997 0.39184031 0.00000000
0.33900679 -0.71094576 0.00000000
0.14878469 0.42454368 0.00000000
-0.72151228 -0.63658394 0.00000000
-0.27168483 -0.17234485 0.00000000
-0.33967143 -0.08277332 0.00000000
-0.52991396 -0.62475206 0.00000000
0.24219541 0.57284956 0.01245657
0.73993638 -0.41470616 0.00000000
0.51923344 -0.39754510 0.00000000
0.72229342 0.22111993 0.11873297
0.79625633 -0.38188222 0.00000000
0.66498264 0.11467066 0.00000000
-0.40381949 -0.28090028 0.00000000
0.58905505 -0.27419559 0.00000000
-0.09504391 0.73443796 0.00000000
-0.71627209 -0.55600929 0.00000000
0.23037836 0.01272809 0.00000000
0.03076891 -0.07687070 0.00000000
-0.53311141 -0.10381697 0.00000000
0.67650644 0.23418620 0.09164344
0.23423412 0.47042311 0.00000000
-0.35514256 0.76497047 0.00000000
0.15793191 0.18485588 0.00000000
-0.63554801 0.76156585 0.00000000
0.44836656 0.64941608 0.24653614
-0.27514041 0.37806130 0.00000000
0.54626762 -0.32545796 0.00000000
0.34955677 -0.06119242 0.00000000
-0.70623707 -0.13085262 0.00000000
-0.59888018 0.57889925 0.00000000
0.09054614 -0.19268688 0.00000000
-0.29070602 -0.06957087 0.00000000
-0.32634144 0.53075892 0.00000000
0.16457724 0.59530202 0.00000000
-0.25892344 0.44983620 0.00000000
-0.46158172 0.38703466 0.00000000
0.52449757 0.36608563 0.07499480
0.24273411 0.41836275 0.00000000
-0.79355820 0.57980341 0.00000000
0.03319942 0.26375191 0.00000000
-0.71174633 0.63494167 0.00000000
-0.37090850 -0.47052597 0.00000000
0.15440007 0.06081578 0.00000000
-0.22574011 0.77531816 0.00000000
-0.04343963 -0.59516894 0.00000000
0.58691930 0.52745759 0.26027432
-0.50211629 -0.66168852 0.00000000
-0.49371926 0.03206921 0.00000000
0.16097477 0.10519789 0.00000000
0.53306467 -0.78584891 0.00000000
0.51859560 0.34396967 0.05179872
0.12068880 -0.77006336 0.00000000
-0.17832574 0.27320375 0.00000000
0.04190582 0.37325503 0.00000000
-0.32028163 0.26159026 0.00000000
0.38113378 -0.40920186 0.00000000
0.18012625 0.54469818 0.00000000
0.40914979 -0.32689178 0.00000000
0.32282188 -0.54136841 0.00000000
-0.23457861 -0.24340982 0.00000000
-0.06439288 0.30862680 0.00000000
0.09410086 0.74716386 0.03416395
-0.29746405 -0.77513386 0.00000000
-0.72350764 -0.71325166 0.00000000
-0.06486816 0.67036621 0.00000000
0.48248033 0.38867912 0.05891384
0.47277229 -0.30074820 0.00000000
-0.33951471 0.43117221 0.00000000
0.48943921 0.01301630 0.00000000
0.08709857 -0.16270259 0.00000000
0.28337481 0.28767936 0.00000000
0.64794116 -0.21698268 0.00000000
0.17481496 0.46096865 0.00000000
-0.35927286 0.12728034 0.00000000
-0.50913854 0.59799053 0.00000000
-0.19874055 -0.14965263 0.00000000
0.79179719 -0.44024984 0.00000000
0.27868159 -0.28567948 0.00000000
-0.17778596 -0.28583890 0.00000000
0.64026656 0.49103812 0.27428883
0.48737142 -0.61372512 0.00000000
0.69001089 0.42537363 0.26110830
0.59995550 0.37230225 0.14261329
-0.06523001 -0.01806721 0.00000000
-0.79445332 -0.24610373 0.00000000
-0.70393960 0.38791474 0.00000000
0.34653420 0.68938594 0.19531998
0.46473441 -0.24483113 0.00000000
-0.68542096 -0.60269508 0.00000000
0.56232513 0.67709249 0.36379648
-0.40354196 0.42195978 0.00000000
0.62196556 0.35008249 0.14243967
-0.68535746 -0.79072816 0.00000000
-0.24208592 -0.05097035 0.00000000
-0.12048230 -0.75226665 0.00000000
-0.57127336 -0.79052071 0.00000000
0.22506530 0.50299706 0.00000000
-0.06240696 0.10653094 0.00000000
-0.28000946 0.65940950 0.00000000
0.23740987 0.20120659 0.00000000
-0.20333744 -0.04742582 0.00000000
0.13258670 0.12637993 0.00000000
0.11077146 0.15314569 0.00000000
-0.21707258 0.09920755 0.00000000
0.45255936 -0.75034226 0.00000000
-0.57216212 0.60182849 0.00000000
-0.09340746 0.47153763 0.00000000
-0.26179021 0.37134293 0.00000000
0.14472091 0.70965780 0.04502103
-0.06002818 -0.40265406 0.00000000
0.59526079 -0.02973196 0.00000000
0.57482292 -0.01824567 0.00000000
0.23383116 0.17522795 0.00000000
0.04565430 -0.42897416 0.00000000
-0.27633421 -0.02911337 0.00000000
0.13583029 -0.67402914 0.00000000
0.61132203 0.61141554 0.34998684
0.33781122 -0.51978851 0.00000000
-0.30948355 0.25228950 0.00000000
0.65153354 -0.16476159 0.00000000
0.29406849 -0.28950585 0.00000000
0.53710261 -0.69979905 0.00000000
-0.67156947 0.43900514 0.00000000
-0.38452246 0.52434647 0.00000000
0.33033713 -0.10074530 0.00000000
-0.21347787 -0.34380979 0.00000000
0.25233892 -0.16192945 0.00000000
0.14550760 -0.70229326 0.00000000
0.31708479 -0.74736097 0.00000000
0.07826308 0.42305319 0.00000000
-0.55123351 -0.05213741 0.00000000
0.56814485 -0.56876557 0.00000000
0.17720002 -0.36455784 0.00000000
-0.13777153 -0.41014461 0.00000000
0.22622490 0.70652740 0.10990687
0.70632453 0.20658537 0.09347911
0.17908735 -0.76005093 0.00000000
-0.00891169 0.40224807 0.00000000
-0.71929550 0.37608474 0.00000000
-0.58988915 -0.56927502 0.00000000
0.04073792 -0.10975199 0.00000000
-0.07387834 -0.74092886 0.00000000
-0.63195649 0.00432652 0.00000000
0.02047311 0.62005712 0.00000000
0.74775261 -0.21305839 0.00000000
-0.53557121 0.56441743 0.00000000
0.01812318 0.61327422 0.00000000
-0.54966431 -0.39964549 0.00000000
-0.43353663 0.62599390 0.00000000
-0.64352704 -0.58786532 0.00000000
-0.13877847 -0.20862723 0.00000000
-0.76048361 -0.05950058 0.00000000
0.58936583 0.48859178 0.23012253
0.69408890 0.22696509 0.10022162
-0.79530521 0.00036756 0.00000000
-0.62740111 -0.01114061 0.00000000
0.42344858 -0.77288224 0.00000000
-0.67266865 -0.77033370 0.00000000
-0.75784322 -0.79431496 0.00000000
-0.76051267 -0.78802905 0.00000000
-0.17711287 -0.77974622 0.00000000
-0.63121338 0.56675826 0.00000000
0.34428411 0.36065564 0.00000000
-0.06308315 -0.17779260 0.00000000
0.04434374 0.67893482 0.00000000
-0.05217387 -0.39165042 0.00000000
0.39044733 -0.41071307 0.00000000
-0.49597289 0.66552364 0.00000000
-0.22890785 -0.01345724 0.00000000
0.51758299 -0.76140286 0.00000000
-0.10076085 -0.41632272 0.00000000
0.77671841 -0.56495599 0.00000000
-0.71562749 0.68126069 0.00000000
0.23173677 -0.68376172 0.00000000
0.46376804 -0.19006431 0.00000000
0.71506837 0.28776427 0.16792630
0.51737291 -0.22803467 0.00000000
-0.23668042 0.20833908 0.00000000
0.08532180 0.21124050 0.00000000
0.33218621 0.03926050 0.00000000
-0.24648058 -0.46278133 0.00000000
-0.25381992 -0.14290023 0.00000000
-0.19615393 0.75288967 0.00000000
0.70955380 -0.01158258 0.00000000
0.18870169 0.29640432 0.00000000
-0.00289639 -0.74118599 0.00000000
0.05091647 -0.42322939 0.00000000
-0.30320330 0.06185359 0.00000000
-0.13605168 -0.30280255 0.00000000
0.45313127 0.64290155 0.24508744
-0.08803209 -0.26824132 0.00000000
-0.72607884 -0.07405277 0.00000000
0.28961428 0.62520280 0.09505807
-0.66853935 0.63842350 0.00000000
0.38740383 -0.38488343 0.00000000
-0.19002680 0.26502358 0.00000000
-0.18512893 -0.48223341 0.00000000
0.67873452 0.54141786 0.34784639
-0.55017156 0.50834642 0.00000000
-0.24702467 -0.53319095 0.00000000
0.31224521 0.41435003 0.00000000
-0.61563483 0.45886880 0.00000000
0.44420466 -0.76457272 0.00000000
-0.71127005 -0.27618951 0.00000000
0.54885276 0.18939220 0.00000000
0.20908667 0.58982120 0.00000000
0.03248759 0.02494499 0.00000000
-0.33917263 0.24983376 0.00000000
-0.63964749 0.37540212 0.00000000
0.70674864 -0.07319602 0.00000000
0.59524646 0.64749287 0.36654647
-0.32939931 0.16147582 0.00000000
-0.20806802 -0.53201043 0.00000000
-0.54990798 -0.03583865 0.00000000
0.75067343 -0.39521692 0.00000000
0.48345731 -0.27175040 0.00000000
0.55909555 0.50724832 0.22050751
0.18135100 0.67220990 0.04434398
0.20230846 0.19858086 0.00000000
0.34919195 0.25836678 0.00000000
0.36411071 0.44207199 0.00511949
-0.67277144 -0.68784413 0.00000000
0.48942390 0.63549218 0.26900001
0.04567488 -0.20471104 0.00000000
-0.61365292 0.07931801 0.00000000
0.58633807 0.43884080 0.18642677
0.35052554 0.03767127 0.00000000
-0.28511807 0.24582927 0.00000000
0.10726246 -0.79858378 0.00000000
0.44363088 0.66266227 0.25358206
-0.39047410 -0.18097284 0.00000000
-0.50454205 0.69894773 0.00000000
0.56109490 0.57831840 0.28100220
-0.43037444 -0.09001374 0.00000000
-0.38129612 -0.46419951 0.00000000
-0.79894752 -0.10754101 0.00000000
0.64048510 0.53022066 0.30690927
0.50775529 0.25669290 0.00000000
-0.18311909 0.78608647 0.00000000
0.68830104 0.22456567 0.09344335
0.55724985 0.37631593 0.11058015
-0.77324082 0.19024395 0.00000000
0.69434913 -0.18296396 0.00000000
-0.46929798 0.61762699 0.00000000
-0.21839244 -0.74106112 0.00000000
0.00886201 0.15908596 0.00000000
-0.47315807 0.76346355 0.00000000
0.24980020 -0.15205933 0.00000000
0.04053068 0.78473813 0.02092095
0.70854284 -0.40698697 0.00000000
0.50660521 0.40873238 0.09548900
-0.41893562 -0.38967109 0.00000000
0.26217464 -0.59470957 0.00000000
-0.05331604 -0.31936441 0.00000000
-0.35721928 0.23308552 0.00000000
0.61172191 -0.54184828 0.00000000
0.51326293 -0.70962456 0.00000000
-0.73489176 -0.59676464 0.00000000
0.26799527 0.22444822 0.00000000
0.61741221 -0.22011706 0.00000000
0.53217737 -0.08246458 0.00000000
-0.78449811 -0.12199632 0.00000000
0.19694909 -0.73674813 0.00000000
-0.79364165 -0.06034624 0.00000000
0.20021403 0.53294938 0.00000000
-0.25952685 0.37025455 0.00000000
0.36243260 0.51481555 0.06395470
-0.32084639 -0.62684485 0.00000000
-0.30203838 0.72269457 0.00000000
-0.76775068 0.12122094 0.00000000
0.32080524 0.17386726 0.00000000
0.04411859 0.78560295 0.02460739
-0.24563867 0.14965368 0.00000000
-0.53895336 -0.75731925 0.00000000
-0.74835460 0.72640646 0.00000000
0.20763459 -0.31556869 0.00000000
0.26083472 -0.03373868 0.00000000
-0.69090239 0.50792745 0.00000000
0.70702619 -0.73050856 0.00000000
-0.51853988 -0.02733966 0.00000000
0.01351677 0.71959442 0.00000000
-0.35726396 -0.35264509 0.00000000
-0.05920912 -0.41219791 0.00000000
0.36277041 0.03570236 0.00000000
0.54902698 -0.31504293 0.00000000
-0.37838508 0.74737333 0.00000000
-0.17732665 -0.28034727 0.00000000
0.50011010 -0.10369384 0.00000000
0.54438057 0.68237350 0.35331228
-0.41999324 0.31291541 0.00000000
-0.66940892 0.12774061 0.00000000
-0.39174503 0.67773458 0.00000000
0.39207354 0.23939825 0.00000000
-0.70267918 0.12117369 0.00000000
0.02305621 0.67335685 0.00000000
0.35175153 -0.22389761 0.00000000
-0.08139006 0.54898745 0.00000000
-0.70808223 0.58128489 0.00000000
0.11528367 -0.68766055 0.00000000
-0.71197979 -0.10518357 0.00000000
-0.08281860 -0.41355738 0.00000000
0.65597053 0.41005242 0.22024166
-0.06065122 0.59057941 0.00000000
0.35861985 0.15656960 0.00000000
-0.37823860 0.72126230 0.00000000
-0.43626053 -0.07969910 0.00000000
0.66962931 0.28234261 0.12581862
-0.40361251 0.31724691 0.00000000
-0.57173624 0.36738658 0.00000000
-0.31436185 0.42498389 0.00000000
0.28763746 -0.65092491 0.00000000
-0.73977512 -0.37517044 0.00000000
0.74422558 -0.21524389 0.00000000
0.35226958 0.29385536 0.00000000
-0.04816800 -0.44393710 0.00000000
-0.04108293 -0.43110993 0.00000000
0.33508535 0.58451640 0.09901931
0.44569621 0.01655747 0.00000000
-0.33907358 -0.02616921 0.00000000
0.14933762 0.49679618 0.00000000
-0.37056546 -0.51708496 0.00000000
-0.08457069 -0.46505974 0.00000000
-0.07456013 -0.62096908 0.00000000
0.70912012 -0.74955324 0.00000000
0.45825132 -0.33866093 0.00000000
-0.15319872 -0.73882464 0.00000000
-0.16086667 -0.10610196 0.00000000
-0.77479691 -0.22628846 0.00000000
0.61839431 -0.49935051 0.00000000
0.41709709 -0.27458791 0.00000000
0.24006990 0.40345116 0.00000000
-0.50279936 -0.52641555 0.00000000
-0.23287230 -0.07619037 0.00000000
-0.11487965 0.43008067 0.00000000
0.26676581 -0.30934702 0.00000000
-0.36878380 -0.12194972 0.00000000
-0.52206459 0.71082776 0.00000000
-0.64984252 0.63234338 0.00000000
0.47763792 -0.27644022 0.00000000
0.38977535 0.53180656 0.10065868
0.00472036 -0.25940193 0.00000000
-0.28826871 0.70736173 0.00000000
-0.29864138 0.56392514 0.00000000
0.51158073 0.29951303 0.00918535
-0.20862591 0.19908936 0.00000000
0.07136248 0.25309967 0.00000000
0.62388873 0.06815711 0.00000000
0.09075685 0.21340737 0.00000000
0.61629350 0.51862263 0.27727883
-0.71892908 -0.53446112 0.00000000
-0.38392071 0.43799210 0.00000000
0.71921243 -0.56331507 0.00000000
-0.03625813 0.17655211 0.00000000
-0.33780541 0.16606801 0.00000000
-0.02055761 0.01488470 0.00000000
0.60951147 0.37390419 0.15185094
0.67121393 -0.40721232 0.00000000
0.18009761 -0.14075108 0.00000000
-0.52635432 -0.43657625 0.00000000
0.78265288 -0.71234119 0.00000000
-0.78928020 -0.22949125 0.00000000
-0.18197086 -0.10818898 0.00000000
0.56411190 0.51019047 0.22709639
-0.45261645 -0.25776271 0.00000000
0.42165051 0.44441413 0.05469584
-0.69039303 -0.25278188 0.00000000
-0.41183980 0.66702429 0.00000000
0.27803149 0.65605588 0.11101207
-0.62439092 -0.20021615 0.00000000
0.64496991 -0.63783326 0.00000000
0.72730054 -0.51042407 0.00000000
0.66366980 -0.03007781 0.00000000
0.35252209 0.16930414 0.00000000
0.15449163 0.19490363 0.00000000
0.04460453 -0.07851880 0.00000000
0.73228088 -0.34802232 0.00000000
-0.19214683 0.31496027 0.00000000
0.32749568 -0.50036446 0.00000000
0.26278913 0.74285170 0.17025171
0.53588604 -0.56924710 0.00000000
-0.36243214 0.71048325 0.00000000
-0.19687275 0.70716002 0.00000000
-0.70848720 -0.06478783 0.00000000
-0.74127096 -0.32040525 0.00000000
0.48411120 0.69008784 0.30980173
-0.60914603 0.10411521 0.00000000
0.79031541 -0.20954243 0.00000000
-0.53661512 -0.31537096 0.00000000
0.47739562 0.63527624 0.25886296
-0.73081098 -0.57281188 0.00000000
-0.58011072 -0.40030152 0.00000000
0.02788952 -0.45795668 0.00000000
0.32080045 -0.26667192 0.00000000
0.09668574 -0.09294830 0.00000000
0.57232949 -0.76043964 0.00000000
0.36690499 0.55502795 0.10094929
-0.29808759 0.34111078 0.00000000
0.33917414 0.48098627 0.01669166
-0.18976871 0.54027466 0.00000000
0.47169147 0.61800287 0.23983973
-0.69495337 -0.32920056 0.00000000
0.22908658 0.34264452 0.00000000
-0.14611724 -0.07566734 0.00000000
0.37227102 0.16917827 0.00000000
-0.24729939 0.78060070 0.00000000
0.38525008 -0.75415181 0.00000000
-0.61149578 0.56341770 0.00000000
-0.14596679 -0.29914528 0.00000000
0.72444877 -0.12663457 0.00000000
0.20342160 0.54953965 0.00000000
-0.27325234 0.58534256 0.00000000
0.30737604 0.72521833 0.19256664
0.68409071 0.02574658 0.00000000
0.62418613 0.05635260 0.00000000
0.23441370 0.71156148 0.12085416
0.14107437 -0.61779230 0.00000000
-0.25647919 -0.42927428 0.00000000
-0.55630138 -0.54225533 0.00000000
0.68227591 0.41693552 0.24771851
0.33543615 0.01810468 0.00000000
-0.37440145 0.77631230 0.00000000
0.38872916 0.58458400 0.14348711
-0.76858985 -0.39445727 0.00000000
-0.44476544 0.63125826 0.00000000
-0.18461729 0.11371796 0.00000000
0.01664696 0.33394815 0.00000000
0.12449896 0.62712727 0.00000000
-0.78394317 -0.21731201 0.00000000
-0.07040963 -0.27763406 0.00000000
-0.43728059 -0.55447532 0.00000000
0.35682069 -0.03460152 0.00000000
0.49780768 -0.56725185 0.00000000
0.64836545 0.50935980 0.29616258
-0.40163442 0.59996919 0.00000000
0.74434824 0.12006719 0.05333046
-0.05879944 -0.40487819 0.00000000
-0.05611807 -0.27044150 0.00000000
0.09722273 0.73223106 0.02438566
-0.41631468 -0.33979567 0.00000000
0.44223627 -0.56365570 0.00000000
-0.55489808 0.54674813 0.00000000
-0.34612936 -0.54045182 0.00000000
-0.72748763 0.69052078 0.00000000
0.23473996 -0.38423260 0.00000000
0.41114546 0.62417545 0.19482372
0.52680100 0.05344382 0.00000000
0.62830060 0.22436375 0.04360172
0.04008653 0.32394883 0.00000000
0.37762720 0.07636759 0.00000000
0.58433477 -0.51253349 0.00000000
0.54071501 -0.74904200 0.00000000
0.32132976 0.59076664 0.09280561
0.70236959 -0.15396269 0.00000000
-0.06452520 0.50115259 0.00000000
0.44250841 -0.60422475 0.00000000
-0.07250004 -0.07381154 0.00000000
0.11723955 0.57909251 0.00000000
0.39030390 -0.16118727 0.00000000
-0.35377819 -0.42225211 0.00000000
0.02585498 0.58688403 0.00000000
-0.13530148 -0.44716294 0.00000000
0.22315910 -0.57100886 0.00000000
0.77421339 -0.38809107 0.00000000
0.73771855 0.10666395 0.03674516
0.22840731 -0.49931633 0.00000000
0.15085953 -0.06724910 0.00000000
0.53032065 -0.17075606 0.00000000
0.37169197 0.45788299 0.02448597
-0.26179785 0.47093018 0.00000000
0.49903885 -0.79431812 0.00000000
0.05049878 -0.07658812 0.00000000
-0.77523638 0.08278354 0.00000000
-0.30979863 0.76947275 0.00000000
-0.03639620 -0.49030605 0.00000000
-0.61607635 0.39162615 0.00000000
-0.30057410 -0.32751729 0.00000000
-0.34206445 0.71318751 0.00000000
-0.21769896 -0.17402685 0.00000000
0.14600249 0.40590701 0.00000000
0.11946921 0.74645618 0.05458064
-0.44353051 0.20776138 0.00000000
0.61998687 -0.32769190 0.00000000
-0.76528819 0.61294021 0.00000000
0.66055044 -0.72547352 0.00000000
0.35222538 0.63693121 0.15660409
0.04352707 -0.76619498 0.00000000
-0.37390593 -0.10169086 0.00000000
-0.57450497 -0.68831791 0.00000000
-0.59844138 0.56396620 0.00000000
-0.47775658 -0.47444808 0.00000000
-0.62492121 0.27586794 0.00000000
-0.00553124 -0.08929348 0.00000000
0.51125904 0.67394254 0.31891075
-0.15717044 -0.72423010 0.00000000
0.56862601 0.39505449 0.13551217
-0.29235067 0.62759924 0.00000000
0.31068388 -0.21548732 0.00000000
0.36425897 0.14564393 0.00000000
-0.21256368 0.61618022 0.00000000
-0.67378942 0.48312503 0.00000000
0.69667502 0.42597507 0.26712351
0.74540536 -0.16273431 0.00000000
-0.40106973 0.52325056 0.00000000
0.17855232 -0.28089529 0.00000000
-0.12541704 -0.30949677 0.00000000
-0.19045894 -0.08417741 0.00000000
-0.15360883 0.30951916 0.00000000
0.13049554 0.42595241 0.00000000
-0.79554463 0.79571500 0.00000000
-0.17538674 0.57063939 0.00000000
0.54324104 0.37862910 0.10089731
0.45314940 0.54976141 0.16799108
-0.49312447 0.72075562 0.00000000
-0.52276465 0.01356382 0.00000000
-0.07026164 -0.10703542 0.00000000
-0.54621697 -0.34220509 0.00000000
-0.17461957 0.16562914 0.00000000
-0.46479891 0.28941636 0.00000000
0.19986456 0.20537002 0.00000000
0.64376567 0.35565250 0.16509945
-0.39969499 -0.04601961 0.00000000
-0.65218449 0.45342452 0.00000000
-0.40483892 0.37078883 0.00000000
-0.00634328 -0.10205308 0.00000000
0.33902604 -0.43820951 0.00000000
0.70450140 -0.79537594 0.00000000
0.65218447 -0.78937111 0.00000000
-0.71613970 -0.05399595 0.00000000
0.58076480 0.62667006 0.33731769
0.66113475 0.16554524 0.02208923
0.43710720 -0.50741391 0.00000000
0.42853391 -0.72390518 0.00000000
-0.00905928 0.37238850 0.00000000
0.54549942 0.36712347 0.09324149
0.10543829 0.03490600 0.00000000
0.14104855 -0.65458812 0.00000000
0.29735480 0.00427074 0.00000000
0.57359298 0.52721874 0.24904365
0.79875796 -0.24105740 0.00000000
-0.65406569 -0.09934910 0.00000000
0.30589175 -0.27035767 0.00000000
-0.42581394 0.01294625 0.00000000
0.30124554 -0.69148359 0.00000000
0.16903685 0.32269281 0.00000000
0.44190410 -0.11469437 0.00000000
0.50860291 0.53725660 0.20354848
