ply
format ascii 1.0
element vertex 1373
property float x
property float y
property float z
end_header
-0.28944091 -0.21648350 -0.00000036
-0.29628393 0.11566841 -0.00000056
-0.59048711 -0.41490751 -0.00000015
-0.53915709 0.21008323 -0.00000032
-0.50965505 -0.62419143 -0.00000011
-0.16147303 0.18619963 -0.00000062
-0.67657509 0.55761535 -0.00000015
-0.09379165 -0.38903703 -0.00000026
-0.54517115 0.01302348 -0.00000027
-0.58425097 0.62355002 -0.00000027
-0.59430833 0.13945184 -0.00000024
-0.17981428 0.15041029 -0.00000059
-0.70027440 0.64033552 -0.00000012
0.13351972 -0.77924312 -0.00000001
-0.49300112 0.15917530 -0.00000036
0.40020765 0.34193186 -0.00000094
0.21271694 0.17645267 0.25702173
0.37157046 0.41751264 -0.00000099
0.02465484 0.05122126 -0.00000053
0.71329312 0.03131880 0.03465036
-0.31059187 -0.42678637 -0.00000023
0.66634110 0.11581064 0.01116464
-0.52647039 -0.11109672 -0.00000027
-0.39812965 0.07203923 -0.00000044
0.13432292 0.48957145 0.11017360
-0.15478169 -0.70975795 -0.00000006
0.21482314 -0.65796373 -0.00000009
0.25227806 0.28211945 -0.00000072
0.28473670 0.21567130 0.18742937
-0.74777750 0.55370442 -0.00000007
-0.43272116 -0.03253948 -0.00000039
-0.68925368 -0.04254812 -0.00000011
0.62753969 -0.75152216 -0.00000003
0.45132350 0.30445997 0.02766119
-0.61779459 -0.48148069 -0.00000011
0.44600586 0.26240060 -0.00000090
0.04315129 0.45373426 -0.00000078
0.11928910 -0.35951358 -0.00000028
-0.45451753 -0.54333290 -0.00000016
0.46340412 -0.21780843 -0.00000041
0.69647481 -0.31558787 -0.00000055
0.24688024 0.23849140 -0.00000066
-0.39432136 -0.03560145 -0.00000043
-0.21392230 -0.02337369 -0.00000049
0.67385986 -0.29975797 -0.00000055
0.29524339 0.27916652 0.14113238
-0.33014973 0.36329903 -0.00000057
-0.40060587 0.19199898 -0.00000046
0.38487241 0.19094455 -0.00000076
0.02598959 0.47871008 -0.00000080
-0.59148632 -0.04308633 -0.00000021
0.40524372 0.23966440 -0.00000083
-0.55720927 -0.03482164 -0.00000025
0.02831265 0.39926723 -0.00000075
-0.15686589 0.12315116 -0.00000058
0.74893992 -0.16495658 -0.00000077
-0.42127806 0.50569292 -0.00000047
0.20532463 -0.19136875 -0.00000038
-0.30675742 -0.38642745 -0.00000026
0.43885669 -0.78162431 -0.00000001
-0.17820617 -0.70443217 -0.00000006
-0.28461575 -0.06338285 -0.00000046
-0.39331167 0.56647176 -0.00000051
-0.70628182 0.79539006 -0.00000012
-0.07978231 -0.57800783 -0.00000014
0.49331531 -0.55860024 -0.00000015
0.68193552 -0.77953378 -0.00000003
0.40143670 0.06558181 0.20831875
-0.19229965 0.51751293 -0.00000074
0.12792002 0.10771898 0.35307277
-0.40080261 -0.68728638 -0.00000007
0.21150735 0.25642272 -0.00000066
-0.66843928 -0.32253903 -0.00000008
0.63014295 0.03123258 0.08672482
-0.15506259 -0.62846657 -0.00000011
-0.27466769 -0.22354794 -0.00000036
0.26822005 -0.24992010 -0.00000034
0.34687351 0.08600529 0.22967704
0.71083920 -0.79741951 -0.00000000
0.40938495 0.32041039 -0.00000093
0.26773660 -0.77477055 -0.00000002
-0.02381381 0.69770076 -0.00000094
0.40596178 -0.74455904 -0.00000003
-0.70414789 -0.68262806 0.00000000
0.79243210 -0.03332906 -0.00000096
0.38019648 0.34317659 -0.00000092
-0.34844201 0.61057106 -0.00000056
-0.60385991 0.75168328 -0.00000025
0.43154530 0.30833146 0.03761277
-0.70853300 0.51556658 -0.00000011
0.50282098 -0.50036409 -0.00000019
0.21703737 0.09344141 -0.00000056
0.15010296 -0.50038648 -0.00000019
0.14324405 0.09572351 0.35099043
-0.77327995 -0.75716355 0.00000000
-0.43195365 0.50479871 -0.00000046
-0.10374886 -0.03717400 -0.00000048
0.03144248 0.75347184 -0.00000098
0.15195542 -0.02007615 -0.00000049
-0.22862078 -0.42913430 -0.00000023
0.36382729 -0.58428400 -0.00000013
0.05390569 0.27178962 -0.00000067
0.20628052 0.55248627 0.02579476
-0.02529803 0.07923286 -0.00000055
0.23799709 -0.77730453 -0.00000001
-0.63312902 0.65528477 -0.00000021
0.00811921 0.01469284 -0.00000051
-0.06879950 0.48369367 -0.00000080
-0.15540551 -0.68331007 -0.00000007
0.31960642 0.08172463 -0.00000057
0.62956664 0.15736156 0.00817638
-0.40588354 0.32560944 -0.00000048
0.41035949 0.38162368 0.00501389
-0.25455702 -0.22862337 -0.00000036
0.14853536 0.32410561 0.20480037
-0.70924202 -0.63849792 0.00000000
0.10453952 0.55785108 -0.00000085
-0.68244279 0.37834711 -0.00000015
-0.60939606 0.34086713 -0.00000024
0.66161958 -0.27324469 -0.00000056
0.69633468 -0.12845082 -0.00000075
-0.58415825 -0.13780833 -0.00000021
-0.61495714 -0.52435315 -0.00000010
-0.46481570 0.16265494 -0.00000039
-0.64041039 -0.61720618 -0.00000006
0.10643232 -0.50074748 -0.00000019
0.03045467 -0.26504181 -0.00000033
-0.79516600 -0.21672442 0.00000000
-0.17199867 -0.51361898 -0.00000018
-0.04873902 -0.19292743 -0.00000038
-0.18568805 0.65904072 -0.00000077
-0.35924535 0.21364371 -0.00000051
-0.70414564 0.66276345 -0.00000012
0.18688254 -0.65996146 -0.00000009
-0.46655798 0.26142054 -0.00000040
0.31155874 -0.06568547 -0.00000046
-0.10072906 -0.06675912 -0.00000046
-0.26565510 -0.66457076 -0.00000008
-0.20883067 -0.76986278 -0.00000002
0.18540789 -0.28793270 -0.00000032
-0.03822979 -0.55091679 -0.00000016
0.07138459 0.55904250 0.10608637
-0.34817636 0.06827833 -0.00000049
0.45195028 -0.76941071 -0.00000002
0.04364845 -0.11846670 -0.00000043
-0.28410883 -0.35740768 -0.00000028
-0.34987504 -0.09670088 -0.00000044
0.00104579 -0.71020802 -0.00000006
-0.74284393 -0.08233311 -0.00000005
-0.76887548 0.64903842 -0.00000004
0.32092335 0.11565898 0.22735995
-0.31076861 -0.31560483 -0.00000030
0.36538874 0.15648462 -0.00000070
-0.25990590 0.21435080 -0.00000062
-0.44293254 0.17266233 -0.00000041
0.01132535 0.42239993 -0.00000076
0.71718180 -0.64616675 -0.00000019
0.54334209 -0.15879279 -0.00000056
-0.15163928 -0.06897511 -0.00000046
0.68583511 -0.05108774 -0.00000082
-0.24443741 0.30085442 -0.00000065
-0.54427583 0.17243771 -0.00000030
0.55898379 -0.51967500 -0.00000019
-0.54021738 -0.33460270 -0.00000022
-0.37236267 0.29902220 -0.00000051
0.17811205 0.55438187 -0.00000093
0.35831282 -0.33807935 -0.00000029
0.06488352 0.32325895 -0.00000070
0.21680988 0.47685596 -0.00000089
0.10489731 0.30550026 -0.00000069
0.16587065 0.34993412 -0.00000072
0.16706969 0.06058033 -0.00000054
0.56221901 -0.44581185 -0.00000027
0.43634375 -0.63182735 -0.00000011
-0.78665719 -0.55574589 0.00000000
0.50657480 -0.60298572 -0.00000012
-0.00678224 -0.78583543 -0.00000001
0.46398090 -0.28958386 -0.00000033
0.38354516 0.33969429 0.04802143
-0.30376056 0.67073457 -0.00000062
0.08097742 0.27717931 -0.00000067
0.19492140 -0.35030463 -0.00000028
0.38555692 -0.58426908 -0.00000013
-0.09838620 0.55501039 -0.00000085
0.19358454 0.39844074 0.13011168
0.01921978 -0.16385557 -0.00000040
0.23402870 0.11858775 -0.00000057
0.37867815 -0.27722945 -0.00000033
0.62883329 -0.22773505 -0.00000057
-0.22802055 -0.58204895 -0.00000014
0.54187151 0.20527827 -0.00000094
0.10200449 0.59070984 0.06711853
0.24049167 0.28266263 0.17319873
-0.32649855 0.08077236 -0.00000052
-0.13752950 -0.62471191 -0.00000011
-0.14684354 -0.38781544 -0.00000026
-0.17975095 0.41154004 -0.00000074
0.19465082 0.24001717 -0.00000065
-0.52099049 0.75280006 -0.00000035
0.33788847 0.45051671 -0.00000099
-0.08288694 -0.65765835 -0.00000009
0.60151718 -0.69026949 -0.00000007
0.47802667 -0.08049751 -0.00000057
0.12138179 0.28162892 -0.00000068
0.05282634 -0.56543646 -0.00000015
-0.20316392 0.29745305 -0.00000069
0.49534734 -0.54894216 -0.00000016
0.37215929 0.17047146 0.16101411
0.52042371 -0.13681747 -0.00000056
0.06288975 0.47460089 0.16422897
0.07557705 0.45649343 -0.00000079
-0.20076394 -0.21237909 -0.00000037
-0.58986622 0.12703127 -0.00000025
0.17434151 0.53267474 0.05817101
-0.05118514 -0.26455870 -0.00000033
-0.11153346 0.00645072 -0.00000050
0.57680981 0.21896885 0.00263934
-0.13438718 0.65980097 -0.00000083
0.60590251 -0.00107916 -0.00000079
0.31213863 0.48308719 0.00298521
0.30286126 -0.51579217 -0.00000018
0.57648583 -0.65283462 -0.00000009
-0.41184258 -0.56331637 -0.00000015
-0.15571803 -0.43480580 -0.00000023
-0.78194885 -0.25245402 0.00000000
0.50627341 0.04616123 0.15488058
0.34890322 0.29369410 -0.00000083
-0.28537820 -0.19021148 -0.00000038
-0.34136280 0.63346146 -0.00000057
0.62168301 -0.18134431 -0.00000062
0.16121019 -0.15088834 -0.00000041
0.68763512 -0.07936605 -0.00000080
-0.67080782 0.13308582 -0.00000016
-0.02900036 -0.64647831 -0.00000010
-0.00772629 -0.70236399 -0.00000006
-0.00743415 0.73366535 -0.00000096
0.53675055 0.04552981 0.13620846
-0.46283597 -0.04258054 -0.00000035
0.37779598 -0.45194494 -0.00000022
0.72209178 -0.45321928 -0.00000043
0.12934203 0.37267110 0.18642457
-0.49313598 0.52152584 -0.00000038
-0.25287367 -0.32284560 -0.00000030
0.42984650 0.07145769 0.18686889
-0.62412916 0.16749923 -0.00000022
0.38069213 -0.25806592 -0.00000034
0.61261120 -0.09407223 -0.00000070
-0.08758457 -0.50895850 -0.00000018
-0.43051664 -0.14759584 -0.00000037
-0.36270709 0.53320877 -0.00000055
0.42077645 0.13144499 -0.00000074
0.07759971 0.70578401 0.01039388
-0.12616479 0.28783280 -0.00000068
0.71043508 -0.22737094 -0.00000066
-0.45500190 -0.22725351 -0.00000033
0.67730421 -0.18213457 -0.00000067
0.37056336 -0.75515738 -0.00000003
-0.26109304 -0.58768725 -0.00000013
-0.79758880 -0.26586205 0.00000000
0.51186842 -0.36371617 -0.00000030
0.52559676 0.26010375 0.00894445
0.35082247 0.02534512 -0.00000055
-0.47375766 -0.24677106 -0.00000030
-0.12778629 -0.43873336 -0.00000023
-0.18479825 -0.48530370 -0.00000020
0.10166082 0.36476284 -0.00000073
0.26834586 -0.73492218 -0.00000004
-0.69180002 -0.05861525 -0.00000010
0.15222401 0.41164387 0.14772727
-0.74282987 0.50839523 -0.00000007
0.08656518 0.19319976 -0.00000062
-0.21548151 -0.76145899 -0.00000002
-0.16449247 0.33881734 -0.00000071
-0.23073430 -0.43008732 -0.00000023
0.75203925 -0.61680721 -0.00000023
-0.43804651 0.02362904 -0.00000039
-0.46500483 -0.58031520 -0.00000014
-0.08783121 0.10343373 -0.00000056
0.17844519 -0.50362994 -0.00000019
0.27106629 -0.42962224 -0.00000023
-0.13001042 0.08591459 -0.00000055
-0.65522268 0.59911346 -0.00000018
0.50656242 -0.39157839 -0.00000027
-0.31500946 -0.22065721 -0.00000036
0.70412117 -0.46745445 -0.00000040
0.51028834 -0.74151858 -0.00000004
-0.77399905 0.37714916 -0.00000003
0.71150122 -0.68975770 -0.00000014
0.78655214 0.00605665 -0.00000099
-0.49230706 0.68161198 -0.00000038
0.20587894 0.26700549 -0.00000067
-0.49605760 -0.49188036 -0.00000019
-0.50305994 -0.43703937 -0.00000023
-0.19070687 0.37148546 -0.00000072
-0.03348044 -0.56684664 -0.00000015
-0.28663623 0.41313483 -0.00000062
-0.68899467 0.12170215 -0.00000014
0.22645816 0.37696907 -0.00000079
0.53835154 0.09312611 0.10542958
-0.38215830 0.39700375 -0.00000052
-0.60948322 -0.04242639 -0.00000020
-0.06087304 0.76917136 -0.00000092
-0.52405728 0.15822421 -0.00000032
0.74150630 -0.61010621 -0.00000024
-0.49136329 0.04248102 -0.00000034
-0.47081117 0.12466522 -0.00000037
0.38878718 -0.71467603 -0.00000005
0.43740151 0.17921502 0.11472701
0.17621924 0.61766940 0.00382178
-0.00891002 -0.57499705 -0.00000014
-0.15436822 -0.55845224 -0.00000015
0.25812436 -0.28333658 -0.00000032
0.41336369 0.01238852 -0.00000060
-0.46342354 0.19485157 -0.00000039
-0.69026485 0.79779334 -0.00000014
-0.18689096 0.73594842 -0.00000077
-0.62217136 0.40508213 -0.00000022
0.73394189 -0.38053075 -0.00000052
-0.32284421 -0.32569184 -0.00000030
0.23096632 -0.68342278 -0.00000007
-0.61218825 -0.75332834 -0.00000003
0.18859071 -0.09907030 -0.00000044
-0.01285523 0.40943653 -0.00000076
-0.63327420 -0.31643422 -0.00000012
-0.75831193 0.78207596 -0.00000005
0.45384751 -0.36096725 -0.00000027
0.70541420 -0.73929430 -0.00000008
0.75014651 -0.77365182 -0.00000003
-0.42882730 0.73455846 -0.00000046
0.43295878 -0.73589873 -0.00000004
0.21170164 0.15805698 0.26916557
-0.59101539 0.12070491 -0.00000025
0.11596767 0.14595174 0.33663125
-0.46023615 -0.55924024 -0.00000015
0.55096032 -0.79394717 -0.00000000
-0.07729999 0.48449711 -0.00000080
0.39176895 0.33908045 -0.00000093
0.49831087 0.19466023 0.06695796
0.25215256 0.51165368 -0.00000096
-0.71002219 -0.28062142 -0.00000004
-0.34461810 -0.16972881 -0.00000039
-0.03830210 0.09416536 -0.00000056
-0.11779375 -0.59517494 -0.00000013
-0.57411013 0.74435959 -0.00000028
0.79667058 -0.67006224 -0.00000016
0.68451498 -0.12386275 -0.00000074
0.23628299 -0.00774798 -0.00000050
0.05833977 -0.21066968 -0.00000037
-0.56005854 -0.75176011 -0.00000003
0.29274545 0.46426278 -0.00000095
-0.26929276 0.33237616 -0.00000063
-0.20316211 0.33734575 -0.00000070
-0.40843925 0.13862072 -0.00000044
-0.68629854 0.08947468 -0.00000014
0.57767942 -0.35769753 -0.00000038
0.49136594 -0.21148716 -0.00000045
-0.13033699 -0.39215100 -0.00000025
0.08886605 0.54452368 -0.00000084
0.57096956 0.15201349 0.04818184
-0.12853141 0.35051224 -0.00000072
-0.42538299 0.17006622 -0.00000043
-0.32138265 0.63115938 -0.00000060
0.08814508 0.39016091 0.20125600
-0.51539372 -0.57844925 -0.00000014
-0.15033088 -0.69169610 -0.00000007
-0.62278736 -0.10159483 -0.00000017
-0.34535938 -0.66789284 -0.00000008
-0.35498076 -0.70436951 -0.00000006
0.00949031 -0.27237471 -0.00000033
-0.72610024 -0.07866482 -0.00000006
-0.70740327 -0.07000918 -0.00000009
0.71231842 -0.11283921 -0.00000079
0.39388698 -0.22345075 -0.00000036
-0.22427620 0.52226626 -0.00000071
-0.47289211 0.54321697 -0.00000041
-0.69769809 0.10967440 -0.00000013
0.43694580 0.25873786 0.06526093
-0.10010146 -0.53462332 -0.00000017
0.59272874 0.07611618 -0.00000086
-0.74694583 -0.01742609 -0.00000005
-0.77829778 -0.05076636 -0.00000001
0.40046496 0.07757347 0.20142445
0.20412123 -0.17019276 -0.00000039
-0.59664653 -0.63901879 -0.00000010
-0.10056886 -0.42658863 -0.00000023
-0.71984296 -0.67014986 0.00000000
0.14955913 -0.14717884 -0.00000041
-0.76865040 -0.61473390 0.00000000
-0.21316287 0.38324379 -0.00000070
0.06915021 0.20064210 -0.00000063
0.77721058 -0.60177545 -0.00000025
0.14322515 0.32646732 0.20664498
-0.03352428 0.38751042 -0.00000074
-0.14562513 -0.50323095 -0.00000019
-0.31500923 0.00075385 -0.00000050
0.08305950 0.56468451 -0.00000085
-0.18065167 -0.57794872 -0.00000014
0.18529824 0.61403412 0.00041607
0.18257437 0.24317031 0.23413963
-0.45218645 0.04405896 -0.00000038
0.32267072 0.45582877 0.01344956
-0.42194429 -0.74835555 -0.00000003
0.05588700 -0.49566653 -0.00000019
-0.79599595 0.44900990 -0.00000001
0.21233507 -0.75339069 -0.00000003
-0.28573867 0.48151285 -0.00000064
0.10800549 -0.36595717 -0.00000027
-0.27752585 -0.75149449 -0.00000003
-0.32377328 0.56793600 -0.00000060
0.37580071 0.36946821 -0.00000094
0.04034666 0.44298501 -0.00000078
0.60052047 -0.31657969 -0.00000045
-0.53760814 0.46358340 -0.00000033
0.28395623 0.12505930 -0.00000058
0.20014590 0.52376009 0.04760443
-0.51408108 0.20796172 -0.00000034
0.51147982 0.18369325 0.06558036
0.02269867 -0.69622586 -0.00000006
0.21637355 -0.57823707 -0.00000014
-0.29873606 0.33918409 -0.00000060
0.42969242 -0.09146502 -0.00000051
0.22164965 0.30060263 -0.00000070
0.25078859 0.52319543 -0.00000097
-0.34324324 -0.12112849 -0.00000042
-0.13941915 0.78323263 -0.00000083
-0.16904417 0.20193404 -0.00000063
0.62028896 0.17054867 0.00573056
-0.00738741 -0.34327380 -0.00000029
-0.12832490 -0.19300941 -0.00000038
-0.39322461 0.25853824 -0.00000048
0.19610111 0.49658341 0.06713725
-0.64391299 0.30728432 -0.00000020
0.26827373 0.49110163 -0.00000096
-0.41700929 0.67601121 -0.00000048
0.41145704 0.10767483 0.17571551
-0.41827487 -0.60339296 -0.00000012
-0.00915127 -0.39144970 -0.00000026
0.40187468 0.30230894 -0.00000090
0.55935224 0.07741083 0.10212290
0.60857166 -0.75751703 -0.00000003
-0.34340149 -0.60415333 -0.00000012
-0.46696017 0.49893993 -0.00000042
0.66874763 -0.16250153 -0.00000069
0.06430890 0.40449288 0.20720190
0.05826713 -0.06420143 -0.00000046
0.39039345 0.17130718 -0.00000075
0.04688340 0.20240891 -0.00000063
0.16561080 0.54760489 0.05429251
0.24506328 0.24168688 0.19597380
-0.73979646 -0.65803227 0.00000000
-0.16039451 -0.10136955 -0.00000044
-0.53994517 -0.36386064 -0.00000021
-0.33968548 0.37828045 -0.00000056
0.17892184 0.36802955 0.15831062
0.35064862 -0.04985779 -0.00000047
-0.19211297 -0.32506836 -0.00000030
-0.58265284 -0.52378908 -0.00000014
0.52889812 -0.14814798 -0.00000055
0.32493157 -0.16860312 -0.00000039
0.33504322 0.18830882 0.17307528
0.20876715 0.21193774 -0.00000063
0.06268011 0.21406653 -0.00000063
-0.12530826 0.19202769 -0.00000062
0.18932779 0.45150149 0.09957900
-0.04675140 -0.37971142 -0.00000026
-0.03541688 -0.15017330 -0.00000041
0.02476262 0.70561672 -0.00000094
-0.57879527 -0.28222609 -0.00000018
-0.24578505 0.23612813 -0.00000063
0.45693208 -0.47626272 -0.00000020
-0.48679240 -0.32376669 -0.00000027
-0.54348788 -0.73899485 -0.00000004
-0.59833569 0.04454765 -0.00000022
0.78061667 -0.33090781 -0.00000059
-0.10288157 0.53573146 -0.00000083
0.48875633 -0.38081594 -0.00000026
-0.19474594 -0.55196714 -0.00000016
-0.35249613 -0.26040823 -0.00000034
0.45418800 -0.74168296 -0.00000004
0.13160205 -0.74052538 -0.00000004
0.42826747 -0.72505845 -0.00000005
-0.61145763 0.46973007 -0.00000024
-0.08725140 0.57262574 -0.00000086
-0.72419881 0.03080070 -0.00000009
0.47037844 0.18025809 -0.00000084
0.19479701 0.36042786 0.15313465
0.66620594 -0.04274998 -0.00000081
-0.11235963 -0.21313375 -0.00000037
-0.75843092 0.67938353 -0.00000005
-0.54476632 0.18567504 -0.00000031
-0.72018001 -0.67877847 0.00000000
0.10250771 0.28461487 0.25830195
-0.68028008 0.01137637 -0.00000013
0.36955091 -0.63414719 -0.00000010
0.01426262 0.73874877 0.02939532
-0.60559852 0.79249724 -0.00000024
-0.36078006 -0.07372105 -0.00000045
0.08803153 0.55840955 0.09606781
0.04657388 -0.22391302 -0.00000036
-0.65156140 0.43049077 -0.00000019
0.20837094 -0.37694361 -0.00000026
-0.48413474 0.68775208 -0.00000039
0.60781405 0.08388522 0.06775364
0.29768341 -0.56464763 -0.00000015
0.04208523 0.59634069 -0.00000087
-0.08615925 -0.37651556 -0.00000026
0.26192945 -0.61488690 -0.00000012
0.36785987 -0.60430476 -0.00000012
-0.19784496 -0.70083907 -0.00000006
-0.72584253 -0.14831231 -0.00000005
-0.79948098 -0.37284030 0.00000000
0.12194144 0.18043053 0.31132346
0.31524322 0.19461948 -0.00000069
-0.33505727 0.23919838 -0.00000054
0.12355148 0.56068910 -0.00000088
0.44758546 0.22739545 -0.00000087
0.33956455 0.39726747 0.03951763
0.35460701 -0.40069251 -0.00000025
-0.33666038 -0.73029231 -0.00000004
-0.46959049 0.73088448 -0.00000041
-0.76094614 0.72073301 -0.00000005
-0.02017874 -0.64485172 -0.00000010
0.43116933 -0.67884200 -0.00000008
0.04948817 0.62292197 -0.00000089
-0.12993207 -0.73906882 -0.00000004
-0.19651278 0.09277532 -0.00000056
-0.46077412 -0.32178996 -0.00000030
-0.77742586 0.63806507 -0.00000003
0.43765584 0.09089632 0.16982198
-0.13778138 -0.33986585 -0.00000029
-0.36551162 -0.16829439 -0.00000039
0.76889592 -0.15338921 -0.00000080
-0.27226205 -0.39931414 -0.00000025
-0.12225127 -0.46661382 -0.00000021
-0.03795349 -0.62381856 -0.00000011
0.10987772 0.62347408 -0.00000093
0.77273098 -0.56733272 -0.00000029
0.42623975 -0.79689282 -0.00000000
-0.35731414 -0.18939073 -0.00000038
0.43257514 -0.66108865 -0.00000009
0.72727685 0.06160183 -0.00000099
-0.69955189 0.08021233 -0.00000012
0.05201804 0.70063516 -0.00000095
0.19883061 0.28752863 -0.00000068
0.27199801 -0.51899770 -0.00000018
0.60421858 0.17874835 0.01065464
0.01562307 0.11542132 -0.00000057
-0.20969302 -0.03237680 -0.00000048
-0.73112495 0.21932769 -0.00000009
0.64444037 0.06972098 0.05370088
-0.28621470 -0.19039004 -0.00000038
0.00186993 0.66781443 -0.00000092
0.43499592 -0.24256809 -0.00000035
-0.23830310 0.26471035 -0.00000065
0.42517798 0.28649551 -0.00000091
-0.71486808 0.18791104 -0.00000011
0.07721091 -0.09765992 -0.00000044
-0.71537203 0.28235138 -0.00000011
-0.60542165 0.52415806 -0.00000024
0.14171798 0.36692649 -0.00000073
0.76267787 -0.38093972 -0.00000052
-0.67386767 -0.37558532 -0.00000007
0.75698773 -0.34298296 -0.00000057
0.35698697 0.17806472 0.16575573
-0.67509032 -0.01745717 -0.00000013
0.17831478 -0.35126685 -0.00000028
-0.41302182 0.71693507 -0.00000048
-0.73847743 -0.41792961 0.00000000
-0.06807830 0.43823217 -0.00000077
0.15001428 0.37371593 0.17283807
-0.72271201 -0.16878489 -0.00000005
-0.40926030 0.19067012 -0.00000045
0.71662304 -0.79086722 -0.00000001
-0.60696280 -0.55441701 -0.00000010
0.28920479 -0.30352335 -0.00000031
-0.04655585 0.78377226 -0.00000094
-0.46371093 -0.17676267 -0.00000033
-0.14355063 0.39955702 -0.00000075
-0.44322505 0.40516361 -0.00000045
-0.63889701 -0.56226544 -0.00000007
0.23870864 0.52068600 -0.00000096
0.16678199 0.58881135 -0.00000095
0.39303466 -0.25124222 -0.00000034
0.42557659 -0.75129319 -0.00000003
0.37707618 0.27137955 -0.00000084
-0.37999923 0.18405128 -0.00000048
0.71326619 -0.73541517 -0.00000008
-0.21797365 -0.42602396 -0.00000023
-0.77398627 -0.15694126 0.00000000
-0.54789646 -0.77835193 -0.00000001
-0.77928004 -0.01309976 -0.00000002
-0.03960522 0.47118135 -0.00000079
0.14075857 0.34267087 0.19805089
-0.73439762 0.26734393 -0.00000008
-0.31070758 0.50289626 -0.00000061
-0.54898681 -0.36114031 -0.00000020
-0.74048394 -0.38590171 0.00000000
-0.28166104 0.33821785 -0.00000061
0.69698139 -0.50374755 -0.00000035
0.56176359 -0.11052599 -0.00000063
-0.56619238 0.56744275 -0.00000029
0.62673738 -0.11710105 -0.00000069
-0.13496201 0.12166935 -0.00000058
-0.40888045 -0.21270754 -0.00000037
-0.24706256 0.56426077 -0.00000069
-0.11287522 -0.57857832 -0.00000014
0.60172869 0.18363506 -0.00000098
0.31576293 0.31616004 -0.00000082
0.04255340 -0.62713657 -0.00000011
-0.59471056 -0.47697713 -0.00000013
0.65757993 -0.67525384 -0.00000013
0.16498898 -0.01788194 -0.00000049
-0.68311952 0.49039984 -0.00000015
0.18984886 0.18255350 0.26751152
0.31200367 -0.70798944 -0.00000006
0.06769498 -0.51746252 -0.00000018
0.33941117 0.21747245 -0.00000074
-0.40563957 -0.78544067 -0.00000001
-0.13954254 0.34305184 -0.00000071
0.22229068 -0.32067380 -0.00000030
0.33672349 0.27875423 0.11543948
-0.49573226 0.35491635 -0.00000038
-0.26620219 0.50105375 -0.00000066
-0.75620218 0.70990365 -0.00000005
-0.64125174 -0.00012116 -0.00000017
-0.32525116 0.02856056 -0.00000051
-0.72430669 -0.62706376 0.00000000
-0.53090634 0.71457687 -0.00000034
-0.16787501 0.21952548 -0.00000064
0.20986886 0.41369616 0.11037989
-0.59587894 0.14102059 -0.00000024
-0.35921444 -0.39895941 -0.00000025
-0.54210614 -0.21282792 -0.00000024
0.73331532 -0.35164475 -0.00000055
-0.77506956 0.54981908 -0.00000003
-0.36716990 -0.44690238 -0.00000022
-0.66479812 -0.38424584 -0.00000007
-0.16814539 -0.74104208 -0.00000004
-0.61989941 -0.21762351 -0.00000015
0.11709634 0.12431290 -0.00000058
0.43271839 -0.30728242 -0.00000031
-0.31186059 0.54295174 -0.00000061
0.16534217 -0.46767058 -0.00000021
0.09538056 0.26659013 -0.00000067
0.37489907 0.04065881 -0.00000059
0.69414409 -0.33765827 -0.00000053
-0.60210752 -0.43857657 -0.00000013
-0.50597201 0.03900705 -0.00000032
0.46023747 0.09595193 -0.00000074
-0.19762598 0.44941907 -0.00000072
0.60544110 0.14042762 0.03386407
-0.19030922 0.61668222 -0.00000076
0.22080590 0.01672830 -0.00000051
-0.72222870 -0.22076808 -0.00000004
0.34105381 -0.24980926 -0.00000034
-0.00207068 0.65446727 -0.00000091
-0.23287952 -0.26527292 -0.00000033
0.15241113 0.26408613 0.23992485
-0.59989230 0.55238660 -0.00000025
0.28153040 0.39138477 0.07950538
0.56052814 -0.27127924 -0.00000046
0.05812985 0.65450465 -0.00000091
0.58020339 -0.48658625 -0.00000025
0.21647924 -0.14011219 -0.00000041
-0.07475729 -0.55415200 -0.00000015
0.68722005 -0.17041075 -0.00000070
0.21803252 0.37313291 -0.00000078
-0.73401249 0.32575872 -0.00000008
-0.00494539 -0.09141340 -0.00000044
-0.06734830 -0.68540824 -0.00000007
0.60803119 -0.65502576 -0.00000010
0.20253858 0.08011297 -0.00000055
-0.40840643 -0.74679927 -0.00000003
0.79394274 -0.78803159 -0.00000001
-0.23151702 -0.43150823 -0.00000023
0.47192538 0.13494391 -0.00000079
-0.71970078 -0.35914856 -0.00000002
0.11220633 0.06313351 -0.00000054
0.73778547 -0.79395479 -0.00000001
-0.41553623 0.23658107 -0.00000045
-0.58160780 -0.23522267 -0.00000019
-0.57556503 -0.22496305 -0.00000020
-0.32172768 -0.77812293 -0.00000001
0.39436143 -0.24218763 -0.00000035
-0.37992769 0.76965022 -0.00000053
0.09752892 0.03793814 -0.00000052
0.50721635 -0.37834564 -0.00000028
0.61692387 -0.23733021 -0.00000055
-0.56732561 -0.19707673 -0.00000021
-0.37265064 0.79459574 -0.00000053
-0.02177437 0.35132711 -0.00000072
-0.67858458 0.74629520 -0.00000015
-0.68218877 -0.17427759 -0.00000009
-0.08445179 -0.78991014 -0.00000001
-0.17235683 0.19033183 -0.00000062
0.73825543 0.02221477 -0.00000096
-0.57836200 0.06014968 -0.00000025
0.23392326 0.14107997 -0.00000059
-0.38520765 -0.66790145 -0.00000008
0.65503077 -0.37033364 -0.00000045
0.02446697 0.08364358 -0.00000055
-0.15760289 0.56412150 -0.00000079
0.31902538 0.38294920 -0.00000090
0.14737330 0.04241835 -0.00000053
-0.13052921 -0.73274746 -0.00000004
0.19801569 0.06943651 -0.00000054
0.39258964 0.10784159 0.18741503
-0.06908478 0.33069115 -0.00000071
0.37559162 0.07093585 0.22113831
-0.24453247 -0.12926304 -0.00000042
0.38285065 0.41406712 0.00192669
0.02439690 0.67118078 0.06532686
0.04782608 0.74401197 0.00510467
0.52954452 0.22781928 0.02667251
0.49031830 -0.10229197 -0.00000056
-0.08510806 -0.33525334 -0.00000029
0.48903488 -0.48891427 -0.00000019
0.48574314 0.24331614 0.04438042
-0.44184116 0.41766282 -0.00000045
0.79662204 -0.01956716 -0.00000098
-0.05567538 0.26157573 -0.00000066
-0.77589164 -0.36605399 0.00000000
-0.17018505 -0.12106495 -0.00000042
0.60985775 -0.40869113 -0.00000036
-0.44299037 -0.00126408 -0.00000038
-0.64013361 -0.59907899 -0.00000006
0.25714883 0.34389934 -0.00000079
0.08653605 0.23476029 -0.00000065
-0.37875928 0.76347999 -0.00000053
-0.45438717 0.63190748 -0.00000043
-0.13182756 -0.51287978 -0.00000018
-0.20744854 0.32394201 -0.00000069
0.38348260 -0.53403775 -0.00000017
-0.32836996 0.00169864 -0.00000050
0.42183488 -0.10000533 -0.00000049
0.38200330 -0.76699349 -0.00000002
-0.67571699 -0.52906093 -0.00000004
-0.52121646 0.39995607 -0.00000035
0.06708323 0.23967010 -0.00000065
0.18786349 0.17028601 -0.00000061
0.02418557 0.64263171 -0.00000090
0.33174636 0.43343173 -0.00000096
0.42106755 -0.79258445 -0.00000000
0.49692415 -0.76080702 -0.00000002
0.15616884 0.37013762 0.17122635
0.10021249 0.27397741 -0.00000067
0.56514117 0.14663980 -0.00000091
-0.75029110 -0.04629635 -0.00000004
-0.03554247 -0.26092554 -0.00000034
0.44543313 -0.52820099 -0.00000017
0.16659739 0.19089675 0.27683826
0.57146354 -0.03063143 -0.00000072
0.63905505 0.09025691 0.04422234
0.45105901 0.07878847 0.16901159
0.47599556 0.08281862 0.15088941
-0.66600361 -0.48924352 -0.00000005
0.10452492 0.40143690 0.18395410
-0.10028290 -0.46345490 -0.00000021
0.25456538 0.23233796 -0.00000067
0.31179197 0.19133321 0.18572957
0.27115970 0.25898634 -0.00000071
-0.45974028 -0.07453144 -0.00000035
-0.60149082 0.73159623 -0.00000025
-0.37360754 0.42628961 -0.00000053
0.75797884 -0.42100496 -0.00000047
0.20023119 -0.63592610 -0.00000010
-0.31589005 -0.68930516 -0.00000007
0.21704976 0.25907346 0.20262208
0.05291147 0.64690628 -0.00000090
-0.04993054 -0.00547263 -0.00000050
-0.19023894 -0.39318950 -0.00000025
0.11990533 0.50991627 0.10646537
-0.20224070 -0.75140820 -0.00000003
0.25066561 0.51685333 -0.00000097
0.73058079 -0.20651917 -0.00000071
0.62716880 0.12924342 -0.00000095
-0.49413807 0.53488337 -0.00000038
0.23061849 0.45002619 0.07466963
-0.69303510 0.13625615 -0.00000013
-0.51815452 -0.54428186 -0.00000016
0.18778868 0.10983087 -0.00000057
0.56078098 -0.79885320 -0.00000000
-0.37779101 -0.72459603 -0.00000005
-0.22266221 0.76234188 -0.00000072
0.48521127 -0.19487365 -0.00000046
0.60257244 0.10473866 -0.00000090
-0.11633254 -0.18697093 -0.00000038
0.11864042 0.26535682 0.26025728
-0.48154145 0.20546049 -0.00000038
-0.20943974 -0.71519342 -0.00000005
0.12122586 0.05973918 -0.00000054
-0.10075334 -0.47212940 -0.00000020
0.69990005 -0.06477754 -0.00000082
-0.51116027 -0.42366194 -0.00000023
0.23678881 -0.30091453 -0.00000031
-0.31962980 -0.75913701 -0.00000003
0.23481934 0.52861029 0.02287759
-0.11759934 -0.12954746 -0.00000042
0.13590605 0.41791696 -0.00000076
-0.77345559 -0.66713790 0.00000000
0.40927188 0.21033521 -0.00000081
-0.18202201 0.19550332 -0.00000062
0.27495677 -0.39922325 -0.00000025
0.04156709 0.55555108 0.12692489
0.14811819 0.64411616 0.00485673
-0.24207634 -0.45255181 -0.00000022
-0.41524600 0.31299520 -0.00000047
0.08922851 0.57482723 -0.00000086
-0.39171430 -0.47788866 -0.00000020
0.66280005 -0.18142351 -0.00000066
0.08291047 0.64632857 -0.00000092
-0.32161232 -0.11825278 -0.00000043
-0.31031203 0.56098720 -0.00000061
-0.32325626 -0.78349445 -0.00000001
0.17448866 0.11245669 0.32097483
0.64449644 -0.20768498 -0.00000061
-0.78834115 0.36100189 -0.00000001
0.03154856 -0.41196176 -0.00000024
-0.03071010 0.66765863 -0.00000092
-0.08219097 -0.29870772 -0.00000031
-0.31753725 -0.59613388 -0.00000013
0.66584393 -0.69627609 -0.00000011
-0.43778725 0.47501999 -0.00000045
-0.36954401 -0.79147200 -0.00000001
0.28615531 -0.50491775 -0.00000018
-0.77937155 -0.08262812 -0.00000001
0.27544525 -0.53463052 -0.00000017
-0.20519987 -0.01122872 -0.00000049
0.43714356 0.01755991 -0.00000063
0.39237723 0.21333874 -0.00000079
0.22947271 0.23642787 -0.00000065
0.32396290 -0.58528294 -0.00000013
0.10406371 0.18816303 0.31767042
0.52928222 -0.28432400 -0.00000041
0.66279456 -0.17569986 -0.00000067
-0.34029737 -0.19469074 -0.00000038
0.56475909 -0.38312527 -0.00000034
-0.59931507 0.22995268 -0.00000025
-0.17153153 0.39683980 -0.00000074
0.70014236 -0.44022826 -0.00000042
-0.54532989 -0.33269357 -0.00000021
0.61033388 -0.28592150 -0.00000049
-0.17348111 0.03163925 -0.00000052
0.06362011 -0.46849091 -0.00000021
-0.37225529 -0.38830809 -0.00000026
-0.62209974 0.33921513 -0.00000022
0.73937397 -0.25784279 -0.00000066
0.44389706 -0.75915924 -0.00000003
0.57278877 -0.28168013 -0.00000046
0.21274428 0.19637013 -0.00000062
-0.26439822 -0.21535770 -0.00000037
-0.39888451 0.72397347 -0.00000050
0.16520733 0.45515993 0.11238034
-0.34093407 0.53610318 -0.00000057
0.13880124 0.20314798 0.28656333
-0.27388138 0.38252219 -0.00000063
-0.33502142 -0.14033404 -0.00000041
-0.43516988 0.18401264 -0.00000042
0.41542895 -0.50032077 -0.00000019
-0.38980364 0.40544459 -0.00000051
-0.59142001 -0.77713142 -0.00000001
0.70717613 -0.71567248 -0.00000011
-0.10248581 0.25379281 -0.00000066
0.04525401 0.54142372 0.13345662
0.25694495 0.39809304 0.09068973
0.51736165 0.17224017 0.06906585
-0.48850122 0.50570922 -0.00000039
-0.06147485 0.76004611 -0.00000092
0.06657299 0.50145190 0.14512624
-0.21074816 -0.00217211 -0.00000050
-0.28068858 0.79265532 -0.00000065
-0.18407415 0.61580851 -0.00000077
0.15019986 0.10359091 -0.00000056
0.03661498 0.68563394 0.04864093
0.75865103 -0.03874081 -0.00000091
-0.19479743 -0.12325255 -0.00000042
0.22137945 0.43739556 -0.00000085
-0.25884744 0.20324816 -0.00000061
0.64772355 0.07970302 0.04540188
0.38167392 -0.02615218 -0.00000053
0.71145024 -0.30974537 -0.00000058
0.25592361 -0.63402696 -0.00000010
-0.16494268 -0.35759488 -0.00000028
-0.64737178 0.62183907 -0.00000019
-0.74228489 -0.27404354 -0.00000001
0.51652232 0.26783814 0.00978282
0.31787047 0.34872741 -0.00000086
0.53265221 0.17604963 0.05711647
-0.63260567 0.77653080 -0.00000021
0.50726344 -0.79995139 -0.00000000
-0.66146414 -0.53193597 -0.00000005
0.50252926 -0.79527772 -0.00000000
0.31967271 0.14353788 0.21070085
-0.67786159 0.08051460 -0.00000015
-0.78854628 0.45543887 -0.00000001
0.13942284 -0.40573019 -0.00000025
0.38060522 -0.37925009 -0.00000026
-0.10950750 -0.56008008 -0.00000015
0.57649184 0.00390652 -0.00000077
-0.43006602 -0.05949991 -0.00000038
-0.44642363 0.37752091 -0.00000044
0.70140494 0.07874102 0.01241949
-0.69403196 -0.61073886 -0.00000000
0.14949830 0.46284448 -0.00000080
0.42295453 0.19116529 0.11628901
0.42445731 0.27139444 -0.00000089
0.76373570 -0.79171048 -0.00000001
0.34835003 0.01625770 -0.00000054
-0.60494773 -0.38943867 -0.00000014
-0.66067207 0.42568581 -0.00000017
-0.21420892 0.03279832 -0.00000052
-0.06087407 -0.20100326 -0.00000037
0.57196390 0.03686388 0.11959982
-0.36873926 0.27343782 -0.00000051
0.22016508 0.03735619 -0.00000052
0.28630639 0.28090119 -0.00000075
0.11229828 0.44657779 0.15085008
0.02307704 0.71369431 0.03955539
0.14578361 -0.06429629 -0.00000046
-0.28896142 -0.40353003 -0.00000025
-0.04177042 0.18332766 -0.00000061
-0.56637266 -0.65106358 -0.00000009
0.17242083 -0.74266332 -0.00000004
0.50716515 0.09445941 0.12410631
-0.56933413 0.15380368 -0.00000027
-0.38264933 -0.57746683 -0.00000014
-0.37689553 0.13294516 -0.00000048
0.33688123 -0.21852704 -0.00000036
0.22933085 0.24659083 0.20274821
-0.40514569 -0.75059361 -0.00000003
0.28016893 -0.42151582 -0.00000024
0.68271760 -0.79205053 -0.00000001
0.15781515 -0.41840936 -0.00000024
0.26026386 0.24140303 0.18664170
-0.69895291 -0.75778262 0.00000000
0.27950817 -0.47758214 -0.00000020
-0.11232756 0.39830529 -0.00000075
0.77490930 0.00589008 0.01201070
-0.09946205 0.44533907 -0.00000078
-0.31895354 -0.62663070 -0.00000011
-0.26184536 0.06597687 -0.00000054
-0.43200583 0.33013671 -0.00000045
-0.79492799 -0.34177635 0.00000000
0.25293961 0.36196338 -0.00000080
0.05024723 0.48743271 0.16411049
0.31216670 -0.21209406 -0.00000037
-0.74838496 0.30632461 -0.00000006
0.38904829 -0.55041260 -0.00000016
0.22284201 -0.50429846 -0.00000018
-0.47032934 0.70496081 -0.00000041
0.11955674 -0.42599517 -0.00000023
0.22315343 0.09964335 0.29854575
-0.42111718 -0.45789156 -0.00000021
-0.51944411 -0.74328618 -0.00000004
-0.66256276 -0.76102746 -0.00000001
-0.73877809 0.22649391 -0.00000008
-0.71457194 0.56811830 -0.00000011
-0.01117548 0.37825369 -0.00000074
-0.58899515 -0.38686986 -0.00000015
-0.73350552 0.59799316 -0.00000008
0.17888982 0.48466090 -0.00000085
0.27742489 -0.35233111 -0.00000028
-0.03541247 0.24725295 -0.00000065
-0.75232477 0.05634799 -0.00000006
0.21904755 -0.04843985 -0.00000047
0.65536998 -0.57610968 -0.00000023
0.28809430 0.28929322 0.13926953
-0.03531979 0.20704435 -0.00000063
0.48466209 -0.05118810 -0.00000061
-0.66683995 -0.27965306 -0.00000009
-0.66800125 -0.64321661 -0.00000002
0.27753514 0.43538963 -0.00000091
0.41686461 0.08697114 -0.00000068
-0.78319755 -0.75795173 0.00000000
0.08714326 0.40122167 -0.00000075
-0.69624041 -0.72746570 0.00000000
-0.00538087 0.48568840 -0.00000080
-0.71859589 -0.42384799 -0.00000001
0.27411691 -0.37037551 -0.00000027
0.48779186 0.12172799 -0.00000080
-0.10808562 -0.28050679 -0.00000032
0.38575799 0.21056662 0.12742207
0.17739284 0.10096251 0.32634889
-0.55417897 -0.36417851 -0.00000020
-0.25670358 0.20504164 -0.00000062
-0.48845439 0.66942696 -0.00000039
0.14863347 0.29515191 -0.00000068
-0.39424744 0.59719275 -0.00000051
0.49048625 -0.08548957 -0.00000058
0.07383402 0.57552682 0.09424110
0.14235708 0.64542004 0.00764528
-0.17650830 -0.38712600 -0.00000026
-0.72811897 -0.77602224 0.00000000
-0.73590235 0.38261428 -0.00000008
-0.65884476 -0.43251390 -0.00000007
-0.19131587 -0.52051298 -0.00000017
0.10413386 -0.09164698 -0.00000044
-0.55500736 -0.17557832 -0.00000023
0.31659600 -0.07079282 -0.00000046
-0.68450495 0.37744021 -0.00000014
-0.30198523 0.66585600 -0.00000062
0.41610224 0.37046293 -0.00000099
-0.20920686 -0.62353517 -0.00000011
0.34767973 -0.18946140 -0.00000038
0.11466679 0.12314823 0.35171136
0.14592352 -0.02526021 -0.00000048
0.30023589 0.31137057 0.11786142
-0.32756840 -0.62610814 -0.00000011
0.27825659 0.26724252 0.15921958
-0.09626758 0.03861427 -0.00000052
-0.25053800 -0.61228929 -0.00000012
-0.40817999 0.59101721 -0.00000049
0.57518810 -0.14079786 -0.00000061
0.30532628 0.31371483 -0.00000081
-0.23085659 -0.64505300 -0.00000010
0.55052733 0.14994464 -0.00000089
0.51038580 0.25846001 -0.00000097
-0.71237622 -0.76470079 0.00000000
0.73139651 -0.44093787 -0.00000045
-0.03003895 0.69651449 -0.00000094
-0.13861309 0.79571217 -0.00000083
0.67768330 -0.47958735 -0.00000036
-0.71466947 0.16701906 -0.00000011
-0.24910290 -0.34159321 -0.00000029
0.35916699 -0.67221248 -0.00000008
-0.76779703 -0.08658339 -0.00000002
-0.21793243 0.04561702 -0.00000053
-0.18933195 0.14653913 -0.00000059
0.78914077 -0.32313254 -0.00000060
0.00283472 -0.71669759 -0.00000005
0.26433829 0.10605678 0.26876761
0.56459201 -0.76185713 -0.00000002
0.37305533 -0.37939960 -0.00000026
-0.43361716 -0.06943163 -0.00000038
-0.74541151 -0.27397152 -0.00000001
-0.02939485 -0.20576311 -0.00000037
-0.32405669 0.79906042 -0.00000059
-0.78176497 0.73995392 -0.00000002
-0.02310877 0.20456521 -0.00000063
-0.30393246 -0.79122466 -0.00000001
-0.56456252 -0.32651760 -0.00000019
0.11236413 0.14195246 -0.00000059
0.70853901 -0.74489028 -0.00000007
0.49305904 -0.64358079 -0.00000010
0.53473299 -0.71357899 -0.00000005
0.24874807 0.26041016 -0.00000069
-0.18542839 -0.11935581 -0.00000043
0.01144251 0.38312570 -0.00000074
-0.44838071 -0.06612208 -0.00000036
-0.50736940 -0.10212952 -0.00000029
0.49895573 -0.06004532 -0.00000061
0.35037686 0.04661354 -0.00000057
-0.79128525 0.77114812 -0.00000001
-0.36760525 -0.50428310 -0.00000018
-0.05939732 -0.35792994 -0.00000028
-0.25491574 -0.08985538 -0.00000044
-0.05970318 0.06448109 -0.00000054
-0.79496662 -0.56357210 0.00000000
0.48457000 0.05296221 -0.00000072
-0.50720802 -0.29897390 -0.00000026
-0.34230461 0.38402265 -0.00000056
-0.46593044 -0.24989306 -0.00000031
-0.46660641 -0.05307276 -0.00000035
-0.56311786 0.05836141 -0.00000026
0.76038330 -0.56018099 -0.00000030
-0.19636830 0.74270872 -0.00000075
0.16738112 0.14320247 -0.00000059
0.46661357 0.03050475 -0.00000068
-0.53684427 0.68846848 -0.00000033
-0.46088866 0.34251193 -0.00000042
0.05209204 0.68625631 -0.00000093
0.26453337 -0.48114820 -0.00000020
0.06988453 0.33464059 -0.00000071
0.28613681 0.49732177 0.01034705
0.32156866 0.26985670 -0.00000078
0.01713843 0.73461590 0.03018176
-0.07056851 -0.69581277 -0.00000007
-0.58147157 -0.75728215 -0.00000003
-0.50807452 -0.00225619 -0.00000031
-0.36379917 -0.19554826 -0.00000038
0.09771373 -0.39608584 -0.00000025
0.10134657 0.21424096 0.30305550
-0.48195570 -0.28906346 -0.00000029
-0.66053801 0.02091820 -0.00000015
0.11210183 0.29429828 0.24624164
-0.60812061 -0.12482484 -0.00000018
-0.13819189 0.54725009 -0.00000081
0.39433527 -0.69434131 -0.00000007
0.09915467 0.35083353 -0.00000072
0.22523393 0.25934681 0.19733095
0.73963179 -0.48797961 -0.00000039
0.06289296 -0.32283978 -0.00000030
-0.22777730 0.25786739 -0.00000066
0.69021782 -0.28677963 -0.00000058
-0.61891675 -0.40010148 -0.00000012
0.54664636 -0.13378496 -0.00000059
0.24550083 0.37775511 -0.00000081
0.74705228 -0.00670079 -0.00000094
0.40747787 -0.58277180 -0.00000014
-0.31699587 0.57390072 -0.00000060
-0.17963887 -0.08478503 -0.00000045
0.29074877 0.45436309 -0.00000094
-0.54153855 0.18565023 -0.00000031
0.05236457 0.05266745 -0.00000053
-0.62713975 0.62681622 -0.00000022
0.44688448 -0.07225359 -0.00000055
0.15210091 -0.68160493 -0.00000007
-0.45823483 -0.09381044 -0.00000035
-0.70794926 0.56027771 -0.00000012
-0.22401882 0.39359422 -0.00000069
0.32418830 -0.46195713 -0.00000021
0.21842291 -0.53436804 -0.00000017
0.28709597 0.29126151 0.13866270
0.03039250 -0.43487335 -0.00000023
0.43198743 -0.69605125 -0.00000006
0.68700483 0.01741535 0.05979517
-0.38338442 -0.51183091 -0.00000018
-0.71200026 0.43480917 -0.00000011
-0.73987391 -0.78452743 0.00000000
0.07593355 -0.65203175 -0.00000009
0.11183262 0.61333047 0.04681796
-0.12863433 0.61495136 -0.00000083
-0.22834085 0.08649461 -0.00000055
-0.66089862 0.58026865 -0.00000017
-0.57817621 -0.35870559 -0.00000017
0.69823324 -0.05047830 -0.00000084
-0.32625478 0.26568535 -0.00000055
0.17297055 -0.00175981 -0.00000050
-0.36541332 0.54760941 -0.00000054
-0.57582282 0.63347823 -0.00000028
0.11167326 0.57851899 -0.00000088
-0.15861720 -0.22520320 -0.00000036
-0.05934470 0.77658840 -0.00000093
0.44547608 -0.15274827 -0.00000046
-0.21178500 0.38919358 -0.00000070
-0.27842927 -0.75892965 -0.00000003
-0.03155902 -0.28983486 -0.00000032
0.76016421 -0.41723088 -0.00000048
-0.07197091 -0.67888049 -0.00000008
-0.11438186 -0.54895074 -0.00000016
-0.29617998 0.04446119 -0.00000053
-0.12878079 -0.29049141 -0.00000032
-0.70867882 0.77757423 -0.00000011
-0.49204769 -0.69494988 -0.00000007
0.61126524 -0.36882348 -0.00000041
-0.22633954 -0.42134991 -0.00000024
0.11983085 -0.77429544 -0.00000002
0.01767618 0.62265396 -0.00000089
0.59288812 -0.19374180 -0.00000057
0.18547100 -0.54467729 -0.00000016
0.43039356 -0.02825574 -0.00000058
-0.58793798 0.14797959 -0.00000025
-0.36987310 0.01377708 -0.00000046
-0.02419893 -0.14557258 -0.00000041
0.15768454 0.38998368 -0.00000074
-0.15842634 0.44656923 -0.00000077
-0.24957124 -0.12499364 -0.00000042
0.70309787 -0.35726414 -0.00000052
-0.17171732 0.23689148 -0.00000065
0.68679936 -0.14986893 -0.00000072
-0.03432059 -0.74789113 -0.00000003
0.54960357 -0.44174492 -0.00000026
0.04229954 -0.16684263 -0.00000040
0.13561873 0.48832368 0.11014355
0.67878022 -0.47604370 -0.00000036
-0.15518809 0.60578828 -0.00000080
-0.55974423 0.02621286 -0.00000026
0.07125410 0.62976380 0.06192355
-0.03797446 0.30150441 -0.00000069
0.26395906 -0.56975409 -0.00000014
0.26916049 0.50509018 -0.00000097
0.22948337 -0.27999438 -0.00000033
0.17690452 -0.76127871 -0.00000002
0.50441840 0.17595835 -0.00000087
0.18028054 -0.40042433 -0.00000025
-0.72839514 -0.64037990 0.00000000
-0.32847871 0.69608329 -0.00000059
0.58914446 0.14852936 0.03899098
-0.53868366 0.63636331 -0.00000033
-0.78064455 0.38004860 -0.00000002
0.38054305 0.20631799 -0.00000077
-0.78089033 -0.14199987 0.00000000
-0.18565313 -0.20940045 -0.00000037
0.61971951 -0.15239282 -0.00000065
-0.03239897 -0.26267420 -0.00000034
-0.09543409 0.21615544 -0.00000064
0.78453751 -0.51161799 -0.00000036
-0.74909787 0.01434280 -0.00000006
-0.57156807 0.61919639 -0.00000029
0.25884784 0.53530355 0.00365740
-0.49996615 -0.13345779 -0.00000030
0.08949083 -0.61289361 -0.00000012
-0.42781957 0.49859198 -0.00000047
-0.61704159 -0.03487584 -0.00000019
0.13849684 -0.78670269 -0.00000001
-0.63317352 -0.25437763 -0.00000013
0.52933872 -0.31250185 -0.00000038
-0.15536237 -0.66439698 -0.00000008
-0.01464911 0.70693563 -0.00000094
-0.21877137 -0.04461824 -0.00000047
0.10427650 0.45337588 -0.00000078
0.29133386 0.08222715 0.26678704
0.14195623 -0.08757288 -0.00000045
-0.27404303 0.44658608 -0.00000064
0.59538038 0.19530507 0.00582576
-0.59325110 -0.26088446 -0.00000017
-0.58545128 0.55241295 -0.00000027
-0.59579649 0.09252164 -0.00000023
-0.01264192 0.03966935 -0.00000052
-0.21950663 -0.41881457 -0.00000024
-0.14595314 0.78830217 -0.00000082
-0.61741707 0.30664378 -0.00000023
-0.61492358 0.40813981 -0.00000023
-0.03700638 0.22997857 -0.00000064
0.48939855 0.24049503 0.04385846
0.49092048 -0.32434055 -0.00000032
0.28733696 0.50680981 0.00366029
0.67370697 0.12226340 0.00251940
-0.72608756 0.46831002 -0.00000009
0.31105143 -0.02206713 -0.00000049
-0.38231989 0.47570350 -0.00000052
0.59359008 -0.56927847 -0.00000017
-0.20741733 -0.78825925 -0.00000001
-0.67592488 0.42297461 -0.00000016
-0.51193356 0.44151239 -0.00000036
-0.40630362 0.13980644 -0.00000045
0.27307056 0.33901636 0.11756083
0.44859578 -0.18977366 -0.00000042
0.33122184 -0.28650234 -0.00000032
0.24191910 0.29993741 -0.00000072
-0.29817518 0.74802189 -0.00000063
0.77492446 -0.58243895 -0.00000027
0.22846968 -0.69540113 -0.00000007
-0.41742368 -0.18569667 -0.00000037
0.70681606 -0.30484200 -0.00000058
0.63504006 -0.58424804 -0.00000020
0.13616370 -0.43527359 -0.00000023
-0.41362669 -0.52860352 -0.00000017
0.63596566 -0.69474962 -0.00000008
-0.65773683 -0.33427464 -0.00000009
-0.44559770 0.42262257 -0.00000044
0.17909021 0.06416704 -0.00000054
-0.22011573 0.51338135 -0.00000071
0.14089661 0.57135458 0.05489592
-0.29624399 0.17685323 -0.00000057
0.44242281 0.20862451 0.09318637
-0.33610457 -0.40539814 -0.00000025
-0.45991216 -0.39859428 -0.00000025
0.00033240 -0.01666280 -0.00000049
-0.45516735 0.78789270 -0.00000043
-0.26797287 0.28170764 -0.00000062
-0.46278570 0.46181430 -0.00000042
-0.22684908 -0.72637196 -0.00000005
-0.36783525 0.04214238 -0.00000047
-0.74747825 -0.28898589 -0.00000000
-0.38909134 0.42683841 -0.00000051
-0.17415758 0.76982288 -0.00000078
-0.36518527 0.79872414 -0.00000054
0.70936195 0.05708657 0.02098891
0.63495405 -0.07834997 -0.00000074
0.67244595 -0.05149460 -0.00000081
0.36101892 -0.20151223 -0.00000037
0.07076726 0.34919944 0.23775398
-0.51903410 0.41106319 -0.00000035
0.40700769 -0.52496688 -0.00000017
-0.66611510 -0.10029686 -0.00000012
-0.54866591 -0.73943229 -0.00000004
-0.13057685 -0.49459205 -0.00000019
-0.03560813 0.18014865 -0.00000061
0.30623577 -0.42524389 -0.00000023
0.21218219 0.56564797 -0.00000098
0.29368710 -0.64841136 -0.00000009
-0.41498025 0.25756404 -0.00000046
0.29847231 -0.38046298 -0.00000026
0.38528796 0.10748811 -0.00000067
-0.03124668 -0.03020989 -0.00000048
0.35190091 -0.32088543 -0.00000030
-0.71407439 0.27961252 -0.00000011
0.12406444 0.55098082 -0.00000087
-0.61884530 -0.58594319 -0.00000009
-0.11681456 -0.23182415 -0.00000036
0.31837927 0.46519399 0.01027530
0.17587990 -0.41652966 -0.00000024
0.21612195 -0.60974306 -0.00000012
-0.63375092 0.53378320 -0.00000021
-0.14754355 0.16922474 -0.00000061
0.75131088 -0.38577385 -0.00000052
0.28255281 0.12967682 0.24259527
0.18801372 0.38166485 -0.00000075
-0.39757497 0.08157566 -0.00000044
-0.45711505 0.21149132 -0.00000040
-0.40356431 0.28622741 -0.00000048
-0.01246359 0.25479662 -0.00000066
-0.08245351 -0.36004195 -0.00000027
0.06120185 -0.59549028 -0.00000013
0.10689943 0.63644629 -0.00000094
0.13203287 -0.28466322 -0.00000032
-0.57254597 -0.17908864 -0.00000021
0.41674637 0.06166787 0.20118933
-0.10900853 0.48142543 -0.00000080
-0.19221049 -0.51982455 -0.00000018
-0.79406754 -0.05323120 0.00000000
0.69097383 0.07278974 0.02266867
0.48016039 -0.78028287 -0.00000001
-0.79455388 0.52420246 -0.00000001
0.26941666 0.19658227 -0.00000064
-0.48158553 0.79213121 -0.00000040
0.09140326 -0.38257154 -0.00000026
0.35989760 0.29663220 0.08975642
-0.08239262 0.28385379 -0.00000068
0.21160028 0.33940429 0.15577501
-0.50309100 -0.75845982 -0.00000003
-0.27826171 0.32847455 -0.00000062
0.07858005 -0.55547738 -0.00000015
-0.01190295 -0.29591778 -0.00000032
0.32935985 -0.05641053 -0.00000046
-0.54398092 -0.75107875 -0.00000003
0.67194654 -0.09513809 -0.00000076
0.30927243 0.39343408 -0.00000090
-0.01635778 0.31218365 -0.00000070
-0.68582149 0.63080975 -0.00000014
-0.65997703 -0.43097942 -0.00000007
0.15004656 0.37982716 -0.00000074
-0.16845038 -0.47143226 -0.00000021
-0.03642868 0.32697881 -0.00000070
0.79167547 -0.05128444 -0.00000094
-0.49024079 -0.44862062 -0.00000022
0.45810783 0.17789278 0.10259992
-0.42261116 0.53553937 -0.00000047
-0.52546735 -0.58922340 -0.00000013
0.70286458 -0.44496345 -0.00000042
-0.17166471 -0.78091802 -0.00000001
0.02301187 -0.14068191 -0.00000041
0.61210439 -0.50949441 -0.00000026
0.01887529 -0.69384512 -0.00000007
-0.77940413 -0.14908931 0.00000000
-0.27004322 -0.73883743 -0.00000004
-0.69233723 0.44238639 -0.00000013
-0.12805470 -0.07906841 -0.00000045
-0.12418424 0.29408782 -0.00000068
0.22614969 0.24492051 0.20578338
0.69315866 -0.76846775 -0.00000004
0.66429149 -0.79200967 -0.00000001
0.63821431 -0.39500873 -0.00000041
-0.42489050 0.32249769 -0.00000046
-0.43397332 0.35235844 -0.00000046
-0.57757847 0.07457625 -0.00000025
-0.29477212 -0.17231282 -0.00000039
-0.40417811 -0.42212580 -0.00000024
0.72679654 -0.78897564 -0.00000001
-0.03100708 0.33962279 -0.00000071
0.14574045 -0.68019914 -0.00000007
0.65040859 -0.52125119 -0.00000028
0.23585671 0.52936082 0.02175904
0.33916387 0.31911447 0.08866249
-0.27171978 -0.18471338 -0.00000038
0.44598114 -0.43516757 -0.00000023
-0.68665089 -0.19647949 -0.00000008
-0.09727779 0.69337723 -0.00000088
0.41241823 0.37958581 -0.00000099
0.26858992 -0.46737367 -0.00000021
0.07095657 -0.55882657 -0.00000015
-0.35562516 -0.01483193 -0.00000047
0.23247752 0.18690283 -0.00000062
-0.30409084 0.37390164 -0.00000060
0.02294403 -0.08062168 -0.00000045
0.01890100 0.41358732 -0.00000076
-0.48323963 -0.07759897 -0.00000032
0.45600772 -0.25647228 -0.00000036
0.32576119 0.22768431 0.15424817
0.34410094 0.02282076 -0.00000054
0.10898580 0.67077466 -0.00000098
0.62398104 -0.61133440 -0.00000016
