ply
format ascii 1.0
element vertex 1399
property float x
property float y
property float z
end_header
-0.48338667 -0.06741967 -0.00000053
-0.36720270 0.32080802 0.00000095
0.58030564 0.20205614 0.09710843
-0.64954230 0.12763412 -0.00000158
0.46770978 0.00947407 0.07826681
0.14423877 0.21700538 0.02413711
0.09731791 -0.30997567 0.01628531
0.28915890 -0.47513116 0.04838824
-0.55476799 0.18457991 -0.00000037
-0.63617778 -0.62887248 -0.00000019
0.14236297 -0.44209109 0.02382321
-0.12380341 0.40427147 0.00000407
-0.03512297 0.09376289 0.00001006
0.03880539 0.41758109 0.00649909
-0.39873856 0.15304936 0.00000315
0.15043808 -0.41493076 0.02517451
0.41984249 0.03454815 0.07025673
0.02968255 -0.76483684 0.00496712
-0.20393163 -0.19837764 0.00000000
-0.29707235 -0.45627382 0.00000000
0.37765817 -0.78059636 0.06319782
0.24155131 0.34150939 0.04042488
-0.70571790 -0.08329270 -0.00000145
-0.22696685 -0.58914807 0.00000000
-0.44612351 0.10991947 0.00000296
-0.17610952 0.21511279 0.00000000
-0.35374559 -0.68828591 0.00000000
0.09021593 0.15332559 0.01509685
-0.26001122 0.52872860 -0.00000046
-0.12427848 -0.65798282 0.00000000
-0.49298154 -0.59672854 0.00000000
-0.47416785 -0.77952533 0.00000000
-0.20091333 0.29617854 0.00000453
0.23874877 0.21463075 0.03995816
0.33412809 -0.63813823 0.05591344
-0.01954062 0.69555540 0.00000127
0.40476128 -0.48592332 0.06773329
-0.59621767 -0.17956464 -0.00000081
0.31335615 0.32001493 0.05243714
0.65580740 -0.67943797 0.10974356
-0.02431372 -0.57772702 0.00000000
-0.55872678 -0.56891634 0.00000000
0.25239114 0.16594411 0.04223547
-0.69724322 -0.67693390 -0.00000031
-0.61477966 -0.76852384 0.00000000
-0.59565174 -0.68944659 0.00000000
0.26488073 0.45674218 0.04432640
-0.71803847 -0.35464546 -0.00000102
0.15516068 -0.36499876 0.02596480
0.30767819 -0.14582482 0.05148728
-0.63709608 -0.58043403 -0.00000028
0.05377436 0.36147180 0.00900467
0.12024003 -0.33924076 0.02012113
-0.47911515 0.28972484 -0.00000068
-0.31443825 0.03654733 0.00000671
-0.15412199 0.45088749 0.00000287
0.34952844 -0.52366778 0.05849056
0.54667990 0.16578881 0.09148142
0.28700733 -0.43853777 0.04802819
-0.12389149 0.24057703 0.00000000
0.48549459 0.00223101 0.08124791
0.12311576 0.37466341 0.02060716
-0.65798540 -0.71047744 -0.00000014
0.22730381 0.56399255 0.03803708
-0.03789700 -0.30840928 0.00000000
0.28553607 0.22218522 0.04778186
-0.58237083 0.14632560 -0.00000026
-0.08190972 0.24709201 0.00000706
-0.16893715 0.24632490 0.00000576
-0.58509495 -0.51753230 -0.00000017
0.28290685 0.00501959 0.04735023
0.31040576 0.38891826 0.05194493
-0.24623294 -0.40395047 0.00000000
-0.31489765 -0.74443244 0.00000000
0.61546530 0.14372497 0.10299244
-0.06138470 -0.48169150 0.00000000
-0.21033443 0.38176100 0.00000295
-0.06958272 0.47708418 0.00000000
-0.63457681 -0.11970676 -0.00000108
0.08949749 -0.60571080 0.01497663
0.24595731 0.31878158 0.04115870
-0.16586900 -0.00605983 0.00000000
-0.23729374 -0.78765280 0.00000000
0.08630813 -0.71964005 0.01444292
-0.33803550 0.13768263 0.00000457
-0.20443978 -0.18737610 0.00000000
0.05432624 0.23265339 0.00909900
-0.41623546 0.10763761 0.00000357
0.69508573 0.01231087 0.11631563
0.29591951 0.23684172 0.04952371
0.30954226 -0.67025490 0.05179922
0.26677927 0.36210114 0.04464298
0.78053026 -0.28080308 0.13061417
-0.39449265 -0.55855177 0.00000000
-0.75420521 0.02024630 -0.00000146
-0.46484031 0.15317629 0.00000188
-0.14852334 -0.11963450 0.00000000
-0.72867224 0.01599014 -0.00000090
0.46594902 -0.44466055 0.07797253
0.41990612 0.27740401 0.07026871
0.42952160 -0.68568988 0.07187672
0.30516986 -0.69928080 0.05106753
-0.20224641 0.29121259 0.00000000
-0.04092200 -0.44387975 0.00000000
0.13948890 0.12621066 0.02334226
-0.18424681 -0.18282717 0.00000000
-0.19065023 0.33404161 0.00000000
0.42933513 -0.63362963 0.07184551
0.20206728 0.09614253 0.03382218
0.18811575 0.11440003 0.03147954
0.66637389 -0.15676094 0.11151120
-0.17742594 0.23808674 0.00000575
0.62892023 0.02489613 0.10524581
-0.29354769 0.50602091 -0.00000073
-0.52544231 0.27062747 -0.00000125
-0.07448202 -0.04317705 0.00000000
0.08878874 0.17193639 0.01485803
-0.23579114 0.41880235 -0.00000033
0.66786834 0.06822963 0.11176105
-0.37722632 -0.14924612 0.00000000
-0.06753626 0.39572629 0.00000000
0.48571486 -0.54272322 0.08128017
-0.52095887 0.23683943 -0.00000060
-0.19497507 -0.47396322 0.00000000
0.47394120 -0.34115510 0.07930993
-0.45735733 -0.17976188 -0.00000022
0.41258019 -0.53062399 0.06904172
0.13177311 -0.61774489 0.02205109
0.26125509 0.34541433 0.04371859
0.41161985 0.06771075 0.06888073
0.51608236 0.09504356 0.08636134
-0.16829141 0.20576531 0.00000000
-0.06891288 0.02076962 0.00001065
-0.15898111 0.62466925 -0.00000012
0.21408629 -0.37360464 0.03582549
0.23976613 0.23517057 0.04012276
0.30465039 -0.75629207 0.05098060
-0.12068983 0.46755234 0.00000317
0.15229578 0.02229919 0.02548538
0.09023871 -0.61569726 0.01510067
-0.22147020 -0.60210261 0.00000000
-0.18119563 -0.27790054 0.00000000
0.21725867 0.16347686 0.03636307
0.09404662 0.60502815 0.01573785
0.12100350 -0.68351002 0.02024889
-0.17407580 0.02887797 0.00000894
0.11196618 0.66678242 0.01873642
0.54520078 -0.31821404 0.09123440
-0.73638466 -0.04488182 -0.00000165
0.66572788 -0.06622839 0.11140301
-0.20656502 0.49190790 -0.00000034
0.67244580 -0.17688681 0.11252729
0.36771602 0.23690940 0.06153686
0.12669581 -0.46917998 0.02120145
-0.38638913 -0.71490067 0.00000000
0.20374953 -0.66554083 0.03409572
0.35316395 0.33485763 0.05909852
0.38905407 0.31106373 0.06510590
0.30465415 0.33291538 0.05098353
0.13695341 -0.24428611 0.02291797
0.22326017 -0.20777946 0.03736066
-0.02690835 0.41751707 0.00000000
0.30752810 -0.38132695 0.05146216
0.74166963 -0.50104452 0.12411150
0.13902385 -0.08139278 0.02326444
-0.54837789 -0.68161559 0.00000000
-0.29544049 0.32926501 -0.00000043
-0.17610835 -0.62618124 0.00000000
-0.21597336 0.03281581 0.00000825
0.04188687 0.57880832 0.00701222
-0.40300873 0.29829001 -0.00000083
0.64315993 0.00295085 0.10762881
-0.36102089 0.26127949 -0.00000059
0.47686935 -0.36387654 0.07979995
-0.64384372 -0.03854885 -0.00000127
0.38060469 0.01062676 0.06369735
0.41576096 0.02986844 0.06957944
-0.21219825 0.15954080 0.00000000
0.09063073 -0.75848975 0.01516627
-0.37074949 0.19941171 -0.00000052
0.14347539 0.13407822 0.02400936
-0.70438014 -0.53636227 -0.00000064
-0.07525776 0.69679569 0.00000028
-0.01161617 0.22120029 0.00000000
0.07283617 0.33611647 0.01219461
0.01552130 0.15087041 0.00259736
0.47369561 0.19735515 0.07926828
-0.35759875 -0.13951649 0.00000000
0.76439765 -0.72266332 0.12791509
0.52393786 0.14533452 0.08767783
-0.31180804 0.22472398 0.00000362
-0.01707299 0.46858811 0.00000471
-0.48936951 0.15730694 -0.00000095
0.65377919 0.07128309 0.10940446
0.43982748 -0.18056988 0.07360122
0.74350255 -0.79943901 0.12441860
-0.48204847 0.28918232 -0.00000072
-0.07427633 0.20353073 0.00000000
-0.14142876 0.58106077 -0.00000022
0.47918004 -0.71773188 0.08018663
-0.00049061 0.44064841 0.00000538
-0.12506726 -0.70946069 0.00000000
0.17466468 0.34228020 0.02922862
0.44812797 0.00394693 0.07499002
0.58435680 0.04971463 0.09778893
-0.03339819 0.62987873 0.00000205
-0.25025450 0.04023498 0.00000762
-0.00023120 0.10491501 0.00001042
0.44131633 -0.23394166 0.07385042
-0.08747737 -0.32961375 0.00000000
0.33434689 0.30779107 0.05595223
-0.59164750 -0.40637656 -0.00000039
-0.54193297 -0.56173080 0.00000000
0.42281685 -0.56371159 0.07075474
-0.04615148 -0.21959440 0.00000000
-0.25881125 0.46923020 0.00000056
0.10458663 -0.18741795 0.01750167
-0.63428748 -0.10724453 -0.00000110
0.26281128 0.53299831 0.04397881
-0.14169433 0.23396525 0.00000635
0.37326001 0.13307367 0.06246158
-0.56310460 -0.09941322 -0.00000081
-0.38128973 0.13926250 0.00000371
0.11794545 0.10577151 0.01973715
-0.23075027 -0.76343775 0.00000000
0.19015620 0.51116985 0.03182081
-0.11379075 0.38271201 0.00000454
-0.31770280 -0.16898373 0.00000000
-0.50033675 -0.33938420 -0.00000012
-0.70660346 -0.24521181 -0.00000117
-0.74244686 -0.72225067 -0.00000019
0.29030376 -0.17691344 0.04857982
0.69272559 -0.57570869 0.11592130
-0.39666802 0.40038382 -0.00000099
-0.05754291 0.68072453 0.00000089
0.01108076 -0.50664091 0.00185427
-0.08420171 0.35431957 0.00000541
-0.61450879 -0.52870374 -0.00000027
-0.20061154 0.10638394 0.00000738
-0.69494936 -0.30883759 -0.00000101
0.02121068 -0.63300035 0.00354942
-0.27802684 -0.25686623 0.00000000
-0.13885180 0.06126992 0.00000000
0.08659801 0.11431131 0.01449143
0.31460618 -0.08971301 0.05264662
0.78442119 -0.49106510 0.13126554
0.01636866 -0.16300734 0.00273915
-0.08963670 -0.39426708 0.00000000
0.25282294 -0.76368478 0.04230773
-0.10843933 0.06279499 0.00000942
-0.07492373 -0.73404889 0.00000000
0.26220191 0.51528667 0.04387716
-0.15797093 -0.31937837 0.00000000
0.31176809 0.44829781 0.05217126
-0.06087203 -0.78535529 0.00000000
-0.62367409 -0.26451578 -0.00000078
-0.08257639 -0.67605136 0.00000000
-0.31683357 -0.38206512 0.00000000
-0.08320486 -0.51780613 0.00000000
-0.66756809 -0.51023996 -0.00000053
-0.73000971 0.02776830 -0.00000112
0.71888762 -0.04715014 0.12029867
-0.32325963 -0.34486131 0.00000000
0.33112405 0.30688200 0.05541299
0.56105536 -0.41286985 0.09388759
-0.28561069 0.07550717 0.00000656
-0.01309182 -0.18516758 0.00000000
-0.56087439 0.14271451 0.00000021
-0.16961057 0.40478670 0.00000334
-0.27202823 0.51913667 -0.00000053
0.71231862 -0.01985948 0.11919940
-0.16129813 0.55792169 -0.00000026
-0.74675431 0.01440865 -0.00000122
-0.71440780 -0.62059279 -0.00000045
-0.05482556 -0.22181214 0.00000000
-0.35475533 -0.14806037 0.00000000
-0.18885538 0.24403379 0.00000549
-0.49844910 -0.31546598 -0.00000016
-0.52328478 -0.66498957 0.00000000
0.35708903 -0.70898177 0.05975576
0.31974191 -0.63586707 0.05350604
0.53111265 -0.27594331 0.08887687
-0.26441817 0.52116648 -0.00000064
0.24689882 0.18910928 0.04132227
-0.37278487 -0.63866520 0.00000000
-0.45055969 0.04276631 -0.00000058
0.31321934 0.35619364 0.05241421
0.19022324 0.56914458 0.03183197
0.65535981 0.09702145 0.10966849
-0.48364435 0.19533531 -0.00000100
-0.43409243 -0.34409996 0.00000000
0.02471319 0.35028737 0.00413554
0.55550033 0.11793749 0.09295747
0.56655499 -0.27627181 0.09480775
-0.14699001 0.38125825 0.00000406
0.31979742 -0.28937226 0.05351533
0.26448003 0.15819418 0.04425844
0.09268019 0.50871692 0.01550923
-0.54291091 -0.13074348 -0.00000067
-0.51438557 -0.48630567 0.00000000
-0.65530483 -0.05042067 -0.00000129
-0.42419040 0.11693173 0.00000326
-0.00417938 0.61989502 0.00000264
-0.74813751 -0.66574618 -0.00000034
0.57849605 -0.62301997 0.09680630
-0.65460308 -0.61859026 -0.00000029
0.15273042 0.41140067 0.02556192
-0.18268782 0.31731675 0.00000000
-0.04743019 0.74385054 0.00000003
0.34886317 0.06746323 0.05838530
0.35894384 -0.46040264 0.06006614
-0.15716865 -0.60471287 0.00000000
-0.34911801 0.01247401 0.00000645
-0.77646457 -0.66749214 -0.00000033
0.43850982 -0.44880586 0.07338082
-0.07988075 0.24632839 0.00000000
-0.49981395 0.11926942 0.00000177
0.31595648 -0.71864013 0.05287258
0.02838270 0.14816737 0.00475924
-0.00188693 -0.57545013 0.00000000
0.08380226 0.11081417 0.01402358
-0.26722874 -0.28694455 0.00000000
0.73766938 -0.32593330 0.12344188
0.55610335 -0.75632794 0.09305908
0.30079656 0.34110901 0.05033541
-0.32990782 -0.31734203 0.00000000
-0.47519818 0.29285892 -0.00000065
0.33802574 -0.60015632 0.05656568
-0.05476696 0.43317208 0.00000000
-0.22772627 0.39771266 -0.00000026
-0.22238991 0.01504271 0.00000000
0.67097343 -0.39877183 0.11228113
0.52144845 -0.75965488 0.08725988
0.72276454 0.02114746 0.12094812
0.14819692 -0.32427599 0.02479947
-0.28829161 0.01872625 0.00000000
-0.56434194 -0.24582576 -0.00000056
-0.36197890 0.07988916 -0.00000027
-0.12525434 0.50050167 -0.00000001
-0.22755192 -0.69455163 0.00000000
0.03586861 -0.42743404 0.00600230
0.64778236 -0.74096546 0.10840072
-0.66344382 -0.28110979 -0.00000092
-0.59971062 -0.36148201 -0.00000051
0.46970388 -0.31887172 0.07860084
-0.42196360 0.35222108 -0.00000062
0.11764854 0.48478049 0.01968746
0.14601329 0.37306054 0.02443856
0.10279068 -0.79255511 0.01720113
0.25832611 -0.77985373 0.04322864
0.09935067 0.11685764 0.01663459
-0.40631552 -0.32782299 0.00000000
-0.56585529 0.07725732 0.00000121
-0.59663391 -0.08368536 -0.00000098
-0.02451353 0.11558411 0.00000000
0.57219655 -0.08609573 0.09575161
0.05020231 0.64813016 0.00840092
-0.03205336 -0.75053346 0.00000000
-0.51537569 0.18114340 -0.00000111
-0.51750879 -0.51409316 0.00000000
0.17024704 -0.58685226 0.02848937
0.25518141 0.06309574 0.04270240
0.43752193 0.27894084 0.07321620
-0.41626433 0.26031043 0.00000102
-0.15472060 -0.52850862 0.00000000
-0.52792366 -0.37792306 -0.00000017
0.74678101 0.02632267 0.12496624
-0.13077280 0.06699026 0.00000902
-0.07207245 0.15225224 0.00000863
-0.24714483 -0.77934011 0.00000000
0.26626847 0.03106655 0.04456578
0.05718315 -0.41686619 0.00956910
0.00759834 0.35315563 0.00127152
-0.07019401 0.47169958 0.00000387
0.34761068 0.20966833 0.05816937
-0.33951482 -0.70263565 0.00000000
0.38855281 0.25891138 0.06502052
0.24887237 0.12662348 0.04165346
-0.60760546 0.11549125 -0.00000023
0.73991235 -0.64449306 0.12381762
-0.01993092 0.05008527 0.00000000
-0.39717903 -0.54602484 0.00000000
-0.05154049 -0.15224483 0.00000000
-0.19764149 0.24257298 0.00000000
0.35436116 0.11323408 0.05929908
0.14780749 -0.61719901 0.02473430
0.29518233 -0.78994264 0.04939621
0.28540118 -0.21773603 0.04775942
-0.05624525 -0.00106769 0.00000000
-0.23560736 0.14681546 0.00000624
-0.34789833 -0.29682646 0.00000000
0.47648148 0.07171260 0.07973460
0.25463460 0.26349228 0.04261536
0.12731657 0.56503177 0.02130698
0.02069966 0.35914875 0.00346391
0.17002909 0.08668787 0.02845289
0.49774973 -0.15235061 0.08329383
-0.61232553 0.10179461 -0.00000138
-0.43228372 -0.63989741 0.00000000
-0.19799276 -0.34741280 0.00000000
0.16486447 0.14458483 0.02758864
-0.31983678 -0.55312024 0.00000000
0.05978305 -0.76633501 0.01000418
-0.38043183 -0.27827579 0.00000000
-0.55003576 -0.22639253 -0.00000053
0.68103665 -0.54114850 0.11396525
-0.30595562 -0.11030567 0.00000000
0.04077186 -0.66861565 0.00682282
-0.58436437 -0.23565135 -0.00000066
-0.14539366 -0.06632496 0.00000000
0.02651507 0.75127389 0.00443741
0.35842851 0.02365530 0.05997980
-0.60658449 -0.15226762 -0.00000091
0.11876658 -0.17877655 0.01987456
-0.47054903 -0.45747870 0.00000000
-0.60025364 -0.51524178 -0.00000024
0.08753506 0.50003461 0.01464823
0.25709186 0.36319151 0.04302190
0.33395936 0.23991172 0.05588494
-0.22110520 -0.04746506 0.00000000
0.31264464 0.23393715 0.05231817
0.45093340 -0.64484215 0.07545980
-0.36331826 0.09438053 -0.00000030
0.71900812 0.06258357 0.12031886
0.02866563 -0.05075696 0.00479695
0.58361984 0.02287928 0.09766608
-0.43610726 0.35314426 -0.00000107
-0.06009613 -0.40826098 0.00000000
-0.08864201 0.42232305 0.00000000
-0.22170894 0.46103223 -0.00000035
-0.31469262 0.18675795 -0.00000026
-0.57123648 0.13209639 -0.00000126
-0.06175449 -0.33695451 0.00000000
0.10406793 0.00056222 0.01741487
0.04799513 0.37682365 0.00803157
0.53640888 0.01615234 0.08976283
0.21236258 -0.68401053 0.03553704
-0.25475160 0.40002829 -0.00000038
-0.12150743 -0.19656691 0.00000000
0.27088892 0.04760894 0.04533865
-0.42264788 -0.56098847 0.00000000
0.03695518 0.00014770 0.00618413
0.44104818 -0.46899122 0.07380559
0.07352871 -0.38573706 0.01230439
-0.50789723 -0.17220133 -0.00000045
0.24377224 0.16089863 0.04079317
0.32957594 0.31341264 0.05515135
-0.21587431 -0.56213400 0.00000000
0.48456919 -0.54005512 0.08108846
-0.15235348 0.35446333 0.00000438
0.40621898 0.26529146 0.06797876
0.16872779 -0.60963329 0.02823513
0.15266772 -0.33864628 0.02554762
-0.41684003 -0.09116996 -0.00000020
-0.46213034 0.29770730 -0.00000048
0.46798125 0.11049150 0.07831566
-0.07519154 0.07139576 0.00000000
-0.44857200 0.30489611 -0.00000104
-0.50904031 -0.08436686 -0.00000061
0.15991200 -0.68864760 0.02675989
-0.43006013 0.36326615 -0.00000106
-0.52419603 -0.50979062 0.00000000
-0.24521498 0.20036536 0.00000000
0.21167157 0.04617062 0.03542140
0.38382715 0.29206894 0.06423165
-0.09502256 -0.36965109 0.00000000
-0.58450340 -0.77811445 0.00000000
-0.10820568 0.05106992 0.00000000
0.08200283 0.39350006 0.01372246
0.21550872 0.27270213 0.03606857
0.34128666 -0.13328652 0.05711137
-0.57204226 0.11351528 -0.00000123
-0.68339812 -0.17562863 -0.00000119
0.41202180 -0.51836820 0.06894828
-0.35400895 0.00026732 0.00000656
0.02595995 0.42995377 0.00434417
-0.16872779 -0.49082793 0.00000000
0.41718072 -0.27679053 0.06981158
0.28780361 0.15103517 0.04816138
0.74980843 -0.40109896 0.12547333
-0.49844592 0.22401122 -0.00000111
-0.17936588 0.34789703 0.00000000
0.15434704 0.51268554 0.02583069
0.49200403 0.21118536 0.08233345
0.64167500 0.06716346 0.10737789
-0.38829410 0.16231217 -0.00000053
0.34956361 0.00207887 0.05849638
-0.30302527 -0.76552067 0.00000000
-0.76730948 -0.61167219 -0.00000047
-0.02723362 0.06245754 0.00000000
0.60892972 -0.53289598 0.10189895
0.70488190 -0.65038322 0.11795563
0.12350505 0.49285163 0.02067047
-0.41226551 0.25006960 -0.00000079
0.76625315 -0.06473879 0.12822478
0.64992113 -0.73715776 0.10875862
-0.71257591 -0.72704834 -0.00000018
0.64713485 -0.17434053 0.10829178
0.25411781 0.36780317 0.04252707
-0.44967767 0.04634273 0.00000395
0.38302522 -0.46460310 0.06409595
0.09071489 -0.38052193 0.01518035
0.61093254 -0.23691704 0.10223379
-0.73750099 0.01916413 -0.00000112
-0.32503251 -0.37549499 0.00000000
-0.52019638 0.16990546 -0.00000111
0.72252424 -0.56175014 0.12090779
-0.40516344 -0.60728228 0.00000000
0.00068416 0.17148450 0.00012417
0.46860087 -0.12987532 0.07841607
0.51795344 -0.03258642 0.08667457
-0.44951407 -0.48424219 0.00000000
-0.27517190 -0.56453711 0.00000000
0.56320585 0.16074257 0.09424686
-0.01693436 0.33362690 0.00000674
-0.64907016 -0.07425981 -0.00000122
-0.21698263 -0.33722005 0.00000000
0.03402305 0.19703336 0.00570227
-0.52956289 -0.49610369 0.00000000
0.24644995 0.48878682 0.04124096
0.65792908 -0.74867842 0.11009867
-0.05289091 0.12893844 0.00000000
-0.30267813 -0.31320941 0.00000000
0.20080316 -0.23199915 0.03360267
0.51981258 -0.70454732 0.08698613
0.51948130 0.10417656 0.08693287
0.62966650 0.14686395 0.10536832
-0.15609756 -0.25480700 0.00000000
0.37603034 0.25813980 0.06292503
-0.23316043 -0.55617313 0.00000000
0.41813325 0.10432703 0.06997064
0.55072349 -0.25508671 0.09215850
0.58452632 -0.15255646 0.09781492
-0.18076532 0.40734497 -0.00000008
0.00309341 0.16989264 0.00052733
-0.03480010 0.61288250 0.00000228
0.72746400 -0.31290834 0.12173411
0.45757612 0.32123549 0.07657098
-0.23877137 0.44789756 -0.00000040
0.18262196 -0.51762743 0.03056020
0.30768106 -0.39038962 0.05148776
-0.68072422 -0.01870597 -0.00000146
0.12267580 -0.48138784 0.02052873
-0.24973683 -0.33368624 0.00000000
0.22365659 0.31059715 0.03743123
-0.78061249 -0.49325036 -0.00000077
0.12246275 -0.68292196 0.02049308
-0.60113916 -0.73190861 0.00000000
-0.42949265 -0.67643843 0.00000000
-0.53006518 -0.36967549 -0.00000019
0.76198714 -0.76384264 0.12751177
-0.07741733 0.71375779 -0.00000018
0.71247518 -0.70413478 0.11922636
0.25604245 -0.39475001 0.04284649
0.45462327 -0.69927122 0.07607727
0.35480842 0.02669222 0.05937402
-0.39259839 0.10230505 0.00000412
0.22118493 -0.61244118 0.03701338
0.24834763 -0.75381812 0.04155882
-0.64851515 -0.28318764 -0.00000085
0.28905371 0.06901791 0.04837778
0.49125177 -0.25338994 0.08220657
0.22986319 -0.07256501 0.03846561
0.28162790 -0.76350433 0.04712799
0.57965446 -0.59374636 0.09700013
0.57249198 -0.27382607 0.09580123
-0.52072697 -0.18688415 -0.00000048
0.76317736 -0.47478052 0.12771058
0.20981393 0.20978179 0.03511665
-0.04883400 0.73293292 -0.00000009
-0.53499889 -0.79651582 0.00000000
-0.20759749 0.34095133 -0.00000007
-0.64446382 -0.19629626 -0.00000099
-0.21711542 -0.55107677 0.00000000
0.42107961 0.11826646 0.07046783
-0.05573011 0.06412412 0.00001020
-0.60177328 0.13377197 -0.00000043
-0.08239194 0.00924008 0.00001062
0.47426022 0.15253037 0.07936554
-0.18025305 -0.37241899 0.00000000
0.47105200 0.05960941 0.07883035
-0.56328860 0.05646287 -0.00000109
-0.59767636 0.13466934 -0.00000137
-0.23778946 0.47889812 -0.00000045
0.39377251 -0.02161444 0.06589427
0.73631498 -0.29101772 0.12321520
-0.75853723 -0.69297751 -0.00000027
0.34212463 -0.73764598 0.05725159
-0.51336562 -0.45284362 0.00000000
0.65102880 -0.54639605 0.10894378
0.28913613 -0.76000482 0.04838443
-0.50710279 -0.04033125 -0.00000068
0.50174705 -0.11489343 0.08396270
0.17864570 -0.04187198 0.02989481
-0.41624411 0.00579096 -0.00000037
-0.26093496 0.49354264 -0.00000057
-0.39384530 0.30161414 -0.00000080
0.67127951 0.04212043 0.11233190
0.26505088 -0.14929347 0.04435397
0.24618760 0.01402138 0.04119736
0.11561832 -0.02236376 0.01934772
0.03272531 0.18545138 0.00548530
-0.27463472 0.06142667 0.00000693
-0.52981341 -0.30072452 -0.00000032
0.45577911 -0.73705109 0.07627069
0.57471661 0.09071998 0.09617313
-0.36500671 0.43397639 -0.00000091
0.07034379 0.57757414 0.01177142
0.25867708 -0.38509229 0.04328737
-0.27393251 0.48604966 -0.00000002
0.55929356 -0.76826028 0.09359293
0.33106520 -0.62082641 0.05540089
0.21025970 -0.51165835 0.03518514
0.18203889 -0.23206001 0.03046263
-0.04963047 0.21734802 0.00000799
-0.16235836 -0.49433361 0.00000000
0.74606340 -0.44300426 0.12484669
0.41173748 -0.15041558 0.06890064
-0.58898367 0.12797255 -0.00000133
0.24373660 -0.39585286 0.04078721
-0.65123112 0.03456761 0.00000028
-0.36940305 0.08233041 -0.00000031
-0.28519476 -0.25871789 0.00000000
-0.71386698 -0.51876643 -0.00000070
0.16485770 -0.25287631 0.02758751
-0.18384494 0.43746215 -0.00000014
0.58707378 -0.00080188 0.09824105
0.04475299 0.09815647 0.00749921
-0.46556608 0.32533159 -0.00000101
-0.65795952 -0.69468463 -0.00000017
0.59619946 0.15178670 0.09976798
0.17805137 -0.04088059 0.02979535
0.13930809 -0.71896585 0.02331200
0.55522501 -0.26592379 0.09291179
0.72703751 -0.04252044 0.12166246
0.50568669 -0.62546680 0.08462229
-0.26187954 0.24980316 0.00000416
-0.58182367 -0.73844383 0.00000000
-0.00161741 0.45705355 0.00000512
-0.55725099 -0.57343469 0.00000000
-0.42656277 -0.39427336 0.00000000
-0.24799299 0.19482081 0.00000000
0.24910241 0.02106222 0.04168513
-0.23179153 0.28316922 0.00000418
0.78022634 -0.28863942 0.13056332
0.40549998 0.08003158 0.06786168
-0.34143004 -0.36852259 0.00000000
0.30938729 -0.75399325 0.05177328
0.74115085 -0.72299040 0.12402497
-0.05750290 0.33920509 0.00000604
-0.43460382 -0.70498303 0.00000000
0.50871902 -0.14203037 0.08512941
-0.01522294 0.45399109 0.00000000
0.27134706 0.07715717 0.04541485
0.35321934 -0.73835956 0.05910820
-0.25054708 0.41133289 -0.00000038
0.63583669 -0.64449486 0.10640165
0.16570417 0.04934833 0.02773836
-0.69496214 0.04635188 -0.00000163
-0.29707006 0.22360045 0.00000392
0.43795945 -0.58112053 0.07328872
-0.67014026 -0.78288571 -0.00000004
-0.28554987 -0.56265944 0.00000000
-0.71215040 -0.48008291 -0.00000078
-0.27403388 -0.16543033 0.00000000
0.02017996 0.68213559 0.00337694
-0.06078899 0.28148449 0.00000000
-0.30274836 -0.71634567 0.00000000
0.62580852 0.16024351 0.10472271
0.08163707 -0.58033731 0.01366126
-0.07595290 0.16604790 0.00000836
-0.54737169 0.06213468 0.00000181
0.33270868 -0.49172271 0.05567591
-0.17300693 -0.49294897 0.00000000
0.04796748 0.48412394 0.00802694
0.06468701 0.71646346 0.01082473
0.11251888 0.05521054 0.01883894
-0.13137655 -0.23399243 0.00000000
0.41276727 -0.05542248 0.06907287
0.27210190 0.10002398 0.04553390
0.28151357 0.07865014 0.04711596
0.58166961 -0.19246984 0.09733693
-0.21754253 -0.44024998 0.00000000
-0.51406547 0.05808039 0.00000252
0.32046611 0.42737270 0.05362680
0.17330776 0.49480580 0.02900143
0.31548231 -0.28679767 0.05279323
-0.18359674 -0.23893048 0.00000000
-0.35417638 -0.10542068 0.00000000
-0.37560973 0.19989003 -0.00000054
0.29009761 0.35867396 0.04854504
0.22098666 -0.60750601 0.03698020
0.14204590 -0.44639794 0.02377015
-0.52558522 -0.29769574 -0.00000030
-0.55613345 0.02962511 0.00000219
0.60115474 0.00453438 0.10059734
-0.07365257 0.42235576 0.00000455
0.31977711 0.42774992 0.05351229
-0.28794300 -0.54689249 0.00000000
-0.22649076 -0.03292452 0.00000000
-0.01371219 0.57391651 0.00000000
0.00630110 0.70075107 0.00105443
-0.70913040 0.04409565 -0.00000099
-0.74706801 -0.74105509 -0.00000015
0.41982434 0.15869269 0.07025710
-0.78087227 -0.39122556 -0.00000102
0.43541350 -0.10068219 0.07286251
0.60573782 -0.05632967 0.10136433
0.45474195 -0.72529441 0.07609713
0.21111324 0.24548908 0.03533351
-0.23990823 -0.35041823 0.00000000
-0.45141941 -0.07112324 -0.00000039
-0.00925895 0.27526576 0.00000773
-0.38166525 -0.52446093 0.00000000
-0.59501541 0.12653704 -0.00000135
-0.00666002 0.71694232 0.00000000
-0.66051718 0.13582242 -0.00000159
-0.28551955 0.20920985 0.00000439
0.44881384 0.23034105 0.07510456
-0.04284458 0.39358450 0.00000000
-0.13590407 -0.21431291 0.00000000
0.05076693 -0.70097928 0.00849541
0.60328461 0.17580561 0.10095357
0.13578140 0.30589464 0.02272752
0.44463402 0.08724073 0.07440526
0.00632799 0.65068480 0.00105893
0.42633831 -0.08651500 0.07134386
-0.23955487 0.38386037 0.00000235
0.15873219 0.46920036 0.02656518
0.37015809 0.25121041 0.06194238
0.04298877 0.27779541 0.00719380
0.46795347 0.13846256 0.07830746
-0.34334750 0.30916957 -0.00000060
0.23088283 0.22518554 0.03863624
-0.55255367 -0.58610187 0.00000000
-0.62728099 -0.16642019 -0.00000097
-0.47456239 -0.40209520 0.00000000
0.78153577 -0.67643149 0.13078293
0.75829282 -0.30336508 0.12689298
0.50629408 -0.56755032 0.08472393
0.25639999 0.36408859 0.04290900
0.64211648 -0.61625904 0.10745247
0.23350317 -0.50174992 0.03907473
0.52618811 -0.10225788 0.08805262
-0.69527301 -0.68137900 -0.00000030
0.77291782 -0.73671225 0.12934087
0.15396930 0.05372445 0.02577474
-0.62138893 -0.11487619 -0.00000103
-0.63460426 -0.64885297 -0.00000015
0.34399646 0.26454447 0.05756451
-0.03342633 0.45068027 0.00000474
-0.05133068 -0.01248882 0.00000000
0.18084154 0.16145229 0.03026227
-0.53824106 0.04443218 -0.00000096
-0.56895510 -0.62215637 0.00000000
0.30759201 -0.73026929 0.05147286
0.53478647 -0.36055466 0.08949173
0.31345208 -0.12051355 0.05245349
-0.23321317 0.20286710 0.00000000
0.06901542 0.39040464 0.01154913
-0.64238150 0.03654405 0.00000042
-0.50208775 -0.59948329 0.00000000
-0.43996300 -0.77113832 0.00000000
-0.57465006 0.13388108 -0.00000127
0.04220576 0.50431824 0.00706672
0.75590326 -0.05045044 0.12649283
-0.18564215 0.04294686 0.00000000
-0.04632438 0.31173879 0.00000000
-0.45752219 -0.05997853 -0.00000043
-0.45700688 -0.57976953 0.00000000
0.60851303 -0.11370400 0.10182879
-0.14622042 -0.32391877 0.00000000
-0.43666143 0.18535503 -0.00000078
-0.63671051 -0.73403549 -0.00000001
0.22557123 0.29306372 0.03775190
0.41324797 -0.27560622 0.06915347
0.51777403 0.12110030 0.08664691
-0.07549923 0.47292509 0.00000377
0.12891151 0.12023889 0.02157223
0.00516973 0.67238448 0.00086700
0.49698735 -0.28580521 0.08316639
-0.64647842 -0.27786422 -0.00000085
-0.13384782 0.55645864 0.00000150
-0.00610685 0.52892430 0.00000000
0.08222324 -0.15048933 0.01375935
-0.62740810 -0.16106129 -0.00000098
0.23413081 0.36665640 0.03917962
-0.34108292 -0.64896887 0.00000000
0.11383218 0.01215747 0.01905935
-0.39444069 -0.28991573 0.00000000
0.15123371 -0.18311214 0.02530765
0.52187325 -0.54669858 0.08733097
-0.42286142 0.16178769 0.00000254
0.44780031 0.03742128 0.07494021
-0.55665303 0.01631158 0.00000240
-0.36629667 0.28346009 -0.00000065
-0.72839862 -0.22614884 -0.00000129
0.25645332 0.02282830 0.04292356
-0.14372874 -0.22191186 0.00000000
0.10536883 -0.64412517 0.01763256
0.38937209 0.03808637 0.06516386
-0.60776815 -0.64243156 -0.00000004
-0.18515556 -0.29498957 0.00000000
0.26819105 0.44628080 0.04487914
-0.72031169 0.04988205 -0.00000130
0.11458717 -0.24392971 0.01917517
0.33794114 0.32205584 0.05655338
-0.45503506 -0.60925188 0.00000000
0.03523438 0.62885509 0.00589830
0.27052966 0.07915474 0.04527805
-0.11170945 0.60817828 -0.00000014
0.24133317 -0.25237341 0.04038502
0.53141533 -0.72778264 0.08892775
-0.25427515 0.54179029 -0.00000057
-0.11548418 0.19466923 0.00000734
0.19776467 0.41132640 0.03309718
-0.48956307 0.11490297 -0.00000088
0.54879271 -0.75387079 0.09183571
-0.39368322 0.10754153 0.00000401
0.58366971 -0.50485431 0.09767194
0.48538490 -0.39236251 0.08122496
-0.14712678 0.11098811 0.00000000
0.61430850 -0.05121531 0.10279853
0.38416028 0.05143152 0.06428570
-0.03641472 -0.38877606 0.00000000
0.15466818 -0.57251062 0.02588238
-0.74504595 -0.39311758 -0.00000102
-0.14345499 0.33576955 0.00000480
0.38933978 -0.76596825 0.06515264
0.10370847 0.13875347 0.01735471
0.14363185 0.61205181 0.02403607
0.35092514 0.07607612 0.05872414
0.02893060 0.05377910 0.00484129
-0.14549628 0.19480687 0.00000000
-0.46662941 -0.17567050 -0.00000027
-0.52864843 0.21940387 -0.00000045
-0.49787431 -0.03444870 -0.00000065
-0.32841537 -0.60253710 0.00000000
-0.06778206 -0.08397107 0.00000000
-0.37540553 -0.75381524 0.00000000
0.30060692 -0.59604857 0.05030396
0.55230418 -0.34435483 0.09242311
0.19290875 0.35097453 0.03228158
0.18829474 -0.09515212 0.03150949
-0.33835875 0.33793506 -0.00000063
0.27064228 0.48368640 0.04528997
-0.17745960 0.28642380 0.00000503
-0.46753957 -0.39213601 0.00000000
-0.13097918 -0.38011420 0.00000000
-0.53582313 0.03504105 0.00000249
0.55851688 0.23199165 0.09346216
0.05098770 0.45133763 0.00853235
-0.56412205 -0.19692704 -0.00000065
0.19656358 0.28543636 0.03289321
0.22027565 0.23435046 0.03686122
-0.47299087 -0.62258441 0.00000000
0.37981178 0.11898598 0.06355795
-0.22320958 -0.17774537 0.00000000
0.07696789 -0.13753698 0.01287991
0.46173528 -0.69286334 0.07726740
-0.26283897 -0.07276836 0.00000000
0.28091276 0.05322266 0.04701582
0.44854121 0.06900237 0.07506363
-0.06843257 0.66087858 -0.00000005
0.37457628 0.32686959 0.06268164
-0.08571292 0.24912487 0.00000000
-0.18674198 0.30555537 0.00000000
-0.11620346 0.50798187 0.00000000
-0.40809043 0.09073924 -0.00000049
-0.19963584 0.33878145 0.00000387
0.31860757 -0.34578247 0.05331622
-0.75869599 0.01873000 -0.00000186
0.43233478 -0.64558669 0.07234748
-0.55375444 0.08281284 -0.00000110
-0.17167807 -0.13689169 0.00000000
-0.25819298 -0.02236917 0.00000000
-0.79633844 -0.45155217 -0.00000087
-0.05425390 -0.06287577 0.00000000
-0.39595620 0.00723915 0.00000564
-0.28887561 0.18702864 -0.00000015
-0.71112637 -0.37912560 -0.00000095
-0.59876530 0.08763948 0.00000040
-0.63667629 -0.30146289 -0.00000077
-0.19170746 0.46281189 -0.00000022
0.07241983 -0.73154360 0.01211883
-0.36634689 0.30874901 -0.00000070
-0.34307041 -0.78817106 0.00000000
-0.72981315 0.05042051 -0.00000149
0.48315808 -0.37821825 0.08085232
-0.72957627 -0.47201561 -0.00000082
0.05166431 -0.77940995 0.00864557
-0.13724515 -0.12740091 0.00000000
-0.12245441 0.17521539 0.00000752
0.57798866 -0.00882076 0.09672077
-0.78275205 -0.70037315 -0.00000025
0.64637177 -0.35144358 0.10816427
-0.46517594 0.20407957 -0.00000093
0.10846498 0.13843582 0.01815933
0.33712583 -0.07858200 0.05641509
0.57000107 -0.39626882 0.09538454
-0.19667270 -0.09293142 0.00000000
0.68321593 -0.07288216 0.11432944
-0.27723768 0.48554128 -0.00000063
-0.57084960 -0.76065836 0.00000000
-0.59417306 -0.62498040 -0.00000002
0.24855186 -0.29565323 0.04159300
0.44438145 0.00046295 0.07436309
0.13904302 0.53171258 0.02326757
-0.53037308 -0.38001073 -0.00000018
0.59144190 -0.02823409 0.09897204
-0.15144568 0.17109085 0.00000000
0.11447759 0.38593029 0.01915683
0.55783984 -0.12613128 0.09334921
-0.14560111 0.54992463 -0.00000018
-0.42197489 -0.54778665 0.00000000
0.26384616 0.52794185 0.04415206
0.30188706 0.30558712 0.05052101
0.65914238 -0.75499457 0.11030171
0.17765186 -0.39467654 0.02972850
-0.16603392 -0.23284593 0.00000000
-0.14623044 0.50882029 -0.00000011
0.13637853 0.05584329 0.02282177
0.67507545 -0.13692221 0.11296729
0.39609413 -0.29345522 0.06628292
-0.19824374 0.51701508 -0.00000035
-0.25009703 0.36968345 -0.00000031
-0.33597857 -0.15802088 0.00000000
-0.12290496 -0.42844177 0.00000000
0.24653021 -0.71260535 0.04125469
0.25327085 -0.28646390 0.04238268
0.19278565 0.07827043 0.03226938
-0.51985468 -0.78651502 0.00000000
0.58279552 0.01441976 0.09752831
0.68575966 -0.17880040 0.11475522
-0.54254547 0.20786518 -0.00000127
0.39137221 -0.70067282 0.06549275
0.19826819 0.30932591 0.03318320
0.20050584 0.47171844 0.03355275
0.49283434 0.19069742 0.08247273
-0.74179980 0.03124168 -0.00000140
-0.70277564 -0.79617030 -0.00000001
0.00880422 -0.69787354 0.00147331
-0.15869999 0.18415039 0.00000000
-0.10647469 -0.09843813 0.00000000
-0.01821171 -0.09524893 0.00000000
0.49866066 0.03281579 0.08345035
0.51515710 -0.12282850 0.08620673
-0.67843746 -0.36263843 -0.00000084
0.63582369 -0.40827960 0.10639923
0.32246475 0.44189731 0.05396175
0.22377777 0.45085529 0.03744907
0.14233098 0.64511546 0.02381783
-0.37074437 0.06747344 -0.00000029
-0.31791983 -0.71964854 0.00000000
-0.54002159 -0.50005017 -0.00000001
0.07486909 -0.68663210 0.01252869
-0.25871030 0.00904361 0.00000796
-0.10947723 -0.76398894 0.00000000
-0.09297496 -0.02998256 0.00000000
0.09397337 0.16100473 0.01573414
0.12952880 0.42736689 0.02167942
-0.48002216 0.04650609 0.00000337
-0.28554016 -0.37013619 0.00000000
-0.20039836 -0.42191803 0.00000000
0.08661446 0.05809325 0.01449418
0.74619510 -0.22501609 0.12486846
-0.49239206 0.09589465 0.00000231
0.55282649 0.12681341 0.09251187
0.18099699 -0.73540340 0.03028828
-0.32569878 0.43059272 -0.00000008
-0.62731423 0.08969566 -0.00000142
-0.31225716 -0.12401123 0.00000000
0.07466642 0.71079038 0.01249490
-0.22425348 -0.20051739 0.00000000
0.21747280 -0.43597319 0.03639219
-0.44629629 0.07041447 0.00000362
0.31251250 0.18131147 0.05230105
-0.51639126 0.01213500 -0.00000081
0.66322331 -0.52596935 0.11098437
-0.52553224 -0.34101088 -0.00000023
0.42646637 0.13159055 0.07136507
-0.64777152 0.01152336 0.00000073
-0.20013606 0.12428839 0.00000000
0.44341617 0.34342091 0.07420132
-0.30209400 0.03607703 0.00000000
0.60006714 -0.23687464 0.10041559
-0.02467946 0.48325531 0.00000438
0.12929310 0.08972515 0.02163608
0.02043982 0.13677991 0.00343036
-0.04651183 0.63811433 0.00000000
-0.47693766 -0.46313496 0.00000000
-0.46071659 0.05003539 0.00000368
-0.62083635 -0.75898679 0.00000000
0.03130407 0.63264355 0.00524060
-0.57370733 -0.62706202 0.00000000
-0.62228066 -0.13073124 -0.00000101
-0.08456147 0.47848364 0.00000355
-0.33320025 -0.01169287 0.00000000
0.05566029 0.21387072 0.00931427
-0.33256536 -0.26406504 0.00000000
0.57423811 0.00558194 0.09609662
0.76970526 -0.22618497 0.12880265
0.04107416 0.62125501 0.00687557
-0.17461227 0.06275456 0.00000842
0.26172389 0.12058889 0.04380396
-0.67752027 -0.70233323 -0.00000024
-0.73904157 -0.14572793 -0.00000148
0.19456988 0.31968507 0.03256421
0.50899994 -0.38750384 0.08517667
0.02208279 -0.56983342 0.00369536
0.35196913 0.17872470 0.05889874
0.04281022 -0.67467478 0.00716392
-0.42730988 0.25950613 0.00000082
0.29120300 0.28992257 0.04873361
-0.37515005 0.40592212 -0.00000090
-0.37078226 -0.78285508 0.00000000
-0.33754681 -0.52113768 0.00000000
-0.35754049 -0.27898025 0.00000000
0.24826179 -0.42272834 0.04154446
-0.53327198 -0.78658351 0.00000000
0.58892436 -0.04823421 0.09855078
0.01729872 0.75613911 0.00289522
0.18162670 -0.72491595 0.03039366
0.13993435 0.04478988 0.02342645
-0.36242790 0.02759880 0.00000594
0.06192915 -0.76952962 0.01036331
-0.68198827 -0.79225059 -0.00000002
-0.63710839 -0.07046497 -0.00000118
0.18817420 -0.26907679 0.03148932
-0.05805069 -0.63246135 0.00000000
0.08214727 0.42547027 0.01374663
-0.12729841 0.36738523 0.00000000
-0.22129709 0.50684239 0.00000065
0.14822954 0.56270937 0.02480622
-0.68112509 -0.65419398 -0.00000034
-0.00096222 0.51470125 0.00000426
0.70563734 0.08185167 0.11808125
-0.05834540 -0.23334251 0.00000000
-0.04387363 0.24038058 0.00000000
-0.29727065 0.21671602 0.00000403
0.40357811 -0.69109779 0.06753530
-0.60099060 0.03635943 0.00000121
-0.59706720 -0.48543860 -0.00000028
-0.00007195 -0.71138937 0.00000000
0.06565359 -0.75203543 0.01098656
0.10304568 0.15189684 0.01725232
-0.70181501 0.04261718 -0.00000083
0.36996998 0.06675343 0.06191109
-0.12101764 -0.13833339 0.00000000
0.01755884 0.59588144 0.00293832
0.48680450 0.15313258 0.08146195
0.16365220 0.32648691 0.02739074
-0.11945355 -0.08467595 0.00000000
0.04045114 0.28471115 0.00677651
-0.51350103 0.11156645 0.00000164
-0.13392430 -0.48949479 0.00000000
-0.08475532 0.38963241 0.00000000
-0.15248323 -0.56090429 0.00000000
0.23168184 0.43583918 0.03876974
0.56957455 0.17607366 0.09531257
0.30926168 -0.47434344 0.05175226
-0.01015641 0.12590569 0.00000996
-0.34326596 0.41863107 -0.00000079
0.28309955 0.25150973 0.04737411
-0.78095204 -0.41523845 -0.00000096
0.30208017 -0.20177746 0.05055050
-0.60003536 0.06568205 -0.00000126
-0.43500058 -0.72250736 0.00000000
-0.57199513 -0.64245466 0.00000000
0.18233385 0.06537364 0.03051199
-0.56886433 0.00221213 0.00000240
0.03349685 0.58431489 0.00560825
-0.07221127 0.43529875 0.00000438
0.29147419 -0.44589288 0.04877568
-0.62687385 -0.15890353 -0.00000098
-0.21417326 -0.29862278 0.00000000
-0.69442434 -0.71242609 -0.00000022
-0.17021590 0.59329057 -0.00000036
0.32821434 -0.32758848 0.05492383
-0.73887628 -0.57076335 -0.00000057
0.65414142 -0.53259179 0.10946462
0.02659718 0.47773271 0.00445540
-0.53943329 -0.48952843 -0.00000002
-0.18160724 0.03534913 0.00000873
-0.33650223 0.07434356 0.00000566
-0.14848135 -0.10814034 0.00000000
0.21887866 0.17575696 0.03662745
-0.76092876 -0.44565763 -0.00000089
0.27339603 0.33095725 0.04575025
0.45605363 0.31395067 0.07631597
-0.01401507 -0.54003565 0.00000000
-0.28029866 -0.47239633 0.00000000
0.16730471 0.22697192 0.02800344
-0.10564443 -0.24076891 0.00000000
-0.17723746 0.13439171 0.00000000
-0.60455785 0.08476004 -0.00000132
-0.05504810 0.22782017 0.00000000
-0.18393575 0.40102083 0.00000313
0.77980990 0.00618129 0.13049333
-0.13733889 -0.16818968 0.00000000
-0.38123978 0.08138053 0.00000468
0.74788977 0.02933442 0.12515198
0.17108151 -0.16713095 0.02862901
-0.02243562 -0.66761784 0.00000000
0.78831086 -0.57992924 0.13191655
-0.78032258 -0.56966045 -0.00000058
-0.22075498 -0.57148260 0.00000000
0.46439058 -0.45756065 0.07771174
-0.23227619 0.41214130 0.00000202
0.04330882 0.57012624 0.00724736
-0.46792378 0.25215227 0.00000017
0.21601506 0.52796055 0.03614885
-0.79173894 -0.43653845 -0.00000091
-0.17249554 0.55299580 0.00000081
-0.35404183 -0.74552081 0.00000000
-0.51088388 0.25217169 -0.00000066
0.24702840 0.31153840 0.04134184
0.77282500 -0.00080037 0.12932444
0.65127809 -0.20628600 0.10898514
0.09438297 0.18311525 0.01579417
0.23910340 -0.01944513 0.04001188
0.10441688 -0.60592225 0.01747326
-0.26613991 0.36772700 0.00000211
0.33781692 -0.70313993 0.05653074
0.08499973 -0.17819313 0.01422397
-0.30477282 -0.10461159 0.00000000
0.22257559 0.25883345 0.03725126
0.11795916 -0.25966003 0.01973944
-0.61219339 -0.45021511 -0.00000040
-0.15394167 0.34893826 0.00000000
-0.32108713 0.06260817 -0.00000007
0.51679054 -0.08316545 0.08648003
-0.37368135 -0.07239196 -0.00000005
0.26617397 -0.54032416 0.04454191
0.49269079 -0.64986166 0.08244754
-0.69900192 -0.23758847 -0.00000115
0.23580095 0.48361567 0.03945898
0.54756043 -0.31048862 0.09162926
0.33437226 0.26404957 0.05595401
-0.08003457 0.06164923 0.00000000
0.51492426 0.10361201 0.08616753
0.19517489 -0.03866774 0.03266083
0.61980875 -0.20103250 0.10371909
-0.20443251 0.03125009 0.00000845
-0.68013607 0.05731551 -0.00000066
0.41236838 -0.33291676 0.06900628
0.62157875 -0.54435052 0.10401564
-0.59220768 0.06651370 0.00000088
0.35447226 -0.46199143 0.05931786
-0.19363534 0.33119576 0.00000000
0.13419444 0.19465061 0.02245628
-0.03178963 0.33106083 0.00000655
-0.64712474 -0.01919461 -0.00000131
-0.32325004 -0.48334226 0.00000000
-0.38188487 0.26231169 0.00000165
0.05213397 -0.68655572 0.00872417
-0.02706063 0.23738712 0.00000803
0.01086711 -0.08573053 0.00181852
-0.09638735 0.08667376 0.00000000
-0.47558547 -0.66417392 0.00000000
-0.56458052 -0.45956373 -0.00000018
-0.72625047 0.03252591 -0.00000113
0.20931236 0.52119026 0.03502637
0.27238211 0.51047244 0.04558040
0.41898707 0.04485097 0.07011358
0.34480343 -0.13543123 0.05769987
-0.35954294 -0.69318844 0.00000000
-0.09117231 0.68873723 -0.00000019
0.02375020 -0.03600326 0.00397439
-0.08712823 0.31569038 0.00000000
-0.38586708 -0.78750535 0.00000000
0.25364779 -0.00364949 0.04244576
0.57765444 -0.23722052 0.09666508
-0.73299887 0.05826378 -0.00000182
0.37138008 -0.60760018 0.06214724
-0.18334733 0.43970932 -0.00000015
-0.19470478 -0.30582386 0.00000000
0.00397375 0.22156537 0.00067383
-0.32468838 -0.65320930 0.00000000
-0.33650223 0.28238587 0.00000218
-0.00088943 -0.56458579 0.00000000
0.21801697 -0.43475981 0.03648325
-0.02376066 -0.39252089 0.00000000
0.32388852 0.15196922 0.05419979
0.40290315 0.02578317 0.06742213
-0.23803857 0.03933419 0.00000782
-0.43907074 0.32038648 -0.00000103
0.40189197 0.21182349 0.06725273
0.27278268 -0.79331944 0.04564782
-0.19123175 -0.37396678 0.00000000
-0.56992971 -0.65632314 0.00000000
-0.36139027 0.15918807 0.00000376
-0.69812286 -0.70779464 -0.00000023
0.24002941 0.35599565 0.04016998
0.31559764 -0.38706721 0.05281253
0.00087172 0.09483989 0.00015674
-0.33675309 -0.20755728 0.00000000
0.19959975 0.16838153 0.03340818
-0.12843279 -0.41652376 0.00000000
0.70029303 0.04361394 0.11718774
-0.74619038 -0.58499153 -0.00000054
-0.72423597 -0.00297182 -0.00000167
-0.27325214 0.31706221 -0.00000031
-0.19469856 0.40846274 0.00000280
-0.28791251 0.02125072 0.00000000
-0.11277278 0.50588671 0.00000271
0.69904433 -0.78842370 0.11697894
-0.58197996 0.20058343 -0.00000116
-0.03230397 0.11689344 0.00000976
-0.44861311 -0.53783938 0.00000000
0.06748885 0.45347297 0.01129367
-0.12246729 0.11449570 0.00000843
0.59134175 -0.39593434 0.09895566
-0.61810207 -0.18090972 -0.00000090
0.72625486 -0.18444043 0.12153164
0.13222013 0.57345423 0.02212579
-0.38016198 0.41013591 -0.00000093
-0.02146618 0.68133498 0.00000146
-0.08027541 -0.51455163 0.00000000
0.04219997 0.65369343 0.00706180
0.62700548 0.09075241 0.10492429
-0.67756863 -0.01607622 -0.00000145
-0.43193169 0.29740479 -0.00000095
-0.69312887 -0.78494817 -0.00000004
0.36498019 -0.24950039 0.06107627
-0.73498904 -0.17454818 -0.00000141
0.22894879 -0.61782311 0.03831260
-0.13687582 0.27552381 0.00000580
0.04211605 0.03486239 0.00705895
-0.31140339 -0.22360906 0.00000000
0.75734683 -0.07788838 0.12673442
-0.70008520 0.04745658 -0.00000166
0.41487806 0.22599949 0.06942579
0.59894933 -0.06768167 0.10022836
-0.47123836 -0.18005406 -0.00000028
0.08219310 0.61928123 0.01375428
0.15792961 0.16045298 0.02643576
0.32107763 0.31520146 0.05373185
0.19666517 -0.04369768 0.03291021
0.63688457 0.10810251 0.10657622
-0.04427915 0.00298793 0.00000000
0.69713730 -0.51398219 0.11665948
-0.79593516 -0.46422118 -0.00000084
0.31039921 0.45082478 0.05194276
0.77011861 -0.49370603 0.12887215
-0.40677393 -0.49403576 0.00000000
0.41646890 0.27726238 0.06969195
-0.23212753 0.16475979 0.00000603
0.19635516 -0.39284599 0.03285833
-0.44228815 -0.53788111 0.00000000
0.22210513 0.34573588 0.03717103
-0.49353056 -0.31451385 -0.00000014
-0.39299112 0.13543573 0.00000355
0.29052735 0.27022176 0.04862090
-0.07344929 -0.56355185 0.00000000
0.07892743 0.08800865 0.01321767
-0.67168522 -0.34941157 -0.00000083
-0.42874117 0.31205805 -0.00000097
0.58416262 -0.69932565 0.09775455
-0.15987220 0.44411699 0.00000287
-0.43814897 0.13835553 0.00000264
0.56016099 -0.73834455 0.09373809
-0.63213266 -0.61734509 -0.00000019
0.69371140 -0.01560181 0.11608568
0.30123087 -0.68542556 0.05040838
-0.78648970 -0.37048230 -0.00000107
-0.24204684 -0.44373642 0.00000000
0.01752922 0.75590890 0.00293379
-0.56672967 -0.06213911 -0.00000089
0.42403293 0.02922675 0.07096354
-0.47608253 0.28801351 -0.00000059
-0.14223394 -0.69120242 0.00000000
-0.17100450 -0.54837837 0.00000000
-0.72722976 0.07146891 -0.00000182
-0.20367849 -0.65301628 0.00000000
-0.58556397 -0.37007393 -0.00000043
0.64392001 -0.47639032 0.10775413
0.34017825 -0.42680502 0.05692588
0.07235623 0.12576688 0.01211755
-0.16343935 -0.64776975 0.00000000
0.01201350 0.57228845 0.00201036
0.04568644 0.41332535 0.00764523
0.06802847 0.07705359 0.01138398
0.12586758 0.16214965 0.02107089
0.35499760 0.12860166 0.05941067
0.40818216 0.22507686 0.06830795
0.13604557 -0.66133451 0.02276605
-0.55234107 -0.21753985 -0.00000056
-0.76239115 -0.57312488 -0.00000057
-0.68837362 -0.29457028 -0.00000100
-0.23792218 -0.07523679 0.00000000
0.37521971 0.20647506 0.06278943
0.38736761 -0.42397238 0.06482261
0.36607446 0.16275360 0.06125912
-0.09640558 0.25874461 0.00000666
-0.35117946 0.17358096 0.00000372
-0.06878447 -0.72993835 0.00000000
0.67648293 -0.14882992 0.11320283
-0.18783800 0.38524341 -0.00000007
0.04995926 0.66730242 0.00836158
-0.35962336 -0.02219704 -0.00000008
0.02829041 0.75500410 0.00473413
0.10803327 0.59121100 0.01807837
0.11295278 0.18293238 0.01890167
0.18938168 0.47023072 0.03169350
-0.61155225 -0.71099828 0.00000000
-0.23657263 -0.73458254 0.00000000
-0.02480483 0.31345693 0.00000692
-0.11952802 -0.14261453 0.00000000
0.16277503 0.00882218 0.02724887
-0.60504973 -0.43946339 -0.00000039
0.51822684 -0.77900196 0.08672077
0.03383892 -0.63420490 0.00566265
0.18671846 0.59602560 0.03124546
0.38917674 -0.30242024 0.06512536
-0.11809784 0.22537357 0.00000684
-0.44193770 -0.58216429 0.00000000
-0.19010565 -0.47410810 0.00000000
-0.38174383 0.03613306 -0.00000028
0.34267474 -0.10129127 0.05734365
-0.17238486 -0.02261345 0.00000000
0.45636190 -0.07086438 0.07636796
0.18774890 -0.64156320 0.03141815
0.13858341 0.05553701 0.02320023
-0.03701902 0.60450312 0.00000000
-0.23811964 -0.21413661 0.00000000
-0.25582973 0.20876937 0.00000496
0.04527375 -0.43190817 0.00757617
-0.77870767 -0.16218055 -0.00000159
0.66534518 0.04828823 0.11134011
-0.29626833 0.07040241 0.00000000
0.25884271 0.32242332 0.04331492
0.22161143 0.43441569 0.03708457
-0.21812518 0.27724805 0.00000454
-0.10183212 0.33126882 0.00000549
-0.21804297 0.18979603 0.00000586
-0.61493822 -0.52030582 -0.00000029
-0.33477533 0.29678855 -0.00000054
-0.15456747 0.03220684 0.00000918
-0.18465512 -0.27067615 0.00000000
-0.36139714 0.16705042 -0.00000042
-0.16519893 -0.34513947 0.00000000
-0.00587693 0.40937102 0.00000000
0.36843940 0.28134626 0.06165712
-0.67128827 -0.10491417 -0.00000127
-0.50687094 -0.04529896 -0.00000067
0.07749627 0.16154938 0.01296833
0.20865114 -0.05939761 0.03491596
-0.58530851 -0.05319306 -0.00000099
-0.53263912 0.04115393 0.00000245
0.30038715 -0.54994572 0.05026719
-0.42425014 0.06047027 -0.00000050
0.07052332 -0.25952912 0.01180147
-0.45921653 -0.29195524 -0.00000003
0.23081094 0.34739515 0.03862410
0.54233973 -0.40936993 0.09075573
0.14476922 -0.28276398 0.02422588
-0.22219075 0.50474129 -0.00000043
-0.32582032 0.30233847 -0.00000051
0.64651072 -0.19459453 0.10818736
0.11088365 0.44629969 0.01855542
-0.06777930 -0.79708122 0.00000000
-0.20454220 0.53886435 -0.00000041
0.48541769 -0.54585118 0.08123045
0.01463024 0.26938237 0.00245622
-0.30127493 -0.00750805 0.00000000
0.22415904 0.09791672 0.03751870
0.04800533 0.08083018 0.00804368
-0.14971243 -0.38806957 0.00000000
0.29966293 -0.51357180 0.05014600
0.54141759 0.03964678 0.09060442
0.44904301 -0.11800866 0.07514327
0.31689604 -0.54373340 0.05302981
-0.27914434 -0.72660583 0.00000000
-0.45508472 -0.59308404 0.00000000
-0.29734934 -0.35462108 0.00000000
-0.38634554 -0.01904041 -0.00000020
0.07380774 -0.59442718 0.01235109
-0.40358173 -0.04524683 -0.00000023
-0.36771513 0.12246864 -0.00000037
0.19288042 -0.46256250 0.03227687
-0.73900817 -0.35289460 -0.00000112
-0.13344701 0.19940987 0.00000000
-0.12285095 0.64047842 -0.00000024
0.56790908 -0.44511618 0.09503452
0.05550578 -0.33074197 0.00928841
-0.15112109 0.22394064 0.00000000
0.13646469 0.21137822 0.02284331
0.18918644 -0.51485483 0.03165871
0.11952513 -0.63259480 0.02000149
0.52690883 -0.46392614 0.08817360
0.19898377 0.45763296 0.03329806
-0.66443526 -0.48452477 -0.00000056
-0.61949079 -0.32693293 -0.00000065
0.24287299 0.13523753 0.04064269
0.68392571 -0.09748503 0.11444824
0.58189218 -0.68774148 0.09737462
-0.06365661 0.59058059 0.00000000
-0.65749133 -0.32395699 -0.00000082
