ply
format ascii 1.0
element vertex 1374
property float x
property float y
property float z
end_header
0.69618732 0.04994507 0.01386266
0.28125233 -0.41212415 -0.00000024
0.18384698 -0.71279349 -0.00000005
-0.31725446 -0.10445114 -0.00000043
0.79403526 -0.40350809 -0.00000099
-0.71564333 0.45372160 -0.00000011
0.40916631 -0.32987790 -0.00000029
-0.00930685 0.00816506 -0.00000051
-0.46086403 0.77440553 -0.00000042
-0.27458213 0.07799187 -0.00000055
-0.66543405 0.59612995 -0.00000017
0.21387459 0.19388807 0.10095460
0.39010209 0.07217476 0.08692357
-0.53920470 -0.79746232 -0.00000000
0.40391813 0.37118987 0.00640510
-0.64251724 -0.76050093 -0.00000002
-0.73898383 -0.60935330 0.00000000
-0.60870382 0.73275780 -0.00000024
-0.14002019 -0.33941544 -0.00000029
-0.43320991 0.12148430 -0.00000041
-0.17632560 -0.04971948 -0.00000047
0.04937088 -0.16516115 -0.00000040
-0.73521600 0.02049039 -0.00000007
0.12301060 0.16608156 -0.00000060
-0.54541966 0.07558636 -0.00000029
0.76300777 -0.19211233 -0.00000151
-0.23818855 0.64723577 -0.00000070
-0.53563144 -0.17404643 -0.00000025
-0.72689056 -0.73391822 0.00000000
-0.19732793 0.06772012 -0.00000054
0.53980813 0.15709900 0.02653276
-0.04614525 -0.76674537 -0.00000002
0.48297433 0.00687713 -0.00000100
-0.59395424 0.18778380 -0.00000025
-0.66004894 -0.00465745 -0.00000015
0.15054985 0.16244116 -0.00000060
0.06531655 0.72094327 0.00353520
-0.15459025 -0.53531037 -0.00000017
-0.24920798 -0.50963817 -0.00000018
-0.52663258 -0.68712169 -0.00000007
-0.79866199 -0.39930504 0.00000000
0.72241162 -0.11106989 -0.00000153
-0.55066443 -0.79322412 -0.00000000
-0.02882845 -0.11660008 -0.00000043
-0.29991863 -0.20235135 -0.00000037
-0.17069400 -0.75099275 -0.00000003
0.12880133 -0.58650742 -0.00000013
-0.62098468 0.44718383 -0.00000022
-0.79494512 -0.48533694 0.00000000
0.10951900 0.24317980 -0.00000065
0.10285328 0.09291142 0.15551897
-0.57243961 -0.16703082 -0.00000021
0.26799137 -0.67659854 -0.00000008
0.49441434 0.25334572 -0.00000152
-0.58471144 0.52837140 -0.00000027
-0.43814708 0.76685325 -0.00000045
-0.30989089 -0.63379103 -0.00000010
0.09596804 -0.71595059 -0.00000005
0.14872446 -0.55640753 -0.00000015
0.39524461 0.30776687 -0.00000130
0.04128464 -0.31122732 -0.00000031
-0.44772153 -0.77290067 -0.00000002
0.51063774 -0.73671811 -0.00000004
0.59544168 -0.48641741 -0.00000040
0.52353777 0.14234269 0.03451862
0.79713966 -0.47659939 -0.00000081
-0.72783244 -0.63110647 0.00000000
-0.33002765 0.37200391 -0.00000057
-0.67795779 -0.18746049 -0.00000010
0.05993315 0.72567272 -0.00000105
-0.11565712 0.18946739 -0.00000062
0.42464424 0.23393566 -0.00000125
-0.75061441 0.42223844 -0.00000006
0.28517794 0.43314425 -0.00000120
0.75758231 -0.19811497 -0.00000148
-0.64891274 0.13353953 -0.00000019
0.08639189 0.43722648 -0.00000077
0.58266513 -0.46543785 -0.00000040
0.04375072 0.09420148 0.17039875
0.72339060 -0.46922127 -0.00000083
0.05645393 -0.39117113 -0.00000026
0.19889728 0.10471088 -0.00000057
0.04171678 0.57221337 0.04789009
-0.45669867 -0.38040979 -0.00000026
-0.18483396 -0.32814925 -0.00000029
0.39992193 0.29313527 0.02752386
-0.07866657 -0.22677740 -0.00000036
-0.10534153 0.20962916 -0.00000063
0.17328941 0.24129189 0.09919949
-0.24457045 0.74259298 -0.00000069
0.46597584 -0.53179177 -0.00000017
-0.06480028 -0.44427675 -0.00000022
-0.65847880 -0.52922757 -0.00000005
-0.36164033 0.69119446 -0.00000055
-0.27262420 0.64033655 -0.00000066
0.31516251 0.26289912 0.05712225
-0.65786523 -0.62117846 -0.00000004
0.14627766 0.56826960 0.02199293
-0.04605592 -0.36364204 -0.00000027
0.73256622 -0.09401983 -0.00000160
-0.52498365 0.20044551 -0.00000033
-0.10760941 -0.38686866 -0.00000026
0.28683748 -0.42801608 -0.00000023
0.60561026 -0.23647625 -0.00000092
-0.74166589 0.04532435 -0.00000007
0.43311369 -0.33999574 -0.00000029
-0.65791184 -0.30395986 -0.00000010
-0.22233648 -0.32516735 -0.00000030
-0.73333197 -0.74305211 0.00000000
0.31840038 0.12231389 0.09247357
0.04037755 -0.41535275 -0.00000024
0.05645123 0.16667361 -0.00000060
0.14495796 -0.64539515 -0.00000010
0.51041546 0.11366022 -0.00000129
-0.63807579 0.36325423 -0.00000020
-0.13716043 -0.37083210 -0.00000027
0.57301137 -0.27116986 -0.00000074
0.05631856 0.62463139 -0.00000089
0.04630263 0.42258477 -0.00000076
0.54208788 -0.66676558 -0.00000008
-0.36676810 0.41358887 -0.00000054
0.10247538 -0.02583293 -0.00000048
0.04024707 0.57184707 0.04836265
0.10077072 0.16159239 0.13837766
0.39475604 -0.26334140 -0.00000034
0.11647052 0.21370991 -0.00000063
0.09710940 -0.21660514 -0.00000036
0.05363091 0.66630181 0.02060686
-0.09301679 -0.68539441 -0.00000007
-0.59917881 0.13987148 -0.00000024
0.56601030 0.04022537 -0.00000133
-0.05114692 -0.74770998 -0.00000003
0.29373920 0.44763189 0.01508866
-0.56629538 0.30146206 -0.00000029
-0.45231028 -0.31346146 -0.00000030
0.15622835 0.04705052 -0.00000053
0.52882836 0.12221547 0.03833736
-0.67759967 -0.07264435 -0.00000012
-0.34433419 -0.05156707 -0.00000047
-0.61075401 -0.44968238 -0.00000012
0.00153141 -0.65527919 -0.00000009
0.71879518 -0.66777018 -0.00000033
0.57058135 -0.64685909 -0.00000010
0.11994366 -0.01565277 -0.00000049
0.27559987 0.13155942 0.10111008
-0.42304462 -0.77781804 -0.00000001
0.68558279 -0.55355211 -0.00000055
-0.44049269 0.06937407 -0.00000040
-0.57931971 0.33264257 -0.00000028
-0.14532924 -0.39022822 -0.00000026
0.67273654 -0.22790711 -0.00000115
-0.46670531 -0.70934279 -0.00000006
0.05974191 0.16307500 0.14855606
0.52885265 -0.68278138 -0.00000007
-0.56106462 0.01543970 -0.00000026
-0.52351076 0.29781601 -0.00000035
-0.75000055 -0.39412905 0.00000000
-0.56952228 -0.28034136 -0.00000019
0.04050883 -0.46860412 -0.00000021
-0.48201486 0.42561156 -0.00000040
-0.13367559 0.31591349 -0.00000070
-0.19193855 -0.70580421 -0.00000006
0.46550654 -0.46142609 -0.00000021
-0.06453364 -0.09623943 -0.00000044
0.50769035 -0.24806292 -0.00000058
-0.36309944 -0.28297334 -0.00000032
0.27779220 -0.06974049 -0.00000046
0.68211337 0.07854749 -0.00000178
0.38893048 0.40754729 0.00090483
-0.14500712 -0.78317402 -0.00000001
-0.71230468 0.14207894 -0.00000011
-0.53556044 -0.13692036 -0.00000026
0.22660433 0.15521134 0.10763296
0.19677496 0.15525960 -0.00000060
-0.72974888 0.54585463 -0.00000009
-0.07208751 -0.29892456 -0.00000031
0.32195125 -0.31969651 -0.00000030
0.62077647 0.09401857 -0.00000161
0.14426654 -0.66803732 -0.00000008
-0.05055745 -0.03346279 -0.00000048
-0.45635047 0.79569083 -0.00000043
0.30922706 0.27351459 0.05591768
0.19710294 -0.19994956 -0.00000038
0.58320462 0.02282180 -0.00000135
0.49605902 0.20251943 -0.00000142
-0.12577427 0.10333590 -0.00000056
0.29673578 0.34876655 -0.00000107
-0.02116950 0.55737693 -0.00000085
-0.22264040 0.24802115 -0.00000066
-0.26243026 -0.22668864 -0.00000036
-0.19000360 0.52019817 -0.00000075
-0.64096236 -0.13412426 -0.00000015
0.37726760 0.09289404 0.08489415
0.13656736 -0.35690057 -0.00000028
0.03012830 -0.33773680 -0.00000029
0.38892363 -0.70538641 -0.00000006
0.09533816 0.33074121 0.09623985
-0.79303244 0.77083551 -0.00000001
-0.25549457 -0.65328280 -0.00000009
0.51642518 0.11258093 0.04400958
-0.66364528 -0.17555110 -0.00000011
0.13264614 0.11039952 0.14334973
0.59734176 0.07662111 0.03243823
0.63355370 -0.50071830 -0.00000049
0.45738793 0.01432004 -0.00000093
-0.24688219 -0.46602224 -0.00000021
0.28733210 -0.42887754 -0.00000023
0.06314790 0.30225438 -0.00000069
0.68316255 -0.06413195 -0.00000150
-0.34733219 -0.67494810 -0.00000008
0.24774297 -0.29758692 -0.00000031
0.63514617 0.10124362 0.01637035
0.26670369 -0.58415714 -0.00000013
0.06793489 0.73059750 0.00037640
0.06505255 -0.17197746 -0.00000039
0.68839813 -0.48591100 -0.00000069
0.11670831 0.58783410 -0.00000096
-0.59506668 0.22697245 -0.00000026
0.01051011 -0.20245657 -0.00000037
-0.74599454 -0.13345279 -0.00000003
0.56525811 -0.12066586 -0.00000101
-0.78415157 -0.32164208 0.00000000
0.60659504 -0.41358955 -0.00000057
0.31665758 -0.75567878 -0.00000003
-0.35066510 0.09574804 -0.00000050
0.56229110 -0.64965448 -0.00000009
-0.66813246 0.27231541 -0.00000016
-0.28447948 -0.41644374 -0.00000024
0.25774944 -0.30967687 -0.00000031
-0.19656546 0.25129559 -0.00000066
0.71797921 -0.07236411 -0.00000160
-0.61133514 0.27081436 -0.00000024
0.34103070 -0.56496947 -0.00000015
0.12220787 0.26938189 -0.00000067
-0.60878242 0.71150693 -0.00000024
0.08686007 0.26377590 -0.00000066
-0.41235059 0.13001774 -0.00000044
0.06177422 0.63961106 -0.00000090
-0.74351019 -0.14523023 -0.00000003
-0.46270796 -0.25749790 -0.00000031
-0.15611125 -0.52320947 -0.00000017
0.13322939 0.23126327 -0.00000064
0.56356034 -0.60700249 -0.00000012
-0.12625576 0.66905514 -0.00000084
-0.69616506 0.64336506 -0.00000013
0.15105747 0.41705306 -0.00000076
0.54914917 0.18956318 -0.00000157
0.38371152 -0.76942154 -0.00000002
0.59787307 -0.27597293 -0.00000081
0.72069257 0.07578894 0.00090345
0.57456394 -0.43444790 -0.00000043
-0.48679237 0.66768822 -0.00000039
-0.56374049 -0.11297716 -0.00000023
-0.49865550 0.09887361 -0.00000034
-0.01775974 0.79769393 -0.00000098
-0.29524414 0.23818969 -0.00000058
-0.01711924 0.25999268 -0.00000066
-0.16024264 -0.25122954 -0.00000034
-0.60351348 -0.09008197 -0.00000019
0.35589775 0.08922833 0.09133798
-0.67036779 -0.08151144 -0.00000012
-0.27641038 0.25476048 -0.00000061
-0.02765869 0.64351938 -0.00000090
-0.77605756 -0.63842159 0.00000000
0.48442893 -0.57960353 -0.00000014
0.05073609 0.21063620 0.13863253
0.18454928 0.42301691 0.04952834
0.78644880 -0.48904707 -0.00000078
-0.04277856 0.49528158 -0.00000081
0.33901938 -0.32574882 -0.00000030
-0.66055056 0.30821399 -0.00000017
-0.27183382 0.75564555 -0.00000066
0.12051597 0.24504018 -0.00000065
-0.64817527 -0.00494587 -0.00000016
-0.18506485 -0.57467034 -0.00000014
0.16400803 0.26792623 0.09473310
0.46247466 0.33153957 -0.00000157
0.26578057 -0.15804329 -0.00000040
0.09205199 0.25187198 0.11738525
0.16294256 0.18868426 0.11540287
-0.63736684 0.71065944 -0.00000020
-0.72001819 0.52833144 -0.00000010
0.48547629 -0.61310623 -0.00000012
0.39256140 0.05990430 0.08944882
-0.46503175 -0.78920285 -0.00000001
0.44924342 0.34766568 -0.00000156
0.33829911 0.38399296 -0.00000127
0.71932546 -0.68071351 -0.00000030
-0.39567729 -0.62473504 -0.00000011
0.05239643 0.25389877 -0.00000066
-0.68010561 0.70226948 -0.00000015
-0.40206216 0.68308160 -0.00000050
-0.33477325 -0.49105795 -0.00000019
0.70102073 -0.04849290 -0.00000159
0.13802781 0.53441260 0.03283066
-0.30557440 -0.24333884 -0.00000035
0.16523615 0.13160937 -0.00000058
0.60853184 -0.73160819 -0.00000004
0.30632594 0.38579876 0.02776398
0.02938634 0.71839286 0.01343958
0.07056878 0.13339704 -0.00000058
-0.14547246 0.60833174 -0.00000081
-0.42307373 -0.17875054 -0.00000037
0.57196942 0.21231662 0.00404259
0.60270226 -0.75159498 -0.00000003
0.23152641 -0.54798078 -0.00000016
-0.06798919 -0.78765994 -0.00000001
-0.12379861 0.45775676 -0.00000079
-0.01735219 0.30056479 -0.00000069
0.46918411 0.30415770 -0.00000153
0.55678947 -0.31444031 -0.00000061
0.31606552 0.17415072 0.07973245
-0.59433222 0.41681507 -0.00000026
-0.34664451 -0.28091017 -0.00000032
-0.10575834 -0.61573002 -0.00000012
0.11751554 -0.03923238 -0.00000048
0.27925163 0.32513358 0.05034696
0.28818142 -0.49104851 -0.00000019
-0.28956989 0.21235013 -0.00000058
-0.41241650 -0.42551190 -0.00000023
-0.20038913 -0.57572499 -0.00000014
-0.23991870 -0.01748851 -0.00000049
-0.18772434 -0.02802277 -0.00000048
0.41806353 -0.28228025 -0.00000032
0.16187734 0.47337055 -0.00000088
-0.79350491 0.22944503 -0.00000001
0.55653727 -0.21867515 -0.00000079
0.31919308 -0.71625791 -0.00000005
-0.37243299 -0.24171430 -0.00000035
-0.59427293 0.13926498 -0.00000024
0.66775216 -0.45916822 -0.00000068
0.15211996 0.64341508 -0.00000118
-0.07525105 0.79721767 -0.00000091
-0.32652394 0.59866589 -0.00000059
0.36580508 0.07531357 0.09236943
0.20225578 -0.40285691 -0.00000025
0.74304833 -0.74407614 -0.00000014
0.08143822 0.24271187 0.12247468
0.13071676 0.20526943 -0.00000063
-0.41468739 -0.69005237 -0.00000007
0.51666166 -0.04226640 -0.00000101
0.55601514 -0.47125255 -0.00000030
0.27011089 -0.45661859 -0.00000021
0.08979089 0.59915451 -0.00000090
-0.71044816 0.65175721 -0.00000011
-0.08684604 0.19794493 -0.00000062
-0.00059785 -0.22308522 -0.00000036
-0.37805015 0.48112908 -0.00000053
-0.00086430 -0.71920418 -0.00000005
-0.78741254 -0.43276627 0.00000000
-0.09138605 -0.40530419 -0.00000025
-0.62549981 -0.39588048 -0.00000011
-0.52744954 -0.42073396 -0.00000021
-0.66550039 0.08284529 -0.00000016
-0.19371848 -0.31422829 -0.00000030
0.79347219 -0.39231707 -0.00000102
-0.17185241 -0.31320549 -0.00000030
0.52931660 -0.09777999 -0.00000094
0.24737105 -0.17744865 -0.00000039
-0.11189205 0.46462806 -0.00000079
0.08621432 -0.15955950 -0.00000040
0.27108662 -0.01374622 -0.00000049
-0.71659983 0.63342624 -0.00000010
-0.17270178 -0.60110983 -0.00000012
0.45254574 -0.60925875 -0.00000012
0.03679070 0.09390593 0.17226619
-0.41044417 0.03502697 -0.00000042
0.26796375 0.09083935 -0.00000056
-0.74729140 0.24923030 -0.00000007
0.43079588 -0.21074674 -0.00000041
-0.65261382 0.08629233 -0.00000017
-0.51960565 0.00113395 -0.00000030
0.61413732 -0.49824985 -0.00000043
-0.77964074 0.14234325 -0.00000003
0.23682549 -0.64769129 -0.00000010
0.51019265 -0.09575950 -0.00000089
0.00670626 -0.36044952 -0.00000027
0.12563677 0.02413962 -0.00000052
-0.69578795 0.42068151 -0.00000013
0.22822894 -0.25478918 -0.00000034
-0.05000024 -0.18004867 -0.00000039
0.51250430 -0.11695868 -0.00000085
-0.01665769 0.04232506 -0.00000053
0.26211679 0.38145267 0.04026149
-0.64269097 -0.70321033 -0.00000004
-0.52090867 -0.45425338 -0.00000021
0.29458613 -0.63989260 -0.00000010
-0.27350660 -0.38394036 -0.00000026
0.50423332 -0.47073170 -0.00000021
0.67798459 0.00962545 -0.00000163
0.52820313 -0.34554767 -0.00000046
-0.46204314 0.60484329 -0.00000042
-0.18128883 -0.56445434 -0.00000015
0.16693397 0.63134248 0.00044216
0.49718571 0.02310213 0.07199220
0.21459351 0.07333476 0.13179795
0.02956319 0.12430553 -0.00000058
-0.49376425 0.44975602 -0.00000038
-0.74257711 -0.45071435 0.00000000
-0.76906581 0.15765201 -0.00000004
0.28508486 0.51390351 0.00025877
0.32953243 0.34599233 -0.00000117
0.09268664 -0.74632808 -0.00000003
0.24827326 -0.17034116 -0.00000039
0.14102752 0.15842815 -0.00000060
-0.09004616 -0.19365956 -0.00000038
-0.57389984 0.13422338 -0.00000027
-0.23887271 0.78397194 -0.00000070
-0.63376827 0.28793666 -0.00000021
-0.30978197 0.10568990 -0.00000054
-0.26033236 0.59252470 -0.00000067
0.39160228 -0.51249512 -0.00000018
-0.39077636 -0.24477564 -0.00000035
-0.50376646 0.51557747 -0.00000037
0.25491047 0.07136497 -0.00000054
-0.57575687 0.42591078 -0.00000028
-0.04822925 -0.77246923 -0.00000002
-0.12536410 0.36865174 -0.00000073
-0.11620000 0.66072634 -0.00000085
0.23767272 0.36339826 0.05120005
0.64162883 -0.61214606 -0.00000030
-0.45279212 0.59715540 -0.00000043
0.31393707 -0.34399099 -0.00000029
0.14761260 -0.29345789 -0.00000032
0.78699985 -0.05891112 -0.00000184
-0.02488337 0.13205464 -0.00000058
0.06800904 0.09664323 -0.00000056
-0.11806436 0.08762953 -0.00000055
-0.13175214 0.70771397 -0.00000084
0.32986081 0.04126799 0.11038387
-0.10198609 -0.27489331 -0.00000033
0.02853630 0.06345880 0.18222728
-0.14096048 0.57393247 -0.00000081
-0.07741798 -0.75845270 -0.00000003
0.07677473 -0.35284193 -0.00000028
-0.37118200 0.30626938 -0.00000051
0.06311302 -0.52140037 -0.00000017
-0.21517373 -0.31692510 -0.00000030
-0.70402705 0.76899771 -0.00000012
0.75820482 0.00269610 0.01006136
-0.02486982 -0.52793577 -0.00000017
-0.64215329 -0.39349252 -0.00000010
0.00506947 -0.11731763 -0.00000043
-0.65283178 -0.15614420 -0.00000013
-0.14805876 0.20169169 -0.00000063
0.43598551 0.33391776 -0.00000149
0.65127067 0.07545031 -0.00000167
-0.65156351 -0.58887815 -0.00000005
0.21673577 0.28136171 0.07770396
0.14829116 0.37596720 0.07097040
0.12136238 -0.74776277 -0.00000003
0.79215160 -0.12292482 -0.00000169
-0.17238782 0.04579506 -0.00000053
0.57594562 0.11518331 0.02801995
0.12696100 -0.08127291 -0.00000045
0.25611227 0.31795110 0.05815142
0.07251496 0.58674153 0.03622395
0.75860972 -0.44914474 -0.00000088
-0.51892095 -0.33857831 -0.00000024
-0.61021272 0.25948104 -0.00000024
0.06516696 0.23644493 -0.00000065
-0.04647246 0.29742548 -0.00000069
0.67204884 -0.67371423 -0.00000028
0.27850393 0.38762178 -0.00000109
0.31776615 0.46847857 0.00353877
-0.58544917 0.24755092 -0.00000027
-0.70182632 -0.75143174 0.00000000
-0.59306578 0.33513812 -0.00000026
0.30698494 0.45658233 -0.00000131
0.42047972 -0.75079760 -0.00000003
0.34392572 -0.69501432 -0.00000007
0.14953665 -0.28304506 -0.00000032
-0.39676946 -0.69425979 -0.00000007
-0.33110164 0.28807812 -0.00000055
0.08507978 0.31148165 0.10383724
-0.63471353 0.58984158 -0.00000021
-0.60456070 -0.01246000 -0.00000021
0.40267858 -0.60555011 -0.00000012
-0.26527423 -0.65949878 -0.00000009
0.62205241 0.00496921 -0.00000144
-0.59771160 0.18401992 -0.00000025
-0.34540605 0.44586652 -0.00000057
-0.57588949 0.49378029 -0.00000028
0.28694875 0.22202152 0.07490545
-0.76998044 -0.68837906 0.00000000
-0.18213896 0.05347257 -0.00000053
-0.32915209 -0.32096516 -0.00000030
0.11070535 0.50269713 0.04802610
-0.25692377 0.69072528 -0.00000068
-0.45631642 -0.59134394 -0.00000013
0.31589950 0.28947937 0.05009116
0.24917858 0.47671297 -0.00000117
0.35481275 0.31028957 -0.00000118
0.14419474 0.12937150 0.13549428
0.49438138 0.10602417 0.05137100
0.03175421 0.64558156 0.03157053
0.51385481 -0.75721974 -0.00000003
0.60029732 0.06558866 -0.00000149
-0.21188855 -0.55929327 -0.00000015
0.06403420 0.44536295 -0.00000078
-0.07005563 -0.76820542 -0.00000002
-0.28748545 0.00401518 -0.00000050
0.10017775 -0.17113941 -0.00000039
-0.58017638 0.09418471 -0.00000025
-0.64451718 -0.57980310 -0.00000006
0.20454894 0.47688396 0.03051603
0.08920455 0.70937610 -0.00000111
-0.38174067 -0.23670069 -0.00000035
-0.33459850 -0.10734168 -0.00000043
-0.43822169 -0.09014746 -0.00000037
0.73558494 -0.73711961 -0.00000016
-0.42535075 0.79330498 -0.00000047
0.21962180 0.48536531 0.02445349
0.12556029 0.24377043 -0.00000065
0.26493468 0.30009487 0.06047659
0.08349404 -0.32165647 -0.00000030
0.47876744 -0.67389388 -0.00000008
0.00712266 0.72992553 0.01620150
0.77711634 -0.78373556 -0.00000004
-0.46386737 -0.54234765 -0.00000016
-0.44708232 0.48312008 -0.00000044
0.75331734 0.03482848 -0.00000192
-0.12528230 -0.13595114 -0.00000042
0.03935243 0.60713513 0.03951036
-0.72732279 -0.04269843 -0.00000007
-0.77766997 -0.02714024 -0.00000002
-0.18797077 -0.60852538 -0.00000012
-0.23715712 0.69800837 -0.00000070
-0.43552505 0.46002925 -0.00000046
-0.67287191 0.60927509 -0.00000016
-0.39738782 -0.61601851 -0.00000011
-0.60887463 0.53886148 -0.00000024
-0.60383916 0.61820632 -0.00000025
0.20454042 0.38312737 -0.00000084
-0.21649887 0.03625135 -0.00000052
0.38494724 0.28463351 -0.00000123
0.24109565 0.30187009 -0.00000080
-0.47016319 -0.05965093 -0.00000034
-0.17758449 0.48325012 -0.00000075
-0.23249577 0.07759982 -0.00000055
0.10494615 0.19024367 0.12992863
0.56627254 0.22416340 0.00245970
0.20166111 0.12510959 0.12180053
0.26504012 -0.03676722 -0.00000048
0.12756927 0.40526338 0.06876346
0.51616829 0.02267823 0.06721543
-0.25908780 0.18564813 -0.00000061
0.68639821 -0.56769001 -0.00000053
0.70610889 -0.57277830 -0.00000057
0.43727803 -0.32551496 -0.00000030
0.00902872 0.47518230 -0.00000080
0.13507602 -0.34578283 -0.00000028
-0.61038325 0.10039256 -0.00000022
0.12373685 -0.76759622 -0.00000002
0.62127425 -0.26740571 -0.00000091
-0.73194301 0.56189797 -0.00000009
-0.44414554 -0.56967131 -0.00000014
0.72252963 0.06502964 -0.00000188
0.05715826 -0.24512192 -0.00000035
-0.69043288 -0.70574588 0.00000000
-0.78768317 0.45988752 -0.00000002
0.60936966 -0.63483624 -0.00000015
0.19475703 -0.68815655 -0.00000007
0.16256473 0.58373064 0.01382138
-0.63066456 -0.06959120 -0.00000017
-0.41025066 0.15413108 -0.00000044
0.13947375 0.33889634 0.08278124
-0.74697439 -0.37104361 0.00000000
0.25429650 -0.69711568 -0.00000006
-0.33572905 0.63172530 -0.00000058
0.12103671 -0.33052981 -0.00000029
0.20390097 -0.02088857 -0.00000049
0.14342857 -0.30400574 -0.00000031
0.77570092 0.00804137 0.00418229
0.69524732 0.02271914 -0.00000171
-0.04117499 0.79491181 -0.00000095
0.14809038 0.46997052 0.04682719
0.40156041 0.09563258 -0.00000091
-0.08405300 0.29967202 -0.00000069
-0.21378832 -0.43850375 -0.00000023
0.12121396 -0.47598626 -0.00000020
0.05156652 -0.57625002 -0.00000014
-0.13022034 -0.01150153 -0.00000049
0.42006378 0.29115632 -0.00000135
-0.07784779 -0.69039301 -0.00000007
-0.39431623 -0.35837326 -0.00000028
-0.49291475 0.73602598 -0.00000038
0.40810085 -0.04104746 -0.00000067
-0.75446008 0.20146800 -0.00000006
-0.71555320 -0.40642935 -0.00000002
-0.73797463 0.10641117 -0.00000008
0.13628492 0.38584081 -0.00000074
-0.11204641 0.01229002 -0.00000051
0.06841399 0.49829642 -0.00000081
-0.09460951 -0.68712700 -0.00000007
-0.09508107 0.14284770 -0.00000059
0.27092496 -0.53751578 -0.00000016
0.68565200 -0.21621233 -0.00000121
-0.73984045 0.63343379 -0.00000008
0.33087669 0.14395630 -0.00000078
-0.66475085 -0.24175006 -0.00000010
0.08592127 -0.64013478 -0.00000010
0.15484722 0.46328706 -0.00000084
0.38959380 0.35282669 -0.00000137
0.29345690 -0.03329243 -0.00000048
-0.46835492 -0.28119781 -0.00000030
-0.31083630 -0.16392835 -0.00000040
-0.74836403 -0.75355541 0.00000000
0.68902700 -0.47468986 -0.00000072
-0.60471002 -0.63229025 -0.00000009
-0.45229728 -0.12312900 -0.00000035
0.42981764 -0.74729289 -0.00000003
-0.55527891 -0.41877934 -0.00000018
-0.16334214 -0.66195992 -0.00000009
0.12754673 -0.20527204 -0.00000037
-0.71725674 -0.57708950 0.00000000
-0.49458467 0.71691793 -0.00000038
-0.62229151 -0.35425934 -0.00000012
-0.07568976 0.57811325 -0.00000086
0.19335319 0.24883708 0.09209346
-0.14443227 -0.47990373 -0.00000020
-0.49762586 -0.01361700 -0.00000032
-0.59071445 0.08843375 -0.00000024
0.48786090 -0.09811574 -0.00000081
0.04871095 -0.22702567 -0.00000036
0.37501890 -0.74258001 -0.00000004
0.16218593 0.58068992 -0.00000109
0.22506105 -0.03591050 -0.00000048
-0.13733267 0.14723374 -0.00000059
0.35324358 -0.41148265 -0.00000024
-0.50586366 0.71759109 -0.00000037
0.01827079 0.31998990 0.11884267
-0.27046103 0.61562981 -0.00000066
-0.49761048 0.06658242 -0.00000033
0.38309546 -0.63352930 -0.00000010
0.24132381 0.15224695 -0.00000060
0.34363199 -0.00842026 -0.00000052
-0.77243602 0.19790605 -0.00000003
-0.44662157 -0.41733065 -0.00000024
-0.59807733 0.54314206 -0.00000025
-0.41649074 -0.71212898 -0.00000005
-0.69449943 0.29188115 -0.00000013
-0.29245534 0.07756344 -0.00000055
-0.18158972 0.73459495 -0.00000077
0.42777426 0.26776262 -0.00000133
0.25179689 0.23599951 0.08035536
0.49072483 -0.74033713 -0.00000004
0.15713924 -0.00981950 -0.00000049
-0.33772621 -0.00932950 -0.00000049
-0.26126965 -0.16856298 -0.00000039
-0.54074152 -0.00785051 -0.00000028
0.61690701 -0.45862526 -0.00000052
-0.22824779 0.79552416 -0.00000071
0.25382744 0.12997457 -0.00000058
0.29149483 0.30726651 0.05179445
0.00078112 -0.66493759 -0.00000008
-0.02991646 0.49846064 -0.00000081
0.70494492 -0.74335651 -0.00000014
0.29015322 0.35839830 -0.00000107
0.57129325 -0.29161555 -0.00000070
0.46581302 -0.24121655 -0.00000046
-0.23120238 -0.67485640 -0.00000008
0.15424322 0.14685362 0.12840841
-0.25155065 -0.29037593 -0.00000032
-0.78189861 -0.03621615 -0.00000001
0.26080827 0.16609907 -0.00000060
-0.10346967 0.27409515 -0.00000067
0.19124999 0.50130833 -0.00000103
-0.47351121 0.27716685 -0.00000040
-0.16317083 0.43810207 -0.00000076
0.57586551 0.16525523 0.01515274
-0.63462562 -0.27395737 -0.00000013
-0.03090226 0.30298780 -0.00000069
-0.53910377 -0.74893037 -0.00000003
-0.78745747 0.77125890 -0.00000002
0.09713896 -0.04760981 -0.00000047
0.04291077 0.39924008 -0.00000075
-0.19814415 -0.16253302 -0.00000040
0.15670624 -0.09111900 -0.00000044
-0.29905041 0.44997590 -0.00000062
0.36765453 0.14030073 -0.00000089
0.63617167 -0.66017030 -0.00000019
0.08793204 0.06917156 0.16546963
-0.16261405 -0.29775847 -0.00000031
0.47367755 -0.34299379 -0.00000029
-0.11933298 -0.72417143 -0.00000005
0.31868816 -0.61189477 -0.00000012
-0.54110187 -0.02467675 -0.00000027
-0.75859648 -0.51337071 0.00000000
0.40568771 -0.72930772 -0.00000004
0.10422681 0.54512530 0.03877326
-0.09084223 0.25104652 -0.00000066
-0.08201906 -0.65125777 -0.00000009
-0.41702668 0.11450266 -0.00000043
0.42472827 0.27107748 0.02681639
-0.35502102 0.41561316 -0.00000055
-0.64518795 0.17443082 -0.00000019
-0.74142427 -0.14884195 -0.00000004
0.07014808 0.34004809 -0.00000071
-0.50458323 -0.41770190 -0.00000024
-0.20721317 0.18401819 -0.00000062
0.27562998 0.52335583 -0.00000134
-0.09904952 0.35446464 -0.00000072
-0.46190845 0.36469705 -0.00000042
0.14578900 0.55530868 0.02545467
0.26768361 -0.61421325 -0.00000012
0.17430997 -0.07798786 -0.00000045
0.66915172 -0.78950639 -0.00000003
0.11032883 0.22420357 -0.00000064
-0.61930857 -0.45903317 -0.00000011
-0.18498255 0.08293877 -0.00000055
-0.12426989 -0.63290775 -0.00000010
-0.74145929 0.08263985 -0.00000007
-0.05743802 -0.67523485 -0.00000008
-0.02913000 0.01084939 -0.00000051
0.00742133 0.68958203 0.02650836
0.35273949 -0.70233426 -0.00000006
-0.09445837 -0.44802176 -0.00000022
0.64731854 0.10902174 0.01123535
-0.58163696 0.05271065 -0.00000024
-0.12156979 -0.76109368 -0.00000002
-0.27566748 -0.38271300 -0.00000026
0.35578525 0.17149375 -0.00000091
-0.01131315 0.33915977 -0.00000071
0.43181407 0.30094716 0.01730454
0.36186638 0.12591883 0.08035810
0.27612718 0.21691316 0.07900561
-0.77086612 -0.62849295 0.00000000
0.74255141 -0.39544206 -0.00000101
0.06708334 0.29476268 -0.00000068
-0.51998548 0.05192223 -0.00000031
-0.72177986 -0.16583392 -0.00000005
0.06818207 0.62124247 -0.00000089
0.00205884 -0.68538620 -0.00000007
0.33328581 -0.69556602 -0.00000007
0.45223799 0.21512782 0.03413640
-0.79515405 -0.50557798 0.00000000
-0.52697054 -0.18284084 -0.00000026
-0.12484680 -0.56025724 -0.00000015
0.16939295 0.14911598 -0.00000059
0.49954409 -0.62265636 -0.00000011
0.24391455 -0.07630049 -0.00000045
0.07286540 0.26140869 -0.00000066
-0.30735058 -0.52575110 -0.00000017
0.47904548 0.28782142 0.00852615
-0.62864637 -0.12787269 -0.00000016
-0.16268386 -0.39003340 -0.00000026
0.46753604 0.23670172 -0.00000140
-0.26837278 -0.54747420 -0.00000016
0.04431596 0.07217503 -0.00000055
0.49715176 0.00369627 -0.00000104
-0.54276659 -0.15519303 -0.00000025
-0.65774577 0.45755009 -0.00000018
0.78655872 -0.56094660 -0.00000060
0.06515280 0.14463370 0.15190988
-0.53612511 -0.79784663 -0.00000000
0.06104373 0.17297313 -0.00000061
-0.34017346 0.77690365 -0.00000057
-0.50268035 -0.47155633 -0.00000021
-0.51801744 -0.04883525 -0.00000029
0.77050664 0.01881253 0.00274688
0.76475252 -0.65238764 -0.00000037
-0.76502448 -0.75889602 0.00000000
0.22367157 0.39187188 0.04747505
0.23346346 -0.10337241 -0.00000044
0.68501878 0.02910092 0.02210230
0.29265176 0.32286903 -0.00000101
0.37878941 -0.08268154 -0.00000049
0.08860952 0.59672927 -0.00000089
0.78464911 0.00352239 -0.00000196
0.19020580 0.29724733 -0.00000069
-0.43404117 -0.57192304 -0.00000014
0.56154266 0.16437506 0.01906581
0.45734312 -0.18402005 -0.00000054
-0.44101634 -0.38609871 -0.00000026
-0.16870954 -0.46290956 -0.00000021
-0.02388173 -0.59767250 -0.00000013
-0.78606122 -0.02249768 -0.00000001
0.00738589 -0.29658252 -0.00000031
-0.36542009 0.19143503 -0.00000050
-0.69741192 -0.35719004 -0.00000004
-0.36422951 -0.39893796 -0.00000025
-0.72506583 -0.30206328 -0.00000002
-0.50317577 0.23144220 -0.00000036
-0.36268863 -0.00651160 -0.00000047
0.62765578 -0.68068704 -0.00000012
0.74508195 -0.74394309 -0.00000014
0.03297944 -0.31418440 -0.00000030
0.09043607 0.67598244 0.00864205
0.68706039 -0.69867392 -0.00000025
-0.09920612 0.07783209 -0.00000055
-0.44325758 -0.06065761 -0.00000037
0.35382884 0.02535098 0.10831165
0.51225062 0.08295135 0.05271031
0.28773619 -0.15476012 -0.00000040
0.25739071 0.17442953 -0.00000061
0.36960368 -0.12640794 -0.00000042
-0.35724055 -0.49511606 -0.00000019
0.11589646 0.62182789 -0.00000102
0.26870859 -0.70939049 -0.00000006
0.54850069 0.19636617 -0.00000158
0.03461958 0.46529068 0.07723686
-0.05969170 0.49435008 -0.00000081
0.14542246 -0.48313117 -0.00000020
-0.45180531 -0.24870766 -0.00000033
0.30987811 -0.01204837 -0.00000049
-0.26281481 -0.30586363 -0.00000031
0.68511501 0.00646615 0.02790341
0.45072551 0.11878219 -0.00000111
-0.73973959 -0.21704064 -0.00000002
-0.78749445 -0.09886457 0.00000000
-0.15493232 -0.74266747 -0.00000004
0.63091477 0.14780980 0.00547396
-0.39047072 -0.59824800 -0.00000013
0.37434584 0.17418003 -0.00000098
0.51788243 -0.64216249 -0.00000010
-0.18784052 0.13744568 -0.00000059
0.22833745 -0.32726719 -0.00000030
-0.23419111 -0.52157267 -0.00000017
0.53186276 0.18720720 -0.00000151
0.36948696 0.02864476 -0.00000068
0.22466681 -0.19215461 -0.00000038
-0.09491291 0.34829804 -0.00000072
0.73430965 -0.33795199 -0.00000113
0.00891724 0.73864772 0.01349466
0.79480928 -0.59486467 -0.00000051
0.29462863 -0.79075662 -0.00000001
0.28406565 -0.14498803 -0.00000041
0.14018430 0.18252729 -0.00000061
-0.49234965 -0.16655423 -0.00000030
-0.71258294 -0.17835591 -0.00000006
0.21843230 -0.66126207 -0.00000009
0.33172183 0.26828016 0.05147508
0.15110780 -0.24049920 -0.00000035
0.03674587 0.46413621 0.07698673
0.37701629 -0.39322463 -0.00000025
-0.36200404 -0.06152422 -0.00000046
0.03293261 -0.44978536 -0.00000022
-0.51123730 -0.49463230 -0.00000019
0.20937660 0.00440365 -0.00000050
0.73991969 -0.67495391 -0.00000031
-0.50338384 -0.51599210 -0.00000018
0.46582188 -0.28459524 -0.00000038
-0.21691919 -0.12190452 -0.00000042
0.59014529 -0.74435108 -0.00000003
-0.62371627 -0.59677828 -0.00000008
-0.42995480 0.07354554 -0.00000041
-0.13155003 0.16823370 -0.00000061
-0.04707522 -0.60844698 -0.00000012
-0.35155325 -0.48058485 -0.00000020
0.22277573 0.16454278 0.10621661
-0.06400932 -0.16574615 -0.00000040
-0.10680980 0.24102075 -0.00000065
-0.39877770 0.34755151 -0.00000049
-0.69428769 0.75986306 -0.00000013
-0.20542954 -0.25740462 -0.00000034
0.07423040 -0.25312925 -0.00000034
-0.13267851 -0.50278750 -0.00000019
-0.69368929 -0.41488538 -0.00000004
-0.02274234 -0.45665496 -0.00000021
-0.40872735 0.52655655 -0.00000049
0.13061689 -0.45301534 -0.00000022
0.20838626 0.33610451 -0.00000076
0.40005832 0.07592810 0.08339490
-0.45655006 0.65290914 -0.00000043
-0.49052530 -0.25965024 -0.00000028
-0.42828542 0.05512329 -0.00000041
0.17346422 0.33837264 0.07416755
-0.31819149 0.23997804 -0.00000056
0.26877287 0.23068525 0.07735377
0.11705823 0.20947708 -0.00000063
0.20736976 0.31509396 -0.00000072
-0.57664031 0.49287675 -0.00000028
0.35009177 0.20382237 0.06333743
-0.25047509 -0.09374073 -0.00000044
0.34480190 -0.25941983 -0.00000034
0.16451271 0.55617045 0.02041361
0.10481322 -0.45466982 -0.00000022
-0.67670167 -0.30068515 -0.00000008
0.17461301 0.24282785 0.09846349
-0.73359941 -0.18724282 -0.00000004
0.10992870 -0.21432801 -0.00000037
0.27664362 0.14039618 -0.00000060
-0.54414519 0.62030133 -0.00000032
0.17901892 -0.65222308 -0.00000009
0.48561435 0.08184687 -0.00000115
-0.11424968 -0.66744514 -0.00000008
-0.06443523 0.51921754 -0.00000082
-0.25337439 0.08884001 -0.00000056
0.23496182 0.12668165 0.11282496
0.16439045 -0.14130023 -0.00000041
-0.75358949 0.39030162 -0.00000006
-0.14846175 0.34112974 -0.00000071
0.20891814 -0.55115251 -0.00000016
-0.62710226 -0.59476678 -0.00000008
-0.42809328 0.50888446 -0.00000046
0.57251644 0.13071909 0.02490388
-0.00439010 0.33602089 -0.00000071
0.26579473 -0.69229040 -0.00000007
-0.01983732 0.29675670 -0.00000069
0.17717957 0.40794798 -0.00000080
-0.53861580 -0.43749021 -0.00000020
-0.00547306 -0.54095965 -0.00000016
-0.76276666 -0.46180173 0.00000000
-0.45610619 -0.02841298 -0.00000036
0.19170818 -0.14883367 -0.00000041
0.65956496 0.07170565 0.01768792
0.18454239 0.44208353 0.04462263
-0.75594603 -0.25835058 0.00000000
-0.26893969 -0.72932823 -0.00000004
-0.74140815 -0.48388723 0.00000000
-0.57272356 -0.70239440 -0.00000006
0.45783327 -0.73435355 -0.00000004
-0.71608929 0.66154833 -0.00000010
-0.78531069 0.02131520 -0.00000002
0.36097902 -0.21274847 -0.00000037
-0.65625040 -0.71895555 -0.00000002
-0.50736352 -0.04155889 -0.00000030
0.67417563 -0.76255409 -0.00000009
-0.67610617 -0.41816202 -0.00000006
0.42634738 0.33231215 -0.00000145
-0.49558236 -0.75707064 -0.00000003
0.04782054 -0.78370164 -0.00000001
0.57331921 0.19931959 -0.00000166
0.26456414 -0.07048901 -0.00000046
-0.09804322 0.40937251 -0.00000076
0.63392121 -0.45742796 -0.00000058
0.16941078 0.45329213 0.04563237
0.68349644 -0.60205106 -0.00000045
-0.04937187 0.48212539 -0.00000080
0.56693695 -0.12559156 -0.00000101
-0.37552990 -0.08005066 -0.00000044
-0.39736672 0.63654216 -0.00000050
-0.64921652 0.61359075 -0.00000019
0.39891428 -0.43879880 -0.00000023
-0.56129915 0.59838880 -0.00000030
0.41207284 0.28045011 0.02766135
-0.46895891 0.31040800 -0.00000041
0.18314524 0.16977319 0.11507049
-0.52240931 0.32003628 -0.00000035
-0.22152942 0.57039052 -0.00000072
-0.59111693 -0.33700951 -0.00000016
-0.21928013 0.28896697 -0.00000067
0.31321547 0.09205361 0.10159668
0.09897841 -0.31895961 -0.00000030
-0.21246685 0.25947401 -0.00000066
-0.28730050 -0.43986402 -0.00000023
0.36054412 0.18857425 0.06457179
-0.21228722 -0.34369064 -0.00000029
-0.48505311 0.15611775 -0.00000036
-0.31760113 -0.34433500 -0.00000028
-0.49507332 -0.60889133 -0.00000012
0.32827372 0.28615579 0.04776164
0.03869702 -0.41178270 -0.00000024
-0.44973233 -0.41678258 -0.00000024
-0.21262837 -0.07148229 -0.00000046
0.48509039 -0.02030116 -0.00000095
-0.32502603 -0.43599776 -0.00000023
-0.33509939 -0.44648758 -0.00000022
-0.33850284 -0.18754329 -0.00000038
0.18287715 0.55673316 -0.00000111
0.36815973 -0.01095540 -0.00000060
-0.33162276 0.37668158 -0.00000057
0.15748781 -0.68975447 -0.00000007
0.13381258 0.29501174 0.09553346
-0.79940940 -0.39580608 0.00000000
-0.75161173 -0.48398690 0.00000000
0.35410397 0.20961513 -0.00000098
-0.54146547 0.79888060 -0.00000032
0.33876797 -0.02367113 -0.00000049
-0.11651364 0.65751314 -0.00000085
0.34293270 0.19484480 0.06749080
0.67098594 -0.04493142 -0.00000150
0.53607755 -0.63850528 -0.00000010
0.04003722 -0.63579010 -0.00000010
-0.76411343 -0.60895981 0.00000000
0.71774971 -0.10742603 -0.00000153
-0.56819981 -0.53073085 -0.00000015
0.07213487 -0.45637886 -0.00000021
0.26687680 0.27219682 -0.00000082
-0.46212089 0.40658320 -0.00000042
0.15306994 0.50135297 0.03746810
0.56506312 -0.41285919 -0.00000044
0.22975261 0.00270568 -0.00000050
-0.17003116 -0.04341034 -0.00000047
0.45262513 -0.33945512 -0.00000029
0.10115604 0.43204407 0.06866881
-0.55784449 0.49705518 -0.00000030
-0.51352852 0.51070837 -0.00000036
0.24553084 -0.17769911 -0.00000039
0.00332742 0.73396016 0.01613987
0.02501187 -0.29744242 -0.00000031
-0.29317513 -0.23208866 -0.00000035
0.23260731 0.14084660 0.10978515
-0.03352323 -0.52683578 -0.00000017
-0.11205219 0.18506656 -0.00000062
0.30548718 0.02748865 -0.00000052
-0.23455539 0.54832983 -0.00000070
-0.41164283 0.63256660 -0.00000049
0.50026084 -0.37239795 -0.00000031
0.25042321 -0.64185122 -0.00000010
-0.76641172 0.12766738 -0.00000004
-0.18809653 0.31531382 -0.00000070
0.54463742 -0.78965895 -0.00000001
-0.15208455 0.09167091 -0.00000056
-0.31286806 -0.34638362 -0.00000028
-0.36351214 -0.26673777 -0.00000033
0.20213297 0.10297665 -0.00000056
-0.14586352 -0.34955460 -0.00000028
-0.03761376 -0.33524135 -0.00000029
-0.65962043 -0.01352615 -0.00000015
0.17244743 0.09563678 0.13690535
-0.58616550 -0.70612131 -0.00000006
-0.26402882 -0.27465481 -0.00000033
0.37764174 0.16053783 -0.00000096
0.18245673 0.10248979 -0.00000056
0.38744459 -0.54079943 -0.00000016
0.26418723 -0.04434816 -0.00000047
0.21130192 -0.05910788 -0.00000046
0.07791057 0.40941924 -0.00000076
0.73612469 0.04969167 -0.00000189
0.35766400 -0.41259676 -0.00000024
-0.16867202 0.58114859 -0.00000078
0.76201569 -0.24634068 -0.00000138
0.37167549 0.25656064 -0.00000113
-0.17789701 -0.67297480 -0.00000008
0.11301030 0.28067724 0.10457701
-0.20437856 0.28594140 -0.00000068
0.47458230 0.03383078 0.07504863
-0.70327791 0.43170605 -0.00000012
-0.22988796 0.61038491 -0.00000071
-0.46908280 -0.38809973 -0.00000026
-0.75329452 0.54915039 -0.00000006
0.54589329 0.17764712 0.01967771
0.64933213 -0.47329609 -0.00000059
-0.50485716 -0.51992525 -0.00000018
0.49818580 -0.07857410 -0.00000088
-0.76199642 0.03101367 -0.00000005
-0.44332279 0.64123391 -0.00000045
-0.13588651 -0.64721755 -0.00000010
-0.45627068 0.26961192 -0.00000042
0.65583548 0.01432370 -0.00000157
0.42174771 0.23160546 -0.00000124
0.16120055 0.52601575 0.02902752
0.07720121 0.17678398 0.14053392
0.70501164 0.03842356 -0.00000177
0.06242615 0.27898087 0.11803298
0.36227133 0.19771820 -0.00000098
0.01426528 0.65428190 -0.00000091
0.21576889 -0.74049230 -0.00000004
0.00109484 -0.04090094 -0.00000047
0.63390621 -0.79809658 -0.00000000
-0.18235734 -0.00815791 -0.00000049
0.59713977 0.13907659 -0.00000162
-0.46717818 -0.02854637 -0.00000035
-0.25279195 -0.33788452 -0.00000029
0.20126558 -0.54449359 -0.00000016
0.71109971 -0.52540048 -0.00000069
-0.28638541 0.12195247 -0.00000057
0.18432928 0.11820220 0.12803924
-0.51936339 0.76621683 -0.00000035
0.47929700 -0.38827085 -0.00000026
-0.49809090 0.57206961 -0.00000038
-0.63196073 0.26013044 -0.00000021
0.12377160 -0.29825945 -0.00000031
0.21149660 0.39999364 0.04851831
-0.40476688 0.30722902 -0.00000048
-0.23610225 -0.73847665 -0.00000004
0.01096947 -0.56736128 -0.00000015
0.22048029 0.24260318 -0.00000065
0.03751308 0.32924849 -0.00000071
-0.35823996 -0.15768243 -0.00000040
-0.60165006 0.43748211 -0.00000025
-0.74614124 0.12596646 -0.00000007
-0.58448632 -0.21569017 -0.00000019
-0.16926862 -0.34325491 -0.00000029
-0.59937472 0.51614626 -0.00000025
0.50557620 0.22741490 0.01724529
0.12932112 0.54242438 0.03300954
-0.61382295 -0.67852134 -0.00000007
0.11929087 0.17960330 -0.00000061
-0.43904114 -0.50706724 -0.00000018
0.34099984 0.45265039 -0.00000141
-0.00540079 0.28336260 -0.00000068
0.17472906 -0.14567578 -0.00000041
-0.65526595 0.62783001 -0.00000018
0.26842678 0.01552772 -0.00000051
0.45931327 0.10752439 -0.00000112
0.02612570 0.10453386 0.17227570
-0.71934003 0.19733649 -0.00000010
0.06839431 -0.70078521 -0.00000006
-0.11041601 -0.45502778 -0.00000022
0.72236774 -0.05064863 -0.00000165
-0.17607550 -0.32454768 -0.00000030
-0.28917376 0.04934811 -0.00000053
0.31856965 -0.25173082 -0.00000034
0.61738041 0.18121779 0.00035878
-0.50005310 0.12348637 -0.00000034
0.42332000 0.08280084 -0.00000096
0.55942432 -0.01504873 -0.00000120
0.18994789 0.07074448 -0.00000054
0.45747787 -0.72501795 -0.00000005
-0.37169916 0.70364436 -0.00000054
0.38047779 0.22228990 -0.00000109
-0.01489229 -0.64681726 -0.00000010
0.41341435 0.16966001 0.05583191
0.75719219 -0.30314493 -0.00000124
-0.30427872 0.02293983 -0.00000051
-0.23456136 -0.07708006 -0.00000045
0.74210187 -0.09962514 -0.00000162
-0.56483758 -0.32660029 -0.00000019
-0.67963458 -0.73358177 0.00000000
-0.28782652 -0.39604274 -0.00000025
0.14864362 0.46066162 0.04908077
-0.08954593 -0.08940824 -0.00000044
0.12189254 -0.34594503 -0.00000028
0.21858620 0.53272798 0.01252953
-0.11231042 -0.39709352 -0.00000025
-0.42081545 0.28782288 -0.00000046
0.10935197 -0.46022404 -0.00000021
0.15587434 0.00429733 -0.00000050
-0.59458155 0.31066887 -0.00000026
0.32646604 0.40507910 -0.00000127
0.64418006 -0.64972444 -0.00000023
-0.35680832 -0.08489533 -0.00000045
0.08160946 -0.35774741 -0.00000028
0.63141975 -0.60174809 -0.00000029
0.22445802 0.40602449 -0.00000095
0.11804653 0.25067704 0.11100233
-0.28836032 -0.15520546 -0.00000040
-0.32798469 0.65504684 -0.00000059
0.50195602 -0.71411546 -0.00000005
0.25596322 -0.69369584 -0.00000007
0.08965729 0.41260899 -0.00000076
-0.31718776 0.22349059 -0.00000056
-0.79490738 -0.50849891 0.00000000
-0.77630623 -0.52357392 0.00000000
-0.21352753 0.02652047 -0.00000052
0.26531878 0.25325061 0.07243479
-0.76320785 0.31657063 -0.00000005
-0.72191764 -0.29449921 -0.00000003
-0.26177030 -0.08213657 -0.00000045
0.28906079 0.27466561 -0.00000090
0.55116475 -0.17415988 -0.00000086
-0.59699484 0.01894627 -0.00000022
0.20471057 0.11052354 -0.00000057
-0.38744873 -0.03255460 -0.00000043
0.61671206 -0.26107363 -0.00000090
0.37224338 -0.49868275 -0.00000019
0.26783137 0.23842265 0.07560460
-0.36850272 0.29817410 -0.00000051
0.75019652 -0.08866158 -0.00000167
0.69775676 -0.15637778 -0.00000137
-0.69799877 0.26644868 -0.00000013
0.71885991 -0.64489088 -0.00000039
0.03406367 0.02801497 -0.00000052
-0.52179854 -0.66393848 -0.00000009
0.41100289 0.31765693 -0.00000137
0.19742911 -0.05156910 -0.00000047
0.49470676 -0.39733410 -0.00000025
-0.56512834 -0.67092438 -0.00000008
-0.67616912 0.22737956 -0.00000015
-0.33067830 -0.38430310 -0.00000026
-0.27347726 -0.22131505 -0.00000036
-0.60014107 -0.54060028 -0.00000011
0.14706797 -0.26545648 -0.00000033
-0.67235854 0.42107236 -0.00000016
-0.13261192 -0.54923363 -0.00000016
-0.29196803 0.34175094 -0.00000060
0.78591362 -0.25215783 -0.00000137
-0.31936717 0.73413380 -0.00000060
-0.38925627 -0.40158016 -0.00000025
-0.28187332 -0.36667273 -0.00000027
-0.44904228 0.46681129 -0.00000044
-0.69037171 0.30787414 -0.00000014
-0.34265046 -0.18391126 -0.00000039
0.11044739 0.16024132 0.13623482
-0.56533664 0.01180743 -0.00000025
-0.72264565 0.76331446 -0.00000010
0.59412685 -0.45478365 -0.00000045
0.06328830 -0.60490073 -0.00000012
-0.11169977 -0.41634479 -0.00000024
-0.43914785 -0.69938719 -0.00000006
0.58385947 0.06700980 0.03838222
0.32884866 -0.33445064 -0.00000029
0.03368563 0.45978893 -0.00000079
0.32904359 -0.34716979 -0.00000028
0.49450769 -0.43917352 -0.00000023
0.16511235 0.44561631 0.04871439
-0.71363668 -0.22824650 -0.00000005
-0.03810725 -0.22490984 -0.00000036
-0.69647669 -0.76437613 0.00000000
0.23255777 0.30562813 -0.00000078
0.32134951 0.04177768 0.11244333
-0.44533142 0.63067829 -0.00000044
-0.28925346 0.37411097 -0.00000061
-0.36500128 -0.47993795 -0.00000020
0.20277412 0.42162229 0.04519645
-0.38023467 0.48852397 -0.00000052
-0.79640417 0.56277576 -0.00000000
0.02703669 0.05847624 -0.00000054
0.44914373 0.33014736 -0.00000152
0.14222716 -0.51954324 -0.00000018
-0.65351689 -0.41561446 -0.00000008
0.33955944 0.22968004 -0.00000097
-0.21084434 -0.23651958 -0.00000035
0.56633087 -0.34303676 -0.00000058
-0.47880551 -0.07887224 -0.00000033
-0.17835804 -0.07339581 -0.00000045
-0.52392179 0.73034935 -0.00000035
0.50485043 0.16902625 -0.00000139
-0.47849413 -0.24064463 -0.00000030
0.31127925 -0.51575539 -0.00000018
-0.26454540 0.31665982 -0.00000063
0.27782128 0.13525618 0.09958685
-0.64946816 -0.66372996 -0.00000004
-0.16665120 -0.43746112 -0.00000023
-0.51123881 -0.72723808 -0.00000005
-0.32087672 0.68596988 -0.00000060
-0.43326059 -0.63783996 -0.00000010
-0.18520746 -0.73798865 -0.00000004
0.25387578 0.38730431 -0.00000101
-0.58107320 -0.53330792 -0.00000014
0.05081444 0.03843386 0.18293433
-0.54521365 -0.60163024 -0.00000012
-0.17570475 -0.15977534 -0.00000040
-0.15451310 0.09747717 -0.00000056
-0.50627568 -0.10542971 -0.00000029
0.57392856 -0.78788934 -0.00000001
0.65644010 -0.04461041 -0.00000145
-0.66861859 -0.54429487 -0.00000004
-0.65869500 0.26365483 -0.00000018
0.02267466 0.25460895 0.13453715
0.20059890 -0.43233576 -0.00000023
0.26143101 -0.17437070 -0.00000039
-0.47108552 0.36028662 -0.00000041
-0.47914104 0.37715227 -0.00000040
-0.76778980 -0.59513272 0.00000000
0.34756734 0.21533359 0.06102436
-0.05058433 -0.04698424 -0.00000047
0.25514264 0.15699834 0.09982782
-0.59656099 0.39667842 -0.00000025
-0.07777063 0.07894217 -0.00000055
-0.59048167 0.40770229 -0.00000026
-0.12715777 -0.79483096 -0.00000000
0.23238605 0.03210008 -0.00000052
0.50341725 -0.09515508 -0.00000087
0.04354705 -0.00658125 -0.00000050
-0.71743991 0.77434776 -0.00000010
0.36441801 -0.38746682 -0.00000026
-0.21208602 -0.19815695 -0.00000038
0.53473367 -0.65264356 -0.00000009
0.75276262 -0.42976875 -0.00000093
-0.59817911 0.22614559 -0.00000025
-0.31063579 -0.68843425 -0.00000007
0.03863847 0.54832190 0.05483165
-0.29176916 -0.10540340 -0.00000043
-0.49750668 0.27380009 -0.00000037
-0.69103579 0.73536710 -0.00000014
0.42885079 0.08662058 0.07323198
-0.17444791 -0.46457474 -0.00000021
-0.32093228 0.44294919 -0.00000059
-0.58659934 -0.46600557 -0.00000014
-0.30883579 0.44271707 -0.00000061
-0.64210937 -0.19434407 -0.00000013
-0.35184611 0.57418227 -0.00000056
0.42797924 0.29335801 0.02024492
-0.69873548 -0.04437987 -0.00000010
-0.24159983 0.66170810 -0.00000070
0.45260555 -0.33248664 -0.00000029
-0.25266939 -0.53882112 -0.00000016
-0.52071711 0.66165789 -0.00000035
0.21146915 -0.77884521 -0.00000001
0.39590957 -0.75183376 -0.00000003
-0.15595569 0.27143819 -0.00000067
0.20446072 -0.20550345 -0.00000037
0.30934436 0.48731212 0.00085893
-0.03991118 0.13880921 -0.00000059
0.23868990 -0.46308957 -0.00000021
0.55486431 -0.70324031 -0.00000006
-0.33954355 0.62200115 -0.00000058
0.35546214 -0.78381736 -0.00000001
0.43032401 -0.27582401 -0.00000033
0.12270753 -0.15968434 -0.00000040
-0.53595849 0.02226609 -0.00000029
0.07559389 0.57017352 0.03969582
0.57530382 0.05874437 -0.00000140
-0.21882523 -0.32661477 -0.00000030
0.00819004 -0.76808859 -0.00000002
-0.60322985 -0.40483234 -0.00000014
0.22861236 0.14721564 -0.00000059
-0.34032127 0.23367628 -0.00000053
0.33980198 -0.60618661 -0.00000012
-0.60025863 -0.13306022 -0.00000019
-0.53899927 0.70096733 -0.00000033
0.14130454 0.22135303 -0.00000064
0.02776620 -0.08614134 -0.00000045
-0.16735334 -0.49996470 -0.00000019
-0.78877957 -0.08041773 0.00000000
-0.24109790 -0.53206475 -0.00000017
-0.51510028 0.01867868 -0.00000031
-0.79512759 0.51885892 -0.00000001
0.51160613 0.22438870 0.01647216
-0.32645429 -0.60473459 -0.00000012
-0.68311056 0.24423952 -0.00000015
-0.04762006 -0.21940897 -0.00000036
-0.64798150 -0.24647077 -0.00000012
-0.27166765 0.57884978 -0.00000066
-0.19182020 -0.31873551 -0.00000030
-0.25738632 -0.66144916 -0.00000009
0.45815601 0.10435173 0.06112542
-0.75950620 -0.21841451 -0.00000000
0.44475600 -0.50172831 -0.00000019
0.03768525 -0.65141553 -0.00000009
0.00617045 -0.63693393 -0.00000010
0.21485925 -0.52427208 -0.00000017
0.38472943 0.00139692 -0.00000067
0.13755497 0.11601491 -0.00000057
0.12219802 -0.53881649 -0.00000016
-0.08614034 0.19619900 -0.00000062
-0.59287435 0.52884328 -0.00000026
-0.12136317 0.31897014 -0.00000070
-0.28369065 0.59464388 -0.00000065
-0.38537257 0.47324171 -0.00000052
-0.00026967 -0.19196258 -0.00000038
-0.29337079 0.05359809 -0.00000053
0.15945809 0.33496250 -0.00000071
0.35149593 0.27049479 -0.00000109
-0.27644611 0.12752283 -0.00000058
0.01329582 0.58894176 0.05089948
-0.55582378 -0.30964250 -0.00000020
0.10052363 -0.60031497 -0.00000012
0.23593138 0.40021922 -0.00000098
-0.40301898 -0.46283356 -0.00000021
-0.65298062 0.40694157 -0.00000018
-0.64313083 -0.02765014 -0.00000016
0.28426381 -0.03047143 -0.00000048
-0.52868971 -0.26387203 -0.00000024
-0.54059319 -0.19942862 -0.00000024
-0.35574075 -0.36838548 -0.00000027
0.08162043 0.24736906 0.12122910
0.33317969 0.10584986 0.09290717
0.36459739 -0.54099645 -0.00000016
-0.57546226 0.16207806 -0.00000027
0.01155899 -0.41063749 -0.00000024
-0.13016896 -0.02570828 -0.00000048
-0.19912083 0.28836259 -0.00000068
0.04413297 -0.63054121 -0.00000011
-0.53315506 0.32704383 -0.00000033
0.30452707 0.31071462 -0.00000102
0.75382829 -0.00733721 -0.00000184
-0.68085832 -0.62317590 -0.00000001
-0.71226323 -0.23045527 -0.00000005
0.14484487 0.30846558 0.08923118
0.42657382 0.25864184 -0.00000131
-0.20952423 0.09525476 -0.00000056
-0.64418336 0.50144439 -0.00000019
0.68884746 -0.24982064 -0.00000116
-0.01316948 0.32545012 -0.00000070
-0.57566117 -0.20683320 -0.00000020
-0.48977759 0.55769728 -0.00000039
0.29369872 -0.37281873 -0.00000027
0.32666460 0.27785098 -0.00000103
-0.72028378 0.43560086 -0.00000010
-0.78705204 -0.24073851 0.00000000
-0.06410034 -0.58686513 -0.00000013
-0.47545551 0.47187659 -0.00000041
0.07119600 0.68244197 0.01193161
-0.32022503 -0.24942879 -0.00000034
0.41318944 0.03273725 0.09113185
-0.76854964 -0.52071552 0.00000000
0.05721438 0.68916188 0.01380069
0.73563375 -0.12321807 -0.00000155
-0.73599489 0.42020944 -0.00000008
