ply
format ascii 1.0
element vertex 1401
property float x
property float y
property float z
end_header
-0.28841609 0.32994644 0.00000231
0.49403253 -0.19798860 0.19960035
0.20969613 0.06713745 0.08473073
0.31052819 0.17379844 0.12546554
0.30683639 0.36153972 0.12396860
-0.69502123 -0.72683492 -0.00000018
0.53231242 0.07756681 0.21506838
0.39687976 0.12000150 0.16034825
-0.11225564 0.40771791 0.00000419
-0.34417058 -0.06795323 0.00000000
0.51355183 0.02458606 0.20748621
0.00754099 0.06817218 0.00304674
0.32838183 -0.04004944 0.13267396
-0.45256734 0.29499086 -0.00000104
0.03552110 0.40996347 0.01435136
-0.04782843 0.08319947 0.00001003
-0.07059031 0.31397013 0.00000000
-0.53323345 0.22504881 -0.00000126
-0.00688486 -0.73281136 0.00000000
0.33302198 0.02455071 0.13454858
-0.03312945 0.63441443 0.00000198
-0.43781864 0.07147189 -0.00000058
0.05852231 -0.79558100 0.02364439
0.52629110 0.14465962 0.21263449
0.05603998 -0.01230446 0.02264147
0.00470170 -0.37492712 0.00189960
0.04432634 0.27394615 0.01791654
0.03299396 -0.72412406 0.01333034
-0.07768768 -0.29398081 0.00000000
0.31397355 -0.52153158 0.12685270
-0.26432164 -0.29028682 0.00000000
0.08428511 -0.63936504 0.03405317
0.20829638 0.55413866 0.08415621
0.17425687 0.00830658 0.07041387
-0.11918092 0.36084623 0.00000000
0.45007874 0.15729053 0.18184163
-0.74868226 -0.66202307 -0.00000034
0.26049210 0.21678569 0.10524480
0.04653732 0.54411314 0.01880554
-0.21492909 0.06397242 0.00000000
0.26138054 0.00329801 0.10560389
-0.36674987 -0.31850778 0.00000000
-0.18065380 -0.28620275 0.00000000
-0.16799472 0.35722784 0.00000000
-0.46452834 -0.59157346 0.00000000
0.58152673 -0.78723296 0.23495048
0.15964213 -0.54993315 0.06449918
0.14050629 -0.53207805 0.05676785
0.49368679 0.26339086 0.19945999
0.14236612 0.08362460 0.05751926
0.16939031 0.24465719 0.06844400
0.01879725 0.26809672 0.00759453
-0.69137521 -0.51763268 -0.00000062
-0.07809240 -0.71307340 0.00000000
-0.15514370 0.12894026 0.00000000
0.13038138 0.48672236 0.05268013
-0.70209578 0.04219924 -0.00000082
-0.34231540 -0.02167896 -0.00000001
0.49006193 0.23664038 0.19799613
0.10264109 -0.19804272 0.04146941
0.05912475 -0.79855906 0.02388779
0.02404770 0.66287642 0.00971584
0.43989466 0.26293200 0.17772691
-0.21441581 0.56758588 -0.00000024
-0.72106138 -0.27332188 -0.00000118
0.08337729 0.54461512 0.03368639
0.39253470 0.35657229 0.15859277
0.26293573 -0.13611012 0.10623222
0.34403200 0.15116917 0.13899666
0.25413984 0.49888976 0.10267842
-0.45714794 -0.25301592 -0.00000009
-0.18509475 -0.63034158 0.00000000
0.65759840 -0.54633743 0.26568469
0.32529275 -0.48509071 0.13142593
0.03374784 0.58118682 0.01363789
-0.33314868 0.05988605 0.00000597
-0.47706813 -0.53722461 0.00000000
0.08293924 0.41055387 0.03350941
-0.44370331 -0.26751102 -0.00000001
-0.51131195 -0.28063076 -0.00000027
0.01781582 -0.44268527 0.00719801
-0.08141328 -0.57066741 0.00000000
-0.04253288 0.03177580 0.00000000
0.14360193 -0.62922610 0.05801856
-0.23527167 0.01002225 0.00000830
0.27760913 0.21804476 0.11216537
-0.34385970 -0.39019814 0.00000000
-0.77070990 -0.44288094 -0.00000089
0.20635966 0.46255585 0.08337387
0.05572153 -0.44456452 0.02251281
0.40843176 -0.44064325 0.16501604
-0.35706823 0.35090001 -0.00000073
-0.53716305 -0.48524747 -0.00000002
0.43648879 0.16878426 0.17635101
0.30569934 -0.22832736 0.12350973
-0.28909963 -0.02154988 0.00000000
-0.55087760 0.02609225 0.00000235
0.17293033 0.19702998 0.06987496
0.48602750 0.02627705 0.19636583
0.73336873 -0.72881203 0.29629754
0.16559219 0.36376380 0.06690765
0.03419189 0.61315139 0.01381678
-0.15102010 0.44783969 -0.00000002
0.16886847 -0.45233400 0.06822683
0.47054406 0.08449965 0.19011013
0.29265469 -0.34652553 0.11823938
-0.73231521 -0.65670713 -0.00000036
-0.10624600 -0.50649138 0.00000000
-0.28530981 0.42580599 -0.00000056
0.51027864 -0.79473454 0.20616457
-0.23311614 -0.67885053 0.00000000
-0.34886491 -0.26394894 0.00000000
0.07543843 -0.13224239 0.03047890
0.12766570 0.08992406 0.05157995
0.19737323 0.17436484 0.07974343
-0.45738941 -0.23096416 -0.00000013
-0.38215420 -0.72418222 0.00000000
-0.50157238 0.16297593 0.00000101
0.14641510 0.17303255 0.05915514
-0.13658099 -0.16061356 0.00000000
0.20984513 0.38701441 0.08478218
-0.12425240 -0.36617802 0.00000000
0.15660756 0.48843029 0.06327300
0.05304240 0.13080877 0.02144017
-0.00991920 0.07462581 0.00001073
-0.01393981 0.37602161 0.00000615
-0.60151225 0.13086261 -0.00000037
0.21486696 -0.59440537 0.08681131
0.16431014 0.16970887 0.06639275
-0.55849765 -0.28286203 -0.00000047
-0.64586283 -0.06352014 -0.00000123
-0.38710816 -0.25939171 0.00000000
0.54863477 -0.31025704 0.22166089
-0.04216254 -0.24781324 0.00000000
0.48222417 -0.63423053 0.19482991
0.00528036 -0.21920757 0.00213339
0.04668089 0.61652434 0.01886018
0.67344334 -0.19775765 0.27208586
-0.72141888 -0.14621133 -0.00000141
-0.52327871 -0.23528608 -0.00000040
0.01104483 0.77015993 0.00446268
0.53864820 -0.61439881 0.21762654
0.32788890 0.09391867 0.13247462
-0.26532697 0.10207311 0.00000647
0.32806217 -0.61977243 0.13254483
0.08836396 0.43923407 0.03570112
0.02653690 0.30378270 0.01072898
-0.60410908 0.18858988 -0.00000139
0.01762479 -0.33457540 0.00712083
0.09969115 0.55509142 0.04027996
-0.63899487 -0.76630144 0.00000000
-0.53464060 -0.16418290 -0.00000058
-0.22008217 0.14308678 0.00000653
0.03216669 0.24973596 0.01299610
0.35556856 -0.74473642 0.14365806
-0.11763955 0.09336944 0.00000882
-0.39780329 0.39137210 -0.00000081
0.18040177 0.30661761 0.07288656
-0.13107242 -0.50773318 0.00000000
-0.11167087 0.07478342 0.00000000
0.58614722 -0.41586697 0.23681681
-0.29537746 -0.16918786 0.00000000
0.23801118 0.21407322 0.09616784
-0.01370700 -0.74896672 0.00000000
-0.15196344 0.11987919 0.00000791
-0.01413642 0.25498807 0.00000000
-0.12967181 0.31745827 0.00000528
-0.58691340 -0.74309643 0.00000000
-0.59488628 0.02890359 -0.00000118
0.05851373 0.43812826 0.02364579
-0.16693513 -0.78879006 0.00000000
-0.00630905 0.16385185 0.00000945
-0.58837751 -0.22092993 -0.00000071
0.02166199 0.15022221 0.00875195
-0.11892970 -0.07174049 0.00000000
0.49128691 -0.05620498 0.19849086
0.21391062 -0.73352160 0.08642492
-0.05371906 -0.49399109 0.00000000
-0.54450711 -0.69192256 0.00000000
-0.36209989 0.03406975 0.00000584
0.17688661 -0.02177646 0.07146635
0.73094557 -0.21877322 0.29531790
0.68929301 0.02392681 0.27848969
0.47412428 -0.56709565 0.19155736
-0.20979427 0.50340459 -0.00000037
0.59099736 -0.00875180 0.23877578
-0.42763027 -0.58136007 0.00000000
-0.05898398 0.59098591 0.00000225
-0.05623817 0.24823446 0.00000743
-0.65101712 -0.75449409 -0.00000003
-0.65816422 -0.31468021 -0.00000084
-0.19356435 -0.58813087 0.00000000
0.57788876 -0.49560515 0.23348035
0.73063407 -0.43247982 0.29519231
-0.29573589 -0.03578366 0.00000000
-0.30194425 -0.63710933 0.00000000
-0.23299719 -0.24310196 0.00000000
-0.72430756 -0.05011638 -0.00000159
-0.15319143 -0.68972606 0.00000000
0.07792922 0.62740870 0.03148675
-0.11192525 -0.54701972 0.00000000
0.04257711 -0.19117389 0.01720216
0.55283906 -0.26306625 0.22335944
-0.27710941 0.25176995 0.00000384
0.10845054 0.25112873 0.04382367
-0.53748110 -0.42427038 -0.00000013
-0.62083235 -0.47178508 -0.00000040
-0.23922524 0.04541659 0.00000771
0.26643554 0.45462453 0.10764674
-0.19790006 -0.06291224 0.00000000
0.04960650 -0.57878442 0.02004219
-0.27549220 0.02059944 0.00000753
-0.31493595 0.37791756 0.00000100
-0.53909001 -0.35655287 -0.00000026
-0.31924295 0.12954416 -0.00000018
-0.21353832 0.08022095 0.00000757
0.47044027 0.14954172 0.19007061
-0.01528773 -0.73049584 0.00000000
-0.16372480 0.53029808 0.00000136
0.34007557 0.20896220 0.13739810
0.15075710 0.44164081 0.06091280
0.02812288 0.04765914 0.01137377
0.42960191 0.09360339 0.17357294
0.24954381 -0.45189391 0.10082157
0.00750678 0.09341830 0.00304395
0.32273698 0.09495190 0.13039314
-0.32998369 0.06542666 0.00000593
-0.74455769 -0.56957270 -0.00000058
-0.03702087 0.70090993 0.00000000
-0.03767644 0.74411374 -0.00000006
0.29449281 0.09823175 0.11898193
0.23450394 -0.36412687 0.09474511
0.08850102 0.24050146 0.03575649
0.34867286 -0.44469914 0.14087204
-0.65211640 -0.34448346 -0.00000076
-0.23460828 -0.09428038 0.00000000
-0.58920753 0.04089404 -0.00000117
-0.39318092 0.02527777 -0.00000031
-0.60631227 0.11866127 -0.00000026
-0.48914346 -0.25626090 -0.00000022
-0.24950518 0.19700062 0.00000528
-0.45038957 0.06916666 -0.00000063
0.03244905 0.35342517 0.01311018
-0.53424466 -0.35462042 -0.00000024
-0.15309031 -0.51772746 0.00000000
-0.36056179 0.30038387 0.00000142
-0.01542777 0.76149792 0.00000000
-0.39553081 -0.24788888 0.00000000
-0.36437604 0.04267913 -0.00000022
0.23014448 0.18634747 0.09298379
-0.37424463 0.40763279 -0.00000063
-0.28595960 0.19326756 0.00000464
-0.23139548 0.07432161 0.00000739
0.34935927 0.13260537 0.14115411
-0.24408837 -0.73697949 0.00000000
-0.05428274 0.06018690 0.00000000
-0.29617357 0.01119695 0.00000000
0.24623858 -0.41557151 0.09948618
0.22795411 -0.77449115 0.09209882
-0.27321211 0.08781230 0.00000656
-0.58749646 -0.52874101 -0.00000016
0.01362703 0.58569620 0.00550882
0.52465980 -0.21026951 0.21197439
0.51733028 -0.09085719 0.20901294
-0.09903257 -0.14446611 0.00000000
-0.17077298 -0.02288119 0.00000000
-0.34580613 -0.55777556 0.00000000
0.39120604 -0.59043361 0.15805644
0.10898276 0.00115193 0.04404264
0.11122703 -0.68430826 0.04493834
0.54528508 -0.11801711 0.22030727
-0.15781990 -0.68054067 0.00000000
0.61082092 -0.13703770 0.24678507
-0.33399460 -0.25306350 0.00000000
-0.16075826 -0.35105482 0.00000000
0.16711155 -0.19927422 0.06751700
0.32362419 0.20135567 0.13075143
0.00569186 0.08650109 0.00231082
0.45928246 -0.47208450 0.18556092
-0.07287180 -0.75445027 0.00000000
-0.17677817 0.13664164 0.00000000
-0.48736569 0.28773600 -0.00000080
0.69832559 -0.02525100 0.28213853
-0.52953697 -0.37493390 -0.00000018
0.35221098 -0.16719206 0.14230152
0.72852515 0.01281995 0.29433969
-0.15231236 -0.53600896 0.00000000
-0.21283142 0.35175297 0.00000340
-0.68359529 -0.14714629 -0.00000124
0.11518364 0.51175461 0.04653976
-0.23932315 0.12298965 0.00000654
0.41524688 -0.37624830 0.16776951
0.34315852 0.27982550 0.13864621
-0.39204971 0.32647744 -0.00000084
-0.23149796 0.50202796 -0.00000046
0.42791180 0.06037620 0.17288589
-0.46675615 -0.09071446 -0.00000042
0.35346425 0.13655969 0.14281245
0.54003448 -0.31019180 0.21818620
0.67656612 -0.22128991 0.27334756
0.52192242 -0.62776389 0.21086894
-0.11861010 0.16256948 0.00000000
-0.12585520 -0.41210329 0.00000000
-0.27710538 -0.78831160 0.00000000
-0.13494935 0.47604740 -0.00000000
-0.69760716 -0.56358254 -0.00000057
-0.10285649 0.65612653 0.00000043
0.13251369 -0.55797375 0.05353865
0.31070104 0.42625803 0.12553058
0.44276546 -0.31909319 0.17888761
-0.09331909 -0.36586194 0.00000000
0.04486799 -0.13729292 0.01812772
0.42250246 0.16968706 0.17070025
-0.77378055 -0.20337222 -0.00000149
0.62246483 -0.77207084 0.25149036
-0.19751140 0.48108255 -0.00000028
-0.08372428 -0.03999739 0.00000000
-0.61851768 0.04022704 0.00000081
-0.09208572 0.52500231 0.00000000
-0.21287791 0.15502947 0.00000646
-0.27713569 -0.20954946 0.00000000
0.46643584 -0.25894198 0.18845083
-0.46337313 -0.00071085 -0.00000056
0.37896138 0.13266547 0.15310885
-0.48614925 -0.22625777 -0.00000026
0.25784658 0.50556474 0.10417554
0.15441368 -0.16863428 0.06238676
-0.13911573 -0.16967671 0.00000000
0.26416813 -0.20711811 0.10673014
-0.00292045 0.67452906 0.00000000
0.70453576 -0.30060284 0.28464794
-0.53984973 0.15417016 -0.00000116
0.59586473 -0.31593484 0.24074274
0.39432090 0.15455204 0.15931437
-0.07029255 -0.17792230 0.00000000
-0.11596559 0.00218217 0.00001022
0.30300320 0.00011143 0.12242870
0.46343744 -0.64044100 0.18723963
0.10300549 0.47992792 0.04162022
-0.25676068 -0.53834968 0.00000000
0.15702425 -0.32175721 0.06344149
-0.42019150 0.35189388 -0.00000058
-0.04113884 -0.33146516 0.00000000
-0.15860230 0.05555371 0.00000877
-0.17663637 0.26419156 0.00000537
0.05983725 0.71927519 0.02417583
-0.09234771 0.51484729 0.00000288
-0.64649668 -0.01070113 -0.00000133
0.10199068 0.53595355 0.04120663
0.60161632 -0.69771443 0.24306705
-0.19682235 0.24540002 0.00000535
0.07550005 0.38587063 0.03050380
-0.22440824 -0.00242919 0.00000000
-0.68244164 -0.10626560 -0.00000131
0.13230478 0.27188100 0.05345424
-0.29380565 -0.68447543 0.00000000
-0.12152559 0.47609989 0.00000000
0.43658994 -0.11219348 0.17639228
0.16368883 0.05010246 0.06614362
0.19484962 0.27574359 0.07872383
-0.66110775 0.01106655 0.00000048
0.18836367 -0.44697288 0.07610335
0.52301720 0.00020858 0.21131044
-0.49540892 -0.73494209 0.00000000
0.31178643 -0.03329301 0.12596905
-0.28073720 -0.41204546 0.00000000
0.65388463 0.08372786 0.26418354
-0.23730955 0.10824241 0.00000680
0.38339851 -0.51050629 0.15490202
-0.00654970 0.40178769 0.00000587
-0.07350248 0.65652406 0.00000099
0.35559125 -0.49482728 0.14366723
-0.42159434 -0.00260811 -0.00000038
-0.22915813 -0.75729465 0.00000000
0.34723243 -0.44189559 0.14029007
0.14023482 -0.58243165 0.05665817
0.26708282 0.28845674 0.10791139
0.34458710 0.40783194 0.13922092
-0.52245886 -0.62572326 0.00000000
0.07400157 0.65784075 0.02989830
0.17189764 -0.00689356 0.06945069
0.56356173 -0.34545710 0.22769173
0.27281666 0.47451558 0.11022434
-0.21588435 -0.58129477 0.00000000
-0.66252038 -0.00077857 -0.00000141
-0.00878474 0.64810726 0.00000000
0.08038019 -0.08523107 0.03247549
-0.60271169 -0.41287753 -0.00000043
0.09693419 0.54538243 0.03916369
-0.31455499 -0.48713632 0.00000000
-0.25771437 0.16413559 0.00000565
0.00692244 0.55372824 0.00280062
-0.32856038 -0.19101053 0.00000000
-0.13906693 0.44011470 0.00000330
0.57748414 0.01969853 0.23331889
-0.59871719 -0.68661592 0.00000000
-0.18761536 0.51222823 -0.00000029
0.03585008 0.57943476 0.01448724
0.60549889 -0.71372109 0.24463571
-0.09787134 0.69855276 -0.00000024
0.03997647 -0.32143184 0.01615144
-0.11803014 0.29789508 0.00000575
0.12747514 -0.79386657 0.05150296
0.20241412 0.37331362 0.08178358
-0.08460334 0.09202229 0.00000000
-0.60484680 -0.28433316 -0.00000066
0.17477911 0.34990765 0.07061945
0.45798962 0.23933860 0.18503884
0.33001943 -0.38651707 0.13333561
0.09392197 0.12237227 0.03794669
0.41480676 0.14700190 0.16759107
-0.33888140 -0.18163288 0.00000000
-0.41927154 -0.75846604 0.00000000
-0.02967528 0.68749244 0.00000124
0.25721800 -0.60554119 0.10392212
0.11420213 0.24301271 0.04614035
0.50986794 -0.40664425 0.20599847
-0.69702404 -0.16940217 -0.00000126
0.21284956 0.48920816 0.08599730
0.09671789 0.33303509 0.03907630
0.22089730 0.25135411 0.08924767
-0.41153266 0.07142637 -0.00000047
-0.06649353 -0.11323269 0.00000000
-0.02072726 0.19446344 0.00000000
0.05893461 -0.37478590 0.02381097
0.02512262 0.29914097 0.01015767
-0.24855632 0.16718062 0.00000000
0.20054617 0.28077797 0.08103068
0.58490747 -0.01161725 0.23631535
0.35875024 -0.63787362 0.14494354
-0.33782754 0.16565893 0.00000411
-0.39530019 0.36061563 -0.00000091
0.68600680 -0.02761574 0.27716150
-0.64123772 -0.30014505 -0.00000079
0.44370184 0.16713567 0.17926793
-0.02942527 0.55302685 0.00000000
0.32749606 0.37149086 0.13231682
0.02975978 0.75318546 0.01202361
-0.39076548 0.02713432 0.00000541
0.35157695 0.21333344 0.14204488
0.23764355 0.31790224 0.09601735
0.20033730 0.15365047 0.08094831
0.44774936 0.07182653 0.18090494
-0.06894821 0.62253020 0.00000000
0.31841381 0.40827614 0.12864688
0.14655934 0.55560203 0.05921322
-0.77096800 -0.21015128 -0.00000147
-0.20393736 0.08414381 0.00000766
-0.05411599 -0.72200748 0.00000000
0.12851676 0.23855060 0.05192380
0.67691538 -0.01790544 0.27348837
-0.49479073 0.02186827 -0.00000074
0.21695601 0.44657708 0.08765712
0.02219307 -0.77197383 0.00896652
-0.41500763 0.18593890 -0.00000069
-0.22253103 0.12131030 0.00000000
0.33689026 0.37987529 0.13611093
-0.47310529 -0.22430093 -0.00000021
0.54325773 -0.38905787 0.21948858
0.20215712 0.19530019 0.08167623
-0.32444600 -0.64461737 0.00000000
-0.62474584 0.16353928 -0.00000154
-0.33319205 -0.72234433 0.00000000
-0.54603489 -0.23506820 -0.00000050
0.18350171 -0.52695618 0.07413901
-0.51951695 -0.02888385 -0.00000075
-0.16958810 0.00997834 0.00000000
0.10708709 0.50499552 0.04326883
-0.51521391 -0.21887232 -0.00000040
-0.17290332 0.08094119 0.00000818
0.56090753 0.14007421 0.22661964
0.23488296 0.19053124 0.09490449
-0.20657468 -0.29856144 0.00000000
-0.41440085 -0.42299462 0.00000000
-0.57041118 0.12659966 -0.00000124
0.16123372 0.46397492 0.06514209
0.25901865 -0.54657466 0.10464963
0.13278841 0.44546678 0.05364964
0.73435068 -0.76301082 0.29669431
-0.29364729 0.47425133 -0.00000020
-0.06622645 -0.47872152 0.00000000
0.63781739 -0.78979506 0.25769310
-0.23407945 0.50074185 -0.00000047
0.47509755 0.17270701 0.19194970
-0.62128816 -0.32400046 -0.00000066
-0.18843716 0.34869331 0.00000392
-0.74600990 0.02452864 -0.00000137
-0.65926741 -0.01341800 -0.00000138
-0.18040858 0.22863714 0.00000000
-0.44584928 -0.17059553 -0.00000019
0.46546130 0.12434785 0.18805654
-0.04809554 0.57959650 0.00000000
0.32210136 0.34457831 0.13013787
0.00888625 0.61444209 0.00359306
0.33491349 -0.50538418 0.13531293
-0.08865745 -0.36759055 0.00000000
-0.08628247 -0.71454456 0.00000000
0.07432869 0.70537334 0.03003039
0.08694868 0.66036103 0.03512919
0.54216419 -0.07992622 0.21904631
-0.12630756 0.62706899 0.00000046
0.26968132 0.30380246 0.10895730
0.30649714 -0.43942099 0.12383205
-0.68476280 -0.52554536 -0.00000058
-0.44282433 -0.22844527 -0.00000007
0.65865354 -0.21002302 0.26611050
0.54099672 -0.27365711 0.21857492
-0.73256624 -0.42375220 -0.00000094
0.19402664 0.33834475 0.07839569
0.24203352 0.17294014 0.09778723
0.22021413 0.31366118 0.08897593
0.07820815 -0.41417822 0.03159793
0.71252604 -0.72664829 0.28787671
0.19456263 0.22177796 0.07860788
-0.79216082 -0.13062236 -0.00000167
0.36488798 0.12499764 0.14742787
-0.06242366 0.40195851 0.00000000
0.28133335 0.11751843 0.11367187
-0.07728246 0.39072541 0.00000497
-0.59132769 -0.13792717 -0.00000087
0.67918164 -0.15166329 0.27440418
-0.25891263 0.38790108 -0.00000038
-0.24235001 -0.61637188 0.00000000
0.35885750 0.06045306 0.14498659
-0.38260136 0.05599567 0.00000508
-0.50645698 0.26597555 -0.00000081
-0.14884381 0.02430033 0.00000000
-0.04389485 0.57369379 0.00000273
-0.23288587 0.36022565 0.00000287
0.26859102 -0.75973062 0.10851709
-0.25218778 -0.48742445 0.00000000
-0.09509857 -0.57307153 0.00000000
-0.12938799 0.26442642 0.00000608
0.09158868 -0.78847720 0.03700398
0.09235832 0.10779553 0.03731493
0.13452627 0.15401947 0.05436004
0.07459414 -0.56375058 0.03013779
-0.02690822 -0.07029240 0.00000000
0.21907600 -0.60339254 0.08851186
0.28532370 0.10766755 0.11528416
0.02166982 0.06515399 0.00876640
0.21520219 0.25205318 0.08695227
-0.09263406 0.54339783 0.00000245
0.14398869 0.20502038 0.05818214
0.04645910 0.03727211 0.01877057
-0.24681277 0.47657524 -0.00000048
0.27276154 -0.50717408 0.11020208
0.23274694 0.50226755 0.09403561
-0.43016620 0.18549844 -0.00000075
0.11051491 -0.71021359 0.04465063
-0.33574789 0.27050204 -0.00000050
0.54068544 0.04109754 0.21845178
-0.10400368 -0.03549478 0.00000000
-0.43759323 -0.08622189 -0.00000030
0.17759808 0.49239303 0.07175358
-0.09362653 0.53516492 0.00000256
0.58601474 -0.20482441 0.23676298
-0.34585291 0.39948503 0.00000005
0.20153415 -0.05128544 0.08142454
0.07618431 0.22435084 0.03078824
0.09403477 -0.36020236 0.03799226
-0.22625191 0.12569694 0.00000670
-0.38200509 0.18987085 0.00000286
0.04872883 -0.36623716 0.01968759
0.13850592 -0.78491755 0.05595965
-0.77232417 -0.23978849 -0.00000140
-0.16477843 0.58263489 0.00000047
0.37064483 0.33027466 0.14974974
-0.22659105 0.08683438 0.00000000
-0.16500578 -0.62144788 0.00000000
-0.34251096 -0.29376032 0.00000000
0.02653432 -0.72150860 0.01072049
0.15688170 -0.16703442 0.06338390
0.21918144 0.03998315 0.08855446
-0.09252087 0.14725460 0.00000840
-0.74138934 -0.66732638 -0.00000033
-0.23433200 0.05255164 0.00000768
-0.63447843 -0.77891211 0.00000000
0.20413653 -0.57889350 0.08247596
0.39786100 -0.01080148 0.16074488
0.07527981 -0.52674945 0.03041481
-0.49519241 -0.63922581 0.00000000
0.53429661 0.18833802 0.21586789
0.19225109 0.45550597 0.07767374
0.23561405 -0.68314433 0.09519362
0.30080814 0.06078487 0.12154078
-0.76450281 -0.11097597 -0.00000165
-0.51062048 -0.75966189 0.00000000
0.15950884 -0.44477159 0.06444533
0.15504608 -0.46837632 0.06264227
-0.43420534 -0.44839284 0.00000000
-0.54179451 -0.22963465 -0.00000049
0.48626346 0.16241395 0.19646096
0.38891967 -0.76973445 0.15713270
-0.59249846 -0.72466002 0.00000000
0.37763920 -0.64621509 0.15257512
-0.29541281 -0.11322544 0.00000000
-0.61423211 0.05525068 -0.00000130
0.17158486 0.15046406 0.06933211
-0.24502872 -0.67396155 0.00000000
-0.19315547 0.24999672 0.00000000
0.22290818 0.46166088 0.09005980
-0.47302970 0.26437395 -0.00000107
0.18490611 0.26147910 0.07470642
0.29764155 0.29789665 0.12025379
-0.34840983 -0.59787737 0.00000000
0.46319033 0.02331925 0.18714403
0.19352596 0.11370800 0.07819709
-0.56738047 -0.00760525 -0.00000099
-0.05432695 0.30806442 0.00000000
0.02462304 0.12498166 0.00995858
-0.62478685 0.04840890 -0.00000134
0.00093796 -0.64166632 0.00037896
-0.15433622 -0.73801930 0.00000000
0.64007915 0.00290023 0.25860765
-0.40892186 0.16783557 0.00000271
-0.17528903 0.14541429 0.00000000
0.09721363 0.09298573 0.03928635
-0.33515866 0.24250769 -0.00000044
0.01229470 0.70981508 0.00496859
-0.60499436 0.02835291 0.00000127
0.46106009 -0.52971048 0.18627912
0.21775041 0.33085444 0.08797614
-0.54566133 0.16276612 -0.00000120
-0.21392562 0.00317172 0.00000000
0.55779384 -0.21827728 0.22536120
0.31194091 0.41328002 0.12603173
-0.07651492 0.71682395 -0.00000018
0.01283316 -0.47837205 0.00518490
0.04064126 -0.49292029 0.01642002
-0.33810974 0.26495378 0.00000244
-0.34419059 0.19296715 -0.00000040
0.02443056 0.16047298 0.00987052
-0.70593925 0.09037225 -0.00000170
-0.47853165 -0.44346236 0.00000000
0.27951602 -0.66859095 0.11293105
0.32265088 0.08026956 0.13035837
0.09627025 -0.68441759 0.03889544
0.07762365 -0.45382111 0.03136178
0.03585024 0.21574995 0.01449304
-0.65439071 -0.65224435 -0.00000023
-0.16639526 -0.00161607 0.00000000
0.40686798 0.29209149 0.16438465
-0.27926297 0.37023545 0.00000182
0.45934795 -0.49236024 0.18558738
0.67805156 -0.71728436 0.27394836
-0.38835784 0.15377110 -0.00000052
0.13788101 -0.42825987 0.05570717
-0.16424209 -0.18488013 0.00000000
0.35403405 -0.69707035 0.14303808
-0.34149649 -0.50525670 0.00000000
0.43667514 -0.28291328 0.17642695
-0.01630795 -0.77425233 0.00000000
0.09192052 -0.42281729 0.03713805
0.09961759 0.09680221 0.04025751
0.46993744 -0.60171000 0.18986578
0.18763221 0.03816057 0.07580783
0.32490540 -0.73407010 0.13126943
0.16144070 0.48876205 0.06522809
0.20924169 0.55162708 0.08453854
-0.49777860 0.13084913 -0.00000094
0.00309293 -0.15647633 0.00124962
-0.11322548 0.36191422 0.00000000
-0.09461382 -0.15936114 0.00000000
-0.03534861 0.46441874 0.00000000
0.45584416 0.01742860 0.18417628
-0.18969362 -0.14326302 0.00000000
0.68528300 -0.49101467 0.27686971
0.34524536 -0.03010800 0.13948715
0.25865883 -0.39109000 0.10450425
0.33825939 0.15836487 0.13666926
0.06788330 0.12521192 0.02743612
0.23117432 -0.49820809 0.09339986
0.19456276 -0.02873837 0.07860793
0.09892594 0.42728191 0.03997287
-0.15692652 0.32083736 0.00000000
0.07416705 -0.73108580 0.02996523
-0.52190728 0.09235375 -0.00000098
0.30646207 0.08447357 0.12381777
0.30847722 -0.27468740 0.12463205
0.14437399 -0.25470038 0.05833049
0.23215362 0.30848809 0.09379959
-0.11008769 0.19662367 0.00000000
-0.05299095 0.32125106 0.00000000
0.63667391 -0.27309371 0.25723039
-0.37507663 -0.20512587 0.00000000
-0.30226192 0.11017889 0.00000572
0.61875223 -0.59902855 0.24999015
0.52187154 -0.51687885 0.21084832
-0.52107984 -0.12082758 -0.00000060
-0.20488898 0.27940512 0.00000000
0.14307147 -0.28504233 0.05780424
0.14503707 0.47828829 0.05859831
0.02869902 -0.03358690 0.01159508
-0.02970887 -0.58421657 0.00000000
0.27349674 0.23276622 0.11049891
-0.00050708 -0.03834187 0.00000000
-0.39996069 0.35596637 -0.00000026
-0.52697209 -0.36627904 -0.00000019
-0.45824765 0.08702910 -0.00000070
0.07846962 -0.54068384 0.03170357
-0.11701565 0.31952030 0.00000544
-0.27927083 0.40372914 0.00000126
0.15548699 0.08363399 0.06282040
0.16512172 -0.71028000 0.06671306
-0.30514731 -0.76570714 0.00000000
0.13491078 0.27043946 0.05450713
0.02535864 -0.36356505 0.01024549
-0.28957482 0.41400944 -0.00000055
-0.06303534 0.50337518 0.00000000
-0.39123759 0.08151393 0.00000449
-0.37444552 0.39983665 -0.00000051
-0.27205598 0.02978603 0.00000745
-0.61866869 0.07702715 0.00000020
-0.02956988 0.08321760 0.00001031
0.13980993 0.03960972 0.05648650
0.34554566 -0.38745405 0.13960858
-0.09141936 0.36139084 0.00000520
-0.21767486 0.30473610 0.00000409
-0.03578814 0.25308694 0.00000766
-0.54028329 -0.05410842 -0.00000080
0.13346501 0.18618099 0.05393077
0.56244089 -0.02861850 0.22723843
0.20775463 0.47184965 0.08393745
0.28496085 -0.00263149 0.11513089
-0.53407503 0.21474607 -0.00000048
0.70639069 -0.10538136 0.28539710
-0.60756648 -0.10030560 -0.00000100
-0.74418196 0.05348534 -0.00000182
-0.71484640 -0.24359337 -0.00000121
-0.47433468 0.28784495 -0.00000055
0.60868592 0.10987829 0.24592213
0.43217582 -0.21022546 0.17460903
-0.08019152 -0.25733589 0.00000000
-0.44286037 -0.79632938 0.00000000
0.14835503 -0.29195865 0.05993892
-0.54785374 -0.37868871 -0.00000025
0.66728014 0.05364700 0.26959590
0.02619254 -0.51981356 0.01058240
0.10851994 0.12342914 0.04384461
0.35039402 -0.16362969 0.14156743
-0.10633327 -0.24338243 0.00000000
-0.07667121 0.35455910 0.00000552
-0.12969857 0.10957532 0.00000840
0.49101812 -0.35399284 0.19838269
-0.42738381 0.07932157 -0.00000055
-0.61349196 0.09479048 -0.00000137
-0.58718955 -0.78783282 0.00000000
0.33820616 0.06228626 0.13664304
-0.66267792 -0.17497434 -0.00000110
0.33047870 -0.77899613 0.13352117
0.19822862 0.43723100 0.08008880
0.44503286 0.11125433 0.17980306
-0.44343935 -0.01821403 -0.00000045
-0.11928089 0.59389255 -0.00000014
0.71972782 -0.55186770 0.29078614
0.42960370 -0.56636992 0.17357000
-0.44949153 0.25784751 -0.00000096
-0.19738434 0.48355716 -0.00000028
0.14561904 0.38806985 0.05883352
-0.63181656 -0.23689967 -0.00000086
-0.25929392 -0.45960192 0.00000000
0.72548198 0.00341873 0.29311020
0.52832369 -0.59769789 0.21345520
0.56808426 -0.67790782 0.22951940
0.62313070 0.09991763 0.25175862
-0.45888349 -0.63503104 0.00000000
0.66381253 -0.48840646 0.26819524
0.45198185 -0.17994879 0.18261102
0.57096143 -0.72551868 0.23068185
-0.41591957 -0.16016737 -0.00000008
-0.32341016 0.31726810 -0.00000053
0.26316135 -0.10637257 0.10632338
-0.57253583 -0.75653233 0.00000000
0.15771054 -0.17731046 0.06371877
-0.27023194 -0.68227292 0.00000000
-0.45769031 -0.46694547 0.00000000
0.40535218 0.13261705 0.16377529
0.17458619 -0.04729978 0.07053693
-0.13922537 0.17662532 0.00000725
0.18127893 -0.32286353 0.07324095
0.29416398 -0.42991444 0.11884917
0.27337607 0.18862702 0.11045577
0.32661943 0.23488512 0.13196525
-0.39323614 0.07719625 -0.00000040
0.48889304 -0.68908964 0.19752429
-0.12173393 -0.40048807 0.00000000
-0.17541963 -0.00043453 0.00000000
0.05270232 0.05934123 0.02129298
0.01419580 -0.02777794 0.00573544
-0.05421185 -0.20852032 0.00000000
0.62188779 -0.07426086 0.25125622
0.43080648 -0.03923780 0.17405554
0.66308224 -0.05872242 0.26789957
-0.17249656 0.31518434 0.00000467
0.05901886 0.06525556 0.02384501
-0.33098142 0.17995523 -0.00000032
-0.06921537 -0.43908237 0.00000000
-0.20049741 -0.12053354 0.00000000
0.28152748 0.04636015 0.11375158
0.14037709 0.59935923 0.05671627
-0.19447064 0.58202527 -0.00000009
-0.05487014 0.49485553 0.00000000
-0.58444261 -0.11366743 -0.00000088
0.40077212 -0.70824960 0.16192137
0.12324423 -0.51117147 0.04979357
0.11433042 0.55366949 0.04619426
-0.40739459 0.03268587 0.00000499
-0.16872997 0.24898420 0.00000572
-0.02732961 0.74662984 -0.00000002
-0.51609546 -0.30604244 -0.00000025
0.23546025 0.08897953 0.09513932
-0.05227027 0.65165734 0.00000144
-0.34498260 -0.15972132 0.00000000
0.41837389 0.17539951 0.16903526
0.72313127 -0.23705020 0.29216080
-0.15976498 0.13884108 0.00000751
-0.37118605 0.14060632 -0.00000042
0.69977573 -0.69982173 0.28272531
0.15576301 0.46688644 0.06293182
0.23453231 0.20895437 0.09475654
0.33526148 0.20893409 0.13545312
-0.73424653 -0.26773759 -0.00000125
0.31238690 -0.79845990 0.12621165
-0.09922345 -0.43468741 0.00000000
0.45819951 -0.05695137 0.18512289
-0.37617135 -0.36269647 0.00000000
-0.33336554 -0.21830804 0.00000000
0.19289077 0.04740394 0.07794152
0.02822168 0.25412851 0.01140222
0.62874750 -0.54137056 0.25402835
0.34391838 -0.63604248 0.13895112
-0.66573129 -0.72143566 -0.00000015
0.34065064 0.37847950 0.13763114
0.16841225 0.12048821 0.06804251
0.46088725 -0.43732307 0.18620929
-0.07898268 0.36486203 0.00000534
0.06677452 0.55444497 0.02697848
-0.73439050 -0.75572212 -0.00000011
0.25507215 -0.28656324 0.10305515
0.24801442 -0.03676961 0.10020366
0.41646037 -0.16446900 0.16825961
0.26293589 -0.77780064 0.10623228
-0.28356584 0.46185608 0.00000020
-0.20837691 0.03848673 0.00000000
-0.19710371 -0.21639535 0.00000000
0.04207775 0.72251789 0.01700035
0.26383550 -0.48827724 0.10659575
0.34840080 0.25818429 0.14076159
-0.04395761 0.49132692 0.00000000
-0.68071071 -0.74878673 -0.00000013
0.25933456 0.23064924 0.10477711
-0.02946277 -0.62132217 0.00000000
-0.72197503 -0.57374092 -0.00000057
-0.16038597 0.09684357 0.00000813
0.38250327 0.34419242 0.15453954
0.25731745 -0.01420958 0.10396230
0.64647373 -0.76029242 0.26119039
-0.04682286 -0.31078251 0.00000000
0.28338562 0.47817559 0.11449385
0.28447461 0.18903514 0.11493958
0.61059528 -0.27050004 0.24669411
0.74080259 -0.02541481 0.29930007
-0.68284063 -0.06525893 -0.00000138
-0.01290769 -0.13684899 0.00000000
0.18169046 -0.34899802 0.07340722
0.10686441 -0.20659608 0.04317574
-0.18872230 0.40864885 0.00000291
0.34724473 0.19983590 0.14029460
0.07639783 0.68287806 0.03086701
-0.33470523 0.02367541 -0.00000006
0.16069811 0.40612035 0.06492578
0.43602949 -0.49110452 0.17616617
0.21830672 0.31172957 0.08820093
-0.63231706 -0.12979324 -0.00000105
-0.70910703 -0.08022274 -0.00000147
0.02503036 -0.68542458 0.01011285
-0.56993269 0.09146670 0.00000089
-0.39908995 0.07873484 0.00000438
-0.18909929 0.19480575 0.00000622
-0.18694371 0.50475986 -0.00000028
-0.49386807 0.16661340 0.00000110
0.10105047 0.61746936 0.04082665
0.10421518 0.43691656 0.04210538
0.01254513 0.17465157 0.00507821
0.33632778 -0.26449889 0.13588434
-0.25333294 -0.29407063 0.00000000
-0.58520890 -0.16777440 -0.00000079
-0.03213341 0.16099568 0.00000000
-0.12674009 0.22803623 0.00000000
-0.36606471 -0.31381325 0.00000000
0.02661524 -0.65389884 0.01075319
0.13194218 0.49281784 0.05330769
-0.15115103 -0.75876632 0.00000000
0.47877743 0.00640457 0.19343669
-0.68127813 -0.69845627 -0.00000025
-0.35408923 0.37350635 -0.00000076
0.35076186 -0.39598170 0.14171604
0.65295513 0.01614847 0.26380790
-0.39575369 -0.26889787 0.00000000
0.31076664 0.18819974 0.12555675
0.51709350 0.22472329 0.20891682
0.05418017 0.10387169 0.02189006
0.62498874 -0.31802791 0.25250942
0.16459864 0.34904348 0.06650172
0.63871452 0.08470115 0.25805478
-0.20384166 -0.64741933 0.00000000
-0.77652227 -0.23069060 -0.00000142
-0.20310715 0.55033787 -0.00000043
-0.01784655 -0.35984959 0.00000000
0.58526067 0.09629375 0.23645916
0.19489414 0.46017656 0.07874157
0.15755767 0.01486255 0.06366713
0.23741407 -0.26546398 0.09592087
-0.12115766 0.58065766 0.00000134
-0.42003660 0.03543712 0.00000471
-0.12272379 0.49094844 0.00000000
-0.12368528 0.55307557 -0.00000009
0.03679491 -0.76480549 0.01486601
-0.38134542 0.26263652 -0.00000068
0.31398492 -0.59918842 0.12685730
0.29156112 -0.20951256 0.11779755
-0.46242221 0.12881919 0.00000233
0.59760715 -0.00567657 0.24144626
0.08165768 0.45097572 0.03299596
-0.35121967 -0.40498499 0.00000000
0.42018819 0.31678802 0.16976503
0.01851887 0.06068971 0.00749345
0.18099284 0.06333895 0.07312537
0.14418965 -0.11347920 0.05825601
0.65646010 -0.58156203 0.26522484
0.08116608 0.52361940 0.03279620
-0.14916696 0.61116875 0.00000029
0.69298497 -0.29899458 0.27998121
0.36232421 -0.51105957 0.14638750
0.31012511 0.04048884 0.12530523
0.09985318 0.46992128 0.04034681
-0.19117194 0.40806313 0.00000288
-0.60491311 -0.77562733 0.00000000
0.30953951 0.00562910 0.12506123
0.67607546 -0.64977308 0.27314990
0.10417334 -0.57932427 0.04208848
-0.06441860 0.12751713 0.00000000
-0.59951431 -0.56250370 -0.00000015
-0.35824252 0.22176302 -0.00000051
0.35567427 0.35085065 0.14370123
-0.18288167 -0.53223544 0.00000000
-0.33413922 -0.08841192 0.00000000
-0.37390657 0.32412983 0.00000077
-0.70588683 -0.78764097 -0.00000003
-0.07510025 0.57696962 0.00000000
-0.16426431 -0.40001293 0.00000000
-0.07282485 -0.45665156 0.00000000
-0.57073007 0.02233922 0.00000203
0.37187996 0.08733286 0.15024788
-0.06770508 0.53270712 0.00000000
-0.34984035 0.17212679 -0.00000038
-0.24941269 -0.12286555 0.00000000
0.05293046 -0.62436738 0.02138515
-0.60043719 -0.73376062 0.00000000
0.45308559 -0.70694799 0.18305724
-0.42112709 -0.02502667 -0.00000034
-0.47704122 -0.24659157 -0.00000019
0.18233090 -0.03552549 0.07366597
-0.25633034 0.45364492 -0.00000048
-0.11922636 0.27680756 0.00000605
-0.28237111 0.00491950 0.00000767
0.61551670 0.00440367 0.24868206
-0.54593500 0.14462152 -0.00000117
0.15713367 0.59581045 0.06348540
0.54340777 0.15020044 0.21954953
-0.03243932 -0.65135953 0.00000000
0.20978640 0.08860658 0.08476686
-0.16486795 0.53111303 0.00000133
-0.70667815 -0.46983017 -0.00000077
0.52439614 -0.69355430 0.21186838
0.55747045 -0.18593042 0.22523050
0.09384812 -0.31151533 0.03791685
-0.66532853 -0.33135670 -0.00000084
0.08149091 0.19569009 0.03293261
-0.53537313 0.09556401 0.00000149
-0.29206226 0.26667616 -0.00000030
0.12596927 0.02250472 0.05089455
0.04518121 0.51284141 0.01825427
-0.43483364 -0.53836012 0.00000000
-0.49963647 0.08162978 0.00000240
-0.51427763 -0.68823321 0.00000000
-0.07183755 0.65025447 -0.00000004
0.04875148 -0.43967271 0.01969674
0.35346717 -0.72663503 0.14280905
0.44199844 0.19099562 0.17857698
-0.06839190 0.53009044 0.00000302
-0.12711891 -0.47822600 0.00000000
0.13417024 -0.55566225 0.05420793
-0.25487452 0.12632101 0.00000000
0.16278947 -0.78702651 0.06577078
-0.29108358 -0.69323326 0.00000000
0.51086845 -0.11482713 0.20640227
-0.42128786 0.08819328 -0.00000054
0.50897203 -0.34085162 0.20563641
-0.19831963 -0.55545396 0.00000000
-0.02086970 -0.63838753 0.00000000
0.66096411 -0.65311285 0.26704464
-0.08570764 -0.52075642 0.00000000
0.33948655 -0.47882433 0.13716055
-0.17081858 0.48236592 0.00000203
0.10763284 0.02127346 0.04348620
-0.44792548 -0.04525900 -0.00000042
-0.12731407 0.14983450 0.00000000
-0.31795666 -0.67271223 0.00000000
-0.09278158 0.15665126 0.00000000
0.25457198 0.09685394 0.10285307
0.11684257 -0.18022928 0.04720715
-0.13493160 0.20227455 0.00000693
0.39612106 -0.44785971 0.16004223
-0.18536854 0.28104884 0.00000000
0.20396559 0.15035462 0.08241422
0.37868116 -0.54242184 0.15299610
0.61221874 -0.41477865 0.24735022
-0.36901739 -0.38501967 0.00000000
0.11934490 0.05404380 0.04822820
0.49363542 -0.79044596 0.19944032
-0.64732455 -0.01771839 -0.00000132
-0.01620448 -0.43505915 0.00000000
-0.27063970 -0.54630612 0.00000000
0.11689894 0.17328207 0.04723813
-0.06325941 0.06954988 0.00001000
-0.35141598 0.35967187 0.00000061
-0.31209183 0.10568766 0.00000560
-0.38359850 -0.37508666 0.00000000
0.10406208 0.34427739 0.04204353
0.37912889 -0.57811278 0.15317699
-0.23301619 -0.40011669 0.00000000
-0.05592190 0.29519226 0.00000673
-0.28732474 0.45067754 -0.00000061
-0.04620050 0.61799025 0.00000000
0.01240421 0.27720256 0.00501159
0.43871300 -0.39565659 0.17725037
0.04706429 0.35838101 0.01901508
0.47424521 0.01314713 0.19161040
-0.67797483 0.09101791 -0.00000164
-0.31701168 -0.33320632 0.00000000
-0.35039094 0.42391560 -0.00000045
0.20253471 -0.50639119 0.08182879
0.36477906 0.03095090 0.14737906
-0.17320983 0.06592627 0.00000840
0.39078895 -0.21386773 0.15788792
0.05361587 0.60916350 0.02166207
0.49357523 -0.69662655 0.19941601
0.11845915 0.04938962 0.04786028
0.66685299 -0.12830791 0.26942312
-0.38270363 0.23130812 0.00000215
0.62402408 -0.10077254 0.25211936
0.60631189 -0.47467125 0.24496383
-0.17960358 -0.46014914 0.00000000
-0.50556024 -0.08972556 -0.00000058
0.27343365 -0.16355555 0.11047363
-0.19046731 -0.78747692 0.00000000
0.15601842 -0.60688439 0.06303511
-0.44052272 -0.40305237 0.00000000
0.26487604 0.24045312 0.10702077
-0.17240337 0.16693400 0.00000000
-0.72311516 0.03212401 -0.00000106
-0.01441027 -0.01445946 0.00000000
-0.77485730 -0.21872853 -0.00000145
0.53492600 -0.28314517 0.21612224
-0.19040248 0.07175643 0.00000000
0.15151993 -0.16798633 0.06121762
-0.19910120 0.24084401 0.00000000
-0.73432443 -0.14622008 -0.00000146
0.19429062 0.40667153 0.07849782
0.03611288 0.70153035 0.01459045
0.06510272 0.61939546 0.02630495
-0.25115326 0.05915566 0.00000000
0.34667165 0.38587530 0.14006279
0.70808229 -0.44091963 0.28608099
-0.70852532 -0.62449360 -0.00000044
0.09508750 0.18633225 0.03842590
-0.19166216 -0.22734781 0.00000000
0.08984651 -0.57035270 0.03630010
0.51046528 0.05040943 0.20624263
0.11982355 -0.19815886 0.04841153
-0.45834073 0.11712741 0.00000260
-0.30949887 0.04824250 0.00000000
-0.15602556 0.59968878 -0.00000031
0.01501821 -0.27301090 0.00606771
-0.01917963 -0.21967556 0.00000000
0.61252756 -0.77491485 0.24747552
-0.30482011 -0.10938711 0.00000000
-0.05189040 0.12871117 0.00000000
0.00015131 0.43033612 0.00006696
0.15829549 0.53803384 0.06395649
-0.62802722 -0.39275365 -0.00000057
0.13812665 0.25610429 0.05580642
0.16789157 0.03382673 0.06784182
0.20331551 0.51405194 0.08214506
-0.22664826 0.54383042 -0.00000051
-0.49174449 0.29703900 -0.00000121
0.15959871 0.46684056 0.06448151
0.26853572 0.17170744 0.10849465
-0.60715346 -0.48355884 -0.00000032
0.17812158 0.51816333 0.07196662
0.21846101 0.46315987 0.08826483
-0.23663390 -0.04517238 0.00000000
-0.03610626 0.12555323 0.00000000
0.01238463 0.04193132 0.00501546
-0.77037381 -0.67613502 -0.00000031
-0.17239301 -0.49770158 0.00000000
-0.23255958 -0.34315557 0.00000000
-0.06669796 0.56712098 0.00000249
0.04281240 0.73599361 0.01729746
-0.06514995 -0.77615547 0.00000000
0.55303622 0.04128846 0.22343866
-0.08848819 -0.79588085 0.00000000
-0.11607288 0.27931520 0.00000000
0.57887918 -0.24108708 0.23388013
0.39416531 -0.48309945 0.15925206
-0.16463723 0.50691155 0.00000173
-0.15766183 0.34059047 0.00000451
-0.70617910 0.03731696 -0.00000082
0.37102543 0.02961197 0.14990272
-0.08735386 0.12142197 0.00000000
-0.32525215 0.45119849 -0.00000042
0.73177362 -0.51634185 0.29565282
0.36818643 -0.46677913 0.14875598
0.57252068 0.09265252 0.23131069
-0.12259336 -0.31064762 0.00000000
0.03010616 0.52578112 0.01216749
0.13734521 -0.57483046 0.05549070
0.00412812 -0.49287303 0.00166786
-0.41197878 -0.21888659 0.00000000
-0.36697965 0.35350685 -0.00000078
0.17759409 0.46828472 0.07175200
0.61358317 -0.49413757 0.24790160
0.72447494 -0.15128731 0.29270356
-0.64304602 0.06071610 -0.00000144
-0.03924453 0.75539816 -0.00000001
0.14160897 0.09789635 0.05721336
-0.44978512 0.22221066 0.00000101
-0.00383845 0.36568527 0.00000000
-0.34642569 0.31076812 0.00000152
-0.03416390 0.35407780 0.00000000
0.26685445 -0.26205388 0.10781547
0.31088743 -0.74605051 0.12560583
-0.32062184 -0.53310003 0.00000000
0.11755327 -0.35101253 0.04749429
0.40255706 0.35325958 0.16264165
-0.35648998 0.11843767 0.00000454
0.39775870 -0.78491291 0.16070387
-0.00244027 0.42843853 0.00000554
0.32112484 -0.52465184 0.12974199
-0.23294274 0.33194785 0.00000335
-0.35130393 0.40111796 -0.00000079
0.56739532 -0.05677015 0.22924016
0.69922734 -0.43557683 0.28250342
0.51828449 -0.09118201 0.20939846
0.03957995 0.21482161 0.01599123
-0.28807831 -0.68682906 0.00000000
-0.07258158 0.07638602 0.00000976
0.44720631 -0.65140045 0.18068187
-0.42749649 -0.45428798 0.00000000
-0.63804953 -0.17323378 -0.00000100
-0.62605075 0.07269450 0.00000013
0.24511294 -0.48631975 0.09903140
-0.01955902 -0.11100717 0.00000000
-0.24263697 -0.76091286 0.00000000
0.57613443 0.13510742 0.23277142
-0.40685870 0.16868450 -0.00000062
0.03382865 -0.16618587 0.01366757
0.73237289 -0.18592132 0.29589452
0.02212445 -0.59281304 0.00893880
0.28388302 -0.45377303 0.11469542
0.00311366 0.21799513 0.00126713
-0.12326079 -0.55327521 0.00000000
-0.28833356 -0.66850335 0.00000000
0.31011353 -0.22667733 0.12529316
0.56874791 -0.15147511 0.22978677
0.23482489 0.37344112 0.09487451
-0.26636266 0.21248507 0.00000470
-0.40349917 -0.23606920 0.00000000
-0.16349505 -0.69345291 0.00000000
-0.22242461 0.53377093 -0.00000048
-0.14235666 0.22612265 0.00000646
-0.08063379 0.26205679 0.00000000
0.42286253 0.14542422 0.17084924
0.63094743 -0.76019470 0.25491747
-0.51413793 -0.35247153 -0.00000016
0.50120595 -0.54530452 0.20249899
0.49166075 -0.38472209 0.19864237
0.06745057 0.33280836 0.02725802
0.73625479 -0.16712322 0.29746285
0.46646190 0.10924149 0.18846082
-0.75896404 -0.28776733 -0.00000128
0.24950416 -0.02007060 0.10080555
-0.41173928 -0.75022035 0.00000000
-0.56173394 -0.69537326 0.00000000
0.03034129 -0.30275366 0.01225859
0.04575272 0.57596425 0.01848518
0.27104310 0.42636909 0.10950873
0.42481550 -0.13811492 0.17163521
0.11027532 -0.67334870 0.04455383
0.32443143 0.23931897 0.13108121
0.04634780 -0.37334902 0.01872560
0.04225546 -0.60640553 0.01707220
0.54226981 -0.51570500 0.21908962
0.02903660 0.01986171 0.01174336
-0.52318403 -0.26399684 -0.00000035
0.55967166 -0.48467408 0.22612027
-0.18566004 -0.06347921 0.00000000
0.59520262 -0.68938166 0.24047577
0.26584400 -0.25908702 0.10740723
0.12438594 0.29621334 0.05026101
0.54358918 -0.79829689 0.21962282
-0.02342239 0.33888498 0.00000000
0.02898764 0.14961724 0.01172153
-0.62915970 -0.53172631 -0.00000033
-0.43528506 -0.35185935 0.00000000
0.14178989 0.44980546 0.05728643
-0.26325264 0.50756345 -0.00000061
0.50969905 -0.56311826 0.20593040
-0.53307349 0.19260718 -0.00000009
-0.10506062 0.08893530 0.00000908
-0.28464152 -0.55408475 0.00000000
-0.11560093 0.10891809 0.00000862
-0.06126333 0.66996156 -0.00000003
-0.20610192 -0.07100095 0.00000000
0.09721075 -0.75242015 0.03927543
-0.51130045 -0.27045535 -0.00000029
-0.03741343 0.52474320 0.00000000
0.45327330 -0.40049476 0.18313308
-0.18544042 0.25905723 0.00000000
-0.17111329 -0.78604000 0.00000000
0.33016761 0.26245111 0.13339820
-0.02506082 -0.15098794 0.00000000
0.13023780 0.17403185 0.05262714
-0.58363096 -0.18645823 -0.00000075
-0.36770912 -0.02509072 -0.00000011
0.40720358 -0.38026275 0.16451983
0.18262588 -0.39749438 0.07378515
-0.14999611 -0.55486034 0.00000000
-0.04461911 0.24718947 0.00000000
0.06257778 -0.65106696 0.02528289
-0.10822204 -0.30903314 0.00000000
0.44692445 -0.71591150 0.18056799
-0.12891405 0.24598958 0.00000636
-0.12039773 0.67811852 -0.00000028
-0.58384181 -0.51037584 -0.00000018
0.11345055 0.18967002 0.04584469
0.53523239 -0.24906414 0.21624598
0.37965209 0.14280136 0.15338789
-0.17780856 0.40768481 -0.00000007
-0.32588396 0.44576731 -0.00000076
-0.45191295 0.22830388 -0.00000092
0.04977946 0.37958014 0.02011799
-0.00722834 -0.16178735 0.00000000
-0.16097533 0.41967471 -0.00000001
-0.52500252 -0.70313734 0.00000000
0.13470663 0.36219624 0.05442465
0.02881465 0.19735642 0.01165089
0.02979278 -0.01148151 0.01203699
-0.29136081 -0.21572818 0.00000000
-0.53460624 -0.48460114 -0.00000001
-0.22198308 -0.43559471 0.00000000
-0.60359911 0.06458509 -0.00000128
0.04266942 -0.77537096 0.01723945
0.23990192 0.13738070 0.09692602
-0.10414390 -0.62148979 0.00000000
-0.37860746 -0.60811398 0.00000000
0.15869144 -0.53536986 0.06411508
-0.35494961 0.32515291 -0.00000068
0.73583554 -0.52171119 0.29729392
-0.35243560 -0.44394802 0.00000000
0.11880731 -0.53051336 0.04800095
-0.42447096 -0.36474158 0.00000000
0.39729998 0.18007674 0.16051794
0.50319521 -0.14779008 0.20330218
-0.32400203 0.19763935 -0.00000032
-0.20302392 -0.17759189 0.00000000
0.26173689 -0.14195099 0.10574786
-0.02094146 -0.73701167 0.00000000
0.14027524 0.39630485 0.05667886
-0.03530429 0.59699631 0.00000000
-0.15808424 -0.42546610 0.00000000
-0.18309135 -0.67638502 0.00000000
0.40790507 -0.74934851 0.16480324
-0.06592438 0.17266993 0.00000842
0.07986374 0.16432209 0.03227571
-0.06299863 0.34819481 0.00000583
0.43645444 -0.34734748 0.17633786
0.01394594 0.73596741 0.00563530
-0.41441865 0.15537877 -0.00000063
-0.08800551 -0.68956864 0.00000000
0.45635824 -0.30095807 0.18437934
-0.57945251 -0.69705002 0.00000000
-0.12325112 -0.57338425 0.00000000
0.41456351 -0.36833023 0.16749341
-0.25309417 0.14898998 0.00000000
-0.00071469 0.19443185 0.00000907
0.36242415 -0.74565243 0.14642788
0.28796566 0.25537435 0.11634871
-0.77424735 -0.67923936 -0.00000030
0.45743633 0.14199542 0.18481427
-0.08827827 0.41165416 0.00000000
-0.29401292 -0.78972335 0.00000000
0.08988854 0.39988292 0.03632211
0.42396351 -0.58758256 0.17129123
-0.24195623 -0.70138752 0.00000000
0.44755387 0.09506257 0.18082163
0.44433474 0.09101954 0.17952507
-0.35239617 -0.22930547 0.00000000
-0.41873203 -0.52016500 0.00000000
-0.30943978 0.32308962 -0.00000048
0.03155931 -0.47027660 0.01275071
-0.37397188 0.08090521 0.00000483
-0.27310763 0.41261457 0.00000123
0.37596685 -0.45961382 0.15189945
0.00142902 -0.10811380 0.00057736
-0.05833732 0.37933394 0.00000543
0.65473400 -0.16346974 0.26452686
0.27716927 0.20796244 0.11198786
-0.41821872 -0.68285893 0.00000000
0.36092176 -0.50320282 0.14582088
-0.16367867 -0.79220448 0.00000000
-0.12308678 -0.41996420 0.00000000
0.32039539 0.07047816 0.12944712
-0.13201780 -0.27456562 0.00000000
-0.02429592 0.10865358 0.00001000
-0.04082107 0.74609869 -0.00000008
0.02603274 0.36113314 0.01051784
-0.37538512 0.01812785 -0.00000022
0.50811930 0.05587673 0.20529475
-0.02518163 -0.64321830 0.00000000
0.39116478 0.23695674 0.15804159
0.55050110 -0.26571440 0.22241486
0.64378401 -0.66549853 0.26010357
0.40091544 0.32328309 0.16197845
0.09841366 -0.33439314 0.03976144
-0.17534385 -0.05017604 0.00000000
0.08961341 0.38559407 0.03621118
0.10426713 0.03570551 0.04212637
0.50091479 -0.78945997 0.20238136
-0.02287702 -0.45894034 0.00000000
0.52463713 -0.59132365 0.21196574
-0.02131931 0.45047411 0.00000000
-0.24708542 -0.76359563 0.00000000
-0.04217806 -0.48355170 0.00000000
-0.40776350 0.37633206 -0.00000099
0.21284101 0.34931369 0.08599651
-0.04208546 0.27976519 0.00000717
0.37554554 0.20062750 0.15172869
-0.37636278 0.37314063 -0.00000010
-0.24019964 -0.08972970 0.00000000
-0.18084349 -0.47107592 0.00000000
0.37057427 0.03210605 0.14972044
-0.50782499 -0.34364895 -0.00000015
0.09554236 0.30124973 0.03860136
-0.02627056 -0.72540550 0.00000000
-0.44219381 0.11365746 -0.00000067
-0.54097392 -0.63411123 0.00000000
-0.30873307 0.10646610 -0.00000009
0.07413479 0.47882697 0.02995220
-0.00777856 -0.41252795 0.00000000
0.23214663 0.37580799 0.09379244
-0.27255539 0.09804410 0.00000642
-0.04008288 0.09286121 0.00000000
-0.27209975 -0.31631723 0.00000000
-0.45167015 0.16110882 0.00000200
-0.40597132 -0.16196121 -0.00000003
0.32281554 0.31477845 0.13042456
0.01979509 -0.36503782 0.00799768
-0.31642503 0.25961608 0.00000295
-0.64868277 -0.08365641 -0.00000121
-0.40861900 -0.04048423 -0.00000026
0.33718082 -0.59987346 0.13622898
-0.00227844 0.03892650 0.00000000
0.61370793 -0.65631642 0.24795224
-0.06806717 -0.06947921 0.00000000
-0.20849147 0.41139550 -0.00000020
-0.19760378 -0.69069439 0.00000000
0.41141713 0.23396073 0.16622361
0.20221210 -0.04752927 0.08169845
-0.43840555 -0.39218804 0.00000000
-0.19553983 -0.13687494 0.00000000
-0.78435712 -0.49262758 -0.00000077
0.53556473 0.04980170 0.21638284
0.21963782 0.37646793 0.08874190
0.47825710 -0.41234064 0.19322707
-0.51101301 -0.66595998 0.00000000
0.09700528 -0.59479252 0.03919241
0.40080157 0.28862631 0.16193249
0.20754893 0.25967399 0.08385465
-0.35143280 -0.68131843 0.00000000
-0.44265022 0.30615932 -0.00000025
0.31955664 -0.15718239 0.12910840
0.05133034 0.62813087 0.02073867
0.00431303 0.37234699 0.00174925
-0.12320697 0.33177421 0.00000516
0.35672517 0.13679031 0.14412986
-0.18618155 -0.65032143 0.00000000
-0.48615098 -0.62399201 0.00000000
-0.39897809 0.10922084 0.00000388
