ply
format ascii 1.0
element vertex 1403
property float x
property float y
property float z
end_header
0.57497736 -0.28826703 -0.00000027
-0.58256533 0.75581307 0.00000000
0.14818050 -0.66332707 0.00000000
0.11183582 0.69045020 0.01848141
0.43841735 0.42418262 0.50588906
0.12576666 0.26835714 0.00000000
-0.59763325 -0.46944953 0.00000000
-0.48286712 0.46354989 0.00000000
0.17065709 -0.44964494 0.00000000
-0.20104026 -0.68880793 0.00000000
0.38034071 0.45241492 0.26470992
-0.09636179 0.61677903 0.00000000
0.04188158 0.76125862 0.02538424
0.27919126 0.42025600 -0.00000026
-0.00001834 -0.44525077 0.00000000
-0.03937122 0.67120786 0.00000000
-0.52261027 -0.64308280 0.00000000
0.37041874 -0.28089938 0.00000000
-0.63941968 -0.21459225 0.00000000
-0.62788811 0.44645494 0.00000000
0.60238464 -0.40655941 -0.00000022
0.30637894 0.37631347 -0.00000028
0.44574336 0.37461622 0.16453517
-0.38876330 -0.62206323 0.00000000
0.56206574 -0.15559005 -0.00000035
0.53075262 -0.12118139 -0.00000032
-0.60389129 0.15611243 0.00000000
-0.05711976 0.60484701 0.00000000
-0.31120627 -0.46069411 0.00000000
-0.64815510 0.19983188 0.00000000
-0.02788109 0.12587926 0.00000000
0.37590904 0.15082708 -0.00000023
0.02696699 -0.01195189 0.00000000
0.18752586 0.45421422 -0.00000009
-0.01529174 -0.64431759 0.00000000
0.14331446 -0.70792936 0.00000000
0.50962085 -0.30704625 -0.00000011
0.43939373 0.41675575 0.45376093
-0.40751633 -0.01600317 0.00000000
-0.32874754 0.06191725 0.00000000
0.30054629 0.52534090 0.20920524
-0.04485635 -0.63330524 0.00000000
-0.53218253 -0.31720857 0.00000000
-0.70029341 -0.70680449 0.00000000
0.35390168 0.45449338 0.06784882
0.52643766 0.32106789 0.38390597
0.76516790 -0.06721965 -0.00000087
0.40242624 0.41578580 0.14718075
0.09467352 0.67277180 -0.00000009
-0.39927383 -0.18071507 0.00000000
0.41604230 0.41118055 0.21999788
0.57016647 -0.09908919 -0.00000042
-0.73322155 0.29025082 0.00000000
0.16381924 0.66242514 0.21209356
-0.23075186 -0.10439060 0.00000000
-0.40942525 -0.53020667 0.00000000
-0.03086415 0.17861394 0.00000000
0.49638530 0.35121496 0.38467176
-0.40256587 -0.56376436 0.00000000
-0.79705642 0.50657304 0.00000000
0.39437093 0.42181479 0.13080586
-0.51511631 0.13951849 0.00000000
0.75831964 0.01697461 -0.00000093
0.43086754 0.16643904 -0.00000036
0.37141960 -0.20911055 0.00000000
0.12448974 -0.73879985 0.00000000
0.37590046 -0.43259120 0.00000000
-0.73649722 -0.49948373 0.00000000
0.12591479 -0.12728817 0.00000000
0.39406820 -0.77330655 0.00000000
0.54560881 0.29437399 0.32311245
0.01624539 0.78515784 0.01134759
0.49182070 -0.70960793 0.00000000
-0.41658946 -0.66875950 0.00000000
-0.26316401 0.17479039 0.00000000
-0.71074561 -0.01406159 0.00000000
-0.59646296 0.79001151 0.00000000
0.09217078 -0.11929819 0.00000000
0.32277129 0.11300380 -0.00000008
0.61269308 0.11421264 -0.00000070
-0.33677338 -0.63511461 0.00000000
0.44102918 0.18415835 -0.00000040
0.05770100 0.13198482 0.00000000
0.37147782 0.15101523 -0.00000022
0.43399827 0.21455638 -0.00000041
-0.12227816 0.65308477 0.00000000
-0.11220537 0.32298647 0.00000000
-0.56561330 0.19374721 0.00000000
-0.45898572 0.29703832 0.00000000
-0.60833987 -0.70963956 0.00000000
-0.70135390 -0.58567738 0.00000000
-0.42832344 0.44168120 0.00000000
-0.27291729 0.02807233 0.00000000
0.60459743 -0.56569039 -0.00000008
0.30190153 -0.17114039 0.00000000
-0.61677196 0.76099673 0.00000000
-0.17069029 0.21029857 0.00000000
-0.30037343 0.05737295 0.00000000
0.46474752 0.38829556 0.42865699
0.28182592 0.56087495 0.34508119
0.36480808 0.45210905 0.13671653
-0.44433315 -0.20064808 0.00000000
-0.05380015 -0.09967261 0.00000000
0.65496213 -0.19011713 -0.00000052
-0.24229705 0.03345895 0.00000000
0.06513718 0.47364373 0.00000000
0.20233444 -0.75306844 0.00000000
-0.45121238 -0.05157544 0.00000000
-0.42067651 0.66837982 0.00000000
0.42308224 0.41057760 0.27201650
0.71647006 -0.17069991 -0.00000067
-0.74323153 0.34790338 0.00000000
-0.41034737 0.20548712 0.00000000
0.52951207 0.31198023 0.33531127
0.50981357 0.15909495 -0.00000052
0.52876627 0.31008484 0.31396716
-0.41131216 -0.54543215 0.00000000
-0.36155094 0.37242851 0.00000000
0.51366204 -0.22096503 -0.00000019
0.05485075 0.48893996 0.00000000
-0.66355084 0.14159601 0.00000000
-0.70728560 -0.41696070 0.00000000
0.41740138 0.42186241 0.31730360
-0.48827730 -0.28749513 0.00000000
-0.00118618 -0.23287181 0.00000000
-0.16321743 0.68213651 0.00000000
-0.49649322 -0.74722534 0.00000000
0.12446548 -0.61186281 0.00000000
-0.37209350 0.52519190 0.00000000
-0.46187863 0.21425770 0.00000000
-0.62480548 0.47537960 0.00000000
0.21153752 -0.73152708 0.00000000
-0.55194586 0.46164648 0.00000000
-0.64543119 0.01316799 0.00000000
-0.29873432 -0.74431287 0.00000000
-0.10365726 -0.21880856 0.00000000
0.32187900 -0.41721533 0.00000000
0.19924912 0.46427977 -0.00000013
-0.09651748 -0.77859415 0.00000000
0.26496830 0.34226012 -0.00000016
-0.31590526 0.39176119 0.00000000
0.61785117 0.20703565 0.20112002
-0.53573206 -0.06144564 0.00000000
0.64045594 0.17802947 0.14938960
-0.70250605 0.77136851 0.00000000
0.01624462 -0.24363733 0.00000000
0.63820881 -0.72326385 -0.00000002
0.39771334 -0.17356916 0.00000000
0.53444006 -0.65023298 0.00000000
-0.08444899 -0.26604517 0.00000000
0.13423106 0.42237297 0.00000000
0.18734242 0.62464973 0.09691744
-0.37038466 -0.07213325 0.00000000
-0.66285801 0.22232400 0.00000000
-0.79106340 0.04127312 0.00000000
0.00778933 -0.21898688 0.00000000
0.51941890 -0.16165894 -0.00000026
-0.52807759 -0.11502791 0.00000000
-0.75610038 0.39325634 0.00000000
-0.04719372 0.73536677 0.00000000
-0.27901628 0.78168182 0.00000000
0.14491019 -0.04055438 0.00000000
-0.38064753 -0.55741834 0.00000000
0.37574998 0.00761231 -0.00000010
-0.56695166 0.05163458 0.00000000
-0.43859493 0.09731904 0.00000000
0.51473170 0.30470342 0.15706434
-0.11220844 -0.06105850 0.00000000
0.05833475 -0.40442387 0.00000000
0.52897511 -0.25701381 -0.00000019
-0.10640619 0.38648618 0.00000000
-0.05682684 0.32226382 0.00000000
0.13386956 -0.22096542 0.00000000
0.46336193 0.35233541 0.12685910
-0.67314763 -0.71974789 0.00000000
-0.53693090 -0.50554211 0.00000000
0.11865904 -0.73195761 0.00000000
-0.73309224 0.04553295 0.00000000
-0.08727651 0.48180735 0.00000000
-0.78456157 0.07684502 0.00000000
0.51618442 -0.28717464 -0.00000014
0.34377892 0.50047326 0.35761692
0.23649004 0.53003893 -0.00000027
0.09106024 -0.65897389 0.00000000
0.57249903 -0.29839334 -0.00000025
0.46093365 -0.61478616 0.00000000
0.10824329 -0.00890139 0.00000000
-0.48366031 -0.38911944 0.00000000
-0.53301295 0.75715945 0.00000000
0.54504954 0.25812664 0.02567438
0.05242352 0.55729305 0.00000000
0.17708991 0.55135646 -0.00000016
-0.71756941 -0.30799621 0.00000000
0.14457075 0.31704865 0.00000000
0.49577593 -0.74173043 0.00000000
0.33073712 0.44469108 -0.00000039
-0.52464926 0.05477432 0.00000000
0.14536916 -0.74554198 0.00000000
0.07852009 0.72550846 0.03256305
0.22518902 -0.34028543 0.00000000
0.51558882 0.17055065 -0.00000054
0.13405275 0.56253952 -0.00000008
-0.64404980 -0.13774066 0.00000000
-0.55222392 -0.67505944 0.00000000
0.49234536 0.32822198 0.16621399
0.37976651 -0.23405995 0.00000000
-0.56320261 0.63350186 0.00000000
0.56290205 -0.14572963 -0.00000037
0.34670094 0.46193640 0.06980678
-0.27087086 0.66691972 0.00000000
0.43134387 0.41459507 0.37124702
-0.48855733 -0.65378871 0.00000000
-0.74892925 0.38067530 0.00000000
-0.27379417 0.55775349 0.00000000
-0.48013179 -0.08338477 0.00000000
0.46538720 0.36229934 0.22374496
0.68562889 -0.64729312 -0.00000018
0.19256292 0.63439302 0.21784347
0.28858918 -0.63206406 0.00000000
0.48062307 -0.69602725 0.00000000
-0.55351163 -0.51636619 0.00000000
0.75647453 -0.10764703 -0.00000081
-0.13159956 -0.55110580 0.00000000
0.25530134 -0.12778319 0.00000000
0.40682256 0.02152409 -0.00000018
0.75250596 -0.40509084 -0.00000049
-0.57408345 -0.73567692 0.00000000
0.78068580 -0.36947680 -0.00000054
0.43176721 -0.06492750 -0.00000016
-0.41928966 -0.72641290 0.00000000
0.08640148 0.48369879 0.00000000
0.25609424 -0.41408827 0.00000000
-0.44937451 0.18083343 0.00000000
0.61791893 0.19000832 0.06406808
-0.01382284 0.71651051 0.00000000
-0.59823221 -0.68867703 0.00000000
-0.45909214 0.13325535 0.00000000
0.58890569 -0.29158563 -0.00000029
0.41911897 0.39762226 0.13529489
0.74422878 -0.12887025 -0.00000077
0.45355017 0.35388466 0.06008898
0.11726905 -0.51538285 0.00000000
0.23868147 -0.02236309 0.00000000
-0.12356266 0.23026430 0.00000000
-0.55370559 -0.30280636 0.00000000
0.41013075 -0.53123022 0.00000000
0.37980252 0.46870811 0.39203018
0.21638773 0.40983429 -0.00000012
0.36359871 -0.56411120 0.00000000
0.03281723 -0.27472688 0.00000000
-0.15642145 -0.19359700 0.00000000
-0.75658768 -0.51899698 0.00000000
0.38888942 0.02373637 -0.00000014
-0.41076841 -0.59623125 0.00000000
0.56068862 0.27777122 0.31080486
0.24429936 -0.51737618 0.00000000
-0.01422636 0.53201430 0.00000000
-0.54051649 0.22961661 0.00000000
0.23882686 0.58134255 0.16299922
-0.24846058 -0.12270957 0.00000000
0.47522674 0.36936886 0.36039061
-0.47435824 0.13552339 0.00000000
0.37922150 -0.10592548 -0.00000001
-0.09687508 -0.69941850 0.00000000
0.63870643 -0.62509386 -0.00000010
0.49980235 0.35084718 0.40931363
0.47771905 0.29979228 -0.00000058
-0.40580804 0.79372227 0.00000000
0.66055981 -0.48908554 -0.00000027
0.57171505 0.04589525 -0.00000055
0.04823356 0.26858794 0.00000000
0.35422592 -0.33505055 0.00000000
-0.29898974 0.33865686 0.00000000
0.43489389 0.40665149 0.33574150
0.24333359 0.18134529 0.00000000
0.56965936 -0.62831481 0.00000000
0.16186671 0.54597981 -0.00000012
0.63077250 -0.74713592 0.00000000
-0.18572869 0.08724016 0.00000000
0.44814877 0.41107010 0.47856542
-0.79691637 -0.70972465 0.00000000
0.31422785 -0.32800553 0.00000000
-0.25607662 -0.71171440 0.00000000
0.62021914 0.21296877 0.26820188
-0.56102493 -0.67045561 0.00000000
-0.74471738 0.77048911 0.00000000
-0.16004544 -0.06268093 0.00000000
0.61881567 0.12304715 -0.00000072
-0.33318613 -0.40125744 0.00000000
0.65269580 -0.15528624 -0.00000055
-0.34168396 0.02422088 0.00000000
-0.79147403 0.37314417 0.00000000
-0.40351982 -0.07648956 0.00000000
-0.49271635 0.09096242 0.00000000
-0.61443489 -0.55433509 0.00000000
-0.51552091 -0.76451921 0.00000000
0.39568702 0.07931499 -0.00000021
0.34105611 -0.72588626 0.00000000
0.17208446 0.33642574 0.00000000
0.60271008 0.20897977 0.09447402
-0.03565267 0.32223321 0.00000000
-0.70367676 0.60931574 0.00000000
-0.61999710 -0.30393006 0.00000000
-0.69062692 -0.16512205 0.00000000
0.44106959 0.40587177 0.37934778
0.29364311 0.51513104 0.07091235
-0.51431598 -0.40687872 0.00000000
-0.20608391 0.70686413 0.00000000
0.36910223 0.46498006 0.27543114
0.28088912 0.10813150 0.00000000
-0.65935651 -0.62402146 0.00000000
-0.78993231 -0.78115080 0.00000000
0.34727434 -0.35114371 0.00000000
-0.69969295 0.23105816 0.00000000
0.46182993 0.35060791 0.10051880
0.64954452 0.16013189 0.07820320
0.18696027 0.61379410 0.00610392
-0.20248478 -0.55550558 0.00000000
-0.39153056 -0.11575626 0.00000000
0.12305009 -0.00314644 0.00000000
0.34179204 0.41738404 -0.00000039
0.56444906 0.25663666 0.17040297
0.19701878 -0.04388543 0.00000000
-0.38918670 0.40015750 0.00000000
-0.31432724 0.22512095 0.00000000
-0.58955809 -0.22659131 0.00000000
-0.42099936 0.15246872 0.00000000
-0.19839137 0.20471887 0.00000000
-0.21773320 0.75951351 0.00000000
0.55851045 0.26685050 0.20495151
0.29483019 -0.44046344 0.00000000
0.46119127 -0.06702682 -0.00000022
0.02902404 0.38200324 0.00000000
-0.00384137 0.66413514 0.00000000
-0.23486746 -0.66893161 0.00000000
0.09126746 0.35723633 0.00000000
-0.59641068 0.08956559 0.00000000
-0.70142434 0.59330154 0.00000000
0.26763403 0.30470277 -0.00000013
0.39962054 0.17457331 -0.00000030
0.58162259 0.22370273 0.04304168
-0.06344321 0.39391175 0.00000000
0.33247145 0.40982095 -0.00000036
-0.57244308 -0.15010973 0.00000000
0.32749415 0.35281221 -0.00000030
0.28381634 0.55268237 0.29495989
-0.59774418 0.46011969 0.00000000
0.66272210 -0.17321210 -0.00000055
-0.00631113 -0.31553154 0.00000000
0.10400883 0.00159378 0.00000000
-0.13051592 0.56905189 0.00000000
0.31616732 0.45490586 -0.00000037
0.53574090 -0.19960292 -0.00000026
0.54060752 -0.27552363 -0.00000020
0.61755665 0.19347876 0.08918542
-0.38824365 0.65837018 0.00000000
-0.11932571 0.44077480 0.00000000
-0.69099441 0.57046058 0.00000000
0.43439560 0.16131710 -0.00000036
0.12578830 -0.68475113 0.00000000
0.04524218 0.00478758 0.00000000
-0.27416812 0.76836311 0.00000000
-0.68603836 0.27059146 0.00000000
0.31213449 -0.72273321 0.00000000
-0.75983784 -0.58303896 0.00000000
-0.22526187 -0.37529697 0.00000000
-0.59537315 -0.07998766 0.00000000
-0.69279807 0.45359232 0.00000000
-0.71223780 0.65850218 0.00000000
-0.53982283 -0.21431723 0.00000000
0.19906194 -0.36447385 0.00000000
-0.79493753 -0.10045855 0.00000000
0.28180674 0.53880625 0.16658331
-0.48899030 0.01481401 0.00000000
-0.27683477 0.02669788 0.00000000
-0.49888962 -0.77496589 0.00000000
0.32410484 0.52563375 0.40195436
-0.05833927 -0.69765558 0.00000000
-0.30210659 0.45822061 0.00000000
-0.40070778 0.50044171 0.00000000
0.72962004 -0.68887710 -0.00000014
-0.51203248 -0.72746769 0.00000000
-0.67592187 0.49038172 0.00000000
0.10518666 -0.47135603 0.00000000
-0.20737808 -0.79131294 0.00000000
-0.79874420 0.01373507 0.00000000
0.03338077 0.29054589 0.00000000
-0.19082412 -0.20690803 0.00000000
0.34253811 0.34936107 -0.00000033
-0.32736929 -0.23420488 0.00000000
-0.53024646 -0.22051840 0.00000000
0.74385972 -0.20911610 -0.00000070
-0.00717240 -0.25354651 0.00000000
0.63366019 -0.65201761 -0.00000007
-0.23089270 0.00862357 0.00000000
-0.01111204 -0.76618083 0.00000000
-0.14777983 -0.51149551 0.00000000
-0.24600951 0.36727667 0.00000000
-0.16880030 -0.07612145 0.00000000
0.28841869 0.00160317 0.00000000
-0.10021808 0.07033772 0.00000000
0.06137703 -0.75250133 0.00000000
-0.51947919 0.48981168 0.00000000
0.70044994 -0.43607856 -0.00000040
-0.41546775 -0.16808855 0.00000000
-0.07541806 0.10926216 0.00000000
-0.69950073 0.55736567 0.00000000
-0.63129339 0.30066878 0.00000000
0.47109020 0.35686163 0.22588885
0.08076717 0.06303957 0.00000000
-0.26084274 0.50977450 0.00000000
0.74823984 0.05456102 0.02264102
-0.34788123 -0.60886438 0.00000000
0.35107417 0.49004336 0.33228499
0.17654159 0.21483637 0.00000000
-0.49949948 -0.74953852 0.00000000
-0.08385686 -0.60296930 0.00000000
0.75109333 -0.12786622 -0.00000078
0.34985245 0.45513137 0.04028229
0.46458690 0.34168856 0.05072001
-0.04639120 0.41333701 0.00000000
0.48981094 -0.08895833 -0.00000026
-0.53472308 -0.39438472 0.00000000
0.45526473 0.28041399 -0.00000051
0.27077372 -0.12282126 0.00000000
0.61621375 -0.43000849 -0.00000023
-0.30349008 0.44719382 0.00000000
0.17903028 -0.55266189 0.00000000
0.09691845 0.70609894 0.02439176
-0.73005751 0.47138982 0.00000000
0.17184015 0.10427756 0.00000000
0.42905152 -0.05637483 -0.00000016
-0.44144833 0.68999516 0.00000000
-0.49870249 0.52796849 0.00000000
0.48047059 -0.33116249 -0.00000003
0.49808489 -0.72453407 0.00000000
0.35494173 0.17675706 -0.00000021
0.47796810 0.36194738 0.32256927
0.59850718 -0.62015869 -0.00000002
0.57255627 0.24792149 0.16548999
-0.05141534 0.15055055 0.00000000
-0.59499444 0.25324848 0.00000000
0.40490373 0.42134178 0.21210001
0.01677843 0.50609724 0.00000000
0.35988184 0.46563361 0.20620034
-0.54123878 0.13491248 0.00000000
0.43770257 -0.64115581 0.00000000
-0.76977974 -0.04239983 0.00000000
-0.45269182 0.69120557 0.00000000
-0.16755082 -0.29197899 0.00000000
0.06314647 0.61825797 0.00000000
-0.62158339 0.17297602 0.00000000
-0.26167769 -0.16824359 0.00000000
-0.18143367 0.07409893 0.00000000
0.57745255 0.23706739 0.11734424
-0.36090609 -0.44589266 0.00000000
-0.36204871 0.57513987 0.00000000
0.64356396 -0.35167736 -0.00000036
0.67968776 -0.54238397 -0.00000026
-0.07819785 0.03264008 0.00000000
-0.26178453 0.43936446 0.00000000
-0.16908994 0.29193017 0.00000000
-0.40102123 0.36281059 0.00000000
0.41408789 -0.15634732 -0.00000004
0.63866752 -0.20223708 -0.00000048
-0.27060125 -0.01632945 0.00000000
0.33629123 0.48581611 0.17865908
0.70686739 0.09384361 0.00575275
-0.21157146 -0.38676703 0.00000000
0.78818897 -0.15600624 -0.00000080
-0.64908584 0.44533018 0.00000000
-0.30822181 0.23360034 0.00000000
0.37668323 0.39788240 -0.00000045
-0.53962986 -0.38879881 0.00000000
0.78396810 -0.48861510 -0.00000039
-0.33812998 -0.54898912 0.00000000
0.50803321 0.32237879 0.24576964
0.31712664 0.53357514 0.40973819
0.21859713 0.58323511 0.01481418
0.02709202 0.41755494 0.00000000
-0.65667176 -0.28505968 0.00000000
0.03191237 -0.79003902 0.00000000
-0.62986420 -0.00552041 0.00000000
0.03250748 0.72634835 -0.00000000
0.23787249 -0.31003706 0.00000000
-0.68797940 0.26452266 0.00000000
0.67467664 -0.24723562 -0.00000051
-0.05252396 -0.45134139 0.00000000
0.19204347 -0.26971160 0.00000000
0.63439404 0.18113224 0.12547649
0.69565772 -0.78308286 -0.00000002
0.03518357 0.39696230 0.00000000
-0.23891369 -0.76358202 0.00000000
-0.30853373 -0.13384951 0.00000000
-0.28119681 0.64422547 0.00000000
0.26924699 0.39647828 -0.00000022
0.58898422 0.21624473 0.04226290
-0.73221078 0.46807322 0.00000000
0.28228914 -0.64844957 0.00000000
-0.58199531 0.42078913 0.00000000
0.62494055 -0.00948479 -0.00000062
0.70648717 0.09353524 0.00018817
-0.44072504 -0.18738279 0.00000000
0.49124239 -0.66265618 0.00000000
-0.69611305 0.73837922 0.00000000
-0.75367230 -0.70639517 0.00000000
-0.61248674 0.09351931 0.00000000
-0.55144530 0.03283504 0.00000000
-0.27792288 -0.49446372 0.00000000
-0.00484949 -0.29935941 0.00000000
0.75699970 -0.13854781 -0.00000079
-0.39783723 -0.42383449 0.00000000
0.50348300 0.32460760 0.22701021
-0.42117160 0.21575681 0.00000000
0.35060053 0.17928345 -0.00000020
0.44041650 -0.44442017 0.00000000
-0.72835978 0.46151478 0.00000000
0.18816242 -0.21098047 0.00000000
-0.23419256 0.23178050 0.00000000
0.08369125 0.32163046 0.00000000
-0.49590286 0.09071532 0.00000000
0.45351926 0.40552789 0.47717760
0.31958394 0.48241671 0.01617504
-0.34494832 -0.09344360 0.00000000
0.01604718 -0.70979041 0.00000000
0.10675688 0.70374669 0.08488870
-0.60096311 0.40707185 0.00000000
0.28354898 0.26253603 -0.00000013
-0.68881503 -0.24576508 0.00000000
0.51989169 0.30586822 0.20817569
-0.61420011 -0.48811327 0.00000000
0.70876292 -0.72415525 -0.00000009
-0.20062220 -0.66411008 0.00000000
0.00108026 0.50760057 0.00000000
0.18839480 -0.37071298 0.00000000
-0.30414010 -0.70989531 0.00000000
0.07828234 0.25023858 0.00000000
-0.45273633 0.39048951 0.00000000
-0.14726194 0.62167979 0.00000000
0.51757785 -0.38417074 -0.00000006
-0.45548895 -0.64425323 0.00000000
-0.53917198 0.59655117 0.00000000
0.73307491 -0.58807232 -0.00000026
-0.43578930 -0.73533759 0.00000000
0.13716272 -0.41409621 0.00000000
-0.56525744 0.59314438 0.00000000
0.31092840 0.41894961 -0.00000033
-0.68818947 0.06123135 0.00000000
0.41787804 0.05765533 -0.00000024
0.32788352 0.49475792 0.18297520
-0.12155259 0.73441959 0.00000000
-0.09847898 0.75476485 0.00000000
0.10186384 0.31917369 0.00000000
-0.73947801 0.74607818 0.00000000
0.41956478 -0.29997054 0.00000000
0.21095148 0.61395720 0.20129886
-0.49265569 -0.43354719 0.00000000
0.42280338 0.44066983 0.51294617
-0.69870616 -0.23112186 0.00000000
0.55745470 -0.73104883 0.00000000
-0.43244442 0.68328989 0.00000000
0.66223778 -0.67357630 -0.00000011
-0.71942575 -0.28174714 0.00000000
0.28510258 0.15862871 -0.00000004
0.30001251 0.51152876 0.09327376
-0.01348278 0.49364344 0.00000000
-0.78428171 0.27278542 0.00000000
0.09938292 0.42566396 0.00000000
0.60558882 0.21697344 0.18233500
-0.52457470 -0.68438758 0.00000000
0.69224601 -0.26321302 -0.00000054
0.65895254 0.14979661 0.07070986
0.06544238 0.39205843 0.00000000
-0.48996654 -0.09819369 0.00000000
-0.70679649 -0.61523538 0.00000000
0.20630273 0.07799652 0.00000000
-0.64890150 -0.44609110 0.00000000
-0.53538376 0.36144230 0.00000000
-0.46014009 -0.50097716 0.00000000
0.79139328 -0.65167583 -0.00000019
-0.28476034 -0.76522724 0.00000000
0.16499073 0.58284979 -0.00000016
-0.06171579 -0.00072729 0.00000000
0.20281066 0.13754841 0.00000000
-0.03811641 0.62747232 0.00000000
0.00258239 -0.77555375 0.00000000
-0.67007725 0.61612122 0.00000000
-0.60403681 0.07936867 0.00000000
-0.61436664 -0.44077545 0.00000000
0.79263325 -0.45848420 -0.00000043
0.50897004 -0.59952152 0.00000000
0.07078269 0.03871386 0.00000000
-0.46268599 -0.30898421 0.00000000
0.51063828 -0.56488070 0.00000000
0.42817549 -0.72844403 0.00000000
0.66677498 -0.00161571 -0.00000071
-0.23233385 -0.24440280 0.00000000
-0.37465029 -0.53358772 0.00000000
0.58744374 -0.54537092 -0.00000006
-0.10561682 -0.15216665 0.00000000
0.09407061 -0.62194878 0.00000000
-0.35446543 0.51018763 0.00000000
0.77976402 -0.71169210 -0.00000011
-0.67561818 0.09750081 0.00000000
-0.70743112 0.46945381 0.00000000
-0.13407920 -0.71153276 0.00000000
-0.73903251 -0.38272450 0.00000000
0.48613678 0.36693369 0.42887805
0.05701739 0.13577266 0.00000000
0.74808398 -0.24608480 -0.00000067
0.14150122 -0.49521946 0.00000000
0.77049109 -0.51624683 -0.00000035
-0.23210381 0.78342931 0.00000000
0.57896455 -0.41665818 -0.00000016
-0.17418483 -0.02873229 0.00000000
0.47485417 -0.74485744 0.00000000
0.25738362 0.55536619 0.10304009
0.25447368 0.55512517 0.07757688
0.41344257 0.44228534 0.45035445
0.60895322 0.22260254 0.25501233
-0.05414179 0.64336162 0.00000000
-0.30483647 -0.07623004 0.00000000
0.19160958 0.63403023 0.20720752
-0.07483778 0.53386851 0.00000000
-0.34817311 -0.22670435 0.00000000
0.15922268 0.18247299 0.00000000
0.58468212 -0.59530011 -0.00000001
0.34666533 -0.60298295 0.00000000
0.43253941 0.38427247 0.13586585
-0.20266044 0.45961845 0.00000000
-0.69471263 0.13863740 0.00000000
-0.13275295 0.02800491 0.00000000
0.14512896 -0.50916346 0.00000000
0.38025666 0.45206188 0.26117770
0.33365374 -0.56759133 0.00000000
-0.57487382 -0.25668577 0.00000000
0.58810167 -0.14856894 -0.00000042
0.69461992 -0.05575668 -0.00000073
0.59956319 0.13065688 -0.00000069
0.37383812 -0.70193564 0.00000000
-0.77784056 0.66349378 0.00000000
-0.03716802 0.59724795 0.00000000
0.10002660 0.61241895 -0.00000005
0.42846401 0.02186979 -0.00000023
0.27724861 0.56106623 0.30963665
-0.63413179 0.59157633 0.00000000
-0.46228875 0.05161370 0.00000000
-0.33780447 -0.47021180 0.00000000
-0.07887314 0.74765993 0.00000000
0.60254781 -0.39449768 -0.00000023
0.32315234 -0.47030686 0.00000000
-0.20542393 0.42466880 0.00000000
0.36067349 0.49343404 0.43726041
-0.55689758 -0.26648705 0.00000000
-0.49005377 0.76698366 0.00000000
-0.38034130 -0.67223256 0.00000000
-0.35807382 0.12971872 0.00000000
0.44887213 0.38096298 0.24110778
-0.74833469 0.30959906 0.00000000
-0.66561713 0.37984365 0.00000000
0.11483775 -0.13318406 0.00000000
0.02412696 -0.71245777 0.00000000
0.61058534 0.11342402 -0.00000070
-0.37977707 0.19323239 0.00000000
-0.07580273 -0.32322869 0.00000000
0.10353960 -0.08788697 0.00000000
-0.15758655 0.19592934 0.00000000
0.13583042 0.17357224 0.00000000
-0.47796728 -0.16124189 0.00000000
0.64886348 -0.50152080 -0.00000023
0.54178635 0.26463757 0.05191956
-0.77011647 0.67556940 0.00000000
0.00285965 -0.05687237 0.00000000
-0.55518687 0.71818597 0.00000000
-0.57565010 -0.38269118 0.00000000
-0.03634587 -0.69407252 0.00000000
0.36746022 0.14178519 -0.00000020
-0.36502204 0.32182951 0.00000000
-0.18134732 0.08393757 0.00000000
-0.03869392 0.33550923 0.00000000
-0.39484929 0.70912721 0.00000000
-0.35822935 -0.47617081 0.00000000
0.20713693 -0.08228507 0.00000000
-0.48631669 0.35109597 0.00000000
-0.41489784 -0.19813903 0.00000000
0.51999621 0.04570118 -0.00000044
0.40741966 -0.77359179 0.00000000
0.07148161 -0.76144364 0.00000000
-0.10937668 -0.59949306 0.00000000
0.02464542 0.61031807 0.00000000
-0.40968400 -0.13123823 0.00000000
-0.55961712 -0.30497011 0.00000000
0.41102969 0.43476519 0.37008308
-0.65690145 0.62695795 0.00000000
-0.49553354 -0.77045118 0.00000000
-0.54877028 -0.58830051 0.00000000
-0.12954948 -0.30966569 0.00000000
0.76758119 -0.50271068 -0.00000037
-0.52032336 0.45726836 0.00000000
0.04336399 0.01420926 0.00000000
-0.74809159 -0.35034285 0.00000000
-0.44085554 0.40642008 0.00000000
-0.68815700 -0.79220457 0.00000000
0.41223399 -0.78076349 0.00000000
0.10734355 -0.10073741 0.00000000
0.38107983 -0.31764923 0.00000000
0.56397998 -0.51084188 -0.00000004
0.68938529 -0.03365694 -0.00000073
0.46939998 0.10341127 -0.00000039
0.44016486 0.40050644 0.32867774
-0.06692709 0.01732152 0.00000000
0.65278399 -0.17573588 -0.00000053
0.39108085 -0.14411135 -0.00000000
0.31370787 0.49341277 0.05755015
-0.15470798 -0.31089768 0.00000000
0.33888184 -0.28097473 0.00000000
0.60906337 0.19620763 0.04260268
-0.09941661 -0.24200620 0.00000000
-0.07687141 -0.68028815 0.00000000
-0.48511899 -0.10293228 0.00000000
-0.03999988 -0.29423129 0.00000000
0.15487532 -0.35358768 0.00000000
0.10430122 0.11365491 0.00000000
-0.43177704 -0.05562431 0.00000000
0.25901695 -0.00176142 0.00000000
0.13711134 0.10011349 0.00000000
0.09251547 -0.76436343 0.00000000
0.02489697 -0.04531630 0.00000000
-0.62037566 0.79092855 0.00000000
0.71451193 -0.79219358 -0.00000001
0.52875799 0.30264780 0.25380046
-0.06647787 0.76220139 0.00000000
0.45644046 -0.12376401 -0.00000016
0.52554463 0.32456114 0.40491905
-0.47130542 0.00868378 0.00000000
-0.01745833 -0.54467882 0.00000000
-0.21515584 -0.64936968 0.00000000
0.24602602 -0.32821181 0.00000000
-0.78458952 0.20046647 0.00000000
0.22596329 -0.36810248 0.00000000
0.46097719 0.37601059 0.29890999
0.65806750 -0.56086092 -0.00000020
-0.56200261 -0.19186433 0.00000000
0.29749769 -0.77303117 0.00000000
0.33687299 -0.70104279 0.00000000
0.70157869 -0.02125268 -0.00000077
0.28432915 0.54654450 0.24950229
0.10567421 -0.31801877 0.00000000
0.44079713 0.41784389 0.47389571
0.37350915 0.43129034 0.03879265
-0.78724791 0.05516843 0.00000000
-0.38605969 -0.76113230 0.00000000
0.16714413 -0.47061039 0.00000000
0.67242777 0.14306627 0.12521603
-0.03824642 0.27024339 0.00000000
-0.79495939 0.22193400 0.00000000
-0.28664668 0.56058478 0.00000000
-0.51031355 -0.48933641 0.00000000
0.07995460 -0.18441157 0.00000000
-0.73574536 0.12665978 0.00000000
0.15612311 0.57411954 -0.00000013
-0.77405743 0.28761395 0.00000000
-0.52893304 0.79005138 0.00000000
-0.17705442 -0.45480496 0.00000000
0.04056164 -0.44384681 0.00000000
0.43925369 0.40696408 0.37350023
-0.77343153 0.64177253 0.00000000
0.33407122 0.49614377 0.24417889
0.12155548 -0.23882734 0.00000000
-0.66800893 0.65585593 0.00000000
-0.44197123 0.13897880 0.00000000
0.67320688 -0.49425575 -0.00000029
0.19763349 -0.39179059 0.00000000
0.77195674 -0.50685558 -0.00000037
0.01386918 0.70544377 0.00000000
0.06376671 0.46810455 0.00000000
-0.27309909 -0.01295480 0.00000000
0.40989875 0.45299215 0.50824049
0.41481238 0.09378701 -0.00000026
0.09291876 0.37873377 0.00000000
0.30514134 -0.77660251 0.00000000
-0.22817603 0.70496856 0.00000000
-0.76844985 0.08066704 0.00000000
0.31216885 0.22841617 -0.00000016
-0.70880677 0.46824405 0.00000000
0.42956970 -0.19478517 -0.00000004
-0.42945378 0.20557954 0.00000000
0.32535246 -0.54731942 0.00000000
-0.35441140 -0.59768304 0.00000000
-0.69464921 -0.71906965 0.00000000
-0.48860662 -0.62070352 0.00000000
0.18979756 -0.52112411 0.00000000
0.67002627 0.12285413 -0.00000083
-0.11864796 -0.57151785 0.00000000
0.47105112 0.25217745 -0.00000052
0.20085049 -0.71252197 0.00000000
-0.65997160 0.74475485 0.00000000
0.36592385 0.44750870 0.10855727
0.34405731 0.49391495 0.30686729
-0.71537929 -0.17664541 0.00000000
-0.07307287 -0.43821269 0.00000000
-0.68035160 0.48253049 0.00000000
-0.64859901 -0.70523505 0.00000000
-0.74629466 -0.71857565 0.00000000
-0.67725137 -0.55494537 0.00000000
0.10780158 0.69743101 0.04229289
0.32314298 -0.17451899 0.00000000
0.41218365 0.07995374 -0.00000024
0.37467395 -0.59410798 0.00000000
-0.49860198 0.75440228 0.00000000
0.68902008 -0.29884434 -0.00000050
-0.58178144 -0.14451244 0.00000000
0.39053746 0.43724979 0.22455900
0.47797188 -0.53280717 0.00000000
-0.54128465 0.11779427 0.00000000
0.37306407 0.43252106 0.04514147
0.19163221 -0.68974613 0.00000000
0.25827725 0.57541040 0.27224338
-0.71971419 -0.59452120 0.00000000
0.56834622 -0.32068643 -0.00000022
0.24606541 0.56649588 0.10151667
0.36955273 0.46474020 0.27713333
0.18098198 -0.37273504 0.00000000
0.25780381 0.29748325 -0.00000011
-0.49022737 -0.52330190 0.00000000
-0.11258021 0.14550949 0.00000000
-0.06990202 -0.15676624 0.00000000
0.56039619 0.25499595 0.12439266
0.34936033 0.38510360 -0.00000038
-0.32755884 0.19184735 0.00000000
-0.73826320 -0.30588971 0.00000000
0.12230922 0.42453245 0.00000000
0.40532656 0.42034791 0.20748527
-0.31978892 0.38946279 0.00000000
0.24020910 -0.35680856 0.00000000
-0.72984895 -0.74712169 0.00000000
0.16413689 -0.27759623 0.00000000
-0.54491069 0.28334015 0.00000000
0.30862471 0.30445587 -0.00000022
0.26170041 -0.48200110 0.00000000
-0.59726571 0.64326589 0.00000000
0.78177550 -0.44789775 -0.00000044
-0.56386814 0.02336264 0.00000000
-0.61406389 0.60257848 0.00000000
0.25562781 0.57950414 0.28391511
-0.09150555 0.58526424 0.00000000
-0.01320292 0.07988643 0.00000000
0.71025825 -0.79697080 -0.00000000
0.24083336 -0.49452733 0.00000000
0.51772557 -0.45859915 0.00000000
-0.71402591 -0.40294620 0.00000000
-0.44096711 -0.79291974 0.00000000
0.10324537 0.55318549 -0.00000000
0.12360905 -0.25870166 0.00000000
-0.20329170 -0.60024637 0.00000000
-0.61297476 0.63808397 0.00000000
-0.12882316 0.66280294 0.00000000
0.79980853 -0.01944530 -0.00000098
-0.67300684 -0.70580083 0.00000000
0.34487625 0.32774717 -0.00000032
0.31712591 -0.16009204 0.00000000
0.48217505 0.36837789 0.40853336
0.20026690 0.59991438 0.00147269
-0.78601706 0.06594562 0.00000000
-0.77585241 0.43799595 0.00000000
-0.64647286 0.63976143 0.00000000
0.11927937 0.36243077 0.00000000
-0.02547104 -0.38313641 0.00000000
0.43155251 -0.78081415 0.00000000
0.21146051 -0.68198894 0.00000000
-0.56978957 -0.65278114 0.00000000
-0.65353913 0.30579622 0.00000000
0.45225648 -0.33340052 0.00000000
-0.57298246 0.06681742 0.00000000
0.23758078 -0.10853134 0.00000000
-0.42358540 0.25097656 0.00000000
-0.45412764 0.72130114 0.00000000
0.32368131 0.49048800 0.11451110
0.10599656 -0.56196942 0.00000000
-0.28610513 0.08550701 0.00000000
0.12569443 0.54444418 -0.00000004
0.18895838 -0.09151986 0.00000000
0.07442720 0.32788024 0.00000000
-0.52727737 0.21847839 0.00000000
0.16392420 -0.40420831 0.00000000
-0.56514816 0.75579568 0.00000000
0.34024464 -0.33972622 0.00000000
-0.76891204 -0.75776719 0.00000000
0.15328030 0.66359415 0.13637283
0.66107383 -0.48654192 -0.00000027
-0.01375242 0.05846503 0.00000000
0.70920200 0.02291892 -0.00000083
0.44681482 0.37842562 0.20397783
0.75484567 -0.69663691 -0.00000013
-0.34706205 0.66883154 0.00000000
0.67012067 -0.62420545 -0.00000017
0.17221337 -0.07153694 0.00000000
-0.44346738 -0.64459188 0.00000000
0.29202201 0.52108370 0.10591607
0.30875669 -0.12129545 0.00000000
0.57404096 0.23442923 0.06845565
0.43918467 -0.16893688 -0.00000008
-0.63101436 -0.41127858 0.00000000
-0.02222740 0.60548326 0.00000000
0.34530881 -0.40437134 0.00000000
-0.46520032 -0.41060831 0.00000000
0.70558014 -0.31495354 -0.00000052
0.29951397 -0.24491708 0.00000000
-0.76635568 -0.24693695 0.00000000
0.45958548 0.22013505 -0.00000047
0.16295025 -0.20259353 0.00000000
-0.78942241 -0.68924647 0.00000000
0.23666028 0.04770776 0.00000000
0.36578012 0.48618157 0.41991926
0.38642555 0.28617527 -0.00000037
0.64993570 -0.53370693 -0.00000021
0.13893227 -0.68916534 0.00000000
-0.05227904 -0.62690692 0.00000000
0.04248663 0.13435848 0.00000000
-0.37102716 0.12149452 0.00000000
-0.06189385 -0.01668136 0.00000000
0.24328869 -0.08439074 0.00000000
-0.05504798 0.30814744 0.00000000
-0.04390333 -0.02984880 0.00000000
-0.43545061 0.01077370 0.00000000
-0.50486313 0.43435375 0.00000000
-0.55262535 0.51608389 0.00000000
-0.46852250 0.27523756 0.00000000
-0.65033665 -0.27851505 0.00000000
-0.42625429 0.26422030 0.00000000
0.79309526 -0.21078335 -0.00000074
0.43426277 0.38145856 0.12705302
-0.25399630 -0.53385588 0.00000000
-0.11632705 0.72346032 0.00000000
0.21753202 -0.20108530 0.00000000
-0.04660141 -0.37807201 0.00000000
0.55317611 -0.77764632 0.00000000
0.26373496 0.19674183 -0.00000003
-0.48822222 0.21099413 0.00000000
0.19967120 -0.11998317 0.00000000
0.04033261 -0.47948871 0.00000000
0.13195609 0.03889675 0.00000000
0.43145305 0.43691548 0.55250640
-0.10519133 0.38077569 0.00000000
0.66788604 -0.35891973 -0.00000040
-0.50623635 -0.64101073 0.00000000
-0.21948697 -0.49392924 0.00000000
0.19333713 0.63660605 0.24198415
-0.41329414 -0.04607470 0.00000000
-0.53896006 0.44169512 0.00000000
-0.59250388 0.57176181 0.00000000
-0.79071609 0.38333947 0.00000000
0.71738461 -0.03918595 -0.00000079
0.44337045 0.17735914 -0.00000040
-0.04107744 0.74495219 0.00000000
0.79786936 -0.15575922 -0.00000081
-0.29372767 0.34550207 0.00000000
0.20835873 0.02894281 0.00000000
0.63988386 -0.74104447 -0.00000000
-0.51319398 0.71894065 0.00000000
0.44557851 -0.56651466 0.00000000
0.49145202 0.10774960 -0.00000044
0.61556865 -0.02455614 -0.00000058
-0.66608861 -0.62112528 0.00000000
0.48981931 -0.75007883 0.00000000
0.09016679 0.70357587 -0.00000011
0.56686214 0.23503081 0.01530434
0.58863406 0.03545263 -0.00000058
0.41123779 -0.76721236 0.00000000
0.67349116 -0.18240250 -0.00000057
0.66454992 -0.47069152 -0.00000029
-0.06387543 0.77734652 0.00000000
0.56738739 -0.53274518 -0.00000003
0.37169238 -0.49340157 0.00000000
-0.21303924 0.66566632 0.00000000
0.65395588 0.02713055 -0.00000071
0.20326272 0.59879513 0.01663739
0.23242379 0.60081840 0.26864376
-0.01995247 0.35609093 0.00000000
-0.43149032 -0.19687224 0.00000000
0.19038587 0.40055581 -0.00000005
0.55897289 0.27499384 0.27449567
0.74193799 -0.09680223 -0.00000079
-0.08313834 -0.34627511 0.00000000
0.68151476 -0.66987468 -0.00000016
-0.30870367 0.18121570 0.00000000
-0.23235105 0.60575631 0.00000000
0.65790796 0.14704234 0.04001099
0.19036134 -0.47278988 0.00000000
0.49454932 0.11032922 -0.00000045
-0.24167453 -0.39801198 0.00000000
0.49141640 -0.16406554 -0.00000020
0.35605746 -0.39194252 0.00000000
0.69376858 -0.28837481 -0.00000052
-0.71414178 0.64840533 0.00000000
-0.40841390 0.14138130 0.00000000
-0.02105778 -0.20172739 0.00000000
-0.65644364 -0.18207645 0.00000000
-0.45729798 -0.21433085 0.00000000
-0.08773122 -0.57774098 0.00000000
0.57835511 0.23298446 0.09164333
0.41477207 0.42151938 0.29328335
-0.43578360 0.02161793 0.00000000
-0.22715117 0.56128983 0.00000000
0.28079434 -0.55882068 0.00000000
0.26947380 -0.64900467 0.00000000
-0.51359768 0.09785220 0.00000000
0.02097195 -0.42291614 0.00000000
-0.27811849 -0.72211971 0.00000000
0.23197340 0.52555097 -0.00000025
-0.36198023 -0.70983399 0.00000000
0.16897408 -0.70767083 0.00000000
0.66055082 0.14998049 0.08511175
-0.74768104 -0.79229388 0.00000000
-0.32882888 -0.17513992 0.00000000
0.06259134 -0.03289026 0.00000000
0.17357985 -0.47471027 0.00000000
0.49722645 -0.26708284 -0.00000012
0.78388119 -0.15285424 -0.00000081
-0.12217087 -0.47040271 0.00000000
0.79366065 -0.01257086 -0.00000098
-0.22244546 -0.02746053 0.00000000
0.37469453 -0.04328724 -0.00000005
-0.62302527 0.26530669 0.00000000
-0.75464889 -0.60134165 0.00000000
-0.18777393 0.67498660 0.00000000
0.51005864 0.31038198 0.16518997
0.22880340 -0.18078113 0.00000000
0.32086360 -0.34448423 0.00000000
-0.78303419 0.40865951 0.00000000
0.09287632 0.70990795 0.02250787
-0.54484379 0.77266759 0.00000000
0.13990667 0.14370641 0.00000000
-0.66970436 -0.24200392 0.00000000
0.51287770 -0.64197395 0.00000000
0.49886503 -0.18751384 -0.00000019
-0.56395372 -0.36559375 0.00000000
0.26393716 -0.07196402 0.00000000
-0.33223277 -0.06275180 0.00000000
0.34104679 -0.63722407 0.00000000
-0.70513140 -0.66397503 0.00000000
0.49643056 0.35149546 0.38730430
-0.29547930 0.73510606 0.00000000
-0.73346515 0.41024582 0.00000000
0.28846656 0.39909538 -0.00000026
-0.02075633 0.52718296 0.00000000
-0.16970768 0.75484941 0.00000000
-0.22204262 -0.64687813 0.00000000
-0.74860958 -0.41431881 0.00000000
0.54156762 -0.19013025 -0.00000028
0.30129642 0.53948437 0.32956428
-0.09448603 0.75812833 0.00000000
-0.17296565 0.20648390 0.00000000
-0.50818176 0.67276831 0.00000000
0.19217904 -0.43654053 0.00000000
-0.73678726 0.66082687 0.00000000
-0.75040535 -0.11759282 0.00000000
-0.07429761 -0.41094880 0.00000000
-0.61770242 -0.18599474 0.00000000
0.06420188 0.20109131 0.00000000
-0.78417415 -0.13258481 0.00000000
-0.38934629 -0.21292686 0.00000000
-0.35654542 0.02017195 0.00000000
-0.54195505 0.74509167 0.00000000
0.53589094 -0.40417666 -0.00000008
0.17298275 0.65163494 0.19894772
0.19739624 -0.19606140 0.00000000
-0.72102706 -0.57107741 0.00000000
0.23381442 0.56938207 0.02583881
-0.51443924 -0.40661108 0.00000000
0.46323706 0.05923137 -0.00000033
0.19355676 0.63133618 0.20117186
-0.67735803 0.67579144 0.00000000
0.54382833 0.20405920 -0.00000063
-0.07978698 -0.78220651 0.00000000
-0.74202104 -0.54246898 0.00000000
0.07085354 0.66793572 -0.00000003
-0.14627356 -0.69938710 0.00000000
0.24012806 0.59515736 0.28515557
0.46492228 0.39461819 0.48116405
-0.14568670 0.70100776 0.00000000
0.30772626 -0.32041446 0.00000000
-0.54075017 -0.57095324 0.00000000
-0.65598715 -0.72087592 0.00000000
-0.77676435 -0.20677401 0.00000000
0.18825673 0.05896522 0.00000000
-0.45660595 0.10723903 0.00000000
-0.32770293 -0.22984234 0.00000000
-0.48372055 0.13923886 0.00000000
-0.10809106 -0.09695981 0.00000000
-0.66930033 0.03495068 0.00000000
0.33075046 -0.71462749 0.00000000
0.28276618 -0.35295435 0.00000000
-0.65041158 0.08362680 0.00000000
-0.11727040 0.32867343 0.00000000
-0.24134887 0.16964416 0.00000000
0.04244450 -0.39086745 0.00000000
0.45019747 0.38224875 0.26220859
0.38553671 0.44162689 0.21951920
0.30764273 -0.68806868 0.00000000
0.46094055 0.40101553 0.50068527
-0.07833451 -0.35506562 0.00000000
-0.09454047 -0.28263146 0.00000000
0.40025993 0.40991343 0.08221940
-0.07795303 0.34553877 0.00000000
-0.41891889 0.30317551 0.00000000
-0.59100656 -0.61550950 0.00000000
-0.73566831 0.01964217 0.00000000
-0.74084762 -0.12097959 0.00000000
0.61234532 -0.17433752 -0.00000045
-0.12887095 0.15575932 0.00000000
0.42820174 0.38684186 0.12157619
-0.32150739 0.68817053 0.00000000
-0.17765199 -0.34361725 0.00000000
0.10728221 -0.20445740 0.00000000
0.12891763 0.27778629 0.00000000
0.74288853 -0.50595035 -0.00000037
0.49682928 0.30913998 0.04824555
-0.32825693 -0.66888704 0.00000000
0.24927663 -0.06805923 0.00000000
0.10819419 0.25601644 0.00000000
-0.46774910 -0.49707634 0.00000000
0.36781851 0.34447654 -0.00000038
0.53354729 0.29055912 0.19481347
-0.36959989 -0.53569277 0.00000000
-0.71971891 0.10811356 0.00000000
-0.02072959 0.41035506 0.00000000
0.55856324 0.26251329 0.17032868
-0.49415686 0.67548505 0.00000000
0.32439145 0.03215877 -0.00000001
0.70811052 -0.33928245 -0.00000050
-0.47093008 0.06781002 0.00000000
-0.63424775 -0.76080764 0.00000000
0.06328293 0.23491031 0.00000000
-0.37517972 -0.44301468 0.00000000
-0.18673165 0.26317734 0.00000000
0.46835411 0.34023556 0.06942137
-0.41469025 -0.73604754 0.00000000
0.27557790 -0.12791374 0.00000000
-0.72150153 -0.33604607 0.00000000
0.21045895 0.04381713 0.00000000
0.57513177 -0.04949445 -0.00000048
-0.47765311 0.42940116 0.00000000
-0.55595260 0.73153533 0.00000000
-0.68280702 -0.38088159 0.00000000
-0.60723240 0.14544775 0.00000000
-0.30755396 -0.40260159 0.00000000
-0.31400960 0.12984040 0.00000000
-0.14917597 0.11952578 0.00000000
0.18329776 -0.11092092 0.00000000
-0.54757712 -0.70412646 0.00000000
0.34360463 0.28821370 -0.00000028
-0.23399841 -0.03692757 0.00000000
-0.51239850 -0.28491237 0.00000000
-0.19070157 -0.09918059 0.00000000
-0.43381337 0.20286669 0.00000000
-0.36536875 -0.12150979 0.00000000
-0.61625284 -0.27367663 0.00000000
-0.35575075 -0.27754895 0.00000000
0.29949225 -0.57041471 0.00000000
0.27052268 0.55789899 0.22968747
-0.76413218 0.02069097 0.00000000
-0.49661897 0.03300055 0.00000000
0.36321503 -0.66886548 0.00000000
0.41679572 0.42305789 0.32207006
0.67038192 0.14552148 0.12852400
0.44637949 0.38734104 0.27250666
-0.34847316 0.64063428 0.00000000
-0.59349822 -0.77893426 0.00000000
0.27372645 0.55943656 0.26800343
0.05679451 0.74914672 0.04801985
0.72935901 -0.11485679 -0.00000075
0.64262188 -0.12682041 -0.00000055
0.13765914 0.01651869 0.00000000
0.17206473 -0.00901864 0.00000000
0.47656914 0.35958208 0.29214936
-0.37498733 0.15246087 0.00000000
0.65046875 -0.32010586 -0.00000040
0.02002544 0.55268597 0.00000000
-0.24848343 0.24077946 0.00000000
-0.24583937 0.49608864 0.00000000
-0.32572332 0.76783375 0.00000000
0.07637441 -0.45939026 0.00000000
0.36668173 0.45449715 0.17115609
0.18033299 -0.47246840 0.00000000
-0.77441577 -0.16882033 0.00000000
0.54033354 -0.12831072 -0.00000033
-0.74035576 -0.13828152 0.00000000
0.71463138 -0.26558921 -0.00000058
-0.68220913 -0.14729895 0.00000000
0.08550896 0.26701062 0.00000000
-0.21875317 0.73418506 0.00000000
0.73141491 -0.03558503 -0.00000082
-0.67634531 -0.62731924 0.00000000
0.71692002 -0.60146859 -0.00000025
-0.53838599 0.10243945 0.00000000
0.74815923 -0.14908490 -0.00000076
-0.40087984 0.54700731 0.00000000
0.09270746 0.71163385 0.03509042
0.10580922 -0.05606942 0.00000000
0.05357385 -0.00039200 0.00000000
0.41607369 -0.17990666 -0.00000002
0.47113018 -0.66618034 0.00000000
-0.72506546 -0.17316421 0.00000000
0.69996029 -0.48578769 -0.00000036
0.49549344 0.31480363 0.08321895
0.49015655 -0.43713664 0.00000000
-0.14881364 0.43314510 0.00000000
-0.67460969 -0.66479479 0.00000000
0.39808410 0.46275884 0.49169051
-0.50813534 -0.72186724 0.00000000
0.00287804 0.06338848 0.00000000
-0.29186459 -0.78580342 0.00000000
0.20152982 -0.69778103 0.00000000
-0.11723655 0.37361656 0.00000000
0.69755331 -0.28183469 -0.00000053
0.10205087 -0.45605054 0.00000000
0.47129937 -0.24139450 -0.00000009
0.51092581 0.05673258 -0.00000043
0.19825083 -0.45912057 0.00000000
0.62421836 -0.01699777 -0.00000061
-0.08904877 0.55387356 0.00000000
-0.64042329 -0.63132456 0.00000000
0.12099420 0.65663273 -0.00000013
0.62741528 -0.48791385 -0.00000020
0.25430138 -0.59717926 0.00000000
-0.34165769 -0.25573454 0.00000000
0.39048500 0.46620880 0.45816032
-0.08108802 0.67145369 0.00000000
-0.43411422 0.01021078 0.00000000
0.36984418 0.32263675 -0.00000037
0.42487837 0.06468484 -0.00000026
0.38491267 0.42149075 0.05175419
0.40072540 0.40549182 0.05024941
0.26723722 0.35475846 -0.00000018
0.06058783 -0.17057998 0.00000000
-0.54019425 0.36113247 0.00000000
-0.34851125 -0.64287452 0.00000000
0.09728101 -0.54506229 0.00000000
0.38124296 0.46883141 0.40466716
-0.27107121 -0.79510778 0.00000000
0.24462458 -0.78558253 0.00000000
0.21975973 -0.70518767 0.00000000
0.07266371 0.73784993 0.08497053
-0.56971217 0.58033760 0.00000000
-0.12166843 0.63691856 0.00000000
-0.33303695 -0.23553820 0.00000000
-0.55648994 -0.59593373 0.00000000
-0.50345290 -0.54713150 0.00000000
0.48119851 0.35633334 0.30330647
-0.74192821 0.77871610 0.00000000
-0.32774538 -0.29443651 0.00000000
0.54987175 0.29278624 0.34473134
-0.59992549 -0.52069823 0.00000000
-0.20906973 -0.46162173 0.00000000
0.00043461 0.67819668 0.00000000
-0.32169198 -0.21857811 0.00000000
0.12777306 0.19413891 0.00000000
-0.05756973 -0.07772405 0.00000000
-0.32232302 -0.29768148 0.00000000
0.44944232 -0.56269227 0.00000000
0.23792608 -0.54878896 0.00000000
-0.39777093 0.49353404 0.00000000
-0.28324136 -0.55164190 0.00000000
-0.65624624 0.41907637 0.00000000
0.37877857 0.24529925 -0.00000032
0.20356439 0.12376964 0.00000000
-0.58683595 0.21417347 0.00000000
0.21234219 0.61354439 0.20920150
0.17025900 0.64967762 0.16111878
0.40349246 0.45085881 0.43922960
0.27116567 0.22040068 -0.00000007
-0.39084348 -0.15164068 0.00000000
0.18586639 -0.00313618 0.00000000
-0.22440965 -0.67366297 0.00000000
0.09179769 -0.11576393 0.00000000
-0.03148742 0.63004789 0.00000000
-0.41577198 0.08056558 0.00000000
0.69445381 -0.62573213 -0.00000022
0.15360299 0.36873839 0.00000000
0.62183551 0.20151956 0.18874174
-0.47116440 -0.30833716 0.00000000
0.05484276 0.75011192 0.04004737
0.17519834 0.63667358 0.09594582
0.05045055 -0.45043518 0.00000000
-0.59263381 0.01512778 0.00000000
-0.53090215 -0.03260916 0.00000000
0.40495353 0.15460661 -0.00000029
0.02027231 0.57089291 0.00000000
0.52636822 0.23387701 -0.00000062
-0.63105400 -0.72442762 0.00000000
-0.33527957 -0.35758206 0.00000000
0.57820533 -0.20134257 -0.00000035
0.08405449 -0.15935400 0.00000000
0.74120888 -0.29553756 -0.00000061
0.17772519 0.09838899 0.00000000
-0.02610240 0.00210807 0.00000000
0.21475330 0.31432034 -0.00000003
0.25257736 -0.57153788 0.00000000
0.16524107 -0.10877664 0.00000000
-0.26469018 -0.24548389 0.00000000
0.07411279 -0.50716266 0.00000000
-0.51153937 -0.23221970 0.00000000
-0.39004356 0.71877479 0.00000000
0.61461653 -0.67740115 -0.00000001
-0.58106808 0.45712559 0.00000000
0.12273353 0.45892468 0.00000000
0.47900716 -0.40397132 0.00000000
-0.46539503 0.61103056 0.00000000
-0.10312338 0.12756171 0.00000000
0.75557828 -0.23310139 -0.00000070
0.34084632 0.49974078 0.32799861
-0.48102620 0.30047993 0.00000000
0.00478459 -0.75076706 0.00000000
-0.04397908 -0.05462375 0.00000000
-0.37531248 -0.49981766 0.00000000
0.48123150 0.34284626 0.19458201
-0.15309997 -0.01293056 0.00000000
-0.17811269 -0.77327515 0.00000000
-0.27425168 -0.27800550 0.00000000
0.02728841 0.77406634 0.01095584
0.59667545 -0.47535376 -0.00000015
0.59770276 0.22358187 0.17201040
-0.62304903 -0.04697799 0.00000000
0.76810150 -0.73066129 -0.00000009
0.35937186 0.23825705 -0.00000027
0.47493517 0.37977762 0.44215016
-0.47902172 -0.35186227 0.00000000
-0.13161144 0.68820804 0.00000000
-0.45851984 0.68999823 0.00000000
0.19571584 0.24243200 0.00000000
0.38103544 0.15221555 -0.00000024
-0.14024540 0.43404442 0.00000000
0.43089906 -0.54148600 0.00000000
0.01239814 0.23801542 0.00000000
0.15552933 -0.51100164 0.00000000
0.38717051 0.47326993 0.48843803
-0.19638328 0.14473629 0.00000000
0.56924459 0.27140779 0.32852322
-0.59655638 -0.42808750 0.00000000
-0.10159204 0.46588221 0.00000000
0.40606971 -0.66302196 0.00000000
0.29674152 0.08137757 0.00000000
-0.79992819 -0.53482849 0.00000000
-0.54880426 0.41285478 0.00000000
-0.05076207 -0.01205029 0.00000000
0.49242437 0.33670066 0.23536959
-0.50144540 0.68711257 0.00000000
-0.17771017 0.16814027 0.00000000
-0.36876458 -0.75046272 0.00000000
0.65884998 0.15437476 0.10687750
-0.17568679 0.64965814 0.00000000
-0.06801322 -0.19571326 0.00000000
0.05859011 -0.01141211 0.00000000
0.43758840 -0.42511698 0.00000000
0.21058448 -0.50625137 0.00000000
-0.24530820 -0.02193791 0.00000000
-0.36093182 -0.52886982 0.00000000
0.51691164 0.05239245 -0.00000044
0.22295671 0.04176139 0.00000000
-0.06950045 -0.12086813 0.00000000
-0.78151227 0.22068107 0.00000000
-0.14119251 0.58511710 0.00000000
-0.49858644 0.32791260 0.00000000
-0.58173934 -0.46522061 0.00000000
-0.08209572 0.67135754 0.00000000
-0.31023982 0.39129241 0.00000000
0.27867155 0.06957959 0.00000000
-0.71700899 -0.37936087 0.00000000
-0.76908441 -0.63463977 0.00000000
0.56974491 0.26443025 0.27618002
0.35156490 0.46338364 0.12080815
-0.71123084 -0.71325007 0.00000000
0.39006510 -0.65493390 0.00000000
-0.43553907 0.35517361 0.00000000
-0.30608370 -0.41749818 0.00000000
-0.42735847 0.21981924 0.00000000
-0.13016330 0.54373562 0.00000000
0.34594703 -0.19772708 0.00000000
0.51028042 -0.16231800 -0.00000024
0.15508668 0.57148239 -0.00000013
-0.39894012 0.16580069 0.00000000
0.04660721 0.13728809 0.00000000
-0.04147370 0.74850868 0.00000000
0.10052271 0.40050672 0.00000000
0.36826703 0.40406119 -0.00000044
-0.45200452 0.78100415 0.00000000
-0.09775174 -0.43962644 0.00000000
-0.29043900 0.13235386 0.00000000
0.57219445 0.24575054 0.14502238
-0.69354228 -0.58994484 0.00000000
0.71151506 0.04324383 -0.00000085
-0.67019644 -0.31385827 0.00000000
-0.70444888 0.34909463 0.00000000
0.53988548 0.26112687 0.00818823
-0.15679399 -0.01468456 0.00000000
-0.64513138 0.10243764 0.00000000
0.60813559 0.16525753 -0.00000074
0.42677464 0.38840670 0.12268927
-0.34820251 -0.35217813 0.00000000
-0.29496441 0.75180514 0.00000000
-0.35556929 0.76411207 0.00000000
0.49819803 -0.44648285 0.00000000
