ply
format ascii 1.0
element vertex 1393
property float x
property float y
property float z
end_header
-0.37393190 0.04071885 -0.00000013
0.17350992 -0.22183513 0.00000000
-0.59022707 -0.75284602 0.00000000
0.20803190 0.48437284 0.00000128
0.65876784 -0.49714175 -0.00000052
-0.68736197 -0.07546546 -0.00000069
-0.24189081 0.21766081 0.28187233
0.72504879 -0.69597332 -0.00000026
0.49862608 -0.69409003 0.00000000
-0.71228909 -0.78474766 -0.00000002
-0.47523291 0.09276584 -0.00000039
-0.59503847 0.08909412 0.09593101
-0.54660723 -0.56395102 0.00000000
-0.10069592 0.28288537 0.00000000
0.22282839 -0.70269099 0.00000000
-0.19758317 0.51919691 -0.00000017
0.69285272 0.02673014 -0.00000039
0.50371357 -0.16186400 -0.00000045
0.77223199 -0.33957786 -0.00000115
-0.78995243 -0.13163353 -0.00000084
-0.56354417 0.08861271 0.12240532
-0.30143846 0.45840752 0.03324526
0.14547904 0.33200982 0.00000000
-0.60311351 0.08533703 -0.00000066
-0.24848278 0.40226852 0.12357011
0.04293103 0.01439834 0.00000000
0.36121538 0.42152838 -0.00000061
-0.32139870 -0.06355970 0.00000000
-0.40225899 -0.33143004 0.00000000
-0.46339602 -0.51781469 0.00000000
0.31416223 -0.68582475 0.00000000
-0.65840862 0.08176410 0.04953251
-0.54559120 -0.75210190 0.00000000
0.74574694 0.03575869 -0.00000183
0.43623593 0.22491116 -0.00000085
-0.19690625 0.20503878 0.00000000
-0.64466046 -0.55470437 -0.00000018
0.32867793 -0.41232685 0.00000000
0.00323289 -0.50559089 0.00000000
0.35342580 -0.13850550 0.00000000
-0.10806486 -0.44036452 0.00000000
-0.19394339 0.25907294 0.28728307
0.44109394 0.17781039 0.00000192
-0.22720098 0.49350944 0.06564770
-0.15399504 -0.58277690 0.00000000
-0.41336193 -0.44558131 0.00000000
0.58440900 -0.70946212 0.00000000
-0.00496296 -0.03337660 0.00000000
-0.69392281 -0.00636598 -0.00000077
-0.29555827 0.47151624 0.02726043
0.56442224 0.17341655 -0.00000130
0.17162852 -0.05571832 0.00000000
-0.12166496 0.30061815 0.00000000
-0.24940943 -0.40562062 0.00000000
0.56449280 0.15742761 -0.00000127
-0.41032620 -0.51740983 0.00000000
-0.13421197 -0.33491451 0.00000000
0.30717531 0.14562806 -0.00000015
-0.71984912 -0.49546024 -0.00000038
-0.35955881 0.41015807 -0.00000042
0.20835139 -0.54852743 0.00000000
0.30893177 0.34034521 0.00000175
0.00632656 0.62242106 0.00000000
0.52822745 -0.12690334 -0.00000062
0.13839443 0.36452176 0.00000444
0.77488687 -0.51852710 -0.00000070
0.23480206 0.32662068 -0.00000017
0.06716714 0.13784409 0.00000000
-0.65159498 -0.75028815 -0.00000002
0.79809925 -0.29441762 -0.00000126
0.60722222 -0.74541533 0.00000000
-0.10593331 0.47465037 0.18166471
-0.47625049 -0.07194835 -0.00000025
0.06135573 0.28799331 0.00000675
-0.74916969 -0.07540073 -0.00000082
-0.61363840 -0.22886404 -0.00000040
0.02619895 -0.42677908 0.00000000
0.16595572 0.31757029 0.00000473
-0.24756909 0.52707670 -0.00000029
0.55892119 0.16882297 -0.00000127
-0.17936949 0.61456506 0.00502211
0.17788769 0.44512636 -0.00000013
-0.25103646 0.43565055 0.09381722
0.35127263 -0.73913548 0.00000000
0.16150521 -0.33395433 0.00000000
0.60700944 -0.11089147 -0.00000098
0.53339003 0.13202055 0.00000091
0.28573828 -0.43973779 0.00000000
0.26612197 0.29758115 -0.00000025
-0.56477074 -0.48902918 -0.00000007
0.48378657 0.28946479 -0.00000076
0.03460718 0.18263151 0.00000874
-0.21134631 -0.48645635 0.00000000
0.09211968 0.43522146 0.00000408
-0.30932796 0.38463257 0.08779493
0.23962977 0.17998341 0.00000568
-0.41205878 -0.30529522 0.00000000
-0.10976058 0.01187727 0.00000000
0.70593601 -0.25067353 -0.00000116
0.21972595 -0.49257344 0.00000000
0.54574037 0.04458968 0.00000214
-0.27534792 0.19300090 -0.00000005
0.25118755 -0.06924907 0.00000000
0.06824204 0.71762608 0.00000007
0.14408726 -0.39491893 0.00000000
-0.10176160 0.58823391 0.09107821
-0.41667457 0.09078720 0.24220577
0.20397552 -0.10534107 0.00000000
0.08111374 0.48566881 0.00000349
-0.52261613 0.26452561 0.01064507
0.10947191 0.16381526 0.00000789
0.53437769 -0.44603799 -0.00000008
0.12022008 -0.67948466 0.00000000
0.44748922 -0.73288652 0.00000000
-0.34095633 0.41484912 -0.00000039
-0.63623746 0.11067830 -0.00000075
-0.21563177 -0.01034058 0.00000000
0.37827291 0.35331533 -0.00000082
-0.44865673 -0.01734034 -0.00000023
-0.20761886 0.58718278 -0.00000025
0.28179705 -0.20972725 0.00000000
-0.26546046 -0.63600873 0.00000000
0.15173005 0.25824234 0.00000000
-0.41416653 0.22719568 0.13134323
0.46963514 0.06805573 0.00000321
0.30317528 0.30737702 -0.00000042
0.35149328 0.38980319 0.00000010
0.18697397 -0.38754342 0.00000000
-0.45539987 0.00718101 -0.00000027
0.26284357 0.33923713 -0.00000031
0.17039392 -0.49249307 0.00000000
0.10298072 -0.52477655 0.00000000
0.32151769 -0.33299731 0.00000000
0.64070677 0.09747815 -0.00000149
-0.21416417 -0.38652617 0.00000000
0.59568813 -0.18411915 -0.00000080
-0.40404644 -0.13068962 -0.00000004
-0.22762359 0.45890068 -0.00000018
0.14010161 0.14406912 0.00000772
-0.31788960 0.40577750 -0.00000033
0.29179202 0.28240183 0.00000304
0.03353317 -0.17471619 0.00000000
0.13350159 -0.40480153 0.00000000
-0.31205397 -0.40879215 0.00000000
-0.67796664 0.02812129 -0.00000076
-0.57230855 -0.20097154 -0.00000034
-0.78678418 -0.29282035 -0.00000063
-0.61532757 0.09806107 0.07170846
0.24674660 0.29893181 -0.00000017
0.50178797 -0.28416217 -0.00000022
0.07264629 -0.25055125 0.00000000
-0.52833613 -0.50690574 0.00000000
0.49313576 -0.21094256 -0.00000032
0.54262440 -0.38521652 -0.00000022
0.02615010 -0.48833983 0.00000000
-0.04994395 0.50759569 0.00000000
0.03379036 -0.30825165 0.00000000
-0.05357295 0.66574844 0.00000000
-0.29807070 0.12555819 0.31161431
0.12757683 0.23561537 0.00000654
0.51690504 -0.13290795 -0.00000056
-0.01975403 -0.57613504 0.00000000
0.49825845 0.01391368 0.00000356
0.47624756 0.09906266 -0.00000079
0.07184275 -0.19615938 0.00000000
0.04434032 -0.42997339 0.00000000
-0.63090208 -0.44318394 -0.00000025
0.42050007 -0.40088363 0.00000000
0.65723561 0.08695001 -0.00000154
0.41538513 -0.02346024 -0.00000032
-0.04734621 0.73769740 0.01238378
0.26786630 0.37309311 -0.00000039
0.12181738 0.12712461 0.00000000
0.41019218 0.30519592 -0.00000088
0.20710083 -0.51256995 0.00000000
0.43102221 0.12361468 -0.00000064
-0.33625486 0.19061370 0.22613805
0.05030813 0.65310234 0.00000000
-0.41460981 -0.03461194 -0.00000015
-0.45633605 0.00386040 -0.00000027
-0.56021925 -0.26091451 -0.00000026
-0.65563407 -0.41638844 -0.00000032
-0.14792896 0.24498136 0.33704720
-0.70284796 -0.77660289 -0.00000003
-0.50136385 -0.49582351 0.00000000
0.60676781 0.12377458 -0.00000139
0.70521709 -0.23729762 -0.00000118
-0.35393002 -0.27580879 0.00000000
0.58752638 -0.49632158 -0.00000022
-0.62296067 -0.56186957 -0.00000013
-0.52263452 0.09648108 -0.00000049
-0.22171895 0.29150879 -0.00000002
0.56233003 0.08441659 0.00000115
0.07023595 0.65230868 -0.00000004
0.59648568 -0.51751723 -0.00000022
-0.21956554 0.25477274 0.00000000
0.61561613 -0.78457095 0.00000000
-0.31675658 -0.09284118 0.00000000
0.49264367 0.22741632 0.00000010
-0.14161173 0.12711880 0.00000000
0.06737724 0.58044055 0.00000000
-0.33585645 0.10841080 -0.00000011
-0.28795816 0.24916458 0.21764812
0.57226108 0.21366796 -0.00000120
-0.35428782 0.28619454 0.13207190
-0.07326252 0.57119077 0.00000000
-0.15424870 0.53858147 0.08873133
0.59256169 -0.57204985 -0.00000010
0.00169567 0.13041424 0.00001002
0.15689900 0.29172820 0.00000000
-0.28989215 0.31591468 0.16078164
-0.50955854 -0.54865063 0.00000000
0.39783116 0.19733715 0.00000243
0.22789052 0.17104008 0.00000000
0.54625327 0.21716382 -0.00000130
-0.41938333 -0.04020029 -0.00000015
-0.19116983 0.17424058 0.35981557
0.63854058 -0.41362790 -0.00000058
0.08262233 0.33523623 0.00000572
0.37616262 -0.31724581 0.00000000
0.02597704 0.07366593 0.00000000
0.72908541 -0.32635039 -0.00000112
0.54507040 -0.51044992 -0.00000001
0.46967758 0.26870223 -0.00000014
0.12200972 -0.46480249 0.00000000
-0.50160465 -0.56101682 0.00000000
-0.16960827 -0.70118240 0.00000000
-0.19067667 0.24928265 0.00000000
0.37929009 0.39631740 -0.00000091
0.25335779 -0.30613491 0.00000000
-0.00352345 -0.39677089 0.00000000
0.50083655 0.11608027 0.00000181
-0.20031106 0.34854331 0.20793487
0.38010286 -0.21425684 0.00000000
-0.47409974 -0.43746597 0.00000000
-0.21621314 -0.71954329 0.00000000
-0.29211624 0.40954069 -0.00000028
-0.14201216 0.49249334 -0.00000003
0.12111148 -0.60070918 0.00000000
0.46493469 0.26714262 -0.00000104
0.56732729 -0.01601540 -0.00000098
-0.52800273 -0.65789859 0.00000000
-0.57051486 -0.03287769 -0.00000048
-0.71741598 -0.62561017 -0.00000022
0.03802685 0.62738208 0.00000202
-0.16355076 0.34493930 0.00000000
0.51319629 0.26751955 -0.00000096
-0.72845077 -0.21748785 -0.00000066
0.00449126 -0.44405463 0.00000000
0.57197914 0.00046358 0.00000237
-0.17468727 0.58639252 0.03222415
-0.53643667 -0.52250705 0.00000000
0.18131553 -0.77981947 0.00000000
-0.34859618 0.32238528 0.10682027
-0.57773323 -0.16339200 -0.00000038
0.06813573 0.42366991 0.00000000
0.36849237 0.02908297 -0.00000021
0.16660793 0.04271325 0.00000000
-0.53183745 -0.71623402 0.00000000
-0.24748365 0.25880971 0.24317294
0.42873211 0.16912662 0.00000230
-0.08983723 0.23433092 0.00000000
0.48226945 -0.74017458 0.00000000
-0.74784762 -0.41802319 -0.00000048
0.02892426 -0.42577190 0.00000000
-0.01444184 -0.42565079 0.00000000
0.24892482 0.10458530 0.00000000
0.65072455 -0.49462938 -0.00000049
-0.42813293 -0.55654375 0.00000000
-0.43992933 -0.45620430 0.00000000
0.70587254 -0.65726732 -0.00000036
-0.52551356 -0.42605825 -0.00000004
0.35712417 -0.20173502 0.00000000
-0.18744022 0.20232045 0.00000000
-0.00752349 0.60772107 0.00000000
0.21031160 0.04063723 0.00000822
-0.06176279 -0.00011920 0.00000000
-0.29041819 0.18756311 0.26661373
-0.38236145 0.35643534 0.05067262
0.15548129 0.13082007 0.00000769
0.17599883 -0.38525699 0.00000000
0.74808504 -0.08333357 -0.00000163
-0.22160676 0.00456640 0.00000000
-0.76653194 -0.00708296 -0.00000092
-0.14519179 0.29595301 0.29711191
0.63917833 0.14504198 -0.00000157
-0.31754702 -0.26703191 0.00000000
0.29228927 0.34284345 0.00000202
-0.38045127 0.17637096 -0.00000026
0.73538397 -0.66944444 -0.00000033
-0.24395955 -0.08755707 0.00000000
-0.08989474 -0.56811879 0.00000000
0.49966783 0.25471817 -0.00000117
0.15303022 0.39394022 0.00000378
0.22602447 0.17735783 0.00000000
0.02107401 0.43796768 0.00000000
-0.33537681 -0.39510392 0.00000000
-0.31127839 -0.37988935 0.00000000
0.62579927 -0.16340417 -0.00000097
-0.79669172 -0.56035832 -0.00000030
0.21332576 -0.48019310 0.00000000
-0.65374134 -0.08520738 -0.00000061
-0.60594275 0.05560208 0.11463244
0.04885947 -0.42392491 0.00000000
0.28528266 -0.60082279 0.00000000
-0.04717742 -0.76941788 0.00000000
0.20430772 0.59163189 -0.00000050
-0.08690432 0.19383323 0.00000000
0.47948555 -0.46542293 0.00000000
-0.56141564 0.22306164 0.01285097
-0.09696226 0.50488596 0.00000000
0.11135769 0.02673788 0.00000992
0.10204413 0.05992290 0.00000956
0.36625908 0.14872830 -0.00000041
-0.06092606 -0.66397860 0.00000000
-0.31314170 -0.30382031 0.00000000
-0.69907708 0.05599616 -0.00000083
-0.44952827 -0.37678931 0.00000000
-0.27808538 0.25019927 -0.00000011
-0.09239151 0.30950588 0.00000000
-0.00861899 0.54935381 0.00000000
0.36690272 -0.70025427 0.00000000
-0.24735936 -0.26470965 0.00000000
0.21044924 -0.65828319 0.00000000
-0.25510446 -0.40390857 0.00000000
0.62802041 -0.25363933 -0.00000082
-0.25854247 0.34541515 -0.00000015
0.13934410 0.27777764 0.00000000
-0.20428706 0.46921013 0.10473785
-0.39895989 0.36027749 0.03374883
0.02384630 -0.68701781 0.00000000
0.47823704 0.22975975 -0.00000103
-0.37099296 -0.19223425 0.00000000
-0.12134048 -0.70423602 0.00000000
-0.70040325 -0.39668412 -0.00000044
-0.25858410 0.03571469 0.00000000
0.39251084 0.40543536 -0.00000098
0.70557439 -0.18716242 -0.00000127
-0.68588627 0.05903349 -0.00000081
0.58413476 -0.13701139 -0.00000084
-0.27112788 -0.27179025 0.00000000
0.48408610 0.05103605 0.00000321
-0.39328052 0.22479624 0.15062243
0.02047223 -0.27417866 0.00000000
-0.55945134 0.00540810 -0.00000049
0.14770156 0.12354893 0.00000792
-0.33737468 0.17709696 0.23640198
-0.32603884 0.37042558 0.08572179
-0.53172248 0.06183114 -0.00000048
0.01349807 0.02457270 0.00001143
-0.37333130 0.14810490 -0.00000022
-0.50009097 -0.06762719 -0.00000030
-0.23463591 -0.29398768 0.00000000
-0.43794596 -0.62033376 0.00000000
-0.41126626 -0.79274545 0.00000000
-0.17408171 0.20274775 0.35036124
-0.52512074 0.19904378 0.06278689
0.10951462 -0.37091107 0.00000000
0.25800138 0.16755221 0.00000559
0.31957671 0.26424128 -0.00000042
0.21964470 -0.46808103 0.00000000
-0.17815498 0.57474118 0.03899975
-0.53195431 -0.01063086 -0.00000042
-0.25024798 0.47864300 0.05887454
0.02592155 0.74052155 -0.00000001
0.11097936 0.67062840 -0.00000024
0.24117319 0.45365319 0.00000115
-0.48306341 -0.57099794 0.00000000
0.47735537 -0.54626006 0.00000000
0.08241532 0.66384565 -0.00000011
0.52789718 0.23923442 -0.00000126
-0.00437145 -0.40274818 0.00000000
0.56978014 -0.35974204 -0.00000038
-0.09570442 -0.09195831 0.00000000
0.08624941 0.12481363 0.00000883
-0.37095302 -0.59533173 0.00000000
0.43102129 0.10701806 0.00000330
-0.44195411 -0.53662310 0.00000000
-0.49588475 -0.30996825 -0.00000008
-0.70814039 -0.42953438 -0.00000042
-0.23533096 0.37093216 0.16040389
0.60901674 -0.77034817 0.00000000
-0.59168426 0.18207023 -0.00000072
0.76932054 -0.38863725 -0.00000103
-0.55346990 0.22163086 -0.00000067
-0.30334395 0.42028592 0.06323029
0.15752942 0.28494461 0.00000535
-0.09748123 -0.60160086 0.00000000
0.32265828 0.09065408 -0.00000012
0.11986813 -0.12779823 0.00000000
-0.58078267 0.19875643 -0.00000071
0.12567854 0.32250339 0.00000527
-0.34069599 -0.01381967 -0.00000001
-0.23898771 0.20574747 0.29413945
0.58542409 -0.49911568 -0.00000020
0.19497280 0.48111454 -0.00000027
-0.15112182 0.38972116 0.00000000
0.32724928 -0.76412341 0.00000000
0.51325784 -0.55471444 0.00000000
-0.13166533 0.29196095 0.31161618
-0.50712862 0.23658571 0.04660073
0.02760302 0.51668522 0.00000383
0.41232898 -0.78374393 0.00000000
0.72982384 -0.72660088 -0.00000018
-0.29995826 -0.33052535 0.00000000
0.08867397 -0.02187025 0.00000000
0.65858806 -0.33192527 -0.00000081
0.03048353 0.10098797 0.00000000
0.07891749 0.22574937 0.00000742
0.44446459 0.25109686 0.00000063
-0.57585020 0.17509478 -0.00000068
-0.11661982 -0.27844474 0.00000000
0.54565082 -0.34837627 -0.00000030
-0.30364660 0.14578365 -0.00000007
-0.45685014 -0.05496391 -0.00000022
-0.61685168 -0.18291891 -0.00000045
-0.63068746 -0.19432770 -0.00000047
0.47445101 -0.67330751 0.00000000
-0.08037352 -0.45992244 0.00000000
0.40422514 0.19995439 -0.00000066
0.67646843 -0.37669460 -0.00000081
0.73665022 -0.55090523 -0.00000062
0.64403018 -0.46572675 -0.00000051
0.33972010 0.22765165 0.00000304
0.54122024 0.18194995 -0.00000007
0.66150315 -0.56779613 -0.00000041
0.74291867 -0.23985482 -0.00000133
0.13571945 0.31431685 0.00000524
-0.19304738 0.28036199 0.27039884
0.02483566 -0.56578645 0.00000000
0.70963055 -0.44302828 -0.00000083
0.03703964 0.54099874 0.00000000
-0.30239181 0.29340597 0.16906856
-0.49518143 0.07855047 0.18733732
0.35950368 0.13875166 -0.00000037
0.61901858 0.15897398 -0.00000118
0.55622306 0.02867639 -0.00000101
-0.33932755 -0.52614400 0.00000000
-0.19942686 -0.04813680 0.00000000
0.30880997 0.08825877 -0.00000006
-0.58345242 -0.10531410 -0.00000044
-0.50717288 -0.48456213 0.00000000
-0.05555272 0.66110805 0.06900087
-0.06589917 0.72651889 0.00627807
-0.65979717 -0.13736111 -0.00000058
-0.00120060 -0.71785597 0.00000000
-0.12877935 -0.39734299 0.00000000
-0.22122351 0.46252641 0.09624907
0.07453865 0.20423839 0.00000000
0.04464055 0.03416459 0.00000000
0.31697135 0.01033072 0.00000706
0.40967035 0.38047362 -0.00000101
-0.39613884 -0.18931602 0.00000000
-0.53440513 -0.78301616 0.00000000
-0.10467136 0.33472409 0.00000000
0.56880354 -0.30850066 -0.00000047
0.40128444 -0.78989695 0.00000000
0.75572997 -0.01702698 -0.00000178
0.35001951 0.25396460 0.00000240
0.14779707 0.35800871 0.00000440
-0.62013753 -0.19071499 -0.00000045
-0.44716334 0.12255878 -0.00000036
0.62187461 -0.16755246 -0.00000094
0.23075884 0.20234087 0.00000000
-0.11369531 0.55079679 0.11219354
-0.72955425 -0.66368148 -0.00000017
-0.30030226 -0.63597099 0.00000000
-0.57921164 0.10176223 0.09854631
-0.28072376 0.34169926 0.14702433
-0.23935706 0.39439999 0.13764049
-0.37396563 -0.09651708 -0.00000001
-0.23403884 -0.78083345 0.00000000
0.79065147 -0.46829763 -0.00000083
0.12671317 -0.61336400 0.00000000
0.53618199 0.07627415 -0.00000101
-0.71854791 -0.74398606 -0.00000007
-0.26088772 0.09092211 0.00000000
0.30948257 0.18747007 0.00000429
0.20773190 -0.05838029 0.00000000
0.07375095 -0.05012750 0.00000000
-0.34828043 -0.21605525 0.00000000
0.73133221 -0.57365577 -0.00000057
-0.42023946 0.28399518 0.07928814
0.34620320 0.37028377 -0.00000072
-0.34934337 -0.59388539 0.00000000
-0.55750947 0.07864800 -0.00000055
0.51847648 -0.39878678 -0.00000009
-0.52247533 0.23356125 -0.00000061
-0.20767122 -0.03220064 0.00000000
-0.49163072 0.29211367 0.01345800
-0.50505099 0.20279338 0.07629919
-0.74378668 -0.63737925 -0.00000020
-0.47926886 0.30787873 -0.00000059
-0.51314854 -0.78268358 0.00000000
-0.70722906 -0.46720840 -0.00000039
-0.44509215 0.08981277 0.21948418
0.20742514 0.23156424 0.00000540
0.05551892 0.30171830 0.00000000
-0.43296272 -0.58857693 0.00000000
-0.50534455 -0.70578889 0.00000000
0.11706057 -0.76761756 0.00000000
-0.38896836 0.16357571 0.20488008
0.53737419 -0.70234700 0.00000000
-0.56363482 -0.32517428 -0.00000021
0.04779431 0.41527619 0.00000000
-0.31700541 -0.14953694 0.00000000
0.56379705 0.02728351 -0.00000104
-0.27475406 0.40765898 -0.00000024
-0.25177045 0.47103771 0.06391080
-0.00807092 0.39921470 0.00000000
0.01477611 -0.47391303 0.00000000
0.37423416 0.11623716 -0.00000039
-0.26037446 -0.49507216 0.00000000
-0.09783105 0.10047903 0.00000000
0.41154360 -0.58822618 0.00000000
0.69891952 0.06896112 -0.00000169
0.52659088 -0.29784586 -0.00000031
0.62245017 -0.70358941 0.00000000
0.43036352 0.32850039 -0.00000100
0.07812554 0.67098415 0.00000065
-0.44712431 0.13753924 0.17828664
0.47938858 -0.38571792 0.00000000
-0.56887449 -0.28770911 -0.00000025
-0.21061234 0.11472482 0.00000000
0.66921417 -0.51763627 -0.00000053
-0.21640958 0.23110258 0.29184024
-0.49212433 -0.65698273 0.00000000
0.03147871 -0.28295979 0.00000000
0.40779904 -0.02776794 -0.00000028
-0.45565307 -0.28005042 -0.00000002
-0.44829526 0.22325175 -0.00000045
0.63122468 -0.22910770 -0.00000087
-0.10877625 -0.41703357 0.00000000
-0.16717132 0.29407587 0.28046836
0.27247155 0.51508423 -0.00000066
0.30029489 0.30210350 0.00000255
-0.08882984 0.45452768 0.00000000
-0.27567846 0.12281706 0.00000000
0.00423159 0.71881150 0.00000000
0.11578390 0.31531238 0.00000552
0.48180429 0.14965575 0.00000161
-0.27377336 0.49622558 -0.00000032
0.33668836 -0.25996020 0.00000000
0.59101749 0.03711906 0.00000139
0.14033874 -0.26925344 0.00000000
0.62019513 -0.00193121 -0.00000123
-0.23490949 0.40630645 -0.00000015
-0.34244281 0.43185798 0.02127730
-0.32606901 0.05904499 -0.00000004
-0.16168097 0.59882032 0.03270316
0.06300569 -0.79073077 0.00000000
-0.44293277 -0.58980119 0.00000000
0.29519589 0.42716230 0.00000056
0.62218273 -0.28043300 -0.00000075
0.33937069 0.09912170 -0.00000021
0.09899017 0.04851286 0.00000000
-0.32294610 -0.72438370 0.00000000
0.03936626 0.16006774 0.00000000
-0.71588320 -0.51141557 -0.00000036
0.44705565 0.11361992 0.00000288
-0.36640512 -0.52917823 0.00000000
0.72445693 -0.34414640 -0.00000107
-0.74506441 -0.73610550 -0.00000008
-0.29940862 0.34855307 -0.00000024
0.44591762 0.18969070 -0.00000082
0.04217772 0.11803886 0.00000959
-0.68818384 -0.21876943 -0.00000057
0.03769383 0.70256516 0.00000000
0.34572619 -0.58565136 0.00000000
-0.27198985 0.21586896 0.25843570
-0.23031439 0.44847384 0.10035707
0.68915562 -0.67195205 -0.00000032
-0.41758206 0.25458590 -0.00000041
0.09615305 0.05787903 0.00000968
-0.44959266 0.05068570 -0.00000030
-0.10283926 -0.72933668 0.00000000
0.18935557 -0.44109598 0.00000000
-0.73756718 -0.07716920 -0.00000080
0.13790074 -0.14214569 0.00000000
-0.53175827 -0.76944952 0.00000000
-0.17067087 0.42518380 -0.00000003
-0.26682550 -0.27091844 0.00000000
0.61242152 0.02451957 0.00000119
-0.12001467 -0.50768929 0.00000000
-0.28878901 0.42452709 0.07176960
0.62957687 -0.00824386 -0.00000126
0.57341805 -0.24133056 -0.00000061
0.35142777 -0.58216532 0.00000000
0.60985604 -0.49221113 -0.00000032
-0.14969704 0.25271535 0.32918005
-0.18344200 0.17804939 0.36306027
-0.14314861 0.50640824 -0.00000005
0.15579112 0.57819741 -0.00000027
-0.72364884 -0.27369466 -0.00000060
0.59366022 -0.24195742 -0.00000069
-0.37568828 -0.40612324 0.00000000
0.31256148 0.39986657 0.00000068
-0.27925270 -0.13250099 0.00000000
-0.11019822 -0.64691077 0.00000000
-0.04796048 -0.13770595 0.00000000
-0.01760568 0.06409113 0.00000000
0.49939749 -0.12415081 -0.00000050
-0.65967869 -0.34456299 -0.00000040
0.31291505 0.45878079 -0.00000073
-0.35805832 0.24403049 -0.00000027
0.73091956 -0.59857175 -0.00000050
0.13566548 0.45476337 0.00000000
-0.30107362 -0.23360251 0.00000000
-0.08726738 0.61333389 -0.00000002
0.40698932 0.27089893 -0.00000080
-0.27346257 -0.61401896 0.00000000
-0.60562891 0.04475290 0.12387485
-0.30871827 -0.35607977 0.00000000
-0.12312439 0.33940831 0.27940396
-0.07886698 0.60345711 0.09742965
-0.79062185 -0.67681808 -0.00000015
-0.17491843 -0.52717663 0.00000000
-0.30482698 -0.10153531 0.00000000
0.16442711 0.20101051 0.00000650
-0.19433207 0.24619955 0.29761967
-0.45823401 0.00905600 -0.00000028
0.14107254 0.32648871 0.00000497
0.40593806 -0.79223438 0.00000000
0.61347052 -0.15334428 -0.00000093
-0.43372491 -0.00386241 -0.00000021
0.45414556 0.31536614 -0.00000108
-0.40865416 0.31982163 0.05921778
-0.24785855 0.37562256 -0.00000015
-0.61936241 0.11039059 0.05815961
-0.15989339 0.42101582 -0.00000001
-0.48889887 0.30122344 0.00817742
-0.47867214 0.10823219 -0.00000041
0.45459721 -0.64706784 0.00000000
-0.34290313 0.13410793 -0.00000014
0.34115949 0.33744018 0.00000118
-0.03114547 -0.57697563 0.00000000
-0.23427011 0.14893319 0.00000000
0.32988666 0.31939290 0.00000169
0.11213514 -0.01928029 0.00000000
-0.66992283 -0.19620421 -0.00000055
-0.26476195 0.08758414 0.00000000
-0.41295925 0.34736472 0.03284914
-0.36166493 0.21646103 0.18369971
-0.41473316 0.19711385 0.15578027
-0.16913336 0.52482949 0.08779347
0.39873813 -0.20638060 0.00000000
0.49349394 -0.47161259 0.00000000
0.55164254 -0.60926738 0.00000000
-0.26903937 0.31084148 -0.00000014
-0.12974293 0.33166814 0.28033261
0.20352035 0.02782392 0.00000851
0.52715628 -0.38082013 -0.00000016
-0.18234161 -0.26063362 0.00000000
0.34085945 0.36057868 0.00000079
0.19242705 0.58548754 -0.00000044
0.23633433 0.18675496 0.00000563
-0.17436742 0.32417423 0.24959077
0.51893323 0.10408236 -0.00000098
0.76952026 -0.04418882 -0.00000179
0.13309343 -0.09923087 0.00000000
-0.03242239 0.29374763 0.00000000
0.13611768 -0.52229816 0.00000000
-0.54919834 -0.42381729 -0.00000009
-0.12555393 -0.76181367 0.00000000
-0.08057379 0.07867275 0.00000000
-0.14391038 0.25556245 0.33161383
-0.67519386 -0.71194483 -0.00000010
0.76626455 -0.54959426 -0.00000063
0.20669699 -0.49575379 0.00000000
0.27761004 -0.28275890 0.00000000
0.29226053 0.36634585 0.00000163
0.03047371 -0.17607290 0.00000000
0.48947473 -0.74382611 0.00000000
-0.36612216 -0.34858409 0.00000000
0.78668951 -0.18231519 -0.00000154
0.45785088 0.04772555 0.00000377
-0.50612046 0.17434453 0.09896787
-0.50117353 -0.76489801 0.00000000
0.35955514 -0.22846586 0.00000000
-0.47111482 -0.38743718 0.00000000
-0.49487826 -0.01138762 -0.00000034
0.47896639 -0.49314387 0.00000000
-0.14565525 0.49104686 0.13520206
0.33432694 0.34979436 -0.00000063
-0.08677508 -0.04905670 0.00000000
-0.25143224 -0.51022659 0.00000000
-0.53853764 0.23984886 0.01789389
0.55897691 -0.68656627 0.00000000
0.28461443 0.27005358 -0.00000028
0.52495741 0.21913366 -0.00000121
-0.64457429 -0.32435378 -0.00000038
0.16882150 0.06592741 0.00000846
-0.65162347 0.11458983 -0.00000078
0.27432184 -0.11774541 0.00000000
-0.00033935 -0.35989334 0.00000000
-0.59378172 0.04766866 -0.00000060
-0.07212927 -0.35820936 0.00000000
0.64538270 -0.19664652 -0.00000099
-0.57117990 0.15552658 -0.00000065
-0.49750447 -0.36226090 -0.00000003
-0.22061329 -0.56558364 0.00000000
0.63440537 -0.51160297 -0.00000039
0.45037090 0.13767596 0.00000241
-0.03733049 0.13387801 0.00000000
-0.63050011 0.12716091 -0.00000075
-0.77251284 -0.48468251 -0.00000039
0.11015882 0.35927987 0.00000000
-0.15640896 -0.31270868 0.00000000
-0.50495626 -0.24089536 -0.00000016
0.13701522 -0.11645452 0.00000000
0.00043821 0.18919438 0.00000000
0.54605086 -0.44514363 -0.00000013
0.74278321 -0.36697864 -0.00000108
0.07912847 -0.02009907 0.00000000
-0.78453991 -0.51684565 -0.00000035
-0.26251526 0.14094956 0.32830890
0.01969534 0.37280111 0.00000611
0.18945734 -0.68291184 0.00000000
0.71570122 0.06888065 -0.00000153
0.18523376 0.38216629 -0.00000005
0.15072344 0.30177995 0.00000000
0.16177481 0.53578805 0.00000131
0.59829066 -0.24610808 -0.00000070
-0.21991929 0.19113706 0.32202349
0.63376292 -0.65476848 -0.00000013
-0.00259904 -0.29994315 0.00000000
-0.64621136 -0.09852840 -0.00000058
-0.17009659 0.51821711 -0.00000011
0.35903530 -0.29952180 0.00000000
-0.37534364 0.11411202 0.25711378
-0.26749300 0.35136735 0.14997408
0.32113309 0.38832725 -0.00000064
0.07807599 0.08507372 0.00000955
-0.31876392 0.32648104 0.12812884
0.51837188 -0.38211241 -0.00000012
-0.47551652 0.13474334 -0.00000043
-0.73824275 -0.62782507 -0.00000022
0.45710162 0.30609521 -0.00000108
-0.06664230 -0.21790462 0.00000000
0.63925935 -0.66714448 -0.00000013
-0.07369267 0.64397269 0.06816917
-0.02775609 0.70054862 0.05936033
-0.25743910 0.49757604 -0.00000028
-0.10038654 0.44434596 0.21134736
-0.51675858 -0.77221393 0.00000000
-0.05155169 0.69230315 -0.00000001
-0.09151739 0.47631447 0.19222244
0.42447616 -0.39995709 0.00000000
0.36768127 0.30603985 0.00000119
-0.39004941 0.07659080 -0.00000019
-0.53283299 -0.46692327 -0.00000002
-0.39716312 0.34145997 0.05081639
0.33184170 0.25290852 -0.00000045
0.43418241 0.26516887 0.00000060
0.40691371 -0.25780099 0.00000000
0.47542166 0.20519541 0.00000081
0.07535085 0.20472224 0.00000779
-0.27199117 0.52342739 0.00379312
-0.53776799 0.16251149 -0.00000058
-0.17082788 0.19778417 0.35716476
-0.62516451 -0.40227122 -0.00000027
0.59332426 -0.32668448 -0.00000054
-0.78814085 -0.14228986 -0.00000082
-0.45566119 0.03292319 -0.00000029
-0.21961206 0.48281303 -0.00000019
0.25105998 0.13115240 0.00000000
-0.29672409 0.05169436 0.00000000
0.46105867 -0.75598940 0.00000000
-0.47709387 -0.75963121 0.00000000
-0.11833613 0.56865763 0.09356350
0.02443094 -0.59869740 0.00000000
-0.73947230 -0.57620029 -0.00000028
0.45788684 -0.24657912 -0.00000010
-0.58283102 -0.37656407 -0.00000020
0.65335830 -0.10516466 -0.00000119
-0.21312939 0.55297342 0.02806523
0.58713608 0.00847427 -0.00000111
0.08876332 -0.57553818 0.00000000
0.09614880 -0.14354691 0.00000000
-0.55186796 -0.22342526 -0.00000027
0.34416669 0.34667279 0.00000096
0.66837374 0.11811392 -0.00000145
0.18119157 0.48057760 -0.00000021
-0.06633489 -0.34598512 0.00000000
0.09502296 -0.44357816 0.00000000
-0.34039494 0.42927931 0.02510784
-0.38611201 0.32520381 -0.00000040
-0.41921945 0.18016297 0.16610028
-0.08738418 0.67835384 0.02836767
0.60551595 -0.66215293 0.00000000
-0.24262695 0.49332001 -0.00000025
0.35878657 0.29716705 0.00000151
0.66807333 -0.22090367 -0.00000105
0.42482237 -0.66979169 0.00000000
-0.78221125 -0.74334726 -0.00000007
0.06292129 -0.53922250 0.00000000
0.77008405 -0.78354705 -0.00000004
0.21166864 -0.65894270 0.00000000
0.11806789 -0.35410165 0.00000000
0.20850275 0.57448652 -0.00000049
0.43050744 -0.55022198 0.00000000
0.00426066 -0.00641066 0.00000000
-0.49654522 -0.54544381 0.00000000
0.76244755 -0.18974342 -0.00000150
0.45884866 -0.04140326 -0.00000047
0.60756391 -0.16286836 -0.00000089
-0.01673154 -0.66961633 0.00000000
-0.75550456 -0.44261196 -0.00000045
-0.31272495 0.21848468 0.22254387
0.48485599 -0.26923308 -0.00000018
-0.16555329 0.58767201 -0.00000017
0.00964958 0.63557179 0.00000232
-0.35184476 -0.29961669 0.00000000
0.35412243 0.13939916 0.00000423
0.32382988 -0.09213511 0.00000000
0.30341934 -0.65473631 0.00000000
-0.35486333 0.25290037 -0.00000027
-0.34782020 -0.75836327 0.00000000
-0.04946747 0.60934978 0.00000000
-0.76434163 -0.77046725 -0.00000004
0.24377375 -0.44009265 0.00000000
0.37445711 0.31642319 0.00000089
0.48769391 -0.59000079 0.00000000
-0.58746839 -0.79084419 0.00000000
-0.06022730 0.12639140 0.00000000
-0.76788235 -0.11245725 -0.00000083
-0.26985804 0.14069413 0.00000000
0.39427516 -0.09747955 -0.00000010
0.39970562 0.34521772 -0.00000008
0.40976492 -0.45207723 0.00000000
-0.18896184 0.17600587 0.36018209
0.61233092 -0.09323561 -0.00000103
0.54351662 0.16646240 0.00000014
-0.39218622 0.11704808 0.24073827
-0.12805126 -0.43881150 0.00000000
-0.70371589 -0.07185017 -0.00000073
-0.00014806 -0.59437437 0.00000000
0.31274970 -0.01970352 0.00000000
0.40873453 -0.39504107 0.00000000
0.68271009 -0.20352975 -0.00000114
0.32110492 0.42819467 0.00000004
-0.12652958 -0.67977293 0.00000000
-0.29623525 0.00227390 0.00000000
0.50238824 -0.43467746 0.00000000
0.25771084 0.53320537 -0.00000063
0.25556802 -0.09519498 0.00000000
0.03285732 0.38038875 0.00000000
0.29862300 0.27619389 0.00000302
-0.67912078 -0.13941738 -0.00000062
-0.05475447 0.65844119 0.07186977
0.10428265 -0.48063538 0.00000000
0.10067335 0.19691470 0.00000753
-0.66007990 -0.15543233 -0.00000056
0.26123544 -0.28218575 0.00000000
-0.66671436 0.01833922 -0.00000073
-0.73576300 -0.32186476 -0.00000058
0.10295410 -0.48224238 0.00000000
-0.44369246 -0.27234495 0.00000000
0.12337802 0.64307136 0.00000025
0.24171880 -0.70640698 0.00000000
-0.78457326 -0.44546481 -0.00000044
-0.58780980 -0.59194824 -0.00000002
0.25657748 0.24396799 -0.00000011
0.35926827 -0.46094547 0.00000000
-0.44980891 0.16615728 0.15236968
-0.42567626 -0.68360992 0.00000000
0.40337372 0.10587592 0.00000385
0.36571467 -0.14193035 0.00000000
-0.40442048 0.23795051 0.13050805
-0.08471188 0.53857182 0.14631159
0.34185133 -0.67207561 0.00000000
0.00980531 0.60719391 0.00000274
0.19803992 0.26772717 0.00000500
0.65033150 0.03317840 0.00000032
-0.43055819 0.36547902 0.00328039
0.38098736 -0.68367019 0.00000000
0.65978126 -0.05825174 -0.00000130
-0.37267657 0.15284652 -0.00000022
0.38706487 0.21247615 0.00000238
-0.20942337 0.33045990 -0.00000003
0.25978361 -0.44051047 0.00000000
0.40143489 -0.42346061 0.00000000
-0.20939656 0.20477990 0.31944020
0.76774766 -0.04832139 -0.00000178
0.13191424 0.33016317 0.00000000
-0.70296078 -0.76539710 -0.00000004
-0.23633478 -0.72167143 0.00000000
0.77695049 -0.00001164 -0.00000190
-0.40451470 0.29271048 -0.00000041
0.66170528 -0.24746699 -0.00000097
-0.29664440 0.43133203 0.05963159
-0.51050572 -0.66032231 0.00000000
-0.11723231 0.27788796 0.33521744
-0.26131800 0.13734651 0.33228327
-0.30212964 0.13730451 0.29852849
-0.05052005 -0.34196351 0.00000000
-0.20900998 0.52332113 0.05602644
0.62871454 -0.34859979 -0.00000065
-0.53325754 0.06228054 -0.00000049
-0.63427567 -0.27379955 -0.00000040
-0.21185641 0.44830196 0.11578167
-0.74803087 -0.48994164 -0.00000039
0.05443970 0.27733737 0.00000702
0.24344073 -0.47938881 0.00000000
0.23800334 0.27927030 -0.00000010
0.58118545 0.15168706 -0.00000033
0.28995773 0.02378380 0.00000727
0.14525684 -0.22720234 0.00000000
-0.23618247 0.35900950 -0.00000011
0.04265253 -0.08718127 0.00000000
-0.06003056 -0.68847531 0.00000000
-0.31614491 0.24500407 -0.00000018
0.31094465 0.47365481 -0.00000075
-0.44418039 0.18062947 -0.00000040
0.56523363 -0.76359194 0.00000000
0.12666520 -0.72528119 0.00000000
-0.07808621 -0.10254885 0.00000000
0.30407506 0.09979436 0.00000586
-0.26996916 0.25674365 -0.00000010
-0.14528833 0.34023763 0.26036694
-0.28898144 0.46980527 -0.00000032
0.13649099 -0.07981100 0.00000000
-0.69951835 -0.10210349 -0.00000070
-0.23019528 -0.68134642 0.00000000
0.24427967 -0.67952037 0.00000000
0.78372385 -0.72057316 -0.00000020
-0.08259367 0.52394581 0.00000000
0.56905346 0.03887937 0.00000179
-0.43382954 0.29769313 0.05669504
-0.10293610 0.12688139 0.00000000
0.64194835 -0.52660415 -0.00000039
0.73388730 -0.03137843 -0.00000166
-0.36542357 -0.55452658 0.00000000
0.25233827 0.10313490 0.00000665
0.18884707 0.23983572 0.00000555
0.15118807 0.16829192 0.00000719
0.02956922 0.23789095 0.00000000
-0.59578493 -0.09941526 -0.00000048
-0.30687613 -0.28553413 0.00000000
-0.16559429 0.53236593 -0.00000012
-0.27295329 -0.55715214 0.00000000
0.62761513 -0.00326312 -0.00000126
0.66884985 -0.36168101 -0.00000080
0.26606191 0.01904496 0.00000000
0.69679574 -0.19794422 -0.00000121
-0.68874150 -0.69390014 -0.00000013
0.38855229 0.11297932 0.00000401
0.05022819 -0.18478510 0.00000000
-0.16152986 0.28241914 0.29479022
-0.54268892 -0.36618191 -0.00000013
0.29085785 0.19359331 -0.00000017
-0.29359772 0.30331409 0.16814623
-0.74908991 -0.61076311 -0.00000024
0.02286380 0.72017142 0.00000000
-0.18452791 0.29375675 0.26636238
-0.38666258 0.18418191 0.18972830
0.59357688 0.17311310 -0.00000143
-0.58837580 -0.01253252 -0.00000054
0.39617611 -0.59447477 0.00000000
-0.57279225 -0.07444462 -0.00000045
-0.22320857 0.46253003 -0.00000018
-0.50203248 -0.78428495 0.00000000
-0.16168332 0.38446419 0.21017592
-0.22735884 -0.59297176 0.00000000
0.45214532 0.06078034 -0.00000062
-0.05434358 0.58306221 0.13461929
0.22129145 0.30077444 0.00000409
0.61354893 -0.16060520 -0.00000092
0.25919998 0.37675697 0.00000209
-0.21639894 -0.45438657 0.00000000
0.46242176 -0.46431491 0.00000000
0.72913701 -0.04422405 -0.00000162
-0.48610051 -0.54630914 0.00000000
0.32627817 -0.62304689 0.00000000
-0.47260430 0.08365228 -0.00000038
0.03468600 0.70836670 0.00000085
-0.33721276 -0.19366764 0.00000000
0.36222759 -0.68675071 0.00000000
0.63961426 -0.12744977 -0.00000109
0.20813337 0.05368791 0.00000000
0.26910436 0.37327944 0.00000196
0.08748714 -0.38576662 0.00000000
0.51438572 -0.18173183 -0.00000046
0.52659442 0.09119901 -0.00000099
0.73913254 -0.18374769 -0.00000142
0.39300799 -0.12648560 -0.00000004
-0.78764139 -0.15907263 -0.00000080
-0.56543921 -0.15709386 -0.00000036
-0.23324645 0.27697550 -0.00000004
-0.52125060 0.23601212 0.03538333
-0.15045323 -0.09848618 0.00000000
0.78975242 -0.19229690 -0.00000152
0.64911071 -0.59839628 -0.00000030
-0.04800912 0.63211594 0.00000000
0.21124852 -0.74202290 0.00000000
-0.52262501 -0.03630514 -0.00000038
-0.15027090 -0.72559344 0.00000000
0.16085524 0.39494423 0.00000000
0.19205458 0.48613545 -0.00000026
0.40886585 -0.72895755 0.00000000
0.42406651 -0.41408221 0.00000000
-0.45734320 0.18403262 0.13133182
-0.51364108 -0.44901597 0.00000000
-0.25967323 0.29017333 -0.00000010
-0.18680437 -0.15934077 0.00000000
-0.59724247 -0.26353944 -0.00000033
0.34953654 0.04628030 0.00000588
0.00196712 0.56144101 0.00000000
0.24540416 -0.72854982 0.00000000
-0.04498464 0.53948079 0.00000000
0.77298250 -0.73048865 -0.00000017
-0.35334124 -0.02920314 -0.00000002
-0.59644700 -0.76695305 0.00000000
0.42726967 -0.26261008 0.00000000
0.64462267 -0.31304411 -0.00000078
-0.57033739 0.17824602 0.04256919
-0.46736314 -0.15980873 -0.00000015
-0.31316711 0.48411962 0.00224625
0.27472842 -0.54977833 0.00000000
0.16277986 0.23334023 0.00000604
0.25124139 0.07378672 0.00000710
0.52631271 -0.26350095 -0.00000037
0.27539412 0.03403136 0.00000000
0.62175288 -0.14146544 -0.00000099
-0.03111983 0.65688950 0.09272252
0.27482879 0.50332547 -0.00000032
0.54712430 -0.13247790 -0.00000069
-0.14949646 0.30778057 0.00000000
-0.27743027 0.28473556 0.19691390
0.05059780 0.02180425 0.00000000
0.45073852 0.10539367 0.00000295
0.78395773 -0.23201992 -0.00000142
0.24249722 -0.44134635 0.00000000
-0.09948366 -0.23773896 0.00000000
0.70986814 -0.02940989 -0.00000156
0.14545040 -0.54689442 0.00000000
0.07264452 0.42754588 0.00000000
-0.29731572 0.42935687 0.06071110
0.05192103 0.10869768 0.00000959
0.64257395 0.00121726 -0.00000133
-0.61505716 -0.56889297 -0.00000010
0.50253691 -0.77127147 0.00000000
-0.27235707 -0.15645970 0.00000000
-0.09897597 0.52877624 0.14261196
-0.38303088 0.03265417 -0.00000014
0.07597981 0.61595368 0.00000000
-0.22871572 -0.31853317 0.00000000
-0.22889484 0.43201962 0.11515561
-0.72467647 -0.65447510 -0.00000018
0.50866471 -0.26907624 -0.00000028
0.00587481 -0.15331247 0.00000000
-0.72555685 -0.66638348 -0.00000017
0.50616057 -0.22255964 -0.00000035
0.13145134 0.08437422 0.00000875
0.10730523 0.17090361 0.00000000
0.63202761 -0.24666305 -0.00000085
0.25578213 -0.64038143 0.00000000
-0.51038775 -0.35060802 -0.00000007
-0.73458559 -0.59605498 -0.00000025
0.29717974 -0.29937346 0.00000000
0.00132873 0.44390520 0.00000532
0.05944387 0.02864658 0.00000000
0.48405508 -0.14499971 -0.00000040
-0.30522458 0.24510655 0.20671239
-0.42030810 0.11504507 0.21911314
-0.25235655 -0.29030198 0.00000000
-0.63449281 0.05872997 0.08840467
-0.15112432 0.08913718 0.00000000
-0.01699550 0.50604385 0.00000000
0.78789253 -0.31992333 -0.00000120
-0.72311276 -0.20556385 -0.00000065
0.16824441 0.49895882 -0.00000019
-0.03577051 -0.74419139 0.00000000
-0.71617664 -0.64099200 -0.00000020
-0.23711780 -0.61234733 0.00000000
-0.09754258 -0.57001798 0.00000000
-0.25111430 -0.34477701 0.00000000
0.58274021 0.18197460 -0.00000087
-0.44612315 -0.69726236 0.00000000
0.76843272 -0.51810789 -0.00000070
-0.72790869 -0.29569092 -0.00000058
0.55142964 -0.54881286 0.00000000
0.18705909 0.38297673 0.00000337
0.09018768 0.09650641 0.00000919
0.42982548 0.35094270 -0.00000075
-0.73977850 -0.73959304 -0.00000008
0.46964833 -0.19558106 -0.00000024
0.07571637 0.59614215 0.00000192
0.00645270 0.51236191 0.00000000
-0.09845216 -0.72017342 0.00000000
0.38394519 -0.31648625 0.00000000
-0.54329817 -0.66277221 0.00000000
0.18278854 0.09249679 0.00000000
0.07512062 0.68331558 -0.00000011
-0.29473987 -0.24308773 0.00000000
-0.74979846 -0.63968476 -0.00000020
-0.44229992 -0.33877671 0.00000000
0.10021454 0.57081855 -0.00000002
-0.06957672 0.58699091 0.11875445
-0.21709531 0.42471791 0.13097047
-0.15865829 -0.44762130 0.00000000
-0.07142280 0.22962650 0.00000000
-0.01912356 -0.54351592 0.00000000
0.03737319 -0.51646568 0.00000000
-0.69623670 -0.51925565 -0.00000032
0.26542419 0.37632242 -0.00000038
-0.65671766 -0.35048526 -0.00000038
-0.14323839 -0.71267745 0.00000000
-0.10108939 0.60044161 -0.00000004
-0.44790550 -0.53072700 0.00000000
-0.25639280 0.52419516 0.01607214
-0.78793770 -0.14059674 -0.00000082
-0.56354276 -0.49020956 -0.00000006
-0.63164249 -0.33769602 -0.00000034
0.04530842 0.08919702 0.00000000
-0.64415832 -0.72058655 -0.00000003
0.01558049 0.13026202 0.00000981
0.33484735 0.02267127 0.00000655
0.55283189 -0.39021644 -0.00000026
-0.34232920 0.21485273 -0.00000021
0.44428045 -0.52845803 0.00000000
0.39117364 0.28887479 0.00000103
-0.17954404 0.58591142 -0.00000019
0.57297973 0.09593708 0.00000076
-0.14881933 -0.59722895 0.00000000
0.53351549 0.00826870 -0.00000088
0.61687939 -0.79639430 0.00000000
0.31168072 -0.44423052 0.00000000
-0.51408015 -0.77356901 0.00000000
-0.01076456 -0.11320853 0.00000000
-0.00717649 -0.50973206 0.00000000
0.56629616 0.14440857 -0.00000126
0.33117018 0.43073376 -0.00000019
-0.35475821 -0.47964861 0.00000000
-0.48979170 -0.76445463 0.00000000
-0.04525596 0.65349766 0.00000000
0.74221088 0.03109867 -0.00000181
0.53404889 -0.61093645 0.00000000
-0.11227533 0.62404816 -0.00000008
-0.78302665 -0.42104133 -0.00000047
0.09614786 0.23866025 0.00000697
0.24601363 0.21210746 -0.00000001
0.25569643 0.48957629 0.00000027
0.63906462 0.02455071 0.00000068
-0.35225174 -0.12029981 0.00000000
0.12371617 0.13019448 0.00000818
0.48649724 -0.16964342 -0.00000036
0.11478183 0.02632872 0.00000000
-0.41869810 -0.54257708 0.00000000
-0.33582640 0.42270646 0.03433234
-0.54612660 0.03563885 -0.00000049
0.52398269 -0.68604831 0.00000000
-0.56739109 -0.57397871 0.00000000
0.33015573 -0.59091206 0.00000000
0.54689030 -0.23381385 -0.00000051
-0.65310086 -0.45257715 -0.00000029
0.48931444 -0.03748620 -0.00000061
0.02277512 0.27242846 0.00000757
0.48756145 -0.56479473 0.00000000
-0.67070977 -0.01863716 -0.00000071
0.72321735 -0.17081464 -0.00000137
-0.22777624 -0.58341353 0.00000000
-0.54792874 -0.54693322 0.00000000
-0.39016013 0.38312966 0.02211420
0.39698483 0.20557421 0.00000231
0.27058836 0.07534300 0.00000000
-0.36859690 0.13969441 0.24151897
-0.02888636 0.33405362 0.00000000
0.32025913 0.47138331 -0.00000079
0.43228820 -0.62858907 0.00000000
0.03988433 0.64801256 0.00000000
0.16916640 0.32123714 0.00000463
-0.35263963 0.29713452 0.12437879
0.09454449 0.69174129 -0.00000001
0.77598320 -0.56033156 -0.00000060
0.40416303 0.11772131 0.00000364
0.00420407 -0.11563338 0.00000000
0.61521771 -0.78990176 0.00000000
0.56955892 0.18587191 -0.00000068
-0.79529667 -0.49800896 -0.00000038
0.60439164 0.01489653 0.00000151
0.06039609 -0.50821922 0.00000000
-0.27669942 0.45786855 -0.00000029
0.22350648 -0.16945946 0.00000000
-0.21380447 0.46103722 0.10362465
0.69033781 -0.23110828 -0.00000112
0.18246551 -0.34866304 0.00000000
-0.70637230 0.04829899 0.03752829
0.16993748 0.08203479 0.00000000
0.24349476 -0.28285853 0.00000000
0.54925724 -0.68346820 0.00000000
-0.68800819 -0.16244730 -0.00000062
0.34524050 0.43600436 -0.00000083
0.65745616 -0.70358490 -0.00000015
0.72791809 -0.60948562 -0.00000048
0.42126216 0.05830904 0.00000430
0.08583473 -0.12425452 0.00000000
-0.17408722 -0.71031657 0.00000000
-0.12309679 0.33224740 0.00000000
0.68767738 -0.02201192 -0.00000148
0.33912541 0.39823084 -0.00000074
-0.36999263 0.20743932 -0.00000027
-0.24947150 -0.24926424 0.00000000
-0.25062172 0.12136889 0.00000000
0.75679178 -0.17817276 -0.00000150
0.73726947 0.01133058 -0.00000098
-0.33515922 0.18852911 -0.00000017
0.66408694 -0.77506796 -0.00000005
0.01548515 0.63943446 0.00000217
-0.24330901 0.23439797 -0.00000002
0.53524992 0.04815868 0.00000228
-0.24066638 0.28264721 -0.00000006
0.65237393 -0.28926823 -0.00000086
-0.37983625 0.26409822 0.12921365
0.02845011 0.45813366 0.00000470
0.07256771 0.03260341 0.00001042
-0.27349331 0.11385808 0.00000000
0.24266161 -0.25574882 0.00000000
0.41259786 0.12263442 0.00000339
0.55022123 0.02954684 -0.00000099
-0.06140238 0.66625311 -0.00000001
-0.23735352 0.56126126 -0.00000030
-0.10642495 0.67342735 0.01668173
0.35393801 0.08529792 0.00000514
-0.24455537 0.28958482 0.22011741
0.10337131 -0.33979633 0.00000000
-0.06061636 0.53371540 0.17028204
-0.64218581 -0.43047369 -0.00000028
0.44966005 0.01317526 0.00000451
-0.24395513 0.51272984 0.03586260
-0.26053516 -0.43315061 0.00000000
0.13772627 0.44650089 0.00000322
0.12101311 0.33274149 0.00000000
0.33961518 0.04416507 -0.00000011
0.00107094 -0.05643844 0.00000000
-0.69983218 -0.72711114 -0.00000009
-0.48859640 -0.23458492 -0.00000013
0.70589996 -0.19376099 -0.00000126
-0.39299285 -0.07890397 -0.00000006
-0.01827225 -0.28376269 0.00000000
-0.61914512 0.01358210 -0.00000063
-0.21150609 -0.58558209 0.00000000
-0.38667167 0.23678742 0.14616617
0.49467350 0.15759043 -0.00000098
-0.28788823 0.23216543 0.23178030
-0.16161176 -0.31429656 0.00000000
-0.54633369 -0.51623242 -0.00000000
-0.17030071 0.14861409 0.00000000
0.48077953 -0.74008342 0.00000000
-0.74863527 -0.24377448 -0.00000067
0.41202574 0.13983529 -0.00000059
-0.30746913 -0.22538741 0.00000000
-0.27090129 -0.16820918 0.00000000
0.52687287 -0.78338256 0.00000000
0.44932161 0.25513232 0.00000047
-0.07208754 0.50206042 0.00000000
0.62873267 0.01391437 -0.00000129
-0.73652147 -0.69804725 -0.00000013
0.14501334 -0.78859215 0.00000000
-0.22890818 -0.79793397 0.00000000
-0.28749076 0.15087053 0.29941674
0.29888774 -0.24402156 0.00000000
-0.69122255 0.03182235 0.06371333
-0.37394916 0.14950370 0.22896611
-0.04879017 -0.17232549 0.00000000
0.49166853 0.24926718 -0.00000024
-0.20263515 -0.60131471 0.00000000
-0.06928059 -0.54322545 0.00000000
-0.16337514 0.61459283 0.01824167
0.13232531 0.46263380 0.00000000
-0.32344237 0.45030571 0.02173498
0.11479067 -0.70255071 0.00000000
0.08616968 0.51762177 0.00000000
-0.14973246 0.15453143 0.41044118
0.79215531 -0.06607149 -0.00000183
-0.47833584 -0.24662577 -0.00000010
0.36996176 -0.41132532 0.00000000
0.34613018 0.24565800 -0.00000050
0.13358235 0.44914464 0.00000325
-0.03076345 -0.13136758 0.00000000
-0.46172009 -0.11211834 -0.00000018
-0.45249565 0.21611323 0.10878430
-0.36140967 0.37351657 0.05387730
0.74886521 -0.12151736 -0.00000157
0.74558744 -0.42227368 -0.00000094
0.17497955 -0.03439982 0.00000000
-0.00710298 0.67918928 0.00000000
0.13215564 0.19688120 0.00000000
0.61510818 -0.77078481 0.00000000
0.51811230 -0.55279774 0.00000000
-0.22908429 0.16819821 0.00000000
0.28538656 0.29321964 0.00000298
0.20523751 0.23576175 0.00000000
-0.11792090 0.50599057 0.00000000
0.03086627 -0.21711176 0.00000000
-0.45157074 -0.54453470 0.00000000
-0.19836748 -0.13626280 0.00000000
0.42115634 0.11060686 -0.00000058
-0.49585323 -0.43582825 0.00000000
-0.27977074 0.11344330 0.33679597
-0.13635404 0.11858889 0.00000000
0.45634561 -0.15811144 -0.00000025
-0.35332812 0.03532163 -0.00000008
-0.64021631 -0.18849110 -0.00000049
0.13460670 -0.07489603 0.00000000
0.04226506 0.29265999 0.00000697
0.39862040 -0.49101387 0.00000000
0.02907647 0.00389635 0.00000000
-0.09228315 0.41712923 0.24059031
-0.31887337 -0.37014850 0.00000000
-0.56866630 -0.01825239 -0.00000049
0.18614329 -0.43894171 0.00000000
-0.01936584 0.39170841 0.00000000
0.66922317 -0.01935616 -0.00000141
0.78221198 -0.12788807 -0.00000168
-0.44237954 0.30089156 0.04696792
-0.05568308 0.11934438 0.00000000
0.08556477 -0.71388275 0.00000000
0.15829109 0.52086058 0.00000162
-0.70950958 -0.36362066 -0.00000049
-0.61256365 -0.53994463 -0.00000012
-0.43816325 -0.09626339 -0.00000014
-0.37107255 0.42295799 -0.00000046
-0.11986986 0.50237695 0.14717014
-0.57842881 -0.69049450 0.00000000
0.64244325 -0.69739960 -0.00000009
-0.67890705 0.06047698 0.05018543
0.48515809 -0.57079818 0.00000000
-0.23246612 0.41773033 0.12402955
0.71463721 0.04130941 -0.00000105
0.40763137 0.22544611 -0.00000072
0.06164886 0.23749611 0.00000000
0.71782735 -0.10613775 -0.00000146
-0.31048440 0.15940007 -0.00000010
-0.77120717 -0.66876843 -0.00000016
-0.36659231 0.12814711 0.25273913
0.28327959 -0.57955529 0.00000000
-0.11080886 0.60011430 0.07375138
0.32434842 0.45794535 -0.00000078
0.07917760 0.23147228 0.00000733
-0.17365913 0.17766610 0.00000000
0.45594936 -0.43008476 0.00000000
-0.71247324 0.08565354 0.00154940
-0.13087133 -0.07708193 0.00000000
-0.55774330 -0.69839110 0.00000000
0.72611765 -0.22811135 -0.00000128
-0.59015325 -0.49038653 -0.00000012
-0.45409804 -0.50055859 0.00000000
-0.32251629 -0.40672806 0.00000000
0.60282125 -0.25720344 -0.00000070
-0.28869540 -0.48403273 0.00000000
-0.34673711 0.03045307 -0.00000006
-0.20409660 0.45067533 -0.00000013
-0.55505528 -0.79677189 0.00000000
-0.41452557 0.26979410 -0.00000042
-0.26816048 0.42607569 0.08756685
0.57536244 -0.76378731 0.00000000
-0.57227032 0.11136971 -0.00000061
0.05474177 0.40535992 0.00000509
0.73560435 -0.05472645 -0.00000163
-0.71719237 -0.41492061 -0.00000046
-0.52959689 0.19751506 -0.00000060
0.13261525 -0.56044883 0.00000000
0.21926729 -0.67337879 0.00000000
0.66869287 -0.70113355 -0.00000020
0.02705836 0.70791822 0.00000000
0.19731410 0.05539016 0.00000000
0.41101694 0.04197015 0.00000477
-0.31393379 -0.15011116 0.00000000
-0.66852135 -0.65766102 -0.00000014
0.44165142 0.19995234 0.00000154
0.50783965 0.00310559 -0.00000076
-0.01720661 -0.59976595 0.00000000
-0.39533660 0.37644320 0.02336437
-0.32680559 -0.03367843 0.00000000
-0.45298440 0.32850903 0.01532180
-0.66808871 -0.54347916 -0.00000024
-0.20550482 0.34587495 -0.00000004
-0.34617216 0.17233987 -0.00000018
0.76874941 -0.18474396 -0.00000154
0.41456611 -0.14436403 -0.00000010
-0.43907434 -0.65300058 0.00000000
0.23672052 -0.66967654 0.00000000
0.49446318 -0.17800776 -0.00000038
-0.05681394 -0.32129240 0.00000000
-0.19008989 0.16476556 0.36855444
0.46253448 -0.74929587 0.00000000
-0.01162820 0.07184172 0.00000000
0.47899233 0.14736585 0.00000170
-0.29489845 -0.31504650 0.00000000
-0.30199129 -0.04164929 0.00000000
0.60865138 0.15431339 -0.00000146
0.12967683 -0.27865579 0.00000000
