ply
format ascii 1.0
element vertex 1407
property float x
property float y
property float z
end_header
-0.74988999 0.03050681 0.00000000
-0.28918815 0.30784485 0.00000000
-0.11716262 0.02004012 0.00000000
0.44605459 -0.14240023 0.00000000
0.44321081 -0.41845849 0.00000000
0.33587711 0.23621383 0.00000000
0.46014352 -0.44805584 0.00000000
-0.60141449 -0.14873303 0.00000000
0.44809497 -0.15518759 0.00000000
0.36910182 0.18696678 0.00000000
-0.42529259 -0.01816902 0.00000000
-0.58619099 0.07347537 0.00000000
0.19965635 0.63557867 0.06663782
0.66422402 0.21613046 0.15196712
0.69611162 -0.25787824 0.00000000
0.54438817 0.47315980 0.41142711
-0.43045202 0.32088244 0.00000000
-0.22106568 0.25814262 0.00000000
0.17806411 0.18282458 0.00000000
0.71755009 -0.61607688 0.00000000
0.68304600 -0.19720658 0.00000000
-0.50589432 0.01115231 0.00000000
-0.06223365 0.57737212 0.00000000
-0.64460054 -0.77471775 0.00000000
0.32073115 0.03948310 0.00000000
0.40516082 0.59335495 0.37543402
0.39062545 0.49640420 0.16459110
-0.47162707 0.35324547 0.00000000
-0.40598943 0.71562142 0.00000000
0.55555888 0.43656102 0.36333732
0.48290338 -0.32487325 0.00000000
0.04797203 0.29626511 0.00000000
0.41515423 -0.19931221 0.00000000
-0.49177306 0.43738260 0.00000000
0.69128787 -0.19546013 0.00000000
0.32493386 -0.49408241 0.00000000
0.71183363 -0.52509160 0.00000000
-0.62447260 -0.63076547 0.00000000
0.68075222 0.14950939 0.05723221
-0.10483799 -0.45320029 0.00000000
0.71032314 -0.01192915 0.00000000
-0.19959660 -0.19574001 0.00000000
-0.38152749 -0.21414620 0.00000000
-0.33640275 -0.72682915 0.00000000
0.71744261 -0.16675798 0.00000000
0.66028117 0.08510634 0.00000000
0.30614421 -0.54060899 0.00000000
0.71855528 0.09929063 0.03375181
-0.76263623 -0.16328379 0.00000000
-0.32019291 0.27583770 0.00000000
0.06126372 0.30581708 0.00000000
0.34255799 -0.34306443 0.00000000
-0.68179384 -0.09329601 0.00000000
0.35292840 0.09883471 0.00000000
0.32918579 0.58746004 0.22060147
0.47219913 -0.61815231 0.00000000
0.56831950 0.23559023 0.00739591
-0.17223459 -0.74647672 0.00000000
0.55607211 -0.01709197 0.00000000
0.26195889 0.54312641 0.00961912
-0.14300737 -0.67378732 0.00000000
0.21294941 0.68008682 0.17595145
-0.75923189 -0.12522206 0.00000000
0.61217816 0.01519730 0.00000000
0.50776332 0.15722225 0.00000000
-0.35536556 0.00032752 0.00000000
0.39742488 -0.10298247 0.00000000
0.57921697 -0.46803098 0.00000000
0.24594462 -0.56651898 0.00000000
0.35906305 -0.77667152 0.00000000
0.07181569 -0.11636654 0.00000000
0.07522026 0.71726314 0.00000000
-0.38748038 -0.64093797 0.00000000
-0.10925732 -0.60647983 0.00000000
-0.45532718 -0.65958017 0.00000000
-0.08930482 -0.03037809 0.00000000
-0.00506278 -0.58870334 0.00000000
-0.07818616 -0.24991021 0.00000000
-0.10506661 -0.60877768 0.00000000
-0.59989832 -0.46888073 0.00000000
-0.24554492 -0.68817188 0.00000000
-0.67643918 -0.32794912 0.00000000
0.49800304 0.31142171 0.01782581
0.46754936 0.14064721 0.00000000
-0.08154588 0.23017353 0.00000000
-0.42447008 0.21209980 0.00000000
-0.36778485 -0.56297943 0.00000000
-0.69796769 0.11874666 0.00000000
-0.19966026 0.43768419 0.00000000
-0.62961886 0.65065867 0.00000000
0.31390742 0.31690857 0.00000000
-0.09544716 0.28257763 0.00000000
0.51146694 -0.65816152 0.00000000
0.44354094 0.55236927 0.37050617
-0.61029933 0.58092894 0.00000000
-0.54468486 -0.09880514 0.00000000
-0.22567407 -0.16231828 0.00000000
0.58206206 0.21876130 0.00155900
0.54714418 0.27723253 0.04610275
-0.43516393 0.37787629 0.00000000
-0.67524557 0.47439377 0.00000000
0.54362328 -0.60006747 0.00000000
0.17710645 -0.62527546 0.00000000
-0.43580565 0.13741330 0.00000000
-0.74001901 -0.51058403 0.00000000
0.34852842 -0.38267854 0.00000000
0.29828032 -0.08959536 0.00000000
-0.49030655 0.48980690 0.00000000
-0.03442252 0.28676997 0.00000000
0.39205756 0.45812401 0.09490454
-0.79993872 -0.34546879 0.00000000
0.68457570 -0.62767121 0.00000000
0.01993480 0.01462548 0.00000000
0.04225956 -0.49757435 0.00000000
-0.65661156 -0.71693874 0.00000000
0.08739334 -0.65651344 0.00000000
-0.41337278 0.59190291 0.00000000
-0.28548765 0.74766063 0.00000000
0.24241164 -0.76572861 0.00000000
0.08479848 -0.06003193 0.00000000
0.35185578 -0.79223540 0.00000000
0.60295292 -0.39034977 0.00000000
-0.07342940 -0.55073517 0.00000000
-0.07181109 -0.78436092 0.00000000
-0.23734760 0.35359051 0.00000000
0.75704047 -0.09683179 0.00000000
-0.71098563 0.64745498 0.00000000
-0.29142631 -0.12787821 0.00000000
0.30342224 0.50904356 0.02357700
0.16697157 -0.14168947 0.00000000
-0.45704997 0.25880334 0.00000000
0.79375135 -0.73615660 0.00000000
-0.71971613 -0.14028145 0.00000000
0.42942441 -0.38022842 0.00000000
-0.51216966 0.45766451 0.00000000
-0.30079756 0.03206685 0.00000000
0.39186227 0.41450610 0.01204565
-0.07396542 0.01660398 0.00000000
-0.44094793 0.63524910 0.00000000
0.01510651 -0.60587919 0.00000000
-0.47101586 0.03121322 0.00000000
-0.56341414 0.63862936 0.00000000
0.63796423 -0.64040024 0.00000000
-0.66729461 0.42930527 0.00000000
0.67748888 0.12492191 0.00456112
-0.12405079 -0.03570485 0.00000000
-0.26625985 -0.36466835 0.00000000
0.59931427 -0.38315048 0.00000000
0.36428509 0.52187562 0.16294776
0.78183941 -0.43217598 0.00000000
0.29411525 0.20344549 0.00000000
-0.17475747 -0.74882610 0.00000000
-0.17830613 -0.32338859 0.00000000
-0.26854335 0.05285601 0.00000000
-0.78886511 0.67608173 0.00000000
-0.32060974 0.21668796 0.00000000
0.69812621 0.20914289 0.20286765
-0.12827620 -0.12240888 0.00000000
-0.10366148 0.22778054 0.00000000
-0.55925595 0.29976924 0.00000000
0.33682268 -0.54122249 0.00000000
-0.45558271 0.03452721 0.00000000
-0.49965293 -0.78764487 0.00000000
-0.02403752 0.13614986 0.00000000
-0.76843357 0.21711708 0.00000000
0.53010771 -0.72913880 0.00000000
0.29046818 -0.75854409 0.00000000
-0.36121845 -0.78305246 0.00000000
0.66341363 -0.10885969 0.00000000
0.27697103 0.40474239 0.00000000
-0.25679792 0.51666547 0.00000000
0.56985225 -0.09485536 0.00000000
-0.49789008 0.76424519 0.00000000
-0.32798060 0.28400599 0.00000000
-0.02359587 0.30990053 0.00000000
-0.29467894 0.59178795 0.00000000
0.51062996 0.41657664 0.24057316
0.58383197 0.32361766 0.20320907
-0.02002343 -0.36316250 0.00000000
0.76594496 0.01540461 0.00000000
-0.33538597 -0.45251840 0.00000000
-0.43698426 -0.61519350 0.00000000
0.52744365 0.51790655 0.46400696
0.38606312 -0.06673737 0.00000000
-0.20977717 -0.42595190 0.00000000
-0.26896849 0.54130779 0.00000000
0.26094069 0.20077013 0.00000000
-0.75176923 -0.48481740 0.00000000
-0.18104772 0.57568670 0.00000000
0.30385585 -0.62438420 0.00000000
-0.11424131 -0.60773443 0.00000000
0.00201790 -0.53841481 0.00000000
-0.16298900 -0.73747215 0.00000000
0.33477479 -0.28377173 0.00000000
-0.04055915 -0.37149623 0.00000000
-0.02804580 -0.09917503 0.00000000
-0.45004406 -0.71322171 0.00000000
-0.52682325 0.67908069 0.00000000
0.26137048 0.14702597 0.00000000
-0.69971396 -0.17583528 0.00000000
-0.67978866 -0.65082244 0.00000000
0.58921115 0.19506200 0.00000000
0.26610321 0.65879916 0.23621662
-0.68734926 -0.14992772 0.00000000
0.55823843 -0.32761767 0.00000000
0.63847546 0.06148663 0.00000000
-0.47570863 0.14184945 0.00000000
-0.13959391 -0.64372931 0.00000000
-0.69657006 -0.44367737 0.00000000
-0.25672102 -0.49474408 0.00000000
-0.45294287 0.36041903 0.00000000
0.57614006 0.08151193 0.00000000
0.19998523 -0.18908457 0.00000000
-0.45588502 -0.45685563 0.00000000
-0.69022517 0.79903367 0.00000000
-0.65653958 -0.31225563 0.00000000
0.76075794 -0.00167534 0.00000000
0.28879451 -0.78984195 0.00000000
-0.70613208 -0.45188716 0.00000000
0.70543673 0.07575119 0.00000000
0.18370490 -0.38207419 0.00000000
0.38862449 -0.72169691 0.00000000
-0.50213930 -0.25091246 0.00000000
-0.03901283 -0.29343900 0.00000000
-0.21053476 0.72695510 0.00000000
-0.18701132 0.70089159 0.00000000
-0.32286053 0.62793784 0.00000000
-0.15446900 -0.00314923 0.00000000
-0.79463842 0.07184030 0.00000000
0.29331866 -0.11902617 0.00000000
-0.18710737 -0.21825262 0.00000000
0.50577841 -0.42759600 0.00000000
0.54909817 -0.49124084 0.00000000
0.52312931 -0.70779449 0.00000000
0.65698580 -0.13963084 0.00000000
-0.76690574 0.33449351 0.00000000
0.35750627 0.24256201 0.00000000
0.09702866 -0.02075513 0.00000000
-0.69001670 0.52368128 0.00000000
-0.06207227 -0.28219140 0.00000000
0.03409755 0.57697397 0.00000000
0.14892198 -0.74217154 0.00000000
-0.24198318 0.71412818 0.00000000
0.32966784 0.57042398 0.18929442
0.29402406 -0.32992437 0.00000000
0.75970095 -0.04847227 0.00000000
-0.28855388 0.57195111 0.00000000
-0.40276952 0.04013063 0.00000000
0.28983148 -0.37268490 0.00000000
0.68537015 0.11514079 0.00096815
0.71833582 -0.12459440 0.00000000
-0.39581021 -0.71238926 0.00000000
-0.68147962 0.27653247 0.00000000
-0.74798464 -0.12259068 0.00000000
-0.66737986 0.16344467 0.00000000
-0.78030174 -0.26399195 0.00000000
-0.48968873 -0.77408690 0.00000000
-0.57786300 0.44556883 0.00000000
-0.52287479 -0.79774669 0.00000000
-0.35553215 0.74803844 0.00000000
0.18527753 0.58252303 0.00000000
-0.57659600 -0.44883000 0.00000000
-0.30300629 0.60936164 0.00000000
0.54925412 0.08138168 0.00000000
-0.54990173 -0.02451791 0.00000000
-0.72038365 -0.71157396 0.00000000
0.70061612 -0.35671032 0.00000000
-0.47954175 0.77377980 0.00000000
-0.12795466 0.46993563 0.00000000
0.74077089 -0.65352599 0.00000000
0.00692021 -0.43080103 0.00000000
-0.62131989 -0.33116223 0.00000000
0.32953525 -0.50791732 0.00000000
0.30780666 -0.58772553 0.00000000
0.07777876 0.71359425 0.00000000
-0.31658515 -0.45667806 0.00000000
-0.63760101 0.76877828 0.00000000
-0.13881898 -0.12609097 0.00000000
-0.02484165 -0.60102135 0.00000000
-0.38176279 -0.26988521 0.00000000
-0.61362127 0.10402850 0.00000000
-0.52648686 -0.37760068 0.00000000
0.16052837 -0.63029892 0.00000000
0.61360359 0.26122698 0.14152039
0.40829447 0.42041277 0.05429259
-0.51894578 0.06939868 0.00000000
0.32313623 0.31828534 0.00000000
-0.26502760 -0.14310141 0.00000000
0.71009398 -0.45544538 0.00000000
-0.15047309 -0.57830170 0.00000000
-0.60287435 0.41409126 0.00000000
-0.25991334 -0.05926703 0.00000000
0.72487469 0.10802811 0.06222719
0.41774834 -0.14236528 0.00000000
0.17538020 -0.58912260 0.00000000
0.23775057 0.60523870 0.08130257
0.32339303 -0.74890220 0.00000000
0.21274314 0.51241983 0.00000000
-0.26270889 0.53026518 0.00000000
-0.24088120 0.37253701 0.00000000
-0.71031348 -0.46413967 0.00000000
-0.01453026 -0.26643213 0.00000000
0.67861618 0.13821201 0.03182710
-0.50879573 -0.03553601 0.00000000
-0.31360126 -0.13899499 0.00000000
0.72687580 -0.52022612 0.00000000
0.60311339 -0.40978310 0.00000000
-0.44722374 -0.79154647 0.00000000
0.02523236 -0.11610123 0.00000000
-0.66704725 0.11472324 0.00000000
-0.19448410 -0.36240985 0.00000000
-0.30718682 0.00621039 0.00000000
0.17170003 -0.58600290 0.00000000
-0.40750917 0.16539498 0.00000000
-0.18404632 -0.43244695 0.00000000
0.63403538 -0.43848254 0.00000000
0.22798057 -0.22652505 0.00000000
0.39165379 0.54445086 0.25740179
-0.24206745 -0.71316953 0.00000000
-0.64755458 -0.02553117 0.00000000
-0.62590318 -0.59214476 0.00000000
-0.39123324 -0.53468542 0.00000000
-0.10823383 0.43681891 0.00000000
-0.52790324 0.10794570 0.00000000
-0.34499796 0.18200068 0.00000000
-0.77976181 0.42166260 0.00000000
0.72672408 -0.52563035 0.00000000
0.49436081 -0.11020117 0.00000000
0.20394470 0.65918525 0.11939256
0.10246373 0.42883596 0.00000000
0.21976589 0.54140629 0.00000000
0.73555067 -0.65928811 0.00000000
-0.00181487 0.27492340 0.00000000
0.21673434 0.51614190 0.00000000
-0.66150583 0.56743191 0.00000000
-0.39895357 0.13618846 0.00000000
0.09293718 0.09870085 0.00000000
0.07576269 -0.35624046 0.00000000
0.51290850 -0.74839840 0.00000000
-0.42586297 -0.64712352 0.00000000
0.53861642 0.38359475 0.23112589
-0.62457638 -0.07920074 0.00000000
-0.10615468 -0.56817333 0.00000000
0.39555319 -0.12119128 0.00000000
0.44535266 -0.47224101 0.00000000
-0.44008393 -0.66420100 0.00000000
0.41077455 -0.64439418 0.00000000
0.42607500 0.40308581 0.05515038
-0.51891296 0.14772273 0.00000000
0.63962628 -0.19224698 0.00000000
-0.06943966 -0.69874403 0.00000000
0.09115223 0.75597323 0.08912535
-0.50917380 0.15499431 0.00000000
-0.67353686 0.09197338 0.00000000
-0.31022843 0.64509232 0.00000000
0.31708065 0.54453115 0.11652121
-0.35117690 0.22715226 0.00000000
0.17441643 -0.29704516 0.00000000
0.27659272 -0.34959357 0.00000000
0.53006451 0.52379434 0.48009855
-0.13087164 0.62137709 0.00000000
0.32071950 0.53379499 0.10309889
-0.73858499 0.48897302 0.00000000
0.54056169 0.44234816 0.34591931
0.09088558 0.26377328 0.00000000
-0.69451602 0.52734309 0.00000000
0.01901093 0.39732105 0.00000000
0.18575254 -0.52847738 0.00000000
0.31374967 0.19122364 0.00000000
-0.03993342 -0.01201423 0.00000000
0.73939565 -0.55756222 0.00000000
-0.23006375 0.71598066 0.00000000
0.21889425 0.69431477 0.21410234
-0.15881556 0.30618307 0.00000000
0.52126561 0.54096355 0.49592858
-0.73855662 -0.50243180 0.00000000
-0.62145409 -0.33867528 0.00000000
0.21128196 -0.48874488 0.00000000
0.21881646 0.45589398 0.00000000
-0.64404835 -0.79251647 0.00000000
-0.48562719 -0.16827972 0.00000000
0.10698330 -0.53847847 0.00000000
-0.74008993 0.59321563 0.00000000
-0.64609986 -0.15143493 0.00000000
0.61522741 0.24264305 0.10944566
-0.79364305 -0.58738009 0.00000000
0.53075360 0.36075841 0.17306807
-0.43336122 0.63076293 0.00000000
-0.25328429 -0.79218895 0.00000000
0.62369059 -0.58921012 0.00000000
-0.31978677 0.31116158 0.00000000
-0.07320794 0.68794104 0.00000000
-0.46094327 -0.51481093 0.00000000
-0.17689307 -0.12301367 0.00000000
0.19363765 -0.37294714 0.00000000
0.19736307 0.20852780 0.00000000
0.10634619 0.06237049 0.00000000
-0.56326137 0.21009770 0.00000000
-0.54380527 -0.28956736 0.00000000
0.28203600 0.02477715 0.00000000
-0.44873130 0.49203487 0.00000000
0.40201385 -0.53772997 0.00000000
0.75138983 -0.53002963 0.00000000
0.04522198 -0.39426689 0.00000000
-0.15177083 -0.76397818 0.00000000
0.56186528 -0.65528706 0.00000000
0.52519048 0.45141155 0.33398999
-0.34609202 -0.01514633 0.00000000
-0.72077607 -0.22986555 0.00000000
-0.26737826 0.69510429 0.00000000
0.60153011 0.37773138 0.33901918
0.10719457 0.59728785 0.00000000
0.70522884 -0.25046623 0.00000000
0.58280188 -0.06153351 0.00000000
-0.79241460 -0.12879607 0.00000000
0.22362053 -0.00357185 0.00000000
-0.79758016 -0.55569483 0.00000000
0.25649643 -0.68532284 0.00000000
0.09620902 0.65630989 0.00000000
0.44897873 -0.06059841 0.00000000
0.59497640 0.11820595 0.00000000
-0.31093489 -0.79216008 0.00000000
0.76998476 -0.25174312 0.00000000
0.28665224 -0.50302798 0.00000000
0.53685757 0.38780474 0.23576146
0.27271633 -0.45882609 0.00000000
0.03278870 0.53585704 0.00000000
0.01763387 -0.38560203 0.00000000
0.30802145 0.56453533 0.13722021
0.33005150 0.08371674 0.00000000
-0.60554037 0.44179749 0.00000000
0.17323090 -0.68394710 0.00000000
-0.16753020 0.02926803 0.00000000
0.15019517 -0.35314292 0.00000000
-0.01136029 0.56676584 0.00000000
0.30435961 0.63688456 0.26712214
0.26007055 0.61354566 0.13922394
0.36128798 -0.64865219 0.00000000
-0.19749686 -0.26428624 0.00000000
-0.10601270 -0.20761491 0.00000000
0.26137627 -0.72487212 0.00000000
0.04916790 0.65247658 0.00000000
-0.02208687 -0.77768054 0.00000000
-0.15358486 -0.08343964 0.00000000
-0.67028949 0.47064462 0.00000000
0.02924094 -0.53530508 0.00000000
0.24839910 0.67186390 0.22744272
-0.60317772 0.12100414 0.00000000
0.45122759 0.54636689 0.37369143
0.51812513 -0.73156219 0.00000000
-0.35708726 -0.11618181 0.00000000
-0.62773277 0.35891488 0.00000000
-0.57561229 -0.63517921 0.00000000
0.60418511 -0.45012744 0.00000000
0.24394120 0.65470745 0.18656554
0.34192929 0.55178673 0.17723642
-0.66864701 0.48369611 0.00000000
-0.00007635 0.08994052 0.00000000
0.21473061 0.64341084 0.10995822
-0.56883580 0.12917842 0.00000000
-0.23630209 0.45535464 0.00000000
0.07296457 0.43543257 0.00000000
-0.55028550 0.14377581 0.00000000
-0.51534643 -0.53088010 0.00000000
-0.57808239 -0.52671244 0.00000000
-0.71741091 -0.47542347 0.00000000
-0.12919431 -0.78934281 0.00000000
-0.70351826 -0.23951454 0.00000000
-0.33054354 0.37814777 0.00000000
0.13034578 -0.02477050 0.00000000
0.34769221 -0.27596341 0.00000000
0.62609279 -0.10195466 0.00000000
0.11962111 0.19265202 0.00000000
0.43600729 -0.00971637 0.00000000
0.08860559 -0.05474564 0.00000000
0.39344892 -0.12874198 0.00000000
0.35626091 0.27048603 0.00000000
0.49326689 0.35481408 0.09093190
-0.64883344 -0.76869540 0.00000000
0.11419589 0.71580171 0.05673292
-0.21659151 0.67128522 0.00000000
0.07197203 -0.75778693 0.00000000
0.20444007 0.69202959 0.18244482
0.43135507 0.39728777 0.05417080
0.15643015 -0.65088457 0.00000000
0.35810878 -0.59194762 0.00000000
-0.20536737 0.07136102 0.00000000
-0.35789529 -0.01496070 0.00000000
-0.34504950 0.63109102 0.00000000
-0.52945968 -0.09387459 0.00000000
0.24662345 -0.03318191 0.00000000
0.12295615 -0.74574711 0.00000000
0.75253592 -0.50248624 0.00000000
0.73932345 -0.05905582 0.00000000
-0.46776030 -0.65918801 0.00000000
-0.34948376 0.33548699 0.00000000
0.63538118 0.29296292 0.24272439
-0.58158092 -0.14124545 0.00000000
0.75555307 -0.25799778 0.00000000
-0.67109785 -0.36685752 0.00000000
-0.44884353 -0.16715190 0.00000000
-0.52388346 0.29316130 0.00000000
0.24695470 0.58892255 0.06785242
-0.21725856 -0.61798747 0.00000000
0.49488834 0.26086950 0.00000000
0.38537249 -0.40525016 0.00000000
0.48320505 -0.73006895 0.00000000
-0.49993880 0.33912608 0.00000000
0.59962861 0.20822998 0.01486394
-0.32942284 -0.72044333 0.00000000
-0.54982995 -0.27737766 0.00000000
0.58153434 0.34058189 0.23094634
-0.44250780 0.69920910 0.00000000
-0.49082028 -0.21593972 0.00000000
0.11202925 -0.78630187 0.00000000
-0.64889665 0.78744961 0.00000000
-0.14476579 -0.61894398 0.00000000
0.63996041 0.10440179 0.00000000
-0.27463692 -0.15675731 0.00000000
-0.42565865 0.57792532 0.00000000
0.10505702 -0.48300778 0.00000000
-0.27510972 0.02671922 0.00000000
0.37370064 -0.69508998 0.00000000
-0.45851042 0.38694065 0.00000000
0.54735804 0.22433914 0.00000000
0.69833937 0.16326583 0.11650876
-0.54245468 0.30511324 0.00000000
0.33512002 -0.10517777 0.00000000
-0.64947334 0.74402610 0.00000000
-0.52945768 -0.70299694 0.00000000
-0.09293630 0.06961499 0.00000000
0.75457287 -0.16461742 0.00000000
-0.43325942 0.63516722 0.00000000
-0.31865781 -0.07481253 0.00000000
-0.48306878 -0.03089851 0.00000000
-0.51083537 0.38482388 0.00000000
0.41816424 -0.39886303 0.00000000
-0.43998843 -0.07552922 0.00000000
0.75128924 -0.17649620 0.00000000
-0.44411714 -0.01173818 0.00000000
0.38294830 -0.70882010 0.00000000
-0.02468067 -0.31737214 0.00000000
0.11211460 -0.21124790 0.00000000
-0.48959986 -0.13384574 0.00000000
-0.44291795 -0.12668095 0.00000000
-0.42305021 -0.49631918 0.00000000
0.66191262 -0.45294478 0.00000000
0.52551194 0.17708949 0.00000000
-0.13719694 0.22468380 0.00000000
-0.23542902 0.40088464 0.00000000
-0.38049211 0.53757762 0.00000000
-0.25237198 -0.46868890 0.00000000
0.74564429 -0.72034817 0.00000000
0.44624367 -0.11710054 0.00000000
-0.22774415 0.25891944 0.00000000
-0.24953909 0.64643629 0.00000000
-0.41758107 -0.37191795 0.00000000
0.59139729 0.24123308 0.06171196
0.34764610 -0.62260301 0.00000000
0.22260395 -0.06585008 0.00000000
0.20008862 -0.43820792 0.00000000
0.34710355 -0.27938196 0.00000000
-0.74427369 -0.23067203 0.00000000
-0.20716149 0.35596797 0.00000000
-0.00482709 0.41210344 0.00000000
-0.19608885 -0.23946751 0.00000000
0.67559761 -0.31523854 0.00000000
-0.55454458 0.65669647 0.00000000
-0.33497467 0.62941531 0.00000000
-0.00306137 0.37248428 0.00000000
-0.33652868 -0.11910974 0.00000000
-0.19644486 -0.58885961 0.00000000
-0.38993323 0.11127283 0.00000000
-0.45874778 0.54677840 0.00000000
-0.07268655 -0.28659476 0.00000000
0.49520547 -0.06771200 0.00000000
0.08594321 -0.13524903 0.00000000
0.55049158 0.48048806 0.43682913
-0.34025144 0.74237686 0.00000000
0.03343094 0.26472795 0.00000000
0.43305559 0.40203872 0.06637172
0.46526494 -0.15334869 0.00000000
0.25379517 -0.12868388 0.00000000
-0.67336945 0.06476077 0.00000000
0.02489803 0.18838361 0.00000000
-0.74649720 -0.27011870 0.00000000
0.50195035 0.38218534 0.15911808
0.29275441 -0.37951715 0.00000000
0.78234145 -0.74783523 0.00000000
0.56697894 -0.11845750 0.00000000
-0.49698893 -0.16818079 0.00000000
0.09409411 0.62684823 0.00000000
0.18133675 -0.31667234 0.00000000
0.78411452 -0.30979629 0.00000000
-0.46439583 0.10324416 0.00000000
-0.20917995 0.75179481 0.00000000
0.78181985 -0.74372932 0.00000000
0.14687298 -0.63710626 0.00000000
0.69905087 -0.12883660 0.00000000
-0.26125169 -0.21201928 0.00000000
-0.28181480 0.63885229 0.00000000
0.38126651 0.60365889 0.34973196
-0.01601987 0.53484036 0.00000000
0.11390070 -0.01035642 0.00000000
-0.16814984 -0.24569054 0.00000000
-0.74006182 -0.65582715 0.00000000
-0.04566107 -0.21978878 0.00000000
0.54640945 0.45458572 0.38012236
-0.76116644 -0.36896760 0.00000000
-0.75955812 -0.07138957 0.00000000
0.60171699 0.14832340 0.00000000
0.42071052 -0.74547907 0.00000000
-0.01881056 -0.54249238 0.00000000
-0.00875160 0.69288765 0.00000000
-0.79333501 0.46186518 0.00000000
-0.54098921 0.66146664 0.00000000
-0.69346944 0.63822606 0.00000000
0.33868577 0.58233996 0.22888472
0.61837580 -0.38006108 0.00000000
0.65288830 0.18338896 0.06860890
0.54233122 -0.59122173 0.00000000
0.77181645 -0.48137050 0.00000000
-0.63774591 0.10581977 0.00000000
-0.60757337 0.08161375 0.00000000
-0.45830251 -0.00280419 0.00000000
0.35020875 -0.15607967 0.00000000
0.24703176 -0.19348427 0.00000000
-0.55568166 -0.44866057 0.00000000
0.40151194 0.60284159 0.38647446
-0.13397473 -0.75728899 0.00000000
-0.01818960 -0.07789126 0.00000000
-0.06267277 -0.55771737 0.00000000
0.17901847 -0.38559409 0.00000000
0.79698371 -0.37040271 0.00000000
0.05906043 -0.74999940 0.00000000
0.75911434 -0.26885506 0.00000000
-0.15841767 -0.79358444 0.00000000
-0.36689760 0.64735992 0.00000000
0.34124634 -0.15730125 0.00000000
0.43615475 0.36817493 0.00819010
-0.05381756 0.60344954 0.00000000
-0.37567505 -0.37228680 0.00000000
-0.39142274 0.45888938 0.00000000
0.29141700 0.35459609 0.00000000
0.32943476 0.30244262 0.00000000
0.51916344 0.41853472 0.26041478
-0.35880392 0.17282030 0.00000000
-0.33999694 -0.01981357 0.00000000
0.68411251 -0.14954208 0.00000000
0.23896123 0.67837664 0.22191075
0.48951048 0.46653512 0.29511372
0.41604181 0.54585188 0.30617406
0.67849262 0.21521836 0.17722672
-0.70459698 0.08514234 0.00000000
0.12878913 -0.43456850 0.00000000
-0.51125217 0.12287664 0.00000000
0.75944450 0.04354177 0.00564946
0.76299226 -0.62736882 0.00000000
0.32370375 0.29555303 0.00000000
0.37606495 0.50736897 0.15779090
-0.78845273 0.65891561 0.00000000
-0.71043700 -0.64294088 0.00000000
0.14140699 0.48887824 0.00000000
-0.14120217 -0.02897316 0.00000000
-0.70556310 0.72096194 0.00000000
0.40230130 0.49927189 0.19209563
0.76530981 -0.26966281 0.00000000
-0.52057285 -0.17262743 0.00000000
-0.09548762 -0.65155216 0.00000000
0.57421997 -0.57045299 0.00000000
0.17949395 -0.21090576 0.00000000
-0.13964362 0.72096821 0.00000000
0.50269486 0.37137340 0.14007870
-0.45145882 -0.64015634 0.00000000
-0.08005378 0.03412765 0.00000000
-0.47576093 0.05048239 0.00000000
0.68522287 0.16697249 0.09871298
-0.43290772 -0.78099947 0.00000000
-0.63078615 -0.75451031 0.00000000
0.21626906 0.02571190 0.00000000
-0.37087715 -0.31874611 0.00000000
-0.17607242 0.64463875 0.00000000
0.24609566 0.03455186 0.00000000
-0.69897578 -0.15326327 0.00000000
-0.54926608 0.64397176 0.00000000
0.64149050 -0.49573704 0.00000000
-0.29900312 -0.49094667 0.00000000
0.26429228 0.60078012 0.12306586
-0.21740463 0.37795974 0.00000000
0.36527008 -0.57501800 0.00000000
0.75658254 -0.10640194 0.00000000
-0.56452684 -0.74088184 0.00000000
-0.38152374 0.12956511 0.00000000
-0.34147446 -0.39601734 0.00000000
-0.09150621 0.69873926 0.00000000
-0.53845471 0.50060626 0.00000000
-0.28469803 -0.02118812 0.00000000
-0.52950761 0.40588568 0.00000000
0.73984162 -0.06259937 0.00000000
-0.15697820 0.34338650 0.00000000
0.60661391 -0.56294745 0.00000000
0.55009720 0.28969602 0.07525824
-0.10305280 -0.71014664 0.00000000
-0.11009792 0.40374796 0.00000000
-0.32087436 -0.61159505 0.00000000
-0.16375177 -0.60098761 0.00000000
-0.62262120 0.11090857 0.00000000
-0.32430012 -0.51197404 0.00000000
0.17472509 -0.10602356 0.00000000
-0.79700646 0.61479823 0.00000000
-0.09224142 0.29476667 0.00000000
-0.67408227 -0.43135792 0.00000000
0.35180731 -0.69709622 0.00000000
-0.63882704 0.65497219 0.00000000
0.18472148 0.31780722 0.00000000
-0.01358110 -0.25358909 0.00000000
0.36721096 0.50297233 0.13273149
-0.27528559 -0.56534988 0.00000000
-0.07747305 0.49873628 0.00000000
-0.67630856 -0.67597741 0.00000000
0.34960270 0.34714289 0.00000000
0.09859582 -0.04865672 0.00000000
-0.59781566 -0.08188962 0.00000000
0.44676062 0.58371986 0.43588567
-0.16125550 0.39340004 0.00000000
-0.56760076 -0.16176740 0.00000000
-0.39316201 -0.35467082 0.00000000
-0.26560316 0.05231469 0.00000000
0.46396277 -0.26512637 0.00000000
-0.06448257 -0.77979132 0.00000000
0.37544451 0.60058433 0.33290675
0.43979954 -0.73101220 0.00000000
-0.01995564 -0.05592593 0.00000000
0.24183454 0.13803421 0.00000000
-0.46042415 0.57453761 0.00000000
-0.47028374 0.63044747 0.00000000
-0.62684700 0.26533203 0.00000000
0.40004169 0.48541819 0.16162238
-0.57312332 0.11298678 0.00000000
-0.75721768 -0.33992200 0.00000000
-0.44284005 -0.33117958 0.00000000
-0.65019694 0.62406280 0.00000000
-0.56456582 0.05501230 0.00000000
0.55821982 0.45295481 0.39937375
-0.72667374 -0.21728329 0.00000000
-0.00231210 -0.66289151 0.00000000
0.26638672 -0.79603402 0.00000000
0.57733671 0.14291401 0.00000000
-0.33191700 -0.00359031 0.00000000
-0.27928071 0.70646001 0.00000000
-0.70543280 0.24403953 0.00000000
-0.73120075 -0.56448310 0.00000000
0.71388289 0.14594713 0.11315154
0.62330983 -0.05837323 0.00000000
0.57763040 0.27552549 0.10052953
0.51681311 0.33995152 0.10735431
0.52035066 0.32617653 0.08799343
-0.27696032 0.73372322 0.00000000
-0.08944585 0.26484898 0.00000000
-0.49708088 0.08509232 0.00000000
0.53532954 -0.52013940 0.00000000
0.55306383 -0.79065487 0.00000000
-0.74131113 -0.65388008 0.00000000
0.62483385 -0.72982384 0.00000000
-0.67911516 0.27324712 0.00000000
-0.59669524 -0.13548675 0.00000000
-0.50328760 0.69013686 0.00000000
0.23079785 0.67014557 0.19090549
-0.38151255 0.42624081 0.00000000
-0.05756569 -0.49689254 0.00000000
0.30728281 0.27940601 0.00000000
0.32664811 0.52580357 0.09919774
-0.24687678 0.19520047 0.00000000
0.33695022 0.56312501 0.18926300
-0.44535104 0.02953376 0.00000000
-0.69463033 -0.58303858 0.00000000
-0.53874327 0.20078541 0.00000000
0.71707909 -0.05046389 0.00000000
-0.60169277 -0.54532593 0.00000000
-0.15246258 -0.45742458 0.00000000
0.41720635 -0.07921514 0.00000000
0.23068737 0.09943792 0.00000000
-0.21217324 0.31619641 0.00000000
0.08967733 -0.05226274 0.00000000
0.03168013 -0.52630166 0.00000000
0.61301925 -0.03702993 0.00000000
-0.69015394 0.68192426 0.00000000
-0.39695860 -0.01069743 0.00000000
-0.53657269 -0.68161394 0.00000000
0.66803573 0.24032745 0.20493678
0.42771633 0.11294944 0.00000000
-0.13302914 0.13742729 0.00000000
-0.28014747 0.70567194 0.00000000
-0.66853644 0.53447979 0.00000000
0.45781684 -0.41518017 0.00000000
-0.67234619 -0.12326432 0.00000000
0.78524314 -0.01577044 0.00000000
-0.58463752 -0.51223401 0.00000000
0.18478635 0.09181341 0.00000000
-0.75275126 -0.25140405 0.00000000
-0.70935002 -0.44125416 0.00000000
-0.37785521 0.40146426 0.00000000
-0.57985126 0.09064489 0.00000000
-0.43231397 -0.69848174 0.00000000
0.11352047 -0.04135201 0.00000000
-0.53389703 -0.12004574 0.00000000
-0.23037626 -0.58015018 0.00000000
-0.45687687 0.20502309 0.00000000
-0.69343781 0.05997440 0.00000000
0.14619639 0.40384898 0.00000000
-0.27375853 0.54065035 0.00000000
-0.79527544 0.03624230 0.00000000
-0.59480018 -0.34724454 0.00000000
-0.31011774 0.42487483 0.00000000
-0.43234496 0.62512365 0.00000000
0.22922588 0.14583980 0.00000000
0.64551484 -0.76065982 0.00000000
0.13354035 0.04732341 0.00000000
-0.58522135 -0.43065922 0.00000000
0.44549115 -0.31858928 0.00000000
0.43132266 -0.00769388 0.00000000
0.28036760 -0.78946295 0.00000000
-0.47577349 -0.75749571 0.00000000
-0.52024475 -0.77178503 0.00000000
-0.25665876 0.50263653 0.00000000
-0.34460081 0.03813134 0.00000000
-0.62289201 -0.63862715 0.00000000
0.65843087 -0.35827148 0.00000000
-0.23685010 0.54365419 0.00000000
0.19795580 0.63208790 0.05682009
0.75015005 0.09052645 0.07692870
-0.11829844 -0.77153751 0.00000000
0.45424453 0.46387982 0.22339702
-0.41085394 -0.57800126 0.00000000
0.23250870 -0.39800947 0.00000000
-0.57045116 0.10878085 0.00000000
0.33819704 0.19468277 0.00000000
0.27201038 0.61865815 0.17147335
-0.77703040 0.70337783 0.00000000
-0.71941710 0.30513119 0.00000000
0.37292452 0.27831496 0.00000000
0.19699356 0.42083609 0.00000000
-0.13078431 -0.65886347 0.00000000
-0.41889229 0.53909942 0.00000000
-0.53337830 0.35478076 0.00000000
0.22619844 0.64567307 0.13592455
-0.43249380 0.11962917 0.00000000
-0.24747587 -0.37782656 0.00000000
0.63223072 0.20287575 0.06639471
-0.11644066 -0.47553884 0.00000000
0.14742327 0.45658429 0.00000000
-0.76875925 -0.04065255 0.00000000
0.54706966 -0.03049661 0.00000000
0.13827185 0.62056757 0.00000000
-0.25666022 0.26240359 0.00000000
0.62360214 -0.20077428 0.00000000
-0.64661461 -0.60543670 0.00000000
0.50477626 -0.39426844 0.00000000
0.29415280 0.54348934 0.07119015
0.56500523 -0.37457242 0.00000000
-0.40967495 -0.62522397 0.00000000
0.33210049 -0.66049783 0.00000000
0.20116041 -0.56825217 0.00000000
-0.32445036 0.30668651 0.00000000
0.68224120 0.11583306 0.00000000
0.04807362 0.41794173 0.00000000
0.75766028 -0.21046199 0.00000000
0.34906155 0.24034125 0.00000000
0.05297155 -0.72755969 0.00000000
-0.58093022 -0.26751358 0.00000000
-0.00128177 0.31778916 0.00000000
-0.52067518 -0.66210412 0.00000000
0.36029765 0.33490562 0.00000000
-0.64199941 -0.45144327 0.00000000
0.54573191 0.19702846 0.00000000
0.61617916 -0.03540972 0.00000000
-0.08409419 0.34357443 0.00000000
-0.36097693 0.00608331 0.00000000
0.35198672 -0.36683458 0.00000000
0.19997705 0.62215865 0.04186458
-0.43476146 0.41838190 0.00000000
-0.01562864 0.32364699 0.00000000
0.01659425 0.15284851 0.00000000
0.14321929 0.63399756 0.00000000
-0.60537413 -0.18732660 0.00000000
-0.45186696 -0.74910537 0.00000000
0.72902270 0.14390766 0.13792671
0.65031041 -0.56094085 0.00000000
-0.06849848 -0.38421076 0.00000000
0.73305904 -0.74708326 0.00000000
-0.06148629 0.14048611 0.00000000
0.33886907 0.23625017 0.00000000
0.65315310 -0.04034313 0.00000000
-0.75817384 -0.12071212 0.00000000
0.46504473 -0.27193557 0.00000000
-0.74087736 -0.19203093 0.00000000
0.63736576 -0.18761549 0.00000000
0.53780793 0.09251082 0.00000000
-0.77123067 0.17864984 0.00000000
-0.06338739 -0.66431492 0.00000000
0.64263056 -0.67124185 0.00000000
-0.60682818 -0.03147876 0.00000000
-0.74954009 0.11728876 0.00000000
0.32991582 0.51071097 0.07683468
-0.09866855 0.65110339 0.00000000
0.64488153 -0.09385781 0.00000000
0.24667009 0.45054770 0.00000000
0.19395122 -0.17209166 0.00000000
-0.70429296 -0.35997775 0.00000000
-0.60655554 0.03519697 0.00000000
-0.69091503 0.32357385 0.00000000
-0.16719865 0.20274464 0.00000000
0.51154994 -0.43793422 0.00000000
0.35436462 0.15459600 0.00000000
-0.47604156 -0.04563547 0.00000000
0.20818086 0.10638431 0.00000000
0.30359155 -0.55282130 0.00000000
-0.21991232 0.45478810 0.00000000
-0.60208474 0.26759118 0.00000000
0.62439916 0.34767939 0.32543463
0.64639869 -0.44244181 0.00000000
0.41754556 0.17387623 0.00000000
-0.15080802 -0.03045086 0.00000000
0.41723380 0.02746986 0.00000000
0.16521837 0.17451891 0.00000000
0.00084219 -0.43162809 0.00000000
-0.63210735 -0.05210272 0.00000000
-0.07522953 -0.43575307 0.00000000
0.57679598 -0.52571758 0.00000000
-0.32828613 -0.16539657 0.00000000
0.73967291 -0.49827067 0.00000000
0.10990419 0.72361544 0.06339382
-0.66445346 0.04963600 0.00000000
0.58232259 -0.60704830 0.00000000
-0.45056037 -0.76804542 0.00000000
0.00903974 -0.05535246 0.00000000
0.02924672 -0.74761282 0.00000000
0.29966391 0.50593358 0.01058775
-0.54830092 0.04211089 0.00000000
0.41077886 0.39625975 0.01331318
-0.62764256 0.77367908 0.00000000
-0.02643871 0.36277800 0.00000000
0.05337142 0.75117814 0.00860593
0.64250241 0.23783984 0.15194398
0.63334168 -0.47519762 0.00000000
0.66174750 0.19540226 0.10808269
-0.59481461 -0.50832912 0.00000000
-0.67295728 0.36643587 0.00000000
-0.72934480 -0.49476368 0.00000000
-0.61872987 0.26086801 0.00000000
-0.59033796 0.03217677 0.00000000
-0.61788682 -0.71904153 0.00000000
-0.66389964 0.74053600 0.00000000
0.00837592 -0.42315706 0.00000000
0.15953787 0.62057992 0.00000000
0.63834917 0.02784614 0.00000000
-0.61285099 0.73338985 0.00000000
0.55662365 0.44174340 0.37515198
0.63623920 0.27536382 0.21106391
-0.40894488 -0.49915651 0.00000000
0.71599136 -0.58929548 0.00000000
0.64052209 -0.00790577 0.00000000
0.74318833 -0.75545053 0.00000000
0.29641010 0.56501512 0.11616837
0.69079440 -0.50649357 0.00000000
-0.63795561 0.65246058 0.00000000
0.17576708 0.45604244 0.00000000
0.15373197 0.69678034 0.09553026
0.72331268 -0.11578089 0.00000000
-0.02696865 -0.51800402 0.00000000
-0.62396174 0.13947714 0.00000000
0.57553405 0.35270935 0.24253396
-0.65423648 -0.02861603 0.00000000
0.68116392 -0.00896185 0.00000000
-0.46169822 0.57145137 0.00000000
-0.27458194 0.01192229 0.00000000
-0.49891536 0.44559919 0.00000000
-0.05667099 -0.33079203 0.00000000
0.51872542 -0.03627913 0.00000000
0.70102025 -0.61629593 0.00000000
0.29481499 0.19404742 0.00000000
-0.64151026 -0.66011455 0.00000000
-0.51572777 -0.23050352 0.00000000
0.48580780 -0.01823790 0.00000000
0.61802605 0.21859734 0.06926350
-0.46690241 -0.06824473 0.00000000
-0.43531884 -0.48027767 0.00000000
0.57333108 -0.73339981 0.00000000
0.04420257 0.77375882 0.03397034
-0.41699570 -0.05655141 0.00000000
-0.12023615 0.74529728 0.00000000
0.70624512 0.01829440 0.00000000
-0.07344190 -0.37775753 0.00000000
-0.63332809 -0.43679279 0.00000000
0.02202582 -0.78845731 0.00000000
0.07307657 0.75620096 0.05537134
0.51537416 0.13873083 0.00000000
0.47098983 0.42159472 0.17509644
0.12384048 0.37855449 0.00000000
0.57091466 -0.16738107 0.00000000
-0.25661458 -0.62092653 0.00000000
-0.54195034 -0.27885413 0.00000000
0.07759041 0.46625027 0.00000000
0.36569912 -0.47926610 0.00000000
-0.50163687 -0.42884471 0.00000000
0.12581743 -0.04876606 0.00000000
0.28992261 -0.62885764 0.00000000
-0.16266828 0.69676035 0.00000000
0.48841694 -0.56171181 0.00000000
0.27694169 0.55971719 0.06933063
0.72545352 0.08754217 0.02457913
-0.24002077 0.15612850 0.00000000
0.77110334 -0.38636428 0.00000000
-0.51613131 0.10096236 0.00000000
-0.41029115 -0.19759574 0.00000000
0.25663626 0.45716595 0.00000000
0.50724607 0.50790290 0.40689031
0.34041293 0.55880475 0.18764119
0.66360777 0.28014387 0.27186290
-0.69267728 0.71461221 0.00000000
0.02317200 -0.33792593 0.00000000
-0.01532607 0.23886764 0.00000000
0.54842378 0.33176228 0.15164859
0.33854973 0.52686439 0.12371212
0.12957320 0.65373363 0.00000000
-0.73736560 0.11927764 0.00000000
-0.56529844 -0.02435252 0.00000000
0.07110777 0.74285879 0.02641522
-0.54622445 -0.52922482 0.00000000
0.13319088 -0.23906640 0.00000000
-0.31584206 -0.04888735 0.00000000
0.45534914 0.40029296 0.10523141
-0.24519510 0.62619337 0.00000000
-0.02531742 0.18622418 0.00000000
0.04249061 -0.60402030 0.00000000
0.50323962 -0.79526166 0.00000000
-0.17616696 0.78074712 0.00000000
0.48959565 0.41736375 0.20228195
-0.79011782 -0.59041329 0.00000000
0.51503450 0.38637217 0.19178071
0.45232787 0.50951342 0.30607477
-0.00216815 0.54000597 0.00000000
0.71471501 0.11092949 0.04850038
0.25329659 -0.06026952 0.00000000
0.44649359 0.49114635 0.26030507
-0.35366694 0.58587703 0.00000000
-0.24221830 -0.04478647 0.00000000
0.76394552 -0.40035495 0.00000000
0.46556516 0.35609082 0.04095735
0.18743959 0.70239290 0.16989266
0.16100962 -0.21398386 0.00000000
-0.36230621 0.25587161 0.00000000
0.33147557 -0.03418245 0.00000000
-0.43038970 -0.62902656 0.00000000
-0.53410263 -0.58383930 0.00000000
0.02819641 -0.58250110 0.00000000
0.13583575 0.06790983 0.00000000
-0.75223154 0.23205595 0.00000000
-0.18436419 0.75934663 0.00000000
-0.17188170 -0.15962740 0.00000000
-0.12990604 0.71393727 0.00000000
-0.40345558 0.40073907 0.00000000
0.48331758 0.56568275 0.47091035
0.61365395 -0.24887189 0.00000000
-0.77993317 -0.18819474 0.00000000
0.38037325 0.43101746 0.02154382
0.28375979 0.60527558 0.16838463
-0.70528487 -0.63596378 0.00000000
0.29990868 0.59427383 0.17811887
0.53811451 -0.79767309 0.00000000
-0.14988013 -0.40069400 0.00000000
0.03068884 0.23089594 0.00000000
0.78653839 -0.37077656 0.00000000
-0.73774912 -0.71567821 0.00000000
0.41848328 0.59783955 0.40911078
-0.33833066 0.25409947 0.00000000
-0.70144087 -0.03291060 0.00000000
-0.48138826 0.04448276 0.00000000
-0.01134338 -0.65998798 0.00000000
-0.25306341 -0.03667372 0.00000000
0.14160442 -0.43891145 0.00000000
0.30402216 -0.40550223 0.00000000
0.30189133 0.49363950 0.00000000
0.48196137 -0.64157971 0.00000000
-0.50597785 0.31114237 0.00000000
0.36168078 -0.37734426 0.00000000
-0.04140062 -0.27826789 0.00000000
0.60133165 -0.23680906 0.00000000
0.68062559 -0.64429279 0.00000000
0.55493679 0.43220696 0.35392641
-0.18812584 -0.65247001 0.00000000
0.42282375 0.15834508 0.00000000
-0.39728155 -0.75896421 0.00000000
-0.12552105 0.62583249 0.00000000
0.42786445 0.03754143 0.00000000
0.71624956 0.13361591 0.09430672
-0.25939982 -0.24761770 0.00000000
0.05293906 -0.63960565 0.00000000
0.69617437 -0.74729918 0.00000000
0.41311967 0.25899337 0.00000000
0.03497105 -0.52306811 0.00000000
-0.37007965 -0.72711161 0.00000000
-0.57882858 -0.06005063 0.00000000
-0.20905165 0.67415166 0.00000000
-0.17900127 0.50453932 0.00000000
-0.41267916 0.19379752 0.00000000
0.39690480 -0.12278786 0.00000000
-0.22358621 -0.23415056 0.00000000
-0.32727297 0.45602533 0.00000000
-0.15808355 0.14271364 0.00000000
0.26056157 -0.11298800 0.00000000
0.06864097 0.45790449 0.00000000
-0.49666805 0.70242778 0.00000000
-0.52163656 0.06698509 0.00000000
0.43831483 0.11769058 0.00000000
-0.76991611 0.35538167 0.00000000
0.19985920 0.01517484 0.00000000
-0.73794072 0.20852007 0.00000000
0.63614379 0.06040600 0.00000000
0.15548476 -0.33559388 0.00000000
-0.16791844 -0.14376983 0.00000000
-0.45948780 0.48271673 0.00000000
0.26110575 0.64890478 0.20805311
-0.63135864 0.74846622 0.00000000
0.42039068 -0.57846914 0.00000000
-0.01788557 0.26364332 0.00000000
-0.01958148 -0.41329896 0.00000000
0.71734112 0.01620273 0.00000000
0.43763943 -0.16449949 0.00000000
-0.35352094 -0.43160220 0.00000000
-0.74049295 0.24727088 0.00000000
0.69667474 -0.29654172 0.00000000
-0.16147929 -0.68527525 0.00000000
0.55657192 0.40880072 0.31275274
0.77699940 -0.33868682 0.00000000
0.41380769 -0.58015459 0.00000000
0.44481618 -0.19116590 0.00000000
0.31848790 -0.39824435 0.00000000
0.47488039 -0.53722276 0.00000000
-0.06349553 -0.34470348 0.00000000
-0.30163497 -0.41600450 0.00000000
0.14209904 -0.66082510 0.00000000
-0.13499390 0.07658339 0.00000000
-0.08962268 -0.71856440 0.00000000
-0.79562066 -0.06802850 0.00000000
-0.47313489 0.03945886 0.00000000
-0.41663079 0.69841923 0.00000000
0.18172809 0.71181301 0.17690644
-0.15955839 0.77860947 0.00000000
0.57814320 -0.70588181 0.00000000
0.44680480 -0.72856977 0.00000000
0.69758185 0.14090110 0.07278027
-0.65063867 -0.79874548 0.00000000
0.24103459 -0.26592734 0.00000000
-0.55360502 0.55349686 0.00000000
-0.10866541 0.29986916 0.00000000
-0.35348746 -0.11654896 0.00000000
0.35268120 0.44462088 0.00000000
0.66490036 -0.00019723 0.00000000
-0.69698947 0.60520200 0.00000000
-0.65977768 0.55903862 0.00000000
0.17811901 0.29039766 0.00000000
0.07258123 -0.77972153 0.00000000
-0.11256155 0.69039856 0.00000000
0.24061024 -0.04695348 0.00000000
-0.66554633 -0.67745433 0.00000000
-0.70469055 -0.42069630 0.00000000
0.49137208 0.45791021 0.28232290
0.38907397 -0.10152519 0.00000000
-0.06979198 -0.05798069 0.00000000
0.68063812 -0.34592994 0.00000000
0.02186302 0.44399359 0.00000000
-0.62053648 -0.46409046 0.00000000
0.77034223 -0.61529798 0.00000000
0.63610699 0.26412213 0.18955376
0.53749145 -0.08593664 0.00000000
0.23243932 -0.21376464 0.00000000
0.02423595 0.76585134 0.00000000
0.40325444 -0.05514581 0.00000000
0.65701867 0.17500000 0.06055512
-0.52821604 0.75660207 0.00000000
-0.46966292 0.35685515 0.00000000
-0.03155277 -0.34895871 0.00000000
-0.28502896 0.47661950 0.00000000
-0.02950934 -0.19520453 0.00000000
0.28029067 -0.26827344 0.00000000
-0.27846951 -0.04357265 0.00000000
-0.52082446 0.12080874 0.00000000
0.39471828 -0.16533194 0.00000000
0.32317742 0.54700151 0.13272326
0.79707276 0.00440632 0.00279909
0.55831130 -0.34607060 0.00000000
-0.75956127 0.39615021 0.00000000
-0.56617449 0.13971978 0.00000000
-0.15989461 0.67879104 0.00000000
-0.47516670 -0.04964154 0.00000000
0.25079570 0.06112862 0.00000000
0.68614557 0.13623078 0.04231970
-0.78540064 -0.08234100 0.00000000
-0.75604358 0.13606520 0.00000000
0.43450825 -0.45012539 0.00000000
-0.39765155 -0.44102315 0.00000000
-0.53802388 -0.20104345 0.00000000
-0.62228874 0.64298506 0.00000000
-0.17184114 0.29695908 0.00000000
-0.27492840 -0.07531752 0.00000000
-0.63982090 0.36503572 0.00000000
0.17007871 -0.66807000 0.00000000
0.73629497 0.08767597 0.04533538
-0.68856513 0.54921223 0.00000000
-0.38999970 -0.10157817 0.00000000
-0.15858721 0.05991564 0.00000000
0.04726747 0.37773262 0.00000000
0.27455630 -0.22301726 0.00000000
-0.35012303 -0.16954701 0.00000000
-0.03333864 -0.74163739 0.00000000
-0.11026735 0.68977838 0.00000000
-0.35970045 0.77602537 0.00000000
-0.06205481 -0.15197159 0.00000000
-0.74807603 -0.58300863 0.00000000
0.62552207 -0.61335650 0.00000000
0.31128271 -0.32875268 0.00000000
0.76741062 0.04686911 0.02700750
-0.52204646 -0.32145935 0.00000000
0.48025054 -0.49712349 0.00000000
0.03370754 -0.40501043 0.00000000
0.24761636 -0.51393670 0.00000000
-0.20803500 -0.02766629 0.00000000
-0.72245106 -0.49026870 0.00000000
-0.21093473 0.74835791 0.00000000
0.30002115 -0.72554885 0.00000000
-0.39094609 -0.34141623 0.00000000
-0.72380814 -0.50554365 0.00000000
0.00788248 -0.53869414 0.00000000
0.48909040 -0.20836723 0.00000000
0.52037733 -0.27939567 0.00000000
0.61888178 0.24062465 0.11253957
0.17940764 0.44491381 0.00000000
0.30405176 0.09176835 0.00000000
0.05877044 -0.10853366 0.00000000
0.34235734 0.50878251 0.09671683
0.11438563 0.72166045 0.06817184
-0.21216608 -0.65232599 0.00000000
0.39066149 -0.08540071 0.00000000
-0.03381474 -0.11557529 0.00000000
0.16777252 -0.16640343 0.00000000
0.27872865 0.53653764 0.02887326
0.18408748 0.15802425 0.00000000
-0.13359716 0.41604374 0.00000000
0.31765713 -0.31426968 0.00000000
0.14932342 0.30826853 0.00000000
0.73595063 -0.76086567 0.00000000
0.75683530 -0.12189432 0.00000000
-0.41427037 0.78538409 0.00000000
-0.59024228 0.54452045 0.00000000
-0.63013247 0.41479560 0.00000000
0.64666591 -0.17182958 0.00000000
0.12567404 -0.05704630 0.00000000
0.44991231 0.48480653 0.25478064
0.56657944 -0.29717294 0.00000000
0.61249190 0.32588827 0.26170445
0.43228750 -0.31927845 0.00000000
-0.34310785 -0.54360110 0.00000000
0.28863173 0.54931466 0.07176554
0.31745353 0.26454689 0.00000000
0.06706074 -0.75492308 0.00000000
0.08124120 0.39739740 0.00000000
-0.60453783 -0.06883717 0.00000000
-0.74834775 0.79641936 0.00000000
-0.24411509 -0.25792404 0.00000000
0.15395155 -0.65417434 0.00000000
-0.38047697 0.64934875 0.00000000
-0.76566688 0.53360651 0.00000000
-0.40798147 0.73673788 0.00000000
-0.23661799 0.31655158 0.00000000
0.59190712 0.21771886 0.01820640
-0.68404819 0.64701473 0.00000000
-0.08114876 0.30313994 0.00000000
0.39404554 -0.24659549 0.00000000
-0.00916269 -0.53814086 0.00000000
-0.79817017 0.43806572 0.00000000
0.28114388 0.22973952 0.00000000
0.12652049 0.70626166 0.06199900
-0.18500092 -0.08658091 0.00000000
0.18999521 0.48816656 0.00000000
0.46414507 0.38797417 0.09856903
-0.55987542 -0.03520458 0.00000000
-0.27029391 0.73340561 0.00000000
0.20406027 0.63776197 0.07909550
0.55022349 -0.55362859 0.00000000
0.40866018 0.53611479 0.27379907
0.54074093 0.36601594 0.20189894
-0.60050996 0.40489108 0.00000000
-0.74385954 -0.20078817 0.00000000
0.02397534 -0.51911508 0.00000000
0.71463465 -0.59329736 0.00000000
-0.36280234 -0.16718046 0.00000000
-0.65550511 -0.66137277 0.00000000
-0.70176444 0.06310966 0.00000000
0.14808559 -0.40248593 0.00000000
-0.69700304 -0.75966587 0.00000000
0.07675385 0.51191979 0.00000000
-0.60739738 -0.54795281 0.00000000
0.53066757 -0.25217803 0.00000000
0.73300339 -0.77704604 0.00000000
-0.48691965 0.03186854 0.00000000
0.72719791 -0.02107596 0.00000000
0.05658928 -0.44758746 0.00000000
0.51912586 -0.53944293 0.00000000
-0.25685352 -0.01608837 0.00000000
-0.66128110 0.40214190 0.00000000
0.59501853 -0.71761221 0.00000000
0.45945770 0.34330575 0.00522807
-0.46305486 -0.38939595 0.00000000
-0.37705531 0.50486359 0.00000000
-0.46410619 -0.71760741 0.00000000
0.00714555 -0.77928322 0.00000000
0.48973714 -0.04869874 0.00000000
-0.07860536 0.50250650 0.00000000
-0.38760466 0.27811882 0.00000000
-0.01530559 0.25534914 0.00000000
-0.63662937 -0.53010585 0.00000000
0.58314174 -0.24629907 0.00000000
0.38120516 0.44014022 0.04036994
-0.55006351 -0.22687318 0.00000000
-0.32979438 -0.48918486 0.00000000
0.61662586 -0.18765065 0.00000000
-0.21975064 0.41670366 0.00000000
0.67288809 -0.26219063 0.00000000
0.30104205 0.03757686 0.00000000
0.29713311 0.17059573 0.00000000
0.30844604 0.57848849 0.16441139
-0.61379098 -0.40860138 0.00000000
-0.58939520 -0.79583482 0.00000000
0.22041729 -0.15181982 0.00000000
-0.04397429 0.75054245 0.00000000
0.01639516 -0.45742140 0.00000000
0.69091472 -0.45256268 0.00000000
0.18478530 -0.40729903 0.00000000
0.76167232 -0.71188781 0.00000000
-0.79628144 -0.10250706 0.00000000
-0.22527005 -0.67030375 0.00000000
0.07692901 -0.54366666 0.00000000
0.25975533 0.14800699 0.00000000
0.56861892 0.47221601 0.45546744
0.29735605 0.35373185 0.00000000
0.02876156 0.53359531 0.00000000
0.54783865 -0.04814013 0.00000000
-0.22521274 0.15459392 0.00000000
0.31576664 -0.34374037 0.00000000
-0.08192089 -0.41819699 0.00000000
-0.69712507 -0.23455717 0.00000000
0.34523281 0.55236017 0.18456852
0.22749060 -0.19128880 0.00000000
-0.38583774 0.04186976 0.00000000
-0.78559727 -0.31732380 0.00000000
0.00584171 0.10386074 0.00000000
-0.64370189 -0.35131635 0.00000000
-0.02324316 0.12832776 0.00000000
0.42807560 0.17398007 0.00000000
0.28341566 -0.04740623 0.00000000
0.37125191 -0.78055899 0.00000000
-0.61436801 -0.69777358 0.00000000
-0.37801756 0.54133381 0.00000000
-0.40409337 -0.68706429 0.00000000
-0.11657307 -0.77257285 0.00000000
0.14982509 0.54904574 0.00000000
0.60316828 -0.03426660 0.00000000
0.77096159 -0.01696104 0.00000000
-0.55211622 -0.72384953 0.00000000
0.40538636 -0.22640070 0.00000000
-0.60899168 -0.79027452 0.00000000
-0.23138929 0.11731707 0.00000000
0.00181690 -0.50946835 0.00000000
-0.64461825 0.03629268 0.00000000
0.40623521 0.51254289 0.22463365
-0.70684787 -0.66950127 0.00000000
-0.16425107 -0.46443947 0.00000000
0.32955044 0.52211673 0.09771408
0.47292740 -0.18564343 0.00000000
0.56090322 -0.22535716 0.00000000
-0.59102486 0.40836331 0.00000000
-0.53013978 0.26786968 0.00000000
0.40597061 -0.04109826 0.00000000
-0.66784358 -0.46269957 0.00000000
0.14268950 0.71975183 0.11809055
0.68397704 -0.41667859 0.00000000
0.35800357 -0.77892652 0.00000000
0.56741139 0.38572070 0.28960328
0.26296481 -0.52901219 0.00000000
-0.45905195 0.66348499 0.00000000
0.02092513 -0.33647917 0.00000000
0.45354419 0.37604860 0.05596733
0.79734803 -0.15810695 0.00000000
-0.06995913 -0.13253273 0.00000000
0.24364933 -0.43561166 0.00000000
0.31658038 0.62390495 0.26568697
-0.18308327 0.31927696 0.00000000
0.12062978 0.20569072 0.00000000
-0.04970284 -0.08428713 0.00000000
0.06487322 -0.26277731 0.00000000
0.07420657 -0.67638491 0.00000000
0.64177164 0.21202080 0.10173337
0.66839475 0.08781979 0.00000000
-0.15020426 -0.26882383 0.00000000
-0.79228232 0.45318043 0.00000000
0.78058378 -0.18112455 0.00000000
