ply
format ascii 1.0
element vertex 1408
property float x
property float y
property float z
end_header
0.43661470 -0.72238740 0.00000000
0.26348967 0.37822665 0.00000000
0.27565895 -0.30323888 0.00000000
0.74602456 -0.67139353 0.00000000
0.49908935 -0.02565101 0.00000000
0.57840082 -0.29112739 0.00000000
-0.23544758 -0.73783227 0.00000000
-0.17394003 0.19781150 0.00000000
0.58750412 0.33384530 0.06120524
-0.57767568 -0.69411551 0.00000000
-0.67621883 0.04906257 0.00000000
-0.79602201 0.13588679 0.00000000
-0.07438474 -0.65268620 0.00000000
0.25589258 -0.64649344 0.00000000
-0.08689465 -0.61535017 0.00000000
0.40914463 -0.02732215 0.00000000
-0.59439431 0.56230404 0.00000000
0.07843617 -0.48309204 0.00000000
0.44046685 -0.12957240 0.00000000
-0.77945894 0.08784014 0.00000000
0.49049222 -0.04732190 0.00000000
-0.03973392 0.46225911 0.00000000
0.60975427 0.63956039 0.22662101
0.60621951 -0.61469097 0.00000000
-0.01546535 -0.28158836 0.00000000
0.67775440 0.67360053 0.27808692
0.51215870 0.24441279 0.00000000
-0.10757994 0.12942614 0.00000000
0.04816029 0.56962913 0.00000000
0.36003164 0.09475195 0.00000000
0.35726593 -0.08423492 0.00000000
-0.01431711 0.75381165 0.00000000
-0.15437928 0.01319479 0.00000000
-0.76208700 -0.14428061 0.00000000
-0.56596471 -0.37055816 0.00000000
-0.52322414 -0.32785963 0.00000000
0.21920307 0.21172077 0.00000000
0.32916449 0.02472432 0.00000000
0.41045200 -0.67146984 0.00000000
0.40818310 0.18255154 0.00000000
0.65425860 0.24931504 0.05223964
-0.72560096 0.52608057 0.00000000
0.20405397 -0.46461219 0.00000000
0.55690347 -0.21582230 0.00000000
0.09922167 -0.52832678 0.00000000
0.22970613 -0.09961077 0.00000000
0.04537957 0.36416573 0.00000000
-0.13267648 -0.09896466 0.00000000
-0.42087898 0.41258962 0.00000000
0.62631478 0.72179473 0.27644992
0.34090835 0.35552683 0.00000000
-0.77455973 0.37491434 0.00000000
-0.29021259 -0.71869609 0.00000000
0.06854668 0.79158285 0.03032752
-0.32261094 0.69758832 0.00000000
0.61573082 -0.31096233 0.00000000
0.64242807 0.09265679 0.00000000
-0.27357471 0.63986592 0.00000000
-0.33729159 -0.43171629 0.00000000
-0.35652152 0.79371154 0.00000000
0.65223894 -0.78325347 0.00000000
0.28858299 0.05504853 0.00000000
0.62637551 -0.55483283 0.00000000
-0.52137337 -0.76121782 0.00000000
-0.29026234 0.25530541 0.00000000
0.50843274 0.20701218 0.00000000
-0.31770290 -0.54758771 0.00000000
-0.06476675 0.21983671 0.00000000
0.40056323 0.41058719 0.00562395
0.74727899 -0.36947669 0.00000000
-0.07929524 -0.66917445 0.00000000
0.48710064 -0.66716901 0.00000000
0.67820740 0.56399101 0.22303198
-0.14516095 -0.48843208 0.00000000
0.41675797 -0.72675614 0.00000000
-0.58949315 0.13339444 0.00000000
0.17389183 -0.52216590 0.00000000
-0.78173765 0.40505205 0.00000000
0.10581545 -0.05723242 0.00000000
-0.54003827 -0.06001357 0.00000000
0.29698174 -0.43495726 0.00000000
-0.62478357 -0.19970683 0.00000000
0.01462977 0.25934758 0.00000000
0.11671570 0.61276027 0.00000000
-0.23965789 0.31334505 0.00000000
0.28977362 -0.47963790 0.00000000
-0.49602109 -0.41409929 0.00000000
0.12805481 0.07641970 0.00000000
-0.76467193 -0.56178484 0.00000000
0.64649252 -0.07417414 0.00000000
0.70351847 -0.67353080 0.00000000
-0.66465506 -0.01902982 0.00000000
0.18943208 0.48189441 0.00000000
-0.07375980 0.30375195 0.00000000
0.10757614 -0.78865753 0.00000000
0.44603021 -0.27372746 0.00000000
0.53409637 0.17493237 0.00000000
0.50366852 0.22935278 0.00000000
0.05419191 0.27703339 0.00000000
0.46061922 -0.72470312 0.00000000
-0.18008347 0.14108939 0.00000000
-0.39368384 -0.01117364 0.00000000
-0.13639648 -0.36156433 0.00000000
-0.30434808 -0.46137205 0.00000000
0.48023297 0.72225678 0.20300375
-0.65122582 -0.02943883 0.00000000
0.57689942 -0.55492823 0.00000000
-0.11779590 0.45015229 0.00000000
-0.15220456 -0.17834963 0.00000000
-0.37684780 0.39092235 0.00000000
0.64816924 0.36481117 0.10742134
0.10083037 0.50171834 0.00000000
-0.72469217 0.73408178 0.00000000
0.64490128 -0.31367520 0.00000000
-0.06270126 0.27651023 0.00000000
-0.40069564 -0.63551298 0.00000000
0.73557622 -0.13228809 0.00000000
0.79019667 -0.46863461 0.00000000
0.61637605 0.30569888 0.06157117
-0.62755507 0.43935907 0.00000000
0.61250950 -0.32202184 0.00000000
0.35836968 -0.58378366 0.00000000
0.52864301 -0.21068162 0.00000000
-0.27160341 0.53915050 0.00000000
0.50612195 -0.44522466 0.00000000
-0.20013972 -0.74891543 0.00000000
-0.26945605 -0.43592252 0.00000000
0.44048313 0.43670916 0.03893362
0.47664674 -0.51096025 0.00000000
-0.25208233 -0.36782617 0.00000000
0.66484649 0.44337099 0.15545625
0.62173544 -0.02472155 0.00000000
-0.57847118 -0.62936406 0.00000000
0.15822634 -0.53566512 0.00000000
0.02061293 0.49268052 0.00000000
-0.14678958 -0.12246113 0.00000000
-0.21256965 0.58016987 0.00000000
-0.44485004 0.13414840 0.00000000
0.56185544 0.59259946 0.17877676
-0.13922048 -0.48170772 0.00000000
0.49048945 0.53935653 0.11592786
0.79359468 -0.46712926 0.00000000
-0.79209302 0.70395273 0.00000000
-0.24355845 0.00658338 0.00000000
0.36893604 -0.28247435 0.00000000
0.73661597 0.03342710 0.00000000
-0.25822056 -0.07082270 0.00000000
0.23454975 0.16870628 0.00000000
0.00113725 -0.74333408 0.00000000
0.08753050 -0.69750138 0.00000000
0.57062935 -0.74933677 0.00000000
-0.38481849 -0.54084580 0.00000000
-0.69671031 0.11628855 0.00000000
-0.68912941 -0.27915986 0.00000000
-0.06919501 -0.04324117 0.00000000
-0.59401675 0.31229708 0.00000000
0.29789961 -0.73560649 0.00000000
0.05020685 -0.08321243 0.00000000
0.24194859 0.72862886 0.08603424
-0.27047975 -0.17601888 0.00000000
-0.04874614 -0.57432783 0.00000000
0.20383729 -0.43415381 0.00000000
-0.28960542 -0.29019444 0.00000000
-0.79011561 -0.79463214 0.00000000
-0.13530574 -0.76408876 0.00000000
-0.00563366 0.77714473 0.00000000
0.60893096 -0.41924675 0.00000000
0.53422866 -0.03784626 0.00000000
0.34218107 -0.32729059 0.00000000
0.23498110 0.54858250 0.00000000
-0.16254431 0.19198578 0.00000000
-0.63076874 -0.01952321 0.00000000
0.26084918 0.72077922 0.09160802
-0.28423317 0.01010227 0.00000000
-0.41791177 0.27379368 0.00000000
-0.37710442 0.36248397 0.00000000
-0.34229841 0.66781823 0.00000000
-0.50146043 0.58431627 0.00000000
-0.56877614 0.28209926 0.00000000
-0.32607761 0.35990005 0.00000000
-0.77806242 -0.68559297 0.00000000
-0.65582156 0.63599023 0.00000000
0.02270412 -0.68958172 0.00000000
0.69908874 0.61381049 0.25869119
0.18800326 -0.77489795 0.00000000
0.00357573 0.07778317 0.00000000
-0.73256096 0.50555481 0.00000000
-0.61980460 0.28139425 0.00000000
-0.75390185 0.58737748 0.00000000
-0.70184512 -0.76011634 0.00000000
-0.42087823 -0.04943512 0.00000000
0.14688581 0.35611931 0.00000000
0.73736302 0.60568655 0.27389813
0.07780272 -0.14186038 0.00000000
-0.13491181 -0.60574174 0.00000000
-0.72874987 0.68461192 0.00000000
-0.26817580 0.11802633 0.00000000
-0.41452076 -0.70280373 0.00000000
0.26246908 -0.67013033 0.00000000
-0.61102689 -0.05018492 0.00000000
0.63207168 -0.61512763 0.00000000
0.63076307 -0.65419157 0.00000000
0.24081505 0.49396967 0.00000000
-0.15620065 -0.08966961 0.00000000
0.36341858 -0.38774970 0.00000000
-0.07604469 0.19754431 0.00000000
-0.09013752 -0.75338320 0.00000000
-0.39483279 -0.21678417 0.00000000
-0.01989934 0.55893522 0.00000000
0.39886349 0.57769812 0.08905272
-0.40749604 0.48387821 0.00000000
0.02977068 0.50453676 0.00000000
0.42683561 -0.13557846 0.00000000
-0.34034909 0.33204216 0.00000000
-0.45410439 0.29949584 0.00000000
-0.30141379 -0.20876887 0.00000000
0.65205132 0.23016318 0.04146669
0.34925796 0.73584750 0.14379866
0.49381311 0.13086264 0.00000000
0.07077950 -0.16097041 0.00000000
0.68392199 -0.41192403 0.00000000
-0.75099951 0.18651775 0.00000000
0.11898462 -0.46626499 0.00000000
-0.79087687 0.42505694 0.00000000
0.01161784 0.62241153 0.00000000
0.07907065 0.57190077 0.00000000
0.68752470 -0.50286913 0.00000000
-0.42411788 0.26014931 0.00000000
0.23496395 0.48667507 0.00000000
-0.73053888 0.74088688 0.00000000
-0.41885924 -0.55530172 0.00000000
0.18972275 0.56148317 0.00000000
0.22649102 -0.31204499 0.00000000
0.62152833 0.67800864 0.25195151
0.70417555 0.57498495 0.24167450
0.48609572 0.69360341 0.19150892
0.45748837 0.64779929 0.15397816
0.58895417 0.51199210 0.15178884
-0.28208833 0.60032823 0.00000000
-0.67419224 -0.34705592 0.00000000
-0.34624545 -0.65451100 0.00000000
0.34288226 -0.64880289 0.00000000
0.03645509 -0.59885082 0.00000000
-0.49386473 -0.74911562 0.00000000
0.46654519 -0.48171414 0.00000000
-0.28461641 -0.22842740 0.00000000
0.59199609 0.73507875 0.26584063
-0.68649179 -0.29074293 0.00000000
-0.11481547 -0.42417063 0.00000000
0.44512825 -0.63002934 0.00000000
-0.24445690 -0.42898990 0.00000000
-0.22062234 0.42307073 0.00000000
-0.08029334 -0.09186792 0.00000000
-0.33745293 -0.11701599 0.00000000
0.69195036 -0.27266331 0.00000000
-0.60970156 0.39127229 0.00000000
0.79263800 -0.44316119 0.00000000
-0.49191277 -0.43388258 0.00000000
-0.10332873 -0.19275800 0.00000000
0.53387972 0.26152301 0.00000000
-0.10295532 -0.29513164 0.00000000
-0.48441449 -0.55990460 0.00000000
0.40983763 0.56490945 0.08813752
0.45759497 0.36898866 0.01340803
-0.20263152 0.59678423 0.00000000
0.23702950 0.64911907 0.04345092
0.58763120 0.73343588 0.26281051
0.15853611 0.53414384 0.00000000
0.55086730 -0.70701720 0.00000000
-0.52807760 -0.37035184 0.00000000
-0.06909162 0.32640616 0.00000000
0.16531238 -0.46986331 0.00000000
0.60317334 -0.61958580 0.00000000
-0.78649103 0.69502995 0.00000000
0.54096453 0.74383188 0.24451667
0.22393074 -0.23730243 0.00000000
0.05977971 -0.43659669 0.00000000
-0.01083851 0.04370673 0.00000000
0.56107563 0.42638342 0.09454909
-0.49258843 -0.78233532 0.00000000
-0.00587180 0.56287490 0.00000000
-0.35565307 -0.56055623 0.00000000
-0.15728367 0.67216658 0.00000000
-0.61936617 0.72863051 0.00000000
0.43477615 0.49576392 0.06584075
0.48981815 -0.08392730 0.00000000
0.46379372 -0.74298654 0.00000000
0.14854514 0.29987883 0.00000000
0.71845124 0.45127257 0.18647828
-0.46278019 0.12227074 0.00000000
0.28925674 -0.30072505 0.00000000
-0.41055776 0.20065485 0.00000000
-0.01118396 0.41048997 0.00000000
-0.67321951 0.49203981 0.00000000
-0.02436360 -0.02020534 0.00000000
0.47848273 0.29258667 0.00000000
0.74689287 0.44313117 0.19671712
-0.63786188 0.74542277 0.00000000
-0.55342629 0.32325504 0.00000000
-0.64489402 0.57460857 0.00000000
-0.61527844 0.62408810 0.00000000
0.44999172 0.70297149 0.17802412
0.15702111 0.67697966 0.01714903
0.13339471 -0.00120328 0.00000000
0.18458851 0.00564153 0.00000000
0.03376453 0.64660379 0.00000000
0.14991611 0.67675849 0.01345391
0.14018370 -0.79421967 0.00000000
-0.27509770 -0.38569184 0.00000000
-0.36882284 0.20607889 0.00000000
-0.00556764 0.44480145 0.00000000
0.58073848 0.24183044 0.01138312
0.11551130 0.28888680 0.00000000
-0.47813019 -0.53719368 0.00000000
-0.59013239 0.43912311 0.00000000
-0.36473597 -0.06763503 0.00000000
0.37952733 0.53393089 0.05722514
-0.68112792 0.38587514 0.00000000
-0.60080522 0.25116028 0.00000000
0.03321324 0.19881858 0.00000000
-0.21920853 0.56894091 0.00000000
0.73370991 -0.62697363 0.00000000
0.32269350 0.69797073 0.11129656
0.65589474 0.56156018 0.21055212
-0.18269228 0.23514485 0.00000000
-0.39758273 -0.22346526 0.00000000
-0.48980459 0.51069476 0.00000000
-0.11895424 -0.30064062 0.00000000
0.01492634 -0.79564299 0.00000000
-0.64035411 0.56819921 0.00000000
-0.43349543 -0.36558860 0.00000000
0.09184790 -0.16753211 0.00000000
-0.32823068 -0.36644256 0.00000000
-0.21328443 0.70056725 0.00000000
0.19165306 -0.73898381 0.00000000
0.02032113 -0.46518465 0.00000000
-0.61410512 -0.00291165 0.00000000
-0.14451264 -0.29574448 0.00000000
0.17349341 -0.46889363 0.00000000
-0.18627430 0.58531930 0.00000000
-0.69210293 0.20394276 0.00000000
0.66884061 0.09368235 0.00000000
0.36985166 0.38797842 0.00000000
0.03575284 0.03400592 0.00000000
-0.12359394 -0.76745954 0.00000000
0.62913029 0.62005499 0.22655580
-0.17344013 -0.15929552 0.00000000
-0.34742287 -0.41928587 0.00000000
-0.21393948 -0.36445944 0.00000000
-0.28336683 -0.49144637 0.00000000
-0.25016424 0.07690202 0.00000000
-0.73942867 0.03603873 0.00000000
-0.03886355 0.77861173 0.00000000
-0.28832593 0.60195396 0.00000000
0.57801640 -0.64257522 0.00000000
-0.62410167 -0.63109644 0.00000000
-0.43906986 -0.00790236 0.00000000
-0.51832279 -0.73172046 0.00000000
-0.55980178 0.63465173 0.00000000
0.51179556 0.22425981 0.00000000
0.72208852 -0.03251207 0.00000000
-0.09804107 0.20728844 0.00000000
-0.31439740 -0.78211504 0.00000000
0.13996635 0.19596370 0.00000000
0.10848011 -0.73705187 0.00000000
0.08777894 -0.75786357 0.00000000
-0.07985864 -0.74033166 0.00000000
0.03530150 0.48589959 0.00000000
-0.75354771 -0.49514727 0.00000000
-0.26991964 0.21394309 0.00000000
0.52105130 -0.60310619 0.00000000
-0.05429091 -0.10793115 0.00000000
-0.13896497 -0.69198860 0.00000000
0.45466723 0.29394106 0.00000000
0.69781926 -0.63162440 0.00000000
-0.76103792 0.66420632 0.00000000
-0.43559094 -0.76276831 0.00000000
-0.13853186 0.54659999 0.00000000
-0.26479808 -0.68556740 0.00000000
0.18746565 0.60731543 0.00000000
-0.09688769 0.30245756 0.00000000
0.47935033 -0.71413326 0.00000000
-0.09307454 -0.65460666 0.00000000
-0.47587374 0.54808678 0.00000000
0.72025915 -0.50348728 0.00000000
0.64456040 0.42696272 0.13694864
-0.56213842 0.67542730 0.00000000
0.40711157 -0.09634641 0.00000000
0.41613777 0.36367649 0.00000000
0.70732560 -0.07022870 0.00000000
-0.08635449 -0.08641285 0.00000000
0.29641160 0.09439075 0.00000000
0.36721341 -0.54090587 0.00000000
0.52355261 -0.24622398 0.00000000
-0.62212406 0.14533234 0.00000000
0.44451439 0.53323877 0.08965370
-0.37101558 -0.20381280 0.00000000
0.40403528 -0.66981469 0.00000000
0.10670456 -0.68985570 0.00000000
-0.10353716 0.76138346 0.00000000
0.05496251 -0.48685385 0.00000000
0.40239083 0.59122799 0.09765590
0.08630284 -0.52257957 0.00000000
0.00516235 -0.62344201 0.00000000
0.64682979 0.69019822 0.27086083
-0.49204782 -0.01506202 0.00000000
-0.56231939 -0.25678453 0.00000000
-0.57176114 -0.46276234 0.00000000
-0.24753704 -0.58314934 0.00000000
0.13754039 0.30566383 0.00000000
-0.75493237 0.00887978 0.00000000
0.58814378 -0.17463115 0.00000000
0.14607478 -0.52153086 0.00000000
0.69798312 -0.03664900 0.00000000
-0.22283112 0.76634704 0.00000000
0.59036540 0.42018061 0.10619350
-0.62175381 -0.46699982 0.00000000
0.64864614 0.66992351 0.26155104
0.39593321 0.75390998 0.17645035
-0.03618801 0.06582559 0.00000000
-0.18577857 0.01118297 0.00000000
-0.39772596 0.38540468 0.00000000
-0.21697659 0.78735214 0.00000000
-0.27496284 -0.36664508 0.00000000
-0.01197383 -0.77984131 0.00000000
-0.70528780 -0.02692316 0.00000000
-0.58702320 0.16046297 0.00000000
0.14677721 -0.06010215 0.00000000
0.59886240 0.36820377 0.08426349
-0.56450419 0.46638673 0.00000000
0.24146409 -0.62593008 0.00000000
0.01818871 -0.60532404 0.00000000
0.51072725 -0.78733141 0.00000000
0.26439213 -0.12603205 0.00000000
-0.51393495 -0.51614509 0.00000000
0.17400087 -0.54083856 0.00000000
0.00288176 -0.36833867 0.00000000
-0.79086500 0.28578855 0.00000000
0.13741747 -0.45236214 0.00000000
-0.25392940 0.52434233 0.00000000
0.16772919 -0.41208189 0.00000000
-0.66671780 -0.65724298 0.00000000
0.31782083 0.37387465 0.00000000
-0.09494128 0.14565318 0.00000000
-0.06818751 -0.26468767 0.00000000
-0.28938919 0.79315136 0.00000000
-0.41598369 -0.28557060 0.00000000
-0.38781217 0.35360241 0.00000000
0.40659771 -0.53114866 0.00000000
0.26751476 0.39309161 0.00000000
0.66678839 -0.43132331 0.00000000
0.55178636 0.66234541 0.20887578
-0.09888560 -0.70641840 0.00000000
-0.34394740 -0.22033681 0.00000000
0.49537771 -0.47441359 0.00000000
0.12429765 -0.49267507 0.00000000
-0.60872739 0.08617596 0.00000000
0.67311453 0.05737640 0.00000000
-0.34029235 0.06811854 0.00000000
0.02318661 -0.67220044 0.00000000
0.04785929 -0.08222252 0.00000000
0.38411803 0.51584681 0.05041946
-0.54304749 -0.41860689 0.00000000
0.09619473 -0.67599374 0.00000000
-0.22209726 -0.37749691 0.00000000
-0.56635223 -0.24084941 0.00000000
0.67687815 -0.69832429 0.00000000
-0.55052119 -0.68688617 0.00000000
-0.22167597 -0.68566478 0.00000000
0.67455648 -0.74008507 0.00000000
0.12897016 0.42975982 0.00000000
0.25027855 -0.59809762 0.00000000
-0.39443353 -0.02100182 0.00000000
-0.57867655 -0.04939394 0.00000000
-0.13220663 0.76358820 0.00000000
0.26591137 -0.59417244 0.00000000
-0.44925199 0.56334227 0.00000000
-0.20081265 -0.37044707 0.00000000
0.28720321 -0.06272312 0.00000000
-0.56799576 -0.26285066 0.00000000
0.43313229 0.44841868 0.04113201
0.53871500 0.41345461 0.07675008
-0.01366402 0.09653044 0.00000000
0.51503875 -0.37961948 0.00000000
-0.23972877 0.70891498 0.00000000
-0.76419911 0.23606868 0.00000000
-0.60105465 -0.34765306 0.00000000
-0.41178507 -0.09007496 0.00000000
0.48159279 0.32113572 0.00137618
-0.20247607 0.20558615 0.00000000
-0.48143646 0.48689956 0.00000000
0.38844440 0.49684022 0.04301517
-0.32506950 -0.08195235 0.00000000
-0.59472351 0.22521719 0.00000000
-0.72898144 0.60944445 0.00000000
-0.21225276 0.00850143 0.00000000
0.61731077 0.53658684 0.17849581
0.46675979 0.14635921 0.00000000
0.07584792 0.62545885 0.00000000
-0.47225443 0.04439786 0.00000000
0.60396597 -0.19547201 0.00000000
-0.40847531 0.26475521 0.00000000
0.13553660 -0.60724282 0.00000000
0.03610417 0.51248797 0.00000000
0.24373410 0.07339168 0.00000000
0.20034958 0.33126513 0.00000000
0.28990713 -0.72157828 0.00000000
-0.16419367 0.66560350 0.00000000
0.38511753 0.31176947 0.00000000
-0.20948549 0.75135506 0.00000000
-0.31541359 0.10082919 0.00000000
-0.17680900 -0.59363654 0.00000000
0.70419885 -0.04144770 0.00000000
0.15823922 0.67697483 0.01776097
-0.03651579 0.48325863 0.00000000
-0.41756733 0.66930689 0.00000000
0.27848988 -0.36680836 0.00000000
0.35771381 0.52765896 0.04305963
0.01078435 -0.20831297 0.00000000
0.36768057 0.46927783 0.01864078
0.50765522 -0.38846719 0.00000000
-0.36588009 0.72286389 0.00000000
-0.23253825 0.48173580 0.00000000
0.27938678 0.70857796 0.09480390
0.66399720 -0.43007949 0.00000000
0.01442521 0.37382196 0.00000000
-0.75622729 -0.20703352 0.00000000
-0.73983973 0.35073307 0.00000000
0.01535262 -0.12113797 0.00000000
-0.00346254 0.21700587 0.00000000
0.51456658 0.40767579 0.06165561
-0.00811642 -0.65306107 0.00000000
0.66785914 0.36678545 0.11834815
-0.11496485 -0.01474552 0.00000000
-0.72908626 -0.43600561 0.00000000
-0.02768283 0.48759853 0.00000000
0.74974733 0.13705646 0.04378140
0.67026333 0.57570581 0.22493379
0.50478403 0.70388737 0.20612163
0.42739859 0.74158744 0.18610544
-0.52786276 -0.03687626 0.00000000
-0.16374054 -0.17810315 0.00000000
0.02370977 -0.57858597 0.00000000
-0.14344364 -0.17106504 0.00000000
-0.67691636 -0.33285206 0.00000000
-0.52037103 0.52298663 0.00000000
-0.39403311 0.07989641 0.00000000
-0.12873764 0.38792441 0.00000000
0.11193663 0.03408866 0.00000000
0.40111181 -0.20648392 0.00000000
-0.63280034 -0.42812263 0.00000000
-0.09467129 -0.49818056 0.00000000
0.01144616 0.21586820 0.00000000
0.59686330 0.12195673 0.00000000
-0.20234694 -0.44083471 0.00000000
0.42796634 0.22067561 0.00000000
-0.75204520 -0.50981156 0.00000000
0.78683416 -0.25814904 0.00000000
-0.02054489 0.03995651 0.00000000
0.28781479 0.46637498 0.00000000
-0.19282403 0.12416562 0.00000000
0.78561049 -0.74776681 0.00000000
0.60932982 0.38187361 0.09643765
-0.51294416 0.29185455 0.00000000
-0.40915143 0.30282335 0.00000000
0.31255539 0.66935880 0.09175229
-0.31616855 0.59862156 0.00000000
0.37861489 -0.59869766 0.00000000
-0.71377832 0.45917198 0.00000000
-0.12489686 0.21360214 0.00000000
-0.53315794 -0.67111791 0.00000000
-0.32545580 0.53325724 0.00000000
-0.32607121 0.07882547 0.00000000
0.48849523 0.35156652 0.02020602
0.04525953 0.30752713 0.00000000
-0.60004510 -0.79943613 0.00000000
-0.50346220 -0.63773188 0.00000000
0.33343614 0.38299344 0.00000000
0.75668194 -0.61365903 0.00000000
0.61218008 -0.40732566 0.00000000
-0.63090691 -0.18721228 0.00000000
-0.56224467 -0.22809103 0.00000000
-0.22416800 0.46435460 0.00000000
-0.36102025 0.15499720 0.00000000
-0.08282241 0.54290692 0.00000000
-0.23801245 -0.72273155 0.00000000
-0.03678050 -0.60759668 0.00000000
0.39318156 -0.31765230 0.00000000
-0.62497904 -0.16766128 0.00000000
-0.27881205 -0.58963604 0.00000000
-0.40195613 0.72161463 0.00000000
-0.33833155 -0.14430557 0.00000000
-0.63995577 -0.24626656 0.00000000
-0.78684375 0.10328034 0.00000000
-0.02029608 0.00129621 0.00000000
0.17145814 -0.68745465 0.00000000
-0.63078901 -0.30503687 0.00000000
0.08348815 0.14645752 0.00000000
-0.38710870 0.27127149 0.00000000
-0.35081164 0.64548754 0.00000000
0.02239923 0.27105734 0.00000000
-0.68238223 0.30594953 0.00000000
0.11276020 0.09076360 0.00000000
0.38618193 0.20005265 0.00000000
-0.69446481 0.33603406 0.00000000
-0.49454168 0.72327962 0.00000000
-0.18343774 -0.42892499 0.00000000
0.43468521 0.45204145 0.04374249
0.67395225 -0.39111835 0.00000000
0.62735104 0.09881059 0.00000000
-0.07361997 -0.11174456 0.00000000
0.17700892 -0.45871522 0.00000000
0.56682377 0.49525905 0.13218722
0.29695481 -0.72621329 0.00000000
0.44576829 -0.01422880 0.00000000
-0.62149689 -0.28998305 0.00000000
0.57155533 0.65396633 0.21462051
-0.02437598 0.21151841 0.00000000
0.38709163 -0.73754800 0.00000000
-0.00060814 -0.44580540 0.00000000
-0.09750969 -0.02833360 0.00000000
0.72749156 -0.72898499 0.00000000
-0.26456348 0.51072807 0.00000000
0.17811475 -0.48096693 0.00000000
-0.74016046 0.52620376 0.00000000
-0.59974426 -0.41192915 0.00000000
0.36547736 0.61261860 0.08982660
-0.79572034 0.14897316 0.00000000
-0.44155168 0.52645090 0.00000000
0.40865133 0.05485215 0.00000000
0.35450441 0.68994854 0.12329489
0.05635890 -0.69568566 0.00000000
-0.22389339 0.49189829 0.00000000
-0.21430587 0.72499025 0.00000000
-0.28167771 0.74127594 0.00000000
-0.11318262 0.72392186 0.00000000
-0.49000177 -0.28861573 0.00000000
0.35310555 -0.17163364 0.00000000
-0.65075584 0.66104896 0.00000000
-0.59275512 -0.38598614 0.00000000
0.59521289 -0.01132623 0.00000000
0.79772038 -0.44210329 0.00000000
0.44322455 -0.01360579 0.00000000
0.67181595 0.25711066 0.06502696
0.68196141 -0.60713392 0.00000000
-0.03223716 -0.77852250 0.00000000
-0.56961579 0.13761045 0.00000000
0.50675036 -0.57196556 0.00000000
0.39116633 0.21390255 0.00000000
0.43644614 0.46947668 0.05342450
-0.05793288 -0.33504110 0.00000000
0.27824858 0.22736291 0.00000000
0.15050499 -0.35842479 0.00000000
0.33394676 -0.32070286 0.00000000
-0.73127176 -0.26359368 0.00000000
-0.16936842 -0.03257895 0.00000000
-0.72392376 -0.57279148 0.00000000
0.31022000 -0.42567844 0.00000000
0.29859670 0.53391363 0.01639729
-0.55873948 0.08084691 0.00000000
-0.79754976 -0.01149571 0.00000000
-0.59114435 -0.58960011 0.00000000
0.00434108 0.37112384 0.00000000
-0.58530901 0.67411738 0.00000000
-0.55241814 0.79018016 0.00000000
-0.16434930 0.07255340 0.00000000
0.49765333 -0.75205131 0.00000000
-0.21402459 0.45808164 0.00000000
0.59718033 0.59686987 0.19874741
-0.48719779 -0.52173299 0.00000000
-0.04992154 -0.51910688 0.00000000
-0.07205967 -0.59558816 0.00000000
0.26352324 0.06586521 0.00000000
0.19137427 0.39331211 0.00000000
0.02591623 -0.64000379 0.00000000
0.47484537 -0.32822193 0.00000000
0.46477811 -0.79441789 0.00000000
-0.27961320 0.02480082 0.00000000
-0.40765803 -0.21696361 0.00000000
-0.71694687 0.68596922 0.00000000
-0.43373676 -0.29416090 0.00000000
-0.68931856 0.40021286 0.00000000
0.45745074 0.00022765 0.00000000
0.32861322 -0.78480520 0.00000000
-0.27470836 -0.40864708 0.00000000
-0.13298409 0.61231019 0.00000000
-0.09896524 -0.53609725 0.00000000
0.25968990 0.53963400 0.00000000
-0.47196621 -0.47818461 0.00000000
0.70351854 -0.32949040 0.00000000
0.55405232 0.07655324 0.00000000
-0.73953756 0.42303079 0.00000000
-0.77463546 0.34052814 0.00000000
0.52731510 0.32387779 0.02582026
0.33918935 -0.43231413 0.00000000
-0.49891708 -0.28825910 0.00000000
0.35366400 -0.60076713 0.00000000
-0.76235104 0.05814854 0.00000000
-0.10735185 0.00319319 0.00000000
-0.07945700 -0.78740476 0.00000000
0.25708278 0.12238358 0.00000000
-0.53997658 -0.57242397 0.00000000
-0.42163260 0.56821840 0.00000000
-0.11112255 0.74400162 0.00000000
-0.79810714 -0.77047517 0.00000000
0.45251705 0.29833184 0.00000000
0.60545674 0.35150517 0.07916718
-0.13167381 0.27334682 0.00000000
-0.62815687 0.63889823 0.00000000
0.08121063 0.52213395 0.00000000
0.55275292 -0.49525296 0.00000000
0.53245154 0.01500208 0.00000000
0.23529019 0.61670232 0.02622356
0.38093793 -0.42090526 0.00000000
-0.25328606 0.03894542 0.00000000
-0.35070769 0.65955503 0.00000000
0.38960473 -0.39999159 0.00000000
-0.33080600 0.47931838 0.00000000
-0.47467101 0.23205938 0.00000000
0.74112938 -0.49063765 0.00000000
0.34728070 0.11792412 0.00000000
0.40912216 0.29744871 0.00000000
0.18043927 -0.76243944 0.00000000
0.61527888 -0.69838925 0.00000000
-0.33171920 0.28357123 0.00000000
-0.30507727 0.32704357 0.00000000
-0.63280930 0.67271843 0.00000000
-0.25255152 -0.60336563 0.00000000
-0.01563778 0.38534407 0.00000000
0.36252758 -0.73708633 0.00000000
0.40022286 -0.18487684 0.00000000
-0.11243122 0.18474994 0.00000000
-0.70568462 0.45929344 0.00000000
-0.23488130 0.27710212 0.00000000
-0.11313526 -0.66631893 0.00000000
-0.20015642 -0.31117667 0.00000000
0.22920056 -0.49740274 0.00000000
-0.03913277 0.79577927 0.00000000
0.49315979 0.05670278 0.00000000
0.58811283 0.70899763 0.25072759
-0.38934743 0.41494516 0.00000000
-0.75008415 -0.31697512 0.00000000
0.64253315 -0.43081906 0.00000000
0.43398613 0.18429996 0.00000000
-0.02809577 -0.70599714 0.00000000
0.45764186 -0.65146820 0.00000000
0.31968270 0.35542398 0.00000000
0.37134571 -0.27042615 0.00000000
-0.41344058 -0.46415634 0.00000000
0.21317556 0.54531109 0.00000000
0.64773934 0.31302377 0.08108440
-0.33140585 0.67755542 0.00000000
-0.32447665 -0.19237204 0.00000000
0.56996123 0.20761054 0.00000000
0.17310438 -0.54368488 0.00000000
0.70772431 0.49190089 0.20155953
-0.14088897 0.21380458 0.00000000
0.66884711 -0.02154660 0.00000000
0.71855757 0.52027163 0.22133276
0.08746141 -0.75509044 0.00000000
-0.60655109 0.24323653 0.00000000
-0.38796265 0.37646523 0.00000000
-0.45145833 0.50745554 0.00000000
-0.11953223 -0.59523767 0.00000000
-0.25016377 -0.66561935 0.00000000
-0.01108137 -0.76500406 0.00000000
0.68513074 0.14843767 0.01693096
-0.16364394 0.33732970 0.00000000
-0.30386103 -0.24306872 0.00000000
-0.38150769 0.29541252 0.00000000
0.38249734 -0.58548866 0.00000000
0.75496006 -0.57304169 0.00000000
-0.44194390 -0.26063616 0.00000000
-0.13049319 0.00811798 0.00000000
0.69966124 0.16056779 0.03037783
-0.65709340 0.77445311 0.00000000
-0.61055950 0.02656479 0.00000000
-0.73225917 0.20479916 0.00000000
0.19589932 0.52702127 0.00000000
0.12649907 0.07395685 0.00000000
-0.46601093 -0.30906019 0.00000000
-0.55029245 -0.10649667 0.00000000
0.60192766 0.18976684 0.00000000
0.73623326 0.48926800 0.21461063
-0.49006649 -0.67712775 0.00000000
0.05906732 0.61493334 0.00000000
-0.47275680 0.53628525 0.00000000
0.41151005 0.64103671 0.12737728
0.69163668 0.51458981 0.20488896
0.18739147 0.71113934 0.04969615
0.34877918 0.18645063 0.00000000
-0.65897405 0.15506890 0.00000000
0.22113208 0.07639802 0.00000000
0.33593402 0.44144307 0.00000000
0.00845800 0.47595485 0.00000000
-0.38713983 0.01602554 0.00000000
-0.07786097 0.46521934 0.00000000
-0.76261368 -0.49479496 0.00000000
-0.67977402 0.00022531 0.00000000
-0.05884470 0.15483635 0.00000000
0.31041878 0.08369884 0.00000000
0.05763402 0.61003085 0.00000000
0.35594514 0.11801846 0.00000000
0.47543976 -0.21180568 0.00000000
-0.17919269 0.09442076 0.00000000
0.43712072 0.72057881 0.18041293
-0.24912668 -0.69631375 0.00000000
0.29953084 -0.41165211 0.00000000
0.50971845 -0.60902488 0.00000000
0.16724835 -0.79889053 0.00000000
-0.64490260 -0.32677718 0.00000000
-0.52690780 -0.03848179 0.00000000
0.06208522 0.39724521 0.00000000
-0.75803223 -0.69474642 0.00000000
-0.67716149 0.43644332 0.00000000
0.21852174 -0.66451643 0.00000000
0.00170385 0.28721742 0.00000000
-0.35339565 0.74963831 0.00000000
0.64314952 -0.74088203 0.00000000
-0.30282357 -0.58951078 0.00000000
-0.65940621 -0.09671824 0.00000000
-0.58591439 0.23360285 0.00000000
0.21635021 0.25263355 0.00000000
0.20039124 0.28592520 0.00000000
0.60623729 0.45431656 0.13141605
-0.76045768 0.78420600 0.00000000
-0.03268997 0.41836615 0.00000000
-0.45271394 -0.47131510 0.00000000
-0.07869806 -0.24202443 0.00000000
-0.01255499 0.14349173 0.00000000
-0.66915404 0.74795142 0.00000000
0.74293033 0.11450526 0.02896889
0.73801791 0.13938958 0.03904216
-0.11353708 0.55804768 0.00000000
-0.75116739 0.18061257 0.00000000
-0.63480669 0.68787919 0.00000000
0.04013211 -0.24260042 0.00000000
0.03689244 0.33176335 0.00000000
-0.12056473 -0.21807091 0.00000000
0.74802967 0.44240669 0.19692509
0.39603747 -0.56290172 0.00000000
-0.59754798 -0.43392092 0.00000000
-0.34504285 0.24799776 0.00000000
-0.09746257 0.48000488 0.00000000
-0.08563105 0.70558598 0.00000000
0.16663052 -0.63231268 0.00000000
0.58952938 0.02254282 0.00000000
-0.02737685 -0.14129352 0.00000000
-0.46285708 0.24506228 0.00000000
0.08163724 -0.01158403 0.00000000
0.55248088 0.48076605 0.11764320
-0.22963485 0.03655509 0.00000000
-0.35546394 0.34316755 0.00000000
-0.73027304 0.14604066 0.00000000
0.54244984 0.43154616 0.08775870
0.25162479 0.25066322 0.00000000
-0.75996533 0.46136513 0.00000000
0.04090335 0.36528256 0.00000000
-0.02055583 0.43142311 0.00000000
0.70962943 -0.10869956 0.00000000
0.07918953 -0.61055275 0.00000000
-0.66591340 0.28705885 0.00000000
-0.09378146 -0.04929698 0.00000000
0.52146039 -0.33643085 0.00000000
-0.13288003 0.06331759 0.00000000
-0.73632211 -0.05965818 0.00000000
0.49223132 0.52954208 0.11185628
0.52427154 -0.39915092 0.00000000
0.55233593 0.43129819 0.09261990
-0.31825209 -0.41642218 0.00000000
0.57151191 -0.14880145 0.00000000
-0.03794327 0.07351666 0.00000000
-0.09479924 0.62035386 0.00000000
0.51012378 0.68093207 0.19723694
-0.06516279 -0.70774939 0.00000000
-0.38969362 -0.30199469 0.00000000
0.22185745 -0.01826790 0.00000000
-0.13745144 -0.30548893 0.00000000
0.51311549 0.29558214 0.00438684
-0.79636040 0.04357355 0.00000000
0.11748652 0.35861090 0.00000000
0.27975762 -0.70093074 0.00000000
-0.41456861 0.67963729 0.00000000
-0.49974066 -0.15652695 0.00000000
-0.53553379 0.62587763 0.00000000
-0.70581016 -0.64273096 0.00000000
-0.57889791 0.79033084 0.00000000
-0.70088831 -0.77386606 0.00000000
-0.32356281 0.33248046 0.00000000
-0.02197951 -0.78532227 0.00000000
0.65615634 -0.10136552 0.00000000
0.35915949 -0.28889756 0.00000000
-0.25347983 0.39491139 0.00000000
0.05495345 -0.14399942 0.00000000
-0.55158122 0.03445706 0.00000000
0.75486336 -0.30570273 0.00000000
-0.43798742 -0.78486929 0.00000000
-0.77944820 -0.39928067 0.00000000
-0.24873861 -0.21051210 0.00000000
-0.66280430 -0.34040434 0.00000000
0.48159012 0.60952349 0.14682930
-0.41117239 -0.65660650 0.00000000
-0.60377029 -0.79775283 0.00000000
-0.66222264 0.54660742 0.00000000
-0.00993107 -0.27940697 0.00000000
-0.46580688 -0.38361352 0.00000000
-0.66237495 -0.63248669 0.00000000
0.28569869 0.54359692 0.01477588
0.44056877 0.18310388 0.00000000
0.05453464 0.24840772 0.00000000
0.69816157 -0.48981931 0.00000000
0.77282142 -0.52246476 0.00000000
-0.47986030 0.38932425 0.00000000
-0.33661155 0.60897515 0.00000000
0.50745433 -0.14769702 0.00000000
-0.12463256 0.01759509 0.00000000
-0.58052664 -0.40171098 0.00000000
0.12061235 -0.18429227 0.00000000
0.49971106 0.13105690 0.00000000
0.52395492 -0.41047253 0.00000000
-0.76658381 -0.14448896 0.00000000
-0.54931584 0.79922359 0.00000000
-0.06671366 0.28321525 0.00000000
0.32140403 -0.08363325 0.00000000
0.26819077 -0.52302517 0.00000000
0.79652463 -0.58476050 0.00000000
0.73710837 -0.61675859 0.00000000
-0.42518947 -0.43917321 0.00000000
-0.47666968 0.79209606 0.00000000
-0.58830787 0.17962176 0.00000000
0.12614526 0.48841839 0.00000000
-0.54264828 -0.35586621 0.00000000
-0.16102070 -0.52452317 0.00000000
-0.02881625 -0.39345404 0.00000000
-0.54354657 -0.11477875 0.00000000
-0.26773243 -0.04555813 0.00000000
-0.73814331 0.08952276 0.00000000
0.77484086 -0.12630963 0.00000000
-0.69046810 0.02258853 0.00000000
0.34856954 0.02704606 0.00000000
-0.56415539 -0.70813908 0.00000000
0.69750021 -0.25729520 0.00000000
-0.19101860 -0.05968574 0.00000000
-0.16795082 -0.78295056 0.00000000
0.78074091 -0.17340407 0.00000000
-0.20755479 -0.70522114 0.00000000
-0.26228364 0.69753389 0.00000000
0.68077932 0.46039716 0.17207985
-0.77552138 0.16946116 0.00000000
-0.19090690 0.11269213 0.00000000
0.74313273 0.12341735 0.03356599
-0.41745253 0.32441927 0.00000000
-0.68012247 0.45095632 0.00000000
0.53885716 0.70385363 0.22329006
0.50045253 -0.07668079 0.00000000
-0.14793582 -0.71060089 0.00000000
0.74557185 0.12035182 0.03325004
0.51757031 0.00506602 0.00000000
0.09976730 -0.42394918 0.00000000
-0.63747909 0.22128426 0.00000000
-0.51638240 -0.24260368 0.00000000
-0.66710364 0.15241998 0.00000000
0.41927414 -0.69688396 0.00000000
-0.41326184 0.25516184 0.00000000
0.68726305 0.15727866 0.02246558
0.67422910 0.14382063 0.00910377
0.22127035 -0.57745798 0.00000000
0.70184057 0.38098601 0.14264979
-0.65026724 0.49264724 0.00000000
0.66894816 -0.50468270 0.00000000
-0.36751355 0.63890192 0.00000000
0.02025610 0.56648313 0.00000000
0.30720295 0.51468446 0.01103939
0.26202229 0.31684995 0.00000000
-0.56079895 -0.30995447 0.00000000
0.21105152 0.65598979 0.03381375
0.58355358 0.21002091 0.00000000
0.24244052 0.57913143 0.01088028
-0.77760548 -0.61533488 0.00000000
-0.20134512 0.06177366 0.00000000
-0.26641505 -0.79682039 0.00000000
0.19450076 0.42341078 0.00000000
-0.77129578 0.65922467 0.00000000
0.65237675 0.00507182 0.00000000
-0.21721523 -0.42169207 0.00000000
0.75875803 0.22944752 0.09492560
0.47465937 0.17331233 0.00000000
-0.22315339 -0.70969156 0.00000000
0.18471153 0.28350439 0.00000000
-0.70402655 0.79925844 0.00000000
0.08398617 -0.09962677 0.00000000
-0.76213493 0.31248766 0.00000000
-0.17264534 -0.59327095 0.00000000
0.79183906 -0.07266601 0.00000000
-0.48321114 -0.46697843 0.00000000
-0.46919386 0.70184739 0.00000000
-0.17486673 0.09004694 0.00000000
-0.55975930 0.04952204 0.00000000
-0.19528258 0.11210758 0.00000000
0.27258594 0.56393702 0.01842115
0.57999983 -0.34531514 0.00000000
0.11701522 0.77965588 0.04875800
0.63199863 -0.46474304 0.00000000
-0.02265581 0.60505172 0.00000000
0.13465479 0.47558250 0.00000000
0.71709108 0.33113942 0.12520050
-0.69497115 -0.02965849 0.00000000
-0.52044717 0.19353459 0.00000000
0.37044523 -0.25120754 0.00000000
0.62722431 0.71655805 0.27426744
0.44808910 -0.59280062 0.00000000
0.74447924 -0.27346758 0.00000000
-0.65543910 0.12255070 0.00000000
-0.10375516 -0.12048845 0.00000000
0.71506288 -0.00777799 0.00000000
0.11989666 0.73648560 0.02843763
0.64641703 0.07366006 0.00000000
0.27732727 -0.13696421 0.00000000
0.56530387 -0.08245504 0.00000000
-0.74447883 0.03654547 0.00000000
0.11376347 0.65815212 0.00000000
0.13614761 0.57080110 0.00000000
0.15937693 -0.00916261 0.00000000
0.59074024 0.44292729 0.11785534
-0.71613386 -0.33514034 0.00000000
-0.56299033 0.59807278 0.00000000
-0.22719876 -0.20657375 0.00000000
-0.01533217 0.24214403 0.00000000
0.06820187 -0.47700784 0.00000000
0.00818184 -0.51542937 0.00000000
0.54039584 -0.22772324 0.00000000
-0.52645962 -0.51538008 0.00000000
-0.33276072 0.26707048 0.00000000
0.55156839 0.08455646 0.00000000
0.69016983 -0.48052618 0.00000000
0.57658217 -0.21222626 0.00000000
0.04256808 -0.34789645 0.00000000
0.63493506 0.37323367 0.10499446
-0.24448783 0.56770815 0.00000000
-0.66610723 -0.04497665 0.00000000
0.25600012 -0.69910177 0.00000000
-0.41898951 -0.43294480 0.00000000
0.38580490 0.00595230 0.00000000
0.07910312 -0.29302426 0.00000000
-0.58700552 -0.25181725 0.00000000
-0.74946137 -0.33923469 0.00000000
-0.61536007 0.13770826 0.00000000
-0.53083821 0.30614118 0.00000000
0.34335583 -0.15657611 0.00000000
0.66305625 0.28789214 0.07613413
0.07723559 -0.15712022 0.00000000
-0.66212360 0.73775766 0.00000000
0.02828607 -0.78244402 0.00000000
-0.51444036 -0.58182533 0.00000000
0.66942876 0.09058397 0.00000000
-0.00706156 0.69351679 0.00000000
0.38041187 0.21064121 0.00000000
0.37794036 0.58949511 0.08444975
0.31295284 -0.05619117 0.00000000
-0.12122341 0.67403274 0.00000000
0.07946190 0.60907136 0.00000000
0.61433235 0.37386677 0.09492235
-0.35522983 0.53310810 0.00000000
0.28349539 -0.15338178 0.00000000
0.32731296 0.37094321 0.00000000
-0.11251213 0.57062348 0.00000000
0.57903551 0.25840274 0.01888280
0.20291375 0.55158505 0.00000000
0.79558371 -0.02425490 0.00000000
0.60283803 -0.37455960 0.00000000
0.31876909 0.07106298 0.00000000
0.78280241 -0.09044809 0.00000000
-0.08924940 0.53433651 0.00000000
0.29057465 0.22747233 0.00000000
-0.53627081 -0.47240398 0.00000000
0.66372538 -0.25920521 0.00000000
0.11204747 0.65343678 0.00000000
0.71960424 0.14102412 0.03057924
-0.27872420 0.73234760 0.00000000
0.41112068 0.59841664 0.10568474
-0.74352125 -0.70494344 0.00000000
0.53976275 -0.26418972 0.00000000
-0.43383539 0.44987962 0.00000000
-0.76958118 -0.41808536 0.00000000
0.67559319 -0.34963850 0.00000000
-0.01740135 0.68862603 0.00000000
0.08249775 -0.75653946 0.00000000
0.60594491 -0.37159237 0.00000000
0.75260943 0.04433236 0.00000000
0.64492506 0.15907716 0.00201860
-0.02488881 0.65832096 0.00000000
0.69931042 -0.51685078 0.00000000
-0.47614198 -0.45379175 0.00000000
0.51042267 -0.34575013 0.00000000
0.71369582 0.49244084 0.20484371
0.05330743 -0.20490115 0.00000000
-0.13199810 0.15303384 0.00000000
0.71683845 -0.42831751 0.00000000
0.45027923 0.18088826 0.00000000
-0.46309303 0.33304317 0.00000000
-0.64746726 0.79634900 0.00000000
0.75005480 -0.64396563 0.00000000
-0.07532096 -0.52478119 0.00000000
-0.78536842 -0.04779860 0.00000000
0.14980217 -0.59403992 0.00000000
-0.27372940 0.71237794 0.00000000
-0.22458125 -0.01156185 0.00000000
-0.21543558 0.53907618 0.00000000
-0.70595691 0.71910048 0.00000000
0.50725004 0.35842359 0.03312393
-0.28678798 0.19896723 0.00000000
0.46102705 0.69037930 0.17723892
0.54703425 -0.74599823 0.00000000
0.41518679 -0.56967730 0.00000000
0.53035252 -0.72512089 0.00000000
-0.20350062 0.49434749 0.00000000
-0.45644349 -0.21132265 0.00000000
-0.36194977 -0.36517484 0.00000000
0.54953107 -0.17411589 0.00000000
-0.18199402 0.36555820 0.00000000
-0.61587112 0.07976170 0.00000000
-0.18191018 -0.59500367 0.00000000
0.09256025 -0.37195040 0.00000000
-0.35894740 -0.04716963 0.00000000
0.10075077 -0.53618263 0.00000000
0.25601701 0.69341449 0.07536895
-0.13913872 0.66732117 0.00000000
0.04079613 -0.37881483 0.00000000
-0.07788721 -0.17767032 0.00000000
0.65867077 0.60229415 0.23249714
-0.71711626 -0.13508204 0.00000000
0.72264631 0.53554657 0.23109917
-0.67197837 0.55205416 0.00000000
0.44401067 -0.71515866 0.00000000
0.65304834 -0.09800569 0.00000000
0.59527344 -0.45195267 0.00000000
0.17922571 0.24489763 0.00000000
0.13324517 -0.33627263 0.00000000
0.42533577 -0.24851314 0.00000000
0.43488127 0.69962145 0.16871322
-0.60403497 0.00786697 0.00000000
0.36740789 0.17928447 0.00000000
-0.35937668 0.10487293 0.00000000
0.32462843 -0.06238657 0.00000000
-0.48477818 0.39743286 0.00000000
0.13411178 0.12158779 0.00000000
-0.74162665 0.39820447 0.00000000
-0.32848515 -0.59851790 0.00000000
-0.24200591 0.21471887 0.00000000
-0.39947368 -0.27164307 0.00000000
0.45764227 -0.57099773 0.00000000
-0.11542480 -0.55967841 0.00000000
0.06803161 0.04784806 0.00000000
-0.73564895 0.50003220 0.00000000
0.73215035 0.33971405 0.13712077
0.56196971 0.66090821 0.21328707
0.32465199 0.66818053 0.09725917
0.56767492 0.55466775 0.16258042
-0.68506433 -0.09300340 0.00000000
0.51632229 -0.28721055 0.00000000
-0.54366295 0.41257764 0.00000000
-0.61937998 -0.10520497 0.00000000
-0.25063128 -0.26957464 0.00000000
0.25906869 0.60725650 0.03345256
-0.18702972 -0.12203159 0.00000000
-0.37389242 -0.67580302 0.00000000
-0.01924202 0.44403623 0.00000000
-0.49884600 -0.59087486 0.00000000
0.22737123 0.64845454 0.03824439
0.22341509 0.05838333 0.00000000
-0.58570336 -0.44102587 0.00000000
0.73334863 0.21267714 0.07365130
-0.39152015 -0.16938510 0.00000000
-0.65117323 -0.73279685 0.00000000
0.30634024 -0.35433779 0.00000000
0.66320160 0.18414213 0.02387884
-0.04933144 -0.62543486 0.00000000
-0.18955161 0.34134567 0.00000000
-0.54865474 0.31119175 0.00000000
-0.63960594 0.75843020 0.00000000
0.16805969 -0.32231959 0.00000000
-0.75326181 0.33496704 0.00000000
-0.03984203 -0.34068082 0.00000000
0.68571636 -0.14751535 0.00000000
-0.19212694 -0.38312307 0.00000000
-0.67752247 -0.60221498 0.00000000
-0.79717552 -0.18284692 0.00000000
-0.73297466 -0.01634673 0.00000000
-0.16746456 -0.67918419 0.00000000
0.70956156 -0.13640526 0.00000000
-0.78786704 0.78905237 0.00000000
-0.37362340 -0.29998957 0.00000000
0.54332023 -0.12593964 0.00000000
0.41368050 -0.42688853 0.00000000
-0.31039937 0.54884902 0.00000000
-0.68639835 -0.58686655 0.00000000
0.31405960 0.31461698 0.00000000
-0.71009793 0.53125185 0.00000000
-0.37356189 0.26547754 0.00000000
0.11454047 -0.16320661 0.00000000
-0.36727805 0.48298162 0.00000000
-0.50508150 0.61308077 0.00000000
-0.73610424 0.59303109 0.00000000
-0.55354219 0.64100486 0.00000000
0.35872847 -0.74728165 0.00000000
0.35559757 0.17527097 0.00000000
-0.51056688 -0.79868688 0.00000000
0.60407612 0.47683273 0.14168254
0.03456392 0.78308901 0.00890363
0.71014707 -0.18306461 0.00000000
-0.12566682 0.59339266 0.00000000
0.11786393 0.46499076 0.00000000
-0.06616090 -0.16160873 0.00000000
-0.73169788 0.34609835 0.00000000
0.46439449 -0.57833383 0.00000000
-0.47470936 0.03099106 0.00000000
-0.78761968 -0.17106039 0.00000000
0.31746266 -0.71311415 0.00000000
0.72900379 -0.15304615 0.00000000
0.63407530 0.73024056 0.28462388
0.55860384 -0.74240760 0.00000000
0.33097530 -0.73590674 0.00000000
0.24240553 -0.49208140 0.00000000
-0.65942436 0.18525824 0.00000000
0.67783345 -0.21362322 0.00000000
0.28916939 0.47591351 0.00000000
0.45889830 -0.59349352 0.00000000
0.65321942 0.33617294 0.09552419
-0.66916753 0.51143921 0.00000000
-0.53418024 0.74049095 0.00000000
-0.73949508 0.27104484 0.00000000
0.67924902 -0.11581713 0.00000000
0.67469163 -0.32980386 0.00000000
-0.59399963 0.18338633 0.00000000
0.66789901 -0.50722617 0.00000000
-0.42080611 0.41456712 0.00000000
-0.17156910 -0.75285577 0.00000000
-0.78115490 -0.16080339 0.00000000
0.31080305 0.11361634 0.00000000
-0.01718441 -0.64278760 0.00000000
-0.29279364 -0.66629796 0.00000000
-0.76171002 0.51249034 0.00000000
0.37347091 -0.58567390 0.00000000
0.64172555 0.36015748 0.10182414
-0.71271364 0.20817602 0.00000000
0.29218601 -0.30604853 0.00000000
0.08770947 -0.38649689 0.00000000
0.10176117 -0.71250474 0.00000000
-0.12879791 -0.72235429 0.00000000
-0.66840246 0.56329191 0.00000000
0.37300559 -0.16386676 0.00000000
-0.19232156 0.69528710 0.00000000
-0.71993422 0.59979763 0.00000000
-0.34627443 0.79358689 0.00000000
-0.66670838 0.61976179 0.00000000
-0.41985402 -0.40132118 0.00000000
0.62222212 -0.72109101 0.00000000
-0.79861267 -0.27713627 0.00000000
-0.13791218 0.09428128 0.00000000
-0.06679753 -0.79464186 0.00000000
0.74110644 0.49786577 0.22140495
0.41168769 -0.62535264 0.00000000
0.11056134 -0.30771608 0.00000000
0.08160604 0.50204917 0.00000000
-0.33798894 -0.50927340 0.00000000
0.50555922 -0.46085069 0.00000000
0.33719554 -0.74741049 0.00000000
-0.60135220 -0.19361580 0.00000000
0.50666993 -0.17382952 0.00000000
-0.75872225 0.68095440 0.00000000
-0.78572681 -0.18565968 0.00000000
0.57851756 -0.72189725 0.00000000
-0.38550824 0.63704110 0.00000000
0.61180458 -0.67748546 0.00000000
-0.13452894 0.23872280 0.00000000
0.34695177 -0.37002753 0.00000000
0.10632368 -0.61173643 0.00000000
-0.60005021 0.75663730 0.00000000
-0.71303907 -0.56264080 0.00000000
0.36993769 -0.30395926 0.00000000
-0.22441583 0.52967359 0.00000000
0.68720818 0.16574672 0.02670896
0.50421698 0.47362011 0.08969604
-0.49290388 -0.60384975 0.00000000
-0.78140364 0.12403733 0.00000000
-0.28404241 0.30754806 0.00000000
0.02461476 -0.73280821 0.00000000
0.35723447 0.24616626 0.00000000
0.63071492 0.14942419 0.00000000
-0.12689516 -0.36866948 0.00000000
-0.44918161 -0.67244560 0.00000000
-0.20248086 0.16868304 0.00000000
0.65942571 -0.18918329 0.00000000
0.03528969 0.28735720 0.00000000
-0.10639161 -0.11321430 0.00000000
-0.20421936 0.74665230 0.00000000
0.26806848 0.73547569 0.10266163
-0.36077995 -0.48623009 0.00000000
-0.20657214 -0.53777080 0.00000000
-0.47508213 -0.60303976 0.00000000
0.36407226 -0.28053371 0.00000000
0.75547150 0.34197720 0.15002478
-0.49641469 0.27313534 0.00000000
0.53824020 -0.24851168 0.00000000
-0.06704374 -0.05608309 0.00000000
-0.39784953 0.43264772 0.00000000
-0.64653921 -0.10001583 0.00000000
0.18468153 -0.00020023 0.00000000
-0.41265139 0.36879302 0.00000000
-0.69440384 -0.12918457 0.00000000
-0.15860694 0.68621186 0.00000000
0.76810077 0.21964409 0.09469324
-0.23299026 -0.65231860 0.00000000
0.09547915 -0.24042434 0.00000000
-0.35724698 -0.66132373 0.00000000
0.17814837 0.39246218 0.00000000
-0.05387014 -0.38855996 0.00000000
0.53088165 0.36835560 0.05005248
-0.09818806 0.72079816 0.00000000
-0.09058237 0.68946812 0.00000000
0.38066512 -0.28260202 0.00000000
0.05990002 -0.40464894 0.00000000
-0.40075018 0.13970708 0.00000000
-0.61270823 -0.29812630 0.00000000
-0.00212115 -0.58184508 0.00000000
-0.09969669 0.72273823 0.00000000
0.30568619 0.68738902 0.09738152
0.69512577 -0.31358451 0.00000000
-0.77114399 -0.14569952 0.00000000
-0.27776620 0.07572471 0.00000000
0.08214108 0.39289508 0.00000000
-0.07297564 -0.40875446 0.00000000
-0.00694336 -0.69679694 0.00000000
-0.33000401 -0.52811805 0.00000000
0.26084392 -0.41105020 0.00000000
-0.34996122 -0.51672899 0.00000000
0.20247284 -0.54396734 0.00000000
-0.60673452 0.30867661 0.00000000
0.78934635 -0.32846324 0.00000000
-0.65443452 -0.03343921 0.00000000
0.71014948 -0.40993481 0.00000000
-0.35345761 -0.74459160 0.00000000
0.62872962 0.66325251 0.24814113
-0.14833475 0.71186046 0.00000000
0.66271190 -0.66238495 0.00000000
0.05508337 -0.10111140 0.00000000
0.31287925 0.23685823 0.00000000
0.41606112 -0.63752071 0.00000000
0.34939811 0.04160651 0.00000000
0.35842267 0.38391439 0.00000000
0.04985323 0.33748654 0.00000000
-0.49944653 0.69160042 0.00000000
0.37401839 0.18198420 0.00000000
-0.55801233 -0.02352107 0.00000000
0.05239622 -0.26815039 0.00000000
-0.56673722 0.64517556 0.00000000
0.32602300 -0.42657335 0.00000000
0.58946968 0.26222817 0.02607494
0.05326829 0.27376187 0.00000000
-0.73913207 0.16859329 0.00000000
0.32594737 0.25499102 0.00000000
-0.78784849 -0.23913553 0.00000000
-0.62093586 0.17779657 0.00000000
-0.16812429 -0.45870689 0.00000000
-0.38774640 -0.56886799 0.00000000
0.04405309 -0.34315390 0.00000000
-0.74178364 0.14445807 0.00000000
-0.74922645 -0.39176537 0.00000000
-0.76279787 0.78260796 0.00000000
0.66314851 0.16850108 0.01596316
-0.79148055 0.68199129 0.00000000
0.62881292 0.16456517 0.00000000
-0.70974536 0.00512385 0.00000000
-0.17580507 -0.19729593 0.00000000
0.47089750 0.24753304 0.00000000
-0.64025517 -0.71894986 0.00000000
-0.11398765 -0.15885015 0.00000000
0.06558106 -0.07437744 0.00000000
-0.30320968 0.69859579 0.00000000
-0.78123301 -0.45499894 0.00000000
-0.14827936 0.14165009 0.00000000
-0.07084829 0.01285447 0.00000000
-0.72714215 0.79569549 0.00000000
0.64531245 -0.11590753 0.00000000
0.08353970 -0.24275754 0.00000000
0.03820427 -0.27869995 0.00000000
-0.35148287 -0.15068896 0.00000000
-0.32055837 -0.08916868 0.00000000
0.27111958 0.77220410 0.12272511
0.26589583 -0.07093634 0.00000000
-0.74072818 -0.77533089 0.00000000
-0.42982309 -0.20659121 0.00000000
-0.43413963 -0.20624891 0.00000000
0.60656474 0.36419388 0.08612585
0.50485262 -0.06564954 0.00000000
0.22881508 0.34066861 0.00000000
-0.06787287 -0.11867252 0.00000000
-0.65863755 0.75659277 0.00000000
0.50742652 0.53221036 0.12086612
0.03710243 0.44880838 0.00000000
0.41522617 -0.44891333 0.00000000
0.65865995 -0.70382451 0.00000000
-0.10829180 -0.26359108 0.00000000
-0.25366536 0.31669707 0.00000000
0.35129006 0.05000800 0.00000000
-0.35239799 -0.02737466 0.00000000
-0.33909213 0.39272342 0.00000000
0.04574232 -0.57726387 0.00000000
