ply
format ascii 1.0
element vertex 1384
property float x
property float y
property float z
end_header
-0.29152735 -0.29358776 0.00000234
-0.46856166 0.08865814 0.26742760
-0.56156020 -0.37878775 0.11270227
-0.05040737 0.24459224 0.00000392
-0.52545299 -0.34796538 0.07681339
-0.52046308 -0.22100939 0.15000112
-0.02175907 0.75173008 0.00272445
-0.39934832 0.09299162 0.16375676
-0.26722208 -0.57756766 0.00000124
-0.51358470 -0.32858774 0.00000128
-0.36388788 -0.60884513 0.00000127
-0.61788524 0.00983971 -0.00000006
-0.17079885 0.52459202 0.08722702
-0.20249921 0.34821309 0.02363223
-0.58665318 -0.51837388 0.00000062
-0.20940975 0.49132197 0.12540673
-0.25075892 0.40010630 0.00000359
-0.56627380 -0.31078644 0.16326133
-0.55417764 0.14063587 0.00000053
-0.40631046 -0.40981812 0.00000208
-0.13934597 -0.49795835 0.00000113
-0.05194060 0.60189667 0.00000670
-0.00189416 0.79747271 0.00000598
-0.16003973 0.15041030 -0.00000427
-0.20702774 0.26882892 0.00000686
-0.46495677 0.00721329 0.21000616
-0.27814239 0.35616927 0.00000474
-0.55616360 -0.27280010 0.17190957
-0.06632384 -0.24333278 0.00000209
-0.09002309 0.42039543 0.00000749
-0.11464834 0.37861789 0.00000743
-0.70454119 -0.52868767 -0.00000063
-0.27629759 -0.50030873 0.00000154
-0.67612298 -0.52062428 -0.00000033
-0.57059294 -0.26180936 0.20109701
-0.21611346 -0.60219726 0.00000107
-0.54165541 0.08630656 0.00000070
-0.51809388 -0.04398344 0.25910531
-0.63745814 0.03541993 -0.00000029
-0.48716302 -0.66941297 0.00000122
-0.22316575 0.44260122 0.11552618
-0.38247343 -0.17694118 0.00000291
-0.23257301 -0.67579591 0.00000082
-0.01571931 0.04902751 0.00001140
-0.17974400 -0.08629963 0.00000268
-0.38429251 0.32831503 0.00000222
-0.37583169 0.08882517 0.12494123
-0.35143500 -0.23863064 0.00000264
-0.02805944 0.48497470 0.00000486
-0.39723413 0.23106786 0.00000214
-0.34931663 -0.00747188 0.00000281
-0.33597600 -0.34162254 0.00000172
-0.28675952 0.20991532 0.06511068
-0.03464539 0.39476687 0.00000448
-0.63263932 0.12664648 -0.00000030
-0.41189484 -0.09084117 0.06596777
-0.39756891 -0.50564373 0.00000170
-0.34898498 0.19118268 0.14885627
-0.00919391 0.33628765 -0.00000418
-0.16723856 0.00688829 0.00000303
-0.03368012 -0.36346949 0.00000164
-0.01306614 0.15775914 0.00000361
-0.08217327 0.43175963 0.00000462
-0.25103986 0.10834176 0.00000379
-0.46666967 -0.02563503 0.00000157
-0.01517263 0.66412498 0.00000335
-0.49756738 -0.49415739 0.00000190
-0.37310598 0.03661111 0.08749173
-0.66884176 -0.74837678 0.04226614
-0.03932631 -0.12375045 0.00000260
-0.70827774 -0.18778059 -0.00000090
-0.01536962 0.30797555 0.00000418
-0.08220233 0.04415613 0.00001043
-0.22499780 -0.75191865 0.00000052
-0.64933481 -0.61032998 0.00000002
-0.03545145 0.02353299 -0.00001051
-0.45214058 -0.30553418 0.00000185
-0.35837540 0.40547717 0.00000275
-0.36316283 0.00986591 0.00000265
-0.22061736 -0.76230516 0.00000047
-0.33313076 -0.75534395 0.00000017
-0.36694383 0.13088304 0.13806892
-0.23840693 -0.27733476 0.00000196
-0.38873175 0.31192633 0.00000303
-0.30444669 -0.66703066 0.00000096
-0.33059560 0.36159127 0.00000277
-0.00735108 0.38697703 0.00000446
-0.69842178 -0.26887918 -0.00000074
-0.36298139 0.26713409 0.21875650
-0.02009600 -0.76908546 0.00000015
-0.47629261 -0.40707639 0.00000219
-0.30588491 0.06273294 0.00000323
-0.68152187 -0.46574439 -0.00000042
-0.29535612 0.30472335 0.13871412
-0.40911256 0.12289970 0.19782150
-0.03155815 0.33046295 0.00000905
-0.42414661 -0.15769726 0.00000212
-0.60265923 -0.36225186 0.18643011
-0.56882451 0.12811085 0.00000126
-0.11191650 0.27984935 0.00000422
-0.29828437 0.30994658 0.00000315
-0.41484009 -0.03159690 0.10823022
-0.74362293 -0.41406465 -0.00000096
-0.51448228 0.02383110 0.29674674
-0.24905397 -0.13207455 0.00000250
-0.50949631 -0.62976287 0.00000064
-0.55491030 -0.41542834 0.00000089
-0.18102233 0.15945216 0.00000360
-0.41644185 -0.10260924 0.06546419
-0.22534930 -0.64882854 0.00000057
-0.45572097 -0.56765430 0.00000087
-0.03541133 0.38098575 -0.00000247
-0.60659411 -0.59574976 0.04376172
-0.13893184 -0.07851711 0.00000271
-0.00257587 -0.38180775 0.00000157
-0.31152734 -0.19940075 0.00000225
-0.04689887 0.64571197 0.00000645
-0.28652513 -0.75747024 0.00000016
-0.13551863 0.36963835 0.00000459
-0.66066585 -0.69907504 0.06109551
-0.52903058 -0.24962565 0.00000106
-0.19295068 0.13319683 -0.00000376
-0.01024641 -0.13046144 0.00000253
-0.18772596 -0.70284070 0.00000065
-0.18302505 0.25732131 0.00000731
-0.19580537 -0.02225419 0.00000292
-0.36470894 -0.18084916 0.00000287
-0.31048582 0.07964730 0.00000317
-0.24301502 0.26315768 0.03175802
-0.10014452 0.46153041 0.00000110
-0.01832561 0.75133081 0.00000585
-0.74110863 -0.18246839 -0.00000125
-0.28097183 0.32194599 0.12756270
-0.22372191 -0.64985618 0.00000056
-0.63496833 -0.30855696 0.27030959
-0.00196442 0.45916950 0.00000472
-0.17700279 0.25926903 0.00000397
-0.22994581 0.23144467 -0.00000055
-0.37327763 -0.38604766 0.00000155
-0.10102571 0.68339522 0.00000500
-0.12736301 -0.75630901 0.00000036
-0.55285412 -0.35901338 0.11191002
-0.36365050 0.13160444 0.13346441
-0.09303751 0.12080875 0.00000359
-0.43475026 -0.42593874 0.00000140
-0.12123223 -0.59188496 0.00000078
-0.74310170 -0.05629489 -0.00000136
-0.15141910 0.48870924 0.00000596
-0.33353200 -0.60378608 0.00000074
-0.50424494 0.19511636 0.00000102
-0.47161191 -0.12188633 0.00000159
-0.45193668 -0.00713720 0.18084442
-0.19743030 0.39130580 0.04327958
-0.13569423 -0.08247070 0.00000290
-0.45033644 0.01376113 0.00000172
-0.58666509 -0.45420096 0.10327278
-0.16721744 0.37749333 0.00000442
-0.46157885 0.19150365 0.00000148
-0.66433183 -0.53847392 0.16902250
-0.23824320 -0.20256541 0.00000224
-0.23426555 0.34124151 0.06803736
-0.58446546 0.06827001 0.00000151
-0.11179536 -0.18458003 0.00000231
-0.70507290 -0.69413232 0.13252708
-0.45979722 -0.30238640 0.00000183
-0.12920414 0.01113432 0.00000324
-0.58556469 -0.27723038 0.21429637
-0.21057745 0.10749647 0.00000340
-0.13794536 -0.49385014 0.00000136
-0.28680102 0.41779094 0.00000401
-0.22972123 -0.41008527 0.00000181
-0.61476006 -0.33783072 0.22059117
-0.37101468 0.25412467 0.22282290
-0.22222468 0.04219268 0.00000316
-0.31315741 0.27501407 0.14716388
-0.12577255 -0.58119861 0.00000082
-0.10188180 0.27007991 0.00000844
-0.32167599 0.04730352 0.01522967
-0.65153480 -0.68135565 0.05834082
-0.28502072 0.00029444 0.00000770
-0.66017553 0.09069855 -0.00000015
-0.67713695 -0.51206334 0.20553397
-0.43367542 0.15588799 0.25660470
-0.29634691 -0.28710873 0.00000237
-0.07638025 0.62349334 0.00503640
-0.05249038 0.14988384 0.00000356
-0.02384642 0.02058879 0.00000311
-0.31542216 0.11219215 0.04694218
-0.57934112 0.21915219 0.00000021
-0.58771138 -0.19915837 0.26732263
-0.40584163 0.04126833 0.14080289
-0.49604335 -0.60951260 0.00000071
-0.49654120 -0.20909354 0.12080710
-0.36945181 0.10243388 0.12380554
-0.17823013 -0.76657471 0.00000039
-0.03968941 -0.57284696 0.00000091
-0.31264871 0.26699008 0.14126786
-0.01290573 -0.79319701 0.00000004
-0.65716196 0.07458827 0.00000006
-0.05697730 -0.61852646 0.00000077
-0.34391754 -0.58208249 0.00000134
-0.01255220 -0.10600081 0.00000262
-0.49445875 -0.07613157 0.00000131
-0.57745438 -0.60481669 0.00000160
-0.00737119 0.76091316 0.00000586
-0.23830445 0.45205260 0.00000369
-0.16215606 0.56082992 0.09701800
-0.25770656 0.34293437 0.00000356
-0.33603468 0.26775099 0.17771330
-0.68020016 -0.20911902 -0.00000058
-0.08857346 0.09215010 0.00000997
-0.29965795 0.01238430 0.00000739
-0.33140538 0.45260440 0.00000283
-0.14425118 0.47098618 0.00000468
-0.33613827 -0.71855563 0.00000031
-0.12251779 -0.05786233 0.00000278
-0.34452094 -0.78217924 0.00000007
-0.76852698 -0.58212544 -0.00000054
-0.13432183 -0.08238696 0.00000289
-0.69580498 -0.53051434 -0.00000053
-0.27075638 0.21935872 0.04651056
-0.22113103 -0.19449500 0.00000227
-0.51304331 -0.06168934 0.24006582
-0.30475513 -0.74938747 0.00000065
-0.32904851 0.13187258 0.08042179
-0.05173496 0.29202269 0.00000903
-0.36424193 -0.20920204 0.00000222
-0.29259446 -0.36363776 0.00000208
-0.20344617 0.17477767 -0.00000254
-0.63683684 -0.27832310 0.29243928
-0.23805923 -0.24293689 0.00000209
-0.31088096 -0.16374436 0.00000239
-0.15176767 -0.62263758 0.00000067
-0.09285737 0.48081554 0.00000134
-0.27138051 -0.48309019 0.00000160
-0.42168421 0.13980785 0.00000194
-0.34321953 0.37635147 0.00000331
-0.37503494 -0.21109605 0.00000221
-0.28975695 0.40435079 0.00000317
-0.13041450 0.55827910 0.04658598
-0.34742357 0.28990629 0.20933806
-0.02261035 0.02168825 0.00000312
-0.18419244 -0.45958532 0.00000128
-0.44243293 0.19068679 0.00000169
-0.46766195 0.08401866 0.26308772
-0.19148245 0.28718649 0.00000696
-0.45276181 -0.08173876 0.00000176
-0.61413750 -0.16524666 0.32955569
-0.21480912 0.24901201 0.00000426
-0.60188923 -0.38261788 0.00000037
-0.27091923 -0.01915591 0.00000293
-0.53469759 -0.34921204 0.00000106
-0.69061169 -0.68682658 0.11494365
-0.47278885 -0.01812336 0.20591123
-0.23389460 0.22758525 0.00000385
-0.17938703 0.48888069 0.00000542
-0.02208667 0.09655213 0.00000336
-0.18817243 -0.44906809 0.00000160
-0.07570329 0.12190792 -0.00000720
-0.43049478 0.01571835 0.16243753
-0.04690754 0.69158510 0.00000557
-0.03616209 -0.08248057 0.00000275
-0.33572821 -0.06590851 0.00000326
-0.52930983 -0.15984387 0.00000100
-0.08740101 0.42714127 -0.00000002
-0.73275434 -0.78736437 -0.00000003
-0.23146163 -0.31904204 0.00000215
-0.08790001 0.36036998 0.00000448
-0.40010514 0.19417728 0.00000214
-0.64524683 -0.72793363 0.01900581
-0.30842206 0.06214316 0.00430141
-0.58536796 -0.58943153 0.01514756
-0.23339961 -0.18287807 0.00000231
-0.69249680 -0.26297097 -0.00000068
-0.10486402 0.35600794 0.00000449
-0.02685327 -0.73934171 0.00000023
-0.37568576 -0.29660780 0.00000189
-0.39793526 0.10502337 0.00000222
-0.11428874 0.63264792 0.06915698
-0.54486350 -0.19024440 0.00000085
-0.14986123 0.47191261 0.02147991
-0.36951941 -0.10879440 0.00000315
-0.09373856 0.04198970 0.00000316
-0.41634551 0.22275700 0.00000332
-0.39006702 0.34553464 0.00000214
-0.31250356 -0.18435261 0.00000278
-0.31388210 0.10919165 0.04265351
-0.68429105 0.07154237 -0.00000044
-0.07892177 0.26801862 0.00000412
-0.06673364 0.48117619 0.00000738
-0.44071851 -0.75989033 0.00000082
-0.12262345 -0.36305133 0.00000182
-0.11828137 0.20313227 0.00000394
-0.12349551 -0.11018740 0.00000259
-0.40062901 -0.00301979 0.10457984
-0.41783515 -0.44245248 0.00000197
-0.45483742 0.08905710 0.24657662
-0.11957109 0.09634046 0.00000354
-0.14181188 0.42524742 0.00000481
-0.06883259 -0.75781024 0.00000016
-0.33084560 -0.00464903 0.00000348
-0.52697649 -0.69863704 0.00000038
-0.19200328 -0.53595115 0.00000099
-0.00239083 0.68630002 0.00000682
-0.13730839 -0.42726557 0.00000140
-0.02285693 0.14064894 0.00000353
-0.46414416 -0.00577921 0.00000159
-0.29398604 0.32025835 0.14650192
-0.41035381 -0.42519214 0.00000141
-0.44500667 -0.76311617 0.00000014
-0.13507284 0.64916602 0.00000466
-0.42587354 0.09145229 0.20356794
-0.43652401 0.24515806 0.00000272
-0.63013396 -0.47786699 0.00000013
-0.00545653 0.53262144 0.00000500
-0.59134620 -0.70958160 0.00000034
-0.25495948 0.22459988 0.02556628
-0.04012072 -0.51296139 0.00000108
-0.42908108 -0.13483209 0.06437557
-0.10741870 0.20780473 0.00000378
-0.32989773 -0.79844701 0.00000050
-0.47845968 -0.21370753 0.00000157
-0.01819499 0.59277401 0.00000522
-0.07157380 0.48157233 0.00000481
-0.16156925 0.05517070 0.00000345
-0.26070470 0.39669616 0.00000471
-0.50329787 0.07648592 0.00000299
-0.00194062 -0.41560883 0.00000144
-0.07971749 0.18794416 0.00000939
-0.43440506 -0.61376652 0.00000135
-0.69618606 -0.59489357 -0.00000049
-0.19580053 0.22526133 0.00000414
-0.32468433 0.28380326 0.17048621
-0.10914355 0.07522189 0.00000345
-0.12409167 0.18957524 0.00000371
-0.04052865 -0.72514121 0.00000028
-0.28687205 0.19401474 0.05515637
-0.04136406 0.20461799 0.00000383
-0.47919982 0.20209474 0.00000230
-0.30753031 0.03857863 0.00000707
-0.43041371 0.03385208 0.17385685
-0.32379444 -0.58143006 0.00000082
-0.76807460 -0.76000060 -0.00000010
-0.12178322 0.10324796 0.00000939
-0.59002704 -0.53180276 0.05901635
-0.59834364 -0.03061253 0.00000017
-0.24020351 0.28203228 0.00000615
-0.18732894 0.09678142 -0.00000473
-0.13586413 0.15839148 0.00000380
-0.63458875 -0.26819095 0.29543582
-0.15273185 -0.62226987 0.00000067
-0.61181387 0.00216779 0.00000159
-0.59355355 -0.11011769 0.00000028
-0.10285984 0.56443303 0.00813267
-0.45937015 -0.34979641 0.00000238
-0.26569724 0.38570388 0.00000471
-0.23712593 -0.19658236 0.00000226
-0.09331591 0.44048075 0.00000479
-0.29472342 0.42888261 0.00000310
-0.72444471 -0.39775669 -0.00000093
-0.31101286 0.21483325 0.10553070
-0.54411180 -0.01979683 0.31451910
-0.09633194 0.20811971 -0.00000470
-0.52309805 -0.24520332 0.00000112
-0.45142443 -0.08815712 0.12845988
-0.69745654 0.04597604 -0.00000094
-0.04814756 0.02837523 -0.00001005
-0.42917226 0.01419575 0.15943418
-0.23505728 -0.16400714 0.00000274
-0.28501479 0.37393320 0.16689324
-0.17637751 -0.68074114 0.00000045
-0.58643810 0.20388082 0.00000014
-0.64653809 -0.05365881 -0.00000033
-0.16229267 -0.12956977 0.00000276
-0.07826070 0.33506807 -0.00000234
-0.01193714 0.13418638 0.00000352
-0.77163732 -0.54012941 -0.00000065
-0.21888770 0.06606222 -0.00000457
-0.33469179 -0.15689231 0.00000292
-0.40173343 -0.66837425 0.00000110
-0.28202246 -0.02628198 0.00000333
-0.19132396 0.35633036 0.01161194
-0.39269755 -0.04988281 0.06253619
-0.46234029 0.06680065 0.24393742
-0.02252088 0.64877116 0.00000321
-0.12053534 -0.02615602 0.00000308
-0.46587139 -0.51862222 0.00000176
-0.16323308 -0.60556298 0.00000098
-0.15784234 0.52289674 0.06622471
-0.72188843 0.02933001 -0.00000077
-0.02382695 0.67924219 0.00000393
-0.10669457 0.17806903 -0.00000510
-0.14418321 -0.33465452 0.00000175
-0.23694291 0.00765248 0.00000303
-0.68927449 -0.20354233 -0.00000068
-0.62224952 -0.40353126 0.00000017
-0.12226481 0.44598933 0.00000681
-0.04775227 -0.78726488 0.00000012
-0.01998007 0.44579916 0.00000836
-0.36217992 -0.66417908 0.00000106
-0.01919902 0.33977867 0.00000427
-0.60367372 -0.42893637 0.14551752
-0.08591303 0.35093279 0.00000445
-0.03891395 0.65775071 0.00000547
-0.69222450 -0.73606004 0.08606589
-0.76525973 -0.45385085 -0.00000087
-0.60293240 -0.52737141 0.08168264
-0.02377153 0.25293877 -0.00000566
-0.31217945 0.03403171 -0.00000276
-0.23308151 0.26226143 0.01591295
-0.65211720 -0.45944748 0.20057387
-0.45240970 -0.17490398 0.00000183
-0.20377326 0.43720570 0.00000543
-0.51215470 -0.66720963 0.00000050
-0.06186247 -0.07906273 0.00000280
-0.62554285 0.00836886 -0.00000014
-0.05793994 0.65700298 0.00000546
-0.00050324 0.00889705 0.00000303
-0.38850277 -0.63132143 0.00000063
-0.09154049 0.24601324 0.00000877
-0.04690323 0.75009614 0.00000556
-0.11015089 -0.71433282 0.00000032
-0.43118121 -0.75095147 0.00000018
-0.76728626 -0.75931390 -0.00000010
-0.05997084 -0.11527813 0.00000266
-0.20952730 -0.31967806 0.00000180
-0.20601651 -0.46711117 0.00000125
-0.32510521 0.21829945 0.00000292
-0.12349196 0.52529394 0.00000487
-0.20841713 0.29399365 0.00000410
-0.46770811 -0.08783484 0.15370372
-0.11803396 0.40990224 0.00000472
-0.65100408 -0.61888873 0.09731107
-0.41209323 0.37633633 0.00000189
-0.24285337 -0.18609929 0.00000267
-0.27947320 -0.73022744 0.00000068
-0.04015027 0.65751536 0.00000388
-0.40438874 0.07959902 0.16298233
-0.40863351 -0.73701406 0.00000085
-0.10813899 -0.72576486 0.00000028
-0.44118249 -0.01545689 0.15900834
-0.40769614 -0.77645772 0.00000009
-0.13405615 0.59706573 0.07688911
-0.58455139 0.10994910 0.00000023
-0.13510942 0.22715442 0.00000385
-0.18874023 0.44543958 0.06440099
-0.46458423 -0.01218480 0.00000159
-0.46059670 -0.48712138 0.00000117
-0.70359667 -0.76727560 0.08367077
-0.29756620 -0.29188826 0.00000191
-0.47991087 0.09028196 0.00000135
-0.52713975 -0.33475212 0.08782278
-0.73289688 -0.13393972 -0.00000119
-0.71675133 -0.22181995 -0.00000096
-0.12390014 0.25955033 0.00000416
-0.23990757 0.39440415 0.00000513
-0.77197140 -0.19093113 -0.00000152
-0.32854757 -0.79668646 0.00000001
-0.68121165 -0.61008147 0.14936990
-0.60201237 0.05293236 0.00000008
-0.07047033 0.31868568 0.00000430
-0.04060167 0.53024107 0.00000741
-0.29750363 -0.04606786 0.00000283
-0.06276165 0.41471850 0.00000794
-0.08633669 -0.02948263 0.00000289
-0.37693188 -0.25071803 0.00000206
-0.70320105 -0.74288028 -0.00000014
-0.10560285 -0.75784458 0.00000016
-0.42782779 0.08158224 0.00000440
-0.23269049 0.16735125 0.00000398
-0.19475801 -0.38729391 0.00000155
-0.40372319 0.04723934 0.14134850
-0.72113903 -0.72575519 0.13709030
-0.42194682 0.15545867 0.23829552
-0.18256052 0.56066436 0.00000470
-0.08045680 0.51868245 0.00000495
-0.54306857 -0.31591779 0.12431161
-0.06239591 0.52975373 0.00000508
-0.67930147 -0.77945094 -0.00000005
-0.52434904 0.09565106 0.00000241
-0.69688820 -0.74591013 0.08696341
-0.59627976 -0.10201680 0.34236894
-0.30869588 -0.17921962 0.00000279
-0.20756470 0.56476076 0.00000418
-0.28009962 0.29884548 0.11151126
-0.39530946 0.10630657 0.16603209
-0.09264918 -0.66838196 0.00000049
-0.44695357 0.27459908 0.00000158
-0.51338048 0.02772149 0.00000325
-0.02042017 -0.79186181 0.00000006
-0.12843968 0.22950427 -0.00000335
-0.48172859 0.08826626 0.00000330
-0.09416081 -0.19397678 0.00000227
-0.19537396 0.00541700 -0.00000657
-0.27572057 -0.44348249 0.00000134
-0.32394053 -0.08641234 0.00000268
-0.31861005 0.24628795 0.13724826
-0.45746369 0.18924984 0.00000153
-0.08968623 0.28424037 0.00000851
-0.10731258 0.24365955 0.00000391
-0.66033895 -0.53072037 -0.00000015
-0.17142399 0.35192392 0.00000432
-0.05754184 0.49161282 0.00000493
-0.29002550 0.09028001 -0.00000209
-0.30008659 -0.78897781 0.00000004
-0.25267539 -0.38263012 0.00000157
-0.10491004 0.27898347 0.00000832
-0.36982314 -0.49451556 0.00000115
-0.48065440 0.21906538 0.00000126
-0.57502895 -0.10494832 0.00000047
-0.29894979 0.31828661 0.15287859
-0.24004907 -0.63402136 0.00000098
-0.45161705 -0.64629550 0.00000058
-0.05649559 0.17697992 0.00000982
-0.00471639 -0.47221134 0.00000123
-0.51955519 0.21774894 0.00000138
-0.50581939 0.26457190 0.00000121
-0.49748059 -0.74818830 0.00000019
-0.39459029 -0.06300497 0.05708883
-0.01951699 -0.38645865 0.00000155
-0.07097924 0.29350542 0.00000410
-0.10261915 -0.70817297 0.00000050
-0.79248575 -0.26126244 -0.00000135
-0.03852990 0.23933076 0.00000390
-0.21521634 -0.62042613 0.00000067
-0.55746665 0.05909622 0.00000211
-0.40125881 -0.58992191 0.00000079
-0.20542410 0.46337620 0.00000515
-0.25807959 -0.49608541 0.00000153
-0.47207022 0.02956573 0.00000403
-0.17787196 0.31167606 0.00000417
-0.36196635 -0.37424016 0.00000214
-0.68645320 -0.77914950 -0.00000005
-0.59236053 -0.64765154 0.00000147
-0.07211905 0.24583464 0.00000392
-0.65842366 -0.78538934 0.00000004
-0.72154588 0.06637982 -0.00000110
-0.25042360 0.41421475 0.13936068
-0.20369341 -0.45873921 0.00000159
-0.30762203 0.38174391 0.00000394
-0.61442388 -0.57232307 0.07072202
-0.11643393 0.44553261 0.00000119
-0.55648305 -0.14957487 0.25088504
-0.02810841 -0.53869186 0.00000102
-0.03148767 0.03052991 0.00001130
-0.09289044 -0.06699232 0.00000289
-0.01028864 0.57819775 0.00000518
-0.33629477 -0.21811149 0.00000269
-0.48518036 0.13381136 0.00000127
-0.34706937 -0.69982807 0.00000038
-0.46778302 -0.60309572 0.00000074
-0.22904960 -0.21532043 0.00000219
-0.19750889 -0.48133100 0.00000120
-0.33719353 0.41083726 0.00000266
-0.07401392 0.66082076 0.00000530
-0.24453187 -0.39095726 0.00000190
-0.28651586 0.37605395 0.17055260
-0.21573722 0.36643400 0.05558797
-0.00401557 -0.68834442 0.00000042
-0.51755611 0.11677970 0.00000094
-0.41072626 -0.70326965 0.00000036
-0.52185392 0.01204934 0.00000096
-0.60961430 -0.31272929 0.22866634
-0.22947751 0.13817125 0.00000386
-0.18588457 0.28567744 0.00000705
-0.20537632 0.36910718 0.04136402
-0.23210646 0.11062399 0.00000767
-0.03569889 -0.37474144 0.00000165
-0.49732424 -0.39483593 0.00370860
-0.42241038 -0.21543920 0.00000217
-0.23028412 0.50505135 0.00000374
-0.30984188 -0.46277891 0.00000126
-0.30037418 -0.08203924 0.00000269
-0.00817676 0.26596745 0.00000400
-0.46651683 -0.26799965 0.03712187
-0.49489272 0.04699647 0.28137908
-0.58761533 -0.25788427 0.00000044
-0.06420440 -0.38343472 0.00000156
-0.51209235 -0.44616171 0.00000133
-0.19480730 0.34517439 0.00986240
-0.56125369 0.13974727 0.00000130
-0.30588425 0.32999088 0.17099599
-0.28341000 0.22576488 0.07005517
-0.05215590 -0.37368107 0.00000160
-0.08306972 0.62772479 0.01801545
-0.19712221 0.20037887 -0.00000214
-0.45898464 0.25607020 0.00000147
-0.26350625 -0.24009321 0.00000210
-0.14500050 -0.39837965 0.00000151
-0.05760193 -0.70653105 0.00000044
-0.11180565 -0.75896007 0.00000015
-0.23074109 0.30789890 0.04138151
-0.43120033 0.18295196 0.00000181
-0.23079636 0.43743027 0.12396725
-0.45172243 0.28760676 0.00000152
-0.36197916 -0.47400049 0.00000177
-0.08925342 -0.20343123 0.00000237
-0.38885538 -0.15408023 0.00000301
-0.27323100 0.24169223 0.06454786
-0.50287409 -0.12669444 0.18302627
-0.48436806 -0.50504919 0.00000111
-0.51463335 -0.20123025 0.15363472
-0.27309979 0.24006775 0.00000346
-0.00739283 0.19943385 0.00000375
-0.21495116 0.08282917 0.00000331
-0.71643869 -0.43666626 -0.00000082
-0.50130081 0.05775870 0.00000115
-0.46752587 -0.04146875 0.00000158
-0.05642904 -0.58053259 0.00000082
-0.20723182 -0.58309057 0.00000113
-0.48219765 -0.19473749 0.10789538
-0.04206507 -0.26021522 0.00000202
-0.05763899 0.55366019 0.00000202
-0.42684606 0.03783334 0.00000196
-0.53387644 -0.43193073 0.00000113
-0.02639204 0.73231313 0.00000575
-0.11085631 -0.39952658 0.00000150
-0.57065444 0.02831484 0.00000214
-0.67663951 -0.48337494 0.22304128
-0.27256840 0.36529662 0.00000477
-0.13664519 0.48745942 0.00000625
-0.57591459 0.17757143 0.00000067
-0.10881426 -0.34513142 0.00000171
-0.20937868 0.21477085 0.00000412
-0.03994231 0.33601165 0.00000432
-0.46224686 0.28091244 0.00000142
-0.05033149 -0.77633173 0.00000016
-0.29496598 0.21989095 0.08408298
-0.10496309 0.61730174 0.04504199
-0.40521396 -0.46246280 0.00000188
-0.39136205 0.12543077 0.17213859
-0.73257581 -0.18331010 -0.00000116
-0.10982357 0.11393344 -0.00000645
-0.53786176 -0.29964837 0.12666764
-0.47523261 -0.43784009 0.00000136
-0.29959142 0.32321455 0.15700220
-0.70847894 -0.70948259 0.12798758
-0.63867866 0.15573300 -0.00000038
-0.38747482 0.01830054 0.09792373
-0.31862916 -0.20605032 0.00000271
-0.24609560 0.19981239 0.00000412
-0.49854103 -0.02925760 0.23841849
-0.05323752 0.71551030 0.02805794
-0.11337485 0.29974313 0.00000430
-0.09788572 -0.39542342 0.00000152
-0.65952849 -0.60445697 0.11961068
-0.04907606 0.65658060 0.00000411
-0.34424385 0.09314603 0.07912059
-0.05814492 0.37412508 0.00000832
-0.36211080 0.39431045 0.00000241
-0.24533511 0.41968628 0.13502128
-0.44418034 0.22389791 0.00000277
-0.20606744 0.21712746 0.00000413
-0.72895274 -0.60557096 -0.00000049
-0.11879143 0.41524980 0.00000474
-0.61899491 -0.28059162 0.00000012
-0.01625557 0.59051021 0.00000521
-0.31821908 -0.43820232 0.00000136
-0.39716202 -0.77216589 0.00000010
-0.01580522 0.35672935 -0.00000354
-0.44289428 0.20884277 0.00000294
-0.09260726 0.44342752 0.00000728
-0.48267070 -0.69123234 0.00000041
-0.23755567 0.35336597 0.00000555
-0.11737915 0.59353040 0.04899436
-0.23524635 -0.28174662 0.00000230
-0.01271535 -0.58612703 0.00000082
-0.61501301 -0.56215887 0.07810164
-0.02511028 0.19756182 0.00000378
-0.46708502 -0.78660108 0.00000076
-0.33562620 0.05990165 0.04469390
-0.72914692 0.01825178 -0.00000081
-0.37481291 0.42422413 0.00000225
-0.64917558 -0.05754327 -0.00000035
-0.32382110 0.11839332 0.06379786
-0.07009460 0.34732801 -0.00000228
-0.34251550 -0.06481495 0.00000327
-0.57635467 -0.40131696 0.12110172
-0.21792145 0.16483043 -0.00000237
-0.19424462 -0.41650694 0.00000173
-0.61475823 -0.78668161 0.00000005
-0.03230269 -0.14815365 0.00000249
-0.14627471 -0.30480109 0.00000208
-0.12979028 -0.09317610 0.00000265
-0.06073697 0.08439143 0.00001045
-0.19366824 0.34525570 0.00816267
-0.48550655 -0.62503561 0.00000066
-0.30727445 0.29079104 0.14816403
-0.41158487 0.13849514 0.21155941
-0.01052919 0.07622733 0.00000329
-0.07429896 0.42101564 -0.00000051
-0.41922826 -0.13049894 0.05198527
-0.46392371 -0.72890969 0.00000097
-0.78349770 -0.18797341 -0.00000153
-0.05154161 -0.51320877 0.00000115
-0.44515693 0.10698400 0.24311143
-0.43957831 -0.62183527 0.00000067
-0.12486091 0.47742193 0.00000498
-0.15407426 0.45666978 0.00000459
-0.64491736 0.02895074 -0.00000036
-0.46341673 0.04679509 0.00000156
-0.34728913 -0.44521235 0.00000133
-0.65674717 -0.73733792 0.03069952
-0.33331122 0.14878571 0.09775632
-0.50376397 -0.60347203 0.00000074
-0.60391003 -0.15384681 0.32109017
-0.55292483 -0.04856616 0.30974794
-0.38402225 -0.17816486 0.00000291
-0.11266706 0.09354921 0.00000960
-0.40770101 0.09394138 0.00000467
-0.31112893 0.02752628 0.00000310
-0.45736779 -0.44072041 0.00000135
-0.35404447 -0.62654135 0.00000118
-0.25646762 0.26880768 0.00000596
-0.33361807 0.18752155 0.00000523
-0.03909847 0.22356312 0.00000390
-0.09845543 0.06322211 0.00001004
-0.21836616 -0.53774540 0.00000131
-0.24572199 0.23870528 0.02033794
-0.37473051 -0.44053159 0.00000135
-0.03103609 0.19790424 0.00001005
-0.62484580 -0.79306211 0.00000097
-0.63476394 0.11765980 0.00000009
-0.44012416 -0.79967832 0.00000000
-0.09947068 0.59864931 0.02471777
-0.60380407 -0.29562245 0.23062789
-0.52135202 0.06987505 0.00000093
-0.06681873 -0.04687596 0.00000293
-0.00958044 -0.66148479 0.00000052
-0.36135203 0.15743051 0.14637447
-0.23136715 -0.73794409 0.00000058
-0.01851703 -0.45283219 0.00000130
-0.09105913 0.34230455 0.00000428
-0.44148670 0.28601498 0.00000163
-0.10387736 -0.04777148 0.00000298
-0.44963984 -0.26118106 0.00000191
-0.13335016 -0.10014321 0.00000262
-0.46990109 -0.67614189 0.00000117
-0.05991300 0.35184509 0.00000432
-0.29922545 0.41194471 0.00000307
-0.06429692 0.41674192 -0.00000088
-0.62757172 -0.45865663 0.16333489
-0.06528541 0.09549665 -0.00000808
-0.28110835 -0.26890882 0.00000242
-0.68216535 -0.77166819 -0.00000007
-0.08630537 0.55205543 0.00000277
-0.34402209 -0.48658722 0.00000118
-0.32163860 -0.50141581 0.00000112
-0.08346115 0.35015810 0.00000811
-0.16428414 0.18890509 0.00000810
-0.12734444 -0.42826045 0.00000159
-0.12431139 0.01932403 -0.00000819
-0.01899745 0.74218862 0.00000615
-0.49137245 -0.39186463 0.00000227
-0.50795724 -0.76289908 0.00000014
-0.05802314 -0.71507710 0.00000041
-0.44476141 0.03994621 0.19980572
-0.24003127 -0.06958991 0.00000310
-0.02569920 -0.30044720 0.00000191
-0.07358190 0.46993997 0.00000476
-0.02233370 -0.36921268 0.00000165
-0.27304560 -0.06367815 0.00000317
-0.71481119 -0.69970629 -0.00000025
-0.16152804 -0.12758606 0.00000277
-0.37133278 -0.16631139 0.00000238
-0.00619078 0.46908543 0.00000477
-0.27177097 0.29028174 0.09324569
-0.50058300 -0.03134012 0.00000122
-0.07938209 -0.06327514 0.00000288
-0.34190180 -0.02327553 0.00000290
-0.36824834 -0.19415579 0.00000283
-0.13363561 0.50885959 0.00000611
-0.50068569 -0.15174913 0.16370352
-0.07070533 0.05878939 0.00001049
-0.58511207 -0.17995786 0.27555494
-0.16436425 -0.53067848 0.00000126
-0.40947501 0.00635504 0.00000544
-0.29273213 0.06894616 0.00000326
-0.53402071 -0.49915711 0.00000113
-0.77568587 -0.09197097 -0.00000168
-0.01728201 0.46322827 0.00000826
-0.74826539 0.00756902 -0.00000145
-0.43877431 -0.04665910 0.13543926
-0.48910169 -0.03672422 0.21915276
-0.04223219 0.51002060 0.00000491
-0.09802772 -0.62060676 0.00000067
-0.31532410 -0.69107769 0.00000088
-0.19702149 0.44289599 0.07551460
-0.39292991 -0.39271140 0.00000212
-0.30922191 0.29453953 0.15354628
-0.33737006 0.28790421 0.19260348
-0.10950773 0.06355562 0.00000324
-0.12733134 -0.52530300 0.00000122
-0.19753500 -0.78027376 0.00000007
-0.73019583 -0.07374889 -0.00000121
-0.08700798 0.29685136 -0.00000296
-0.52277734 -0.26993313 0.12239927
-0.40891498 -0.08045346 0.06800191
-0.06047043 0.18830937 0.00000380
-0.38547349 -0.53198393 0.00000159
-0.18618475 -0.07833048 0.00000299
-0.18891577 0.07575815 -0.00000516
-0.10368519 -0.06636607 0.00000291
-0.64993327 -0.39775834 0.23650670
-0.28494924 0.12583876 0.00876675
-0.54688611 -0.13173807 0.24748889
-0.09674098 0.60650210 0.02552203
-0.41732588 0.13141204 0.21587318
-0.02221072 0.53862137 0.00000763
-0.20305364 0.33899594 0.01860746
-0.14084914 0.55413129 0.05998731
-0.19304937 0.36472721 0.01961984
-0.49164522 -0.41490544 0.00000144
-0.29263998 0.36862618 0.17523846
-0.39198852 -0.05940145 0.05538335
-0.59248252 -0.40723357 0.14213228
-0.50026007 -0.08554762 0.20521395
-0.78865467 -0.00856794 -0.00000187
-0.53888833 0.16461803 0.00000068
-0.07934428 -0.27538328 0.00000209
-0.26502597 -0.65643012 0.00000054
-0.31585141 0.10200669 0.04111491
-0.71009221 -0.69018625 -0.00000027
-0.49539013 -0.08936695 0.19529309
-0.37135505 0.30060552 0.00000237
-0.11684081 0.15637700 0.00000359
-0.15258397 0.27600671 0.00000427
-0.35013459 0.26606986 0.19832401
-0.46170883 -0.53348865 0.00000170
-0.56072842 -0.44995927 0.06609291
-0.70868025 -0.71635208 -0.00000021
-0.66937960 -0.55749834 -0.00000023
-0.03688821 0.11119361 -0.00000850
-0.16022641 0.25903641 0.00000397
-0.45989332 0.20628776 0.00000149
-0.45387603 0.02513661 0.20438362
-0.52571176 -0.38193035 0.05557841
-0.09869864 -0.23388965 0.00000212
-0.26086063 0.39672324 0.00000470
-0.66534991 -0.50548531 0.19159906
-0.18974175 0.26780225 0.00000713
-0.22664697 -0.67474448 0.00000047
-0.14784759 0.52578807 0.00000461
-0.22322875 -0.41281455 0.00000179
-0.11304559 0.60905342 0.05221776
-0.29288190 -0.67144609 0.00000048
-0.09860516 0.33517600 -0.00000178
-0.56286630 -0.29530365 0.16788305
-0.28833964 0.21762451 0.07245049
-0.10767931 0.43124429 0.00000478
-0.71072991 0.02277477 -0.00000106
-0.05570105 -0.73853503 0.00000023
-0.10605719 -0.44312140 0.00000134
-0.51214388 -0.39546654 0.00000134
-0.44260697 0.12805486 0.25261088
-0.30583795 -0.78672645 0.00000051
-0.39472168 -0.73457445 0.00000025
-0.75125026 -0.27845112 -0.00000129
-0.64793952 -0.60255651 0.10300108
-0.46545051 0.05662365 0.24224044
-0.20088069 -0.77540913 0.00000040
-0.45961728 -0.41397071 0.00000214
-0.62748747 -0.31640261 0.25380945
-0.56805540 0.09999258 0.00000153
-0.40343970 -0.28953718 0.00000252
-0.16350863 0.44648640 0.02626570
-0.13534817 0.15237017 0.00000357
-0.07101433 0.40410091 0.00000452
-0.48989383 -0.32992678 0.03362500
-0.53599537 -0.02444568 0.29907915
-0.09757509 -0.72200417 0.00000029
-0.65292173 -0.66031083 0.07387725
-0.05266614 0.56832220 0.00000222
-0.12161877 0.15457440 0.00000358
-0.14716177 -0.17253035 0.00000258
-0.32883354 0.29626090 0.00000283
-0.10718129 0.23608640 0.00000405
-0.09956726 0.06483501 0.00001001
-0.31728910 -0.62640073 0.00000113
-0.18729143 -0.20318904 0.00000252
-0.27125523 0.04089902 -0.00000371
-0.64752382 -0.22373774 -0.00000022
-0.32543917 0.28464795 0.17218316
-0.71563146 -0.73659506 -0.00000016
-0.01885871 0.18457646 0.00000372
-0.29293365 -0.44403657 0.00000178
-0.12320421 0.54796621 0.02893065
-0.70191594 -0.68763733 0.13180950
-0.54516174 -0.48681966 0.00000104
-0.29350324 0.33510825 0.15521614
-0.18070127 0.15782558 0.00000359
-0.71217221 -0.39234777 -0.00000080
-0.40370318 -0.45143938 0.00000192
-0.15318591 -0.60896507 0.00000095
-0.18761020 0.25736808 0.00000397
-0.45810470 -0.43187863 0.00000138
-0.09794301 0.14028011 0.00000947
-0.10451278 0.63653364 0.00000550
-0.04237792 0.11628529 0.00000344
-0.28939101 0.05287774 0.00000363
-0.73946739 -0.44247033 -0.00000089
-0.29112550 0.15556551 0.03720770
-0.35487226 0.07190462 0.08193410
-0.12888000 0.13992738 -0.00000535
-0.02087331 -0.23098029 0.00000217
-0.05235711 0.33792990 0.00000868
-0.37515474 -0.48190467 0.00000119
-0.05762439 -0.01170295 0.00000304
-0.25594446 -0.26681527 0.00000239
-0.43695728 -0.00431491 0.15961505
-0.09953987 0.19227874 0.00000387
-0.35602828 0.01369484 0.04664545
-0.46043489 -0.00763300 0.19360200
-0.12195835 -0.01134516 0.00000314
-0.12836158 0.07907098 0.00000349
-0.53132021 -0.76127900 0.00000015
-0.03352086 0.52028817 0.00000500
-0.67405210 -0.75264235 0.04756112
-0.13903356 0.51077698 0.00000599
-0.15682632 -0.20228887 0.00000224
-0.63534493 0.10273984 0.00000022
-0.26733039 -0.37956910 0.00000158
-0.02490711 0.06563862 0.00001113
-0.70918882 -0.34776622 -0.00000080
-0.60282254 -0.49710664 0.00000044
-0.71209527 0.00070262 -0.00000032
-0.42370942 0.31651234 0.00000180
-0.35159270 -0.00511484 0.02784488
-0.35366800 -0.05223636 0.00102346
-0.30725244 -0.01365626 0.00000341
-0.21371218 0.17638222 -0.00000223
-0.48525030 0.03642189 0.00000371
-0.38801515 -0.48666785 0.00000117
-0.33537105 0.24776208 0.00000279
-0.70852033 -0.31105026 -0.00000082
-0.00645180 0.52568732 0.00000000
-0.28291742 -0.26731195 0.00000200
-0.14888869 0.50949373 0.04391753
-0.17062610 0.46882244 0.00000440
-0.51329496 -0.28365347 0.09907998
-0.41285561 0.02026152 0.13820831
-0.49443726 -0.58593221 0.00000080
-0.35397418 0.20743395 0.16687957
-0.19938625 -0.67654199 0.00000076
-0.32479694 -0.33386715 0.00000175
-0.63067294 -0.60136950 0.07720718
-0.24252948 0.33896584 0.07929497
-0.78825614 -0.66852606 -0.00000033
-0.47053057 -0.61305921 0.00000141
-0.04755870 0.01949167 0.00000307
-0.20239795 0.46238083 0.09619194
-0.32599962 0.13368956 0.07689084
-0.17653549 0.13398045 0.00000377
-0.03738584 0.17639892 -0.00000702
-0.23171111 -0.65695734 0.00000089
-0.60558825 -0.18000530 0.30700989
-0.24991094 0.10034354 -0.00000295
-0.20466378 0.39133784 0.05442748
-0.12564671 0.06576000 0.00000961
-0.68439066 -0.66848034 0.11706283
-0.25241848 -0.09848084 0.00000301
-0.36113797 -0.57432354 0.00000139
-0.45437597 -0.23186019 0.04147135
-0.29791977 0.23558971 0.00000320
-0.40161629 -0.23928476 0.00000271
-0.43447415 0.06687440 0.20113444
-0.51575950 -0.00576636 0.00000104
-0.54955616 -0.28658478 0.00000086
-0.38181957 0.15145093 0.00000236
-0.47732125 -0.70412439 0.00000036
-0.37014248 -0.31478696 0.00000182
-0.48575444 -0.53032003 0.00000101
-0.17956238 -0.32765253 0.00000177
-0.26813257 -0.18752363 0.00000230
-0.40349854 0.13102488 0.00000214
-0.04033316 0.67743109 0.00000554
-0.48593138 -0.04498808 0.00000138
-0.12442556 0.64183481 0.00000478
-0.56777442 -0.35847372 0.00000072
-0.18371892 0.34196895 0.00000428
-0.60856721 -0.02524713 0.00000006
-0.49950831 0.04478681 0.00000118
-0.23444794 0.29545793 0.03915746
-0.02694835 0.15204354 0.00001045
-0.01861209 0.62447376 0.00000704
-0.57410983 0.00007743 0.00000234
-0.10902166 0.09221228 0.00000966
-0.59330504 -0.68778255 0.00000132
-0.05269319 0.08302485 0.00000331
-0.17823434 -0.77225190 0.00000010
-0.12058482 0.56933880 0.03851327
-0.50088790 -0.18767257 0.14113419
-0.00683508 -0.34350103 0.00000172
-0.41896870 0.02792614 0.00000205
-0.28523148 0.43165198 0.00000391
-0.38498696 -0.03644062 0.05924157
-0.11550810 0.54151098 0.00000494
-0.71880816 -0.56700044 -0.00000058
-0.16661077 0.14733556 0.00000838
-0.54158378 -0.35605748 0.00000100
-0.47353083 0.07838018 0.00000143
-0.40111699 -0.61849974 0.00000068
-0.62173486 0.11522704 -0.00000018
-0.35368176 0.10956481 0.10409857
-0.62711569 0.14313769 0.00000000
-0.66396395 -0.63710938 -0.00000012
-0.14031988 0.44195412 0.00000176
-0.07601775 -0.64227515 0.00000071
-0.08556756 0.64024263 0.02982973
-0.34611122 0.29011462 0.00000405
-0.03495490 0.16821674 0.00001021
-0.01179700 -0.15282363 0.00000243
-0.45981722 0.07164632 0.24314416
-0.76847494 -0.37387947 -0.00000107
-0.04722775 0.33701100 0.00000426
-0.21389920 -0.72632999 0.00000060
-0.07363412 0.55628662 0.00000509
-0.07909305 0.06702805 -0.00000834
-0.26228083 -0.75030903 0.00000019
-0.62371180 -0.54905742 0.09982186
-0.21385800 -0.20854810 0.00000254
-0.42675952 0.28759235 0.00000252
-0.66266385 -0.13762877 -0.00000044
-0.51292701 -0.41264896 0.00000134
-0.23854690 0.03049932 0.00000311
-0.54725790 -0.01893007 0.31990896
-0.49402476 0.02574926 0.26651314
-0.24052340 0.40067859 0.11551623
-0.60569569 -0.04526260 0.00000010
-0.47792662 -0.57329966 0.00000157
-0.46316985 0.03816032 0.22697036
-0.47758926 0.01012024 0.23128284
-0.55267162 0.09498366 0.00000188
-0.20503467 0.22456544 -0.00000138
-0.07648644 0.63235399 0.00000530
-0.57822170 -0.55782390 0.00000074
-0.51632223 0.17452561 0.00000091
-0.27512822 -0.41450680 0.00000186
-0.25318898 0.36066059 0.00000518
-0.36398312 0.26033504 0.21596616
-0.04961147 0.69194024 0.00746899
-0.53621710 -0.52004129 0.00000186
-0.38924023 -0.73560910 0.00000083
-0.11263287 0.55122823 0.01474982
-0.41482872 0.02841967 0.14643147
-0.24214726 0.40256776 0.11921456
-0.20994226 0.30023133 0.00451662
-0.40708308 0.15793418 0.21701624
-0.06111348 0.48426284 0.00000482
-0.10648189 0.56978590 0.01711187
-0.01869684 0.68304805 0.00000659
-0.41851851 0.03869340 0.15865545
-0.16315673 0.44668707 0.00000612
-0.06219540 -0.06585430 0.00000285
-0.06997894 0.28965730 0.00000409
-0.43047526 0.30192768 0.00000232
-0.40605628 0.13591864 0.00000431
-0.42531095 0.34086958 0.00000206
-0.59561376 -0.53557125 0.06520654
-0.19622396 0.33091221 0.00000422
-0.05573983 0.53245229 0.00000508
-0.47786702 -0.19208033 0.10292880
-0.02112684 -0.20270751 0.00000224
-0.19038058 0.45114409 0.00000555
-0.25163139 0.33744682 0.09232301
-0.67959701 -0.69089613 0.09541471
-0.73039064 -0.42763811 -0.00000093
-0.13337957 -0.54585818 0.00000095
-0.01310280 0.17395521 0.00000367
-0.72432681 -0.78940650 0.10145133
-0.60029252 -0.73430246 0.00000115
-0.30461945 0.16328670 0.00000601
-0.33528101 -0.17381516 0.00000285
-0.58770442 -0.61785621 0.00063605
-0.50174776 0.14860337 0.00000236
-0.01993806 0.61245048 0.00000533
-0.45760529 -0.49772981 0.00000182
-0.71708756 -0.70167720 0.14619620
-0.36584642 0.05286695 0.08669170
-0.27214676 -0.05071975 0.00000281
-0.14034065 0.20612671 -0.00000355
-0.33748285 -0.12227355 0.00000305
-0.07296393 0.44558885 0.00000756
-0.61470602 -0.75167255 0.00000018
-0.24180160 0.34716965 0.08340089
-0.06146997 0.29915521 0.00000421
-0.12102733 0.65719302 0.00000499
-0.32518880 0.13391087 0.07579286
-0.45878403 -0.78084843 0.00000076
-0.26441040 0.16243224 0.00049254
-0.54865387 -0.67051384 0.00000131
-0.52659476 -0.68845898 0.00000042
-0.06600070 -0.03104797 0.00000288
-0.00231529 -0.74469324 0.00000021
-0.25962107 -0.30109071 0.00000226
-0.76510626 -0.25853538 -0.00000135
-0.32524338 0.16379609 0.09490454
-0.54671845 -0.06666589 0.28867669
-0.48265387 -0.45028400 0.00000131
-0.19578187 -0.13484159 0.00000249
-0.03781993 -0.19679811 0.00000226
-0.10954773 0.27590156 0.00000420
-0.68347617 -0.50074181 -0.00000042
-0.24630741 0.36562724 0.10208209
-0.07372308 0.18311595 0.00000380
-0.42235437 -0.76059298 0.00000079
-0.37620045 -0.73237709 0.00000082
-0.16522327 0.13223813 0.00000852
-0.35569808 0.08463879 0.00000575
-0.21856403 0.15328838 0.00000755
-0.21015862 0.52482274 0.00000394
-0.41235893 -0.36797924 0.00000162
-0.38706373 0.13073942 0.16891043
-0.05009082 -0.79265864 0.00000003
-0.51111382 -0.58588494 0.00000080
-0.06805519 -0.14825925 0.00000244
-0.54415415 0.12449900 0.00000065
-0.24234944 0.39199959 0.11279396
-0.58774151 -0.61609187 0.00181681
-0.26448489 0.39788880 0.00000345
-0.54983036 -0.09785359 0.00000073
-0.42014046 0.35078797 0.00000207
-0.22428836 0.55787785 0.00000377
-0.32321606 -0.35824806 0.00000166
-0.74393933 0.02745211 -0.00000118
-0.40220924 -0.15566314 0.00978850
-0.00935251 -0.75456551 0.00000018
-0.07012444 0.57266296 0.00000279
-0.66050111 -0.38665712 0.25982713
-0.59308078 0.02500244 0.00000174
-0.04313001 0.66288632 0.00000409
-0.30169352 -0.13467267 0.00000295
-0.63957251 -0.33279724 -0.00000007
-0.27312656 0.36764457 0.14460704
-0.48930798 0.17360019 0.00000120
-0.15319794 -0.20757593 0.00000245
-0.41514389 -0.01015522 0.00000211
-0.24239970 -0.63213357 0.00000063
-0.40850651 0.11728728 0.19331832
-0.04269758 0.26634225 0.00000406
-0.15445500 0.10520833 -0.00000544
-0.21171178 0.05288580 -0.00000506
-0.19643764 -0.56104004 0.00000090
-0.51354865 0.02598987 0.00000104
-0.34561853 0.37676864 0.00000260
-0.30442146 0.26254736 0.00000510
-0.02167687 0.61700835 0.00000247
-0.13258141 0.05995377 0.00000342
-0.16748073 -0.76931303 0.00000037
-0.16201049 -0.09237158 0.00000290
-0.34621420 0.17184562 0.13227874
-0.53200493 0.01350992 0.31711782
-0.18168151 -0.44787908 0.00000159
-0.02752147 0.75396008 0.01300533
-0.31215269 0.39248369 0.00000376
-0.10178612 0.38701314 -0.00000053
-0.52265969 0.12496015 0.00000218
-0.49276898 -0.37812410 0.00734827
-0.58732679 -0.63462005 0.00000062
-0.25059182 0.08630634 0.00000332
-0.05428300 0.68780470 0.01201828
-0.39464305 -0.41917808 0.00000143
-0.37284293 -0.33995146 0.00000229
-0.24448228 0.54245089 0.00000356
-0.22501914 -0.29550661 0.00000223
-0.71194453 -0.53037938 -0.00000067
-0.38998527 -0.05258893 0.05664207
-0.26069419 0.25143520 0.05146922
-0.12164995 0.59021314 0.00000484
-0.03406062 0.56956538 0.00000519
-0.65085305 -0.61626364 0.00000000
-0.37586086 -0.42079800 0.00000142
-0.26778350 0.20463197 0.03255883
-0.42900344 -0.00174129 0.14902403
-0.28564212 0.13250448 0.01407799
-0.00255820 -0.34036386 0.00000172
-0.10055258 -0.35918480 0.00000180
-0.10621239 -0.66371604 0.00000067
-0.65009040 -0.41758427 0.22412080
-0.17515266 -0.50159539 0.00000138
-0.16432574 0.10279645 0.00000875
-0.70831718 -0.02628396 -0.00000100
-0.02894863 -0.09621057 0.00000264
-0.37866056 -0.55409551 0.00000092
-0.12705337 0.40700006 0.00000061
-0.55656761 -0.07299878 0.00000065
-0.24643311 -0.39936413 0.00000150
-0.17031491 0.12750639 0.00000847
-0.30084389 -0.02375967 0.00000291
-0.58146378 -0.75042450 0.00000019
-0.05351713 -0.42780622 0.00000140
-0.14508126 0.26024114 -0.00000220
-0.21795865 0.03461239 0.00000845
-0.48701583 -0.33227400 0.00000156
-0.43566695 0.06527069 0.20195125
-0.12666334 -0.75255643 0.00000037
-0.52980232 -0.54118860 0.00000097
-0.70113728 -0.00536926 -0.00000094
-0.31519281 -0.76456234 0.00000013
-0.53447371 -0.60928165 0.00000152
-0.69222232 -0.42973951 -0.00000056
-0.37894133 -0.03517387 0.05075233
-0.72880624 -0.46518501 -0.00000084
-0.77474556 -0.70009100 -0.00000025
-0.17176183 -0.07402334 0.00000298
-0.05591480 0.60682214 0.00000317
-0.04850520 -0.67066399 0.00000056
-0.19406412 0.02609287 -0.00000614
-0.60892753 -0.71372875 0.00000124
-0.09978646 -0.39539425 0.00000152
-0.12976976 -0.60794986 0.00000092
-0.16372436 0.37977603 0.00000668
-0.31421719 -0.59383180 0.00000077
-0.34946865 -0.57125839 0.00000086
-0.38723289 0.31284945 0.00000305
-0.21128646 -0.55194100 0.00000125
-0.52476644 -0.07310654 0.25082007
-0.55528405 -0.33979922 0.00000084
-0.37019446 -0.37006234 0.00000217
-0.44137359 0.00223397 0.17057053
-0.00793332 0.54497535 0.00000048
-0.21115255 0.30014075 0.00631992
-0.10548980 -0.32098618 0.00000196
-0.43595370 0.33367457 0.00000192
-0.54391444 -0.21421378 0.19038931
-0.50269172 -0.15327711 0.16581489
-0.12739089 0.59468257 0.06512191
-0.01737130 0.29258762 0.00000954
-0.18282813 0.00037803 0.00000300
-0.36471289 -0.03411970 0.02954543
-0.41117116 0.06258851 0.00000211
-0.02398095 -0.63591046 0.00000065
-0.29489621 0.34016633 0.00000316
-0.46653613 -0.79527919 0.00000002
-0.52204992 -0.05741193 0.00000100
-0.00824717 -0.11863711 0.00000256
-0.42888945 0.10693340 0.21806270
-0.52984648 0.02604195 0.32178075
-0.36016465 -0.35023506 0.00000223
-0.64697040 -0.48705793 -0.00000004
-0.59339538 -0.03990821 0.00000023
-0.27640543 -0.67481233 0.00000089
-0.13437529 -0.74980374 0.00000019
-0.40909567 0.20072327 0.00000366
-0.30102977 -0.19729587 0.00000271
-0.03611552 0.75176271 0.00000565
-0.20590474 -0.45220018 0.00000130
-0.09340210 0.59410714 0.00000514
-0.41387484 -0.20957425 0.00000221
-0.37007780 0.17220761 0.00000247
-0.37539619 -0.55422424 0.00000092
-0.01273093 -0.17590976 0.00000234
-0.46833803 -0.26150162 0.04406094
-0.00673075 -0.62476573 0.00000066
-0.25738934 0.25136444 0.04634936
-0.66731491 -0.31469794 -0.00000037
-0.35513206 -0.26192717 0.00000202
-0.17493596 0.10229028 0.00000859
-0.19362966 0.11558045 0.00000821
-0.25203160 -0.27792077 0.00000196
-0.09592449 -0.46027091 0.00000127
-0.01478485 0.57854324 0.00000142
-0.43009917 0.09489006 0.21225506
-0.40592516 -0.40081249 0.00000150
-0.45192441 -0.62661854 0.00000133
-0.05632643 0.12246053 -0.00000771
-0.64048360 -0.31155960 0.27687784
-0.49254734 -0.08670327 0.00000134
-0.08769829 -0.70778179 0.00000035
-0.35872530 0.21016880 0.00000454
-0.20463076 0.29571257 0.00000442
-0.12108167 0.61906171 0.00000483
-0.48451373 0.12583614 0.00000290
-0.43746788 0.00498936 0.16631975
-0.56034346 -0.44262222 0.07017407
-0.58637826 -0.05325854 0.35819883
-0.32695191 -0.49207072 0.00000165
-0.32691519 0.27924342 0.17101039
-0.06335588 -0.44375677 0.00000143
-0.36050137 0.21629109 0.00000254
-0.53801081 -0.00445079 0.31491234
-0.25978083 0.08052051 0.00000369
-0.42676381 0.07137712 0.19215065
-0.43948971 -0.02304347 0.15158049
-0.45005285 -0.02077650 0.00000175
-0.30894812 0.23158841 0.11302807
-0.26701339 0.38481057 0.14614190
-0.12025628 0.35606583 0.00000434
-0.46338821 -0.09230367 0.00000165
-0.61349030 0.09084695 0.00000075
-0.13016187 0.37740682 0.00000721
-0.29638185 0.47580419 0.00000305
-0.61869064 -0.74613917 0.00000020
-0.00951970 -0.58786545 0.00000080
-0.05124996 0.16267678 -0.00000695
-0.51839417 -0.49072636 0.00000116
-0.04791144 -0.66039735 0.00000052
-0.39144290 0.12511386 0.17206537
-0.15659588 -0.41670632 0.00000144
-0.08096913 -0.41009659 0.00000146
-0.50734826 0.01285002 0.00000350
-0.33094909 0.08145703 0.05124139
-0.31804715 -0.41713304 0.00000192
-0.18109056 -0.10981078 0.00000286
-0.49049245 0.26533211 0.00000112
-0.71659314 0.02262078 -0.00000113
-0.38845680 0.02036592 0.00000238
-0.27897244 0.44507045 0.00000391
-0.11628188 -0.43190521 0.00000156
-0.19784489 -0.72513826 0.00000028
-0.14031348 0.28658710 0.00000407
-0.06005338 0.06520098 -0.00000890
-0.52986232 -0.14382021 0.21361697
-0.19856518 0.45952858 0.00000532
-0.36322328 0.05627098 0.00000587
-0.26583293 -0.15816312 0.00000241
-0.26113119 -0.63214378 0.00000102
-0.06139641 0.08508864 0.00001044
-0.39891729 -0.10576411 0.03650819
-0.48373992 -0.39116658 0.00000226
-0.32289047 0.16074121 0.08934754
-0.26847488 0.40565664 0.00000447
-0.66080940 -0.66001032 0.08619732
-0.19856109 -0.63362819 0.00000092
-0.65425929 -0.50143280 0.17712645
-0.42821827 0.09240179 0.20777808
-0.28702236 -0.16346627 0.00000239
-0.43021443 0.03485467 0.00000192
-0.22661314 0.26813377 0.00969884
-0.43126506 0.05151503 0.00000190
-0.31864648 -0.70035573 0.00000085
-0.21749103 0.29336536 0.00000649
-0.69295359 -0.10175265 -0.00000079
-0.09365656 0.52600209 0.00000664
-0.60418069 -0.12558323 0.33950791
-0.02621409 0.30817305 -0.00000435
-0.33921458 0.19147554 0.13402350
-0.52517879 0.14768845 0.00000083
-0.25259635 0.38151694 0.00000500
-0.43668227 0.04518953 0.19072241
-0.10867462 0.12237983 0.00000362
-0.15579358 -0.42686816 0.00000163
-0.13457699 0.23900638 0.00000410
-0.25938160 0.08529701 -0.00000304
-0.51470445 -0.59009781 0.00000079
-0.16756382 0.16287236 0.00000825
-0.20930748 -0.49218037 0.00000115
-0.62927163 -0.40472748 0.20029715
-0.42445368 0.10099000 0.20745944
-0.46559236 -0.42605389 0.00000210
-0.50400998 -0.56959933 0.00000086
-0.74667226 -0.59439690 -0.00000051
-0.69811519 0.02011843 -0.00000023
-0.39708778 -0.41158416 0.00000146
-0.08016631 0.52419039 0.00000509
-0.05717549 0.46791768 0.00000475
-0.15746930 -0.25315404 0.00000205
-0.12716541 -0.25715227 0.00000223
-0.01954334 0.37278486 -0.00000308
-0.57140007 -0.71742713 0.00000031
-0.06528664 0.58846509 0.00000660
-0.51049679 -0.21307153 0.13973225
-0.27161997 0.26426754 0.07644353
-0.67589009 -0.18881832 -0.00000055
-0.31532948 -0.47646729 0.00000169
-0.25915424 0.25184036 0.04935930
-0.02292074 -0.60680716 0.00000076
-0.16995156 -0.17385870 0.00000235
-0.05592725 0.45593605 0.00000479
-0.06571008 -0.12389874 0.00000263
-0.13957707 0.26460622 0.00000420
-0.19972887 0.12000745 0.00000809
-0.13297743 -0.49417653 0.00000135
-0.30124821 -0.64826463 0.00000057
-0.57359652 -0.11427693 0.29968140
-0.09071763 0.60579793 0.01580921
-0.63026800 -0.70460542 0.01083178
-0.08706526 0.60637840 0.01056267
-0.14374472 -0.75743049 0.00000038
-0.08752906 0.41339694 -0.00000032
-0.30464131 0.18735230 0.07823582
-0.20526115 0.38027591 0.04830050
-0.02770825 0.11248672 0.00000346
-0.31637495 -0.26353518 0.00000249
