ply
format ascii 1.0
element vertex 1408
property float x
property float y
property float z
end_header
0.64838383 0.15500527 0.00696161
-0.01409900 0.73860494 0.00000000
-0.06718081 0.38001605 0.00000000
-0.21329749 0.76584825 0.00000000
-0.31605598 0.27865343 0.00000000
0.49520129 -0.53695067 0.00000000
-0.78408604 0.26151580 0.00000000
-0.43881291 0.29351811 0.00000000
-0.55492336 -0.04422198 0.00000000
0.40744347 -0.33528650 0.00000000
-0.45765670 -0.10616505 0.00000000
-0.62240948 0.65427915 0.00000000
-0.49813056 -0.14976852 0.00000000
-0.37528426 0.70201416 0.00000000
0.68597739 0.19097799 0.15803155
-0.66078640 0.11049229 0.00000000
0.63561388 0.29477082 0.26774983
0.56095495 -0.62236827 0.00000000
0.35580683 0.30727149 0.00000000
-0.17202747 -0.76067592 0.00000000
0.46597803 0.41220353 0.16054955
0.71909724 0.04822970 0.00000000
0.46292584 0.39782733 0.12475997
0.04334240 0.61895352 0.00000000
-0.76848099 0.14403885 0.00000000
-0.18356677 -0.75347957 0.00000000
0.28776417 0.55774431 0.09345466
-0.52848283 0.33992178 0.00000000
-0.28029017 -0.33991391 0.00000000
-0.10637669 0.76458470 0.00000000
0.36458525 0.29903077 0.00000000
0.10043464 0.36847406 0.00000000
-0.36063973 0.71477033 0.00000000
0.63457497 0.09353321 0.00000000
0.36251160 -0.46029110 0.00000000
0.40871100 -0.35232694 0.00000000
0.11579308 -0.36788031 0.00000000
-0.78533870 -0.77622003 0.00000000
0.77184965 -0.50844484 0.00000000
-0.31846315 -0.13285484 0.00000000
-0.20508252 0.19228870 0.00000000
-0.77070099 0.72141373 0.00000000
0.07947624 -0.25530559 0.00000000
-0.37093331 0.11433263 0.00000000
0.27017820 -0.54465635 0.00000000
-0.26212358 0.42615483 0.00000000
0.58062174 0.23598312 0.03410046
-0.69589615 -0.50333933 0.00000000
-0.45386940 0.01668973 0.00000000
-0.53372403 -0.24021175 0.00000000
0.09675814 0.38996631 0.00000000
0.39058420 -0.65606422 0.00000000
-0.01142058 -0.30480077 0.00000000
0.62296869 -0.78817274 0.00000000
0.08479770 -0.25753981 0.00000000
-0.19486139 -0.42472859 0.00000000
0.29668401 0.40723507 0.00000000
0.07974796 0.42096226 0.00000000
-0.37988327 -0.66917350 0.00000000
0.64147686 0.23087056 0.14856901
-0.28944406 0.56746577 0.00000000
0.51539981 -0.68052969 0.00000000
-0.02011850 -0.79921741 0.00000000
-0.58904975 0.79181586 0.00000000
0.30298105 0.51512505 0.03718330
0.15366021 -0.49771659 0.00000000
-0.42301924 -0.61963414 0.00000000
-0.70406831 0.57942879 0.00000000
0.10689739 0.32642451 0.00000000
0.42424755 0.50809298 0.27176608
-0.12623242 -0.43114626 0.00000000
0.38199530 0.23526339 0.00000000
0.63745188 0.24214674 0.16345951
0.10710502 0.46280505 0.00000000
-0.43755962 0.07510257 0.00000000
-0.43063466 0.16995251 0.00000000
-0.13925196 -0.37214123 0.00000000
-0.71326280 0.66413327 0.00000000
0.31487654 0.20609587 0.00000000
0.27502813 -0.66286368 0.00000000
0.34230480 -0.54658029 0.00000000
0.49148354 0.43937198 0.26871663
0.59438255 0.28998010 0.17324255
-0.58125924 -0.14362054 0.00000000
-0.51846605 -0.32252070 0.00000000
0.52152892 0.16219363 0.00000000
-0.60448888 -0.28534425 0.00000000
-0.14471102 0.74397196 0.00000000
0.33041035 0.26809969 0.00000000
-0.69901430 -0.15442648 0.00000000
0.75748323 -0.54964288 0.00000000
0.52363721 -0.08304187 0.00000000
0.53392453 -0.57399545 0.00000000
-0.34952773 -0.06055183 0.00000000
0.36405580 -0.52766853 0.00000000
0.03277867 0.76621753 0.00000000
-0.41471023 0.78382077 0.00000000
-0.64004984 0.49674014 0.00000000
-0.06354354 0.27019006 0.00000000
-0.70541985 -0.56780972 0.00000000
-0.52947121 0.25911963 0.00000000
0.13415312 0.27536563 0.00000000
0.27206487 0.65754852 0.26616575
0.36829683 -0.37979361 0.00000000
-0.51365712 0.14593198 0.00000000
0.12760661 0.24504984 0.00000000
0.37829918 -0.44569030 0.00000000
-0.48337673 0.19795175 0.00000000
-0.10794997 0.49490004 0.00000000
-0.22323186 -0.52259021 0.00000000
0.52187754 -0.56415256 0.00000000
0.11112798 -0.54222645 0.00000000
0.22470852 -0.23220396 0.00000000
-0.16280101 -0.06974652 0.00000000
-0.64759000 0.21443373 0.00000000
-0.16306243 -0.45314242 0.00000000
-0.09883280 -0.74171555 0.00000000
0.21769500 -0.46806852 0.00000000
0.59197554 -0.54890776 0.00000000
-0.63285067 -0.69935604 0.00000000
0.31646428 -0.67406474 0.00000000
-0.12819380 -0.08062084 0.00000000
0.56446808 -0.27971492 0.00000000
0.50290184 -0.53644730 0.00000000
0.45051145 -0.58781163 0.00000000
-0.04840113 -0.22113833 0.00000000
-0.38857910 -0.36929757 0.00000000
-0.61115524 0.03003766 0.00000000
-0.22944555 0.03680038 0.00000000
0.14954870 0.32724580 0.00000000
-0.79342983 0.51228369 0.00000000
-0.38136017 -0.76327724 0.00000000
-0.19356076 -0.08013663 0.00000000
0.32588041 -0.53239179 0.00000000
-0.19259423 0.68946704 0.00000000
-0.74238468 0.50692447 0.00000000
0.63017101 -0.40470647 0.00000000
-0.20139504 0.60839834 0.00000000
-0.00200929 -0.04352951 0.00000000
-0.11052392 0.11281593 0.00000000
0.08084140 -0.17866837 0.00000000
-0.37776961 0.12043995 0.00000000
-0.57024458 0.50002785 0.00000000
-0.62578154 0.73690033 0.00000000
0.04510465 0.39700884 0.00000000
0.64987103 -0.56851813 0.00000000
-0.67174603 -0.63425861 0.00000000
0.06256256 -0.47369969 0.00000000
0.56265003 0.08186194 0.00000000
0.19931597 -0.07060298 0.00000000
0.17032633 -0.14159459 0.00000000
0.25509977 -0.27978817 0.00000000
0.59949455 0.38487897 0.37861691
0.04628449 0.53268475 0.00000000
-0.39357413 -0.54756444 0.00000000
-0.06162175 -0.27029608 0.00000000
-0.30145281 -0.71426433 0.00000000
0.45924584 0.16715984 0.00000000
0.15558773 -0.12100373 0.00000000
0.09815142 0.62193157 0.00000000
-0.79638864 0.60592728 0.00000000
0.31838089 0.27810815 0.00000000
0.31957502 -0.58395825 0.00000000
-0.74101368 -0.76861342 0.00000000
-0.73418779 0.59311122 0.00000000
-0.41087612 0.61247420 0.00000000
-0.19574445 -0.68037841 0.00000000
-0.49991293 0.44697664 0.00000000
-0.43297065 0.75737593 0.00000000
0.21115906 -0.59512965 0.00000000
-0.58753984 -0.49470936 0.00000000
-0.37225004 -0.23860762 0.00000000
0.10437701 -0.70565364 0.00000000
-0.39911420 0.28692866 0.00000000
-0.56076881 -0.78769978 0.00000000
0.79399401 -0.03994592 0.00000000
0.51431069 -0.47644263 0.00000000
-0.33941802 -0.06569318 0.00000000
0.39583996 -0.55409977 0.00000000
-0.19242826 0.27561741 0.00000000
0.19000204 -0.77997807 0.00000000
0.12984306 0.73101507 0.12497542
-0.74821326 -0.06831673 0.00000000
0.20124080 0.40754663 0.00000000
-0.35068969 -0.07911488 0.00000000
0.58453823 -0.06223394 0.00000000
0.78710299 -0.31166965 0.00000000
0.63184220 -0.30377477 0.00000000
-0.18914880 0.01630661 0.00000000
-0.60132226 -0.16963304 0.00000000
0.48734336 0.24652781 0.00000000
-0.29603764 -0.24499420 0.00000000
0.57076870 -0.05922269 0.00000000
-0.68811987 0.76029573 0.00000000
0.06439730 0.75461491 0.03904399
0.46834047 -0.71765216 0.00000000
-0.61885348 0.10821910 0.00000000
0.42178208 -0.62493879 0.00000000
0.27722766 -0.39888200 0.00000000
0.57426830 -0.57515569 0.00000000
0.79253254 -0.23488165 0.00000000
-0.38034325 0.61778956 0.00000000
-0.03085952 0.44909679 0.00000000
-0.52849973 0.23755672 0.00000000
-0.14120969 -0.15764974 0.00000000
-0.77129874 -0.64433536 0.00000000
-0.58970272 -0.67480047 0.00000000
0.64163215 -0.21680988 0.00000000
0.24606148 -0.75360388 0.00000000
-0.73138244 0.45027318 0.00000000
0.19314355 0.14932699 0.00000000
0.72511444 -0.20966290 0.00000000
-0.00346965 -0.49421973 0.00000000
0.28361468 0.53488109 0.03798349
0.51157513 0.07185349 0.00000000
-0.44799745 0.05983467 0.00000000
0.04540670 -0.64910765 0.00000000
-0.65843288 -0.29750131 0.00000000
-0.33793652 -0.32240602 0.00000000
0.46853248 0.34755854 0.03304529
-0.70680638 0.49542655 0.00000000
-0.15504823 -0.39461455 0.00000000
0.15292675 0.58079743 0.00000000
0.66826948 0.07954821 0.00000000
-0.31302348 0.72355685 0.00000000
0.22571748 0.45068330 0.00000000
0.14188729 0.12414119 0.00000000
0.04135532 0.69116378 0.00000000
0.58255608 -0.20495504 0.00000000
-0.39693106 -0.68651408 0.00000000
-0.13600225 -0.62715515 0.00000000
0.67197368 0.17767526 0.10195719
0.78700938 -0.61343869 0.00000000
-0.34051095 -0.58727620 0.00000000
0.30194602 0.62507438 0.26084101
0.39373863 0.56976954 0.33576937
-0.53575003 -0.69367072 0.00000000
0.32008850 -0.13034244 0.00000000
0.58112641 -0.68244157 0.00000000
0.72213882 -0.10413578 0.00000000
-0.49907233 0.53509004 0.00000000
-0.50672666 0.55841637 0.00000000
-0.44392392 -0.54105413 0.00000000
-0.41198880 0.19032720 0.00000000
-0.23307088 0.35034226 0.00000000
0.39565741 0.50535510 0.20743338
-0.08608413 0.35678960 0.00000000
0.12671838 0.72442856 0.10503333
-0.76560301 -0.62531321 0.00000000
0.64758536 -0.01380320 0.00000000
0.73557440 -0.49174576 0.00000000
-0.54305199 -0.17321142 0.00000000
-0.40577002 -0.36044858 0.00000000
-0.24961079 -0.15823433 0.00000000
0.70424931 -0.37679633 0.00000000
-0.59138891 -0.25522033 0.00000000
0.65911523 0.26029232 0.24520801
0.58458724 0.21196644 0.00000000
0.52931132 -0.35272162 0.00000000
0.74752700 -0.62852541 0.00000000
-0.33167099 -0.32076431 0.00000000
0.77598091 -0.60805792 0.00000000
-0.60480834 -0.14849480 0.00000000
-0.61885395 0.40284376 0.00000000
-0.34995795 -0.03833678 0.00000000
-0.37695495 -0.21766726 0.00000000
0.54727749 0.25380612 0.00222726
-0.46535373 -0.38699727 0.00000000
0.03037463 0.29626935 0.00000000
0.20606608 -0.53305529 0.00000000
-0.70620292 0.66117117 0.00000000
0.46410993 0.38557255 0.10202607
-0.63489291 -0.56250419 0.00000000
0.28171092 -0.18525170 0.00000000
0.07344138 0.36854757 0.00000000
0.46885558 -0.29774841 0.00000000
0.50750050 -0.35370430 0.00000000
-0.40069421 0.03664032 0.00000000
-0.34389394 -0.15175753 0.00000000
-0.30324688 -0.71327311 0.00000000
0.50629497 0.53140267 0.48811891
-0.44907490 0.75789907 0.00000000
-0.72721780 0.32872804 0.00000000
0.47522811 -0.20342503 0.00000000
0.22910657 0.53270724 0.00000000
0.04998031 -0.33839126 0.00000000
0.51450387 0.45792236 0.35408287
-0.53083154 -0.29842433 0.00000000
0.36178165 0.06606629 0.00000000
-0.60955492 -0.44996158 0.00000000
-0.68381679 0.74210348 0.00000000
-0.62736996 -0.32522973 0.00000000
-0.36130854 -0.02123983 0.00000000
0.03835378 -0.50762894 0.00000000
0.56975755 -0.48022177 0.00000000
-0.33318623 -0.41147943 0.00000000
-0.08539279 -0.70622853 0.00000000
-0.74711815 0.09342348 0.00000000
0.18520020 -0.35163445 0.00000000
0.30763273 -0.05364329 0.00000000
-0.59534778 -0.21010868 0.00000000
0.58729926 -0.14917418 0.00000000
0.43798053 0.04832762 0.00000000
-0.76565996 -0.40091996 0.00000000
0.43409832 -0.46462851 0.00000000
-0.32385031 0.77970444 0.00000000
-0.44714832 -0.64751054 0.00000000
-0.17780771 0.61728138 0.00000000
0.77248310 -0.07965862 0.00000000
0.45012657 0.51457648 0.33822312
0.79383615 -0.71045691 0.00000000
0.55425305 0.26598705 0.04156552
-0.69520693 0.42032467 0.00000000
-0.27686212 0.39941877 0.00000000
-0.69592146 0.05583545 0.00000000
-0.51563087 -0.76766082 0.00000000
0.08232090 -0.06607251 0.00000000
0.18952866 0.27873974 0.00000000
-0.07200390 0.00827536 0.00000000
-0.63770974 0.18918832 0.00000000
0.12830470 -0.66497161 0.00000000
0.34324919 0.60205328 0.29838361
0.01182815 0.24315003 0.00000000
0.15777708 -0.69278122 0.00000000
0.04504574 -0.72705245 0.00000000
0.46831272 -0.24850363 0.00000000
0.29635590 0.09537867 0.00000000
0.44502050 0.50174010 0.30137796
0.14700578 0.49381702 0.00000000
0.03594930 0.15079958 0.00000000
0.40034190 -0.66917663 0.00000000
0.49002823 0.19902886 0.00000000
-0.21668442 0.23065379 0.00000000
-0.35531122 -0.78882831 0.00000000
0.50296233 0.27749323 0.00000000
-0.52808193 0.50166048 0.00000000
-0.03397042 0.12513893 0.00000000
-0.11667756 -0.74201066 0.00000000
0.13787710 -0.37007849 0.00000000
-0.60652873 -0.72370398 0.00000000
0.60720247 0.26189784 0.14190100
-0.36691555 -0.25317067 0.00000000
0.43104723 -0.64293148 0.00000000
-0.55828626 0.78465210 0.00000000
-0.70382884 0.11183907 0.00000000
-0.73030772 -0.07601860 0.00000000
0.20372372 0.12461805 0.00000000
0.01128744 0.14058922 0.00000000
-0.51217159 0.64691003 0.00000000
-0.38683324 0.08862450 0.00000000
0.57820262 -0.52220472 0.00000000
0.48400119 -0.76285201 0.00000000
-0.52656051 -0.20703523 0.00000000
-0.75176152 -0.14463401 0.00000000
0.44111379 0.20485604 0.00000000
0.68691639 -0.41988326 0.00000000
-0.05299921 -0.52761374 0.00000000
0.01183806 0.78767984 0.00000000
-0.67577108 -0.59317697 0.00000000
-0.35046338 0.22925681 0.00000000
-0.57559861 -0.50266924 0.00000000
-0.27395690 0.79368561 0.00000000
0.42305919 0.50008471 0.25288063
0.47065707 0.51857196 0.38858771
-0.77725502 -0.25340896 0.00000000
-0.31680869 0.70716674 0.00000000
-0.60364872 -0.22470778 0.00000000
-0.60306735 0.59932746 0.00000000
0.65793271 0.14307464 0.00207064
0.29226760 0.63956360 0.27072004
-0.06809056 -0.08875231 0.00000000
0.58940068 -0.06090924 0.00000000
0.00927727 -0.61734863 0.00000000
-0.66932961 0.44880604 0.00000000
0.24252943 0.56510509 0.01567968
0.06827474 -0.73039815 0.00000000
-0.17802103 -0.46540249 0.00000000
0.55138537 -0.53300104 0.00000000
0.59628862 0.15752191 0.00000000
-0.00529773 -0.31699876 0.00000000
0.13922197 0.66179591 0.00209226
-0.19932280 -0.77149046 0.00000000
-0.58360076 0.77263157 0.00000000
0.31212122 0.21781090 0.00000000
-0.40418559 0.78996546 0.00000000
-0.38210697 0.44252390 0.00000000
-0.70897769 0.40687310 0.00000000
-0.25251022 -0.00187706 0.00000000
-0.04548415 -0.11553631 0.00000000
0.51187653 0.45356209 0.33973369
0.56080101 0.41006403 0.35087696
-0.17178477 0.30011479 0.00000000
-0.42459285 -0.03779297 0.00000000
0.17354945 0.12012502 0.00000000
-0.27223933 0.22159821 0.00000000
-0.01664456 0.79346915 0.00000000
0.36531402 -0.64431477 0.00000000
-0.39580369 -0.52809070 0.00000000
0.33185438 -0.10303089 0.00000000
-0.46206644 -0.28578217 0.00000000
0.11478270 -0.19976194 0.00000000
-0.77170782 -0.76316816 0.00000000
0.07308713 0.43048108 0.00000000
0.42503278 0.47587284 0.20721388
-0.34335459 -0.51111622 0.00000000
0.38106401 0.58826490 0.34772239
0.38093552 -0.55787529 0.00000000
0.23301967 0.06992816 0.00000000
0.70661970 -0.40726703 0.00000000
-0.26030857 0.18115166 0.00000000
0.55326491 0.40080121 0.31638007
0.03936533 0.60213802 0.00000000
0.55855361 0.42690062 0.38083614
-0.63869454 -0.43831623 0.00000000
0.56141045 -0.79390547 0.00000000
0.26185913 0.61185185 0.15136908
0.16844629 -0.57796848 0.00000000
0.03897997 0.34690740 0.00000000
-0.56192209 -0.25093071 0.00000000
-0.19051922 -0.73155750 0.00000000
-0.19166938 -0.32043041 0.00000000
-0.57113357 0.24277435 0.00000000
-0.71837526 0.18522341 0.00000000
-0.42826378 0.78776283 0.00000000
0.16594033 0.68539132 0.10541265
0.74932553 0.05212525 0.00298124
0.46634231 -0.50440362 0.00000000
0.76944331 -0.08948714 0.00000000
-0.46638517 -0.60440007 0.00000000
0.26089672 -0.48200850 0.00000000
-0.07215378 -0.48603558 0.00000000
-0.03886201 0.69550328 0.00000000
0.39983619 -0.14432110 0.00000000
-0.58385812 -0.32966514 0.00000000
-0.04664458 0.29335078 0.00000000
0.61659482 0.29669209 0.23263915
0.30193641 0.61005820 0.22998527
-0.66730053 -0.56024666 0.00000000
0.40967795 0.53782434 0.30290102
0.54485310 -0.18528952 0.00000000
-0.05487665 -0.10059612 0.00000000
-0.19270187 -0.55089927 0.00000000
0.22423865 0.34962911 0.00000000
0.62792214 0.25229669 0.16473313
0.50494243 0.40152677 0.21863882
-0.34779633 0.26650559 0.00000000
0.42784555 0.29546103 0.00000000
0.51211786 0.50467401 0.44518854
0.33361417 0.58596694 0.24556430
0.48629571 0.47291028 0.32693483
-0.13136806 0.53840281 0.00000000
-0.14818944 -0.57519766 0.00000000
0.42222056 -0.38757669 0.00000000
0.39012316 -0.56410125 0.00000000
0.01928699 0.17821454 0.00000000
0.59337264 0.08112610 0.00000000
-0.21521789 0.68352403 0.00000000
0.04573695 -0.62923358 0.00000000
0.43411732 -0.74705098 0.00000000
-0.02019568 0.57857724 0.00000000
-0.20708933 0.72272739 0.00000000
-0.05847561 0.43453624 0.00000000
0.16492173 0.67282274 0.07751111
0.38581330 0.43699431 0.04683795
-0.32912392 0.72183609 0.00000000
-0.11140062 0.45906211 0.00000000
0.33433425 0.58444686 0.24392150
0.15865893 -0.06850539 0.00000000
-0.47565374 -0.21653404 0.00000000
-0.13288575 0.22928192 0.00000000
-0.62179077 0.38391357 0.00000000
-0.76800100 -0.07459284 0.00000000
0.27216934 -0.18801839 0.00000000
-0.10938188 0.29004371 0.00000000
-0.08559630 -0.57743802 0.00000000
-0.75377769 0.03948313 0.00000000
-0.31907866 -0.63019874 0.00000000
0.56440161 -0.21092101 0.00000000
0.77486647 -0.66581329 0.00000000
0.39528505 0.39502087 0.00000000
0.75541905 -0.16947105 0.00000000
-0.48969930 -0.61320288 0.00000000
0.14595465 0.57809628 0.00000000
0.78727864 -0.75892820 0.00000000
-0.33643315 0.16054931 0.00000000
-0.76348398 -0.57263929 0.00000000
-0.61984136 -0.02728813 0.00000000
-0.49743830 0.78791932 0.00000000
0.60269755 -0.23975598 0.00000000
0.11678498 -0.47865775 0.00000000
0.00339461 -0.48021690 0.00000000
-0.15188316 -0.06397335 0.00000000
0.77039166 -0.64175942 0.00000000
-0.78283001 0.36092548 0.00000000
0.01836753 -0.48834757 0.00000000
-0.05455615 0.17811959 0.00000000
-0.59736886 0.73866975 0.00000000
-0.30337807 0.43292286 0.00000000
0.37045381 -0.03615590 0.00000000
-0.31669427 0.34242443 0.00000000
-0.54536615 -0.31505641 0.00000000
0.36669680 0.59077217 0.32336775
-0.25437888 0.02451462 0.00000000
-0.51427939 0.07575496 0.00000000
-0.18387653 0.33934840 0.00000000
-0.24907754 0.69765666 0.00000000
0.40745458 0.47308591 0.16539366
0.07602094 -0.60418046 0.00000000
-0.44805416 -0.55082027 0.00000000
-0.29665397 -0.53603569 0.00000000
0.02609627 -0.51579700 0.00000000
0.21845245 0.60512455 0.04841791
0.44074989 -0.31900322 0.00000000
-0.27180283 -0.20973530 0.00000000
0.35881095 0.29014216 0.00000000
0.03741388 -0.59229470 0.00000000
-0.69969788 -0.22320231 0.00000000
0.60819894 -0.79184358 0.00000000
0.46209886 0.51048725 0.35441114
0.21850757 0.39204829 0.00000000
-0.41178880 0.10515471 0.00000000
0.29461622 -0.14520082 0.00000000
-0.48397438 -0.27853663 0.00000000
-0.65948613 0.05804843 0.00000000
0.49641266 -0.12221447 0.00000000
-0.64052618 -0.59428030 0.00000000
0.47710101 0.53757260 0.44083862
-0.55952743 0.09270509 0.00000000
0.45879824 0.36982920 0.05878909
0.13787964 -0.31289002 0.00000000
0.30075795 0.64637663 0.30214583
-0.29659068 -0.05125665 0.00000000
0.58027923 -0.47001413 0.00000000
0.14621719 0.05589412 0.00000000
-0.77417899 -0.25899014 0.00000000
0.11861540 0.70973395 0.05821803
0.63083803 -0.36358221 0.00000000
-0.59744426 -0.59083166 0.00000000
0.04496542 0.40585275 0.00000000
-0.29506287 0.03841208 0.00000000
-0.68188267 0.47076445 0.00000000
0.04876162 -0.04774726 0.00000000
0.60511138 0.35556261 0.32994948
-0.43035246 -0.64758376 0.00000000
0.42789595 0.13262651 0.00000000
0.69926336 0.03345936 0.00000000
-0.45135475 0.64027717 0.00000000
0.40148852 0.55875643 0.32906830
-0.04662706 0.17336866 0.00000000
0.10338295 0.24615354 0.00000000
0.47431226 0.31039540 0.00000000
-0.02852717 0.12264659 0.00000000
-0.55185897 0.48948222 0.00000000
0.18530848 -0.41582270 0.00000000
0.61575279 0.19119473 0.01426890
0.36203841 0.10078207 0.00000000
0.73665440 0.08875608 0.05218298
0.63741318 -0.70596869 0.00000000
0.48340224 0.54320824 0.46535123
-0.76640592 -0.16268334 0.00000000
0.27285056 0.57582794 0.09996438
0.05844627 -0.55693185 0.00000000
0.39811051 0.40847664 0.01352889
-0.37993928 0.59254086 0.00000000
-0.42366246 -0.75500151 0.00000000
0.49012352 0.12303961 0.00000000
0.01633951 0.54875720 0.00000000
-0.59742630 0.72593987 0.00000000
-0.11837901 0.01704358 0.00000000
0.09960229 0.71685280 0.03379293
-0.68698877 0.66980331 0.00000000
0.76577847 -0.20732614 0.00000000
-0.21558811 0.20086215 0.00000000
0.20210090 0.66809342 0.14414751
-0.08413123 0.01127754 0.00000000
-0.79202725 -0.48208831 0.00000000
-0.21955522 0.06937779 0.00000000
-0.40417791 0.62131695 0.00000000
-0.52897252 -0.57404292 0.00000000
0.49339303 -0.04973306 0.00000000
-0.06882089 0.60290641 0.00000000
0.48388968 -0.57122998 0.00000000
0.48151453 0.53702497 0.44877731
-0.66253761 0.09923899 0.00000000
-0.70253667 0.31407235 0.00000000
0.33282988 0.23901366 0.00000000
0.03896766 0.40401100 0.00000000
0.32008638 0.35014639 0.00000000
0.58117692 -0.34571771 0.00000000
-0.46649640 0.00404858 0.00000000
-0.26614782 -0.25755471 0.00000000
-0.04581958 -0.37000875 0.00000000
0.29329345 0.20531746 0.00000000
-0.21703799 -0.54693096 0.00000000
0.18322768 0.47325330 0.00000000
-0.29937357 -0.05373407 0.00000000
0.23833761 0.11697637 0.00000000
0.01363377 0.54611895 0.00000000
-0.59620677 0.09812028 0.00000000
-0.57000826 0.14021356 0.00000000
-0.53895874 0.29927653 0.00000000
0.31511909 -0.21855087 0.00000000
-0.67966633 -0.06860954 0.00000000
0.23042967 0.60538587 0.07355000
0.70288780 -0.13538358 0.00000000
-0.29027858 0.53575811 0.00000000
-0.58488617 0.57297362 0.00000000
0.70566060 -0.40151155 0.00000000
0.13299117 0.72457893 0.11822339
0.32088332 0.19387832 0.00000000
-0.13108101 -0.22920171 0.00000000
0.24185724 0.37265681 0.00000000
-0.00550277 0.58464415 0.00000000
-0.77960987 -0.71293749 0.00000000
-0.65233991 0.33196607 0.00000000
0.09728150 0.71902428 0.03348628
0.53926983 0.44066187 0.36949550
0.09637305 0.56057095 0.00000000
0.35125519 0.04852303 0.00000000
0.50029575 0.44209562 0.29240571
-0.04890550 -0.43232733 0.00000000
-0.68311927 0.38941782 0.00000000
0.57189413 0.29902833 0.14564281
-0.50815473 -0.37310160 0.00000000
-0.69421619 0.45578726 0.00000000
0.09173172 0.61114322 0.00000000
0.08032603 0.05158963 0.00000000
0.28317062 -0.45823239 0.00000000
-0.74295334 0.54073686 0.00000000
-0.27047418 -0.67976274 0.00000000
0.11665079 0.59126386 0.00000000
0.12824690 -0.67163246 0.00000000
0.53956373 0.12571756 0.00000000
-0.02843385 -0.15652475 0.00000000
0.36183592 -0.79140324 0.00000000
-0.57727730 -0.72783917 0.00000000
0.55638311 0.07125645 0.00000000
-0.49679170 0.71237879 0.00000000
0.13532293 0.08322364 0.00000000
0.56793696 -0.75401876 0.00000000
-0.35203925 0.67554697 0.00000000
0.14652665 -0.28720694 0.00000000
0.18062323 0.35473232 0.00000000
-0.16456445 0.22822014 0.00000000
-0.64871764 -0.23106969 0.00000000
0.10448947 -0.48804539 0.00000000
-0.62093400 0.25947736 0.00000000
0.12093680 0.69828562 0.03947568
-0.48597350 -0.14950912 0.00000000
0.24075361 -0.24695550 0.00000000
0.50361971 0.40261458 0.21815643
-0.41153733 0.76440614 0.00000000
-0.26359260 0.65304301 0.00000000
0.29310412 -0.57810434 0.00000000
-0.28917479 0.72984247 0.00000000
0.31498057 0.59048682 0.21658150
-0.69286392 0.06662364 0.00000000
-0.52122817 0.02249561 0.00000000
0.13494826 0.60247370 0.00000000
0.35310487 -0.14279014 0.00000000
-0.72353610 0.62943422 0.00000000
0.59145755 0.32637211 0.24196777
-0.11773651 -0.22287471 0.00000000
-0.33059205 -0.68225952 0.00000000
0.47924558 -0.72244006 0.00000000
0.07401648 -0.48548789 0.00000000
-0.58897661 0.51226593 0.00000000
-0.18379831 -0.29916640 0.00000000
-0.60309270 -0.61445704 0.00000000
-0.49941689 0.75600133 0.00000000
0.39173964 0.47959124 0.14648152
0.16796632 -0.08043699 0.00000000
-0.36086989 -0.63136965 0.00000000
0.65637309 -0.41949924 0.00000000
-0.01736215 0.47374825 0.00000000
-0.30899329 0.00723180 0.00000000
0.60009877 0.26050531 0.12445381
0.50755224 -0.57571624 0.00000000
0.42753501 0.57069605 0.40707351
-0.20117795 0.04870354 0.00000000
-0.70260135 0.39290339 0.00000000
0.52635121 0.51849140 0.50279127
0.47839614 0.54213000 0.45285692
-0.66510791 -0.22975123 0.00000000
-0.44841901 0.35436930 0.00000000
0.32762050 -0.35921167 0.00000000
-0.23085355 -0.01182865 0.00000000
0.21553739 0.30834199 0.00000000
0.34421689 -0.75769737 0.00000000
-0.22089281 -0.39972752 0.00000000
0.70511264 0.00925606 0.00000000
-0.64783469 0.26674294 0.00000000
0.24392898 0.04404737 0.00000000
0.55221598 -0.33119237 0.00000000
0.12474508 -0.19250286 0.00000000
-0.65672979 -0.68583937 0.00000000
0.13137565 0.49935999 0.00000000
0.52350537 -0.69981938 0.00000000
0.46298571 0.25812080 0.00000000
0.16531243 -0.12607911 0.00000000
0.67067172 -0.79671642 0.00000000
0.44874085 0.04916966 0.00000000
-0.32464479 0.28237705 0.00000000
-0.37696314 0.78927558 0.00000000
0.74572944 -0.65434010 0.00000000
-0.51612329 -0.29155931 0.00000000
-0.21531634 0.26133338 0.00000000
0.25244523 -0.75274659 0.00000000
0.18854526 0.38007091 0.00000000
0.58855044 -0.06410905 0.00000000
0.33535164 -0.72607035 0.00000000
-0.35380096 -0.18465493 0.00000000
-0.62348876 -0.21837743 0.00000000
0.70546903 -0.67145952 0.00000000
0.43772112 0.57693647 0.44080569
0.31156966 -0.31598884 0.00000000
-0.01085654 -0.45494096 0.00000000
0.52096853 0.51982940 0.49448544
-0.24529505 -0.70761697 0.00000000
0.30863032 0.53718428 0.09408329
0.69267940 0.13243103 0.05156683
0.74151675 -0.46329624 0.00000000
-0.79201270 -0.23266737 0.00000000
0.48916625 -0.42259860 0.00000000
-0.24546633 -0.52090110 0.00000000
-0.51546222 -0.57696756 0.00000000
-0.04286510 -0.13500148 0.00000000
-0.38642540 -0.10709599 0.00000000
0.76721467 -0.27453706 0.00000000
-0.03320466 0.70578943 0.00000000
0.35882079 0.46097297 0.04064894
0.40720787 0.30352509 0.00000000
-0.31358403 0.17875250 0.00000000
0.29806100 -0.19132545 0.00000000
0.19615504 -0.12003239 0.00000000
-0.11734905 0.65572206 0.00000000
0.55818277 0.39013000 0.30456546
-0.76497873 0.01167211 0.00000000
0.01927782 -0.55584321 0.00000000
0.64469306 -0.23776662 0.00000000
-0.73641002 -0.19832396 0.00000000
0.54818152 -0.79379036 0.00000000
-0.53633390 0.42678979 0.00000000
0.11574966 -0.75307947 0.00000000
0.18036641 -0.12476532 0.00000000
-0.72981017 -0.51598259 0.00000000
0.60316518 0.35098172 0.31654599
0.35443043 -0.12338265 0.00000000
0.02658185 -0.65115233 0.00000000
0.04784529 -0.56621934 0.00000000
-0.56653386 -0.13667638 0.00000000
-0.21126286 -0.52592149 0.00000000
-0.68033140 -0.25163163 0.00000000
-0.49286664 0.21968074 0.00000000
0.71251224 -0.65969732 0.00000000
0.39220040 0.27604517 0.00000000
-0.40132906 -0.27060663 0.00000000
-0.07859063 -0.38195262 0.00000000
0.22404421 0.65283088 0.15786663
0.06118666 0.08753442 0.00000000
0.74037229 -0.18307076 0.00000000
-0.73653690 -0.47135481 0.00000000
-0.46361813 0.30206299 0.00000000
-0.40434252 0.05424049 0.00000000
-0.74297493 0.74339803 0.00000000
0.67374956 -0.05464312 0.00000000
0.74640149 -0.00104529 0.00000000
-0.17245681 -0.38109813 0.00000000
-0.22184972 -0.22553106 0.00000000
-0.36792218 -0.11631340 0.00000000
0.03613975 -0.24798183 0.00000000
0.10704652 -0.30669646 0.00000000
-0.36344680 0.52256501 0.00000000
0.53699743 0.32337640 0.12398099
-0.13332799 -0.38567685 0.00000000
0.57197339 -0.36206936 0.00000000
-0.31256243 -0.76628924 0.00000000
-0.66268553 0.16904353 0.00000000
0.72724726 -0.72676002 0.00000000
-0.01535025 -0.34709168 0.00000000
-0.43406585 -0.27223103 0.00000000
0.21885453 0.52127422 0.00000000
0.08879341 0.62492394 0.00000000
0.60951107 0.31770506 0.26124309
-0.75619356 0.77452546 0.00000000
-0.64825448 0.74558781 0.00000000
-0.03983617 -0.49649079 0.00000000
-0.55241418 -0.53397399 0.00000000
-0.39017742 -0.11132822 0.00000000
-0.70913794 0.37640384 0.00000000
0.46524855 0.44811710 0.23280083
0.53894344 0.51301017 0.51739385
-0.51841018 -0.18442818 0.00000000
-0.27006467 -0.62685300 0.00000000
-0.13770204 -0.09029483 0.00000000
-0.56266293 0.63862656 0.00000000
-0.73866113 0.51888077 0.00000000
0.68790188 -0.43906935 0.00000000
-0.15222519 0.25501131 0.00000000
-0.57766791 0.08383267 0.00000000
0.05635281 0.08969739 0.00000000
-0.47238133 0.32163238 0.00000000
-0.05518153 0.01347685 0.00000000
0.20315476 -0.35033722 0.00000000
0.23387724 -0.51264463 0.00000000
-0.61636410 -0.54673599 0.00000000
0.19136758 0.53852667 0.00000000
0.16490414 0.48922477 0.00000000
0.58895966 -0.27061149 0.00000000
0.37374725 -0.28335026 0.00000000
-0.02350841 -0.42588073 0.00000000
-0.36417322 0.03600711 0.00000000
-0.07558986 0.63242663 0.00000000
-0.50241491 0.33307031 0.00000000
0.41668734 -0.51823683 0.00000000
-0.23430235 0.39045727 0.00000000
-0.11901867 0.01260468 0.00000000
-0.31520005 -0.26133755 0.00000000
0.48541001 0.33194766 0.03564638
-0.67463604 0.74256760 0.00000000
0.52070486 0.44957226 0.34966964
0.29439124 -0.36547337 0.00000000
-0.01641055 -0.22180968 0.00000000
-0.41235743 0.75475073 0.00000000
0.41195322 0.54722500 0.32687776
0.12770887 -0.52768395 0.00000000
-0.11701523 -0.49339968 0.00000000
-0.04485551 0.71871119 0.00000000
-0.48944929 0.02114192 0.00000000
0.54690583 0.05654927 0.00000000
-0.51358468 0.60969068 0.00000000
-0.79387433 -0.71094938 0.00000000
-0.36578026 -0.46285859 0.00000000
0.20888802 0.46045137 0.00000000
0.52859487 0.23680296 0.00000000
-0.06705970 -0.11879796 0.00000000
-0.78311115 -0.05978934 0.00000000
0.38587832 0.59697922 0.37550367
0.26552710 -0.13180986 0.00000000
0.22796338 -0.63800760 0.00000000
0.47900657 0.34243335 0.04402937
0.35797251 0.37817317 0.00000000
0.20053945 0.39681657 0.00000000
-0.54862304 0.41771901 0.00000000
-0.55663536 0.72139125 0.00000000
-0.14774344 0.63670270 0.00000000
-0.73840362 0.26134813 0.00000000
-0.46827802 0.38836158 0.00000000
-0.61302229 -0.75057572 0.00000000
-0.63484775 0.52711273 0.00000000
-0.68325662 0.30439836 0.00000000
-0.39161276 -0.66370888 0.00000000
-0.56855719 -0.62568312 0.00000000
-0.31671188 -0.42100881 0.00000000
0.17016863 0.18824267 0.00000000
-0.35613785 0.70482150 0.00000000
0.23481074 -0.05580505 0.00000000
0.39916471 0.56092811 0.32875590
-0.11188826 0.40802001 0.00000000
0.18683406 -0.08660209 0.00000000
-0.60252256 0.31215978 0.00000000
0.70702751 -0.36694675 0.00000000
0.67131061 -0.45680684 0.00000000
-0.41493596 -0.53892604 0.00000000
-0.48876542 -0.30013313 0.00000000
-0.25402479 -0.47180299 0.00000000
-0.70738637 0.31733297 0.00000000
0.01019926 0.55986417 0.00000000
-0.41049856 -0.59326800 0.00000000
0.35664989 0.23494498 0.00000000
0.64130894 -0.46861558 0.00000000
-0.16953284 0.78766497 0.00000000
0.43095061 -0.06690574 0.00000000
-0.58956998 -0.71517395 0.00000000
-0.02620795 0.17108802 0.00000000
-0.69612809 0.35650990 0.00000000
0.07346601 0.39538093 0.00000000
0.40860861 0.39171073 0.00065781
-0.79292632 -0.33995864 0.00000000
-0.26336860 -0.15279703 0.00000000
0.03255678 -0.66136785 0.00000000
0.51900177 -0.72303079 0.00000000
-0.20650230 -0.40340404 0.00000000
-0.34962681 -0.17735969 0.00000000
-0.36104542 -0.39061251 0.00000000
0.33217848 -0.51160297 0.00000000
0.14425921 -0.24205031 0.00000000
0.22948496 -0.28430297 0.00000000
-0.07938629 -0.42446188 0.00000000
0.58225891 0.30357366 0.17626105
-0.66218123 -0.73083989 0.00000000
-0.50469060 -0.27002385 0.00000000
0.28173653 0.16717902 0.00000000
0.42343163 -0.59474905 0.00000000
0.63692922 0.17604983 0.02665480
-0.60700653 0.25561399 0.00000000
-0.71350932 0.44078727 0.00000000
0.16873164 0.68458810 0.10949523
-0.40300632 -0.51963614 0.00000000
0.00209170 -0.67306516 0.00000000
0.73933250 -0.67879324 0.00000000
-0.56364781 0.64418771 0.00000000
-0.69347450 -0.36074900 0.00000000
0.47989344 -0.63657334 0.00000000
-0.20698092 -0.33557939 0.00000000
0.68438925 -0.46095734 0.00000000
0.45669950 0.22968424 0.00000000
0.60293081 0.14396708 0.00000000
0.17932109 0.65757842 0.07577596
-0.02633942 -0.26918593 0.00000000
-0.06038746 0.31469402 0.00000000
-0.65987749 -0.51528049 0.00000000
-0.20499251 -0.57553236 0.00000000
0.65652782 0.16081028 0.03560619
0.74995568 -0.53601239 0.00000000
-0.06507591 0.04665951 0.00000000
0.02593937 -0.61622956 0.00000000
-0.18772708 -0.62105799 0.00000000
0.42706918 -0.33967854 0.00000000
0.24818002 -0.45827657 0.00000000
0.68936328 -0.17607391 0.00000000
-0.24025741 -0.18839574 0.00000000
0.33036979 0.13366412 0.00000000
-0.77192205 0.53186084 0.00000000
0.41051127 0.47723923 0.18019956
0.39489749 0.08083282 0.00000000
0.60580801 -0.54186855 0.00000000
-0.63216066 0.74214594 0.00000000
-0.33209654 -0.18489094 0.00000000
0.34777406 0.18863226 0.00000000
-0.03030719 0.76829348 0.00000000
0.65137825 -0.61830696 0.00000000
0.72005263 0.04804335 0.00000000
-0.74131048 0.32408578 0.00000000
-0.16936975 0.41711884 0.00000000
-0.78993405 -0.33720331 0.00000000
0.20944421 0.36760056 0.00000000
-0.22942746 0.01138028 0.00000000
0.56547234 0.45259099 0.44779954
0.76141396 0.04060322 0.00414435
0.31620737 0.58695871 0.21185572
-0.17551276 -0.24363928 0.00000000
0.22554229 -0.34705992 0.00000000
-0.69359303 -0.23862753 0.00000000
0.42323472 -0.35733187 0.00000000
-0.16176620 0.58439721 0.00000000
0.59324917 0.31934787 0.23122246
-0.02969096 0.46101568 0.00000000
0.68321152 0.13198035 0.03119887
0.48786034 -0.38124474 0.00000000
-0.42998827 0.55325057 0.00000000
-0.50592838 -0.55780688 0.00000000
-0.19669733 -0.50242599 0.00000000
-0.07920199 -0.22160523 0.00000000
-0.32171917 -0.74912675 0.00000000
0.19203956 -0.23671956 0.00000000
-0.74597555 0.46304187 0.00000000
-0.29389669 -0.31133580 0.00000000
-0.49886910 0.42479398 0.00000000
-0.01280974 -0.69530066 0.00000000
-0.04707466 -0.20420585 0.00000000
0.05359447 -0.13807423 0.00000000
-0.53022448 0.01630300 0.00000000
-0.03158542 -0.70358644 0.00000000
0.41050303 0.41681801 0.05610637
0.44624625 -0.10262363 0.00000000
-0.60305603 0.52698141 0.00000000
-0.70478193 0.71489519 0.00000000
0.00908923 -0.56119216 0.00000000
-0.58348754 0.56103005 0.00000000
-0.50480003 0.14705757 0.00000000
-0.02285065 -0.20519721 0.00000000
0.49156010 -0.42409197 0.00000000
-0.62030136 0.67850634 0.00000000
0.36356896 0.02698113 0.00000000
0.18044774 -0.44139654 0.00000000
0.58542033 0.24557444 0.06365046
0.35596257 -0.59852210 0.00000000
-0.41674371 -0.25592411 0.00000000
0.34529447 0.38423061 0.00000000
0.29671251 0.32145597 0.00000000
-0.46940957 0.46749781 0.00000000
0.08175591 0.54028749 0.00000000
-0.79072493 -0.53230599 0.00000000
0.49070411 0.23851733 0.00000000
0.26752474 0.18483040 0.00000000
0.59652874 0.23163842 0.05784390
-0.05670908 -0.24972024 0.00000000
-0.62321268 0.12160443 0.00000000
0.72547149 0.09664060 0.04540968
-0.08406646 0.58686484 0.00000000
0.44099667 -0.36941644 0.00000000
-0.53834567 0.66214559 0.00000000
0.34728751 0.51396673 0.12578892
0.64118810 0.29361621 0.27682557
-0.65230386 0.55887140 0.00000000
-0.21597642 -0.07392397 0.00000000
-0.14916156 -0.31596279 0.00000000
-0.70373855 0.42149241 0.00000000
0.01746354 -0.18699657 0.00000000
-0.63696083 -0.75236645 0.00000000
-0.40008912 -0.79160433 0.00000000
-0.49847108 -0.72982978 0.00000000
0.69175441 0.17511594 0.13732175
-0.21293065 -0.39986947 0.00000000
0.39951713 0.11119720 0.00000000
0.18894215 0.63907909 0.05754423
-0.42315598 0.77300392 0.00000000
-0.65164299 -0.74329824 0.00000000
0.26807482 0.51473850 0.00000000
0.40444367 0.40080128 0.01077265
0.33666747 0.58678212 0.25350830
0.11324971 0.68776143 0.00207843
0.37067816 0.54042913 0.22816319
-0.61608541 -0.51941030 0.00000000
-0.16730166 -0.25856429 0.00000000
0.22821606 0.62375309 0.10672178
-0.19265366 -0.39640463 0.00000000
0.66937875 0.18675275 0.11526928
0.60310413 -0.47700651 0.00000000
-0.45009170 0.58300736 0.00000000
-0.01857657 0.53640705 0.00000000
-0.17099280 -0.76195665 0.00000000
-0.42769341 -0.28436310 0.00000000
0.75368153 -0.50447713 0.00000000
0.63331562 0.26853874 0.20916215
0.05043964 -0.61469876 0.00000000
0.72838772 -0.02855186 0.00000000
-0.26428800 -0.70886080 0.00000000
0.39738511 -0.02609243 0.00000000
-0.66489219 -0.28444337 0.00000000
0.23235345 -0.29062358 0.00000000
0.51684312 0.51787856 0.48200774
-0.29100978 -0.48948084 0.00000000
0.78033081 -0.66702239 0.00000000
0.76410507 -0.17985908 0.00000000
0.50278870 -0.41929901 0.00000000
-0.43678790 -0.63293365 0.00000000
0.49719334 -0.33136934 0.00000000
0.24884196 0.60041486 0.10115197
0.22398394 0.60002035 0.04929536
0.04667445 -0.34014136 0.00000000
-0.14209972 -0.69199339 0.00000000
-0.29500404 0.69497033 0.00000000
0.28510580 -0.11094840 0.00000000
-0.78594077 0.66084406 0.00000000
-0.13032568 0.59301169 0.00000000
-0.51458453 0.02864242 0.00000000
0.67933593 0.01600667 0.00000000
-0.00456647 0.50834183 0.00000000
-0.33843107 0.40878234 0.00000000
0.75674939 -0.29943807 0.00000000
0.19792568 -0.75984707 0.00000000
-0.31420853 0.25440431 0.00000000
-0.32544198 -0.26810768 0.00000000
0.21757300 -0.59364980 0.00000000
-0.61659554 0.36139580 0.00000000
0.00078997 0.23145745 0.00000000
-0.23363315 -0.39821153 0.00000000
0.10735097 0.61196863 0.00000000
-0.00502453 0.35150392 0.00000000
0.25914798 0.21030378 0.00000000
-0.34220911 -0.77414540 0.00000000
0.02379777 -0.68074061 0.00000000
-0.10912000 0.02113177 0.00000000
0.02899107 0.52762129 0.00000000
-0.72113102 -0.07694025 0.00000000
0.60461983 -0.69683613 0.00000000
-0.44477474 0.72321239 0.00000000
0.12941478 0.26724189 0.00000000
0.04893237 -0.42390084 0.00000000
-0.17889144 0.18687520 0.00000000
0.35668758 -0.49139353 0.00000000
0.22954159 -0.12673278 0.00000000
0.06243430 -0.02825190 0.00000000
0.07703634 0.24442923 0.00000000
-0.35947793 0.24537352 0.00000000
0.71614588 -0.33521145 0.00000000
-0.71766480 -0.00304480 0.00000000
-0.52837202 0.07273546 0.00000000
0.48484375 -0.68316306 0.00000000
-0.17755625 -0.02052848 0.00000000
-0.04996333 -0.37268454 0.00000000
-0.56647188 0.22502996 0.00000000
-0.36079423 0.75281450 0.00000000
-0.43769494 -0.63392031 0.00000000
0.14795945 -0.30584039 0.00000000
0.78372466 -0.50234682 0.00000000
-0.53259393 0.56281044 0.00000000
-0.22991908 0.08717073 0.00000000
0.16688152 0.05143611 0.00000000
0.26271247 0.02930677 0.00000000
-0.58643160 0.09032707 0.00000000
0.42286269 0.50160518 0.25559940
0.46748079 0.54367183 0.43360820
0.54791032 0.27391333 0.04481736
0.28002109 -0.39667103 0.00000000
-0.09054942 0.75208926 0.00000000
-0.16776914 -0.74739128 0.00000000
0.11758170 0.71569152 0.06832929
0.04912202 -0.75964368 0.00000000
0.12588111 -0.76482263 0.00000000
0.69919016 -0.57940740 0.00000000
0.57698454 -0.67847618 0.00000000
-0.11759494 -0.72849337 0.00000000
0.43143160 -0.40532035 0.00000000
0.08192608 -0.40698865 0.00000000
0.10816812 0.12103508 0.00000000
0.60497873 -0.50660902 0.00000000
-0.44936894 -0.18831255 0.00000000
-0.27209941 0.18125310 0.00000000
-0.68264180 -0.74912635 0.00000000
0.00300991 0.34923235 0.00000000
-0.60999411 0.43949876 0.00000000
0.06198773 -0.71022898 0.00000000
-0.20555751 0.57234249 0.00000000
-0.73701056 0.34516963 0.00000000
-0.11917175 -0.57321539 0.00000000
-0.10498531 -0.48781208 0.00000000
0.49366511 -0.51542303 0.00000000
-0.54172330 0.58692374 0.00000000
-0.18688337 -0.72185325 0.00000000
0.72569519 -0.68624433 0.00000000
-0.24867489 -0.29175916 0.00000000
0.06812242 -0.66242615 0.00000000
0.19049447 0.19320431 0.00000000
0.36421736 0.51330942 0.15920495
-0.45413552 0.36450075 0.00000000
0.47662267 -0.21599674 0.00000000
0.66196598 -0.72253172 0.00000000
-0.43828229 0.71312108 0.00000000
-0.55775513 -0.16682616 0.00000000
0.18061986 -0.25236742 0.00000000
0.19593482 -0.29569690 0.00000000
-0.67169715 0.53453480 0.00000000
0.44142801 0.50056845 0.29159471
-0.40353752 -0.76376049 0.00000000
-0.39184185 0.22498062 0.00000000
0.38183427 -0.65250531 0.00000000
0.41988700 -0.05427092 0.00000000
0.38664086 0.56168530 0.30459282
0.61509745 0.00978757 0.00000000
-0.17010680 -0.10392784 0.00000000
-0.20002125 0.15906699 0.00000000
0.46171872 0.45725233 0.24431163
-0.48836631 -0.46068336 0.00000000
-0.79628796 -0.39872971 0.00000000
-0.05060529 0.75139772 0.00000000
0.53658336 0.43713688 0.35674016
-0.00299974 0.51376325 0.00000000
0.34516651 0.46927229 0.02965242
-0.32567984 0.23958641 0.00000000
-0.10948829 0.40576329 0.00000000
0.29059013 0.51450637 0.01046780
-0.58775797 0.55305877 0.00000000
-0.69799988 -0.61922141 0.00000000
-0.20826145 -0.20675269 0.00000000
0.36740319 0.49177886 0.12153364
0.34806166 0.61865559 0.34235925
-0.60810563 0.41727631 0.00000000
0.06123469 0.40128557 0.00000000
0.06253295 -0.64870311 0.00000000
-0.10299504 -0.57053288 0.00000000
-0.60260507 0.77372006 0.00000000
-0.51808133 -0.57139294 0.00000000
-0.04065378 -0.70487273 0.00000000
-0.74893845 0.16929975 0.00000000
0.37545881 -0.62764316 0.00000000
-0.71492064 -0.62022597 0.00000000
-0.73143306 0.50405300 0.00000000
-0.37256168 -0.53185876 0.00000000
-0.73144139 0.71155467 0.00000000
-0.05908504 -0.45016935 0.00000000
-0.35109455 -0.50682550 0.00000000
-0.58829149 -0.54125045 0.00000000
-0.59254054 0.45127971 0.00000000
-0.10172521 -0.65441785 0.00000000
0.72204979 -0.18394804 0.00000000
-0.40309768 0.45588962 0.00000000
0.38929453 0.49310192 0.16920491
0.47820674 -0.73949531 0.00000000
0.27300727 0.61150047 0.17354043
-0.42160187 -0.43551113 0.00000000
0.43986229 0.52130879 0.33097015
-0.69529895 -0.34611276 0.00000000
0.52852489 -0.34529932 0.00000000
-0.10447926 0.64639940 0.00000000
0.19305526 -0.18069422 0.00000000
-0.49274483 0.49670261 0.00000000
-0.74984536 0.15850647 0.00000000
-0.23754909 0.63173420 0.00000000
0.60341630 -0.22141790 0.00000000
-0.38895833 0.47815058 0.00000000
-0.07457819 -0.28832418 0.00000000
-0.57273891 0.17644201 0.00000000
0.55310258 0.48213319 0.48306346
0.54884446 0.19823297 0.00000000
-0.18897885 -0.20331542 0.00000000
-0.77446200 0.30932153 0.00000000
0.63645507 0.31511717 0.31125890
0.40961816 -0.78042548 0.00000000
-0.33963575 -0.63118791 0.00000000
-0.75281689 -0.67110496 0.00000000
0.47102075 -0.74100077 0.00000000
-0.01800844 0.30114057 0.00000000
0.07987168 0.68716548 0.00000000
-0.00296107 -0.20014305 0.00000000
0.49367435 -0.11779635 0.00000000
-0.22670688 -0.63107571 0.00000000
-0.78047615 0.64360361 0.00000000
-0.04110973 0.39149321 0.00000000
0.49958558 -0.17101452 0.00000000
-0.21830204 -0.77005822 0.00000000
0.45198032 0.28715578 0.00000000
-0.40118908 0.65113238 0.00000000
-0.26264004 -0.77575652 0.00000000
0.50973377 0.35921554 0.14159093
0.24223992 0.58649959 0.05901924
-0.75257165 0.32854760 0.00000000
0.58976511 0.35931676 0.30614484
-0.01962146 -0.05716085 0.00000000
0.08457860 -0.10162599 0.00000000
0.39203253 -0.13748797 0.00000000
-0.07684391 -0.04582479 0.00000000
-0.05257524 -0.78748352 0.00000000
-0.68965631 0.65339005 0.00000000
0.50019268 -0.14696242 0.00000000
0.09204594 -0.19210130 0.00000000
-0.46389966 0.02359231 0.00000000
-0.36487913 -0.62135217 0.00000000
-0.01828744 0.23879548 0.00000000
-0.15905039 -0.48847294 0.00000000
0.53479691 0.02855889 0.00000000
0.78822570 0.00739817 0.00000000
-0.33498827 -0.21222336 0.00000000
0.21137850 0.18760387 0.00000000
-0.53827936 -0.47101940 0.00000000
0.42188040 0.15051784 0.00000000
0.23846035 -0.18255255 0.00000000
-0.48033882 -0.12629105 0.00000000
-0.70148293 -0.30961594 0.00000000
-0.61140138 -0.53384326 0.00000000
0.06502918 0.38825324 0.00000000
-0.55866628 0.05126824 0.00000000
0.67721685 -0.19040513 0.00000000
0.62593815 -0.76820733 0.00000000
0.32583037 0.42586475 0.00000000
-0.73858078 -0.07610124 0.00000000
0.58504348 -0.77115432 0.00000000
0.29320118 -0.74983798 0.00000000
0.24824947 0.02438443 0.00000000
-0.57150567 0.31757028 0.00000000
0.08508697 0.55263221 0.00000000
-0.66798590 0.65461621 0.00000000
0.54244489 0.47680925 0.45024486
-0.78350432 -0.56530902 0.00000000
-0.23311062 -0.47334825 0.00000000
0.32067857 -0.22657735 0.00000000
0.43530544 0.02618576 0.00000000
0.27106783 -0.61840067 0.00000000
-0.66878656 -0.18609773 0.00000000
0.10619980 -0.74939937 0.00000000
-0.06700609 -0.78582893 0.00000000
-0.60548038 0.20554258 0.00000000
-0.38572263 0.32606553 0.00000000
-0.32325611 -0.17638777 0.00000000
0.62394410 -0.54643679 0.00000000
-0.41722833 -0.59338519 0.00000000
0.31904798 -0.23641456 0.00000000
0.56145275 -0.27176138 0.00000000
-0.50466557 0.74315112 0.00000000
-0.58260635 0.00578655 0.00000000
-0.19962817 -0.05730248 0.00000000
-0.09702173 -0.48650146 0.00000000
0.64573223 0.14788860 0.00000000
0.66236294 -0.32620895 0.00000000
0.49997909 0.46510150 0.33899846
-0.23209167 0.11107170 0.00000000
-0.13748383 -0.00997558 0.00000000
0.38453277 -0.21138171 0.00000000
0.20065052 -0.62377615 0.00000000
0.24917786 -0.04066408 0.00000000
-0.07577528 0.14253688 0.00000000
-0.61100760 0.66543802 0.00000000
-0.61672424 0.27539286 0.00000000
-0.13695669 -0.20380614 0.00000000
0.27275933 0.59277149 0.13457096
-0.06788924 -0.51091328 0.00000000
-0.59407431 0.34298785 0.00000000
-0.46147125 0.33720740 0.00000000
-0.43696007 -0.08268336 0.00000000
0.27361836 -0.18825432 0.00000000
-0.22341392 0.71213818 0.00000000
0.41897171 0.32073797 0.00000000
0.57366866 0.26360644 0.07654726
-0.14493945 0.50590532 0.00000000
0.05611658 0.52106116 0.00000000
0.75753459 -0.25465797 0.00000000
0.35460441 -0.54695260 0.00000000
-0.02931925 0.48872529 0.00000000
0.35757881 0.27079766 0.00000000
-0.01692987 0.05528126 0.00000000
0.12013364 0.41311716 0.00000000
0.58789948 -0.04907413 0.00000000
0.30793737 0.61031864 0.24284316
0.13242926 0.14346011 0.00000000
-0.78182140 -0.26914782 0.00000000
0.36373966 -0.67909824 0.00000000
0.35200605 -0.39005862 0.00000000
0.61134181 -0.09928190 0.00000000
0.64847536 0.25018264 0.20259835
0.57215129 -0.32920318 0.00000000
0.35572830 -0.35718191 0.00000000
-0.45210621 -0.59130361 0.00000000
-0.44877329 -0.57444802 0.00000000
0.51442017 0.06799891 0.00000000
-0.63574665 -0.07997917 0.00000000
-0.46546174 -0.51119129 0.00000000
-0.17826580 0.22268102 0.00000000
-0.57837615 0.40266982 0.00000000
0.57083000 0.39574016 0.34205735
0.23679053 -0.32963587 0.00000000
-0.35130064 -0.07686596 0.00000000
0.11724575 -0.28743274 0.00000000
0.09241217 0.10835863 0.00000000
0.78285359 -0.08401900 0.00000000
-0.22277073 -0.21794703 0.00000000
0.29344072 -0.66049990 0.00000000
0.45153540 -0.78260340 0.00000000
0.68268890 -0.45821063 0.00000000
0.21358594 -0.46426374 0.00000000
0.09631920 0.72427647 0.04229569
0.42990659 -0.47724371 0.00000000
-0.74702962 0.03443856 0.00000000
0.27906141 0.56909111 0.09888428
0.33533484 -0.22597483 0.00000000
0.74929140 -0.09550460 0.00000000
0.24811215 0.63633941 0.17342506
0.49048375 -0.25190170 0.00000000
-0.21183176 -0.70001642 0.00000000
0.53929467 0.38661064 0.25855130
0.54768919 0.44951974 0.40497462
0.20506958 0.67790478 0.17039157
0.63698193 0.12028645 0.00000000
0.24863989 0.34525532 0.00000000
-0.37956594 -0.67826285 0.00000000
-0.40729878 -0.79252927 0.00000000
0.70250693 -0.29746865 0.00000000
0.70303812 -0.52494800 0.00000000
-0.79677741 0.19664179 0.00000000
0.65583039 -0.01988656 0.00000000
0.28793449 -0.12007058 0.00000000
-0.46502656 -0.72044979 0.00000000
0.19339880 -0.62500514 0.00000000
-0.73643896 0.50551922 0.00000000
0.10529017 -0.42919646 0.00000000
-0.13062113 0.39637385 0.00000000
-0.03518537 0.62435389 0.00000000
0.48020659 -0.63221053 0.00000000
0.39471128 0.49452200 0.18324449
-0.20326761 -0.57770157 0.00000000
-0.45913768 0.64802721 0.00000000
-0.19611314 -0.38289671 0.00000000
-0.65700677 0.45230346 0.00000000
0.18662902 -0.77010198 0.00000000
0.59518225 0.35238105 0.30302643
0.70578097 0.01879747 0.00000000
0.52932519 -0.59629524 0.00000000
0.12431660 -0.05645320 0.00000000
0.75480014 -0.39082085 0.00000000
0.39505737 0.23161861 0.00000000
-0.50090038 -0.11057725 0.00000000
0.12634924 -0.73482713 0.00000000
-0.65023904 0.20786210 0.00000000
0.13905600 0.63722977 0.00000000
-0.73359474 -0.34445156 0.00000000
0.76175592 -0.72933286 0.00000000
0.04836547 0.47272209 0.00000000
0.48067005 0.43888711 0.24551523
-0.47587676 0.07311061 0.00000000
-0.61817476 -0.44139350 0.00000000
-0.09608060 -0.34578215 0.00000000
-0.28841640 -0.68672563 0.00000000
-0.66652940 0.65474031 0.00000000
-0.42813103 -0.21281438 0.00000000
0.41145620 -0.73798625 0.00000000
-0.16837930 -0.51500889 0.00000000
-0.22720197 -0.10573011 0.00000000
0.56656002 -0.33450075 0.00000000
0.51073857 0.16348635 0.00000000
0.27677763 0.29523953 0.00000000
0.32059061 -0.45256078 0.00000000
-0.52126741 -0.02155532 0.00000000
-0.11059653 -0.41481057 0.00000000
-0.08767560 -0.49572293 0.00000000
-0.02270911 -0.05070799 0.00000000
0.32374146 0.24092548 0.00000000
0.31413046 -0.30743306 0.00000000
0.14337610 -0.64455434 0.00000000
0.53614325 0.02835272 0.00000000
-0.21823624 0.12219760 0.00000000
-0.10915595 -0.08335085 0.00000000
0.13069601 0.68052312 0.02304074
0.61844669 0.23544403 0.11066778
0.02216648 -0.57311828 0.00000000
0.04538084 -0.31660759 0.00000000
-0.03122782 -0.52734359 0.00000000
0.27669933 0.52401541 0.00146976
