ply
format ascii 1.0
element vertex 1408
property float x
property float y
property float z
end_header
0.56938774 0.44272502 0.28207845
-0.21473563 0.72396979 0.00000000
-0.47348246 -0.52730748 0.00000000
-0.32998173 0.63135090 0.00000000
-0.64487798 -0.69622849 0.00000000
-0.31265964 -0.30971931 0.00000000
-0.30264314 0.54577106 0.00000000
0.20392484 -0.22832653 0.00000000
0.67464919 -0.60178376 0.00000000
-0.11138884 -0.50804581 0.00000000
-0.23797724 0.63275294 0.00000000
0.47524331 -0.01403701 0.00000000
-0.20291193 0.48759025 0.00000000
-0.60520901 -0.14554090 0.00000000
0.01384442 0.79270600 0.00871237
-0.44650764 0.12974801 0.00000000
0.39714220 -0.24017150 0.00000000
-0.35266054 -0.56182298 0.00000000
0.01566429 0.76843768 0.00000000
0.52786660 0.29508899 0.03052867
-0.54253248 -0.70912075 0.00000000
0.05611900 -0.51659536 0.00000000
-0.72136280 0.76638816 0.00000000
0.27683610 0.38025040 0.00000000
0.27606065 0.66104262 0.18232769
0.15105126 0.61047870 0.00000000
0.70214369 0.26515018 0.22247607
0.50833581 -0.13978400 0.00000000
0.03350436 -0.57045046 0.00000000
0.38631734 0.29810646 0.00000000
0.30919826 0.54984060 0.07851380
-0.40617359 0.76337798 0.00000000
-0.10795684 0.12357746 0.00000000
-0.22832484 0.30278850 0.00000000
0.58766357 -0.71681519 0.00000000
-0.43247633 -0.14863230 0.00000000
0.16848699 0.01622953 0.00000000
0.36080826 -0.79263993 0.00000000
-0.38635962 0.67724351 0.00000000
-0.14058705 0.78263534 0.00000000
-0.01446035 0.76246092 0.00000000
-0.72356732 -0.72159140 0.00000000
-0.56841517 0.48704777 0.00000000
0.45526257 0.06104163 0.00000000
-0.66393877 -0.72451817 0.00000000
-0.22332906 0.61099128 0.00000000
-0.31802345 0.19389745 0.00000000
-0.71634290 0.12398064 0.00000000
0.05754422 -0.44719455 0.00000000
-0.08660171 -0.46286555 0.00000000
-0.14653367 -0.04118014 0.00000000
0.68841304 -0.06525391 0.00000000
0.36334664 -0.04570780 0.00000000
0.60573278 0.12547949 0.00000000
-0.61955930 -0.42909841 0.00000000
0.48657802 -0.31789356 0.00000000
-0.50565735 0.75059255 0.00000000
-0.36451402 -0.21045415 0.00000000
0.55548423 -0.70976029 0.00000000
-0.32981835 -0.59491686 0.00000000
-0.78594371 -0.57955272 0.00000000
0.57066463 -0.31308535 0.00000000
0.01413434 -0.52433330 0.00000000
0.39665473 -0.64987468 0.00000000
0.41287908 -0.34571612 0.00000000
-0.63772049 0.34394717 0.00000000
0.49500011 -0.19716578 0.00000000
0.76720950 0.08904999 0.07481767
0.50296339 0.02035406 0.00000000
-0.29274059 0.04175169 0.00000000
0.29731443 0.07109116 0.00000000
-0.26995190 0.52789585 0.00000000
-0.03702602 -0.28702102 0.00000000
-0.36788897 -0.62241184 0.00000000
0.64401523 -0.55517798 0.00000000
-0.29152499 -0.63481455 0.00000000
0.65817454 0.35197129 0.27946250
-0.34164535 -0.29933761 0.00000000
0.61366447 0.03035970 0.00000000
0.30032459 0.63233009 0.17641165
0.69698083 0.26256478 0.21217209
0.11265273 -0.15485111 0.00000000
0.57865196 0.46365188 0.32222809
0.71066089 0.14909824 0.07947163
-0.69174611 0.33316819 0.00000000
0.78095601 -0.36321470 0.00000000
0.18635881 -0.22530443 0.00000000
-0.00366404 0.08242192 0.00000000
-0.48907935 -0.56211995 0.00000000
-0.38863347 -0.69923005 0.00000000
0.19300873 0.71405853 0.14238446
-0.79846970 -0.31385865 0.00000000
0.73030846 -0.25988935 0.00000000
0.74325675 0.09060773 0.04503578
0.64196700 0.26219651 0.13852254
-0.19934144 -0.33586692 0.00000000
-0.41126671 -0.40662081 0.00000000
0.26519806 0.11584071 0.00000000
-0.49682251 -0.56881408 0.00000000
-0.78702328 -0.16951819 0.00000000
0.37406947 0.57880569 0.20330171
0.02762989 -0.70746248 0.00000000
-0.43956797 -0.39227222 0.00000000
-0.12135405 -0.15102437 0.00000000
-0.09706172 0.52198644 0.00000000
0.47162638 0.57072622 0.32229326
-0.08714221 -0.41455895 0.00000000
0.12028019 0.73405884 0.07226388
0.56297094 0.51172497 0.36530483
-0.55562717 -0.22227417 0.00000000
0.60921222 0.10442721 0.00000000
-0.21623398 -0.78729103 0.00000000
-0.71018801 -0.17061822 0.00000000
0.55282584 0.59127918 0.45760875
-0.77891771 -0.41052799 0.00000000
0.49101171 0.23393334 0.00000000
-0.28700979 -0.15446385 0.00000000
0.71219866 0.11206576 0.03226922
0.46742305 0.01869865 0.00000000
0.24362220 0.47976920 0.00000000
0.55032188 -0.21635934 0.00000000
0.45871224 -0.64161638 0.00000000
0.18082332 -0.78008076 0.00000000
-0.07485339 0.74142244 0.00000000
0.69451216 0.20038767 0.12620329
-0.02474890 0.42416245 0.00000000
0.54417605 0.37281696 0.15558377
0.47865051 0.61258229 0.38729670
0.03170613 -0.27420726 0.00000000
-0.76693509 -0.69752022 0.00000000
-0.33631391 -0.25555292 0.00000000
0.11214877 -0.17095932 0.00000000
0.40568346 0.50082174 0.14163662
-0.48379844 0.71259016 0.00000000
-0.47586661 -0.04464290 0.00000000
-0.05096923 0.76310049 0.00000000
0.01911486 -0.23140069 0.00000000
0.23582240 0.65985930 0.12724321
0.64442713 0.16949219 0.01851185
-0.05756880 -0.38494145 0.00000000
0.46125498 0.06944353 0.00000000
0.53045818 -0.31284050 0.00000000
-0.16833099 0.71348288 0.00000000
0.34538903 -0.30197213 0.00000000
-0.24754814 0.62060591 0.00000000
-0.49559986 -0.54278438 0.00000000
0.58726329 -0.58130299 0.00000000
0.26664149 -0.73747318 0.00000000
-0.27288724 -0.12057178 0.00000000
0.37390972 0.25869589 0.00000000
0.07114002 0.06128374 0.00000000
-0.00305049 0.30568649 0.00000000
-0.76276119 -0.04478733 0.00000000
0.42277828 -0.40407245 0.00000000
-0.00814381 -0.06640474 0.00000000
-0.77380766 -0.75355004 0.00000000
0.00898717 0.18175201 0.00000000
0.27531884 -0.23634729 0.00000000
0.47616923 -0.20973992 0.00000000
-0.15164614 -0.57940611 0.00000000
0.51005799 0.56547352 0.36641620
0.43840504 0.13638624 0.00000000
0.37517074 -0.61476552 0.00000000
-0.47633212 -0.23085660 0.00000000
-0.01098909 0.40395916 0.00000000
-0.54816133 -0.47297114 0.00000000
-0.43030037 0.61218341 0.00000000
0.28979363 0.64098230 0.17391322
-0.34924346 -0.11705829 0.00000000
0.56459068 0.22113921 0.00000000
-0.70490003 -0.48586508 0.00000000
-0.64379298 0.20503210 0.00000000
-0.27135565 -0.28922643 0.00000000
-0.34214778 0.59411358 0.00000000
-0.12141890 0.06352731 0.00000000
0.78374279 -0.78600393 0.00000000
0.14761893 0.24845576 0.00000000
-0.19128485 -0.34599483 0.00000000
0.53616274 0.01479285 0.00000000
-0.76199790 0.59236190 0.00000000
0.29290984 -0.26507784 0.00000000
0.14264937 0.33716001 0.00000000
-0.11801796 -0.13846594 0.00000000
-0.12959978 0.74675619 0.00000000
0.57993098 0.43803393 0.28986089
0.31453389 0.00139279 0.00000000
-0.09869933 -0.25645518 0.00000000
-0.31421340 0.58865362 0.00000000
0.16628250 0.16419849 0.00000000
0.75523879 -0.74679959 0.00000000
-0.72094879 -0.65714200 0.00000000
-0.08329475 -0.61610058 0.00000000
-0.57065806 -0.14982600 0.00000000
0.04108836 0.61265763 0.00000000
0.69000985 0.25299392 0.19017402
0.68564627 -0.11550551 0.00000000
0.30938794 -0.76441899 0.00000000
0.33605967 0.22527508 0.00000000
-0.10187347 0.36309153 0.00000000
-0.18387441 -0.61033037 0.00000000
-0.06889771 -0.53370540 0.00000000
-0.73048361 -0.70931753 0.00000000
0.30692835 0.61485667 0.16195658
0.03589819 -0.20744772 0.00000000
-0.29626703 -0.73103281 0.00000000
-0.75078200 0.75190883 0.00000000
0.27700411 0.25783495 0.00000000
-0.61628661 -0.25325147 0.00000000
0.67602480 0.11837542 0.00000000
0.03843999 0.43960001 0.00000000
-0.13491703 0.78917749 0.00000000
-0.24218624 0.33459867 0.00000000
0.55591513 0.51419936 0.35921223
0.65793786 0.35128180 0.27823083
-0.79955995 0.58715900 0.00000000
0.62125338 -0.01602052 0.00000000
-0.18836178 0.22302810 0.00000000
-0.61010791 -0.11930983 0.00000000
0.01535429 -0.51001408 0.00000000
-0.35585048 0.46455407 0.00000000
0.05918306 0.46085022 0.00000000
0.28429790 -0.77384099 0.00000000
-0.52304371 -0.48277979 0.00000000
0.24338309 0.56009054 0.00462070
0.58448605 0.37367918 0.21033640
0.33939424 -0.13149045 0.00000000
-0.71368372 0.00159172 0.00000000
0.11260428 -0.30835285 0.00000000
0.59954105 0.28999973 0.11907659
0.52673862 0.34563963 0.09625309
0.34210808 0.29238929 0.00000000
-0.54483560 -0.25528048 0.00000000
0.10050465 0.12031710 0.00000000
-0.18563612 0.43913732 0.00000000
0.41914029 -0.76922579 0.00000000
-0.05696711 0.61858024 0.00000000
0.37253909 0.10329240 0.00000000
0.22388214 0.61938781 0.05754359
0.17702405 -0.56244637 0.00000000
-0.58943265 0.27199165 0.00000000
0.09372437 0.21834382 0.00000000
0.55039181 0.33033989 0.10736188
0.63292281 -0.76025023 0.00000000
-0.52178496 -0.75537863 0.00000000
0.31064531 0.51068236 0.02836378
-0.67453052 0.54722024 0.00000000
0.10527955 0.09454864 0.00000000
0.48370065 -0.50717200 0.00000000
0.33970570 0.11436348 0.00000000
0.12262180 -0.22683694 0.00000000
-0.52184217 -0.20929666 0.00000000
-0.74961838 -0.67681114 0.00000000
-0.25188475 0.10165987 0.00000000
-0.11031190 -0.42070619 0.00000000
0.68276362 -0.05903765 0.00000000
-0.05164231 -0.76658814 0.00000000
0.31411202 -0.68533070 0.00000000
0.63506113 -0.64526053 0.00000000
0.14433206 -0.15186464 0.00000000
0.75593254 0.10432877 0.08013946
0.33362364 0.36210611 0.00000000
0.15661502 0.69156601 0.06407457
0.18982465 -0.41103593 0.00000000
0.26653394 0.01538673 0.00000000
0.28438033 0.65802785 0.18938241
0.32193242 0.09564075 0.00000000
0.45618150 0.46514997 0.16135324
0.50384695 -0.45985603 0.00000000
0.23628557 -0.59478137 0.00000000
-0.27211141 -0.73238190 0.00000000
0.17735481 -0.44579422 0.00000000
-0.17779457 -0.18445392 0.00000000
-0.17896373 -0.32205286 0.00000000
-0.67975433 0.75511979 0.00000000
-0.53853962 0.63886384 0.00000000
-0.76220360 0.45775633 0.00000000
0.49124524 -0.44163978 0.00000000
-0.63107279 -0.74752864 0.00000000
-0.67925035 0.73904685 0.00000000
-0.70601040 0.36512650 0.00000000
-0.24658865 0.38709347 0.00000000
0.40267823 0.63025417 0.30976597
-0.42634544 -0.05482115 0.00000000
0.54801943 -0.06735315 0.00000000
-0.65247576 -0.76227974 0.00000000
-0.28417067 0.20790744 0.00000000
-0.10538266 -0.23090163 0.00000000
-0.73087344 0.74305139 0.00000000
-0.02623002 -0.01835185 0.00000000
-0.05633960 0.70411963 0.00000000
-0.37794250 -0.20078640 0.00000000
-0.11641624 -0.06633338 0.00000000
-0.72512823 0.26545518 0.00000000
0.21373396 0.09184401 0.00000000
-0.21421938 -0.33392545 0.00000000
0.37870424 0.58604087 0.21908698
0.53863627 -0.42699338 0.00000000
-0.21640178 0.74123907 0.00000000
0.32282752 0.53506170 0.07698494
-0.50980470 0.12287421 0.00000000
-0.01871542 0.22459569 0.00000000
-0.00743830 -0.65422723 0.00000000
-0.39595327 -0.34714240 0.00000000
-0.55428079 -0.33156589 0.00000000
-0.59198442 -0.63580297 0.00000000
0.44229946 0.46883588 0.14779398
-0.73302513 0.34391922 0.00000000
-0.00365524 -0.73778690 0.00000000
-0.54405903 0.55899752 0.00000000
-0.13536055 0.01636167 0.00000000
0.15191526 0.48873184 0.00000000
-0.74235089 -0.10973779 0.00000000
0.35588512 -0.36811435 0.00000000
-0.37656141 0.39146005 0.00000000
-0.75468835 -0.37788294 0.00000000
-0.55094580 -0.79539436 0.00000000
-0.31543675 -0.61089001 0.00000000
-0.60788759 -0.62271652 0.00000000
-0.09632870 -0.11666224 0.00000000
-0.00308473 0.03996363 0.00000000
-0.59767100 -0.12726154 0.00000000
0.10131142 0.11365263 0.00000000
-0.78001077 0.24457459 0.00000000
-0.48602983 -0.09586526 0.00000000
0.40257779 0.43877204 0.05499014
0.31521705 0.36446954 0.00000000
-0.18194307 0.10667334 0.00000000
0.75009015 -0.18130995 0.00000000
-0.31049462 0.16749379 0.00000000
-0.45594820 -0.63722311 0.00000000
-0.66885461 -0.59189231 0.00000000
-0.26979812 0.79716519 0.00000000
-0.30676309 -0.22871692 0.00000000
0.40766752 0.20707023 0.00000000
0.04648706 -0.12674737 0.00000000
-0.55514582 -0.36565528 0.00000000
0.77511593 -0.04649612 0.00000000
0.66793491 -0.37184574 0.00000000
0.35132400 0.40416291 0.00000000
0.26839572 0.25861261 0.00000000
0.41222501 0.41669752 0.03846376
-0.68759915 -0.55121282 0.00000000
-0.16850398 0.73971934 0.00000000
0.50910550 -0.06471831 0.00000000
0.52986576 0.26751989 0.00000000
0.11412849 -0.28791594 0.00000000
-0.74840755 -0.74287932 0.00000000
-0.54020214 -0.05808120 0.00000000
-0.78258779 -0.05097377 0.00000000
0.08808282 0.72838350 0.02189895
-0.46894918 -0.06965695 0.00000000
0.45648080 -0.03514776 0.00000000
0.41538264 -0.54549937 0.00000000
0.63413245 0.32700836 0.21429346
-0.29302886 -0.22037245 0.00000000
0.51107037 -0.01981480 0.00000000
0.00763860 -0.53906510 0.00000000
0.79217443 -0.23020606 0.00000000
-0.07277232 0.11817837 0.00000000
0.52785385 -0.46552893 0.00000000
-0.07272008 -0.30557735 0.00000000
0.17169289 0.42092293 0.00000000
-0.46871576 -0.31277531 0.00000000
-0.23530659 0.11747809 0.00000000
0.36271813 0.29079017 0.00000000
-0.78264401 0.22889392 0.00000000
-0.10408708 -0.20621683 0.00000000
0.31227676 -0.41821256 0.00000000
0.51779252 -0.16332134 0.00000000
-0.70203228 0.24188025 0.00000000
-0.61766480 -0.06752906 0.00000000
0.02787680 0.54188566 0.00000000
-0.69955815 -0.03726678 0.00000000
-0.56083741 0.76812290 0.00000000
-0.01618953 0.13788529 0.00000000
0.08785781 0.31030200 0.00000000
0.72301570 0.18553820 0.14436107
-0.06172027 -0.65001000 0.00000000
0.27480756 0.41682187 0.00000000
-0.05050545 -0.05831885 0.00000000
0.46333843 0.49040839 0.20446063
-0.50391369 -0.35763032 0.00000000
0.24413757 -0.40450176 0.00000000
-0.49511686 0.77965684 0.00000000
0.05615520 -0.32258108 0.00000000
-0.11230944 0.76904704 0.00000000
-0.76483107 0.39375852 0.00000000
0.08383948 0.34365935 0.00000000
0.64551265 -0.01960037 0.00000000
-0.07064340 0.71414762 0.00000000
0.29416282 0.19890842 0.00000000
-0.17387052 -0.13075577 0.00000000
0.19307326 0.65380338 0.06233993
-0.27914011 -0.06966119 0.00000000
-0.48201418 -0.34275902 0.00000000
0.07805959 -0.47734109 0.00000000
-0.24625350 -0.73926843 0.00000000
-0.55496596 -0.69822647 0.00000000
-0.51356933 0.20039542 0.00000000
0.40812361 0.42803729 0.04808967
-0.19674128 0.71684487 0.00000000
0.11389680 -0.78629440 0.00000000
0.32548207 -0.09246595 0.00000000
-0.57136115 -0.10384139 0.00000000
-0.46433151 -0.68466763 0.00000000
-0.63206094 -0.58583548 0.00000000
0.35103111 -0.39978553 0.00000000
0.48409060 -0.69111859 0.00000000
0.38377338 -0.10894828 0.00000000
-0.39731085 0.10671452 0.00000000
0.75088213 -0.14069705 0.00000000
-0.36695081 -0.43476988 0.00000000
0.79505789 -0.47332496 0.00000000
0.05502692 0.75078049 0.00772426
-0.23648349 -0.28000647 0.00000000
0.38197757 -0.00541465 0.00000000
-0.69081061 -0.57601330 0.00000000
-0.52257514 0.62532620 0.00000000
-0.29998237 -0.20132129 0.00000000
0.37118837 -0.58908780 0.00000000
0.47974210 0.58833838 0.35650751
0.64555058 0.31578358 0.21455059
0.20831460 -0.65165576 0.00000000
-0.22636872 -0.51529130 0.00000000
-0.10797435 -0.41719433 0.00000000
0.16022801 -0.19965274 0.00000000
-0.34878791 -0.58149476 0.00000000
-0.46965671 -0.28559899 0.00000000
0.19735989 -0.19394616 0.00000000
-0.19015813 -0.41769961 0.00000000
0.15073640 -0.58510481 0.00000000
-0.22782075 0.43390602 0.00000000
-0.20519852 0.04981145 0.00000000
0.50463647 0.36681002 0.09501401
-0.44233414 0.16428089 0.00000000
-0.30169782 -0.73910774 0.00000000
0.26469024 0.53556240 0.00033729
0.22581461 -0.67749743 0.00000000
0.10208295 -0.74549748 0.00000000
0.12946301 -0.72209460 0.00000000
-0.35145520 0.39365833 0.00000000
-0.17575549 0.13682981 0.00000000
0.29234007 -0.53908943 0.00000000
-0.70474771 0.74944900 0.00000000
0.76927972 -0.75495360 0.00000000
0.58700466 0.14084429 0.00000000
0.30713541 0.45947387 0.00000000
-0.78480687 0.12828264 0.00000000
0.47758522 -0.74032109 0.00000000
0.38820048 -0.15598528 0.00000000
0.52118672 -0.59096606 0.00000000
0.53467093 0.34691376 0.10849623
-0.04267249 -0.77470904 0.00000000
-0.18644865 0.37307846 0.00000000
0.70036617 -0.72143732 0.00000000
-0.20963568 -0.76033530 0.00000000
-0.49293260 0.36706122 0.00000000
0.37436654 -0.10996628 0.00000000
0.73431967 -0.63404650 0.00000000
-0.79794539 0.49633965 0.00000000
0.75192102 -0.54717268 0.00000000
0.24470034 0.35746481 0.00000000
0.02937009 0.63192062 0.00000000
-0.57488703 0.57857329 0.00000000
0.63892107 0.05990392 0.00000000
-0.79326153 0.43436970 0.00000000
0.64992480 -0.03756522 0.00000000
-0.12856427 0.53530857 0.00000000
0.50682383 -0.60068923 0.00000000
0.20338026 -0.18959306 0.00000000
-0.36730329 -0.59125441 0.00000000
0.62258050 0.02451263 0.00000000
0.73964665 -0.46477972 0.00000000
0.37198254 0.28993470 0.00000000
-0.08310136 -0.59213684 0.00000000
0.56280746 -0.46042781 0.00000000
-0.64908386 0.53250799 0.00000000
0.09019174 0.58159669 0.00000000
0.47651409 -0.71943609 0.00000000
0.56843741 -0.40502272 0.00000000
-0.49617397 -0.59670265 0.00000000
0.13518260 -0.45079360 0.00000000
0.05646108 -0.43651669 0.00000000
-0.11813190 0.39577852 0.00000000
0.11971942 -0.06917290 0.00000000
-0.67250085 -0.09217556 0.00000000
-0.31648542 0.66874556 0.00000000
0.32617401 0.56079670 0.11565879
0.02206455 -0.01228043 0.00000000
-0.56429291 0.11503832 0.00000000
-0.14747495 -0.19960010 0.00000000
-0.46398370 -0.65481323 0.00000000
-0.33655215 -0.03010667 0.00000000
0.28459013 0.44828940 0.00000000
0.44334899 0.63014107 0.36370157
0.49193620 0.50532962 0.26233442
-0.74126085 -0.22632066 0.00000000
-0.39660021 -0.57847804 0.00000000
0.03592506 -0.68924306 0.00000000
-0.39082996 -0.05307902 0.00000000
0.62403560 -0.17768653 0.00000000
0.00170542 -0.40764938 0.00000000
-0.79505356 -0.54113896 0.00000000
0.27999973 0.32628222 0.00000000
0.42738214 0.48824541 0.15376792
-0.30059052 0.61946507 0.00000000
-0.73333968 0.18364822 0.00000000
-0.57833664 0.70746375 0.00000000
0.13853852 0.55685831 0.00000000
0.59172035 0.41111233 0.26973722
0.17321086 0.69414919 0.08957976
-0.39731145 0.63805997 0.00000000
-0.37785106 0.04891983 0.00000000
-0.22940712 0.57314337 0.00000000
-0.45275693 0.10963785 0.00000000
-0.54402532 -0.49379286 0.00000000
-0.62216301 0.17344329 0.00000000
0.32080235 -0.46682201 0.00000000
0.56664378 -0.62119663 0.00000000
-0.69239552 -0.62434526 0.00000000
-0.06142666 -0.39194895 0.00000000
0.44504306 0.22039798 0.00000000
-0.29147071 -0.62043469 0.00000000
0.49256312 -0.68748457 0.00000000
-0.15149312 -0.40500372 0.00000000
-0.49984111 -0.16944886 0.00000000
0.48260074 -0.63899011 0.00000000
-0.54016546 -0.23426807 0.00000000
-0.51906046 -0.22090525 0.00000000
0.66085171 0.18542714 0.06154497
0.17418961 0.37712765 0.00000000
0.55093997 0.46809859 0.29128879
0.72105010 -0.01372077 0.00000000
0.06862405 -0.08162468 0.00000000
-0.45848354 -0.55525414 0.00000000
-0.75053216 0.24885327 0.00000000
-0.54093182 -0.13799226 0.00000000
-0.70264878 -0.44547677 0.00000000
0.35942240 -0.39864261 0.00000000
-0.37447701 0.30495335 0.00000000
-0.14651027 -0.67502624 0.00000000
0.62296656 0.09698293 0.00000000
0.58123437 -0.22600930 0.00000000
0.04683292 0.63770873 0.00000000
0.22037728 0.58725275 0.01014807
0.61745744 -0.76219591 0.00000000
0.29427629 0.12500034 0.00000000
-0.65073025 0.13339616 0.00000000
-0.30426815 0.17823960 0.00000000
0.57443388 -0.13744366 0.00000000
-0.59528857 0.04327765 0.00000000
0.29517815 -0.14852025 0.00000000
0.26413716 -0.78815941 0.00000000
-0.75601139 0.49179869 0.00000000
-0.21524890 -0.79754275 0.00000000
-0.14952783 0.13544561 0.00000000
0.04030248 -0.12707461 0.00000000
0.50401031 -0.70717649 0.00000000
0.40972961 -0.08777248 0.00000000
0.66282926 -0.77715995 0.00000000
0.50304382 0.60068321 0.40391211
-0.54273253 0.30559628 0.00000000
0.16174182 0.30124308 0.00000000
0.30963265 -0.29251529 0.00000000
0.32884954 -0.17963185 0.00000000
-0.78898104 -0.73490806 0.00000000
0.16208353 -0.19428089 0.00000000
0.60715706 -0.50712293 0.00000000
0.36807864 -0.53838454 0.00000000
-0.78040226 -0.24322087 0.00000000
0.18455392 -0.46464116 0.00000000
0.15456225 -0.13379345 0.00000000
-0.72147881 0.53122443 0.00000000
-0.18390908 -0.78428603 0.00000000
-0.66386577 -0.42397408 0.00000000
-0.68539352 0.01855571 0.00000000
-0.34457166 0.06215998 0.00000000
-0.36514805 -0.66237084 0.00000000
-0.78588754 0.01652560 0.00000000
0.67499790 -0.40734852 0.00000000
-0.18842439 -0.42698272 0.00000000
0.04965569 0.52046057 0.00000000
0.04496213 -0.78179739 0.00000000
-0.72655171 0.52786612 0.00000000
0.58122953 -0.60036758 0.00000000
0.08200639 -0.08163629 0.00000000
-0.67958957 0.11274506 0.00000000
0.57202629 0.00687903 0.00000000
-0.73578136 0.68851891 0.00000000
-0.41652530 0.24583238 0.00000000
-0.34358649 0.62577844 0.00000000
0.55504344 -0.09171732 0.00000000
-0.39549938 -0.07314841 0.00000000
0.66332872 0.20833381 0.09530132
0.03737289 0.24377150 0.00000000
0.46240101 -0.04275782 0.00000000
0.38041469 0.01371269 0.00000000
0.78169685 -0.17147618 0.00000000
0.22139719 -0.48922107 0.00000000
-0.35708450 0.44756753 0.00000000
-0.71035901 0.42260843 0.00000000
0.14061572 0.52441593 0.00000000
-0.38619626 -0.19511771 0.00000000
0.41643824 0.16981505 0.00000000
0.30543290 0.67774165 0.24359562
-0.02763189 -0.63306072 0.00000000
0.14047237 -0.50982316 0.00000000
-0.63197403 -0.18216566 0.00000000
0.13364528 -0.42788876 0.00000000
0.30407540 0.64658642 0.20035849
-0.60638726 -0.37126026 0.00000000
0.44239223 0.17365607 0.00000000
-0.10237057 -0.07466727 0.00000000
0.71884939 -0.32125983 0.00000000
-0.24308105 -0.67998305 0.00000000
-0.40023120 -0.14134760 0.00000000
0.53444976 -0.13322185 0.00000000
-0.52776169 -0.14979272 0.00000000
0.08789195 -0.59856403 0.00000000
-0.67004003 -0.35470757 0.00000000
0.06753306 0.19419390 0.00000000
-0.78621968 0.32808302 0.00000000
-0.26534131 0.13208183 0.00000000
-0.12913659 0.55308511 0.00000000
0.21407356 -0.50520915 0.00000000
0.10249955 -0.76487186 0.00000000
-0.63665894 0.58603993 0.00000000
-0.28128489 0.67596668 0.00000000
-0.03841855 0.54501055 0.00000000
-0.48730122 -0.37326634 0.00000000
0.15454617 0.03663540 0.00000000
0.78126581 -0.30972135 0.00000000
-0.60246771 -0.22224363 0.00000000
0.30263199 -0.06584878 0.00000000
0.30374328 0.24504560 0.00000000
-0.53930461 0.78726769 0.00000000
0.53546178 0.52541619 0.34692908
-0.70848234 -0.16700478 0.00000000
0.41262849 0.40726316 0.02645410
-0.05896401 -0.44621561 0.00000000
-0.07874998 -0.51225032 0.00000000
-0.25516685 0.07798072 0.00000000
0.66024536 -0.77015764 0.00000000
-0.70230069 -0.43137547 0.00000000
0.57304536 0.24730802 0.02706814
0.39889024 0.47561793 0.09908557
-0.70797253 0.34372795 0.00000000
-0.24040344 -0.58384993 0.00000000
0.20382862 0.08564034 0.00000000
-0.48048617 0.42981733 0.00000000
-0.65122630 -0.02713896 0.00000000
0.40421672 -0.49860709 0.00000000
0.40318681 0.39676444 0.00000000
0.39904581 -0.40665777 0.00000000
0.38432798 -0.06697620 0.00000000
0.36830769 -0.39740379 0.00000000
-0.08966328 0.67648485 0.00000000
-0.65986386 0.76279371 0.00000000
0.24235434 0.49760293 0.00000000
-0.59735163 -0.30272207 0.00000000
-0.09613598 -0.57029914 0.00000000
0.72713628 -0.41313545 0.00000000
0.61322336 -0.49247376 0.00000000
-0.32436668 0.65209307 0.00000000
0.49651180 0.03783078 0.00000000
-0.02780648 -0.13346177 0.00000000
-0.53830277 0.12895016 0.00000000
-0.23907420 0.49626042 0.00000000
0.38933416 -0.69089605 0.00000000
-0.34590326 0.29149529 0.00000000
-0.46769669 0.62797999 0.00000000
0.04517668 -0.46430083 0.00000000
-0.43089024 -0.46103146 0.00000000
0.49561053 -0.79309343 0.00000000
-0.64628600 -0.24789059 0.00000000
-0.09158604 -0.28391417 0.00000000
0.50976198 0.14101933 0.00000000
0.75830304 -0.23063675 0.00000000
-0.77110855 0.21809708 0.00000000
0.49022340 0.12947449 0.00000000
-0.55702122 0.02885429 0.00000000
0.08749108 -0.45738030 0.00000000
-0.18339055 0.14544951 0.00000000
-0.67013538 0.59947264 0.00000000
0.63525010 -0.75702692 0.00000000
-0.55490574 0.68768359 0.00000000
0.59889343 0.42228874 0.29413934
0.72705431 -0.24060128 0.00000000
0.70124511 -0.66157385 0.00000000
0.57892714 -0.10583224 0.00000000
-0.72017765 0.46402183 0.00000000
-0.78644390 0.62695979 0.00000000
-0.08299980 0.79367444 0.00000000
0.62262384 -0.64790857 0.00000000
0.36138025 0.17032768 0.00000000
0.22345766 0.62048036 0.05843203
0.21966187 0.62191587 0.05529323
-0.72134015 0.71299051 0.00000000
-0.30660982 -0.68959155 0.00000000
0.72980011 -0.18549754 0.00000000
0.05700428 0.44305598 0.00000000
-0.54113876 0.62308394 0.00000000
0.72210752 -0.66101543 0.00000000
-0.12734221 0.22580433 0.00000000
0.39313195 -0.64366667 0.00000000
-0.40607342 0.02630977 0.00000000
-0.53756600 -0.09850511 0.00000000
0.57160826 0.29228281 0.08496647
0.72284553 0.16951685 0.12282888
0.06805965 0.62232748 0.00000000
-0.52701108 0.45774779 0.00000000
0.28788788 -0.47077164 0.00000000
0.49623553 0.02908575 0.00000000
0.20022874 -0.50445598 0.00000000
0.48231957 -0.78197439 0.00000000
0.70152061 0.26406399 0.22020300
0.67088615 -0.59210742 0.00000000
-0.46134353 0.10241789 0.00000000
0.52270352 -0.16728655 0.00000000
-0.27847239 -0.02249710 0.00000000
-0.16405163 -0.61640130 0.00000000
-0.71386059 -0.38594639 0.00000000
-0.41194644 0.79503637 0.00000000
-0.74753824 0.02598487 0.00000000
0.21178319 0.20153365 0.00000000
0.43577397 -0.03601250 0.00000000
0.71512765 -0.39061538 0.00000000
-0.62524121 0.68824674 0.00000000
0.25098377 -0.15384266 0.00000000
0.77697062 -0.50963014 0.00000000
0.70113423 -0.11529640 0.00000000
-0.76138949 0.65066355 0.00000000
-0.08396565 0.56799726 0.00000000
0.59142127 -0.67716896 0.00000000
0.42345305 0.34965743 0.00000000
-0.38781056 -0.10298697 0.00000000
0.43432711 -0.06354797 0.00000000
0.25707130 0.08952540 0.00000000
0.67463393 0.17357645 0.06411361
0.63279782 0.08349972 0.00000000
0.44624634 0.38287425 0.03872716
-0.08759814 0.28817211 0.00000000
-0.18186344 0.04029865 0.00000000
-0.48037067 -0.18616282 0.00000000
0.20576819 -0.31457350 0.00000000
0.01505814 0.24840361 0.00000000
-0.33667123 -0.55286365 0.00000000
-0.72815327 -0.17483470 0.00000000
0.00113452 0.51796672 0.00000000
0.30293849 0.44733406 0.00000000
-0.29780667 -0.66085199 0.00000000
0.27618240 0.62088127 0.12908092
-0.30283014 0.72217234 0.00000000
0.55959171 -0.53197848 0.00000000
-0.06666580 0.50368312 0.00000000
0.07584375 0.64989970 0.00000000
0.01433760 -0.45231255 0.00000000
0.17524509 -0.25533383 0.00000000
0.02744870 0.03059039 0.00000000
0.13354700 0.25274435 0.00000000
0.07089041 -0.62333359 0.00000000
-0.76830229 0.58199463 0.00000000
-0.65585757 0.14383633 0.00000000
-0.11788182 -0.13468865 0.00000000
-0.13774832 -0.64656779 0.00000000
0.55059561 0.29732030 0.06372201
-0.64640732 -0.31494020 0.00000000
0.52662465 -0.03712682 0.00000000
0.40369249 -0.53052991 0.00000000
0.09872524 -0.27840285 0.00000000
0.51820137 0.56456487 0.37603730
0.04618515 -0.37373935 0.00000000
0.72623866 0.08996710 0.02155245
0.15690365 -0.00692086 0.00000000
0.16897630 -0.38505982 0.00000000
0.19930241 0.67752938 0.10217571
-0.69045161 -0.42193433 0.00000000
-0.68522563 -0.51416697 0.00000000
-0.60545375 0.37656708 0.00000000
0.42255955 0.46320212 0.11405095
0.15513803 -0.26976021 0.00000000
-0.73169876 -0.51755596 0.00000000
-0.61815082 0.71983365 0.00000000
-0.27854804 -0.41541165 0.00000000
-0.46409063 0.16498131 0.00000000
0.18194260 0.72820615 0.14648241
0.06868437 -0.67490212 0.00000000
0.47777865 0.37511218 0.07033787
0.50218552 -0.07842001 0.00000000
0.78422649 -0.55901095 0.00000000
0.66332614 -0.12071744 0.00000000
-0.00284307 -0.20566007 0.00000000
-0.78517584 0.11711835 0.00000000
-0.24797358 -0.07963603 0.00000000
0.57318410 -0.18834839 0.00000000
0.13579299 -0.76764646 0.00000000
-0.63401738 -0.67660606 0.00000000
-0.25889296 0.25097737 0.00000000
-0.27026188 -0.69574184 0.00000000
0.72909065 -0.72166978 0.00000000
-0.31964539 0.10158001 0.00000000
-0.36440365 0.24369511 0.00000000
-0.77289919 0.51586477 0.00000000
0.55620556 0.12575968 0.00000000
-0.40206839 -0.53570212 0.00000000
-0.14649617 0.49465544 0.00000000
-0.36760462 -0.08442917 0.00000000
0.60649467 -0.32394876 0.00000000
0.69432523 -0.10048379 0.00000000
-0.36181765 -0.41349404 0.00000000
0.12332936 0.01074102 0.00000000
0.09261768 -0.40608715 0.00000000
-0.67406203 0.03799433 0.00000000
-0.02801001 0.58396247 0.00000000
0.41194468 -0.37625326 0.00000000
0.01899914 -0.20840453 0.00000000
-0.25027865 -0.71949507 0.00000000
-0.60979571 0.28993414 0.00000000
0.61534308 -0.41873338 0.00000000
0.44581732 0.15643941 0.00000000
-0.59138324 -0.16192627 0.00000000
-0.04367408 0.10471560 0.00000000
-0.75348616 0.08103357 0.00000000
0.29549515 -0.04643376 0.00000000
-0.67355254 0.74425814 0.00000000
0.19612678 0.72445637 0.16035859
0.65583400 -0.44205230 0.00000000
0.04089220 -0.76849695 0.00000000
0.10600270 -0.26735833 0.00000000
0.63072495 0.20810291 0.05163631
-0.31721832 -0.63128643 0.00000000
-0.13671946 0.23610688 0.00000000
-0.73065347 0.47807243 0.00000000
-0.45348044 0.11852977 0.00000000
-0.37362202 0.64536772 0.00000000
-0.05761223 -0.12591052 0.00000000
0.48456941 0.55331262 0.31634801
0.45303371 0.51637278 0.22528571
-0.02074791 -0.41528754 0.00000000
0.54424205 -0.29748106 0.00000000
-0.44365040 0.05713717 0.00000000
0.39963705 -0.17677937 0.00000000
0.62049547 0.38698974 0.27592432
-0.07047973 -0.62742834 0.00000000
0.52931268 -0.02135104 0.00000000
-0.56930052 0.57088197 0.00000000
0.10266701 0.40515513 0.00000000
0.60431123 0.36053352 0.21921913
0.31228882 0.50713435 0.02583110
0.65935562 0.30810456 0.22269724
0.42237651 0.58577579 0.27681203
0.36729667 -0.35722955 0.00000000
-0.68398837 0.20554531 0.00000000
-0.73666532 -0.38704961 0.00000000
0.59673804 -0.10667868 0.00000000
0.36181062 0.65260432 0.28514058
-0.63391023 -0.52989388 0.00000000
-0.45427598 -0.24077592 0.00000000
0.03365719 -0.77076465 0.00000000
0.17091471 -0.21977388 0.00000000
0.59644581 0.48869197 0.37919088
0.06393162 0.46398599 0.00000000
0.05305681 0.28405940 0.00000000
0.50663635 0.33740527 0.05856980
-0.46710784 0.15843615 0.00000000
0.79760508 -0.37464164 0.00000000
-0.25777006 0.67551197 0.00000000
-0.00078099 0.24330963 0.00000000
-0.15669520 -0.68752318 0.00000000
-0.05511759 -0.21782444 0.00000000
-0.68720922 -0.61162187 0.00000000
-0.58040056 0.79076220 0.00000000
0.54369260 -0.76005946 0.00000000
-0.22499684 -0.44504985 0.00000000
0.31140577 -0.40011332 0.00000000
-0.30257195 -0.74091337 0.00000000
-0.39538145 0.19952777 0.00000000
-0.30572601 0.38842035 0.00000000
-0.05690259 0.72093755 0.00000000
0.60337529 0.50610960 0.41156893
-0.68330622 -0.56310413 0.00000000
0.32718031 0.06976263 0.00000000
-0.40202426 0.43914122 0.00000000
-0.25318809 0.70117440 0.00000000
0.64597911 0.02935290 0.00000000
-0.28705652 -0.42556820 0.00000000
-0.26161192 0.11197845 0.00000000
0.40122953 -0.37891217 0.00000000
0.02763177 0.44174931 0.00000000
-0.71559666 0.69143616 0.00000000
0.43012868 0.21837531 0.00000000
0.47544796 0.43087854 0.14139897
-0.72031785 -0.54980355 0.00000000
-0.08540180 -0.01022020 0.00000000
0.39571262 -0.59577725 0.00000000
-0.55026712 -0.12799208 0.00000000
-0.66468782 -0.28553958 0.00000000
-0.44578342 0.06406720 0.00000000
-0.73965095 -0.03815761 0.00000000
0.55006561 0.35603108 0.14109336
-0.07715882 0.65394065 0.00000000
-0.60022723 0.35677248 0.00000000
0.32361825 -0.29747601 0.00000000
-0.76967101 0.73029197 0.00000000
0.04933837 -0.53781882 0.00000000
0.13798700 -0.68209312 0.00000000
0.55915024 -0.78667653 0.00000000
-0.01308331 -0.45450036 0.00000000
-0.20218655 0.09403326 0.00000000
0.40456811 -0.59699934 0.00000000
-0.14965586 -0.17675386 0.00000000
-0.61753552 -0.64798325 0.00000000
-0.49160939 -0.31314310 0.00000000
-0.04276882 -0.70139000 0.00000000
-0.24306733 -0.56341291 0.00000000
-0.21574625 -0.65928953 0.00000000
-0.22047098 -0.35875990 0.00000000
-0.42044414 -0.57374915 0.00000000
0.47344159 0.56021523 0.31072914
-0.24125788 -0.19012848 0.00000000
-0.61004514 0.73698772 0.00000000
-0.45321652 0.46877500 0.00000000
-0.48395803 0.20519508 0.00000000
-0.63582445 -0.63816461 0.00000000
-0.13126290 -0.71688322 0.00000000
-0.70696747 -0.49776135 0.00000000
0.13104240 -0.41187615 0.00000000
-0.16613706 -0.53007450 0.00000000
-0.39935959 -0.21352169 0.00000000
0.15723886 -0.57435112 0.00000000
-0.74674809 -0.63841216 0.00000000
-0.37153028 -0.58899639 0.00000000
-0.71711610 0.31284397 0.00000000
0.77479160 -0.42716127 0.00000000
0.41068944 0.15645036 0.00000000
0.43554557 -0.30329736 0.00000000
-0.29914731 0.15579312 0.00000000
-0.23084494 0.46725429 0.00000000
-0.47094867 -0.74788200 0.00000000
-0.04234599 0.79797496 0.00000000
-0.45643897 0.40497388 0.00000000
0.57706257 0.23219432 0.01231153
-0.64771694 -0.32665620 0.00000000
-0.69670712 0.53758834 0.00000000
-0.12939748 -0.06181443 0.00000000
-0.16567791 0.37563200 0.00000000
-0.09481912 -0.20545100 0.00000000
0.54860656 -0.55870117 0.00000000
0.49642179 0.14738314 0.00000000
0.50511983 0.33889985 0.05854061
0.57356466 0.46590774 0.31846272
-0.10564772 0.73747921 0.00000000
0.48780629 0.50152607 0.25178409
-0.26064824 -0.24615026 0.00000000
0.57492082 0.14257632 0.00000000
0.67656635 -0.06251098 0.00000000
0.52679157 0.58054539 0.40871273
0.56116377 0.18232357 0.00000000
0.13801915 0.15013437 0.00000000
-0.19530595 -0.16300532 0.00000000
0.14561235 -0.76403031 0.00000000
0.66362120 -0.27472015 0.00000000
0.68041630 0.12278613 0.00426004
-0.18711973 0.61846430 0.00000000
0.37956488 0.41522220 0.00000000
-0.76657922 0.23802920 0.00000000
-0.13671253 -0.37176981 0.00000000
0.62651065 -0.43457585 0.00000000
0.07548561 -0.74460502 0.00000000
0.57812629 0.55410530 0.44181876
0.62879282 -0.59939813 0.00000000
0.05023678 0.68431215 0.00000000
0.11377560 0.30512792 0.00000000
0.58347199 -0.40769215 0.00000000
-0.41330918 -0.28564832 0.00000000
-0.47773163 -0.72405706 0.00000000
-0.31033015 0.11941895 0.00000000
-0.53846761 -0.43864274 0.00000000
-0.28402534 -0.31226419 0.00000000
-0.41729139 0.45280556 0.00000000
0.08707993 0.75667312 0.05818618
0.65347281 0.13427245 0.00000000
-0.26248726 -0.56382210 0.00000000
0.16024448 -0.33998762 0.00000000
0.55064228 0.37919077 0.17265903
0.01551590 -0.72793196 0.00000000
-0.39049718 0.35843158 0.00000000
0.17590066 -0.07821095 0.00000000
0.64204910 0.26832612 0.14678314
0.74995671 -0.15368900 0.00000000
-0.53379304 -0.06207402 0.00000000
0.27686154 -0.11788469 0.00000000
-0.18476615 0.73969862 0.00000000
0.65491686 0.26306455 0.15689819
-0.38316815 0.62694693 0.00000000
0.41884451 0.40153094 0.02709748
-0.63878335 0.31750415 0.00000000
0.17619738 0.63262472 0.01173334
-0.04210723 -0.75700691 0.00000000
-0.63710449 -0.06551851 0.00000000
-0.28584779 -0.24053281 0.00000000
0.11959812 0.65469137 0.00000000
0.45577704 0.55934233 0.28607711
0.52569815 -0.75477158 0.00000000
0.08974078 -0.78588696 0.00000000
0.68751472 0.15966243 0.06273956
0.29482729 0.08918185 0.00000000
-0.66025738 0.68315471 0.00000000
-0.68147349 0.67630521 0.00000000
-0.18940530 0.70025294 0.00000000
0.62908331 0.32411155 0.20372660
-0.78818828 0.22217303 0.00000000
-0.17102368 0.20269481 0.00000000
-0.00173761 0.52719709 0.00000000
0.11972412 -0.33147263 0.00000000
-0.29200871 0.44956506 0.00000000
0.24972591 -0.62384209 0.00000000
-0.05056772 -0.71067241 0.00000000
-0.54901712 -0.40586995 0.00000000
-0.28343537 -0.61343492 0.00000000
0.75421164 -0.32159585 0.00000000
-0.13490158 0.26797267 0.00000000
0.32326482 0.53099982 0.07216482
0.59511063 0.26559633 0.08073211
-0.45497016 -0.69611459 0.00000000
0.09433591 0.32361936 0.00000000
-0.52171452 0.66174257 0.00000000
-0.41843711 0.16624163 0.00000000
0.46762275 0.15256422 0.00000000
0.33797753 0.54512824 0.11051903
-0.17245380 -0.74890369 0.00000000
0.57533501 0.52942667 0.40528783
-0.72332085 0.38373883 0.00000000
-0.79648084 0.75909828 0.00000000
-0.01094857 -0.43750265 0.00000000
0.54538391 0.22576296 0.00000000
0.06036298 0.33508758 0.00000000
-0.14070597 -0.29333729 0.00000000
-0.36017875 -0.29284195 0.00000000
-0.61882719 -0.52829092 0.00000000
-0.04920165 -0.56957297 0.00000000
-0.24784464 -0.71237187 0.00000000
0.06459412 -0.79579637 0.00000000
-0.55441443 -0.19503392 0.00000000
0.00187151 0.13111766 0.00000000
0.23976364 -0.57466592 0.00000000
-0.46423504 0.75201050 0.00000000
0.21135580 -0.09545007 0.00000000
-0.34753857 0.14517720 0.00000000
0.25213189 -0.23478659 0.00000000
0.01875194 0.37559249 0.00000000
0.76868893 -0.52065923 0.00000000
-0.50612650 -0.63686933 0.00000000
0.77305227 -0.16276640 0.00000000
-0.77270542 -0.64750616 0.00000000
-0.04783045 0.28705249 0.00000000
-0.23642996 0.13446961 0.00000000
-0.73950680 0.77770463 0.00000000
0.19981926 0.25550096 0.00000000
-0.49424762 -0.37945259 0.00000000
-0.15621169 -0.35756040 0.00000000
-0.69995769 0.54990595 0.00000000
-0.37883670 -0.12619819 0.00000000
0.58302502 0.28946170 0.09639735
-0.63473855 0.05106141 0.00000000
0.43067876 -0.22564897 0.00000000
0.22783198 0.28360173 0.00000000
-0.50553406 0.27694565 0.00000000
0.08330476 -0.15116207 0.00000000
0.58323991 -0.12592084 0.00000000
0.27580513 0.62186275 0.12988443
0.52660632 -0.46497454 0.00000000
0.38738184 0.23951478 0.00000000
-0.42158997 0.45227097 0.00000000
0.22612688 0.54016087 0.00000000
-0.14198023 -0.30123674 0.00000000
-0.08136243 0.35001783 0.00000000
0.08932489 0.62708674 0.00000000
-0.50569540 0.57296558 0.00000000
-0.56111045 -0.20042527 0.00000000
0.55077042 -0.64543017 0.00000000
-0.29049438 0.78098452 0.00000000
-0.65965851 0.41106598 0.00000000
-0.21993407 0.06735590 0.00000000
-0.08328946 -0.70740287 0.00000000
-0.71205048 -0.36292428 0.00000000
-0.71437867 -0.58606825 0.00000000
-0.15919454 -0.26486370 0.00000000
-0.49507699 -0.10244493 0.00000000
-0.54654364 0.41378082 0.00000000
-0.30896951 0.31587450 0.00000000
0.60944868 0.34586039 0.20653815
-0.19132841 -0.05965210 0.00000000
0.16188018 -0.13675947 0.00000000
-0.46560350 -0.13498606 0.00000000
-0.35537835 -0.28357054 0.00000000
-0.70360777 0.01657844 0.00000000
-0.24008825 -0.12838256 0.00000000
-0.50997671 -0.50830649 0.00000000
0.24535301 -0.53415694 0.00000000
0.56105569 0.19283909 0.00000000
0.32704949 0.06659993 0.00000000
0.42304372 -0.22529799 0.00000000
-0.40618079 0.54121429 0.00000000
0.07010787 0.77008307 0.05344914
0.02303990 0.60964242 0.00000000
0.60705494 0.09271485 0.00000000
-0.29311392 0.42741912 0.00000000
0.28322545 -0.07844496 0.00000000
-0.04053813 -0.41205757 0.00000000
-0.30330343 0.04277252 0.00000000
-0.51034666 0.23521360 0.00000000
-0.65140731 0.08193385 0.00000000
0.68437901 -0.32396656 0.00000000
0.31988459 -0.16953735 0.00000000
-0.22758481 0.73601785 0.00000000
0.33051810 0.62704508 0.20953621
0.08159346 -0.56158290 0.00000000
0.61490466 0.00499220 0.00000000
0.12305292 0.20477513 0.00000000
-0.22989333 0.49773373 0.00000000
-0.63715127 0.67392719 0.00000000
0.49259663 -0.23074092 0.00000000
-0.60039549 -0.74151200 0.00000000
0.35787821 0.56086684 0.15791373
-0.23035920 0.63406936 0.00000000
0.59192753 0.17107468 0.00000000
0.25495272 0.23561252 0.00000000
0.61601070 -0.26576234 0.00000000
0.31378519 -0.76331326 0.00000000
0.09469936 0.65048425 0.00000000
0.72200754 0.17716892 0.13189053
0.60087579 -0.76860317 0.00000000
-0.46346425 0.05681323 0.00000000
0.61809351 -0.06190531 0.00000000
0.36221841 -0.47588883 0.00000000
-0.03118469 0.79125209 0.00000000
-0.04348483 -0.79012401 0.00000000
0.24988598 -0.21264538 0.00000000
-0.55114971 -0.34364693 0.00000000
-0.67411289 -0.59501615 0.00000000
0.04398910 -0.13809062 0.00000000
0.58960834 0.26567515 0.07351973
0.38801731 0.59851833 0.24806515
0.70479565 -0.66009691 0.00000000
0.34884280 -0.36854720 0.00000000
-0.60521055 0.07625618 0.00000000
0.14776026 0.47205830 0.00000000
-0.66314836 -0.16126518 0.00000000
0.72927967 -0.01445702 0.00000000
-0.53783204 -0.33429307 0.00000000
-0.10933948 -0.69852229 0.00000000
0.31660546 0.30429806 0.00000000
-0.04141464 -0.17543571 0.00000000
-0.50516691 0.74360592 0.00000000
0.52290968 -0.33348714 0.00000000
-0.24905222 -0.16160370 0.00000000
0.32704135 0.59090959 0.15685777
-0.43389005 0.54688264 0.00000000
0.12968084 -0.65454218 0.00000000
-0.31339848 -0.49760360 0.00000000
0.56071927 0.10962259 0.00000000
0.77349684 0.01478612 0.00000000
0.67601321 -0.74545960 0.00000000
0.55524790 -0.70861238 0.00000000
-0.54105091 -0.23515140 0.00000000
0.69897038 -0.69349349 0.00000000
0.46060263 0.62529416 0.38020065
-0.38440230 0.34079396 0.00000000
-0.37277339 0.22456993 0.00000000
-0.77218998 0.74983886 0.00000000
0.52815402 0.54990294 0.36977463
-0.31424447 0.58282720 0.00000000
-0.14164233 -0.14269869 0.00000000
0.58761645 -0.37493783 0.00000000
0.46131520 -0.13171138 0.00000000
0.25191355 0.47920098 0.00000000
-0.09204212 0.11177464 0.00000000
0.64094940 0.19451144 0.04715870
0.11821904 -0.04610939 0.00000000
-0.34296201 -0.45582747 0.00000000
-0.31222289 0.36164346 0.00000000
-0.00426945 -0.54305698 0.00000000
-0.42720478 0.30302501 0.00000000
-0.31366045 -0.14149003 0.00000000
0.51166884 -0.36704935 0.00000000
-0.10142635 -0.37769137 0.00000000
0.27022331 -0.02958633 0.00000000
-0.77354476 0.41610362 0.00000000
-0.66735653 0.01247771 0.00000000
0.14223772 -0.60828879 0.00000000
-0.75972733 -0.08773536 0.00000000
-0.65268893 -0.36896597 0.00000000
-0.41252291 -0.01202940 0.00000000
-0.61536614 0.55535251 0.00000000
0.07634668 -0.79146472 0.00000000
0.30691935 0.12535773 0.00000000
0.54918944 0.50837623 0.34252417
0.42684322 -0.78434397 0.00000000
0.35755307 0.55824902 0.15400003
0.21920262 -0.25370038 0.00000000
-0.79752899 0.01434930 0.00000000
0.45112136 0.16339620 0.00000000
0.41510147 -0.22495310 0.00000000
-0.08741527 0.54529899 0.00000000
-0.49947985 0.26993534 0.00000000
-0.62555471 -0.50070847 0.00000000
0.11336000 -0.60494698 0.00000000
0.50679592 -0.57744237 0.00000000
0.52161211 0.39838503 0.15957879
-0.70033744 0.25151444 0.00000000
-0.69738371 0.11919138 0.00000000
-0.07859599 0.76714671 0.00000000
-0.21185573 0.73731950 0.00000000
-0.34834313 -0.79934756 0.00000000
-0.15713987 0.02154715 0.00000000
-0.48005841 0.69999056 0.00000000
-0.69348663 -0.66890035 0.00000000
0.45854468 0.54247697 0.26732920
-0.57323102 -0.17202072 0.00000000
0.57532571 0.15739890 0.00000000
-0.27595036 -0.79169011 0.00000000
-0.05092069 -0.13825657 0.00000000
-0.37117900 -0.73390028 0.00000000
-0.54822701 0.44497492 0.00000000
0.74194384 -0.50867157 0.00000000
0.46188387 -0.18448295 0.00000000
-0.04469130 0.11152790 0.00000000
-0.43438680 0.07715207 0.00000000
0.31903157 -0.00511147 0.00000000
-0.21515103 0.05926292 0.00000000
-0.24296645 -0.50962065 0.00000000
-0.36740822 -0.58161361 0.00000000
-0.00298229 0.07597497 0.00000000
0.54270539 0.50136642 0.32457934
-0.43513469 -0.78742301 0.00000000
0.33028858 0.13999484 0.00000000
0.09248121 0.75244959 0.05975240
-0.62375471 -0.04753667 0.00000000
-0.40159482 -0.37896523 0.00000000
-0.12351284 0.65460576 0.00000000
-0.26560036 0.43127348 0.00000000
-0.50030063 0.31058368 0.00000000
0.52805422 0.21721805 0.00000000
0.17791349 0.51983181 0.00000000
0.32724103 0.01506389 0.00000000
0.02312661 0.50231902 0.00000000
0.58869786 0.10833995 0.00000000
-0.63418893 -0.08940637 0.00000000
0.28464216 -0.18735616 0.00000000
0.03826472 -0.69175927 0.00000000
-0.43100108 -0.02899237 0.00000000
0.42316515 0.41644438 0.05267582
-0.35233748 -0.42606908 0.00000000
0.00031970 -0.31053193 0.00000000
-0.25912552 -0.27596625 0.00000000
0.18293321 -0.55793925 0.00000000
-0.08818039 -0.28202474 0.00000000
0.53733663 -0.23871740 0.00000000
-0.33946798 0.07173024 0.00000000
0.37746178 0.00259300 0.00000000
0.61745859 0.24349951 0.08106608
-0.70273458 -0.15019407 0.00000000
0.32038385 0.27385688 0.00000000
-0.23994194 0.22173102 0.00000000
0.64365060 -0.05941812 0.00000000
0.61640715 0.44890087 0.35282017
0.29135833 -0.78012420 0.00000000
0.38465834 0.53740218 0.16232277
-0.35377080 -0.04992947 0.00000000
0.18567145 0.02594506 0.00000000
0.01372576 0.52867767 0.00000000
-0.61700165 0.70752626 0.00000000
0.11778986 -0.13403169 0.00000000
0.36646866 -0.24529443 0.00000000
0.52612708 -0.26527555 0.00000000
0.19757728 -0.08341402 0.00000000
-0.38487179 0.08225226 0.00000000
0.10979814 -0.20551882 0.00000000
0.38469896 0.47481014 0.07913913
0.38200259 -0.32887518 0.00000000
0.49798963 0.34084326 0.05164300
-0.07914460 0.72039126 0.00000000
0.03628091 0.19971920 0.00000000
0.05368420 -0.37237921 0.00000000
-0.20377646 -0.38439883 0.00000000
-0.08872912 -0.37343132 0.00000000
0.77354001 -0.34609001 0.00000000
-0.16298520 0.24326365 0.00000000
0.42865351 -0.67727731 0.00000000
-0.73267493 0.18752156 0.00000000
-0.26490329 -0.62985953 0.00000000
-0.78828482 0.66497786 0.00000000
-0.34839439 -0.34743175 0.00000000
0.57235946 -0.33281085 0.00000000
-0.55118126 0.36134851 0.00000000
-0.18372763 0.16459638 0.00000000
0.22265506 0.68510079 0.14330010
-0.10168829 -0.35681596 0.00000000
-0.73513280 0.55293278 0.00000000
0.48274717 0.39994099 0.10996366
-0.21864593 0.69990039 0.00000000
-0.27947521 0.52751062 0.00000000
-0.24513451 -0.13039884 0.00000000
0.26416857 -0.16651000 0.00000000
0.06017175 -0.64672816 0.00000000
0.35299337 -0.60909331 0.00000000
0.19833104 -0.47733246 0.00000000
0.02460941 -0.78465019 0.00000000
-0.14418510 -0.79764453 0.00000000
-0.07732633 0.34984949 0.00000000
-0.59696775 -0.70173192 0.00000000
-0.36378626 0.57582461 0.00000000
-0.42737548 -0.58966514 0.00000000
-0.26611412 0.14918984 0.00000000
-0.31933811 0.22169740 0.00000000
0.37365833 0.14263096 0.00000000
0.30117243 0.68788650 0.25142100
-0.72290290 0.58281943 0.00000000
0.31219153 -0.72141675 0.00000000
-0.03435906 0.63424157 0.00000000
0.04019352 0.74808244 0.00000000
-0.57972868 -0.23488931 0.00000000
-0.45707229 -0.79164968 0.00000000
0.17074085 -0.15718566 0.00000000
0.53439769 0.53210794 0.35441303
0.16922072 0.72283624 0.12242304
-0.66177428 -0.15496709 0.00000000
0.75645713 0.09299873 0.06576989
0.41834013 -0.29609029 0.00000000
-0.32264499 0.13304306 0.00000000
-0.20250566 0.28001345 0.00000000
-0.26450052 0.65281500 0.00000000
0.18749456 -0.28997099 0.00000000
-0.09016508 0.75606846 0.00000000
-0.20177287 0.41043049 0.00000000
-0.64244698 0.55463975 0.00000000
0.65655061 0.25303777 0.14573676
0.28456052 0.05749345 0.00000000
-0.74838494 0.50410598 0.00000000
0.70089889 0.25535912 0.20780009
0.01009983 -0.76134986 0.00000000
0.44694265 -0.08376549 0.00000000
-0.62424433 -0.35948178 0.00000000
-0.33676834 0.27655838 0.00000000
-0.03817305 -0.11019951 0.00000000
-0.52139849 0.50444371 0.00000000
0.75374431 0.10262404 0.07496243
0.29543005 -0.22162696 0.00000000
0.72358737 -0.60842705 0.00000000
0.10830000 -0.36988963 0.00000000
-0.76104751 0.76300298 0.00000000
0.49401215 0.42005942 0.15169871
-0.66282877 -0.13125447 0.00000000
0.45844303 0.44374728 0.13589848
0.62815327 -0.21300246 0.00000000
-0.27426497 0.31967419 0.00000000
-0.46771862 -0.21697931 0.00000000
0.22784205 0.21903189 0.00000000
0.15504445 -0.68224691 0.00000000
-0.55663290 0.68116952 0.00000000
0.41445850 0.42416465 0.05136408
-0.29659940 -0.76470351 0.00000000
0.53394021 -0.03717956 0.00000000
-0.67181344 0.59029304 0.00000000
-0.13748443 -0.77156927 0.00000000
-0.43548063 -0.65543031 0.00000000
-0.42996842 -0.26480411 0.00000000
0.47198114 0.57917246 0.33399729
-0.29399112 0.00591175 0.00000000
-0.71049458 -0.71030703 0.00000000
-0.13381949 0.25700946 0.00000000
-0.00375070 0.77829141 0.00000000
0.57871936 -0.42637387 0.00000000
-0.64433627 0.10782753 0.00000000
-0.01877066 0.01573880 0.00000000
-0.58948138 -0.78834510 0.00000000
0.00660113 -0.12846430 0.00000000
0.68529074 -0.50400513 0.00000000
0.20978985 0.35043301 0.00000000
0.35349854 0.47039198 0.03177197
-0.73557862 0.19219645 0.00000000
-0.47729484 0.71798807 0.00000000
0.77499106 -0.49224166 0.00000000
0.15083581 0.17666227 0.00000000
0.33630537 0.25096194 0.00000000
-0.05183225 -0.25886850 0.00000000
-0.50481558 0.42293623 0.00000000
0.04385315 0.27980889 0.00000000
0.13958790 -0.07042548 0.00000000
0.18830187 0.20478899 0.00000000
0.01256991 0.10649164 0.00000000
0.16675922 0.49215777 0.00000000
0.17098145 -0.63031923 0.00000000
-0.54847624 -0.60773550 0.00000000
0.24051888 0.53151996 0.00000000
0.46999979 -0.29697563 0.00000000
-0.72625587 0.39982075 0.00000000
0.41896163 -0.19847974 0.00000000
0.04384519 0.69465434 0.00000000
-0.52552094 0.02667482 0.00000000
0.43676123 -0.63944423 0.00000000
-0.02354986 0.76278725 0.00000000
-0.03570070 0.38739786 0.00000000
0.69623191 0.21762611 0.15141472
0.08787203 0.69288421 0.00000000
-0.16223996 0.39758747 0.00000000
-0.39630997 -0.61461258 0.00000000
