ply
format ascii 1.0
element vertex 1378
property float x
property float y
property float z
end_header
-0.09002059 0.31640028 -0.00000070
-0.06410355 -0.45523417 -0.00000022
0.54903176 -0.47506272 -0.00000027
-0.39336057 0.47830005 0.17670663
-0.14335002 0.14751907 -0.00000059
0.17468422 -0.76686401 -0.00000002
0.12353806 0.00579465 0.00001004
0.53633959 0.05193762 -0.00000126
-0.44509240 0.02527597 -0.00000038
0.61676223 -0.32320724 -0.00000078
-0.51494720 0.34554322 0.14916305
0.49981304 0.18411842 0.00000046
-0.06248681 0.31876669 -0.00000070
-0.34755375 0.17016539 -0.00000051
-0.46847789 -0.78569640 -0.00000001
-0.33845519 0.58519836 0.30491446
-0.56862124 -0.53945318 -0.00000015
-0.01486713 0.69661299 -0.00000094
-0.23021239 -0.74101887 -0.00000004
-0.07456881 0.56505414 -0.00000085
-0.00925149 -0.66265156 -0.00000009
-0.62821197 0.20986183 0.09388696
0.23855107 -0.13214965 -0.00000042
0.06818473 0.37873017 0.00000482
-0.08847185 -0.34168376 -0.00000029
0.33155327 0.00456147 0.00000691
0.42551387 0.05416371 0.00000422
0.18626150 -0.29065813 -0.00000032
0.20461210 -0.27680613 -0.00000033
0.10700314 -0.57829490 -0.00000014
0.50902809 0.02918534 0.00000306
-0.59845852 0.34247251 0.34752115
-0.57765669 0.20709693 -0.00000028
-0.50016900 0.13396105 -0.00000034
0.50223109 0.01921240 0.00000337
0.25086002 0.53118805 -0.00000099
0.16642692 -0.42685191 -0.00000023
-0.10817563 0.47731671 -0.00000080
0.01004856 0.04645836 0.00001109
-0.65746500 0.19394273 0.12676718
-0.22889343 -0.03822156 -0.00000048
0.05798224 0.03296321 -0.00000052
0.72243283 -0.71127205 -0.00000022
-0.42913257 -0.10463629 -0.00000038
0.02023643 0.36188326 -0.00000073
0.20515550 0.23298287 0.00000512
-0.33572120 -0.50839728 -0.00000018
-0.28932199 -0.03213009 -0.00000048
-0.32716782 0.53638007 0.15670104
0.42159538 -0.62272003 -0.00000011
-0.63690994 -0.01337601 -0.00000017
0.17855307 -0.79246233 -0.00000000
0.49028621 -0.42294822 -0.00000024
-0.31653168 0.42973690 -0.00000059
-0.64320905 0.06551819 -0.00000018
-0.44736356 0.45680100 0.25685802
0.08481253 0.55285937 -0.00000085
0.18933397 0.05750917 0.00000821
0.05082449 -0.40432671 -0.00000025
-0.48491701 -0.76020849 -0.00000002
0.67537057 -0.05363038 -0.00000150
0.00966905 0.33793744 -0.00000071
0.31644636 0.12318765 0.00000507
0.52934865 -0.73996231 -0.00000004
0.05349752 -0.30076650 -0.00000031
0.76132983 -0.52421684 -0.00000069
-0.40207355 -0.30510113 -0.00000031
0.30609872 0.12934644 0.00000516
0.57880512 -0.17299652 -0.00000095
0.77675794 -0.47895732 -0.00000080
-0.63327556 0.17824895 0.02841936
-0.48729230 -0.48497930 -0.00000020
-0.19513432 0.58390986 -0.00000075
0.05561361 0.43131399 -0.00000077
-0.38091558 -0.76457324 -0.00000002
-0.74850042 -0.45828193 0.00000000
0.32297662 0.12505007 0.00000492
0.18169153 0.21883486 0.00000570
-0.44423924 -0.18276058 -0.00000035
-0.53163173 -0.56174027 -0.00000015
-0.48358907 0.06694059 -0.00000035
0.35966219 0.13531996 -0.00000085
0.12165270 0.25611354 0.00000600
-0.62449079 -0.62429691 -0.00000007
0.35212022 -0.75946616 -0.00000003
-0.27114760 0.00217577 -0.00000050
0.40057316 0.22350745 -0.00000116
0.04183346 -0.52068715 -0.00000017
-0.41491656 -0.10363093 -0.00000039
0.55484627 -0.13495229 -0.00000095
-0.36283833 -0.58352492 -0.00000014
-0.09732695 -0.62324947 -0.00000011
0.75034393 -0.14098444 -0.00000157
-0.05735769 0.60710421 -0.00000088
0.22879608 0.55682799 -0.00000126
-0.79459991 -0.43776004 0.00000000
-0.34172712 0.47767031 0.04783095
-0.75198667 -0.35452203 0.00000000
-0.20474423 0.47877213 -0.00000072
-0.10269311 0.28569775 -0.00000068
0.58700889 -0.61045653 -0.00000013
-0.31367792 -0.68825815 -0.00000007
-0.12048672 -0.03102703 -0.00000048
0.25151769 -0.40562274 -0.00000025
-0.42674689 0.42895417 0.13735237
0.23203796 0.35818845 -0.00000088
-0.30925655 0.25870691 -0.00000057
-0.05735314 0.44659341 -0.00000078
-0.72637336 0.01579748 -0.00000008
0.28686495 -0.64487096 -0.00000010
-0.69181318 0.16961551 0.15147804
0.21155983 -0.23340048 -0.00000035
-0.47839902 -0.17742592 -0.00000031
0.71422408 -0.64190546 -0.00000040
-0.24880908 -0.79791362 -0.00000000
-0.34415928 0.01994012 -0.00000049
0.52652952 -0.67466954 -0.00000008
-0.50848270 -0.04286355 -0.00000030
0.30167188 0.19494578 0.00000407
0.41964231 -0.17359238 -0.00000044
-0.01384011 -0.51595514 -0.00000018
-0.44135290 0.39498698 0.08960995
0.46890847 -0.58610833 -0.00000013
0.28458456 0.21309277 -0.00000077
-0.73541194 -0.32532283 -0.00000001
0.20787200 -0.35068935 -0.00000028
0.51795960 0.09447148 -0.00000128
-0.10510916 -0.68409909 -0.00000007
0.00637494 0.59699660 -0.00000087
0.51613339 0.14983728 -0.00000138
0.37680549 -0.04225127 -0.00000056
0.50816149 -0.40211436 -0.00000028
0.71927785 -0.70403148 -0.00000024
-0.26055237 -0.19845551 -0.00000038
-0.35030678 -0.56903931 -0.00000014
0.71237031 -0.41702705 -0.00000091
0.43990558 0.08277356 -0.00000101
0.17856804 0.27930556 0.00000477
-0.61395332 0.12320807 -0.00000022
0.18983237 0.48712951 0.00000097
0.18558327 0.17466792 0.00000636
-0.50354933 -0.54089185 -0.00000016
-0.57271109 -0.02298629 -0.00000024
0.66347695 -0.73692608 -0.00000013
0.72168925 0.06954685 -0.00000189
-0.09010467 0.49171533 -0.00000081
-0.49893510 -0.75456271 -0.00000003
0.42125955 -0.42891388 -0.00000023
0.07282720 -0.67596193 -0.00000008
-0.25281535 -0.34362518 -0.00000029
0.69917633 -0.66087990 -0.00000035
-0.58725332 0.07655200 -0.00000024
0.52305584 -0.53738221 -0.00000016
0.20541023 -0.74502370 -0.00000003
0.60345493 -0.77000430 -0.00000002
-0.52687510 -0.10892776 -0.00000027
-0.62279248 -0.68503057 -0.00000006
0.30290256 -0.34174901 -0.00000029
-0.54062522 0.18760094 -0.00000031
0.04399725 0.05536171 0.00001044
0.09501795 -0.24182654 -0.00000035
-0.55711240 0.35351766 0.27280220
0.60875293 -0.39022217 -0.00000063
0.19176044 0.02200055 0.00000875
0.41108127 0.00220585 -0.00000076
-0.23055140 -0.31786913 -0.00000030
0.69877197 0.09616442 -0.00000178
0.29710028 -0.46488326 -0.00000021
-0.51811417 0.48599322 0.50330564
0.66809545 -0.05387151 -0.00000147
-0.31668507 0.61053079 0.31369847
-0.11361867 -0.42534986 -0.00000023
0.50507242 0.13975169 0.00000115
-0.14544343 0.34717884 -0.00000072
-0.12441283 0.28988264 -0.00000068
0.26791329 -0.25402096 -0.00000034
-0.60661559 -0.17759905 -0.00000017
-0.44592431 0.44944976 0.23518173
0.54189816 -0.44375235 -0.00000031
-0.71314438 -0.12402965 -0.00000007
0.61013318 -0.54132227 -0.00000034
0.54813263 -0.51916713 -0.00000018
-0.19225644 -0.08507301 -0.00000045
-0.28580827 0.60034244 0.21243650
-0.27205869 0.59885299 0.17485875
-0.21230014 0.40982105 -0.00000070
0.43349168 0.13124710 -0.00000108
0.13080143 -0.39028317 -0.00000026
-0.00071938 -0.79122219 -0.00000001
-0.13330095 -0.73287371 -0.00000004
-0.37798806 0.42815061 0.01513659
0.30564525 -0.10395415 -0.00000044
-0.43937242 0.42651228 0.16246419
-0.46449210 -0.10042580 -0.00000034
0.27220120 -0.32359785 -0.00000030
0.57656926 0.07413934 -0.00000143
-0.12687085 -0.05803753 -0.00000046
0.00370151 0.21268186 0.00000849
-0.29244757 -0.21057508 -0.00000037
0.37265449 0.28668082 0.00000106
-0.67894020 0.18561066 0.15917686
0.49757475 -0.13011128 -0.00000078
-0.47701315 -0.43820175 -0.00000023
-0.57688667 0.35289422 0.32002605
-0.42987859 -0.65885129 -0.00000009
0.18540985 -0.09522244 -0.00000044
0.09097733 0.22636625 -0.00000064
-0.61935711 0.11735022 -0.00000021
0.49779907 0.16215720 0.00000089
0.00204933 0.44189607 -0.00000078
0.03414508 0.44583893 -0.00000078
-0.10282031 -0.51090424 -0.00000018
-0.06650932 0.55949964 -0.00000085
0.09653461 0.46102088 -0.00000079
-0.00856241 0.06160417 -0.00000054
0.05935653 -0.34190122 -0.00000029
-0.10216108 0.24143293 -0.00000065
0.23609514 -0.74140359 -0.00000004
-0.06246481 0.40008340 -0.00000075
-0.65878864 -0.78051657 -0.00000001
-0.65237578 -0.05837338 -0.00000015
-0.66948594 0.13287510 0.00582353
-0.03298830 0.25375015 -0.00000066
0.79447975 -0.16719199 -0.00000158
0.21813985 0.25612416 -0.00000066
-0.21596374 0.56484775 -0.00000073
0.39320445 0.17492231 0.00000267
-0.46515209 0.38039313 0.11230947
-0.51216223 0.49584254 0.51291605
0.40725740 0.19277301 0.00000208
-0.78298532 -0.04367280 -0.00000001
-0.06536906 -0.78791383 -0.00000001
-0.64020624 -0.43040931 -0.00000009
-0.24424512 0.00619438 -0.00000050
-0.53037867 0.31634428 0.11521409
0.20179745 -0.53702898 -0.00000016
-0.01733367 0.15221044 -0.00000060
-0.13441296 0.65969587 -0.00000083
0.61289580 -0.13006263 -0.00000115
-0.79152304 -0.06262195 0.00000000
0.53175021 0.15520010 0.00000037
0.54354225 0.24197111 -0.00000142
0.30181189 -0.62367020 -0.00000011
0.27647853 0.27041695 0.00000320
0.47871261 0.08927394 0.00000257
0.40341071 0.19943089 0.00000204
-0.76076946 -0.72212980 0.00000000
-0.41006200 0.40949477 0.04822440
0.60568347 -0.20454710 -0.00000098
0.12866402 -0.02794559 -0.00000048
0.20246394 0.58140250 -0.00000122
0.29639472 -0.41023345 -0.00000024
0.30391747 -0.76118390 -0.00000002
0.31140644 0.40036802 -0.00000122
-0.12517811 0.03959172 -0.00000052
-0.09335060 -0.67140460 -0.00000008
0.26412753 0.45374404 0.00000014
0.02913124 0.17805671 0.00000867
-0.63750748 -0.09288063 -0.00000016
-0.21193059 0.06475109 -0.00000054
-0.31185126 -0.39453590 -0.00000025
-0.33964507 -0.74344807 -0.00000004
0.45591917 -0.51873217 -0.00000018
-0.33677092 -0.20021233 -0.00000037
-0.46511498 -0.64261464 -0.00000010
0.47787335 0.18187804 -0.00000132
-0.18918209 0.55244012 -0.00000075
-0.31845203 -0.42505481 -0.00000023
0.16282490 0.59942938 -0.00000053
0.48740894 0.17798294 -0.00000135
0.16950894 0.08752102 -0.00000055
0.05116132 0.74097887 -0.00000105
0.05258546 -0.46342022 -0.00000021
0.22508435 0.14077937 0.00000632
0.23943884 0.13411682 0.00000621
-0.27271474 0.56904127 0.10296426
-0.05939745 -0.03151468 -0.00000048
0.13301514 -0.00879791 -0.00000049
0.42386435 0.04323047 0.00000445
-0.29740617 0.43354614 -0.00000062
-0.55048647 0.41430554 0.40635898
0.46012805 -0.60260046 -0.00000012
0.49808332 -0.79017509 -0.00000001
-0.50706505 0.08845093 -0.00000033
-0.34225487 -0.56610656 -0.00000015
-0.49071470 -0.68398633 -0.00000007
0.12156370 0.65588319 -0.00000075
0.77244320 -0.66394326 -0.00000034
-0.42387211 0.55053537 0.43006832
-0.20550680 0.48657878 -0.00000072
0.41661972 0.20429195 -0.00000117
0.62154443 -0.44898762 -0.00000055
-0.50201025 0.42914038 0.32340295
-0.68226197 -0.40426705 -0.00000005
-0.06837253 -0.44590048 -0.00000022
-0.20115277 -0.66684445 -0.00000008
-0.11028707 0.71811807 0.07004120
-0.02010411 -0.75006581 -0.00000003
0.18545342 0.51175940 0.00000061
-0.71440099 -0.18516900 -0.00000006
-0.53452024 -0.78786858 -0.00000001
-0.32726343 -0.34503857 -0.00000028
0.13364283 0.43700830 0.00000288
0.26549601 0.03100162 0.00000749
0.43829425 0.14410693 -0.00000112
0.28446882 0.14781240 -0.00000064
-0.42987695 0.54406134 0.42891142
0.04307557 0.15612576 0.00000881
0.28904903 -0.32067203 -0.00000030
-0.71822765 0.14228146 0.14921064
0.62723757 -0.17396695 -0.00000111
-0.26157399 0.49096752 -0.00000066
0.02486046 -0.53392040 -0.00000017
0.63037740 0.01383833 -0.00000148
-0.21576904 0.59338263 0.02256510
0.30512384 0.17042244 0.00000444
0.19897175 0.05646247 -0.00000054
0.24873643 0.33559674 -0.00000089
-0.44011866 -0.06659458 -0.00000037
0.00648377 0.21080645 -0.00000063
0.12000612 0.29200304 0.00000544
-0.08062222 0.67942598 -0.00000089
-0.10975721 0.69263270 0.00589058
-0.29438555 0.62405192 0.29205180
-0.59163247 -0.09970854 -0.00000020
-0.59887604 0.18775958 -0.00000025
-0.53115788 0.11021177 -0.00000031
0.64259434 0.03995405 0.00000031
0.42404210 0.35906021 -0.00000123
0.11595052 -0.11587769 -0.00000043
-0.37061463 0.55780087 0.31665715
-0.28435471 -0.43215000 -0.00000023
0.43429905 0.10783878 0.00000309
-0.25709432 -0.74506836 -0.00000003
-0.20062161 0.18609650 -0.00000062
-0.18631283 -0.34450587 -0.00000028
-0.26130903 0.58154835 0.10568003
-0.62037013 -0.64245983 -0.00000007
-0.54083106 -0.63353048 -0.00000010
0.09787384 0.24138753 0.00000660
0.40362302 0.06071162 -0.00000085
-0.25296803 0.18416095 -0.00000062
0.43567842 0.11103540 0.00000300
0.77542388 -0.05902724 -0.00000181
-0.18359764 0.21474179 -0.00000063
0.15860428 0.35141253 0.00000390
-0.20926794 0.62423021 0.08260083
0.11572269 0.16580235 -0.00000060
0.36839672 0.30307300 -0.00000121
0.70254650 -0.40370944 -0.00000090
-0.36421495 0.57702499 0.34828061
-0.13841248 -0.55209577 -0.00000015
-0.60949676 -0.01559063 -0.00000020
0.47641858 0.19789044 0.00000066
0.33868827 0.21961394 -0.00000095
-0.11954218 0.43481451 -0.00000077
-0.52045743 -0.58863888 -0.00000013
0.69776717 -0.77336370 -0.00000007
0.38422709 -0.54644360 -0.00000016
-0.69774722 0.15149841 0.12143598
-0.38718891 -0.28051320 -0.00000032
-0.06356223 -0.29744003 -0.00000031
0.56044466 -0.58603374 -0.00000013
-0.14960219 0.31661078 -0.00000070
0.04143346 0.35732083 -0.00000072
-0.62534752 -0.27673802 -0.00000014
-0.49821277 -0.61608844 -0.00000011
-0.02109895 -0.77429469 -0.00000002
-0.61330131 -0.60518147 -0.00000009
0.52925361 0.03801900 0.00000252
0.06914357 -0.41383343 -0.00000024
-0.09259671 0.64918366 -0.00000087
-0.27820045 -0.30434132 -0.00000031
0.29522212 -0.47462054 -0.00000020
0.59656356 -0.00651707 -0.00000134
0.35204003 -0.35537115 -0.00000028
-0.21310934 0.47893992 -0.00000071
-0.09354948 -0.69895646 -0.00000006
0.29006473 0.08933352 -0.00000056
0.77185928 -0.35029077 -0.00000112
0.29829437 0.27235986 -0.00000093
0.04883033 0.59039116 0.00000167
-0.44711832 0.39776220 0.11067025
-0.06594083 0.60126852 -0.00000088
0.18585905 -0.34585862 -0.00000028
-0.49809489 -0.62187441 -0.00000011
-0.22421774 -0.58132846 -0.00000014
-0.45553764 -0.28741318 -0.00000031
-0.54021054 -0.45704083 -0.00000019
-0.16117260 -0.20314349 -0.00000037
-0.30898299 0.10426118 -0.00000054
0.03751321 0.74946493 -0.00000102
0.10339107 0.24949109 0.00000639
-0.23497060 -0.06434987 -0.00000046
-0.20527265 0.38445063 -0.00000070
-0.56714748 0.07065654 -0.00000026
0.03117140 0.26807943 0.00000717
0.14961956 0.10466658 0.00000804
-0.46784446 -0.49022790 -0.00000019
0.68992429 -0.21104701 -0.00000124
-0.06041645 -0.12114833 -0.00000042
-0.52153751 0.13911893 -0.00000032
-0.58284415 0.17727798 -0.00000026
-0.57896893 -0.41024251 -0.00000016
0.52707093 0.16727529 -0.00000145
-0.79448707 0.00376616 -0.00000001
-0.17492483 0.53227383 -0.00000076
0.29644854 0.42777009 -0.00000001
-0.74622723 -0.57068097 0.00000000
0.04302905 -0.09950969 -0.00000044
-0.09905571 -0.11080433 -0.00000043
0.28720478 0.12205855 -0.00000060
-0.36941928 0.22741209 -0.00000050
0.45996878 0.16653789 0.00000154
0.38974151 0.07485796 0.00000453
0.34835545 -0.26665724 -0.00000033
0.09138420 0.32581209 0.00000533
0.12262755 0.60350755 -0.00000101
0.68113585 -0.35285431 -0.00000093
-0.49974527 -0.25919005 -0.00000027
0.67874685 -0.30855955 -0.00000101
-0.36926705 0.28279137 -0.00000051
0.07138316 0.55622280 0.00000188
-0.43347692 -0.52410527 -0.00000017
-0.04017299 -0.19756273 -0.00000038
-0.29343352 0.63134471 0.30768736
0.32438544 0.30901091 -0.00000108
0.13185126 0.48860818 0.00000206
0.79305966 -0.76653582 -0.00000008
0.75091152 0.02218416 -0.00000146
0.69276551 0.06243999 -0.00000178
0.01323523 0.62369148 0.00000167
-0.66706645 -0.04517202 -0.00000013
0.38876263 0.05330996 0.00000494
0.06508948 -0.01224888 -0.00000049
0.11579350 -0.03347839 -0.00000048
-0.11030273 0.64531183 -0.00000085
0.03529419 -0.67486858 -0.00000008
0.54495154 -0.03406885 -0.00000112
0.79012571 -0.11321438 -0.00000172
-0.50819933 -0.23092731 -0.00000027
0.42323855 -0.40710960 -0.00000025
0.18238883 0.54871199 0.00000001
0.28171388 -0.29663925 -0.00000031
-0.29521424 -0.01649748 -0.00000049
-0.07518402 -0.20521221 -0.00000037
0.46717955 0.14837698 -0.00000122
-0.55317609 -0.07154239 -0.00000025
0.60085435 -0.63375714 -0.00000013
-0.06182910 -0.37808034 -0.00000026
-0.70607801 0.11165974 0.04374108
0.10270740 0.64670474 -0.00000022
-0.18357501 -0.68545632 -0.00000007
0.32713253 0.06401503 0.00000593
0.76847742 -0.08210185 -0.00000174
-0.56166122 -0.07329458 -0.00000024
-0.62959655 -0.08440791 -0.00000017
-0.22394017 0.62118630 0.11127509
0.15164309 0.29567850 0.00000491
-0.61260410 -0.51516936 -0.00000011
-0.36932905 0.56958534 0.34254612
0.44039323 -0.24276066 -0.00000038
-0.27966901 -0.57835458 -0.00000014
0.03852859 -0.14393975 -0.00000041
0.47554542 0.11042612 -0.00000118
0.66381108 -0.39312075 -0.00000080
0.40164741 -0.56016551 -0.00000015
0.49771692 0.03379896 0.00000320
0.60538616 -0.02303063 -0.00000133
0.15740029 -0.18562255 -0.00000038
-0.40197688 0.06726417 -0.00000044
-0.31888498 -0.40567663 -0.00000025
-0.51200727 -0.32137626 -0.00000025
-0.62891808 -0.55879686 -0.00000008
0.41673199 -0.65105136 -0.00000009
-0.02754877 -0.11651169 -0.00000043
-0.47403600 -0.68502281 -0.00000007
0.60414457 -0.11584747 -0.00000115
-0.36102199 0.51241292 0.18108158
0.22309663 0.51048983 -0.00000115
0.23872161 0.36119012 -0.00000091
0.00370655 0.63071876 -0.00000089
0.00940903 0.18679722 0.00000882
0.40574078 0.10983382 -0.00000095
0.14128819 0.37145575 -0.00000073
0.48119920 0.11794577 -0.00000121
0.36252835 -0.31293448 -0.00000030
-0.48988783 -0.39572192 -0.00000025
0.17625540 0.16069704 -0.00000060
0.45682122 0.11373296 -0.00000112
0.30124079 -0.23955617 -0.00000035
0.65298962 -0.37836960 -0.00000079
-0.47318763 0.44949807 0.30252918
0.30560275 0.19827724 -0.00000080
0.01075408 -0.68378457 -0.00000007
-0.02321864 0.46696085 -0.00000079
-0.61072537 0.03532769 -0.00000021
0.60931282 0.10298247 -0.00000019
-0.05381571 0.19389750 -0.00000062
-0.46713320 0.31656398 -0.00000041
0.07653553 0.00379571 0.00001078
0.39334561 0.23789520 0.00000154
0.61816986 0.03860206 -0.00000149
-0.15988984 -0.00216234 -0.00000050
0.35057988 0.21413494 -0.00000098
-0.78698711 -0.76990232 0.00000000
0.08836241 -0.34617977 -0.00000028
0.74421112 -0.18057013 -0.00000147
-0.60172688 0.33575070 0.33900540
0.54680759 -0.56450792 -0.00000015
-0.58549536 -0.50764367 -0.00000014
-0.55044132 -0.40449961 -0.00000019
-0.43205181 0.25160380 -0.00000044
0.38950045 0.38413281 -0.00000144
0.68775821 -0.12887225 -0.00000139
-0.20897255 -0.09789198 -0.00000044
0.00749420 0.58807278 -0.00000087
-0.39872065 0.41759220 0.04022515
-0.62920975 0.07916053 -0.00000020
0.55150085 -0.55408556 -0.00000015
0.01628600 0.08368603 -0.00000055
-0.55166787 -0.67260728 -0.00000008
-0.08303472 0.11977921 -0.00000057
-0.62614674 -0.07947437 -0.00000017
-0.11303953 -0.10891610 -0.00000043
-0.58021053 -0.05736460 -0.00000022
-0.12916017 0.72191251 0.12593681
0.34591324 -0.46089328 -0.00000021
-0.10291304 -0.35492090 -0.00000028
-0.15679510 0.55165788 -0.00000079
0.19685991 -0.60985925 -0.00000012
-0.36919749 0.11580855 -0.00000048
-0.01333042 -0.02085735 -0.00000049
0.39932598 -0.75660978 -0.00000003
0.19187282 0.49802473 -0.00000103
0.51421374 0.16116974 0.00000059
0.36385631 0.08044247 0.00000493
-0.11313163 0.23269937 -0.00000065
-0.02582629 -0.77063200 -0.00000002
-0.49427387 -0.10823886 -0.00000031
-0.48775787 0.33897125 0.06591118
-0.20122645 0.63465973 0.08848938
0.13357405 -0.46605539 -0.00000021
0.33119903 0.13648223 -0.00000077
-0.25242442 0.18386856 -0.00000061
0.34961530 0.28581454 -0.00000112
-0.07875951 -0.28522623 -0.00000032
0.43606842 -0.28451103 -0.00000032
-0.17160769 0.67926511 0.12544433
-0.10985582 -0.24414742 -0.00000035
0.05358233 -0.74516453 -0.00000003
-0.23837445 0.12248539 -0.00000058
0.73820059 -0.70609786 -0.00000023
0.06814948 0.48429387 0.00000310
0.25745871 -0.49273374 -0.00000019
0.38350125 0.26288437 -0.00000118
0.23857567 -0.06873141 -0.00000046
-0.56961276 0.00251291 -0.00000025
0.30615113 -0.04730380 -0.00000047
0.21064673 0.22943300 -0.00000064
0.48070835 -0.36819842 -0.00000027
-0.47152371 -0.46445200 -0.00000021
0.26010409 0.44225127 -0.00000113
-0.14796048 0.50942693 -0.00000079
-0.54664966 0.31004238 0.13979691
-0.08186643 0.00931436 -0.00000051
-0.04411243 0.59430980 -0.00000087
0.47689669 -0.16852795 -0.00000064
0.01779795 0.38211955 0.00000552
-0.01409754 0.37287214 -0.00000073
-0.00827445 -0.54526440 -0.00000016
0.69212044 0.00029903 0.00000007
-0.48473402 -0.74919135 -0.00000003
0.17786433 0.25750369 0.00000513
-0.43626469 -0.65248355 -0.00000009
0.10839811 0.40128525 0.00000384
0.37273378 -0.42995285 -0.00000023
-0.73270084 -0.22472115 -0.00000003
0.40153924 -0.41637308 -0.00000024
-0.56662515 -0.54399484 -0.00000015
0.25915465 -0.19748001 -0.00000038
0.22674728 0.45805010 -0.00000106
0.33974130 0.07848162 0.00000543
-0.30979654 -0.44391007 -0.00000022
0.55348842 0.08094948 -0.00000137
-0.51945223 -0.23137283 -0.00000026
-0.28694141 -0.66291274 -0.00000009
0.22984801 0.04997646 -0.00000053
-0.07038347 -0.25008993 -0.00000034
0.53139599 0.12443558 0.00000092
-0.29559415 -0.10915266 -0.00000043
0.13446054 -0.58620356 -0.00000013
0.47284167 -0.62486028 -0.00000011
-0.17838219 -0.20156477 -0.00000037
-0.18953853 -0.49894465 -0.00000019
-0.37196572 0.48232545 0.13387533
-0.52192297 -0.40306358 -0.00000022
0.27179441 -0.10496326 -0.00000043
0.49618233 -0.78426459 -0.00000001
0.38234529 0.20664454 0.00000231
0.22721070 -0.62146569 -0.00000011
0.44633968 -0.71282042 -0.00000005
0.40610807 0.23641974 0.00000132
0.28350913 0.51525657 -0.00000135
-0.44467866 0.18088456 -0.00000041
0.69413002 0.04861065 -0.00000084
-0.40867944 0.50299907 0.27538615
0.78259848 -0.32290588 -0.00000119
0.29948867 -0.70928290 -0.00000006
0.14204295 0.30657385 0.00000487
0.02539026 0.69284226 -0.00000093
-0.44613471 -0.40842045 -0.00000024
-0.53500307 -0.32886298 -0.00000022
-0.74674345 -0.39426567 0.00000000
0.23125101 0.25476284 -0.00000068
-0.37110769 -0.24830298 -0.00000034
0.11619948 -0.29068169 -0.00000032
0.26850536 0.22877697 -0.00000075
0.17090624 -0.01248584 -0.00000049
-0.14505623 0.19879695 -0.00000062
-0.22426767 -0.57700122 -0.00000014
0.11559537 -0.65044141 -0.00000009
0.02525337 0.18254891 0.00000865
-0.37327443 -0.46911935 -0.00000021
-0.54862609 -0.40781770 -0.00000019
0.08383502 -0.31688787 -0.00000030
-0.23378363 -0.35804666 -0.00000028
0.52332866 0.09706182 0.00000157
-0.60233295 -0.32094207 -0.00000015
-0.50351904 0.35987872 0.15633214
0.32234438 0.29905698 0.00000180
-0.66418067 0.19601077 0.14842692
-0.14318341 0.03862411 -0.00000052
-0.56684022 0.40546349 0.42488207
-0.56039590 0.26430590 0.06091259
-0.01480333 -0.18148489 -0.00000039
0.29672402 0.17385020 -0.00000073
-0.18862241 0.62741395 0.03954183
0.26806944 0.35474360 0.00000185
0.57359840 -0.35422810 -0.00000058
-0.05982478 -0.62850370 -0.00000011
-0.64976942 -0.70169743 -0.00000003
0.52968527 -0.04281089 -0.00000105
-0.49097594 -0.43032758 -0.00000023
0.49274078 -0.03011613 -0.00000096
0.14594476 -0.24672479 -0.00000035
-0.15164549 0.39402579 -0.00000075
-0.73243704 -0.26293494 -0.00000002
-0.34230000 0.39964445 -0.00000056
-0.12647696 -0.40356815 -0.00000025
0.41564273 -0.78718132 -0.00000001
0.72481895 -0.34122127 -0.00000109
0.36682159 -0.32525517 -0.00000030
-0.41057216 0.22450957 -0.00000046
-0.25858114 0.46865946 -0.00000066
0.73232394 -0.07756200 -0.00000163
0.24634061 0.23539805 -0.00000069
0.68664207 -0.58858109 -0.00000049
-0.53141016 -0.21613972 -0.00000025
0.17842107 0.12883848 -0.00000058
-0.03952711 0.15264258 -0.00000060
0.49110097 -0.63337931 -0.00000010
-0.39009020 -0.61854445 -0.00000011
0.37740206 0.10952381 -0.00000086
-0.20758827 -0.25837048 -0.00000034
-0.50925650 0.47862058 0.46328354
0.41445354 0.00629032 -0.00000078
-0.33234476 0.04513663 -0.00000051
0.08606397 0.13944301 0.00000844
-0.25281283 0.55777965 0.02611826
0.36738679 0.35804937 -0.00000012
-0.21465095 -0.71462517 -0.00000005
0.59350464 0.01842685 0.00000163
0.37680888 -0.15582963 -0.00000040
0.36717923 -0.29857712 -0.00000031
-0.24028591 -0.73600358 -0.00000004
-0.65623525 -0.43760616 -0.00000007
-0.33571631 0.18608569 -0.00000053
0.28924274 0.33708491 -0.00000102
-0.74116640 0.10309840 0.10915412
0.44952374 0.14886464 -0.00000117
0.08297162 -0.58619423 -0.00000013
-0.07101371 -0.18839259 -0.00000038
0.69534195 -0.31595735 -0.00000105
0.03919375 -0.41156291 -0.00000024
-0.40852213 0.06855338 -0.00000043
-0.15645199 -0.01303615 -0.00000049
-0.45216445 0.48247461 0.33200450
-0.13063853 0.28259133 -0.00000068
-0.63533424 -0.79846711 -0.00000000
0.59734892 0.06482788 0.00000073
-0.15460887 -0.31786202 -0.00000030
-0.65334589 0.08309178 -0.00000017
0.78853869 -0.34011221 -0.00000115
-0.76442017 -0.16802967 -0.00000001
0.74598503 -0.00018044 -0.00000183
-0.75499805 -0.18561559 -0.00000001
-0.60490806 0.29638450 0.24977729
0.43062437 0.32914414 -0.00000146
0.01322967 0.58200815 -0.00000086
0.62298106 0.16103935 -0.00000149
-0.60406975 -0.28764731 -0.00000016
0.21300325 0.04069181 0.00000812
0.41495961 -0.58824648 -0.00000013
0.62776546 -0.28645957 -0.00000089
-0.46339308 -0.51219635 -0.00000018
-0.51179319 -0.14261958 -0.00000028
-0.41705069 0.40251275 0.04824090
0.31890850 -0.64971202 -0.00000009
0.02111984 0.17902522 0.00000877
-0.71927316 -0.79084763 0.00000000
-0.47803133 0.32548245 0.00866465
-0.35737741 -0.67342305 -0.00000008
0.05839830 -0.52212897 -0.00000017
-0.00954187 0.73389656 -0.00000096
-0.56895561 -0.61918379 -0.00000011
0.18868349 0.34117023 0.00000361
0.45433173 0.06577981 -0.00000102
0.39458702 -0.56475604 -0.00000015
0.74770325 -0.39098399 -0.00000102
0.73663873 -0.60666951 -0.00000048
0.02785651 0.62320630 -0.00000089
-0.49683035 -0.44167531 -0.00000022
0.71634276 -0.03970119 -0.00000165
0.14306686 0.24866193 -0.00000066
0.44295234 0.30675769 -0.00000065
-0.07262327 -0.16325799 -0.00000040
0.62851535 -0.60283586 -0.00000028
-0.57767149 0.24908987 0.06599137
0.31862451 -0.22130375 -0.00000036
0.52575320 -0.13714832 -0.00000085
0.79367301 -0.39392677 -0.00000102
0.04038512 -0.68993671 -0.00000007
0.15068843 0.02233081 -0.00000051
-0.37326810 0.43920683 0.03076109
-0.02962597 -0.51037852 -0.00000018
-0.12694768 0.48093411 -0.00000080
0.16686845 0.31396318 -0.00000070
-0.05881350 0.74078712 -0.00000093
0.25702668 0.34982420 -0.00000094
-0.52378464 0.41575967 0.34410095
0.34904712 0.15700266 0.00000384
0.53274022 -0.66950717 -0.00000008
-0.25109648 0.65725988 0.26719258
0.01023816 0.53336129 -0.00000083
-0.49387599 -0.79323263 -0.00000000
0.73398689 -0.56916061 -0.00000058
-0.62890005 0.22964941 0.14437771
-0.41314327 -0.75406294 -0.00000003
0.05544634 -0.50403335 -0.00000018
-0.75136565 -0.65653276 0.00000000
-0.19870660 0.32725141 -0.00000070
0.11637658 -0.16542336 -0.00000040
-0.05410181 -0.42613099 -0.00000023
-0.31537223 -0.30851784 -0.00000031
0.09862209 -0.54534664 -0.00000016
-0.71062499 0.05115638 -0.00000010
0.47551336 0.08172508 -0.00000112
-0.48582940 0.42315737 0.26874938
-0.14189600 0.51296722 -0.00000080
-0.70560273 -0.68592048 0.00000000
0.49686737 0.02139808 -0.00000107
0.66701105 -0.70211892 -0.00000020
0.41368814 0.36209153 -0.00000108
-0.58307621 0.24951971 0.08037879
-0.07036484 -0.14979907 -0.00000041
-0.53911614 0.40764853 0.36190563
-0.27673471 -0.22311168 -0.00000036
0.05245613 0.48783459 -0.00000080
-0.19136620 -0.37756979 -0.00000026
-0.08710093 0.25548880 -0.00000066
0.55098225 -0.06824831 -0.00000107
-0.45354974 -0.76139705 -0.00000002
0.12422074 -0.72669751 -0.00000005
-0.09424675 0.66575753 -0.00000087
0.54101078 -0.77444625 -0.00000002
-0.28834874 0.55760706 0.11332062
-0.21417737 0.32848085 -0.00000069
0.29043267 -0.01981310 -0.00000049
0.75033536 -0.32503672 -0.00000119
0.42693899 -0.46980915 -0.00000021
0.43296129 -0.34527249 -0.00000028
0.15394404 -0.50259508 -0.00000019
-0.50080725 0.45307988 0.37946839
0.73936885 -0.61501714 -0.00000046
0.40953556 -0.02158625 -0.00000071
0.32035473 0.20832739 -0.00000087
-0.39525810 -0.14175094 -0.00000041
-0.52910732 0.34239805 0.17632482
-0.23409006 -0.47976011 -0.00000020
0.21042431 0.32407764 0.00000350
0.54349392 -0.64376723 -0.00000010
-0.61948195 -0.16820457 -0.00000016
-0.26772045 0.19737969 -0.00000060
-0.42332964 0.55109454 0.43010951
-0.44478271 -0.42142450 -0.00000024
-0.69890030 -0.48898021 -0.00000002
-0.70568343 -0.76301156 0.00000000
-0.27252144 -0.75389904 -0.00000003
0.02808916 0.31244775 -0.00000070
-0.69844321 -0.56028571 -0.00000001
0.17448506 -0.74835102 -0.00000003
0.24509478 0.51847318 -0.00000065
0.72428070 -0.55760950 -0.00000061
-0.45104232 0.30602120 -0.00000043
0.52085092 0.01620594 -0.00000114
0.05161791 0.46026429 0.00000374
0.36323054 -0.76359477 -0.00000002
-0.47516348 -0.75273285 -0.00000003
-0.06380275 -0.04258609 -0.00000047
0.11667248 -0.22514940 -0.00000036
-0.33698622 -0.77387284 -0.00000002
-0.48311311 0.32023662 0.00826016
0.71391291 -0.07218971 -0.00000158
-0.40192344 -0.24072697 -0.00000035
0.63163313 -0.36583612 -0.00000075
0.22749761 0.41849709 -0.00000098
0.01065579 0.18601235 -0.00000062
0.07080418 0.43148600 0.00000392
0.03826895 -0.17800836 -0.00000039
0.21719672 0.49046930 -0.00000109
0.59449676 0.13412623 -0.00000046
-0.55250816 -0.35931911 -0.00000020
0.33883905 -0.30657974 -0.00000031
0.59234265 0.13919117 -0.00000051
-0.13243331 0.63366409 -0.00000083
0.60008768 -0.46115218 -0.00000046
0.00228326 0.54618155 -0.00000084
0.04645665 0.07348533 0.00001010
0.71120753 -0.67707638 -0.00000031
0.52321161 -0.42140629 -0.00000029
-0.44973938 -0.56215459 -0.00000015
-0.46896260 0.21772511 -0.00000039
-0.00482645 -0.62449938 -0.00000011
-0.10476323 0.13614586 -0.00000059
0.08884326 0.70704993 -0.00000110
0.02732529 0.44272559 0.00000439
0.05543753 0.27396624 -0.00000067
0.27303675 0.24235736 -0.00000079
-0.30677319 0.55742108 0.15829478
-0.54433443 0.34126056 0.21106837
-0.13054272 -0.45335591 -0.00000022
0.50805169 -0.58323835 -0.00000014
-0.63108333 0.18059587 0.02880081
-0.61480488 0.32428691 0.34298598
0.10880019 0.14824867 0.00000795
0.33506214 0.24289170 0.00000257
0.15948196 -0.51090403 -0.00000018
-0.54684540 0.41691570 0.40381685
0.53117429 -0.55133582 -0.00000016
0.10633708 0.24157090 -0.00000065
0.07824891 0.61856290 0.00000075
0.07749912 0.20132950 -0.00000063
0.01097263 -0.55554608 -0.00000015
0.06475315 -0.05931819 -0.00000046
0.11799923 -0.66194008 -0.00000009
0.15627514 -0.30774725 -0.00000031
0.08977395 0.16110950 0.00000803
0.25789898 0.39829379 -0.00000104
-0.18536987 -0.24750115 -0.00000035
-0.23290165 -0.21635103 -0.00000036
-0.76797052 -0.61637592 0.00000000
-0.46263280 0.34270651 0.01316608
0.20095137 0.56458398 -0.00000118
-0.73724752 0.09352093 0.07587358
0.73880446 -0.58643801 -0.00000053
-0.52337714 -0.25478364 -0.00000025
-0.50066822 0.16733082 -0.00000035
-0.48027048 0.37317071 0.13178017
0.15968851 0.10827304 0.00000783
-0.43470378 0.54306413 0.43835484
0.06856407 0.61883543 0.00000091
0.32357003 -0.40756003 -0.00000025
0.62156569 -0.66643067 -0.00000013
-0.43277634 0.14822370 -0.00000042
-0.17997962 0.68407462 0.15794823
0.22642566 -0.32245847 -0.00000030
-0.77537274 -0.00888571 -0.00000002
0.35876129 -0.12797995 -0.00000042
0.00390726 0.39405441 -0.00000075
0.05162071 -0.74463401 -0.00000003
-0.48353109 0.11090641 -0.00000036
-0.40139023 0.29176277 -0.00000048
0.10927722 -0.24781190 -0.00000035
-0.49517858 -0.74360935 -0.00000004
0.06378493 0.43517080 -0.00000077
0.36028319 0.40962961 -0.00000139
0.11633928 -0.77834089 -0.00000001
-0.57468711 0.09364983 -0.00000026
-0.07046412 -0.56021193 -0.00000015
0.67356066 -0.44679563 -0.00000072
-0.21902601 0.07205580 -0.00000055
0.29648133 -0.70807988 -0.00000006
0.09654541 0.20117089 0.00000727
-0.66173437 -0.44643492 -0.00000007
0.07459117 -0.53827738 -0.00000016
-0.01286035 -0.70078144 -0.00000006
-0.31501059 0.19721139 -0.00000055
0.11088286 -0.35115467 -0.00000028
-0.21848470 0.58788846 0.01571364
0.46386064 0.05966041 0.00000338
0.32928118 0.11041338 0.00000506
0.41201240 0.09453382 -0.00000094
0.08153985 -0.55968397 -0.00000015
0.11121113 0.68107160 -0.00000100
0.27088191 0.50782528 -0.00000130
-0.16397445 -0.31455836 -0.00000030
0.31684143 0.08380554 -0.00000062
0.63867279 -0.49559514 -0.00000052
0.33859330 0.02001992 0.00000650
0.38223403 0.08719191 -0.00000083
-0.28328218 0.05684665 -0.00000054
0.79595844 -0.52150405 -0.00000070
0.12636725 0.35519472 -0.00000072
0.33194633 0.05228099 -0.00000060
-0.19870709 -0.12258924 -0.00000042
-0.22784866 -0.69002802 -0.00000007
-0.31991986 -0.09951888 -0.00000044
0.32996143 0.25443912 0.00000246
0.25141589 0.18151772 -0.00000061
-0.38300562 -0.78687048 -0.00000001
-0.25337592 0.55180415 0.01277185
-0.33476934 0.39146898 -0.00000057
-0.54425744 0.27820670 0.05539465
-0.27287228 0.42029546 -0.00000064
-0.07960399 -0.76064881 -0.00000002
-0.57632480 -0.11467033 -0.00000022
0.61290687 0.09572905 -0.00000013
-0.22740996 0.53621599 -0.00000071
-0.27666442 0.57764895 0.13392935
-0.26195840 -0.69845332 -0.00000006
0.04077130 0.62226032 0.00000127
-0.46570128 -0.12853623 -0.00000033
0.13274532 0.39255903 -0.00000075
-0.20928213 -0.14649076 -0.00000041
0.38040535 0.28365837 0.00000097
0.42650884 -0.03189186 -0.00000074
-0.04933287 -0.41020401 -0.00000024
0.73451371 -0.63312749 -0.00000042
0.17198877 -0.35950147 -0.00000028
-0.67477200 0.06056975 -0.00000014
-0.24977203 -0.20381022 -0.00000037
0.53049269 0.05049253 -0.00000124
0.28157713 0.19840392 0.00000439
-0.50829336 0.47841578 0.46040357
-0.06775355 -0.00717037 -0.00000050
-0.59482666 -0.20379315 -0.00000018
0.10410558 0.17584146 0.00000757
-0.39836817 0.39738794 -0.00000050
-0.32346229 0.57753461 0.24904574
-0.73268806 0.06952651 0.00546282
-0.35203222 0.31152298 -0.00000053
0.32508294 0.01523450 0.00000685
-0.16252224 0.64635955 0.02189924
0.08903428 0.25370252 0.00000653
0.33720748 0.45913110 -0.00000136
0.28224016 -0.65457292 -0.00000009
-0.24765109 0.57853776 0.06457716
-0.36224175 -0.20815329 -0.00000037
0.15071994 0.44521773 -0.00000079
0.02696510 0.38923303 0.00000527
-0.32327122 0.43957947 -0.00000059
-0.39447871 -0.01114323 -0.00000043
0.26826526 -0.21943223 -0.00000036
-0.53393821 -0.71000880 -0.00000006
-0.37168076 -0.25984502 -0.00000034
-0.47023848 -0.14446186 -0.00000033
-0.59280723 0.30283603 0.23584667
-0.05808334 0.24552872 -0.00000065
0.33168260 -0.57173943 -0.00000014
0.49495799 0.10600848 -0.00000123
0.13270461 -0.45691806 -0.00000021
0.03913632 -0.67870256 -0.00000008
-0.54220931 0.27328673 0.03821204
0.69837070 -0.12443773 -0.00000143
-0.45350899 0.38702014 0.09994025
-0.27357142 -0.62310910 -0.00000011
0.51406349 0.22949369 -0.00000063
0.08171595 0.14185745 0.00000846
0.33269959 -0.16208697 -0.00000040
0.46480993 -0.32412237 -0.00000030
0.18408598 0.34269721 0.00000365
0.10869982 0.50563291 0.00000214
0.63285995 -0.48424895 -0.00000052
-0.24958736 0.02050426 -0.00000051
0.10755006 0.40627684 -0.00000075
-0.30132210 -0.35133699 -0.00000028
-0.24092125 -0.69028259 -0.00000007
-0.31301129 0.47349635 -0.00000061
0.44372449 0.08608293 -0.00000103
0.12671516 0.30878287 0.00000507
0.50149441 0.22063090 -0.00000023
0.61329639 0.14440630 -0.00000101
0.07457295 0.46612550 -0.00000079
0.17604942 0.32213987 0.00000411
0.11545847 -0.28759026 -0.00000032
0.17806530 0.27890663 -0.00000067
-0.19414856 -0.67923540 -0.00000008
-0.15735087 -0.45266988 -0.00000022
0.02682490 -0.79772781 -0.00000000
-0.50089539 0.50657433 0.51159657
0.42524974 -0.63953409 -0.00000010
-0.22265330 -0.31059794 -0.00000031
-0.67575288 0.15991678 0.08795898
0.38490139 0.12273517 -0.00000091
-0.77875159 -0.72377690 0.00000000
0.44119814 0.21487807 0.00000103
-0.24047500 -0.32335006 -0.00000030
0.38332830 0.37339931 -0.00000070
-0.55633971 -0.10307606 -0.00000024
0.49418604 -0.11558598 -0.00000080
-0.55512784 0.29641855 0.12710834
-0.72717096 -0.04709304 -0.00000007
0.25234961 0.12405405 -0.00000058
-0.35364685 0.28747335 -0.00000053
0.61174989 -0.40428612 -0.00000061
0.44623831 0.12901436 0.00000248
-0.39378484 0.47611436 0.17236316
-0.34055168 0.36504717 -0.00000056
-0.32545528 0.03792421 -0.00000051
0.55870691 0.22104411 -0.00000133
0.07649401 0.67538833 -0.00000023
-0.41912377 -0.59354067 -0.00000013
0.11513576 0.30345335 -0.00000069
-0.50168623 0.31004344 0.02892430
-0.00198187 -0.31320932 -0.00000030
0.42366660 -0.75433970 -0.00000003
0.21775642 0.45459500 0.00000102
-0.56313629 -0.72384516 -0.00000005
-0.36712107 0.35901860 -0.00000053
-0.67200830 -0.73471437 -0.00000000
0.12508827 -0.28399003 -0.00000032
-0.41957074 0.41680595 0.08970052
-0.15550284 -0.56589547 -0.00000015
0.34218105 -0.51744193 -0.00000018
0.21551000 -0.33532856 -0.00000029
-0.60377703 0.14263548 -0.00000024
-0.11560853 0.72784330 0.10714457
0.51514670 -0.67037225 -0.00000008
-0.79537539 -0.44866657 0.00000000
-0.33906304 0.24008972 -0.00000054
-0.06061986 0.41583409 -0.00000076
0.21365464 -0.26430276 -0.00000033
-0.04170607 -0.68191905 -0.00000007
0.40909495 0.14863151 -0.00000104
-0.11715347 0.31323248 -0.00000070
-0.15716326 0.53581401 -0.00000078
-0.24747802 -0.54872312 -0.00000016
-0.56331961 0.26391717 0.06716358
-0.32448780 0.57249797 0.23915481
-0.59690491 -0.56818557 -0.00000011
-0.31305933 0.52160758 0.08548362
0.53723331 -0.37230042 -0.00000043
-0.27532095 0.62501205 0.24740818
0.36077752 -0.47686714 -0.00000020
-0.41740875 -0.08414036 -0.00000039
0.36268781 -0.57779939 -0.00000014
0.59263501 -0.44500035 -0.00000047
0.52337254 0.02934158 -0.00000117
-0.72696472 -0.69282166 0.00000000
0.79896669 -0.06741243 -0.00000183
0.08369545 0.51956530 -0.00000082
-0.07631073 0.38423001 -0.00000074
-0.27406418 0.12299284 -0.00000058
-0.61751595 0.21499679 0.08017395
-0.21190430 -0.18056847 -0.00000039
0.33439005 0.01823167 -0.00000055
0.53940411 0.22741245 -0.00000108
0.45414384 0.26755281 -0.00000016
0.07176198 -0.05246016 -0.00000047
-0.19278635 -0.08875928 -0.00000044
-0.44227536 0.49310461 0.33383141
-0.22184899 0.59357251 0.03802587
-0.01239996 0.05859044 -0.00000054
0.32284923 -0.54157667 -0.00000016
0.46140417 -0.56541722 -0.00000015
0.50765056 -0.48188713 -0.00000020
0.37378928 -0.01214132 -0.00000061
0.33427244 -0.15224627 -0.00000040
-0.40799295 -0.63797492 -0.00000010
0.34662791 -0.02397394 -0.00000050
0.46737095 -0.43199563 -0.00000023
-0.53195852 0.35358250 0.21093521
-0.54847553 0.28143941 0.07376753
-0.41638025 -0.61424163 -0.00000012
0.19101521 0.28114723 -0.00000068
0.00327067 -0.43972536 -0.00000023
0.45794967 0.08775201 -0.00000108
-0.77607677 0.02615180 0.00549768
0.79214161 -0.64004902 -0.00000040
0.36940671 -0.76117070 -0.00000002
0.29431926 0.25432144 -0.00000088
0.01897785 0.44021370 0.00000456
-0.57865240 -0.62326291 -0.00000011
-0.51254291 0.03982071 -0.00000031
-0.23989953 -0.27776210 -0.00000033
-0.24430277 -0.31026689 -0.00000031
0.61468433 0.11223462 -0.00000163
-0.10216409 -0.76461957 -0.00000002
-0.47420444 0.41288880 0.21476237
-0.36137222 0.56335402 0.30755979
0.01375151 0.60787739 -0.00000088
0.76244138 -0.07841914 -0.00000173
0.13582857 0.25053340 0.00000588
0.26693649 0.08727775 -0.00000055
-0.55387742 0.26998067 0.05883204
0.16448951 -0.79716529 -0.00000000
0.00313698 -0.79769509 -0.00000000
0.63197138 -0.12693358 -0.00000121
-0.70123074 -0.15372151 -0.00000008
-0.38979633 -0.63688728 -0.00000010
0.05584742 0.24054457 0.00000725
-0.07277077 -0.58984768 -0.00000013
0.73318737 -0.72279222 -0.00000019
-0.36739265 -0.53609996 -0.00000016
-0.57107777 -0.62246536 -0.00000011
0.71364997 -0.76554241 -0.00000009
0.21956044 0.33486501 -0.00000080
0.09662298 0.48828321 0.00000261
0.20244137 -0.16355112 -0.00000040
-0.10501621 0.73091085 0.08858930
0.22721866 0.30070766 0.00000360
-0.51000178 0.28024105 -0.00000036
0.74488278 -0.78125418 -0.00000005
0.48155834 -0.04357216 -0.00000090
-0.49212916 0.19437278 -0.00000036
0.46088428 -0.43418417 -0.00000023
0.36101762 -0.66211373 -0.00000009
-0.07106746 0.64227049 -0.00000090
-0.68738247 -0.64974493 -0.00000000
0.54435312 -0.28173626 -0.00000063
-0.36222251 0.39435406 -0.00000054
-0.14843129 0.47935914 -0.00000078
0.20862987 -0.79786309 -0.00000000
0.03286655 0.17091922 0.00000873
-0.08718372 -0.49185903 -0.00000019
-0.10528121 -0.00215243 -0.00000050
0.13450478 0.05607877 -0.00000054
-0.27250014 0.56311408 0.08781926
-0.78521827 -0.63890880 0.00000000
0.05583482 0.65977540 0.00000044
-0.33747121 0.56987073 0.26469199
0.47812532 0.24265542 -0.00000018
-0.38532371 -0.76098762 -0.00000002
0.42328069 -0.73777216 -0.00000004
-0.45201610 0.54003127 0.47356644
0.67326171 -0.07990157 -0.00000144
0.17494806 0.48129039 0.00000136
-0.71600572 -0.34940661 -0.00000003
-0.48924322 0.50851630 0.48765225
-0.42598048 0.45821691 0.20762116
-0.60914079 -0.26509883 -0.00000016
-0.40649196 0.15212648 -0.00000045
0.57585695 0.17312064 -0.00000080
-0.25466055 0.44078881 -0.00000066
-0.01442188 0.68076367 -0.00000093
0.37504603 -0.67193638 -0.00000008
-0.09618941 -0.27435174 -0.00000033
-0.09201972 0.22576173 -0.00000064
0.57894999 -0.73251089 -0.00000004
0.53668721 0.08393880 -0.00000132
0.11922306 0.39540965 -0.00000075
-0.39495607 -0.22469900 -0.00000036
0.48420470 -0.59153105 -0.00000013
-0.37384639 -0.43544746 -0.00000023
0.04409869 0.42652794 0.00000440
0.36824816 -0.34965679 -0.00000028
-0.07639727 0.51841502 -0.00000082
-0.33258078 0.52669092 0.14615647
0.50749934 -0.72273142 -0.00000005
0.41280558 0.29316799 0.00000017
0.32462176 0.17336854 -0.00000082
-0.45215581 0.47930699 0.32417223
-0.68758199 -0.33588957 -0.00000006
-0.00785896 0.21540761 -0.00000063
0.08924140 0.22829117 0.00000694
0.50256115 -0.30441331 -0.00000045
-0.55676003 0.04356995 -0.00000027
0.48759675 0.02565687 -0.00000105
-0.41590908 0.14278084 -0.00000044
-0.30338192 0.08963292 -0.00000055
-0.36112336 0.07897336 -0.00000048
-0.46435632 -0.06030844 -0.00000035
0.00497496 0.30661685 -0.00000069
-0.05634656 -0.26365440 -0.00000034
0.05779486 0.50477699 0.00000293
0.43867580 0.22498466 -0.00000128
-0.45393665 0.48069697 0.33199112
0.22126687 -0.78578972 -0.00000001
0.72512372 0.06777868 -0.00000189
0.00768498 0.37089111 0.00000586
0.23304318 0.33860276 0.00000281
0.64369301 -0.04674571 -0.00000141
-0.27498487 0.08011425 -0.00000055
-0.04826162 0.69001269 -0.00000093
0.11094472 0.66811368 -0.00000110
0.03811647 0.20095090 -0.00000063
-0.74657931 -0.52597983 0.00000000
0.66282758 -0.24038545 -0.00000109
0.66317912 -0.17852669 -0.00000121
0.03862039 0.58509301 -0.00000087
-0.07312751 0.53005233 -0.00000083
-0.34774331 0.57702543 0.30766447
-0.38665632 0.52187575 0.26762720
-0.13841085 0.44166001 -0.00000078
0.10784879 0.11576740 -0.00000057
0.22603018 0.27396564 0.00000410
0.30813423 0.00154845 0.00000733
-0.47532444 0.00879828 -0.00000035
0.62993293 0.02542581 -0.00000151
-0.52502592 -0.14426588 -0.00000027
0.02885760 0.26562075 -0.00000067
-0.62746540 0.13557570 -0.00000021
0.12921552 0.31955056 -0.00000070
-0.08401967 -0.29629886 -0.00000031
-0.78646902 -0.32224722 0.00000000
0.19418156 0.27543537 -0.00000067
0.06437823 0.52510381 -0.00000083
-0.06297617 -0.24325061 -0.00000035
0.11554887 -0.15864495 -0.00000040
0.63985875 0.00121473 0.00000105
-0.39951082 -0.41641084 -0.00000024
0.52003770 0.07025221 0.00000212
-0.68688128 -0.41042179 -0.00000005
-0.16817276 -0.70109207 -0.00000006
0.08175285 -0.05685058 -0.00000046
-0.38845047 -0.01863769 -0.00000044
0.66625359 -0.17259171 -0.00000124
-0.23847002 -0.46638651 -0.00000021
-0.53783752 -0.22630268 -0.00000024
0.54176471 0.17039339 -0.00000151
0.43435586 -0.37609905 -0.00000026
-0.00871878 -0.79438715 -0.00000000
0.43588544 -0.43779416 -0.00000023
-0.04462573 0.62184625 -0.00000089
-0.17789254 -0.28637698 -0.00000032
-0.24898253 -0.08066310 -0.00000045
-0.53262892 0.36973632 0.25242189
-0.09436368 0.41261567 -0.00000076
0.03854555 -0.66026037 -0.00000009
0.39906715 -0.02084960 -0.00000068
-0.63009652 -0.03119005 -0.00000018
0.03291911 0.18781325 -0.00000062
0.06230852 0.65024309 -0.00000091
-0.48175441 0.00249757 -0.00000034
-0.51794827 0.05692200 -0.00000031
0.38498499 -0.60920052 -0.00000012
0.16813433 0.10460464 0.00000776
-0.11818278 -0.73983328 -0.00000004
0.14011124 -0.00351575 -0.00000050
-0.27293640 -0.57437537 -0.00000014
0.37237193 0.39465442 -0.00000140
-0.21854144 0.02401597 -0.00000052
0.37536093 -0.39020499 -0.00000026
-0.53366110 0.38137852 0.28367545
-0.67177927 -0.09651388 -0.00000012
-0.66249288 -0.75647950 -0.00000001
0.77864140 -0.65977369 -0.00000035
-0.69587875 -0.50604956 -0.00000002
-0.15239116 0.68160836 0.08383668
-0.65141110 -0.03557921 -0.00000015
0.28496891 -0.27099087 -0.00000033
0.00239445 0.39644481 0.00000552
-0.33463123 -0.54012354 -0.00000016
-0.29808533 0.03597034 -0.00000052
0.12424062 0.45678592 -0.00000079
0.63438918 0.02940766 -0.00000153
0.04219914 0.34441376 -0.00000072
-0.50435409 -0.18920270 -0.00000028
0.45319442 0.26895106 -0.00000141
-0.29841136 0.07909113 -0.00000055
0.15263970 -0.63094506 -0.00000011
-0.09687459 0.11479972 -0.00000057
-0.35079525 -0.01839739 -0.00000048
0.17849414 -0.65696519 -0.00000009
0.11300638 0.57605518 -0.00000092
-0.22422015 -0.15619151 -0.00000040
0.44906589 -0.05914018 -0.00000076
-0.74178747 -0.42285462 0.00000000
-0.49485371 -0.31798853 -0.00000027
0.53154400 0.02673321 -0.00000119
0.04071545 -0.34741766 -0.00000028
0.73356703 -0.12725098 -0.00000154
-0.47975408 -0.66191500 -0.00000009
0.34557910 0.12124889 -0.00000078
-0.35474519 -0.28150528 -0.00000032
0.35640940 0.29224841 0.00000127
0.04576478 -0.03471246 -0.00000048
0.73788256 -0.72068680 -0.00000020
0.47326271 0.15902064 0.00000142
0.23752631 0.12892980 0.00000632
0.02549398 0.29977816 -0.00000069
0.22828952 -0.66062435 -0.00000009
0.57782024 -0.79989597 -0.00000000
-0.46018156 0.14291203 -0.00000039
-0.01784279 -0.26815664 -0.00000033
0.27161366 0.07661876 0.00000666
0.68172675 -0.24188876 -0.00000115
0.52979744 0.12990077 0.00000086
0.07371912 -0.44299004 -0.00000022
-0.40641855 0.17552816 -0.00000045
0.24724614 -0.75642567 -0.00000003
0.35514570 0.24926607 -0.00000106
0.40479459 -0.33271051 -0.00000029
0.62439872 -0.42844619 -0.00000060
-0.15886669 0.11467945 -0.00000057
-0.32129048 -0.28814915 -0.00000032
0.24351949 0.54196645 -0.00000128
-0.54077437 -0.13381999 -0.00000025
0.31728680 0.27184764 0.00000239
0.00828214 -0.08806453 -0.00000044
0.03794386 0.22508884 0.00000777
0.17584331 0.58664066 -0.00000115
0.22661689 0.23128317 0.00000482
0.16578554 -0.70979195 -0.00000006
0.25088236 -0.29860585 -0.00000031
-0.42943042 -0.11752495 -0.00000037
-0.04493631 -0.61250315 -0.00000012
-0.32349543 -0.64978857 -0.00000009
0.08180742 -0.04612326 -0.00000047
0.66792135 -0.62637776 -0.00000036
-0.51593842 0.43925644 0.38269325
0.06843137 0.72420454 -0.00000107
-0.61299169 -0.44988232 -0.00000012
-0.60646256 -0.62062814 -0.00000009
-0.39585609 0.52379740 0.29505136
0.02277404 0.39479730 0.00000524
0.42385205 0.01547209 0.00000495
0.56055985 0.15074991 -0.00000011
0.24118803 -0.51344492 -0.00000018
0.52881753 -0.34921001 -0.00000045
0.16446759 -0.32006031 -0.00000030
0.41685283 0.22986779 0.00000123
0.07607398 0.02706297 0.00001041
0.49576018 0.03453263 0.00000322
-0.49027889 0.41304882 0.25479489
0.29112024 0.30415780 0.00000231
0.22868050 0.24792619 0.00000452
0.42187199 -0.34106902 -0.00000029
0.60268337 -0.10448330 -0.00000116
-0.19962912 -0.22473802 -0.00000036
-0.15903360 -0.18720813 -0.00000038
-0.42547834 0.49645051 0.30066242
0.74919758 0.01936841 -0.00000137
-0.03369223 -0.32991550 -0.00000029
-0.03366796 -0.12132012 -0.00000042
-0.43034537 0.42092531 0.12642755
0.33599546 0.32290975 0.00000111
-0.65994771 0.01475014 -0.00000015
0.22384747 0.31849941 0.00000335
0.73103513 -0.10577648 -0.00000157
-0.30061218 -0.59348776 -0.00000013
-0.14603669 0.41598863 -0.00000076
-0.23827642 -0.69696542 -0.00000006
-0.45919436 -0.40706641 -0.00000025
-0.13842271 -0.60696555 -0.00000012
0.70923211 0.02151467 -0.00000175
-0.25541441 -0.58003560 -0.00000014
-0.70888642 -0.61062956 0.00000000
0.58281893 -0.70952080 -0.00000006
-0.74464880 0.09624250 0.10083546
-0.07784371 0.33987774 -0.00000071
-0.11097581 -0.21569028 -0.00000037
-0.26870016 -0.17666308 -0.00000039
0.04838874 0.21566366 0.00000777
-0.25283675 -0.76104247 -0.00000002
0.01791819 0.38720525 0.00000544
0.56753384 -0.65284105 -0.00000009
-0.17563982 -0.26592216 -0.00000033
0.53259134 -0.56367902 -0.00000015
0.75545426 -0.60678978 -0.00000048
0.51553116 0.02835462 0.00000295
0.36657044 -0.76561953 -0.00000002
-0.72205970 0.11389702 0.08866716
-0.59974936 0.21222044 0.02951717
0.28539726 0.20783212 0.00000415
0.15518343 0.27918422 -0.00000067
0.34528472 0.17847541 -0.00000089
