ply
format ascii 1.0
element vertex 1381
property float x
property float y
property float z
end_header
-0.00312021 -0.41725079 0.35787696
-0.00034334 0.21762596 0.03844417
-0.56791028 -0.60666673 0.00000000
-0.22055937 0.34138886 0.00000343
-0.10003094 0.68168741 -0.00000022
-0.00119590 0.28421900 0.13651405
-0.24450679 0.40769168 -0.00000035
-0.00185899 -0.02987071 0.21321942
-0.00185290 -0.33177768 0.21252079
-0.00286772 0.14665405 0.32839842
-0.00203204 -0.30837397 0.23306696
-0.02745091 0.27772376 0.00000742
-0.03207995 0.65995747 0.00000162
-0.00102631 0.03481164 0.11659888
-0.00214915 0.00130079 0.24649925
-0.00664979 -0.79743856 0.76276272
-0.61475618 0.13240920 -0.00000144
-0.21483740 -0.41877000 0.00000000
-0.29748194 0.01617515 0.00000727
-0.19837735 0.51819259 -0.00000035
-0.70642015 -0.24115530 -0.00000117
-0.38342512 -0.63596521 0.00000000
-0.00269172 -0.39071501 0.30873009
-0.00321278 0.22895617 0.36823227
-0.00312323 0.04860372 0.35825402
-0.00390774 -0.14427266 0.44824075
-0.00008543 0.78044762 0.00979919
-0.00656644 -0.29992336 0.75334039
-0.35497226 0.12908171 -0.00000033
-0.00281965 -0.39464881 0.32340344
-0.00255721 -0.29108824 0.29330299
-0.00192063 0.35948642 0.22031400
-0.22951447 0.19735583 0.00000558
-0.00547495 -0.45632878 0.62802598
-0.00463137 -0.67162237 0.53120074
-0.42608085 -0.13896529 -0.00000016
-0.00602438 -0.25467590 0.69113977
-0.00500879 -0.56303116 0.57449591
-0.00638481 -0.77963508 0.73235850
-0.00336430 -0.65461175 0.00000000
-0.00295523 -0.24180429 0.33895371
-0.00438491 -0.77341284 0.50293309
-0.00278319 0.23910481 0.31927867
-0.07054631 -0.63571965 0.00000000
-0.00386684 0.02040754 0.44301470
-0.29946850 -0.68704992 0.00000000
-0.13139848 0.48147507 0.00000000
-0.10858356 0.19408468 0.00000000
-0.12877426 -0.70671450 0.00000000
-0.24294206 0.17940956 0.00000000
-0.78319534 -0.71625347 -0.00000021
-0.00295752 -0.00330491 0.33922118
-0.00448096 0.26888985 0.51411160
-0.51810749 -0.18004362 -0.00000048
-0.24474848 0.09680149 0.00000685
-0.00569321 -0.21233756 0.65314197
-0.00351100 -0.72138505 0.40269805
-0.00149363 0.30612640 0.17131347
-0.00275392 0.14897466 0.31589442
-0.19011766 -0.49912068 0.00000000
-0.29585716 0.38102936 -0.00000052
-0.57655814 -0.77373950 0.00000000
-0.00452017 -0.64375360 0.51844699
-0.00301369 -0.48548791 0.34565919
-0.09238881 0.52542669 0.00000272
-0.10112357 0.66175268 0.00000037
-0.00066625 -0.21509233 0.07641657
-0.00200018 0.09273535 0.22859217
-0.00058157 -0.42670627 0.06670425
-0.00182368 -0.19970259 0.20916982
-0.44027504 -0.48140996 0.00000000
-0.00357093 0.14842276 0.40924887
-0.21766672 0.34316186 0.00000345
-0.09721557 -0.17669520 0.00000000
-0.00361993 0.16424601 0.41529205
-0.01668942 -0.03983281 0.00000000
-0.00068552 -0.61503837 0.07862629
-0.00081836 0.36899343 0.09386282
-0.06596935 0.11483938 0.00000928
-0.42243058 -0.02138476 -0.00000035
-0.58059973 -0.77766163 0.00000000
-0.00292081 0.14340494 0.33449496
-0.57810362 -0.07190000 -0.00000093
-0.00108177 0.13285620 0.12313998
-0.00061281 0.57148659 0.07001538
-0.02052726 -0.67020609 0.00000000
-0.15341587 0.36768870 0.00000000
-0.08304134 -0.49842645 0.00000000
-0.58279070 -0.62080813 0.00000000
-0.07035793 0.41904773 0.00000000
-0.29796511 0.09123551 0.00000612
-0.00232524 0.51898565 0.26676971
-0.26707188 0.18308824 0.00000518
-0.25874686 -0.07984618 0.00000000
-0.00023397 0.64036290 0.02660686
-0.00048449 0.18729015 0.05556883
-0.00242902 0.25840863 0.27818374
-0.28866560 -0.55447994 0.00000000
-0.11838174 0.15279231 0.00000000
-0.28396095 0.36604407 0.00000180
-0.02842108 0.50477029 0.00000000
-0.13072537 -0.62685757 0.00000000
-0.57195071 -0.08587907 -0.00000087
-0.21290505 -0.50562457 0.00000000
-0.00129872 0.30895370 0.14837101
-0.00331112 0.11104158 0.37930436
-0.00140972 -0.10706524 0.16168944
-0.76205226 -0.69205388 -0.00000027
-0.00165570 0.03638667 0.18891647
-0.00276973 0.36995043 0.31776884
-0.19057415 0.55937167 -0.00000039
-0.67978029 -0.30884849 -0.00000094
-0.14394780 0.57362435 0.00000102
-0.52898556 -0.03864811 -0.00000078
-0.41126459 0.21096291 0.00000194
-0.26527316 -0.76646270 0.00000000
-0.00472884 0.03706567 0.54215012
-0.00154565 0.14260883 0.17645499
-0.00305223 -0.08048723 0.35007922
-0.58765715 0.20489641 -0.00000134
-0.31581324 -0.43616673 0.00000000
-0.00629250 -0.62403066 0.72181003
-0.79985193 -0.68480996 -0.00000029
-0.00682779 -0.57985274 0.78325226
-0.26155495 -0.10377118 0.00000000
-0.00107241 0.61419759 0.12292352
-0.00093395 0.55182107 0.10712305
-0.00279905 0.43388106 0.32115125
-0.00622658 0.00189974 0.71441537
-0.00682510 -0.56923135 0.78294617
-0.32827345 -0.77377617 0.00000000
-0.00603809 -0.53833539 0.69263600
-0.72884849 0.03245744 -0.00000175
-0.00449458 0.14236834 0.51542630
-0.00590455 -0.06704827 0.67743723
-0.07555601 -0.52533131 0.00000000
-0.30803578 0.26000943 0.00000310
-0.18654111 0.39808071 0.00000313
-0.10366463 0.27841857 0.00000626
-0.75019265 -0.26133500 -0.00000133
-0.00341246 0.11312592 0.39095876
-0.00592659 0.11628358 0.00001017
-0.00669387 0.02616329 0.76804377
-0.09044351 0.56912094 0.00000210
-0.67217318 -0.10180486 -0.00000127
-0.00165394 0.27860348 0.18913171
-0.00388670 -0.18725516 0.44581444
-0.19825220 0.33979812 0.00000388
-0.00091054 0.68644452 0.10447336
-0.00459395 -0.32869794 0.52694787
-0.61494635 0.16408848 -0.00000150
-0.00475871 -0.67988634 0.54580596
-0.73813036 0.04490884 -0.00000156
-0.00044503 0.39188754 0.05104284
-0.09481804 -0.56651404 0.00000000
-0.00090494 -0.67138656 0.10379377
-0.18186936 0.41072830 -0.00000009
-0.08547294 0.14569194 0.00000852
-0.01678880 0.75769297 0.00000038
-0.00377593 -0.02219127 0.43314595
-0.68997222 -0.76830754 -0.00000008
-0.38279894 0.17839105 0.00000303
-0.60399917 0.01269577 -0.00000119
-0.31064591 0.09827865 -0.00000009
-0.55531422 -0.63163582 0.00000000
-0.00321590 0.06154689 0.36889248
-0.00085809 0.44487910 0.09841985
-0.00420695 0.20240172 0.48267461
-0.00374838 -0.68128832 0.42992533
-0.16033926 0.13421146 0.00000000
-0.00061803 0.55149187 0.07088615
-0.00267123 -0.47899806 0.30637957
-0.08035307 0.53145156 0.00000000
-0.44105708 0.17550812 -0.00000078
-0.21220313 0.37068211 -0.00000015
-0.00347361 0.12706451 0.39848819
-0.00190658 -0.09837270 0.21867811
-0.79147073 -0.72001674 -0.00000020
-0.00638076 -0.06630360 0.73209241
-0.63446556 -0.77105632 0.00000000
-0.72834912 -0.05316853 -0.00000160
-0.34308691 0.26749262 0.00000231
-0.13765272 -0.69453388 0.00000000
-0.40458469 -0.06846205 -0.00000019
-0.00630770 -0.05590272 0.72370994
-0.00263168 0.08584373 0.30184727
-0.00248701 -0.50578731 0.28525075
-0.11497300 0.40217016 0.00000423
-0.53637869 -0.35091886 -0.00000025
-0.44352448 0.01773374 0.00000455
-0.08863809 -0.14743889 0.00000000
-0.00027474 0.63184485 0.03127703
-0.34281968 -0.03847883 0.00000000
-0.30303411 0.43858941 0.00000022
-0.06126682 -0.07017798 0.00000000
-0.75483512 -0.35374532 -0.00000112
-0.00018240 -0.73050521 0.02092050
-0.00127195 -0.70958165 0.14588794
-0.02173952 0.09503432 0.00000000
-0.00355594 0.08348339 0.40792534
-0.57323855 -0.15940461 -0.00000075
-0.32733038 -0.19353362 0.00000000
-0.00604411 -0.73286018 0.69327322
-0.00112086 0.41567372 0.12811878
-0.12330527 -0.62365208 0.00000000
-0.54233654 -0.22716691 -0.00000050
-0.00187713 -0.64952342 0.21529961
-0.05249558 0.63115704 0.00000000
-0.00636229 -0.04275744 0.72997967
-0.45947988 0.30773847 -0.00000109
-0.00600028 0.03935087 0.68832994
-0.00021713 0.59412262 0.02459284
-0.00007666 -0.68921070 0.00879295
-0.00165327 0.27809146 0.18962370
-0.17530451 0.03723061 0.00000000
-0.23397589 0.18286653 0.00000000
-0.16332288 0.63274780 -0.00000040
-0.11475270 0.39841849 0.00000429
-0.41344321 0.22695759 -0.00000075
-0.04495277 0.66752370 0.00000000
-0.14063484 0.11690028 0.00000000
-0.42607017 0.06152345 -0.00000051
-0.00011425 -0.72680213 0.01310365
-0.43436265 -0.23145343 -0.00000003
-0.00057258 0.58206383 0.06541120
-0.00225108 0.03557103 0.25819056
-0.00489429 0.05700435 0.56121077
-0.60849673 -0.25467221 -0.00000073
-0.24010579 -0.75344608 0.00000000
-0.00441333 -0.09907573 0.50628008
-0.39985745 0.01595524 0.00000542
-0.00145756 -0.18346139 0.16717714
-0.00224476 0.48905957 0.25754933
-0.00524296 -0.70649924 0.60134772
-0.04317293 0.46208841 0.00000000
-0.38205744 0.29651476 0.00000107
-0.00559676 0.07787519 0.64201418
-0.51219330 -0.11378951 -0.00000057
-0.00116912 0.51863638 0.13410467
-0.72242348 -0.74525770 -0.00000014
-0.60807083 0.01160414 -0.00000120
-0.00201218 -0.36413910 0.23078917
-0.43674729 -0.65069817 0.00000000
-0.16157597 -0.05327193 0.00000000
-0.00362660 0.20610864 0.41606807
-0.00253699 0.16256771 0.29100058
-0.35101419 0.34606525 0.00000084
-0.00238883 -0.05269814 0.27398981
-0.42464409 -0.40120393 0.00000000
-0.00364645 0.14256992 0.41832955
-0.29547275 0.35412206 0.00000177
-0.00642704 -0.55510766 0.73726904
-0.13894559 -0.12039748 0.00000000
-0.44286654 -0.71007835 0.00000000
-0.37540638 -0.39625126 0.00000000
-0.00369874 0.23292436 0.42435546
-0.12009780 0.17378804 0.00000758
-0.00039847 0.02605813 0.04444814
-0.00071525 0.14322793 0.08104722
-0.00033873 0.38415107 0.03885094
-0.00270522 -0.70919339 0.31027857
-0.02631348 0.66913862 0.00000157
-0.00458381 -0.78634928 0.52574604
-0.00327065 -0.39699400 0.37513085
-0.00045020 -0.39856722 0.00000000
-0.55215427 -0.69775496 0.00000000
-0.00077395 -0.77300238 0.08876969
-0.36262233 -0.60737992 0.00000000
-0.13896343 -0.43025975 0.00000000
-0.00230569 0.16866529 0.26445639
-0.42509087 0.06199347 0.00000416
-0.48891501 -0.33930743 -0.00000007
-0.00199112 -0.54023042 0.22837459
-0.66788918 -0.27354364 -0.00000095
-0.00088383 0.10798839 0.10137244
-0.34883191 0.11592057 -0.00000028
-0.13955607 0.31857556 0.00000000
-0.51690137 -0.12043160 -0.00000058
-0.00452699 -0.68231553 0.00000000
-0.00333243 -0.30006179 0.38221779
-0.14218507 -0.57229055 0.00000000
-0.00035611 0.31814304 0.04008475
-0.00120966 0.40953157 0.13831181
-0.41527982 0.24025507 -0.00000078
-0.00418629 -0.65758664 0.48015124
-0.00298522 -0.62838589 0.34239363
-0.25550850 0.50839139 -0.00000004
-0.11932481 0.13442365 0.00000000
-0.00057179 0.63677152 0.06541490
-0.00341688 -0.07179830 0.39192382
-0.00330001 0.02275121 0.37785203
-0.00657632 -0.11482462 0.75452430
-0.00456438 -0.13496825 0.52360601
-0.40512408 0.02461925 0.00000517
-0.39611870 0.19843171 -0.00000063
-0.00444896 0.19708383 0.51029009
-0.00443852 -0.15919652 0.50915428
-0.00065073 0.34652246 0.07463658
-0.23390575 -0.46512121 0.00000000
-0.00473582 0.19819340 0.54327218
-0.38167111 -0.63423427 0.00000000
-0.00183932 0.02003672 0.20998550
-0.30622238 0.02727155 0.00000697
-0.27206802 -0.34418128 0.00000000
-0.00284695 -0.57957297 0.32653446
-0.00022689 0.49277242 0.02553903
-0.00005502 -0.47995417 0.00631080
-0.21483544 -0.29051598 0.00000000
-0.00015595 0.77043148 0.01789083
-0.00449435 -0.68543462 0.51548487
-0.11938701 -0.32986201 0.00000000
-0.00233698 -0.78742724 0.26804299
-0.55069156 -0.52536541 -0.00000001
-0.60234252 0.15799866 -0.00000144
-0.69672793 0.00022097 -0.00000002
-0.00303070 0.05506800 0.34763489
-0.00378024 -0.62967080 0.43357927
-0.26363765 0.06609427 0.00000703
-0.00026845 0.65342231 0.03059074
-0.00064124 0.69191441 0.07350785
-0.00609744 -0.50721268 0.69945663
-0.36214127 -0.53668789 0.00000000
-0.19014939 0.19351721 0.00000000
-0.18353253 0.59644077 -0.00000012
-0.00472175 -0.74487145 0.54156671
-0.00190138 0.50363554 0.21800896
-0.00250850 0.33343150 0.28747090
-0.51852148 -0.72526773 0.00000000
-0.00195380 -0.25221740 0.22409409
-0.00577904 0.08735535 0.66307401
-0.00450602 0.03924439 0.51653722
-0.01348640 0.34401566 0.00000664
-0.00278373 -0.35982978 0.31928295
-0.11551436 0.35097629 0.00000499
-0.00303399 0.05989255 0.34734119
-0.00068135 0.09321618 0.07814848
-0.00043900 -0.59937534 0.05035206
-0.00350883 -0.17071167 0.40244937
-0.18576118 0.58161804 -0.00000041
-0.00062434 0.64394262 0.07146893
-0.00113220 0.51552462 0.12986739
-0.00261655 0.34577017 0.30018154
-0.00084416 -0.29621215 0.09682227
-0.00103166 -0.12500555 0.11832717
-0.34119123 -0.25007843 0.00000000
-0.23192863 -0.03273626 0.00000000
-0.29902971 -0.60007994 0.00000000
-0.48705529 0.18856895 0.00000086
-0.00118818 -0.05728998 0.13627932
-0.20748925 -0.40774889 0.00000000
-0.00381693 0.09473930 0.43742427
-0.04109065 0.20194103 0.00000000
-0.28660494 0.21356991 0.00000429
-0.74752278 -0.75786553 -0.00000011
-0.00323843 0.30749975 0.37133784
-0.00362654 -0.02061406 0.41600055
-0.49480398 0.14412533 -0.00000095
-0.48233259 -0.35475490 -0.00000002
-0.00534087 -0.22138189 0.61270167
-0.00527029 -0.32155788 0.60457379
-0.05701996 0.09422972 0.00000000
-0.00499225 0.22204907 0.57280062
-0.00050016 -0.70247206 0.05736684
-0.24305108 0.14124378 0.00000621
-0.56743112 -0.45964476 -0.00000019
-0.58844260 -0.13645130 -0.00000086
-0.44318133 0.13402784 0.00000261
-0.00542271 0.17055830 0.62218806
-0.09936403 0.25722012 0.00000000
-0.00252687 0.04146027 0.28982269
-0.43527582 -0.71453497 0.00000000
-0.13163267 -0.69832174 0.00000000
-0.59655803 -0.49975929 -0.00000025
-0.00042355 0.31987535 0.04857906
-0.00026046 -0.00113418 0.02987392
-0.00111589 0.00968034 0.12684808
-0.37910668 -0.06475099 -0.00000009
-0.00312603 -0.26187962 0.35854348
-0.00186770 0.22890965 0.21421857
-0.00121344 0.20315627 0.13917719
-0.08270609 0.29045686 0.00000000
-0.00237747 -0.77283891 0.27268748
-0.11264627 0.51344989 0.00000000
-0.00278635 0.32433055 0.31966405
-0.00071826 0.22816802 0.08238200
-0.00096097 0.31751087 0.10957982
-0.00484911 -0.05518258 0.55630626
-0.00178973 -0.77469994 0.20527569
-0.59162111 -0.52986260 -0.00000017
-0.36256244 -0.03529691 -0.00000007
-0.24323122 0.13966215 0.00000623
-0.00148228 -0.07855226 0.17001190
-0.05072386 -0.10631004 0.00000000
-0.32118520 0.01012709 0.00000700
-0.00364187 0.11950914 0.41734724
-0.00641297 -0.79643014 0.73558469
-0.00241470 -0.21288777 0.27695698
-0.14671023 -0.55579929 0.00000000
-0.12045236 0.12711516 0.00000000
-0.32811532 -0.59454851 0.00000000
-0.00395257 0.27177935 0.45349846
-0.00265136 -0.54507238 0.30410118
-0.52586828 -0.30919456 -0.00000028
-0.32875101 -0.26539179 0.00000000
-0.74138511 -0.06525232 -0.00000163
-0.00670455 -0.49718817 0.76913291
-0.03712935 0.45812067 0.00000000
-0.00124035 0.23671048 0.14153951
-0.19031644 -0.16982558 0.00000000
-0.45202026 -0.65949961 0.00000000
-0.75832974 -0.57217113 -0.00000057
-0.01778847 0.66439814 0.00000177
-0.00035429 0.12998406 0.03955191
-0.00411344 0.08948670 0.47191164
-0.00354324 0.04800595 0.40645820
-0.68726523 -0.34396324 -0.00000091
-0.16018485 -0.12517583 0.00000000
-0.08575108 -0.69071865 0.00000000
-0.00233500 0.17276929 0.26720379
-0.34058051 0.38067907 -0.00000071
-0.00055248 -0.43664845 0.06336738
-0.00141255 0.16616187 0.16201457
-0.00296981 0.03648830 0.33991592
-0.03977836 0.70559904 0.00000081
-0.00521183 -0.09962378 0.59792464
-0.10235882 0.14489635 0.00000828
-0.32894453 -0.64132223 0.00000000
-0.00063020 0.39388947 0.07170661
-0.00044964 0.45222323 0.05106218
-0.00178750 0.46069586 0.20483137
-0.00235587 0.45176231 0.27015771
-0.00470575 -0.51175655 0.53973197
-0.00238102 0.10039198 0.27309435
-0.31040972 0.24089840 0.00000338
-0.20548053 -0.06349429 0.00000000
-0.00039967 0.18662610 0.04486297
-0.04493340 -0.30000784 0.00000000
-0.00264110 -0.53402131 0.30292436
-0.45703190 -0.03456907 -0.00000048
-0.00060950 0.28505462 0.06990786
-0.47393876 0.17037731 0.00000142
-0.64736505 0.02543561 0.00000051
-0.00223443 0.16925549 0.25563810
-0.08290693 -0.11142814 0.00000000
-0.00497355 -0.73421777 0.57044780
-0.11327166 -0.51873472 0.00000000
-0.00009455 0.69110443 0.01084399
-0.00294232 -0.49338282 0.33747259
-0.32315582 -0.73395403 0.00000000
-0.71225427 -0.47928932 -0.00000078
-0.42579470 -0.54131142 0.00000000
-0.00242365 0.33552893 0.27771938
-0.00359849 -0.04424354 0.41277441
-0.13618347 0.30513371 0.00000537
-0.07408914 0.06254536 0.00000000
-0.00490994 0.19905221 0.56335738
-0.20859134 0.50958036 -0.00000038
-0.00258165 -0.34276578 0.29610586
-0.17070896 0.44372864 0.00000267
-0.67222386 -0.71214764 -0.00000020
-0.05537043 0.70963901 0.00000045
-0.00422787 -0.42778256 0.48492050
-0.71353935 -0.38283259 -0.00000095
-0.00447678 0.05868437 0.51321335
-0.00301193 0.34194897 0.34536515
-0.00180896 0.00245136 0.20646667
-0.00269030 0.23901784 0.30818435
-0.67419779 -0.23729428 -0.00000104
-0.30505452 0.04379535 0.00000000
-0.00456876 -0.18791156 0.52409520
-0.31300299 -0.61081827 0.00000000
-0.11047798 -0.30249769 0.00000000
-0.00338912 -0.18276326 0.38871987
-0.00255419 -0.62257222 0.29295610
-0.00247777 -0.65100974 0.28419127
-0.60734950 -0.44917605 -0.00000038
-0.00448880 -0.14430657 0.51492960
-0.00254324 -0.20596513 0.29169960
-0.00064294 0.23051637 0.07288988
-0.38826297 -0.22403934 0.00000000
-0.54635032 -0.08960828 -0.00000076
-0.50877969 0.02421168 -0.00000080
-0.21167629 -0.02853030 0.00000000
-0.00650350 -0.06891227 0.74617899
-0.64365540 -0.47489878 -0.00000049
-0.40398565 -0.19512388 0.00000000
-0.17626339 0.51970900 -0.00000026
-0.51765471 -0.33161952 -0.00000021
-0.00356742 0.09424680 0.40924613
-0.05420827 -0.55890577 0.00000000
-0.49849548 0.02533229 -0.00000076
-0.33594381 0.27131700 0.00000238
-0.00389335 0.10393722 0.44665593
-0.00089013 0.14613483 0.10209448
-0.00282830 -0.23657087 0.32439508
-0.00598699 -0.41280735 0.68680568
-0.10833102 0.05010797 0.00000000
-0.00037792 0.27681686 0.04251938
-0.53153853 0.00398938 -0.00000086
-0.32356786 0.09427452 0.00000557
-0.00482834 -0.44538469 0.55381787
-0.01323681 0.18832380 0.00000000
-0.71814228 -0.26892936 -0.00000118
-0.14300312 -0.53756098 0.00000000
-0.00033570 0.38365311 0.03785300
-0.00232417 -0.72725271 0.26657331
-0.00275266 -0.08721712 0.31571931
-0.00567692 -0.05624372 0.65131483
-0.00017124 0.29896948 0.01964036
-0.00220688 0.00472694 0.25312091
-0.00657552 -0.73747227 0.75425609
-0.75673828 -0.62359352 -0.00000044
-0.56842104 -0.13647451 -0.00000077
-0.49343042 0.29241408 -0.00000121
-0.00355227 0.35898083 0.40752136
-0.00409614 0.11150607 0.46955699
-0.00100495 0.49111260 0.11493161
-0.00555690 -0.09166114 0.63753015
-0.23079593 -0.19570153 0.00000000
-0.00125779 0.36703085 0.14376759
-0.00359585 0.11103084 0.41251329
-0.37328385 0.24397680 -0.00000061
-0.00004922 0.25747888 0.00471961
-0.15956701 -0.37963803 0.00000000
-0.62930578 -0.37936158 -0.00000060
-0.14831203 0.15101142 0.00000750
-0.00080949 0.44365891 0.09239291
-0.00277268 -0.01733947 0.31801607
-0.00086977 -0.34406778 0.09975974
-0.00098581 0.57672297 0.11308190
-0.00590279 -0.50210994 0.67711811
-0.00330857 0.04094151 0.37952349
-0.44933861 -0.16769930 -0.00000021
-0.10643554 0.39792668 0.00000000
-0.51477633 -0.71208255 0.00000000
-0.00231847 -0.10454103 0.26592029
-0.05942417 0.53640187 0.00000000
-0.00348754 -0.55002975 0.40000768
-0.29979471 -0.68556995 0.00000000
-0.14731040 -0.12485713 0.00000000
-0.07590023 0.56017998 0.00000245
-0.32773256 -0.26598981 0.00000000
-0.68449924 0.06286814 -0.00000162
-0.00151751 0.59176788 0.17411031
-0.00387605 0.19418348 0.44469536
-0.09835564 0.47973306 0.00000332
-0.15174135 0.56509648 0.00000101
-0.00514961 0.13253358 0.59071470
-0.00452021 -0.76231446 0.51845063
-0.00321881 0.16510829 0.36879867
-0.05163032 0.21734823 0.00000796
-0.47169323 -0.76106924 0.00000000
-0.18646390 -0.32546131 0.00000000
-0.19010245 0.09964030 0.00000000
-0.58543736 -0.08870684 -0.00000093
-0.00339911 -0.28450862 0.38986508
-0.00042775 -0.43041037 0.04906159
-0.66650183 -0.73691078 -0.00000013
-0.27011783 -0.52827139 0.00000000
-0.00077479 0.47932550 0.08846721
-0.03555341 0.29833723 0.00000000
-0.00251415 -0.77932009 0.28836360
-0.21640733 -0.67587609 0.00000000
-0.26481696 -0.69285791 0.00000000
-0.00653372 -0.64291561 0.74948694
-0.00640672 0.06109875 0.73510639
-0.00045457 0.68498372 0.05203235
-0.16664167 -0.19906329 0.00000000
-0.33844372 0.33353762 -0.00000062
-0.00598914 -0.35948927 0.68706724
-0.75064436 -0.48140476 -0.00000080
-0.00476146 -0.69933746 0.54612151
-0.00403392 -0.04495231 0.46274884
-0.00304594 0.16420575 0.34941392
-0.03281713 -0.60755006 0.00000000
-0.53485333 -0.70232002 0.00000000
-0.00238820 -0.19475364 0.27391766
-0.09354242 0.49036546 0.00000323
-0.00481630 -0.70362832 0.55241203
-0.41424770 0.11955923 0.00000341
-0.00376913 0.04221733 0.43182406
-0.00197932 0.47891900 0.22692103
-0.70166760 -0.53550232 -0.00000063
-0.00035053 0.63844619 0.04020434
-0.00197828 0.33855056 0.22692438
-0.41365474 -0.39575059 0.00000000
-0.64094516 -0.55512172 -0.00000034
-0.62762606 -0.41038884 -0.00000054
-0.61917921 -0.03341739 -0.00000117
-0.02686152 -0.79143934 0.00000000
-0.30294564 -0.70401600 0.00000000
-0.00679807 -0.11477177 0.77997487
-0.00337222 0.10786842 0.38684667
-0.17744384 -0.64463900 0.00000000
-0.18779793 0.42247729 0.00000270
-0.00120547 0.09489988 0.13826292
-0.00686244 -0.53787725 0.78724036
-0.00138818 -0.47130321 0.15921913
-0.00409965 0.23431806 0.47036799
-0.00083880 0.43766237 0.09620700
-0.00542934 -0.73781401 0.62272490
-0.00292326 0.10596136 0.33470308
-0.20332664 0.04785336 0.00000000
-0.24012910 -0.11548600 0.00000000
-0.49806164 -0.39099565 -0.00000002
-0.62014188 0.00940567 0.00000130
-0.00383903 -0.45025539 0.44032260
-0.00274049 0.22146670 0.31437217
-0.52684916 -0.44867349 -0.00000004
-0.00224051 0.19311467 0.25638112
-0.05781904 0.74213080 -0.00000014
-0.20359525 -0.78108891 0.00000000
-0.00066332 0.14354050 0.07608030
-0.41546593 -0.15354879 -0.00000009
-0.12793099 0.05124275 0.00000000
-0.06286239 0.47881916 0.00000000
-0.76354662 -0.62333584 -0.00000044
-0.00105543 0.32910078 0.12105423
-0.00668839 -0.18383442 0.76736808
-0.00589085 -0.66152470 0.67570479
-0.10192857 0.02948641 0.00000000
-0.00345508 -0.72345596 0.39628495
-0.00092786 -0.01230480 0.10642184
-0.36162197 -0.30690234 0.00000000
-0.00267347 -0.07157288 0.30663728
-0.37583553 -0.48782214 0.00000000
-0.65899749 -0.32061376 -0.00000083
-0.02987908 0.62540468 0.00000217
-0.00196128 0.55168621 0.22503109
-0.10331946 -0.58947861 0.00000000
-0.53999417 0.09437950 -0.00000106
-0.19012493 -0.39900860 0.00000000
-0.22762842 -0.51471367 0.00000000
-0.11701643 0.26521404 0.00000000
-0.31487101 -0.71047111 0.00000000
-0.00491692 -0.76041747 0.56395258
-0.00263832 0.23910578 0.30265094
-0.00571147 -0.77472169 0.65508595
-0.00229146 0.23024733 0.26283991
-0.54125878 -0.45488902 -0.00000009
-0.00101164 0.12068757 0.11506192
-0.06726962 0.20546985 0.00000000
-0.00606694 -0.26405761 0.69602144
-0.00518881 -0.36130850 0.59521165
-0.00500858 0.07721530 0.57464491
-0.03222966 0.75409558 0.00000015
-0.00283334 -0.43202077 0.32497381
-0.00263718 -0.26113936 0.30247416
-0.26129564 0.30217407 -0.00000024
-0.00056795 -0.23154447 0.06514215
-0.00534536 -0.04325742 0.61326512
-0.00292715 0.23460006 0.33540537
-0.00083491 -0.70815726 0.09576139
-0.00664852 -0.29059612 0.76276231
-0.17101724 -0.71297603 0.00000000
-0.00503854 0.06358696 0.57780855
-0.00339150 -0.66182180 0.38899180
-0.50859821 0.10227490 -0.00000094
-0.02336241 0.69592479 0.00000121
-0.20893427 -0.27237772 0.00000000
-0.14750321 0.36158888 0.00000435
-0.77440655 -0.67877080 -0.00000030
-0.20390733 -0.28707269 0.00000000
-0.00052220 -0.22519534 0.05989429
-0.00025955 -0.06525027 0.02976945
-0.00633313 -0.68395809 0.72645560
-0.00262962 0.18325531 0.30109664
-0.55345491 0.20952813 -0.00000132
-0.00564527 -0.56564763 0.64754534
-0.00154054 0.00361545 0.17669458
-0.00508162 -0.37994097 0.58290384
-0.00199014 0.31562631 0.22784050
-0.00132411 0.62624706 0.15192299
-0.23763950 0.55806663 -0.00000059
-0.00335102 0.31577959 0.38429785
-0.15000589 0.44857170 0.00000299
-0.00068577 0.04161540 0.07865501
-0.00513934 0.02759628 0.58963943
-0.00691338 -0.03718635 0.79322974
-0.00291898 -0.45564412 0.33479652
-0.21727716 0.36112379 -0.00000015
-0.00670770 -0.50294371 0.76949300
-0.00171379 0.30373358 0.19605135
-0.11379568 -0.45258676 0.00000000
-0.00176575 -0.42755255 0.20252502
-0.00016775 0.70677817 0.01924023
-0.00455201 0.26764941 0.52227805
-0.00285758 0.15252535 0.32779239
-0.32315979 0.47261363 -0.00000080
-0.00471557 -0.55565695 0.54085795
-0.00295304 -0.54343815 0.33870214
-0.00026040 -0.71981363 0.02986682
-0.46563425 -0.65060734 0.00000000
-0.07109152 0.22447827 0.00000756
-0.00617888 0.75514742 0.00000058
-0.00078175 -0.21083235 0.08966348
-0.26559736 0.40851922 0.00000144
-0.53215037 -0.76883726 0.00000000
-0.00396852 0.11874398 0.45490009
-0.06684139 -0.32041681 0.00000000
-0.00062773 -0.31437412 0.07199882
-0.00537089 -0.16375834 0.61616255
-0.26709087 0.50214080 -0.00000015
-0.21111678 0.23669734 0.00000000
-0.13491692 0.29667074 0.00000000
-0.09448457 0.65688913 0.00000058
-0.63630309 -0.18404179 -0.00000098
-0.00336902 -0.52144327 0.38641412
-0.00471300 -0.05457467 0.54068581
-0.56690331 -0.09835126 -0.00000083
-0.00569377 -0.36313308 0.65316560
-0.49150823 0.26194855 -0.00000045
-0.28566080 0.50720631 -0.00000060
-0.58499831 -0.72227737 0.00000000
-0.00570894 -0.07147192 0.65498630
-0.00044042 0.16223121 0.05051418
-0.44950573 0.17481537 -0.00000081
-0.00111652 0.32452163 0.12806085
-0.00557914 -0.69541705 0.63992005
-0.12454061 0.05611451 0.00000928
-0.00268040 -0.54613759 0.30743212
-0.43179403 0.11734815 0.00000311
-0.13398319 0.08100766 0.00000876
-0.00075812 -0.73041140 0.08695383
-0.00024160 0.18222010 0.02771041
-0.67002291 -0.77192582 -0.00000007
-0.26157664 -0.56070149 0.00000000
-0.00140597 0.44226811 0.16093103
-0.39650932 0.15993685 0.00000308
-0.00003211 0.74536057 0.00368254
-0.00360395 0.09767790 0.41294427
-0.10575688 0.16264844 0.00000000
-0.31253463 0.10931870 0.00000554
-0.00547080 -0.76318405 0.62748025
-0.00487192 -0.18742602 0.55888830
-0.43026939 -0.27532163 0.00000000
-0.00047251 -0.49733419 0.05419461
-0.42681951 0.20035368 0.00000182
-0.43248474 0.24933504 0.00000089
-0.00143809 -0.58877845 0.16494403
-0.00302491 0.02595867 0.34623054
-0.00665902 -0.76721221 0.76383074
-0.61666496 0.00553754 0.00000143
-0.27036172 0.44345494 -0.00000052
-0.44796081 0.30721950 -0.00000104
-0.00239144 0.29805951 0.27433217
-0.00309593 0.09162955 0.35452557
-0.00330790 -0.20680750 0.37940387
-0.44905102 0.31555351 -0.00000106
-0.28756591 -0.55917235 0.00000000
-0.00578289 -0.45096414 0.66337052
-0.00322982 -0.12873174 0.37044874
-0.23529880 -0.66531441 0.00000000
-0.25329701 0.19467545 0.00000525
-0.00172297 0.47214461 0.19743466
-0.02040737 0.62792111 0.00000227
-0.00067020 0.55442400 0.07657985
-0.48194842 -0.22408769 -0.00000025
-0.22638900 -0.68969627 0.00000000
-0.04256000 -0.05450059 0.00000000
-0.00017257 0.27248778 0.01979305
-0.60415537 -0.69607642 0.00000000
-0.00543296 -0.21109536 0.62327409
-0.00058154 -0.59714359 0.06670063
-0.00241195 0.10752562 0.27664207
-0.13077569 0.33497413 0.00000000
-0.00413952 0.30109145 0.47492096
-0.00598912 -0.33091797 0.68707274
-0.26488583 0.06747670 0.00000699
-0.00039308 0.24811422 0.04421244
-0.43323834 0.16314523 0.00000232
-0.76395951 -0.39256549 -0.00000102
-0.73616997 -0.49599281 -0.00000076
-0.00059099 -0.40819204 0.06778454
-0.00340499 0.16423107 0.00000949
-0.17208282 0.11187430 0.00000773
-0.00599767 -0.70091959 0.68795299
-0.00044080 0.55679910 0.05055773
-0.00137767 -0.56452606 0.15801334
-0.00120411 -0.14458356 0.13810689
-0.49239450 -0.02195579 -0.00000065
-0.00056120 0.00515216 0.06436739
-0.02647569 -0.65746908 0.00000000
-0.00592583 -0.75210345 0.67969428
-0.00308017 0.42235271 0.35341271
-0.69481469 0.03199993 -0.00000051
-0.37151871 0.36545959 0.00000012
-0.00312208 -0.11427942 0.35809115
-0.27022778 0.48646904 -0.00000060
-0.00540031 0.06718594 0.61940682
-0.00346755 -0.61452085 0.39771536
-0.00299647 0.35400511 0.34361186
-0.35856057 0.25184507 0.00000227
-0.00548750 -0.65686470 0.62941234
-0.48392198 -0.27145167 -0.00000017
-0.42119351 -0.17150427 -0.00000008
-0.27728020 0.16967302 -0.00000007
-0.00639791 -0.03447986 0.73406918
-0.31253087 -0.36964748 0.00000000
-0.07170071 -0.55564232 0.00000000
-0.01161948 0.65951838 0.00000000
-0.63712597 -0.27329842 -0.00000082
-0.00550128 0.06091467 0.63100356
-0.00199925 -0.26724022 0.22930622
-0.14511802 -0.02148550 0.00000000
-0.20316077 0.48351451 -0.00000031
-0.33308282 -0.49968068 0.00000000
-0.48315102 -0.58629638 0.00000000
-0.70442750 0.05277101 -0.00000169
-0.43609855 0.05169939 -0.00000054
-0.00508627 0.20245697 0.58357194
-0.26637829 -0.66397241 0.00000000
-0.00078360 0.15900585 0.08892768
-0.00615781 -0.27790537 0.70644701
-0.72768809 -0.44072034 -0.00000090
-0.33255724 0.41454027 -0.00000074
-0.00450535 -0.50851255 0.51674661
-0.47290427 0.08491925 0.00000286
-0.00305872 -0.48299200 0.35082368
-0.00321620 0.38872358 0.36901526
-0.00556587 -0.01957919 0.63857989
-0.30983999 -0.40765017 0.00000000
-0.00365156 0.33870810 0.41896895
-0.00317530 0.22012279 0.36390606
-0.39360088 -0.57289606 0.00000000
-0.00235373 0.44906188 0.27004501
-0.27874556 -0.11384922 0.00000000
-0.00256884 -0.31515773 0.29463651
-0.00221040 -0.59919967 0.25352459
-0.00143707 0.34682165 0.16482665
-0.09756319 0.56088344 0.00000000
-0.54346833 -0.47881571 -0.00000006
-0.00630502 -0.33356043 0.72332823
-0.72633793 0.05716278 -0.00000179
-0.04087454 -0.44451369 0.00000000
-0.00293691 -0.55281943 0.33685227
-0.00359759 -0.20445557 0.41263028
-0.47323672 -0.58484146 0.00000000
-0.00569425 -0.17152858 0.65327225
-0.00113593 -0.75388004 0.13028748
-0.25651880 0.31419655 -0.00000024
-0.52867140 0.00700027 0.00000309
-0.00688863 -0.30547408 0.79031291
-0.59377693 -0.02743466 -0.00000107
-0.19677880 0.18999657 0.00000000
-0.00002843 -0.29598855 0.00326124
-0.54208019 -0.46740112 -0.00000007
-0.00682867 0.23797652 0.00000000
-0.55675118 -0.09818063 -0.00000079
-0.50296314 -0.23202450 -0.00000032
-0.00227161 -0.01933350 0.26054511
-0.07938301 0.10359013 0.00000000
-0.00125706 -0.68864821 0.14418052
-0.00511128 -0.39640518 0.58630402
-0.00032272 0.43257681 0.03644599
-0.57542546 -0.50954232 -0.00000014
-0.00084417 0.44494671 0.09682283
-0.00488102 0.16594851 0.55990197
-0.50920783 0.08066393 0.00000224
-0.19515873 0.36834404 0.00000346
-0.53057542 -0.72136943 0.00000000
-0.02555417 0.18615799 0.00000882
-0.77485313 -0.53716687 -0.00000066
-0.00103900 -0.15067518 0.11916897
-0.00532860 -0.39285098 0.61124640
-0.64117628 -0.15212020 -0.00000105
-0.00267841 0.46100066 0.30725776
-0.59101783 0.06109239 0.00000099
-0.00057395 -0.51417179 0.06583045
-0.01353106 -0.74570922 0.00000000
-0.00162348 0.24992643 0.18620675
-0.00269900 -0.40662179 0.30956539
-0.00466407 -0.56998110 0.53495190
-0.29711694 0.13021269 0.00000548
-0.00225785 0.11326471 0.25896737
-0.00329330 -0.57016531 0.37772916
-0.00382277 -0.26763151 0.43845699
-0.15730769 -0.71462067 0.00000000
-0.67463025 -0.77033485 -0.00000007
-0.00237819 -0.01207150 0.27276946
-0.03708486 0.72838751 -0.00000003
-0.41242092 0.10800955 0.00000364
-0.00342186 0.34228752 0.39249476
-0.00159359 0.56889294 0.18275308
-0.00678947 -0.47225919 0.77888491
-0.00317019 0.23172674 0.36334105
-0.00007525 0.20793160 0.00863060
-0.00236629 0.42447748 0.27148045
-0.34523064 0.29639421 0.00000178
-0.16499684 0.18262535 0.00000000
-0.71642061 -0.50589870 -0.00000074
-0.00685791 -0.61609152 0.78669866
-0.00029963 0.22201022 0.03436636
-0.62840883 -0.32394101 -0.00000070
-0.56064830 -0.58341495 0.00000000
-0.00030235 -0.36243993 0.03467820
-0.00114022 0.60060643 0.13080990
-0.15739266 -0.09764015 0.00000000
-0.00511469 0.06768313 0.58657164
-0.39466824 -0.78310720 0.00000000
-0.00334543 0.33149543 0.38383203
-0.17751935 -0.57069036 0.00000000
-0.00228456 0.42803714 0.26210117
-0.00242176 0.51289384 0.27787036
-0.00215342 0.29572260 0.24657278
-0.00423275 -0.08778474 0.48555764
-0.00374855 0.04097906 0.42945579
-0.00027665 0.24784459 0.03173019
-0.00090550 0.25143653 0.10385779
-0.00044525 0.45500016 0.05056265
-0.00348679 0.77545837 0.00000032
-0.22820200 -0.08322421 0.00000000
-0.14595841 -0.53937568 0.00000000
-0.15985177 -0.12717967 0.00000000
-0.24632452 -0.17863234 0.00000000
-0.06007569 -0.19906388 0.00000000
-0.00363261 -0.59970623 0.41664710
-0.56473330 -0.24440975 -0.00000056
-0.00427286 -0.00997831 0.49018242
-0.00459699 -0.53539698 0.52725701
-0.00473220 0.18315116 0.00000000
-0.00490358 -0.24209012 0.56250781
-0.40202700 0.24083261 0.00000162
-0.00520873 0.04904768 0.59760845
-0.00061137 0.61353894 0.07012241
-0.00158239 -0.33382608 0.18149460
-0.58022793 -0.28931438 -0.00000055
-0.00170914 0.06168676 0.19510000
-0.00246917 0.37192529 0.28327384
-0.00126228 0.24253214 0.14477856
-0.00376457 0.08077744 0.43186917
-0.22461245 -0.71311872 0.00000000
-0.00588651 0.02528017 0.67539168
-0.00206352 0.23956178 0.23612492
-0.29322822 -0.17910561 0.00000000
-0.00158455 0.23942610 0.18109129
-0.00546340 -0.05611406 0.62680961
-0.06676875 0.23815544 0.00000742
-0.00241688 -0.76740574 0.27720679
-0.08117730 -0.05365267 0.00000000
-0.77132241 -0.62704115 -0.00000043
-0.05855318 0.52167977 0.00000329
-0.19064145 -0.09631223 0.00000000
-0.43229234 -0.26505202 0.00000000
-0.00166978 -0.47269924 0.19151792
-0.00159805 0.71930287 0.00000119
-0.39411702 0.34626081 -0.00000088
-0.51750273 0.02488027 -0.00000084
-0.00040785 -0.47025136 0.04677923
-0.10222524 0.18094519 0.00000000
-0.00458292 -0.49941451 0.52564325
-0.00104332 0.53033019 0.11967037
-0.45154482 0.20974557 -0.00000088
-0.00049522 0.06807035 0.05563745
-0.00109109 0.00300776 0.12398714
-0.23988173 -0.50126891 0.00000000
-0.08300831 -0.17551035 0.00000000
-0.71494270 -0.77729866 -0.00000006
-0.00319576 0.35329448 0.36652298
-0.29967725 0.48358658 -0.00000072
-0.00150793 -0.23478604 0.17295425
-0.00603275 0.06401446 0.69218623
-0.00250589 0.06989423 0.28741660
-0.00516130 -0.72050375 0.59198216
-0.22753552 0.42321021 0.00000192
-0.00032605 0.75325534 0.03740887
-0.12564642 0.17985759 0.00000741
-0.23123589 0.50232086 0.00000053
-0.25776510 -0.68435474 0.00000000
-0.00419805 -0.20491509 0.48154325
-0.06484674 -0.62548505 0.00000000
-0.00454158 -0.54381420 0.52090248
-0.01041043 -0.26834526 0.00000000
-0.03677566 -0.01383954 0.00000000
-0.35472917 0.11528884 -0.00000030
-0.46948574 -0.70590148 0.00000000
-0.00643412 -0.71058090 0.73803717
-0.21533015 0.25248927 0.00000000
-0.66719668 0.01842769 0.00000024
-0.60593312 -0.55071665 -0.00000020
-0.14467546 0.45205673 -0.00000000
-0.14212399 -0.24883506 0.00000000
-0.53634202 0.13325753 -0.00000111
-0.00103577 -0.06935959 0.11879895
-0.00427288 -0.30237068 0.49010480
-0.01335672 0.58205219 0.00000307
-0.00124657 0.48083727 0.14298401
-0.00000511 0.02189215 0.00058666
-0.49757898 0.19241890 0.00000059
-0.16514851 0.26761567 0.00000000
-0.00097358 -0.58066300 0.11166565
-0.19838570 -0.16937679 0.00000000
-0.31448283 0.10545155 -0.00000011
-0.09922962 0.14379877 0.00000000
-0.00329793 0.14001573 0.37832840
-0.04663645 -0.71793747 0.00000000
-0.00464085 -0.65357599 0.53228860
-0.00095030 -0.02740201 0.00000000
-0.41715155 -0.15036430 -0.00000010
-0.00213533 0.02305600 0.24400036
-0.00193450 -0.31314511 0.22187950
-0.00344632 0.40436770 0.39543121
-0.08892190 0.05360576 0.00000985
-0.18415815 0.17347036 0.00000662
-0.59855758 0.09578142 -0.00000131
-0.42054781 0.10800051 0.00000348
-0.31849481 -0.63475214 0.00000000
-0.32073631 -0.78022549 0.00000000
-0.30875041 -0.46462937 0.00000000
-0.75559869 -0.77081186 -0.00000007
-0.00039249 0.40944150 0.04501724
-0.00072355 -0.25555166 0.08298892
-0.00338836 -0.66524458 0.38863221
-0.58653117 0.20853822 -0.00000138
-0.35540529 0.00197209 0.00000651
-0.00580149 0.03492195 0.66563684
-0.26709259 0.51306822 -0.00000034
-0.49136739 0.15768606 -0.00000096
-0.48986446 -0.76342033 0.00000000
-0.00121921 0.02740300 0.13983907
-0.00201346 -0.53102648 0.23093624
-0.00251290 0.37841999 0.28806590
-0.64486028 -0.42515985 -0.00000059
-0.35734968 0.41110352 -0.00000084
-0.31721840 -0.73312874 0.00000000
-0.39460895 0.36715007 -0.00000035
-0.00421851 -0.31104386 0.48386281
-0.25526468 -0.43589515 0.00000000
-0.00697210 -0.48747789 0.79983957
-0.16697759 -0.16151633 0.00000000
-0.10223051 0.21929004 0.00000000
-0.34982640 -0.42235401 0.00000000
-0.00096878 -0.20551743 0.11111550
-0.00633429 0.00243609 0.72677743
-0.00176609 -0.34065426 0.20256365
-0.22836176 0.15353788 0.00000000
-0.12676741 0.52237376 0.00000220
-0.00308813 -0.38782716 0.35419651
-0.00683343 -0.04157487 0.78405319
-0.00177579 -0.59550066 0.20367657
-0.09314533 0.44623370 0.00000390
-0.72789232 0.05009747 -0.00000145
-0.07768308 0.45989053 0.00000000
-0.10101240 0.40347201 0.00000000
-0.00003022 0.01861074 0.00346603
-0.00598434 0.54455255 0.00000374
-0.00064894 -0.30816845 0.07443145
-0.69383092 -0.79073919 -0.00000002
-0.01790634 -0.07789836 0.00000000
-0.00214801 -0.40644592 0.24636863
-0.52021494 0.25750242 -0.00000093
-0.00519471 -0.44770418 0.59586491
-0.00021705 0.66482215 0.02489438
-0.39285122 -0.61791740 0.00000000
-0.00179368 -0.27897730 0.20572866
-0.00430002 0.14465193 0.49334071
-0.00196921 -0.17776263 0.22586085
-0.00330018 -0.17924588 0.37851816
-0.74888526 0.04173979 -0.00000172
-0.00538938 -0.36521280 0.61823051
-0.60588873 -0.14048612 -0.00000092
-0.00414316 0.04761450 0.47483643
-0.69809786 -0.12611311 -0.00000134
-0.00089592 0.11597651 0.10175767
-0.03104271 0.27602413 0.00000000
-0.00482402 0.00012109 0.55344186
-0.00641567 0.02419786 0.73605563
-0.00585843 -0.09478192 0.67213722
-0.69390826 -0.39321444 -0.00000085
-0.66344426 0.04793792 -0.00000018
-0.28671780 0.16257017 -0.00000010
-0.44384083 0.04138474 -0.00000055
-0.61318482 -0.65955740 -0.00000004
-0.00128051 0.45657784 0.14653491
-0.38757157 0.14756913 0.00000346
-0.04913860 0.67796228 0.00000000
-0.32688221 0.25182569 -0.00000043
-0.00664182 -0.43440600 0.76195159
-0.29798485 0.38058135 0.00000128
-0.79799182 -0.47437044 -0.00000081
-0.23298876 0.15812711 0.00000000
-0.00358840 0.31101933 0.41171265
-0.00067321 0.13213987 0.07721495
-0.21175406 0.27272026 0.00000000
-0.00178421 0.52985595 0.20470261
-0.48444482 -0.74947836 0.00000000
-0.00251481 0.43850721 0.28840511
-0.00402243 -0.66749754 0.46135720
-0.00528191 -0.15621874 0.60595261
-0.00114541 0.19705800 0.13137410
-0.29814767 0.12941623 0.00000548
-0.09884038 0.69395809 -0.00000023
-0.37380059 0.11664816 0.00000424
-0.00035190 0.54241252 0.03998758
-0.06338987 0.51129557 0.00000337
-0.00187423 0.40162663 0.21499930
-0.00189974 0.50586374 0.21782468
-0.00693574 -0.16773846 0.79575901
-0.00090033 0.16420194 0.10234819
-0.00535157 0.02269273 0.61399509
-0.00265699 -0.35610839 0.30474632
-0.00353186 0.12784277 0.40471617
-0.57101552 -0.03654515 -0.00000096
-0.00585621 -0.56821016 0.67175423
-0.00498332 -0.18636117 0.57167501
-0.00642443 -0.77698979 0.73690611
-0.00129372 0.22208871 0.14764624
-0.07964780 -0.26250212 0.00000000
-0.00306302 0.41236153 0.35137900
-0.65870026 -0.18441659 -0.00000107
-0.37023699 0.05102598 -0.00000026
-0.00416388 -0.34569695 0.47758322
-0.08417675 0.26891773 0.00000000
-0.08003951 0.09396843 0.00000938
-0.00352142 -0.23672540 0.40389382
-0.45052326 0.23581787 -0.00000093
-0.54921827 -0.43130641 -0.00000017
-0.44889384 -0.73507054 0.00000000
-0.33660831 0.28307857 0.00000217
-0.00033638 0.25555230 0.03858121
-0.00089261 0.43986266 0.10237948
-0.00320995 0.12990008 0.36771016
-0.00225810 0.04705872 0.25814740
-0.00003057 0.67258182 0.00350590
-0.00149494 0.08709651 0.17053294
-0.00054983 0.09086693 0.06306352
-0.60269710 0.11023789 -0.00000005
-0.00416784 0.25378992 0.47819972
-0.00119069 0.48536496 0.13626629
-0.16588652 0.59268877 0.00000028
-0.00662914 -0.16191600 0.76057384
-0.08928655 -0.00953720 0.00000000
-0.00206335 -0.03421625 0.23665846
-0.00290435 -0.50017238 0.33311786
-0.00368407 -0.53650644 0.42254913
-0.00173620 -0.73008254 0.00000000
-0.04771378 -0.16884883 0.00000000
-0.00293702 -0.11354602 0.33686503
-0.79062450 -0.33823952 -0.00000115
-0.00506687 -0.34572195 0.58122049
-0.00493909 0.02235218 0.56665495
-0.42175519 0.28231555 0.00000055
-0.00380660 -0.55698115 0.43660229
-0.15174214 0.63565992 -0.00000036
-0.00360098 -0.47323452 0.41301944
-0.44481194 -0.02542985 -0.00000044
-0.00464973 -0.61665776 0.53330721
-0.52486586 0.10194919 -0.00000101
-0.00311225 0.25261922 0.35672162
-0.00026669 -0.11054698 0.03058875
-0.21308277 -0.57112962 0.00000000
-0.46323250 -0.40654755 0.00000000
-0.00520468 -0.53471200 0.59698582
-0.00515336 -0.04072063 0.59122929
-0.00514295 -0.65189602 0.58987690
-0.00262878 -0.53543972 0.30151177
-0.00120219 0.05224014 0.13788649
-0.45707485 0.23560902 0.00000065
-0.00484864 -0.47939606 0.55613806
-0.64054874 0.13813064 -0.00000156
-0.00114861 0.43595556 0.13134303
-0.32179852 -0.29124929 0.00000000
-0.00496701 0.18809495 0.56983128
-0.17832594 0.49871315 0.00000161
-0.00196773 0.13877812 0.22569139
-0.37210194 -0.67393967 0.00000000
-0.54261622 0.04060960 0.00000226
-0.25387833 -0.16631594 0.00000000
-0.00268223 -0.59706448 0.30764190
-0.00040340 0.05381044 0.04626795
-0.00215640 -0.13576623 0.24733089
-0.32274182 0.37137745 -0.00000062
-0.00255986 -0.34417091 0.29360686
-0.00087115 0.22796505 0.09991778
-0.75820847 -0.32077642 -0.00000120
-0.39452911 0.22173900 0.00000208
-0.00196343 0.45042353 0.22503756
-0.00239010 -0.34655458 0.27413564
-0.55711688 -0.13258048 -0.00000073
-0.26937656 0.12149749 0.00000000
-0.00014496 -0.65887530 0.01662681
-0.00338703 0.30323759 0.38859915
-0.11801724 0.68096389 -0.00000028
-0.00064791 0.37910081 0.07371598
-0.00523062 -0.43336963 0.59999094
-0.00012378 0.09761619 0.01301102
-0.09310857 0.05651526 0.00000000
-0.00073971 0.48071807 0.08443858
-0.00110849 0.30978529 0.12651563
-0.00017839 0.27751405 0.02046085
-0.00296981 0.18727832 0.34021550
-0.00433661 -0.43703350 0.49739345
-0.69300361 -0.63044052 -0.00000042
-0.00032375 0.71989813 0.03713601
-0.00139531 0.38084085 0.16003727
-0.00009346 0.61208616 0.01071921
-0.00340069 0.02914824 0.38943885
-0.00696254 -0.43024446 0.79875944
-0.24641444 -0.40052896 0.00000000
-0.00487384 0.16092565 0.55906637
-0.48217182 -0.54927927 0.00000000
-0.00666854 -0.08302424 0.76511689
-0.00122272 0.20200144 0.13945369
-0.23509541 -0.20422289 0.00000000
-0.62824639 -0.60810267 -0.00000019
-0.00414251 0.10803924 0.47488214
-0.61716775 -0.59040001 -0.00000018
-0.00121780 0.53248284 0.13969582
-0.00393408 -0.29155920 0.45122422
-0.00409042 0.03314933 0.00001144
-0.00192624 -0.52284587 0.22093245
-0.00466965 0.26249596 0.53579322
-0.11404695 -0.74251125 0.00000000
-0.63626873 0.14355765 -0.00000156
-0.78414802 -0.17952675 -0.00000155
-0.00128092 0.08988027 0.14691711
-0.14011206 -0.62275276 0.00000000
-0.58972676 -0.58993155 -0.00000006
-0.00156842 -0.66546024 0.17989155
-0.01006229 -0.75261175 0.00000000
-0.21148324 0.24478088 0.00000514
-0.00239724 -0.29204981 0.27495456
-0.51333455 0.20184787 0.00000013
-0.00677160 -0.22115617 0.77690680
-0.29635503 0.03824391 0.00000000
-0.00575703 -0.27226243 0.66045046
-0.59617413 0.17523528 -0.00000101
-0.69451831 0.00348469 -0.00000003
-0.78910282 -0.61121003 -0.00000047
-0.16881341 0.54216249 -0.00000026
-0.00096156 0.32974384 0.10966843
-0.00063614 0.51995491 0.07260686
-0.00237332 0.48144226 0.27230221
-0.16522779 0.45083557 0.00000266
-0.00317216 -0.11928665 0.36383537
-0.05787471 0.58321699 0.00000000
-0.37138540 0.03548427 -0.00000023
-0.39914032 -0.39293816 0.00000000
-0.00150940 0.48624468 0.17290932
-0.00089753 -0.24784563 0.10294350
-0.00051525 -0.71891168 0.05909729
-0.08507769 0.51112570 0.00000000
-0.00308520 -0.72095499 0.35386059
-0.00007905 -0.06193745 0.00906645
-0.62192667 0.11992012 -0.00000145
-0.41792982 0.22788561 0.00000153
-0.23935170 0.23448274 -0.00000002
-0.06862226 -0.27109823 0.00000000
-0.33943180 -0.29451509 0.00000000
-0.30477652 -0.14289656 0.00000000
-0.03441589 0.52018898 0.00000368
-0.09447967 0.37435139 0.00000496
-0.26828362 0.20752239 -0.00000010
-0.00416869 0.26237354 0.47819816
-0.00387714 0.19220029 0.44481902
-0.00302884 0.24526187 0.34711824
-0.00075373 -0.62611385 0.08644988
-0.28780364 0.17459553 -0.00000012
-0.00629321 -0.03438664 0.72205359
-0.03116243 0.71738950 0.00000077
-0.53982715 -0.01320957 -0.00000087
-0.03705807 0.17574074 0.00000000
-0.00262135 -0.75675749 0.30065916
-0.09440838 0.11875760 0.00000879
-0.09235303 0.28297039 0.00000636
-0.62984059 -0.37004011 -0.00000062
-0.11247781 -0.24046031 0.00000000
-0.09056098 -0.53750306 0.00000000
-0.00308044 0.19135006 0.35294244
-0.00247214 -0.39589575 0.28354544
-0.44080426 -0.70433050 0.00000000
-0.39988338 -0.48759132 0.00000000
-0.19218326 -0.22331353 0.00000000
-0.00445055 -0.69586183 0.51046142
-0.00333725 -0.19569408 0.38276976
-0.00164253 -0.72661736 0.18839245
-0.23655780 -0.69251877 0.00000000
-0.14707085 0.23818569 0.00000621
-0.00641409 -0.30522497 0.73585304
-0.00152281 -0.58173432 0.17466063
-0.43748338 -0.41384013 0.00000000
-0.68343999 -0.48260891 -0.00000065
-0.00291181 -0.64542270 0.33397358
-0.27139653 0.06524355 0.00000000
-0.40466224 0.11409621 -0.00000051
-0.00366574 0.00082275 0.42050557
-0.62698584 -0.61300517 -0.00000018
-0.00355214 0.36292851 0.40756446
-0.22117716 0.37452463 -0.00000019
-0.00472130 0.15897888 0.54169523
-0.28065448 0.12765769 -0.00000001
-0.00694793 -0.51867140 0.79705670
-0.00132425 -0.56863601 0.15188640
-0.00017222 0.03764374 0.01847287
-0.41567222 0.31349758 -0.00000091
-0.40468889 -0.15440039 -0.00000004
-0.22347357 -0.53559159 0.00000000
-0.00483994 0.10030961 0.55504860
-0.62824793 0.13334895 -0.00000093
-0.56914729 0.09247561 0.00000089
-0.44681258 -0.73987657 0.00000000
-0.00429168 -0.24419975 0.49227838
-0.27295861 0.29838654 -0.00000028
-0.65280552 0.00552031 0.00000073
-0.68256446 -0.02912013 -0.00000145
-0.00341076 -0.69872707 0.39120121
-0.00456626 0.07900169 0.52354184
-0.00043271 0.10630423 0.04852123
-0.00586303 0.02241555 0.67269673
-0.02312955 -0.73066276 0.00000000
-0.08182084 -0.67798736 0.00000000
-0.59855882 -0.52538556 -0.00000021
-0.00119587 0.26272295 0.13647395
-0.63232578 0.03297985 0.00000067
-0.00074130 0.68856771 0.08500427
-0.65391802 -0.03353123 -0.00000132
-0.00383402 0.22432557 0.43987874
-0.52201376 -0.29606317 -0.00000029
-0.59249852 -0.21022894 -0.00000074
-0.00055783 0.24852303 0.06314179
-0.25954827 -0.11901142 0.00000000
-0.00012442 0.59180853 0.01427062
-0.00206987 0.43316869 0.23746176
-0.28182245 -0.71909454 0.00000000
-0.00065956 0.27347422 0.07487260
-0.00603871 -0.08204397 0.69283093
-0.09649480 -0.04933249 0.00000000
-0.12461169 0.22132101 0.00000000
-0.00324225 0.12436879 0.37141268
-0.35884875 0.09465352 -0.00000028
-0.00685131 -0.45329770 0.78598810
-0.00155116 0.06999550 0.17696269
-0.61581107 0.07227289 0.00000033
-0.13565524 0.51098503 0.00000222
-0.55798185 -0.18543226 -0.00000064
-0.00660960 -0.70854613 0.75817529
-0.00344169 0.25368695 0.39485860
-0.09580160 0.60507299 -0.00000006
-0.00079065 0.69222973 0.09068505
-0.00144687 -0.33942176 0.16595048
-0.00416434 -0.61970951 0.47763380
-0.00363691 -0.63407489 0.41714028
-0.00258825 -0.11274307 0.29686309
-0.00266346 -0.04002493 0.30548864
-0.04326391 0.55278921 0.00000306
-0.03369311 -0.37110273 0.00000000
-0.17424261 0.21640628 0.00000000
-0.00115896 0.20537604 0.13213423
-0.12578918 -0.60066848 0.00000000
-0.48936139 -0.14802390 -0.00000041
-0.00010505 0.15742461 0.01096252
-0.24360139 -0.43536754 0.00000000
-0.00105385 -0.19182501 0.12087315
-0.03948312 -0.49409105 0.00000000
-0.00237090 -0.59678852 0.27193298
-0.67816107 -0.79114229 -0.00000002
-0.00070563 0.35273456 0.08030243
-0.00694290 -0.00548345 0.79662614
-0.20902675 0.56928055 -0.00000048
-0.69938496 0.03274389 -0.00000163
-0.34848920 0.38730079 -0.00000076
-0.46953957 0.04007683 -0.00000066
-0.28996171 0.08654417 0.00000000
-0.00126123 0.63054403 0.14466477
-0.73437530 -0.04393357 -0.00000164
-0.00090713 0.67827846 0.10404971
-0.52909585 -0.68791675 0.00000000
-0.38660807 -0.20861426 0.00000000
-0.00030906 -0.39311316 0.03544748
-0.20750875 0.48729392 -0.00000033
-0.69913842 0.02574776 -0.00000162
-0.43650284 0.28812943 -0.00000096
-0.00070675 -0.29220391 0.08106188
-0.00118760 -0.36881005 0.13621320
-0.00536311 0.56485891 0.00000345
-0.37138160 0.40687622 -0.00000089
-0.00120971 0.50085982 0.13848414
-0.75950889 -0.01545806 -0.00000180
-0.00493040 -0.67573049 0.56549798
-0.00420525 0.26231417 0.48249619
-0.00028007 0.26084929 0.03125008
