ply
format ascii 1.0
element vertex 1372
property float x
property float y
property float z
end_header
-0.06882966 0.39659120 -0.00000150
-0.10505316 0.54637739 0.01343927
-0.24017735 0.22015188 0.06301397
-0.18700289 0.30960762 0.00000590
-0.30932071 -0.76551697 0.00000244
-0.32212990 0.02229822 0.11905583
-0.13362902 -0.13328532 0.00000309
-0.61192400 -0.52469449 -0.05351288
-0.47315198 -0.34229748 0.00164476
-0.35750399 -0.06309800 0.19769545
-0.08444128 0.24503767 -0.00000424
-0.22418031 0.49682139 -0.08346882
-0.33856075 -0.13332211 0.00000004
-0.46717682 -0.32787254 0.01185866
-0.65095764 -0.13316353 -0.22385647
-0.27117340 0.14531612 0.17522327
-0.58686884 -0.61683669 0.04628899
-0.31572991 0.30898597 -0.09510561
-0.71743515 -0.47336379 -0.16083692
-0.10853498 0.41330958 0.00000314
-0.71541491 -0.72398696 -0.07124046
-0.27902504 -0.18254133 0.00000025
-0.16899347 -0.13469636 0.00000106
-0.19341877 0.33303575 0.15654531
-0.15173393 0.43368134 0.01995885
-0.68043907 -0.31987877 -0.18333961
-0.28422939 -0.03165553 0.00000069
-0.69057141 -0.38085999 -0.17053311
-0.43175670 0.05403845 -0.10392739
-0.06048632 0.27296031 0.00000852
-0.14636439 0.55585736 -0.03829337
-0.30848311 0.33631877 -0.09855536
-0.60422497 0.02802014 -0.24081505
-0.22838466 0.43286946 -0.06460147
-0.29695513 0.08307966 0.01901223
-0.50543206 -0.42177437 0.00000500
-0.58157713 -0.24958189 -0.12429538
-0.73141995 -0.71434211 -0.08817209
-0.15764232 0.53673700 -0.04113617
-0.40635399 -0.74468712 0.00000324
-0.37479558 -0.70829681 -0.00000198
-0.46833854 -0.32730260 -0.00117471
-0.26843316 -0.17317999 0.00000398
-0.28263567 -0.63049063 0.00000266
-0.08411520 -0.28820057 0.00000109
-0.09373801 0.40658701 -0.00000053
-0.32132668 -0.18566246 -0.00000002
-0.54096930 -0.60483087 -0.00000266
-0.02227845 0.38367399 0.00000387
-0.14474627 0.45054293 0.07565812
-0.22868444 0.24789910 0.04279748
-0.10872525 -0.78395773 -0.00000061
-0.08866973 0.39452825 -0.00000094
-0.54911649 -0.56946157 0.00000486
-0.34367065 -0.32640102 0.00000407
-0.12086619 0.23895807 -0.00000327
-0.19833374 0.03138572 0.00000409
-0.52082042 -0.65464089 -0.00000269
-0.46618573 0.09510037 -0.14747470
-0.51923116 -0.00248740 -0.15816078
-0.54679648 -0.62205898 0.00000468
-0.15711816 0.36980184 0.00000060
-0.31992606 -0.13885994 0.00000448
-0.05653820 0.50350834 0.00000041
-0.43206811 0.02749847 -0.09488395
-0.50821052 0.16199246 -0.20651075
-0.07128941 0.62788437 0.06347294
-0.69131672 -0.61358845 -0.08955303
-0.27305979 0.14076008 0.25907527
-0.65761757 -0.78763817 0.09957966
-0.00504679 0.71208798 0.00000469
-0.03085666 0.59910015 0.00000620
-0.33322987 -0.24282966 0.00000426
-0.29296469 0.09270389 0.28715297
-0.50314665 -0.41471585 0.11764913
-0.14992828 0.50712167 -0.02421909
-0.48188650 -0.60062312 0.00000426
-0.56641362 -0.56745785 0.21187411
-0.25073569 0.40899728 -0.07515233
-0.52352275 -0.46391125 0.19309410
-0.16362559 0.18555627 0.00000209
-0.49452767 -0.00348621 -0.13689652
-0.32842397 0.39917987 -0.13748055
-0.62644487 -0.71238221 0.05371612
-0.20259967 0.07162184 0.00000150
-0.66525542 -0.05006151 -0.26510218
-0.48861162 0.13606393 -0.18082645
-0.01388262 0.36141944 0.00000859
-0.06074718 0.28451789 0.00000302
-0.45423794 0.13704195 -0.15206783
-0.18994713 0.01366055 0.00000844
-0.29900966 -0.77900794 0.00000232
-0.70989138 -0.25149473 -0.23225352
-0.40474649 0.18811223 -0.12807910
-0.20911221 0.19370079 0.00000468
-0.05298710 -0.22847767 0.00000219
-0.58780435 -0.61933364 -0.00000298
-0.05549914 0.41256708 -0.00000156
-0.07770829 0.61238724 0.07728302
-0.05040617 0.12713484 -0.00000778
-0.62629480 -0.71202018 0.10732335
-0.06097613 0.71347416 -0.02127627
-0.38773075 0.14656911 -0.09910378
-0.31246675 0.20416269 -0.05558221
-0.22885384 0.24749445 0.09302293
-0.25468559 0.26367037 -0.02753545
-0.37143572 -0.11060743 -0.00000009
-0.32336136 -0.25852065 -0.00000026
-0.55194856 -0.53253218 0.06338539
-0.46343494 -0.31885156 0.35582024
-0.20054058 -0.03197894 0.00000119
-0.22370099 0.24935428 0.00000497
-0.09637264 0.48303558 0.00000474
-0.17912508 0.35056378 0.00000251
-0.01625824 -0.00011239 0.00000240
-0.18629250 0.35024644 0.07472012
-0.56365616 -0.61236240 0.00000484
-0.42342990 -0.77514192 -0.00000248
-0.12724124 -0.09568962 0.00000143
-0.21759412 0.27467616 0.10828190
-0.14444813 0.45126442 0.03270765
-0.66446426 -0.54634013 -0.09040231
-0.50069076 -0.06404480 -0.12088034
-0.40481173 -0.17731185 0.06937709
-0.49156325 -0.19378483 -0.06765716
-0.30333473 0.34132526 -0.09595140
-0.47384086 -0.34397159 0.27541872
-0.01024485 -0.49156222 0.00000090
-0.12007588 0.58143113 -0.02500581
-0.24933797 -0.65238898 -0.00000104
-0.12803385 0.37668345 0.00000464
-0.54966707 -0.02339839 -0.17659654
-0.53806713 -0.71604845 0.00000432
-0.14432426 0.45156298 0.04502845
-0.66359174 -0.41792704 -0.13469428
-0.11280102 0.33322015 0.00000704
-0.22581241 0.33473478 -0.02800978
-0.46972621 -0.33403357 0.16717019
-0.72503704 -0.53575183 -0.14539484
-0.43618930 -0.09299297 -0.05612297
-0.69231519 -0.55422914 -0.11121388
-0.31305403 0.02637173 0.00000610
-0.56519086 -0.05840846 -0.17746179
-0.14849088 0.21276671 0.00000745
-0.07161057 0.34002718 0.00000410
-0.24160880 0.00357617 0.00000105
-0.35147889 -0.20976573 -0.00000028
-0.17896493 -0.32131784 0.00000285
-0.11328879 0.52648756 0.09078886
-0.13296318 -0.78718146 -0.00000076
-0.46911490 -0.33255860 0.18909468
-0.52718151 -0.66882484 0.00000439
-0.02419870 -0.13815549 0.00000225
-0.08241448 0.60102524 0.08581945
-0.62853091 -0.38259909 -0.11740069
-0.25975963 0.17287348 0.12495307
-0.58950039 -0.46615818 -0.05505627
-0.18030808 0.14965585 0.00000433
-0.10802725 -0.13669203 0.00000289
-0.49487804 -0.39475739 0.21188926
-0.22205950 0.32326464 -0.02081255
-0.61747042 -0.05071123 -0.22442018
-0.16736336 0.11600392 0.00000413
-0.04151067 0.69977887 0.02817298
-0.06138977 -0.47578965 0.00000148
-0.22835555 0.24868848 0.20298887
-0.09647314 0.03070134 -0.00000844
-0.32046426 0.02632538 0.16096005
-0.10751655 0.11111736 0.00000908
-0.67094357 -0.81980915 0.06089637
-0.29199534 0.09506589 0.01842668
-0.16378740 0.55019150 -0.05105604
-0.42993381 0.00498260 -0.08518427
-0.08802183 -0.13781933 0.00000154
-0.17928372 -0.41236651 0.00000013
-0.07143604 0.53324438 0.00000471
-0.04477459 -0.70650059 0.00000002
-0.11319769 0.15024116 0.00000229
-0.28943066 -0.27127236 -0.00000009
-0.65592822 -0.16801754 -0.21584224
-0.21373194 -0.74815164 -0.00000113
-0.23465930 -0.22387634 0.00000038
-0.44149225 -0.13925962 -0.04438805
-0.19662959 -0.28478073 0.00000309
-0.32866690 0.00651746 0.22637603
-0.11354457 0.54990789 -0.00842222
-0.01515113 0.01488236 0.00000246
-0.23297174 -0.35043486 0.00000316
-0.23053642 0.24342043 0.23160770
-0.17536503 0.18401802 0.00000202
-0.15806865 -0.76494951 0.00000130
-0.06256000 0.37534404 0.00000414
-0.28634337 -0.23624504 0.00000003
-0.04889125 -0.29105356 0.00000196
-0.16491480 -0.19315295 0.00000090
-0.17535101 0.05196737 0.00000837
-0.06059210 -0.20960518 0.00000230
-0.36244016 -0.64218374 0.00000323
-0.54647296 0.03247501 -0.19348439
-0.04237793 -0.58035642 0.00000043
-0.49579903 0.14739406 -0.19088378
-0.59767634 -0.65274525 0.00000497
-0.24889031 0.19911076 0.21543542
-0.58718924 -0.72440613 0.00000467
-0.07082235 0.05436983 0.00001024
-0.55498944 -0.37277016 -0.05858814
-0.09202445 -0.53425374 0.00000028
-0.33506639 -0.00893436 0.14523014
-0.02985480 0.46511210 0.00000739
-0.16544986 0.01558343 0.00000380
-0.53912814 -0.50158327 0.12296014
-0.14269199 0.45550628 0.06786140
-0.15241515 0.20687171 0.00000223
-0.06280036 0.62258106 0.00000492
-0.01241376 0.38811871 0.00000364
-0.36886629 -0.09053669 0.29782831
-0.14037184 -0.31443679 0.00000258
-0.60420488 -0.65074732 -0.00277501
-0.16044973 0.48890360 -0.02673782
-0.21008981 0.29279227 0.00162690
-0.08289844 0.53403809 0.00000583
-0.51921633 -0.46463161 0.00000497
-0.03741152 0.22431722 0.00000298
-0.21585073 0.28884317 -0.00348287
-0.14034115 0.46117862 0.05637315
-0.28479549 -0.21767998 0.00000397
-0.31206447 0.25280594 -0.07229992
-0.06721705 0.27037256 -0.00000423
-0.57994451 -0.60012347 0.15576327
-0.25883341 0.17510561 0.22323627
-0.39571136 -0.15533998 0.03021848
-0.31024710 0.04223551 0.00000497
-0.04853228 0.30937033 0.00000841
-0.18912395 -0.61175759 0.00000202
-0.25314337 0.14512138 0.00000486
-0.24548531 0.08235246 0.00000128
-0.06067789 -0.27141565 0.00000211
-0.48367934 -0.36772133 0.21314626
-0.33776042 -0.78705929 0.00000259
-0.54327093 -0.31632275 -0.06846182
-0.63592985 -0.46234622 -0.09569960
-0.20247636 -0.62171588 0.00000208
-0.22734214 0.25113407 0.18272271
-0.42089010 0.08377485 -0.10515807
-0.57340101 -0.03890190 -0.19125276
-0.22022261 0.47480734 -0.07239831
-0.43981467 -0.57304869 0.00000403
-0.35684770 -0.66620996 0.00000311
-0.40893157 -0.18726409 0.21978464
-0.24221939 0.29751590 -0.02885034
-0.33224527 -0.00211023 0.08928864
-0.12148627 -0.07539356 0.00000318
-0.04751396 -0.18218953 0.00000164
-0.03693330 0.02578466 0.00001111
-0.73608032 -0.77565879 -0.07061549
-0.01233502 0.47122191 0.00000407
-0.54784419 -0.76908736 -0.00000321
-0.39140985 0.24594587 -0.13706899
-0.17268828 0.38308062 0.17901582
-0.37099911 -0.38561001 -0.00000094
-0.42927160 -0.50465270 0.00000416
-0.21961384 -0.12294959 0.00000377
-0.70679919 -0.16776595 -0.25899697
-0.03383744 0.43409013 0.00000759
-0.44066499 -0.26387499 0.20650351
-0.54719570 -0.30024350 -0.07742299
-0.41485434 -0.20156541 0.28076492
-0.08433343 0.31542650 0.00000298
-0.38665364 -0.65367227 -0.00000188
-0.18478355 -0.75491927 0.00000153
-0.18114402 0.13388689 0.00000429
-0.52524893 -0.46807452 0.09075634
-0.52300857 -0.46266821 0.15123179
-0.11160534 0.53055206 0.08382978
-0.29748146 0.08180615 0.08914731
-0.00087523 0.25035510 -0.00000665
-0.34528455 -0.41279130 0.00000381
-0.12644125 0.49473572 0.06409040
-0.15323893 0.59221774 -0.05686376
-0.62609583 -0.71153982 0.08880093
-0.38798752 -0.13670180 0.25023869
-0.02290613 -0.49117854 0.00000114
-0.38557714 -0.19363014 -0.00000043
-0.25376647 -0.71610416 -0.00000127
-0.26996760 -0.11025753 0.00000053
-0.28447939 -0.78454323 0.00000219
-0.13966307 -0.17506307 0.00000111
-0.04798319 0.71115372 -0.00946290
-0.17969211 0.51935297 -0.05370718
-0.27986871 0.12433740 0.07130879
-0.41132522 -0.28697037 -0.00000088
-0.46853377 -0.00665257 -0.11378238
-0.16575589 0.39982298 0.02856722
-0.22324948 0.17340975 0.00000169
-0.45752390 -0.79279576 0.00000347
-0.10559383 0.51536176 0.00000214
-0.19911795 -0.56176331 0.00000225
-0.09353989 -0.54845377 0.00000149
-0.25562598 0.44824077 -0.09305443
-0.12779093 -0.19671508 0.00000285
-0.31278174 -0.25858083 0.00000405
-0.52684969 0.00328323 -0.16663608
-0.55658703 0.07840115 -0.21815242
-0.42965476 -0.23729471 0.22679583
-0.05119877 0.12078074 0.00001002
-0.22457545 0.25781340 0.21407773
-0.23708481 -0.66294067 -0.00000100
-0.42056023 -0.21533807 0.21585847
-0.05776769 -0.04039602 0.00000281
-0.10060200 0.25956268 0.00000407
-0.05147843 0.56054916 0.00000616
-0.36673004 -0.08538129 0.24309130
-0.52308322 -0.32021142 -0.05000752
-0.03801794 0.57745889 0.00000142
-0.34318429 -0.02853549 0.29317548
-0.21681630 0.27656206 0.00839437
-0.06719805 0.63776274 0.04056171
-0.28499104 0.40794008 -0.10378220
-0.32810191 0.00787654 0.28662587
-0.25470005 0.17002993 0.00000495
-0.04269201 0.47931573 0.00000703
-0.42630814 -0.66624031 -0.00000216
-0.47388427 -0.13753577 -0.07241522
-0.43041304 -0.19652550 -0.01492709
-0.04089416 0.00168911 -0.00001073
-0.55355350 -0.53640663 0.05761707
-0.10674756 0.54227910 0.10115125
-0.09014832 0.47612086 0.00000084
-0.00776336 0.33265116 0.00000360
-0.30505196 0.06352075 0.31634416
-0.27278110 0.45472791 -0.10985289
-0.27711990 -0.66179603 -0.00000124
-0.57745461 -0.77171126 0.00000444
-0.25781757 0.01003685 0.00000724
-0.37649794 -0.10896623 0.31992140
-0.46102332 -0.31302218 0.14928252
-0.23422234 -0.75065629 -0.00000126
-0.11089180 0.33923204 0.00000440
-0.17746623 0.54036512 -0.05919112
-0.47270296 -0.49604107 -0.00000190
-0.22425424 0.52129989 -0.09211564
-0.36483210 -0.08080005 0.32976279
-0.16007539 0.41353447 0.09012758
-0.30668402 0.05958442 0.27015834
-0.50257031 0.03204940 -0.15616711
-0.16796885 0.42792592 -0.01171978
-0.27222230 -0.35613464 0.00000344
-0.42870396 -0.29457308 0.00000481
-0.32629176 -0.58442347 -0.00000130
-0.05758514 -0.38956067 0.00000094
-0.19253973 -0.78850985 0.00000149
-0.41153101 -0.19354670 0.39357694
-0.21095738 0.29070145 0.07076462
-0.61053240 0.03879660 -0.24993404
-0.45031151 -0.42625747 -0.00000155
-0.61408117 -0.10141177 -0.20377172
-0.20677433 0.43416054 -0.04676021
-0.15412308 0.24504930 0.00000443
-0.28030394 0.08666963 -0.00000170
-0.29245610 0.09393274 0.23209048
-0.73363147 -0.76772591 -0.07132417
-0.44755860 -0.28051679 0.18426194
-0.36206437 -0.72123954 -0.00000194
-0.17716417 0.37228521 0.05781198
-0.35720857 -0.06239045 0.14544260
-0.61642712 -0.68819810 0.14412867
-0.56396256 0.00350000 -0.19813138
-0.43085964 -0.13174644 -0.03802127
-0.30401446 0.06602529 0.30718435
-0.50575685 -0.29482469 -0.04424161
-0.53907401 0.00470984 -0.17748369
-0.47226714 -0.68340314 -0.00000249
-0.08736486 0.63336233 -0.01552381
-0.06742936 -0.73489887 -0.00000020
-0.67272925 -0.49456566 -0.11555510
-0.49110517 0.00662718 -0.13754785
-0.07768888 -0.28639481 0.00000219
-0.31396307 0.41431298 -0.13054487
-0.31728555 -0.08706708 0.00000462
-0.42224337 0.05970196 -0.09785949
-0.06748624 0.43874610 0.00000438
-0.09179989 0.59116063 -0.00447956
-0.14312174 0.45447422 0.00090201
-0.24054700 -0.55259401 -0.00000068
-0.22250066 0.23232180 0.00000594
-0.39595400 0.11141017 -0.09373837
-0.50052306 -0.65233861 0.00000424
-0.43513016 -0.25051410 0.24107641
-0.45211155 0.12728294 -0.14684672
-0.15140763 0.42544869 0.00000292
-0.18913441 0.26851687 0.00000623
-0.11299403 -0.60026551 0.00000148
-0.03297830 0.21173372 0.00000341
-0.10337232 -0.39548417 0.00000204
-0.63740834 -0.73885000 0.15931738
-0.39554334 -0.67839245 0.00000336
-0.00626028 0.07212434 0.00000269
-0.23836359 -0.56409290 0.00000254
-0.09638463 0.20336277 0.00000386
-0.10903738 0.53675843 0.01784513
-0.32099923 0.24650696 -0.07765516
-0.39515598 -0.69420167 -0.00000205
-0.62544936 -0.74654822 -0.00000361
-0.47176910 -0.33897079 0.29749827
-0.48729903 -0.55341738 -0.00000217
-0.29711907 0.01558827 -0.00000270
-0.23607388 -0.37230528 0.00000312
-0.26319356 -0.13556669 0.00000406
-0.04485174 0.54284832 0.00000453
-0.13401348 0.39249828 0.00000038
-0.08594164 0.04906534 -0.00000836
-0.27173989 -0.12608156 0.00000047
-0.11340234 0.23626153 0.00000409
-0.42116222 -0.54623077 0.00000397
-0.41492901 0.23370665 -0.15268737
-0.37248549 -0.09927775 0.28159813
-0.33254230 0.22004426 -0.07814956
-0.20372889 -0.49208656 0.00000250
-0.06391306 -0.40524107 0.00000172
-0.19169555 -0.49081232 -0.00000019
-0.10705360 -0.59352384 0.00000145
-0.11289289 0.46159278 0.00000592
-0.65236234 -0.35269845 -0.14806134
-0.51496634 -0.64341844 -0.00000262
-0.35987123 -0.54111036 0.00000352
-0.06068087 0.30109229 -0.00000377
-0.38479215 -0.12898091 0.08672130
-0.44888754 0.10988117 -0.13801339
-0.18705726 -0.55133664 0.00000219
-0.13645399 0.19180250 0.00000228
-0.57572441 -0.63037302 -0.00000294
-0.20670233 0.30097938 0.00314293
-0.39678323 0.20570945 -0.12750832
-0.17252734 0.38347234 0.10037366
-0.16020676 0.15737487 0.00000202
-0.33598674 -0.01116430 0.35414082
-0.27097344 0.14580115 0.11850072
-0.65350921 -0.77771994 0.07973897
-0.55910361 -0.76271506 -0.00000326
-0.15696165 0.28887230 -0.00000112
-0.32481252 0.01583496 0.07420365
-0.37617849 0.16970543 -0.09743907
-0.34019742 0.05312618 -0.02609711
-0.35074517 -0.04679150 0.27284687
-0.40021422 -0.16622318 0.33631352
-0.38516094 -0.12987775 0.24888632
-0.59482872 -0.63605234 0.01542713
-0.02322151 -0.29336297 0.00000144
-0.49915722 -0.28629868 -0.04164426
-0.37198200 -0.09805847 0.18845848
-0.27682300 -0.34858336 0.00000350
-0.32109109 -0.35930514 0.00000380
-0.25286861 0.18951228 0.06626019
-0.20319317 0.17954894 0.00000183
-0.53314460 -0.32885580 -0.05549403
-0.47222382 0.04071320 -0.13351610
-0.13830183 0.12281142 0.00000842
-0.33986677 -0.09262772 0.00000016
-0.27282551 -0.69992842 0.00000237
-0.37041818 -0.09427806 0.06372289
-0.15248123 -0.03054960 0.00000355
-0.22064815 0.30046151 -0.01161871
-0.40420257 -0.74162609 0.00000323
-0.35880073 -0.06624040 0.29789250
-0.29510953 -0.29258474 0.00000381
-0.13105826 0.48359257 0.06244734
-0.24680903 0.20415099 0.04994539
-0.08079475 -0.30709594 0.00000105
-0.02679940 0.42318163 -0.00000220
-0.16515097 0.40128713 0.05831294
-0.36097972 -0.54126180 -0.00000137
-0.13630348 0.23037239 0.00000752
-0.10785846 0.42344822 0.00000634
-0.21215830 -0.57557913 0.00000230
-0.17859016 0.22303981 0.00000212
-0.07095805 0.34477394 0.00000315
-0.58036725 -0.60113933 0.01894060
-0.02320466 0.10030787 -0.00000917
-0.28101258 -0.69996944 -0.00000138
-0.42855586 -0.23463294 0.00813081
-0.24682064 0.07575688 0.00000460
-0.22938928 -0.04331060 0.00000410
-0.38625297 -0.13251341 0.23058031
-0.07184659 0.31342081 0.00000796
-0.23784942 0.47943486 -0.08894396
-0.48609825 0.08710172 -0.16152907
-0.28858427 0.10328456 0.12296560
-0.11773374 0.13153324 0.00000220
-0.41571846 -0.21218189 0.00000497
-0.33040496 0.00231434 0.27005188
-0.28724575 0.10650866 0.30895331
-0.05085906 0.63488948 0.00000303
-0.14678706 0.61300748 -0.05869203
-0.56978437 -0.57559540 0.24717305
-0.46017584 -0.27234246 -0.01353716
-0.19191748 -0.48437300 0.00000243
-0.23804763 -0.39595833 -0.00000017
-0.62760069 -0.71517224 0.04458647
-0.27468943 0.45319731 -0.11093173
-0.29089502 0.09771460 0.11269590
-0.03858411 -0.31483286 0.00000181
-0.64882755 -0.18555629 -0.20368059
-0.43935477 -0.35509320 0.00000471
-0.12840109 0.58898208 -0.03470172
-0.39025263 -0.15744641 -0.00000035
-0.43808365 0.09691133 -0.12432047
-0.13281094 0.29964243 0.00000263
-0.05724147 0.14508364 0.00000339
-0.47137771 -0.13345582 -0.07172392
-0.29936417 -0.22257687 -0.00000000
-0.11034744 -0.70346945 0.00000113
-0.22701926 0.07504085 0.00000445
-0.14459243 -0.61226273 0.00000168
-0.29657698 -0.43540753 -0.00000065
-0.32569451 -0.38905217 0.00000374
-0.20531707 -0.64383481 0.00000204
-0.40154766 -0.04695686 -0.04293929
-0.43003042 -0.33519887 0.00000470
-0.27152075 0.07873508 -0.00000213
-0.09892009 -0.38810796 0.00000069
-0.26772147 -0.62948523 -0.00000108
-0.29724078 -0.40273222 -0.00000055
-0.37334917 -0.25020269 0.00000453
-0.51763862 -0.60315204 0.00000452
-0.10350752 0.55010148 0.09598072
-0.36576915 0.33462713 -0.14645978
-0.45311618 -0.29393707 0.26061274
-0.30120975 0.20285409 -0.04559312
-0.22407475 0.39949591 -0.04925067
-0.17570744 -0.67840790 0.00000171
-0.47450896 0.21176752 -0.19543416
-0.15204704 -0.50801102 -0.00000001
-0.47599138 -0.29394509 -0.01935100
-0.59038556 -0.01340380 -0.21457199
-0.09907940 -0.67752550 -0.00000022
-0.06778605 -0.20334965 0.00000238
-0.49606047 0.12036019 -0.18162483
-0.18203313 0.36051947 0.19492462
-0.69473709 -0.15675975 -0.25264504
-0.01917226 0.44257405 -0.00000202
-0.01284831 0.02654015 0.00000268
-0.36484669 -0.08083795 0.32960714
-0.42040521 -0.31449603 0.00000469
-0.06402252 0.43057799 0.00000433
-0.30510660 0.06339877 0.05505613
-0.66074041 -0.01538202 -0.27344089
-0.49463146 0.15594568 -0.19289470
-0.12814976 0.49060973 0.09550910
-0.50723460 -0.21987960 -0.07177366
-0.41964093 -0.21312514 0.37677886
-0.24152335 -0.05936639 0.00000086
-0.31023169 -0.64702506 -0.00000139
-0.35396135 -0.05455215 0.17549505
-0.01986256 0.16717044 -0.00000785
-0.36039793 -0.07009114 0.16751454
-0.22876143 0.24770757 0.21596184
-0.36194282 -0.12881409 0.00000483
-0.32432623 -0.66697069 0.00000286
-0.20791975 -0.55722105 0.00000233
-0.21656122 0.23744889 0.00000488
-0.13968064 0.31906346 0.00000668
-0.25949051 0.17351989 0.24441624
-0.72191999 -0.44628431 -0.17412966
-0.36675515 -0.02882868 -0.01984142
-0.07499182 -0.74915529 0.00000072
-0.27197315 -0.17526874 0.00000031
-0.27482911 0.13649731 0.00376727
-0.66926802 -0.53346024 -0.09898570
-0.08502370 -0.03413381 0.00000188
-0.24392773 0.21109751 0.16608305
-0.22314852 -0.27050824 0.00000031
-0.57056081 -0.20324505 -0.13121805
-0.16791974 0.39460210 0.06753426
-0.41414636 -0.75404152 0.00000327
-0.75050932 -0.73874500 -0.09577530
-0.51764909 -0.44973280 0.23935225
-0.03198953 -0.04889165 0.00000215
-0.47180836 -0.26090827 -0.02739473
-0.16217349 0.37006719 0.00000583
-0.19605989 -0.61830340 -0.00000062
-0.14259218 -0.06684880 0.00000143
-0.52822266 -0.47525650 0.15894123
-0.38425118 -0.08043880 -0.01655520
-0.14339407 0.45381224 0.05660671
-0.18671622 0.34921577 0.17025087
-0.26164236 0.45032023 -0.09887749
-0.46595294 -0.32493001 0.31533492
-0.24379959 0.36974793 -0.05551773
-0.46529721 0.11132118 -0.15241222
-0.28675663 0.11406486 -0.00222035
-0.58192717 -0.77887789 -0.00000345
-0.15844600 -0.62639704 -0.00000041
-0.03587469 0.69617275 0.00000526
-0.53256580 0.02907030 -0.18051661
-0.39639173 -0.28940070 0.00000459
-0.49073782 -0.44320991 -0.00000185
-0.01862547 0.01925725 -0.00001103
-0.44884036 -0.33340784 -0.00000125
-0.25689726 0.17978615 0.17417290
-0.50085903 -0.40919904 0.29073814
-0.11977419 0.51083233 0.04211321
-0.06647947 0.63949770 0.03649708
-0.53684127 -0.49606510 0.19361603
-0.04180960 -0.30768018 0.00000129
-0.11154615 0.10936518 0.00000217
-0.04973356 0.62305535 0.00000274
-0.00762310 -0.11067353 0.00000221
-0.01990820 0.43507217 -0.00000215
-0.49308016 -0.61816767 -0.00000241
-0.24945582 0.07720298 0.00000681
-0.08988235 0.52569083 0.00000360
-0.14203436 -0.69973074 0.00000138
-0.03412949 0.32925732 0.00000332
-0.22573898 -0.51449166 -0.00000047
-0.27813419 0.12851775 0.01321455
-0.64735618 -0.30265549 -0.16137176
-0.33190444 -0.00129652 0.04080978
-0.00829578 -0.06215513 0.00000237
-0.13587648 0.10303046 0.00000864
-0.07234214 -0.36492091 0.00000191
-0.50816634 -0.42683220 0.06119759
-0.23609430 0.33257550 -0.03595928
-0.01749511 0.54084066 0.00000432
-0.27242514 -0.51855656 0.00000293
-0.28950271 0.36578145 -0.09281848
-0.48378008 0.05940220 -0.14985141
-0.28755582 0.22883768 -0.04314818
-0.04170930 0.28436557 0.00000370
-0.23515277 0.16983430 -0.00000129
-0.61198458 -0.73628303 -0.00000349
-0.63134149 -0.62139727 -0.03604070
-0.48632081 -0.29585828 -0.02742486
-0.14431428 0.49651255 -0.01574586
-0.18958630 0.34229040 0.04726714
-0.15185604 0.43337510 0.16067423
-0.28362490 -0.60373243 0.00000275
-0.57865405 -0.59700624 0.09221792
-0.25615540 -0.07866239 0.00000071
-0.62526200 0.04085406 -0.26312565
-0.32967892 0.00408958 0.03753490
-0.11228372 0.43214564 0.00000057
-0.27414326 0.13816281 0.03220149
-0.36638317 0.32962885 -0.14522685
-0.17207103 0.34731820 0.00000255
-0.62299041 -0.70404290 0.14053649
-0.15427824 0.17359048 -0.00000366
-0.46975761 0.16585645 -0.17531224
-0.35439817 -0.05560767 0.29216973
-0.62778443 -0.50634016 -0.07337643
-0.13702780 0.50107907 -0.01118002
-0.58406883 -0.59388029 -0.00566965
-0.02076702 -0.52177153 0.00000074
-0.20964446 -0.40029885 0.00000283
-0.05539721 0.03377580 0.00000227
-0.47171133 -0.62025102 -0.00000229
-0.11075709 0.30065577 0.00000736
-0.15797912 -0.04244344 0.00000141
-0.31689495 0.03493524 0.15087944
-0.36605398 -0.08374699 0.29409661
-0.25217862 0.03450362 0.00000109
-0.02107519 0.27989212 -0.00000542
-0.05585409 0.33073300 -0.00000329
-0.12521927 0.19983925 0.00000237
-0.63252099 -0.72705116 0.09763955
-0.22286229 -0.14948953 0.00000371
-0.27360234 -0.10575061 0.00000423
-0.28765892 0.22435039 -0.04166190
-0.37283902 0.27629880 -0.13199022
-0.15344743 -0.76033966 0.00000128
-0.19601669 0.32676165 0.15630936
-0.23611027 -0.19940729 0.00000045
-0.40454834 -0.72341321 -0.00000220
-0.11697687 0.52672491 -0.00319839
-0.42410160 -0.43840066 0.00000433
-0.34702408 0.20862493 -0.08640330
-0.25858909 -0.34836800 -0.00000015
-0.32145261 -0.00817397 0.00000053
-0.34205688 0.20010484 -0.07921023
-0.23868807 0.22177815 0.00000574
-0.13864592 -0.55677477 -0.00000008
-0.14443753 0.45129041 0.02283405
-0.32624782 0.30577316 -0.10288219
-0.65684485 -0.40040029 -0.13512855
-0.44247890 -0.71426785 0.00000361
-0.51556047 0.07956156 -0.18382623
-0.11037040 0.11894056 0.00000221
-0.44998552 -0.28637852 0.24947352
-0.06364477 0.57669064 0.00000478
-0.26046959 -0.54556455 -0.00000078
-0.49502579 -0.14164987 -0.08887067
-0.47070358 -0.23860936 -0.03427900
-0.01838030 0.48585035 0.00000742
-0.35660586 -0.06093203 0.06200513
-0.27857122 0.32101077 -0.06786268
-0.29858247 -0.28999708 -0.00000021
-0.21203146 0.15571386 0.00000680
-0.37832975 -0.11338515 0.32232584
-0.41820613 0.15497186 -0.12785095
-0.25124751 -0.22667689 0.00000028
-0.18612226 0.32745088 0.00000058
-0.38838891 -0.13766156 0.01954149
-0.01824335 -0.33934037 0.00000133
-0.07265420 0.37727579 0.00000423
-0.65775687 -0.79742493 -0.00000396
-0.60488375 -0.30585562 -0.12429295
-0.25123864 0.19344360 0.21667979
-0.56228326 -0.08588543 -0.16536490
-0.49777371 -0.40174016 0.01267040
-0.09825243 0.00382670 0.00001019
-0.47258353 -0.34092683 0.04428197
-0.20322101 0.30936985 0.13090221
-0.35581672 0.34135502 -0.14039314
-0.09439091 0.49968774 0.00000477
-0.28083056 -0.40906507 0.00000334
-0.04417431 0.10434612 0.00001029
-0.20210765 0.18759113 0.00000461
-0.00597951 0.18553912 -0.00000788
-0.13282055 -0.06179942 0.00000151
-0.38545588 -0.13058835 0.21289646
-0.52597580 -0.75438611 0.00000411
-0.42281705 -0.22079113 0.33020163
-0.64269624 -0.75161533 0.02279749
-0.15907866 -0.75180664 0.00000135
-0.02928099 0.67108567 0.00000482
-0.13804022 0.61090711 -0.05055029
-0.15576313 -0.63830055 0.00000168
-0.00798125 0.05160600 0.00000261
-0.09438952 0.07972957 -0.00000746
-0.56295354 0.00063792 -0.19627218
-0.42377388 0.15212711 -0.13156853
-0.07009702 0.63076654 0.02676029
-0.14795424 -0.68246733 -0.00000053
-0.10891279 -0.33593635 0.00000079
-0.19912794 -0.00040546 0.00000400
-0.29571204 0.41090492 -0.11389867
-0.41356035 -0.19843363 0.08671977
-0.69016418 -0.04444649 -0.28815864
-0.47153624 -0.33840614 0.23574403
-0.31506572 -0.43051651 -0.00000075
-0.20874217 0.36351675 -0.02365348
-0.31644785 -0.08997753 0.00000461
-0.28529289 0.11123240 0.07993851
-0.46624319 -0.49625798 -0.00000186
-0.02201113 0.62829141 0.00000202
-0.11104578 0.40959107 0.00000311
-0.12590982 0.17567059 0.00000400
-0.03369051 -0.30594501 0.00000180
-0.33473544 -0.30584093 0.00000407
-0.22833172 -0.41103134 0.00000294
-0.56398293 -0.56556988 0.00000499
-0.17271490 0.01496556 -0.00000647
-0.00156750 0.58980403 0.00000433
-0.54654249 -0.72277260 0.00000436
-0.43726763 -0.25566926 0.11292878
-0.23658591 -0.75327358 -0.00000128
-0.15053952 0.43655914 0.01630632
-0.32250832 0.02137866 0.26765332
-0.69991013 -0.27907943 -0.21413050
-0.41979238 -0.70901762 -0.00000225
-0.38774320 0.17394316 -0.10871566
-0.24629409 0.18485203 0.00000494
-0.58927018 -0.62263709 0.18345810
-0.33450919 0.39188676 -0.14007474
-0.09076229 -0.39941179 0.00000194
-0.54443956 -0.75869252 0.00000424
-0.02271212 0.72733003 0.00000464
-0.43964492 -0.26141495 0.27209768
-0.41223810 -0.19066940 -0.00159399
-0.23594858 0.23036222 0.03437736
-0.31362337 0.04283638 0.08055541
-0.05468522 -0.54724948 0.00000120
-0.28760125 0.14723293 -0.01456684
-0.29561670 0.08630372 0.19793234
-0.27249933 -0.73903050 0.00000225
-0.29205408 0.43911543 -0.12069440
-0.31334731 0.04350232 0.21792041
-0.43147866 -0.59745697 0.00000389
-0.66046452 -0.32220710 -0.16561294
-0.36900867 -0.09088118 0.30711608
-0.26373640 0.16326714 0.27427849
-0.06283470 0.58010210 0.00000222
-0.43152688 -0.05197046 -0.06656120
-0.46029988 -0.79154432 0.00000350
-0.18465194 0.35420546 0.09437862
-0.63163351 -0.31499667 -0.14373346
-0.60475355 -0.79976295 0.00000456
-0.11467831 0.12072725 0.00000374
-0.25496321 -0.30103994 0.00000348
-0.46815709 -0.33024432 0.14080925
-0.38197462 -0.61583375 0.00000346
-0.48446625 -0.01423439 -0.12460933
-0.11562137 -0.74814752 -0.00000054
-0.10325946 -0.78401128 0.00000083
-0.16781259 0.45856134 -0.02233076
-0.30862930 0.05489966 0.12848399
-0.68717077 -0.25227947 -0.21274362
-0.17322502 0.42099168 -0.01373987
-0.56394276 -0.56148637 0.00267725
-0.58129035 -0.34946026 -0.08902824
-0.55026121 -0.69577565 0.00000448
-0.13086288 0.39509446 0.00000294
-0.66146224 -0.79691974 0.00377858
-0.52249798 -0.50069927 0.00000488
-0.03327157 -0.74210347 0.00000043
-0.00156206 0.68762134 0.00000466
-0.53600825 -0.29202468 -0.07083393
-0.06018544 0.16180314 0.00000264
-0.36140259 -0.07251431 0.10993857
-0.44356730 0.09328781 -0.12769029
-0.03539374 0.08677007 0.00000256
-0.08247600 0.12246546 0.00000238
-0.56790413 -0.57105581 0.14762833
-0.00516445 -0.67292186 0.00000044
-0.09772969 0.61794699 -0.01889283
-0.14283914 -0.62933593 0.00000161
-0.33083193 0.04464898 -0.01519168
-0.04433489 0.46026441 0.00000427
-0.00009045 -0.31800259 0.00000151
-0.05282568 -0.70583745 0.00000069
-0.48664721 -0.19681581 -0.06243242
-0.75235611 -0.80761645 -0.07318755
-0.25320792 -0.76493313 -0.00000142
-0.22491609 0.17709967 0.00000475
-0.15027014 0.43720665 0.08647807
-0.12932285 0.48777599 0.13652937
-0.06195332 0.47935221 0.00000668
-0.04639714 0.40595439 0.00000761
-0.17202627 0.24462999 -0.00000161
-0.22068525 0.06107287 0.00000747
-0.05854927 0.28866886 0.00000841
-0.30005840 0.07558763 0.17381708
-0.67614399 -0.15669660 -0.23692657
-0.55195005 -0.35220678 -0.06322600
-0.19280895 0.47918432 -0.05072579
-0.16559005 0.55990293 -0.05598778
-0.34567923 -0.23470879 0.00000437
-0.15098284 0.06561344 0.00000384
-0.16611984 0.01487445 0.00000154
-0.29058390 0.02530278 0.00000083
-0.39494963 -0.15350321 0.08491228
-0.12949684 -0.49455325 0.00000017
-0.27140958 -0.56619405 0.00000278
-0.04157465 0.50680756 0.00000383
-0.01138103 0.01735461 -0.00001129
-0.11749212 0.09459926 0.00000209
-0.07167938 0.26356545 0.00000289
-0.20194599 -0.28881678 0.00000038
-0.22324502 -0.78087032 -0.00000129
-0.02904838 0.68063821 0.00000334
-0.38990011 0.27565830 -0.14620955
-0.40321214 -0.27863621 0.00000467
-0.31972415 -0.58186768 -0.00000125
-0.25361344 0.18771428 0.06163414
-0.20445865 0.30639394 0.02851174
-0.05852068 -0.08216252 0.00000189
-0.11458722 0.61228564 -0.03117838
-0.19862574 -0.16107774 0.00000080
-0.31813618 -0.59270440 0.00000305
-0.58236607 0.01075937 -0.21625719
-0.21844097 -0.08413798 0.00000092
-0.25074378 0.19463930 0.20395243
-0.40956276 -0.10349800 -0.02989749
-0.07430349 -0.65941741 0.00000100
-0.49567216 -0.16012125 -0.08294051
-0.24460535 -0.18247649 0.00000378
-0.51222207 -0.37627288 -0.02115353
-0.32648536 0.01179018 0.15114946
-0.15764654 0.58430226 -0.05781947
-0.40375162 -0.42378395 0.00000422
-0.10197280 0.04715375 0.00000974
-0.09799894 0.45744656 0.00000068
-0.56201827 -0.11337705 -0.15550007
-0.47324018 -0.34251571 0.13386077
-0.36191408 -0.61148169 -0.00000160
-0.66724358 -0.57799901 -0.08165342
-0.48575114 -0.37272427 0.24185200
-0.35897899 -0.47022601 0.00000374
-0.51119127 -0.51739251 -0.00000220
-0.36518219 -0.08164890 0.35408421
-0.01983469 -0.18720343 0.00000206
-0.00866826 0.39443230 -0.00000336
-0.49533442 -0.39585687 0.15385056
-0.46021800 -0.31108277 0.26938224
-0.08588849 -0.56504291 0.00000022
-0.11130353 -0.49442293 0.00000028
-0.09090163 -0.56772462 0.00000141
-0.51317152 -0.43892327 0.27456263
-0.61241360 0.05571600 -0.25745998
-0.34746522 -0.54575626 -0.00000130
-0.47568660 -0.36585796 -0.00000151
-0.23127454 0.24164684 0.02269786
-0.26771805 0.15365895 0.22237110
-0.15843933 0.41749139 0.04368888
-0.37110774 -0.09595018 0.24740085
-0.64654329 -0.09262113 -0.23433635
-0.55039342 -0.52878061 0.13519435
-0.45547216 -0.29962302 0.21348682
-0.10362824 0.54981204 0.07967567
-0.39970805 -0.64377468 0.00000350
-0.23259094 0.23846884 0.13751514
-0.13309775 -0.25852483 0.00000270
-0.46371332 0.08807349 -0.14291736
-0.26921882 -0.26013994 0.00000372
-0.59103646 -0.79953344 -0.00000357
-0.43779961 -0.44640498 0.00000441
-0.63554903 -0.39999118 -0.11724325
-0.60488893 -0.66034121 0.04834517
-0.61577079 -0.20279558 -0.16964985
-0.27703596 0.01201111 0.00000688
-0.57124318 -0.59015096 0.00000497
-0.30760933 -0.30285065 0.00000387
-0.65993360 -0.79322940 0.06207920
-0.51800653 -0.45059529 0.22830547
-0.57576293 -0.00408056 -0.20546314
-0.70595933 -0.74729011 -0.05506387
-0.01957985 0.45353850 0.00000768
-0.02774173 0.39035664 0.00000355
-0.05771766 0.32348831 0.00000316
-0.39589286 -0.58098931 0.00000367
-0.27689825 0.35021903 -0.07669043
-0.64859737 -0.09378212 -0.23566818
-0.27480664 0.34757230 -0.07399157
-0.15763437 0.20770391 0.00000434
-0.25964666 0.17314895 0.05673912
-0.20580893 -0.57417746 0.00000226
-0.16261825 -0.02419810 0.00000365
-0.15272558 0.43128523 0.04576989
-0.32238638 0.38492493 -0.12737042
-0.36493716 0.31871764 -0.14017601
-0.15085148 0.42912054 0.00000498
-0.35507234 -0.45313884 -0.00000106
-0.03791125 -0.36503338 0.00000165
-0.49070081 -0.38467125 0.17692155
-0.55401706 -0.41352808 -0.04347235
-0.70113034 -0.51805079 -0.13136326
-0.20022202 0.31661361 0.04280755
-0.62240773 -0.65494227 -0.01671426
-0.13030152 0.16106231 0.00000399
-0.15724225 0.21726446 0.00000725
-0.65730966 -0.48605256 -0.10548636
-0.60797763 -0.32556566 -0.12000046
-0.20049802 0.24878729 0.00000207
-0.47087792 -0.24038943 -0.03380237
-0.26016307 0.17190973 0.07797966
-0.35757701 -0.15021534 0.00000473
-0.10668004 -0.07028435 0.00000164
-0.52848843 -0.47590066 0.27374175
-0.36555657 -0.08254634 0.19493919
-0.38493290 -0.12933082 0.33847141
-0.31674306 0.14785920 -0.03946098
-0.40328755 0.26955758 -0.15540396
-0.09186556 -0.53679561 0.00000152
-0.20740600 -0.62547847 -0.00000071
-0.06674631 0.54697046 0.00000381
-0.00316714 0.42413675 -0.00000289
-0.27915009 -0.03391109 0.00000450
-0.52402810 0.04598753 -0.17922114
-0.54966577 0.07031654 -0.20945774
-0.49469514 -0.78064767 0.00000379
-0.30463108 0.00439444 0.00000481
-0.10272475 -0.70527895 -0.00000032
-0.54500200 -0.51576690 0.19478827
-0.22601077 0.25435645 0.11357537
-0.55514832 -0.74105696 0.00000437
-0.31886182 0.03019126 0.03980530
-0.08396639 0.32027767 0.00000299
-0.28880653 0.10274750 0.13440260
-0.03093394 0.54350212 0.00000668
-0.35883117 -0.06630259 0.20455118
-0.14317954 0.27382325 0.00000444
-0.33618250 -0.01163743 0.35756463
-0.05324612 0.66232571 0.00000425
-0.42858275 0.11284110 -0.12186323
-0.24413164 -0.47053110 0.00000287
-0.56824980 -0.50812929 -0.02234779
-0.08102230 0.48070798 0.00000066
-0.57525986 0.04359989 -0.22175736
-0.48901277 -0.38059770 0.22074055
-0.03690605 -0.52760460 0.00000113
-0.53762270 -0.22214452 -0.09670559
-0.29491412 0.08801302 0.09755384
-0.30651000 -0.79070088 -0.00000182
-0.66383584 -0.02596961 -0.27234846
-0.25620196 -0.00742794 0.00000441
-0.10555971 0.54515298 0.03200324
-0.35974396 -0.06851266 0.17573241
-0.09026535 0.47352334 0.00000343
-0.01497212 0.03429291 -0.00001082
-0.33585647 -0.01084464 0.29058843
-0.11149977 0.47073446 0.00000330
-0.33058290 0.00189291 0.06668493
-0.12499621 0.55657993 -0.02045673
-0.12949643 0.03590246 0.00000183
-0.02377286 0.52169414 0.00000431
-0.01943000 -0.67829796 0.00000053
-0.21194046 0.16324396 0.00000173
-0.16127764 -0.63234484 -0.00000045
-0.35287984 -0.05193751 0.23500920
-0.64902742 -0.65568298 -0.03899041
-0.20977510 -0.61164811 0.00000217
-0.32403820 -0.63870594 0.00000295
-0.45746671 -0.78614200 -0.00000272
-0.19520351 0.55872349 -0.08064500
-0.17961123 0.36637981 0.03043858
-0.01259726 0.03107668 0.00001150
-0.03528143 0.17965385 -0.00000712
-0.31971055 -0.24376314 -0.00000019
-0.11736888 -0.15683892 0.00000130
-0.65430983 -0.21526060 -0.19790540
-0.05876413 0.48910284 0.00000017
-0.04667456 0.69822194 -0.00382025
-0.04448064 0.23407277 0.00000915
-0.19173096 0.33711341 0.03028087
-0.18228701 0.35991060 0.09428079
-0.09597084 0.48623330 0.00000123
-0.35368189 -0.05387950 0.22578965
-0.15254310 0.17696108 0.00000769
-0.35857790 -0.76475724 -0.00000205
-0.08968774 0.17168436 0.00000887
-0.34804253 -0.04026080 0.12508572
-0.07633965 0.44039147 0.00000676
-0.12924004 0.28930485 0.00000713
-0.40747662 -0.18374499 0.05690928
-0.29688621 -0.51710315 -0.00000091
-0.32935715 -0.39510006 -0.00000072
-0.49655848 -0.39881197 0.15285981
-0.53496724 0.01153492 -0.17640191
-0.41348056 0.25922125 -0.16040861
-0.15240769 0.43204363 0.14901585
-0.03187928 0.17913981 0.00000986
-0.13761442 0.17560178 0.00000797
-0.03929027 -0.75001476 0.00000045
-0.58421631 -0.48781512 -0.04298840
-0.44632896 -0.27755087 0.25173036
-0.48136726 -0.36214291 0.30658512
-0.08912435 0.12060003 0.00000933
-0.08381935 -0.04401845 0.00000186
-0.26994054 0.14828967 0.24576324
-0.55837366 -0.54804815 0.18126751
-0.26187158 0.16777467 0.12696020
-0.51982453 -0.48877686 -0.00000216
-0.35096448 -0.04732257 0.34676674
-0.10899709 -0.54044229 0.00000015
-0.36775209 -0.51734514 -0.00000134
-0.51765709 -0.44974653 0.10037587
-0.62057283 -0.20319122 -0.17357646
-0.49186773 -0.41045358 0.00000493
-0.24532487 0.10737806 -0.00000231
-0.46441330 -0.50078260 -0.00000187
-0.09202923 0.18288312 -0.00000534
-0.22202979 -0.64852195 -0.00000087
-0.40303982 -0.17304085 0.23805212
-0.63721324 0.02082707 -0.26622048
-0.25442942 0.18574888 0.11350122
-0.18254916 0.35927865 0.07059692
-0.09677446 -0.20143851 0.00000260
-0.26136678 0.16899186 0.22466236
-0.21258482 0.28664814 0.00000211
-0.16898216 0.47431114 -0.02884546
-0.07050382 -0.77291904 -0.00000034
-0.69813949 -0.60425612 -0.09860159
-0.41544901 -0.20300308 0.33074766
-0.47854167 -0.35531603 0.16744612
-0.18936191 -0.36575814 0.00000279
-0.23014835 0.30117390 -0.01991140
-0.17999874 0.23643423 0.00000667
-0.62865111 -0.01757113 -0.24550623
-0.37432787 -0.12975660 -0.00000016
-0.15371178 0.42578421 0.00000169
-0.41054544 -0.49159790 -0.00000151
-0.19001338 0.55409636 -0.07462851
-0.64139261 -0.09798396 -0.22809526
-0.51079592 -0.20789289 -0.07899201
-0.36462233 -0.08029691 0.34514522
-0.46737098 -0.03194994 -0.10392695
-0.14198357 0.32499139 0.00000459
-0.41628520 -0.20502284 0.35590113
-0.09219697 0.36180712 0.00000716
-0.41670059 -0.79304572 -0.00000249
-0.29218660 0.09458253 0.25287089
-0.08739835 -0.76712632 -0.00000042
-0.11719085 -0.75186361 -0.00000056
-0.07011057 0.35780591 0.00000760
-0.47763161 -0.35312449 0.31501597
-0.35291201 -0.05202630 0.36157680
-0.06387415 0.49000044 0.00000451
-0.06400617 -0.67863192 0.00000086
-0.23809970 0.09889300 -0.00000271
-0.40014943 0.09197077 -0.09047335
-0.18064506 -0.65360261 -0.00000063
-0.30447472 0.31698301 -0.08838015
-0.48774204 -0.37752464 0.09015417
-0.46588480 0.23357692 -0.19578110
-0.10532061 0.08791566 0.00000214
-0.31221716 -0.47119775 -0.00000086
-0.23079161 0.18150563 -0.00000118
-0.08009586 0.60662316 0.08140493
-0.31159382 0.02493881 0.00000070
-0.11156243 0.19222562 -0.00000455
-0.58068853 -0.21507532 -0.13564353
-0.34849255 0.19731458 -0.08368222
-0.04887463 0.45867794 0.00000710
-0.13102282 0.41553479 0.00000599
-0.06495638 0.53963305 0.00000143
-0.24591789 0.20629134 0.18565588
-0.41212737 0.15769055 -0.12365968
-0.44485543 -0.19715486 -0.02693314
-0.29298230 0.26721306 -0.06119926
-0.03015278 0.45980920 0.00000743
-0.41413911 -0.29459747 -0.00000092
-0.63426121 -0.01717775 -0.25039370
-0.51145232 -0.05542929 -0.13301214
-0.59890150 0.03102796 -0.23736346
-0.15043194 0.47061586 -0.01184358
-0.04772327 0.58526895 0.00000404
-0.30529662 -0.30837842 -0.00000031
-0.20850513 -0.55665567 -0.00000050
-0.26244122 0.15657151 0.00000141
-0.11000373 -0.09507954 0.00000303
-0.49876462 -0.01323637 -0.13706433
-0.12712605 0.23107159 0.00000768
-0.25468444 0.18513020 0.02271632
-0.06550819 0.18212727 0.00000922
-0.03977126 -0.37299542 0.00000163
-0.36301455 -0.52963334 -0.00000135
-0.46602212 -0.15006888 -0.06136424
-0.16185381 -0.01011952 0.00000369
-0.23788264 0.22568478 0.24795135
-0.41564147 -0.20346556 0.27670270
-0.11088260 0.06466324 0.00000943
-0.18847461 0.00748408 0.00000139
-0.08392795 0.59737170 0.07518163
-0.01104633 0.19355520 0.00000319
-0.13763493 0.21480802 0.00000763
-0.15898468 0.58559968 -0.05940704
-0.14686188 -0.68744643 0.00000146
-0.01067617 -0.37764531 0.00000140
-0.00622008 0.70096780 0.00000474
-0.01489391 -0.61697525 0.00000048
-0.64927105 -0.76748840 0.13709329
-0.22981920 -0.24839004 0.00000034
-0.44355571 0.20408856 -0.16653625
-0.49411432 -0.50514393 0.00000465
-0.59264790 0.02105218 -0.22857104
-0.09764778 0.26223853 -0.00000348
-0.41383742 0.22213275 -0.14770448
-0.39333314 0.00488161 -0.05416319
-0.58079839 -0.61213350 0.00000497
-0.12180057 -0.18697329 0.00000118
-0.28078061 0.03004971 0.00000471
-0.41220859 0.11695692 -0.10944229
-0.00642056 0.75320763 0.00000482
-0.57707303 -0.59319132 0.20925675
-0.57550807 -0.65709220 0.00000479
-0.30477416 -0.51706405 0.00000318
-0.36122096 -0.35916381 -0.00000080
-0.45567341 -0.53110714 0.00000428
-0.38252989 -0.12352815 0.30667585
-0.12297986 0.53382669 -0.01077083
-0.59376626 -0.72618989 0.00000471
-0.74834872 -0.80334974 -0.07129121
-0.29384703 0.09059605 0.01293677
-0.56072415 -0.08616340 -0.16394750
-0.39306434 -0.42895663 -0.00000121
-0.09563151 -0.27329990 0.00000107
-0.14902813 0.44020537 0.12143931
-0.54097665 -0.67450082 -0.00000287
-0.49230048 -0.05404570 -0.11728362
-0.08386977 -0.40727796 0.00000072
-0.25802863 0.17705302 0.19636757
-0.58938262 -0.62290856 0.22434001
-0.42781194 -0.23284715 0.26210224
-0.08030031 0.31046854 -0.00000298
-0.61393788 -0.68218867 0.09773490
-0.22350642 0.44225013 -0.06376215
-0.57313822 -0.50157998 -0.02878290
-0.34148781 -0.02444409 0.34485220
-0.64527187 -0.57154894 -0.06531430
-0.33264450 -0.00308718 0.13983391
-0.02891347 -0.14402342 0.00000188
-0.36919336 -0.48750881 0.00000376
-0.32213960 -0.40510156 0.00000366
-0.27452345 0.13723173 0.09153814
-0.35937348 -0.06761271 0.21543490
-0.29923964 0.09248002 -0.00521908
-0.10545579 0.17916160 0.00000852
-0.15113509 -0.30665108 0.00000268
-0.15635552 0.43188287 -0.00327758
-0.09924079 0.56040232 0.10176935
-0.35274053 -0.25678774 0.00000436
-0.45864141 -0.57345253 0.00000417
-0.25651014 -0.51071075 -0.00000064
-0.02717607 0.73438679 0.00754411
-0.51934774 -0.45382450 0.01032774
-0.41629364 -0.20503854 0.23977083
-0.58901956 -0.62202802 0.02179922
-0.32792921 0.07144890 -0.02213622
-0.13413679 0.50879869 -0.01143957
-0.66610978 -0.79062595 -0.00613161
-0.06972568 -0.53094850 0.00000137
-0.46993816 -0.50149121 -0.00000190
-0.60303435 -0.62136604 -0.01208719
-0.52326585 -0.46328755 0.10620895
-0.29474033 0.08842591 0.03786866
-0.50467896 -0.41841562 0.12858187
-0.07985442 0.57461819 0.00000262
-0.08699095 -0.68918003 -0.00000018
-0.09854223 0.57265252 -0.00369608
-0.21867919 0.02780704 -0.00000481
-0.08238773 -0.06755086 0.00000291
-0.15926806 0.53501175 -0.04190751
-0.62353583 -0.27419135 -0.15118727
-0.00050607 0.52609543 0.00000415
-0.61251567 -0.09951914 -0.20311007
-0.13887969 0.33717019 0.00000272
-0.12469980 0.48429036 0.00000205
-0.47683700 -0.74364453 0.00000377
-0.48334870 -0.31598733 -0.01785005
-0.17244607 0.38367555 0.05744334
-0.39625347 -0.14913015 -0.00262818
-0.54501576 -0.63067254 0.00000464
-0.35930823 -0.14782825 -0.00000013
-0.02640408 -0.43407550 0.00000098
-0.31486165 0.03984105 0.28406607
-0.11828834 0.26701346 -0.00000276
-0.01957350 0.37472289 0.00000355
-0.05746004 0.40934370 0.00000343
-0.11385299 -0.29641525 0.00000243
-0.37179140 -0.09759755 0.16939437
-0.62153883 -0.70053673 0.02373665
-0.41490180 -0.20167133 0.06541256
-0.33255613 -0.24066685 -0.00000026
-0.03742533 -0.26113397 0.00000197
-0.01996517 0.24880438 0.00000316
-0.36085666 -0.07119643 0.11297953
-0.45192336 -0.59100572 0.00000406
-0.21022856 -0.48682051 0.00000256
-0.57505550 -0.28078613 -0.10783186
-0.01861504 -0.26604256 0.00000156
-0.09591324 -0.11533688 0.00000156
-0.12265977 0.50386446 0.07851951
-0.06704619 -0.44542790 0.00000161
-0.04161774 -0.01346242 0.00000221
-0.08971578 -0.31668265 0.00000097
-0.48749803 -0.37694188 0.24799951
-0.58557572 -0.17088636 -0.15527671
-0.56152001 0.03949197 -0.20868486
-0.11138387 0.12729862 0.00000887
-0.43652425 -0.25387914 0.22623779
-0.39789869 -0.53171562 0.00000384
-0.09902697 -0.27387835 0.00000239
-0.10723908 -0.31628771 0.00000232
-0.24198133 0.21578937 0.24462711
-0.12549166 -0.58946935 -0.00000010
-0.32705904 0.01040554 0.14703981
-0.25324242 0.37535623 -0.06547858
-0.04340957 0.69519325 0.04252661
-0.14843327 0.54352118 -0.03571892
-0.05040976 0.15058939 0.00000267
-0.21394175 0.20786016 -0.00000113
-0.24830370 0.44233562 -0.08478519
-0.32375657 0.25695547 -0.08365363
-0.49940811 -0.40569629 0.27903396
-0.40503075 -0.42258558 0.00000424
-0.17257348 0.38336188 0.07730417
-0.40215121 -0.75215750 -0.00000228
-0.32516129 0.01499221 0.08351726
-0.53422257 -0.48974370 0.21532008
-0.20559863 0.44216102 -0.04856917
-0.29060779 0.09841258 0.05657716
-0.13230283 0.18860448 0.00000229
-0.22023158 -0.20301851 0.00000054
-0.02563245 0.45988854 0.00000751
-0.36260041 0.25476773 -0.11577166
-0.15913515 -0.34851890 0.00000045
-0.34084884 0.32324026 -0.12136881
-0.24066991 0.22626156 -0.00254860
-0.02622249 0.37848983 0.00000821
-0.38291513 0.22490143 -0.12249657
-0.41827522 -0.52944758 -0.00000168
-0.09938970 -0.43899973 0.00000188
-0.36224857 0.17854307 -0.08874321
-0.25018681 -0.51411822 -0.00000062
-0.62817632 -0.04502720 -0.23547688
-0.05546883 0.38967036 0.00000338
-0.42778222 0.06360200 -0.10391635
-0.10030846 0.28612302 0.00000768
-0.52883465 -0.03802374 -0.15383140
-0.33733666 -0.01442272 0.32995339
-0.21263617 -0.74277650 0.00000178
-0.53414803 -0.58407004 0.00000470
-0.19535787 0.00140034 0.00000845
-0.63532759 -0.73382672 0.08775326
-0.02168302 -0.32098441 0.00000166
-0.23499045 0.07765463 0.00000132
-0.43395334 -0.24767355 0.25525502
-0.28914183 0.35345824 -0.08819158
-0.59943772 -0.60189748 -0.01586937
-0.05817780 0.36068105 0.00000779
-0.03725618 0.57854066 0.00000459
-0.29657674 0.19130783 -0.03762174
-0.24968862 -0.32336202 -0.00000002
-0.21175386 0.40786190 -0.04175367
-0.14580749 0.13589878 0.00000402
-0.31099391 0.04918269 0.12484630
-0.49391461 -0.32612085 -0.02324150
-0.66099217 -0.01242611 -0.27469047
-0.36092115 -0.07135919 0.28868115
-0.06748706 0.63706568 0.02390020
-0.28076195 -0.67461932 0.00000251
-0.05134025 0.16691415 0.00000341
-0.33012764 -0.27282112 -0.00000035
-0.07469817 0.04999177 0.00000221
-0.30216934 0.07048083 0.28219127
-0.17305869 0.02414446 0.00000866
-0.61057995 -0.67408211 0.11554054
-0.15097159 0.04536424 -0.00000648
-0.02573689 0.53101208 0.00000689
-0.15753660 -0.07559516 0.00000345
-0.52140516 -0.45879665 0.13643794
-0.00230370 -0.41595860 0.00000122
-0.31779092 -0.23233923 0.00000417
-0.51817862 -0.45100878 0.17909472
-0.25480187 0.46252013 -0.09736456
-0.13336930 -0.09550603 0.00000140
-0.32614224 0.01260417 0.30250998
-0.29651051 0.08415404 0.15938289
-0.17313307 0.31983535 0.00000245
-0.32811406 0.00784409 0.29438508
-0.03903156 0.32281729 0.00000847
-0.34757635 0.26814335 -0.10774286
-0.76419930 -0.79803455 -0.08657380
-0.33913607 -0.43542444 0.00000370
-0.11494047 0.00865834 -0.00000835
-0.54107397 -0.50628185 0.14588127
-0.35687399 0.33467913 -0.13894749
-0.38900762 -0.22656636 -0.00000056
-0.38675542 -0.13372770 0.26157675
-0.11263920 0.52805590 0.08877241
-0.24185717 0.21610103 0.10660312
-0.67556442 -0.74271425 -0.03093690
-0.26297893 -0.06188499 0.00000072
-0.06201306 -0.06270702 0.00000193
-0.05506968 -0.08520661 0.00000190
-0.48500941 -0.72294024 -0.00000269
-0.37795750 -0.63793408 -0.00000177
-0.04801846 -0.70327819 0.00000001
-0.18646540 -0.79532673 -0.00000111
-0.03832850 0.10755808 0.00001036
-0.55956023 -0.55091270 0.20277643
-0.02333662 0.03372817 0.00001128
-0.42738163 0.04808949 -0.09813727
-0.25131932 0.41147363 -0.07651580
-0.37465689 -0.29021734 -0.00000067
-0.23927631 -0.69887446 -0.00000113
-0.16775433 0.25376493 0.00000228
-0.50961298 -0.43032624 0.09936528
-0.12401005 0.50061306 0.00236885
-0.03078488 0.35799729 0.00000831
-0.05025352 0.16354899 -0.00000701
-0.18006863 0.36526725 0.13296720
-0.16770330 0.39512710 0.03694157
-0.57353470 -0.58464658 0.08197520
-0.66930844 -0.03965988 -0.27218065
-0.31830196 -0.23085159 -0.00000014
-0.41409746 -0.19973099 0.10267245
-0.19193466 0.33661651 0.15733048
-0.32489445 -0.17760103 -0.00000002
-0.56403316 -0.56170788 0.08384181
-0.30794246 0.38388057 -0.11477568
-0.32260297 -0.28743113 0.00000404
-0.62883886 -0.78343004 -0.00000374
