ply
format ascii 1.0
element vertex 1394
property float x
property float y
property float z
end_header
-0.72283497 0.06998137 0.01323109
-0.15551837 -0.53006746 0.00000000
0.43860726 -0.34735665 0.00000000
-0.47830617 0.30063881 0.03878579
0.04981604 0.17906536 0.00000856
0.62074216 -0.59367154 -0.00000019
0.59449683 0.05522466 -0.00000122
-0.37763693 -0.75441889 0.00000000
0.22657894 -0.70609255 0.00000000
-0.20336805 0.16106902 0.00000000
0.27703844 0.36371630 -0.00000041
0.17801369 0.50247432 0.00000155
0.54530637 -0.18911657 -0.00000058
-0.15489431 0.55160168 0.17224968
0.29425633 0.11475331 -0.00000004
0.66195565 -0.44516302 -0.00000062
-0.25529499 0.33325490 -0.00000013
0.60023757 -0.77142848 0.00000000
0.41455033 -0.43254009 0.00000000
0.72194179 -0.69108033 -0.00000027
0.48215321 -0.18551726 -0.00000032
-0.04152586 0.14583877 0.00000000
-0.65938266 0.07478820 0.12126586
-0.04418220 -0.67934098 0.00000000
0.02037330 -0.40429296 0.00000000
0.25361733 -0.13125710 0.00000000
0.25345596 -0.29543993 0.00000000
0.33429857 0.43083718 -0.00000025
-0.12312063 -0.14543665 0.00000000
0.05751904 0.17718636 0.00000000
0.11178724 -0.49351476 0.00000000
0.16644235 0.06199031 0.00000856
-0.64432871 -0.40077211 -0.00000031
-0.37777495 -0.42789384 0.00000000
0.73669687 0.03021312 -0.00000178
0.68664336 -0.35386298 -0.00000089
-0.79164746 -0.62730517 -0.00000022
0.08345203 0.49121378 0.00000337
-0.37826369 0.32391767 0.18019731
0.01913143 0.11855622 0.00000000
-0.07770327 0.05555196 0.00000000
-0.48222815 -0.35532670 -0.00000001
-0.26308408 0.38907290 0.27234995
0.61765593 0.16152396 -0.00000151
-0.44236898 -0.62001312 0.00000000
0.40885146 -0.65893271 0.00000000
0.15257185 0.27026069 0.00000000
0.12504573 0.52615631 -0.00000005
-0.30782376 0.24574658 -0.00000017
0.33144763 -0.63581326 0.00000000
0.70279504 -0.44594522 -0.00000080
-0.21042456 -0.55947765 0.00000000
0.00751969 0.28576048 0.00000760
0.35607706 0.14323505 -0.00000036
-0.33298068 0.28619826 0.33310025
0.63017469 -0.30425724 -0.00000074
0.01836148 0.67239205 0.00000164
-0.07958083 -0.55004669 0.00000000
0.42783993 -0.03027106 -0.00000036
0.59883463 -0.55693928 -0.00000016
-0.46727702 0.16468621 0.30954978
-0.18796271 0.48206916 0.23942183
0.09773054 -0.11625195 0.00000000
-0.13116435 0.16503918 0.00000000
-0.06415906 0.25306284 0.00000000
-0.29327133 -0.72270215 0.00000000
0.52411300 0.05476425 -0.00000092
0.07006193 -0.50474215 0.00000000
0.49970041 -0.47827115 0.00000000
0.11474249 0.24649714 0.00000657
0.15120181 0.06809845 0.00000000
0.72211918 -0.08976556 -0.00000151
-0.09851792 -0.79159092 0.00000000
-0.62689805 -0.30687116 -0.00000036
-0.42233932 0.31376316 -0.00000047
0.17967976 0.31442306 0.00000457
0.18271932 -0.54521835 0.00000000
0.69862563 -0.09294396 -0.00000140
-0.53906246 0.13833551 0.22585135
0.33777700 -0.71952129 0.00000000
0.07157612 0.11022579 0.00000000
-0.51800703 0.21457605 0.12419163
-0.30889292 0.37211559 0.21920130
0.02779874 -0.05858978 0.00000000
-0.79758217 -0.69532642 -0.00000013
0.41323555 -0.74384161 0.00000000
-0.39881703 -0.14425552 -0.00000002
-0.03767635 -0.08930468 0.00000000
0.23959574 -0.65713655 0.00000000
0.36382183 -0.76285507 0.00000000
-0.36749230 0.14350352 -0.00000020
0.00580102 -0.74257080 0.00000000
0.57143545 -0.28562943 -0.00000052
-0.63103196 -0.04400132 -0.00000060
0.43031221 -0.03134650 -0.00000037
0.79310824 -0.75146736 -0.00000012
-0.36194628 0.36214675 0.13983259
-0.35115423 0.43207887 0.03088713
-0.23025830 -0.41293217 0.00000000
0.18522248 0.35397732 0.00000389
-0.78806507 -0.69589821 -0.00000013
0.26684524 -0.61482844 0.00000000
-0.29200593 0.39366373 0.21061480
-0.28389882 0.27696914 -0.00000014
0.24282860 -0.70928666 0.00000000
-0.00575515 0.01369066 0.00000000
-0.36694486 0.39634102 -0.00000043
-0.32456902 0.12990577 -0.00000010
-0.11231774 0.61015796 0.14281277
-0.45750075 -0.23437520 -0.00000006
0.64891628 -0.26100112 -0.00000089
0.75276809 -0.76440981 -0.00000009
-0.74858139 -0.09592443 -0.00000081
-0.24155703 0.10207406 0.00000000
0.07938680 -0.14731544 0.00000000
0.37333084 -0.48313552 0.00000000
0.54375596 0.18568163 -0.00000018
0.38964459 -0.07446897 -0.00000012
0.62505479 -0.41193165 -0.00000053
0.07563504 0.34057453 0.00000575
-0.35214335 -0.17105106 0.00000000
-0.26590645 -0.37253950 0.00000000
0.00552415 -0.26282170 0.00000000
-0.24542926 -0.67844229 0.00000000
0.16395282 -0.26628667 0.00000000
0.34077456 0.24297849 -0.00000047
0.00538134 -0.28404103 0.00000000
-0.27327430 -0.76995211 0.00000000
-0.34306779 0.40867463 0.08889806
0.21356647 0.17956248 0.00000608
-0.10380262 -0.52846814 0.00000000
0.67329319 -0.06087415 -0.00000135
0.24965208 -0.00558445 0.00000000
0.12202848 0.04072377 0.00000000
-0.07238437 0.46974351 0.00000000
-0.64408199 -0.38377069 -0.00000033
0.42726930 -0.21105433 -0.00000004
-0.47219217 0.23599789 0.16912777
0.37957293 -0.22791505 0.00000000
-0.04531298 -0.25530644 0.00000000
0.04930658 0.47319703 0.00000416
0.26516498 0.35357233 -0.00000034
-0.24573241 0.14046840 0.00000000
-0.22800498 0.53886680 0.06102804
0.75809601 -0.77468592 -0.00000006
-0.63868455 -0.47115974 -0.00000024
-0.77655083 -0.40688655 -0.00000049
-0.31103884 0.40079530 0.16241572
0.21993969 0.01730866 0.00000842
-0.51731829 -0.22362530 -0.00000020
-0.71450801 -0.60480507 -0.00000024
0.60033059 0.08963239 0.00000034
0.26562518 -0.67603897 0.00000000
-0.66060109 -0.47628331 -0.00000028
-0.14017806 0.36163443 0.00000000
0.53155654 -0.70994244 0.00000000
0.00839012 0.06684824 0.00000000
0.01976764 -0.10107132 0.00000000
-0.68409434 -0.78683874 -0.00000002
-0.04661467 0.14287995 0.00000000
0.60629666 0.14485525 -0.00000143
-0.71430817 -0.58118840 -0.00000027
-0.74604856 -0.46846348 -0.00000041
-0.37117841 0.21829646 0.38781941
0.55656375 -0.39764232 -0.00000026
-0.30507722 0.43186717 -0.00000033
-0.73054247 0.03886499 0.05635396
0.24429209 0.05453517 0.00000750
-0.12506025 0.66642480 0.01568703
0.52558693 0.03295029 0.00000272
0.65581826 -0.24051273 -0.00000096
-0.41722413 0.05393332 -0.00000023
0.53634114 -0.36321262 -0.00000023
0.38155977 0.13479845 -0.00000045
-0.44318876 0.06128726 -0.00000029
0.21540998 0.18387273 0.00000599
-0.04018140 0.68733801 0.00000000
-0.73169356 -0.31943311 -0.00000057
-0.38035150 0.23628033 0.33779239
-0.44799416 -0.75540038 0.00000000
0.04301105 0.09045735 0.00000000
-0.32766627 0.41846387 0.09923689
-0.29382889 -0.22152036 0.00000000
0.41815590 -0.41619825 0.00000000
-0.28197654 -0.05379821 0.00000000
-0.48197884 -0.33388870 -0.00000003
-0.54553010 -0.46713476 -0.00000004
-0.56395010 -0.02965270 -0.00000047
-0.52199689 0.26426579 0.02530516
0.21909213 -0.65918713 0.00000000
-0.31456047 -0.19912653 0.00000000
-0.67853784 -0.78146321 -0.00000002
0.23570489 -0.26082573 0.00000000
0.01982990 0.42459894 0.00000533
-0.62736873 0.12984205 -0.00000075
0.18737427 0.30241483 0.00000000
0.18046227 0.24665551 0.00000558
0.15728305 -0.57877391 0.00000000
-0.67573778 -0.32809748 -0.00000044
0.08727320 0.40457923 0.00000461
-0.00284543 0.75033336 0.00000000
-0.65711634 -0.19045588 -0.00000053
-0.29288449 0.36196069 -0.00000024
-0.60940987 -0.73838690 0.00000000
-0.34677378 -0.50336899 0.00000000
-0.01900525 -0.79640666 0.00000000
0.55281460 -0.37062298 -0.00000029
0.71227724 0.08255483 -0.00000169
0.78135112 -0.52657822 -0.00000068
-0.41028012 0.18536670 0.37644980
0.58881874 0.07835005 0.00000075
0.71298655 -0.35948020 -0.00000099
0.40061587 -0.17736117 0.00000000
-0.45710738 0.16524165 -0.00000041
-0.60771302 -0.01152402 -0.00000058
-0.67294484 0.06537335 0.11362573
0.20848861 -0.55661879 0.00000000
-0.64787283 0.09178146 0.11116457
-0.20592811 0.52916276 -0.00000020
-0.30105022 0.46977555 0.05374371
0.59721275 -0.53469502 -0.00000019
-0.01772160 0.61937409 0.00000000
0.54338940 -0.70755286 0.00000000
0.33055122 -0.10608527 0.00000000
-0.66925727 -0.49319519 -0.00000029
-0.67813320 0.10630905 0.02865777
-0.22733903 0.42022765 0.28080592
0.12728659 -0.42755620 0.00000000
-0.20014999 -0.58645008 0.00000000
0.66742969 0.06008944 -0.00000154
0.04314616 0.69360429 0.00000094
0.55306111 0.09748477 -0.00000112
-0.42721648 -0.16632149 -0.00000006
0.76102300 0.03491471 -0.00000190
0.20068497 0.55561581 -0.00000042
-0.48770213 -0.53289585 0.00000000
0.73781747 -0.19361429 -0.00000139
-0.27850372 0.51854540 0.00543624
0.45446981 -0.38267039 0.00000000
-0.70441323 -0.64345821 -0.00000020
-0.04365749 -0.33837843 0.00000000
-0.34042219 -0.36853482 0.00000000
-0.25480986 0.33585874 0.38562035
0.02541071 0.65493199 0.00000179
-0.44840989 -0.03563606 -0.00000022
-0.51537338 -0.15245173 -0.00000026
-0.05513633 -0.01207327 0.00000000
-0.01840903 0.73671975 0.00000000
0.40568507 -0.27552919 0.00000000
0.08936359 -0.30018963 0.00000000
0.08543136 -0.44602849 0.00000000
0.14644975 -0.71139322 0.00000000
-0.17467611 0.59460069 0.05659791
0.68711167 -0.53854611 -0.00000057
0.29020075 -0.04670419 0.00000000
0.28938953 0.03537894 0.00000000
0.02795342 0.65003468 0.00000183
-0.39934612 0.35274435 -0.00000046
0.12031462 -0.66159743 0.00000000
-0.68195129 0.00136320 -0.00000075
-0.60209007 -0.13305764 -0.00000046
-0.56516161 -0.43866921 -0.00000011
-0.04149675 0.02749640 0.00000000
0.29660305 0.47425010 -0.00000025
-0.05412787 0.70289590 0.07917026
-0.04755570 -0.35355296 0.00000000
-0.23355217 0.42555835 0.25954053
-0.16327699 -0.68255071 0.00000000
0.35527335 0.11584783 -0.00000031
0.43563512 0.02681577 -0.00000049
-0.39138654 -0.26811855 0.00000000
0.71333877 0.05269962 -0.00000122
0.24736280 0.54457845 -0.00000060
-0.06875195 0.23332135 0.00000000
-0.13040224 0.66763385 0.00361893
-0.16971906 -0.78556995 0.00000000
0.50120452 0.20791990 0.00000027
-0.66398093 -0.55461058 -0.00000022
0.18958534 -0.13959537 0.00000000
0.55460096 -0.69661370 0.00000000
0.04115846 -0.25716050 0.00000000
0.13515013 -0.65730035 0.00000000
-0.47607958 0.09647655 -0.00000039
-0.04387035 -0.21440263 0.00000000
0.39254142 0.19449548 0.00000258
0.76987520 -0.60635809 -0.00000048
0.01712857 -0.22182360 0.00000000
-0.09984846 0.59395761 0.19562633
0.15613387 -0.79467253 0.00000000
-0.04933791 0.53425922 0.00000000
-0.34154514 0.39515755 0.11660368
-0.42907221 0.29348153 -0.00000047
-0.78157397 -0.12919674 -0.00000084
0.56976717 -0.78321167 0.00000000
0.36569532 0.39684171 -0.00000029
0.54679349 0.04182328 0.00000216
-0.23823975 0.37624328 0.34175076
0.73474594 -0.60529302 -0.00000049
0.00954379 0.33178255 0.00000688
0.25838521 -0.78771913 0.00000000
-0.39748613 -0.08855313 -0.00000006
-0.53473092 0.18884780 0.14077902
-0.12156488 -0.78661291 0.00000000
-0.36386748 0.20599270 -0.00000025
0.66801995 0.00744198 -0.00000145
0.06269379 0.65834661 0.00000116
0.63434449 0.05023598 0.00000034
0.20581101 0.31797319 -0.00000003
-0.68402629 0.00466628 -0.00000076
0.14361971 0.15657174 0.00000000
-0.21738931 0.06688830 0.00000000
0.24719049 -0.00813364 0.00000000
0.76958562 -0.34871174 -0.00000113
-0.11460083 0.62694366 -0.00000009
-0.09871179 0.38307559 0.00000000
0.05946419 -0.28303109 0.00000000
0.46799915 0.11772657 -0.00000079
0.42555478 -0.77625962 0.00000000
0.65960802 0.04358695 -0.00000148
0.39769241 -0.38300858 0.00000000
0.33618577 0.26392807 -0.00000049
0.49624354 -0.30313182 -0.00000017
-0.17775959 0.47897012 0.26392631
-0.74078678 -0.77502640 -0.00000003
-0.44526413 0.33429407 0.03765632
-0.24127679 0.41882019 0.25772332
0.04285101 0.18503638 0.00000000
-0.69854050 -0.12698952 -0.00000067
0.50214259 0.00599869 0.00000362
-0.26526419 0.50324947 0.05800321
-0.32806433 0.41584896 0.10332069
-0.41329541 0.25486033 0.24287776
-0.54766074 -0.42884326 -0.00000008
0.13157094 -0.13481252 0.00000000
0.23596451 -0.51289320 0.00000000
-0.20121825 0.44889844 0.27610844
0.75973007 -0.37532077 -0.00000106
0.69097336 0.01566550 -0.00000017
0.44731753 -0.38227625 0.00000000
-0.64425551 -0.02083893 -0.00000065
-0.16858588 -0.59763711 0.00000000
-0.56705567 -0.01330210 -0.00000049
-0.54763974 -0.04595951 -0.00000042
0.09210674 -0.35139355 0.00000000
-0.13262005 -0.73379740 0.00000000
-0.56769487 0.11615406 -0.00000061
-0.47647075 -0.68933783 0.00000000
0.04320620 0.53140850 0.00000000
-0.54448570 -0.65532488 0.00000000
-0.26287511 0.52519525 0.02197664
0.35362202 0.31337146 0.00000134
0.22505835 0.14881454 0.00000637
-0.24552990 0.40940605 -0.00000018
-0.03284418 0.76286987 -0.00000004
0.75625507 -0.41303892 -0.00000097
-0.25205704 -0.49712686 0.00000000
0.78126731 -0.77058532 -0.00000007
0.27139148 0.28217738 0.00000344
0.63472305 -0.28642014 -0.00000079
0.25395631 0.26340889 -0.00000014
-0.77512765 -0.56351937 -0.00000030
0.27760045 0.30722742 0.00000290
0.61195524 0.07161067 -0.00000132
0.25064957 -0.62309153 0.00000000
0.31821586 0.28293562 0.00000253
0.07604751 -0.76725846 0.00000000
0.19603907 0.29246942 0.00000465
0.21996598 0.52726010 0.00000033
-0.49888053 0.17790134 0.22698655
0.47346087 -0.25527362 -0.00000016
0.11526303 0.50434393 0.00000270
0.63187051 -0.57717621 -0.00000026
0.27829910 0.00368959 0.00000000
-0.14373019 -0.34284052 0.00000000
-0.04626295 -0.36116341 0.00000000
0.55064974 -0.25137819 -0.00000049
-0.69607999 -0.72387730 -0.00000010
-0.55298302 -0.68674527 0.00000000
0.75000807 -0.64245925 -0.00000039
0.47406165 0.00129387 0.00000424
-0.33611825 0.00648238 -0.00000002
-0.64753974 0.13455998 -0.00000079
0.18092773 -0.55831139 0.00000000
-0.71008320 -0.13574637 -0.00000069
-0.07611249 0.66710008 -0.00000004
0.18846749 -0.57838669 0.00000000
0.66927773 -0.70884465 -0.00000019
0.01787587 0.18368773 0.00000000
0.07774495 0.50103041 0.00000000
0.24215226 -0.24836233 0.00000000
-0.58715455 -0.11381302 -0.00000045
0.43813113 0.34027412 -0.00000106
0.64387778 -0.72389895 -0.00000005
-0.10298554 0.05029797 0.00000000
-0.18812934 0.04297693 0.00000000
-0.49071171 0.23404011 -0.00000055
0.08639636 -0.55719811 0.00000000
-0.67897147 -0.38548750 -0.00000040
-0.10955304 0.30255572 0.00000000
0.37496504 0.21364409 0.00000259
0.45532594 -0.25235383 -0.00000008
-0.64041852 -0.77162458 0.00000000
-0.46175965 0.20278983 0.24952078
0.65539737 0.03426269 0.00000020
0.14482335 0.12958839 0.00000000
0.06152242 0.71463295 0.00000024
-0.63938331 -0.17744994 -0.00000050
0.32902205 0.36945959 0.00000087
-0.11196301 0.57386146 -0.00000004
-0.75716749 -0.76412242 -0.00000004
0.39728260 -0.47894107 0.00000000
-0.39029861 0.36050575 0.09062585
-0.55279326 -0.08933061 -0.00000039
-0.04431850 -0.31844737 0.00000000
-0.01407304 0.48654609 0.00000000
-0.20280172 0.05083567 0.00000000
0.77182028 -0.18860211 -0.00000153
0.27499413 -0.46892547 0.00000000
-0.46827217 0.16472949 0.30763684
0.00712444 -0.13295696 0.00000000
-0.33418580 -0.72218543 0.00000000
0.16857461 0.03657760 0.00000000
0.27414798 -0.03945048 0.00000000
-0.21675698 0.22887861 0.00000000
0.12246901 0.29869224 0.00000567
0.02153615 -0.60627917 0.00000000
-0.26760185 0.38628360 -0.00000021
-0.36577019 0.25854702 0.32363481
0.61356584 -0.42898143 -0.00000045
-0.43119538 -0.55418455 0.00000000
-0.24484653 -0.11652221 0.00000000
0.28534289 0.50363424 -0.00000069
0.37411433 -0.08001888 -0.00000004
0.54981980 -0.32901183 -0.00000035
-0.11887393 -0.73463533 0.00000000
0.03130397 0.02045925 0.00000000
0.29900354 -0.72026039 0.00000000
0.36293283 -0.36106390 0.00000000
-0.32723970 0.42264495 0.09232049
0.03809852 0.64172062 0.00000000
-0.42748065 0.25563009 -0.00000043
0.43873266 -0.33767639 0.00000000
0.16463640 -0.60067292 0.00000000
0.35353895 -0.60665926 0.00000000
-0.70958048 -0.12193165 -0.00000070
-0.01590210 0.74843676 0.00000000
0.26588746 -0.58680569 0.00000000
-0.54552322 0.13423359 0.22150597
0.28731683 -0.41401573 0.00000000
0.43018618 -0.39880766 0.00000000
-0.53226461 -0.25723052 -0.00000020
0.30974567 0.44903601 -0.00000009
-0.32018304 -0.23309924 0.00000000
0.28484109 0.13685818 -0.00000004
0.40767547 0.27662507 0.00000091
0.58271075 -0.55441111 -0.00000009
-0.02244801 0.05461482 0.00000000
-0.28688136 0.20879687 -0.00000009
0.03740304 0.19055820 0.00000000
-0.17954303 -0.28240260 0.00000000
-0.25746694 0.41443183 0.23598274
0.18195946 -0.03728894 0.00000000
0.72446465 -0.36277597 -0.00000104
-0.20414931 0.51603308 0.14703739
0.67418847 -0.49705147 -0.00000058
-0.06000821 0.19372787 0.00000000
0.09111191 -0.67136875 0.00000000
-0.01232587 -0.45469217 0.00000000
-0.02035176 0.69326063 0.00000000
0.31281509 0.23152197 -0.00000033
-0.47179025 -0.52961024 0.00000000
-0.00685830 -0.74944988 0.00000000
-0.47167162 0.15593743 0.31757080
0.50588925 0.11658280 -0.00000095
-0.47829305 0.31091877 -0.00000059
-0.16227303 0.57113879 0.12266688
-0.44482311 0.18565323 -0.00000041
-0.73340257 -0.04204604 -0.00000082
-0.46200778 -0.08971998 -0.00000020
-0.26021676 0.51052313 0.05390217
-0.36397208 -0.66478170 0.00000000
0.07139620 0.20927644 0.00000778
0.33582249 0.12162090 -0.00000023
0.58712985 0.04731266 -0.00000118
0.66991040 -0.29029861 -0.00000093
0.43683916 -0.34167554 0.00000000
-0.40579724 -0.28243783 0.00000000
-0.47980119 0.23668528 0.15384441
0.51171110 -0.70853818 0.00000000
0.47900147 0.08943012 0.00000267
0.46214757 0.26066250 0.00000013
0.73703225 -0.13950661 -0.00000148
0.28173798 -0.67395282 0.00000000
-0.15874030 0.60360021 0.06937576
-0.00652085 0.02216395 0.00000000
-0.15250113 -0.00606781 0.00000000
-0.35323813 -0.09450437 0.00000000
-0.74898252 -0.78802259 -0.00000001
-0.23331629 0.35378484 -0.00000010
-0.40715873 -0.63859630 0.00000000
0.46691501 -0.03956024 -0.00000051
-0.20136386 0.59123523 -0.00000025
-0.51464305 -0.65037320 0.00000000
-0.18168670 0.46635119 -0.00000009
0.32919640 0.30518712 -0.00000053
-0.43393777 -0.52930092 0.00000000
0.11869613 0.28620700 0.00000000
0.58940725 -0.08556958 -0.00000095
0.45794190 -0.08701235 -0.00000039
-0.73415138 -0.47996905 -0.00000040
-0.15017673 0.51130780 0.25516724
-0.68644826 -0.59095014 -0.00000024
0.06616794 0.41793416 0.00000000
-0.30767617 -0.56330134 0.00000000
-0.56903357 -0.34072442 -0.00000021
-0.18904663 0.57339749 0.06918472
-0.52972205 0.16678792 -0.00000057
0.34538211 -0.12774419 0.00000000
0.21103362 0.24640014 0.00000512
-0.16069625 0.61408084 0.04646558
-0.77397043 -0.50887200 -0.00000036
-0.11225305 -0.42589561 0.00000000
0.46208066 -0.17543450 -0.00000025
0.55051875 -0.45631872 -0.00000013
0.51652193 -0.63266365 0.00000000
0.77926691 -0.08783199 -0.00000176
-0.70421551 -0.66449433 -0.00000017
-0.19282030 0.52997868 0.14221725
-0.27222954 0.28793221 0.44181836
0.00269662 0.79119091 0.00000009
-0.17367070 -0.32754802 0.00000000
-0.42934180 0.24594174 -0.00000043
-0.23006625 -0.09057692 0.00000000
-0.33135095 -0.25536212 0.00000000
0.17220662 -0.32244777 0.00000000
0.06077370 -0.35278279 0.00000000
0.08642457 -0.73092187 0.00000000
-0.47181827 -0.67521716 0.00000000
-0.71812923 -0.13683301 -0.00000070
0.15549814 -0.48961413 0.00000000
-0.16170649 -0.42541421 0.00000000
0.32075046 0.41227646 0.00000032
-0.50381868 0.22889944 0.12394295
-0.22233294 0.53489027 0.07880230
0.41205704 -0.32197654 0.00000000
-0.18861947 -0.59342897 0.00000000
0.33661734 0.10438889 -0.00000021
-0.73029387 -0.46541789 -0.00000042
-0.28534984 -0.30723291 0.00000000
0.10804751 -0.05479812 0.00000000
0.71973083 -0.16311194 -0.00000137
0.59903430 -0.22246898 -0.00000075
-0.38501055 0.31805913 0.17856085
-0.06593291 -0.33623162 0.00000000
0.57936388 -0.48644052 -0.00000020
0.07582767 0.29387741 0.00000000
0.14006626 0.02461423 0.00000000
0.02420332 0.37371339 0.00000603
0.46216008 0.05144428 0.00000363
-0.16734904 0.41164823 -0.00000001
0.32911548 -0.16866887 0.00000000
-0.21358631 -0.22840562 0.00000000
-0.35538569 -0.10606004 0.00000000
-0.09771066 0.63677284 0.12069266
0.28565275 0.20366593 -0.00000016
0.07913409 0.39860246 0.00000000
-0.60195784 0.12520001 -0.00000069
-0.05874641 -0.00031407 0.00000000
-0.07843355 -0.25244186 0.00000000
-0.14050457 0.63293384 0.04893176
0.42566160 0.23816145 -0.00000082
-0.13552893 0.57654645 0.16197165
-0.11241330 -0.27579901 0.00000000
-0.72239885 -0.37044881 -0.00000051
-0.25534061 -0.26988868 0.00000000
0.06764354 -0.53782575 0.00000000
-0.06496765 0.72880971 -0.00000008
-0.26988830 -0.67645218 0.00000000
-0.38232777 0.07069958 -0.00000017
0.14602326 0.49753715 -0.00000009
0.69120017 -0.56647067 -0.00000053
0.28465686 0.10252808 0.00000617
0.33154464 -0.50052399 0.00000000
-0.79784319 -0.58515099 -0.00000027
-0.10225060 0.43543517 0.00000000
-0.19776640 0.47897474 0.22706239
-0.17676050 -0.45561555 0.00000000
-0.68301020 -0.14914272 -0.00000062
-0.48009890 -0.42786470 0.00000000
-0.41444594 -0.04878981 -0.00000013
0.07487377 0.61256773 0.00000168
0.73403061 -0.01796330 -0.00000169
-0.69846916 -0.69274876 -0.00000013
0.50623699 -0.03375811 -0.00000069
0.29676668 0.19071918 -0.00000019
-0.18248295 0.17112424 0.00000000
0.52211924 -0.18668141 -0.00000048
0.31559741 -0.29388972 0.00000000
0.31579399 -0.77566413 0.00000000
-0.77298601 -0.03459647 -0.00000091
0.45705142 -0.52878268 0.00000000
0.11731685 0.50814675 0.00000000
0.45720186 -0.34904653 0.00000000
-0.09450783 -0.78644721 0.00000000
0.62073769 -0.13468555 -0.00000100
0.61870760 -0.66453482 -0.00000005
0.08057562 0.58018566 0.00000000
0.28778078 -0.29941036 0.00000000
-0.15734433 0.46977172 0.31847892
0.61643531 -0.62217290 -0.00000012
-0.00449011 0.17061677 0.00000000
0.42002600 0.27771580 0.00000066
0.51628933 0.04737458 0.00000266
0.54980689 0.23702320 -0.00000115
-0.37490131 0.40109323 0.04422158
0.13851219 0.60867880 -0.00000025
0.23113498 -0.03254533 0.00000000
0.54330708 -0.44524846 -0.00000012
0.69783924 -0.18623218 -0.00000123
0.09810248 0.46676369 0.00000352
0.48027256 -0.26752034 -0.00000016
-0.60409282 -0.22876736 -0.00000038
-0.11097426 0.00905826 0.00000000
0.42903534 -0.62054787 0.00000000
0.49008025 0.19624263 -0.00000102
-0.34934385 0.24644546 -0.00000026
0.16182762 0.49468327 -0.00000015
0.04727159 -0.53621464 0.00000000
-0.56666785 -0.38058782 -0.00000017
0.55632323 -0.12770798 -0.00000073
0.02475160 -0.20123850 0.00000000
0.15770216 -0.17228599 0.00000000
-0.03888632 -0.31665017 0.00000000
-0.08109666 0.62730165 -0.00000002
0.12382411 -0.78592361 0.00000000
-0.18787469 0.42922380 -0.00000007
-0.56168704 0.20163002 0.06757444
-0.35859746 0.40992957 0.05797803
0.56517145 -0.57102074 0.00000000
0.12097532 0.49098988 0.00000281
0.11171592 -0.52235236 0.00000000
0.77518209 -0.38126930 -0.00000105
-0.34498446 0.24281085 0.39091337
0.25696531 0.27635558 -0.00000017
0.02635966 -0.38927615 0.00000000
0.01820903 0.17541123 0.00000000
-0.25907556 -0.36850243 0.00000000
-0.05150530 -0.36602558 0.00000000
0.28338200 0.43898484 -0.00000057
-0.53941532 -0.74304057 0.00000000
-0.17874267 0.55781657 0.11686887
0.11592777 -0.37807225 0.00000000
-0.56688093 -0.19976061 -0.00000033
0.07006661 0.07602651 0.00000980
-0.27224419 0.13386976 0.00000000
0.41502050 -0.70020364 0.00000000
-0.40518138 0.15312237 -0.00000029
0.38025318 0.27602759 0.00000145
0.02234972 -0.65859379 0.00000000
-0.28708984 0.39854217 0.21068415
0.10814899 0.05030860 0.00000961
0.56693593 -0.21762976 -0.00000062
-0.44092339 0.24116030 0.21722008
-0.38569609 -0.12674132 -0.00000000
0.62594390 -0.08247380 -0.00000111
0.47614678 -0.44753145 0.00000000
0.57939396 0.01009172 0.00000207
0.58755871 -0.73669285 0.00000000
0.62121299 -0.11691628 -0.00000103
0.02603726 -0.48740849 0.00000000
-0.00233581 -0.29358739 0.00000000
-0.61442938 -0.16821999 -0.00000046
-0.35795124 0.25258396 -0.00000028
-0.21314455 -0.19907653 0.00000000
0.23978406 -0.69119236 0.00000000
-0.24832219 0.13431465 0.00000000
-0.65066869 -0.76442135 -0.00000001
-0.67516832 -0.04727749 -0.00000069
-0.24776271 -0.07084529 0.00000000
-0.48383619 0.18306017 0.24519734
0.51961999 0.15262922 0.00000083
0.68540838 -0.66240492 -0.00000034
0.26197539 0.46259302 -0.00000052
-0.65888389 -0.08585988 -0.00000062
-0.29625632 -0.31194010 0.00000000
-0.11973016 0.54961101 0.24069418
-0.57859433 -0.11168309 -0.00000043
-0.38368325 0.05774436 -0.00000016
0.16812684 0.23388854 0.00000595
-0.55704760 0.21115038 -0.00000067
-0.44770844 0.25572855 0.17788383
0.09901277 0.62404237 -0.00000011
0.12843096 0.63543576 0.00000028
-0.55509193 -0.73777309 0.00000000
-0.09708127 0.36245726 0.00000000
-0.38451573 0.22049664 0.35919711
-0.34203964 -0.60520669 0.00000000
0.58959035 -0.54279711 -0.00000014
-0.15697690 -0.60328098 0.00000000
0.78888151 -0.56388232 -0.00000059
0.14171404 0.36020327 0.00000000
0.39863337 -0.28942861 0.00000000
-0.43415937 0.34743269 -0.00000053
0.70668772 -0.62949644 -0.00000043
0.28363693 0.12108651 0.00000589
0.34742867 0.27655440 -0.00000056
0.77766729 -0.37573784 -0.00000106
-0.69061585 -0.34469109 -0.00000046
-0.58209721 -0.37776784 -0.00000020
-0.40082096 0.35758724 -0.00000046
-0.03195355 -0.77320948 0.00000000
0.27782172 0.03357061 0.00000000
0.27077521 0.20621779 -0.00000011
-0.44632351 0.07836560 -0.00000031
0.67642546 -0.56658314 -0.00000047
0.48862024 -0.34133245 -0.00000007
0.40384258 -0.39757459 0.00000000
-0.12246419 0.63115882 0.08543496
-0.22266045 0.42003551 0.28977850
0.60664846 -0.63623459 -0.00000005
0.13745801 0.09008691 0.00000857
0.31196050 0.20812736 0.00000390
-0.45383130 0.16362925 0.33626580
0.08143137 -0.49374987 0.00000000
-0.54146250 0.17222305 0.15900379
0.12747021 0.23096545 0.00000661
0.03529142 0.58116701 0.00000275
0.65155353 -0.45543583 -0.00000056
0.14070833 -0.51195735 0.00000000
0.03943343 0.02522180 0.00001103
-0.49273502 -0.77915200 0.00000000
-0.28847832 0.44923809 0.11473656
0.53835254 0.01338485 0.00000280
0.05632000 0.36809826 0.00000563
0.30850458 0.18762831 0.00000430
0.56986114 0.13631831 0.00000014
0.74659775 -0.32485006 -0.00000119
-0.00115617 0.03931772 0.00000000
0.18937389 0.07939232 0.00000000
0.32212027 -0.12790409 0.00000000
0.09693171 0.29128053 0.00000617
0.07254253 0.25451725 0.00000000
-0.09062994 0.27568677 0.00000000
-0.21386790 0.37354450 -0.00000008
0.09085462 0.42903149 0.00000419
0.21458026 -0.49073801 0.00000000
-0.41801957 -0.22608148 0.00000000
0.34574824 -0.65388242 0.00000000
0.20358323 0.07058462 0.00000787
0.17772035 -0.55425278 0.00000000
0.19520188 0.49282240 -0.00000029
0.60081267 -0.39840878 -0.00000045
-0.46612128 -0.17614924 -0.00000013
0.40390887 -0.02534980 -0.00000026
-0.39160948 -0.27348953 0.00000000
-0.39627378 0.34668644 0.10507599
-0.20316281 0.54677091 0.09223080
0.60343643 -0.24824028 -0.00000072
-0.37984584 0.36114817 -0.00000042
-0.31377572 0.31105427 0.32269020
0.42540997 -0.42913304 0.00000000
-0.60908560 -0.41081818 -0.00000023
-0.19340685 -0.32972775 0.00000000
-0.47827628 0.22193452 0.18382681
-0.52650493 0.20270630 0.13040307
-0.62371289 -0.33456645 -0.00000033
0.79104670 0.00073453 -0.00000196
0.14743423 -0.63294488 0.00000000
-0.31294326 0.30893066 0.32813569
-0.63692067 -0.64656899 -0.00000008
0.45764595 0.33933423 -0.00000114
0.66737181 -0.38796261 -0.00000075
-0.26259702 0.31191821 0.41537718
0.53017398 0.13181548 0.00000098
0.22263664 -0.22663529 0.00000000
0.32224069 -0.43182037 0.00000000
-0.58078434 0.07707303 -0.00000060
-0.17639101 -0.65319224 0.00000000
0.23380202 -0.63245432 0.00000000
-0.51999041 -0.74104328 0.00000000
0.23479870 0.29367469 -0.00000011
0.77523259 -0.51028856 -0.00000072
-0.26025768 0.29795926 0.44540096
-0.34897373 -0.69549438 0.00000000
-0.28471261 -0.18361819 0.00000000
-0.67066673 -0.41691896 -0.00000036
-0.76903748 -0.56937178 -0.00000029
0.16510471 0.38032254 0.00000380
-0.27933296 -0.09381916 0.00000000
-0.42007652 -0.33785712 0.00000000
-0.48732309 -0.34438913 -0.00000003
-0.32520116 0.26683887 -0.00000022
-0.21689703 0.44346848 -0.00000015
-0.77099310 -0.66973022 -0.00000016
0.29538784 -0.10797113 0.00000000
-0.71955647 -0.35188362 -0.00000052
-0.10288833 -0.23668011 0.00000000
-0.26556253 -0.27875647 0.00000000
0.04713404 0.00741891 0.00000000
0.07556442 0.08265034 0.00000962
-0.30300406 0.07200736 -0.00000000
-0.23025273 0.13339599 0.00000000
-0.42708024 -0.40787881 0.00000000
0.63775870 0.13474553 -0.00000114
0.17586852 -0.05075045 0.00000000
-0.50389233 -0.29344360 -0.00000011
0.28428399 0.47796037 -0.00000008
-0.12895970 -0.44507261 0.00000000
-0.32646293 0.22922788 0.45005447
-0.07071075 -0.14323929 0.00000000
0.41582477 0.35769232 -0.00000060
-0.72553468 -0.35689534 -0.00000053
-0.23439456 0.50639879 0.10906867
-0.13798226 -0.18978342 0.00000000
-0.21479374 0.28473860 -0.00000000
-0.45960032 -0.59421638 0.00000000
-0.06309365 -0.69904478 0.00000000
0.21407548 -0.47506435 0.00000000
0.18844320 0.24469864 0.00000000
-0.09886173 0.65085513 0.09263064
0.40358415 -0.51366467 0.00000000
0.32832302 -0.13178655 0.00000000
0.34144084 0.19521984 -0.00000039
0.39216036 -0.52707526 0.00000000
0.23178899 0.01786767 0.00000823
0.39311778 -0.08668293 -0.00000011
0.16443416 -0.54225338 0.00000000
0.39080093 0.12888993 0.00000371
-0.29240621 0.43155039 0.14008431
-0.48101482 0.21868569 0.18476683
0.04181977 -0.63858640 0.00000000
-0.22231261 -0.17488675 0.00000000
-0.25554242 0.44994411 0.17410927
-0.51742091 0.13513451 0.27161545
-0.69917337 -0.31614632 -0.00000051
0.78538504 -0.08856396 -0.00000178
0.50417970 -0.62970942 0.00000000
-0.21625228 -0.48931872 0.00000000
-0.65560140 -0.48178101 -0.00000027
0.56730376 -0.43768921 -0.00000023
0.70374727 -0.21220446 -0.00000121
-0.58332922 -0.45353604 -0.00000014
-0.20229429 -0.39602095 0.00000000
-0.45586888 0.25617904 0.16202107
-0.36233505 -0.18618606 0.00000000
-0.36790044 -0.42385670 0.00000000
0.09906961 0.41995990 0.00000421
-0.30087263 0.34409585 0.28559221
0.57663920 0.20282769 -0.00000110
0.08619777 0.14180199 0.00000857
0.51359695 -0.39689687 -0.00000008
0.16185326 0.33119431 0.00000000
0.59879716 0.07413591 -0.00000127
-0.29186882 0.46188100 0.08520043
0.30511319 0.00726066 0.00000729
-0.05438650 -0.60584570 0.00000000
-0.23303076 -0.30233981 0.00000000
-0.16348286 -0.02328623 0.00000000
0.05370424 -0.45434622 0.00000000
0.23294286 -0.35889851 0.00000000
-0.24327662 -0.28518884 0.00000000
-0.05600743 0.09960801 0.00000000
0.17222413 0.04864444 0.00000867
-0.68460495 -0.62301892 -0.00000020
-0.45513547 0.24012919 -0.00000048
0.34308435 0.36105137 0.00000074
0.34013689 0.42272934 -0.00000078
-0.42036557 -0.75228054 0.00000000
0.31255271 0.21033343 -0.00000029
-0.40640895 0.31112528 0.15191468
0.44338131 0.14845391 -0.00000074
-0.58141204 -0.74118135 0.00000000
0.72917952 -0.45736129 -0.00000086
0.17929173 -0.63676673 0.00000000
0.26942770 0.00397853 0.00000000
0.15421547 0.01719917 0.00000942
-0.12976941 0.22526142 0.00000000
0.08415525 0.61018679 0.00000155
-0.54973824 -0.79256577 0.00000000
0.76192015 -0.13084704 -0.00000161
-0.18317880 -0.60181833 0.00000000
-0.11153982 -0.36410517 0.00000000
-0.21025356 0.48181031 0.19883573
-0.37859527 -0.16743114 0.00000000
-0.26552787 0.42165932 0.20781928
0.21220282 -0.32308353 0.00000000
0.24915978 -0.16223180 0.00000000
-0.27949122 0.41032013 0.20298522
-0.01759176 0.41095974 0.00000000
0.04486929 -0.75462705 0.00000000
0.02574295 0.28047934 0.00000000
0.15759833 -0.05502447 0.00000000
-0.70605982 -0.26450439 -0.00000057
-0.53493085 0.18790343 0.14215039
-0.34194301 0.42962541 0.05237539
0.24312037 -0.17919992 0.00000000
0.29020104 0.12854192 0.00000564
0.28399401 -0.37671331 0.00000000
-0.20844967 -0.12647031 0.00000000
0.66992469 -0.02511618 -0.00000140
-0.50402900 0.16626629 0.23893582
0.30213604 -0.54201578 0.00000000
-0.59870257 0.08638510 -0.00000065
-0.24819463 0.49583700 0.10310314
0.08263512 0.47412742 0.00000000
-0.26717435 0.38565276 0.27111547
-0.20621496 0.38486514 0.38486230
0.48574729 0.20072998 -0.00000101
-0.41884888 -0.33159345 0.00000000
-0.36748398 -0.61951066 0.00000000
0.54135353 0.05850235 0.00000199
0.07942110 0.08004390 0.00000960
0.66044466 -0.22701291 -0.00000100
-0.19009910 -0.06551998 0.00000000
-0.15992668 0.48767679 -0.00000007
0.41148710 -0.58386711 0.00000000
-0.45455537 -0.19505301 -0.00000009
0.46065672 -0.54369701 0.00000000
0.30840761 0.08869731 0.00000596
0.27501907 0.45418167 0.00000050
-0.15389051 0.31135587 0.00000000
-0.78479652 -0.06067509 -0.00000091
-0.79172053 -0.68844435 -0.00000014
-0.71800246 -0.68850050 -0.00000014
0.05270751 0.35034399 0.00000595
-0.15945749 0.54531397 0.17542652
-0.23832540 0.32085746 0.44362160
0.66466208 0.07226465 -0.00000155
-0.31642023 -0.32154185 0.00000000
-0.00766464 -0.36376039 0.00000000
0.24607142 -0.20251598 0.00000000
-0.05701846 0.18306294 0.00000000
-0.22477671 0.41994520 0.28604640
0.07005597 0.45412456 0.00000000
0.59939531 0.14060535 -0.00000050
0.73003173 -0.59005379 -0.00000052
0.10755069 0.45079501 0.00000000
0.35401462 0.33710344 0.00000093
-0.20868068 0.46060865 0.24078969
-0.11879674 0.31397357 0.00000000
0.11628980 0.14364881 0.00000809
0.56216087 -0.73903655 0.00000000
-0.74867462 -0.00475983 -0.00000089
-0.50971953 -0.45693177 0.00000000
-0.36717321 0.21721906 0.39718228
-0.49778480 0.17178979 0.24026352
0.08655131 -0.47078026 0.00000000
-0.71078080 -0.57982482 -0.00000028
0.51048015 0.17320989 0.00000067
0.30198917 -0.61514466 0.00000000
0.42556665 0.28253768 0.00000047
-0.13731630 0.55342579 0.20127062
0.05675535 0.14636170 0.00000000
0.20251761 -0.32137026 0.00000000
0.09717381 0.16956868 0.00000799
0.48770967 0.19411133 0.00000075
0.36242418 0.30607239 0.00000129
0.48391907 -0.51569510 0.00000000
0.00831163 0.20303624 0.00000000
-0.46010200 0.17094073 0.31124547
-0.27572918 0.34021641 0.33905653
-0.16477048 -0.48573036 0.00000000
-0.25179270 -0.79990458 0.00000000
-0.05076474 -0.76244322 0.00000000
0.36710830 -0.53653739 0.00000000
0.18338504 0.32287167 0.00000000
-0.24972073 0.29462800 0.47094819
0.27874740 0.38712157 -0.00000046
0.52462181 0.20310707 -0.00000010
0.43138252 -0.50092353 0.00000000
-0.31668267 0.30299323 0.33218478
-0.02680397 -0.49623162 0.00000000
-0.50142049 0.14574655 0.28154181
-0.07139922 -0.48896871 0.00000000
-0.02759125 -0.33861219 0.00000000
0.11488002 0.28535405 0.00000599
-0.23498164 -0.04582469 0.00000000
0.49130368 -0.01479174 -0.00000066
-0.69671238 -0.58166896 -0.00000027
0.40487251 -0.33916603 0.00000000
0.70357926 0.06810823 -0.00000171
-0.05040224 0.36773437 0.00000000
-0.09483287 -0.20825580 0.00000000
-0.18320462 0.12769248 0.00000000
0.11389681 -0.26450729 0.00000000
-0.12212984 0.58167103 -0.00000007
-0.47194708 0.32650601 0.00284875
-0.34385686 -0.42239543 0.00000000
0.79215317 -0.00736874 -0.00000195
-0.16275063 0.12178767 0.00000000
0.71866793 -0.05538742 -0.00000155
0.02975443 0.48308056 0.00000000
-0.06938605 0.00250060 0.00000000
-0.07132825 -0.40624719 0.00000000
0.19977687 -0.24917665 0.00000000
-0.00158075 0.08626909 0.00000000
0.21980656 -0.38323100 0.00000000
0.08201858 0.25184994 0.00000698
0.05444639 0.52794553 0.00000326
0.67690651 -0.74895331 -0.00000013
0.39349144 0.26985056 -0.00000074
0.09840221 0.34792778 0.00000530
-0.33813696 0.37054282 0.16822640
-0.53332342 0.18347275 0.15327358
-0.46345934 0.17291461 0.30142460
0.11982416 -0.55199595 0.00000000
0.73363334 -0.05976426 -0.00000161
-0.07025669 0.64156676 -0.00000001
0.68808763 -0.45850788 -0.00000071
0.31010156 0.21572925 -0.00000029
0.07758195 -0.76563733 0.00000000
0.02005432 -0.49550738 0.00000000
0.06194404 0.61435843 0.00000185
0.33514680 -0.01274268 0.00000000
-0.30730668 0.35110483 -0.00000026
-0.57599801 -0.23896138 -0.00000031
-0.12511052 0.55812723 0.21509469
0.15887654 0.15203328 0.00000000
-0.26473224 0.07262478 0.00000000
-0.23389576 0.46343143 -0.00000020
0.44489652 0.23794323 0.00000084
0.01187556 0.41434518 0.00000561
-0.03734345 -0.16543798 0.00000000
-0.66388206 -0.54162706 -0.00000023
0.31806860 0.40812933 0.00000044
0.49812234 0.07274647 0.00000258
-0.78418284 -0.43201107 -0.00000046
-0.10936259 0.62544134 0.12010238
0.38763325 0.14107773 0.00000356
-0.56529286 -0.28780701 -0.00000024
0.31521175 0.04881784 -0.00000002
-0.36225379 0.30028400 0.25322702
-0.30297168 -0.70197110 0.00000000
0.68969172 -0.26915415 -0.00000105
0.27405039 -0.32189586 0.00000000
-0.62220753 -0.71349689 0.00000000
-0.65575246 -0.75475739 -0.00000003
-0.24337689 0.32323326 -0.00000010
0.18121128 0.41783004 0.00000290
0.27759240 -0.41820609 0.00000000
0.18107021 -0.46119072 0.00000000
0.09323719 0.19487340 0.00000000
-0.34162138 0.26339215 0.35919495
0.41820431 -0.52960389 0.00000000
-0.34052878 0.15439055 -0.00000016
0.50686905 -0.23294762 -0.00000034
-0.48079259 -0.01972343 -0.00000030
-0.20209874 -0.47539730 0.00000000
0.57838378 -0.59707565 0.00000000
-0.05089981 0.70999719 0.07203521
0.66422020 -0.05447650 -0.00000132
0.00093455 -0.63661677 0.00000000
0.56302692 -0.58991477 0.00000000
-0.03606017 0.61702497 0.00000000
0.40412374 -0.52268764 0.00000000
0.08868041 -0.23377120 0.00000000
-0.05995451 0.46147716 0.00000000
-0.07312170 0.68539670 0.07641693
0.10755430 0.02334033 0.00000000
-0.60619475 -0.69876267 0.00000000
0.22693030 0.09445841 0.00000000
0.12249069 0.44245737 0.00000000
0.24156244 0.07897279 0.00000000
0.08364416 -0.66283886 0.00000000
0.41922130 -0.69438402 0.00000000
-0.47637099 -0.60911569 0.00000000
-0.00521115 0.28556711 0.00000000
-0.55513146 0.14059062 0.19209530
0.24417693 0.10179543 0.00000000
-0.52674489 -0.74212201 0.00000000
-0.50677695 -0.68227596 0.00000000
0.74976340 -0.06834613 -0.00000166
0.37127479 0.28410521 0.00000149
0.01438098 -0.50674154 0.00000000
0.61057253 0.06533254 -0.00000131
0.17615781 -0.72763315 0.00000000
0.15662717 0.39406260 0.00000373
0.17854957 -0.65608306 0.00000000
-0.12773007 0.53903763 -0.00000004
0.06729909 -0.25295332 0.00000000
-0.67377159 -0.01975515 -0.00000071
0.54639024 0.13152532 -0.00000115
-0.13624377 -0.50429194 0.00000000
0.05179006 0.72260307 0.00000030
-0.24969235 -0.64744316 0.00000000
-0.12884829 -0.03149261 0.00000000
-0.35644845 0.35551410 0.16217890
-0.09387696 0.46086842 0.00000000
-0.56763912 0.11142852 0.22277540
-0.73679622 -0.53106410 -0.00000034
-0.06146711 -0.39465228 0.00000000
-0.43524443 -0.11493145 -0.00000012
-0.38486832 0.30056243 0.21105458
-0.11177552 -0.57655575 0.00000000
-0.04316218 0.56578934 0.00000000
-0.24127851 0.01519394 0.00000000
0.44071347 -0.57708007 0.00000000
0.15363342 -0.31431127 0.00000000
-0.33195331 0.42605242 0.07736012
0.51956658 0.07802476 -0.00000094
0.09703957 0.22971288 0.00000000
0.52974950 -0.66503761 0.00000000
0.07091903 0.03249449 0.00001044
0.52523606 -0.40676209 -0.00000011
-0.49198754 0.19687885 0.20472496
-0.26741037 0.48473658 0.08815330
-0.17263912 -0.75114204 0.00000000
0.18919116 -0.00820148 0.00000000
-0.62918350 0.10867424 -0.00000073
-0.44445088 -0.57437262 0.00000000
-0.00236214 -0.43970828 0.00000000
0.51514474 0.25606576 -0.00000124
0.05522294 -0.65504790 0.00000000
-0.31670978 0.37971593 -0.00000030
0.50593193 0.04687526 0.00000286
-0.17740500 -0.73249701 0.00000000
-0.39355338 -0.71630932 0.00000000
-0.16209944 0.60065203 0.06861869
-0.22600026 0.49402131 0.14733364
-0.13185065 0.34148633 0.00000000
-0.46615837 0.27834679 0.10222956
0.44788133 -0.14408814 -0.00000024
-0.44793352 -0.65515493 0.00000000
0.04365811 0.74614568 -0.00000009
-0.03440411 0.32687630 0.00000000
-0.03260462 -0.42474389 0.00000000
0.17050255 -0.03762863 0.00000000
0.08413440 0.32804192 0.00000581
-0.58895095 -0.37797085 -0.00000022
-0.78774290 -0.50605502 -0.00000037
0.74785930 0.04074941 -0.00000185
-0.01156137 -0.67193859 0.00000000
0.60130900 -0.00173712 -0.00000115
-0.38928040 0.22210837 0.34745086
0.08026335 0.68352108 0.00000040
0.16253053 0.31003664 0.00000490
0.04193648 -0.68160618 0.00000000
0.28991017 0.33029713 -0.00000041
0.03654198 0.22675545 0.00000000
-0.62887052 -0.33172074 -0.00000034
0.77739153 -0.02266552 -0.00000186
0.07103051 -0.44735880 0.00000000
-0.69993728 -0.30020255 -0.00000052
-0.23196266 0.51656751 0.09481620
-0.59853650 -0.37049178 -0.00000024
-0.19986804 0.59861657 0.00279229
0.16384005 0.43401384 0.00000297
-0.46870072 0.30293965 0.05224212
-0.38352180 0.13756415 -0.00000023
0.45271767 -0.76778836 0.00000000
-0.36975121 0.42505644 -0.00000046
-0.70744240 -0.36536942 -0.00000048
0.32424094 0.20060348 -0.00000032
0.52091029 0.16958131 -0.00000111
0.57464922 0.18138177 -0.00000136
0.37413417 0.22392217 0.00000244
-0.50641335 0.01971090 -0.00000039
0.29503398 -0.10949640 0.00000000
-0.02581615 -0.32207134 0.00000000
0.00237870 0.00434132 0.00000000
-0.37192660 0.02140288 -0.00000011
-0.22513222 0.35921429 0.39726654
-0.17560907 0.53986046 -0.00000014
-0.39018191 -0.18324932 0.00000000
0.16776932 -0.30340364 0.00000000
-0.48638977 -0.55240014 0.00000000
0.11611942 0.01501450 0.00001002
0.02014191 0.68109771 0.00000148
-0.26308750 0.43588707 0.18610524
0.46562809 -0.52253943 0.00000000
-0.41155064 0.27405597 -0.00000041
-0.24283793 0.31548780 0.44520055
-0.30058728 -0.66015280 0.00000000
-0.27495868 0.26296301 0.48278773
-0.77459810 -0.20178900 -0.00000075
0.01239494 -0.71015362 0.00000000
-0.00550760 0.09390519 0.00000000
0.04543814 0.70268196 0.00000075
-0.60357130 0.00103671 -0.00000058
0.18659499 -0.53678119 0.00000000
0.61067165 -0.53951680 -0.00000024
0.24167767 0.48455019 0.00000063
-0.10223467 0.17802952 0.00000000
0.23975542 0.25981140 -0.00000007
-0.01880586 0.61034773 0.00000000
0.77477944 -0.06747694 -0.00000177
0.63150599 0.01523424 -0.00000131
0.26123948 0.49880010 -0.00000058
-0.30550564 -0.76257831 0.00000000
-0.61085568 0.17094517 -0.00000075
-0.21344081 0.45377211 -0.00000015
-0.36450452 -0.16903518 0.00000000
0.71776214 -0.62131584 -0.00000045
0.06074529 -0.45326271 0.00000000
0.32332603 0.25758610 -0.00000042
-0.08308605 0.44215014 0.00000000
-0.01872774 -0.57844967 0.00000000
0.15600052 0.20159993 0.00000662
-0.65168845 -0.31806339 -0.00000040
-0.15823234 0.47511995 0.30699086
0.25185126 0.22127691 -0.00000005
0.00406535 0.43449118 0.00000542
0.07832474 -0.26454503 0.00000000
-0.44001835 -0.67048055 0.00000000
0.48167874 -0.18898394 -0.00000031
0.63764504 0.04680746 -0.00000139
0.24726802 -0.63198389 0.00000000
-0.75329702 -0.50072486 -0.00000037
-0.43365778 0.31843729 0.08824791
0.52459019 -0.11505831 -0.00000062
-0.47071835 -0.61720994 0.00000000
-0.38406776 0.24711624 0.31098521
0.31539369 0.22618447 -0.00000033
-0.77741248 -0.62539891 -0.00000022
0.79413915 -0.45048628 -0.00000087
0.45624395 -0.78229744 0.00000000
-0.04174906 0.65543921 0.00000000
-0.32691155 -0.70802180 0.00000000
0.23383010 0.33508073 -0.00000018
0.71411672 -0.24219083 -0.00000121
-0.64774330 -0.50426364 -0.00000023
0.27287131 -0.35173294 0.00000000
0.10915666 0.05063500 0.00000000
-0.40946391 -0.24565207 0.00000000
0.41904987 -0.55314496 0.00000000
-0.72296439 0.06805273 0.01654555
0.28579583 -0.33561040 0.00000000
-0.54576907 -0.58210970 0.00000000
-0.71679185 0.01551497 -0.00000084
-0.66373664 0.11140951 -0.00000081
0.04151284 -0.56340082 0.00000000
0.47771046 0.04066612 0.00000351
-0.05450337 -0.58988418 0.00000000
0.12110445 -0.22673504 0.00000000
-0.07075718 0.54694278 0.00000000
0.61315584 -0.76856024 0.00000000
-0.19124263 -0.67037965 0.00000000
0.44995090 0.07295828 0.00000350
0.16287936 -0.18041800 0.00000000
0.44723547 0.23978839 -0.00000092
0.60570794 0.15212396 -0.00000081
0.47757136 -0.23567804 -0.00000021
0.03066400 0.50352498 0.00000000
0.10662913 -0.66386066 0.00000000
0.18212900 0.60454297 -0.00000023
0.27439377 0.14078554 0.00000574
-0.73785193 -0.78632062 -0.00000002
-0.46551009 0.26979577 0.11917616
-0.56133317 0.11539578 -0.00000059
-0.56121188 -0.66097213 0.00000000
-0.17038886 0.60181926 -0.00000019
-0.53074577 -0.27356169 -0.00000018
0.67124851 -0.04078506 -0.00000138
0.14468183 0.30585665 0.00000523
0.30553312 0.28692565 0.00000270
-0.42572003 0.19272286 0.33445617
-0.66882568 -0.61811946 -0.00000017
0.36438764 0.24721442 0.00000224
0.24484460 0.53416572 -0.00000058
-0.41848246 -0.34466337 0.00000000
0.12040132 -0.55174679 0.00000000
0.03862753 -0.20401730 0.00000000
0.63258644 0.12541693 -0.00000151
0.46191014 -0.22510465 -0.00000016
0.26297883 0.05220321 0.00000000
0.07169511 -0.21668731 0.00000000
-0.34572175 -0.23697015 0.00000000
0.37113633 0.00668538 -0.00000018
-0.22270919 0.52053134 0.10456062
0.55551168 -0.72816165 0.00000000
-0.30560350 0.30060318 0.35699698
-0.13418254 -0.68478666 0.00000000
0.07250483 0.49192535 0.00000000
-0.37479227 0.30921878 0.21366994
-0.65549340 -0.20600241 -0.00000051
0.02239409 -0.07410485 0.00000000
-0.38980426 0.30324151 0.19702646
0.76027530 -0.76041809 -0.00000010
0.69742272 -0.24034238 -0.00000114
-0.41856935 -0.51548765 0.00000000
0.00807049 0.14403032 0.00000972
0.48932283 -0.65206322 0.00000000
0.18284238 0.53625399 -0.00000031
-0.62967603 0.10482256 0.12066230
-0.28003586 -0.55939687 0.00000000
0.60096050 -0.75874626 0.00000000
0.61312713 -0.40268009 -0.00000049
-0.57397539 -0.41886389 -0.00000015
-0.47972375 0.18165627 0.25535933
0.00011784 -0.30503556 0.00000000
0.15070123 -0.15764926 0.00000000
0.46448237 -0.01881956 -0.00000053
-0.54071479 -0.54840745 0.00000000
-0.05030198 0.02675943 0.00000000
0.21120227 -0.30039465 0.00000000
-0.06649281 0.71008184 -0.00000006
-0.14895041 0.17075557 0.00000000
0.04743271 0.68097985 0.00000000
0.03199958 -0.46207143 0.00000000
0.01234417 -0.56378739 0.00000000
0.00100238 0.76943854 0.00000044
-0.62894091 -0.05917139 -0.00000058
-0.71962932 -0.36065900 -0.00000051
-0.16562543 -0.76370450 0.00000000
0.01213304 0.18465983 0.00000905
0.05022437 0.16612841 0.00000875
-0.76291718 -0.68674778 -0.00000014
0.07174621 0.31113957 0.00000000
-0.30264079 -0.78369034 0.00000000
0.01482012 0.64451432 0.00000000
0.29310027 -0.28928094 0.00000000
0.30011238 -0.70769707 0.00000000
-0.36671423 0.21998744 0.39292803
0.26507399 0.45793076 0.00000062
-0.36041073 -0.44788781 0.00000000
0.03446922 0.19393109 0.00000000
0.37360890 -0.64409082 0.00000000
-0.06655031 -0.31409959 0.00000000
0.72643158 -0.71154779 -0.00000022
-0.38367650 0.30454383 0.20591573
-0.27626384 0.46926446 -0.00000030
0.38941177 0.40093654 -0.00000081
-0.52787709 -0.72193777 0.00000000
-0.06072279 -0.36992600 0.00000000
-0.15227698 -0.55465883 0.00000000
-0.71041157 -0.28667001 -0.00000056
-0.79355255 -0.41900593 -0.00000048
-0.18131908 0.52691597 0.16904611
0.50497601 -0.36938244 -0.00000009
0.20959640 0.19519728 0.00000000
-0.59657421 0.17561165 -0.00000072
-0.71487420 0.00573295 -0.00000082
0.31680925 0.09825671 -0.00000011
0.43875119 -0.58706272 0.00000000
0.16006418 0.45439700 -0.00000007
0.18527684 0.08610765 0.00000000
0.28612989 -0.01701901 0.00000000
-0.06591709 0.72145257 0.02326860
0.46070039 -0.47622799 0.00000000
-0.13224222 -0.41661283 0.00000000
-0.64824027 -0.08218460 -0.00000060
0.58037655 -0.68989274 0.00000000
-0.21471541 -0.60642313 0.00000000
0.79824031 -0.41686121 -0.00000096
0.68135751 -0.40724444 -0.00000077
-0.03209365 0.46818960 0.00000000
0.08450349 -0.79438139 0.00000000
-0.77292567 -0.36825796 -0.00000054
0.13257415 0.61209538 0.00000059
0.35969390 -0.09044143 0.00000000
-0.40280609 0.33501737 -0.00000045
-0.62754160 -0.12950087 -0.00000052
0.57216858 0.04070314 0.00000170
-0.63756679 -0.20240501 -0.00000047
0.75291441 -0.07630981 -0.00000166
-0.10565835 0.55283669 -0.00000001
-0.46595492 0.32653734 -0.00000058
-0.24199014 0.46934921 -0.00000022
-0.05753578 0.55029791 0.00000000
0.19315221 -0.43648392 0.00000000
-0.22194310 0.39557162 -0.00000012
-0.28402342 0.33782205 0.32818810
0.21483284 0.23752853 0.00000000
0.35092101 -0.67691648 0.00000000
-0.08855081 -0.29782981 0.00000000
-0.57462599 -0.44270212 -0.00000013
-0.74322719 0.02647672 -0.00000090
0.18733901 0.46753158 -0.00000021
0.10911458 0.25852054 0.00000648
0.11482707 0.65970060 0.00000014
-0.05357023 -0.24403892 0.00000000
-0.32560133 -0.00932958 0.00000000
-0.36918624 -0.70072561 0.00000000
0.24008829 -0.27708837 0.00000000
0.41544228 0.28507520 0.00000062
0.73809681 -0.53750094 -0.00000066
-0.66045594 0.03717662 -0.00000074
0.43401397 0.17637060 -0.00000075
-0.61814739 -0.38794250 -0.00000027
0.42240200 0.17939113 0.00000225
-0.28495122 -0.66465516 0.00000000
0.41424199 -0.12214720 -0.00000014
-0.16924701 0.48552210 0.26753802
-0.05788529 -0.37945408 0.00000000
0.10241012 0.50497516 0.00000288
0.37414469 0.13115167 0.00000399
0.06650805 0.30470148 0.00000643
-0.35613343 0.21045911 0.42997193
0.37490997 0.15962146 0.00000350
0.22685803 -0.48545288 0.00000000
0.20597826 -0.61552619 0.00000000
-0.30481812 -0.71961570 0.00000000
-0.35740181 0.35621821 -0.00000037
0.07237937 -0.79133342 0.00000000
