ply
format ascii 1.0
element vertex 1371
property float x
property float y
property float z
end_header
-0.27085091 0.44113017 -0.13941660
-0.12886216 0.35202040 0.00000210
-0.00949364 0.47928719 -0.00000213
-0.00098436 0.19464263 0.00000249
-0.36242882 -0.37249562 0.00000380
-0.58664452 -0.61629691 0.09233231
-0.11984650 -0.00418625 0.00000127
-0.18194011 0.31534810 0.00000169
-0.00756404 -0.60506576 0.00000044
-0.19017262 0.04330964 0.00000812
-0.37762004 0.11034622 -0.10490401
-0.09978873 -0.45398478 0.00000162
-0.00559091 -0.41846739 0.00000100
-0.30106749 -0.03490313 0.00000010
-0.01441536 0.02594048 -0.00001105
-0.55432992 -0.76785588 -0.00000327
-0.05549000 -0.16071025 0.00000202
-0.25723305 0.17897888 0.01942440
-0.13026665 0.30628318 0.00000198
-0.13667103 -0.58522214 -0.00000029
-0.17533368 -0.41351320 -0.00000009
-0.13948306 -0.56850925 0.00000163
-0.22891258 0.24734931 0.05445131
-0.28829703 0.10397265 0.27537147
-0.15614705 0.45502215 -0.01511316
-0.23249622 0.25939525 -0.00976880
-0.64880978 -0.35701941 -0.19344005
-0.04635054 -0.52475040 0.00000104
-0.27863911 0.12729035 0.27111279
-0.02654330 0.40481177 0.00000321
-0.12509888 0.61606472 -0.05579843
-0.35038526 -0.75435112 0.00000276
-0.28169959 -0.55763561 0.00000273
-0.19468404 0.36070873 -0.01451167
-0.14062331 -0.25357539 0.00000052
-0.39096688 -0.59885153 -0.00000186
-0.24417758 0.21049035 0.19246662
-0.40490514 -0.17753407 0.01021987
-0.44067853 -0.21715613 -0.02207905
-0.19630892 -0.75102532 0.00000160
-0.03436749 0.61183817 0.00000127
-0.14170256 -0.54638742 -0.00000022
-0.71893441 -0.68428037 -0.11878686
-0.34536375 -0.03378281 0.11798212
-0.03052471 0.16997294 0.00000266
-0.14119178 -0.59120012 0.00000159
-0.40736931 -0.18349659 0.32780406
-0.24178365 0.17480982 0.00000098
-0.28020458 0.13854243 -0.00709052
-0.21951370 0.27003664 0.14058183
-0.03551562 -0.10021794 0.00000154
-0.08448564 -0.12764212 0.00000232
-0.27428337 0.07185765 0.00000425
-0.18703007 0.36784610 -0.00915220
-0.17942480 -0.16007951 0.00000295
-0.14447212 0.42187625 0.00000080
-0.37757564 -0.02761856 -0.03965683
-0.29529246 0.08708267 0.30965579
-0.16526742 0.24520548 0.00000386
-0.36573416 -0.31156482 0.00000398
-0.26142449 0.16885797 0.06267818
-0.67309219 -0.41829956 -0.19218378
-0.47912314 0.08527286 -0.20886200
-0.19922270 0.03181738 0.00000807
-0.32743487 -0.02071721 -0.00000003
-0.19022254 -0.24944191 0.00000281
-0.57503913 -0.01762460 -0.26966588
-0.55088206 -0.52996079 0.14935419
-0.21032893 0.47869855 -0.08812093
-0.09322234 0.53139320 0.00000144
-0.56129183 -0.63565252 0.00000465
-0.21961336 0.26979347 0.20158785
-0.44282367 -0.21044961 -0.02769584
-0.31262196 0.11259321 -0.03180784
-0.62174337 -0.53683095 -0.07758402
-0.37293310 0.12024287 -0.10423688
-0.41007697 -0.50201806 -0.00000173
-0.13729967 -0.38053249 0.00000022
-0.34537003 0.16297317 -0.09298363
-0.20202742 0.03986664 0.00000794
-0.09442617 0.28157600 0.00000342
-0.18137624 -0.36461327 -0.00000001
-0.26361167 0.11791515 -0.00000169
-0.11562000 0.16466150 0.00000328
-0.06153542 -0.02357340 0.00000157
-0.04141166 -0.65782633 0.00000011
-0.12063775 0.46789369 0.00000244
-0.63753916 -0.39256444 -0.16378337
-0.29987988 0.07601514 0.22265820
-0.40262775 -0.05722445 -0.05424767
-0.14493903 0.36350424 0.00000400
-0.13855623 0.46549246 0.06444970
-0.20138927 -0.14141524 0.00000317
-0.29863060 0.30937248 -0.10884255
-0.43550417 -0.53276948 -0.00000196
-0.18514760 0.35300222 0.19188022
-0.49604985 -0.19021500 -0.09798437
-0.31520371 0.03901964 0.14051414
-0.58660215 -0.56212175 -0.02553925
-0.05773932 0.04764297 -0.00000930
-0.24192017 0.21593777 0.25043293
-0.32601926 0.33699847 -0.15314759
-0.29851994 0.07930586 0.12802382
-0.58665806 -0.61632900 0.07823649
-0.52542287 -0.46849634 0.14278993
-0.39258928 -0.49715355 0.00000372
-0.51175364 0.12205976 -0.26347651
-0.56959397 -0.16223229 -0.19511535
-0.73529086 -0.69824445 -0.13084859
-0.52768338 -0.47395443 0.15977641
-0.67268292 -0.82400823 0.07376786
-0.47090932 -0.78615362 -0.00000281
-0.16858054 0.44973402 -0.02679969
-0.23549387 -0.32501729 -0.00000023
-0.46490991 -0.32241128 0.30102687
-0.22179344 0.26453313 0.13425667
-0.09968893 0.55932218 0.10222438
-0.16778880 -0.20610205 0.00000275
-0.08822029 0.58586994 0.00000413
-0.50244583 -0.52170054 0.00000449
-0.02170893 -0.67324857 0.00000019
-0.19542662 -0.44330236 0.00000237
-0.15572993 0.19816860 0.00000367
-0.05049544 0.46107264 0.00000647
-0.06748587 0.50094313 0.00000376
-0.47009820 -0.53182730 -0.00000217
-0.46031513 -0.28509071 -0.01237784
-0.48816298 -0.37854772 0.26170771
-0.62488019 -0.68000020 -0.01350354
-0.22580228 0.02517316 0.00000377
-0.21646698 0.27673528 0.00000531
-0.31017159 -0.09887873 -0.00000012
-0.33488826 -0.00849851 0.02876857
-0.13821683 0.38760625 0.00000213
-0.48047403 0.14266915 -0.23752875
-0.54635288 -0.76714293 0.00000420
-0.52806761 -0.47487689 0.03799209
-0.43610698 -0.25287766 0.38084429
-0.20637678 0.33101372 -0.01381528
-0.19600663 -0.15728841 0.00000042
-0.70864593 -0.52514089 -0.18225536
-0.48990064 -0.44197097 0.00000459
-0.19955971 0.31821075 0.12374773
-0.23763219 -0.77575667 -0.00000137
-0.11824981 0.09944268 0.00000886
-0.33580530 0.16768878 -0.08429650
-0.54555074 -0.51708517 0.04045955
-0.52784254 -0.02778841 -0.21101458
-0.05851322 -0.04551740 0.00000153
-0.32620640 0.01246857 0.09212330
-0.20686871 0.30056811 0.05489782
-0.09031086 0.46964019 0.00000263
-0.55377706 0.06206456 -0.28306857
-0.24900298 -0.38693770 -0.00000047
-0.48784268 0.15481391 -0.25167544
-0.34397882 -0.39593326 0.00000361
-0.26728045 0.03217239 0.00000684
-0.12866784 0.07087989 0.00000315
-0.50373344 0.06996704 -0.22970704
-0.58416542 -0.70969692 0.00000463
-0.22844332 0.24847591 0.20294796
-0.27648770 0.13248526 0.22242303
-0.74744350 -0.77692687 -0.10752949
-0.53618328 -0.43233280 -0.02935211
-0.07245877 0.54866469 0.00000293
-0.03794918 0.48352173 0.00000350
-0.33881880 -0.01799204 0.13111024
-0.33820379 -0.01651300 0.26631419
-0.19589600 0.33459589 -0.00355392
-0.72094947 -0.76460119 -0.08312761
-0.02591186 0.16360863 0.00000260
-0.38551304 -0.13072720 0.24578819
-0.56793570 -0.57112738 0.03864142
-0.33391668 -0.07918327 -0.00000021
-0.10691351 -0.15670635 0.00000096
-0.02791365 -0.21419840 0.00000168
-0.03889929 0.04904766 0.00001081
-0.51104041 -0.10286769 -0.15636600
-0.59220319 -0.04873420 -0.27454644
-0.61182037 -0.67707570 0.06137126
-0.47062347 -0.69756412 0.00000381
-0.11018995 -0.21278927 0.00000080
-0.14695646 -0.73706374 -0.00000073
-0.59638234 -0.78041938 -0.00000355
-0.65926658 -0.65736116 -0.06343396
-0.53942922 -0.20572660 -0.14014559
-0.63408004 -0.15915981 -0.27013983
-0.21201342 0.28814515 0.16808857
-0.17921564 0.52125138 -0.07273336
-0.62321822 -0.13561010 -0.26887671
-0.05905880 0.35291758 0.00000740
-0.03231568 -0.01968007 0.00000219
-0.29363132 0.34261726 -0.11885020
-0.27787000 -0.58444152 0.00000264
-0.11206196 0.52945260 0.08772431
-0.31454976 0.04059787 0.15346128
-0.22880955 0.47289830 -0.10646405
-0.17365756 -0.60665526 0.00000179
-0.42864459 -0.23485606 0.23852333
-0.17496127 0.37759862 0.13252558
-0.41511980 -0.20219697 0.06736919
-0.08429798 0.65395182 -0.02715328
-0.32287326 0.02050073 0.20912813
-0.65544362 -0.15281186 -0.29751354
-0.08536490 -0.12920847 0.00000232
-0.28024926 -0.69615562 0.00000237
-0.39486637 -0.15330137 0.08397035
-0.05372836 -0.18638864 0.00000194
-0.64169490 -0.16316426 -0.27693522
-0.29370848 0.39044742 -0.14154311
-0.39625981 -0.08036848 -0.03604499
-0.29645435 0.12841573 -0.02083950
-0.06751140 0.67331018 -0.01714981
-0.12455941 0.15272648 0.00000822
-0.56299507 -0.71857473 -0.00000319
-0.37915731 0.24552261 -0.17054314
-0.47591290 0.16434044 -0.24256678
-0.54454560 0.07521973 -0.27875317
-0.64060271 -0.21998012 -0.24883895
-0.59426407 -0.63469168 0.08022726
-0.48967299 -0.38218375 0.03843827
-0.60346729 -0.38027878 -0.13071660
-0.01778358 -0.56662130 0.00000048
-0.04949207 0.68488038 -0.00205934
-0.53537980 0.05691861 -0.25964716
-0.38373558 -0.36831530 0.00000397
-0.29806588 0.24820245 -0.07928930
-0.26861306 -0.72674042 -0.00000144
-0.02266997 0.00772304 0.00000219
-0.38459429 -0.22236254 -0.00000088
-0.33095643 -0.71259912 0.00000272
-0.37293757 0.08267289 -0.08648705
-0.22488967 -0.09484951 0.00000041
-0.46451299 0.14710255 -0.22141358
-0.17378175 -0.25005223 0.00000033
-0.26724420 0.14546177 0.00000571
-0.36162008 -0.24212975 -0.00000079
-0.31903440 0.31340510 -0.13402760
-0.28598863 0.37466848 -0.12527785
-0.12522295 0.49768078 0.07249767
-0.29858246 0.07914055 0.29395527
-0.24527054 0.32450403 -0.05511376
-0.20157161 0.33388954 -0.00969205
-0.16168641 0.40964399 0.16441861
-0.50692620 -0.46190405 0.00000467
-0.60282235 -0.42480190 -0.10893993
-0.34160208 0.15031837 -0.08270096
-0.20661442 -0.46960494 0.00000238
-0.23368952 0.25041623 -0.00689087
-0.16433586 0.22633570 -0.00000251
-0.36073421 -0.42932560 0.00000365
-0.56013273 -0.69003491 -0.00000311
-0.24150582 0.47517908 -0.12202756
-0.21400042 0.01706870 0.00000075
-0.23401173 -0.64847989 0.00000214
-0.34629301 -0.07965169 -0.00000029
-0.33067405 -0.29879161 0.00000375
-0.33100175 0.15446639 -0.07256711
-0.16826163 0.48511226 -0.04315716
-0.32458953 -0.24093714 0.00000385
-0.32582517 0.30994646 -0.14014084
-0.12466761 -0.42563184 0.00000188
-0.08861305 -0.21769141 0.00000212
-0.24840609 0.04377191 0.00000398
-0.67383361 -0.40385995 -0.19985357
-0.49295038 0.10952559 -0.23610038
-0.14685407 0.47307961 -0.01304449
-0.17954118 0.36654157 0.13658605
-0.15450187 -0.25840467 0.00000042
-0.54015302 -0.14474155 -0.16979186
-0.24997981 0.19648858 0.15287776
-0.25128477 0.19333141 0.23737260
-0.15145723 0.58992157 -0.07351583
-0.14459125 0.11032824 0.00000828
-0.01642200 0.75735372 0.00000402
-0.32198724 -0.59992802 0.00000293
-0.04694286 0.13010090 0.00000204
-0.02807215 -0.38662481 0.00000125
-0.07301725 -0.26177392 0.00000090
-0.14992931 -0.11374397 0.00000285
-0.10269050 0.44455577 0.00000570
-0.19416800 -0.74749642 -0.00000104
-0.36396900 -0.39464682 0.00000376
-0.23093500 0.24246290 0.14497254
-0.22593113 -0.22004248 0.00000009
-0.16190081 0.49425984 -0.04022150
-0.52664046 0.03766783 -0.24057882
-0.25052213 -0.27901729 -0.00000021
-0.13201245 0.51411320 -0.01550374
-0.31648962 0.03591495 0.14592665
-0.04433823 -0.27980988 0.00000163
-0.25608924 -0.59816569 0.00000244
-0.52028057 -0.45607684 0.02841698
-0.03894599 -0.56872726 0.00000087
-0.24460188 -0.24418454 -0.00000009
-0.32101342 0.02499854 0.02664705
-0.17517332 0.24982060 -0.00000172
-0.36913829 0.17146640 -0.12411471
-0.20805565 0.21544370 0.00000128
-0.00034409 -0.32816862 0.00000118
-0.31078868 -0.68085523 0.00000264
-0.21281822 0.21308293 -0.00000132
-0.55135597 -0.53110637 0.20963919
-0.23647766 0.03145791 0.00000065
-0.38697622 -0.19283556 -0.00000082
-0.59665434 -0.65492205 -0.00000324
-0.11181738 0.53004810 0.02489108
-0.43548875 -0.25138104 0.27710592
-0.11893340 0.43262344 0.00000398
-0.11766737 -0.35436941 0.00000040
-0.63538581 -0.73396732 0.16660649
-0.14248744 0.47082616 -0.00699750
-0.11330807 0.30359338 -0.00000251
-0.15774647 0.58239725 -0.07713541
-0.70641544 -0.68794587 -0.10277184
-0.37280265 -0.21684480 -0.00000079
-0.09175263 -0.60263394 0.00000119
-0.52607004 -0.26020731 -0.09915739
-0.07801564 -0.09472562 0.00000129
-0.27030267 0.21268849 -0.03082962
-0.39261031 -0.22959063 0.00000439
-0.21483355 0.28134225 0.10024625
-0.07501973 -0.51473402 0.00000128
-0.02241519 0.18770213 0.00000972
-0.21434373 0.28251453 0.22822881
-0.33320841 -0.11329865 0.00000423
-0.03138781 0.59996171 0.00000095
-0.34068782 -0.14541781 0.00000421
-0.35420335 -0.20860530 -0.00000066
-0.03769828 0.10962007 0.00001022
-0.24798850 0.20129438 0.08769397
-0.06841168 -0.77461019 -0.00000035
-0.35161987 -0.37296755 -0.00000105
-0.03541382 0.53723770 0.00000361
-0.19444434 0.19346395 0.00000395
-0.50243353 0.07488100 -0.23054628
-0.15320435 -0.30515387 0.00000239
-0.25920916 0.17421944 0.00066389
-0.23292209 0.46443540 -0.10715659
-0.48802527 -0.37820973 0.13170252
-0.32656427 -0.76221880 -0.00000188
-0.42644339 -0.22954066 0.20939149
-0.28847114 -0.00958437 0.00000415
-0.71614844 -0.73549407 -0.09140568
-0.47313469 0.07323092 -0.19634033
-0.39214560 -0.14673796 0.20490935
-0.46931631 0.02494138 -0.16916312
-0.06685819 -0.28989708 0.00000178
-0.22638338 0.08928368 0.00000393
-0.28609832 0.21870916 -0.05170013
-0.00656812 0.09054276 0.00001098
-0.43503170 0.19734157 -0.21152099
-0.00412458 0.46629360 0.00000314
-0.15048733 -0.16237960 0.00000273
-0.68420390 -0.67158408 -0.08516321
-0.08905337 0.58500229 0.01510086
-0.21442108 0.04153121 0.00000770
-0.02705449 0.75027898 -0.00736620
-0.24925956 -0.37608010 0.00000294
-0.34154241 0.27121627 -0.13976919
-0.49755950 -0.43943855 -0.00000210
-0.13101482 0.48737523 -0.00173153
-0.15650959 0.15979489 0.00000358
-0.27455616 0.40355940 -0.12588864
-0.17539865 -0.45890289 -0.00000021
-0.34996295 -0.15509003 0.00000425
-0.32001852 0.02739623 0.12620263
-0.20911521 0.03798633 -0.00000493
-0.08527477 -0.73776050 -0.00000036
-0.28293207 0.11692533 0.28408340
-0.24091642 0.11386966 0.00000410
-0.28723960 -0.20840144 0.00000365
-0.45422377 0.17496053 -0.22284000
-0.35931495 -0.78519014 -0.00000213
-0.52391344 -0.33587571 -0.06093734
-0.02387883 0.61638920 0.00000372
-0.73458398 -0.77592162 -0.09333325
-0.50368520 -0.73921247 0.00000395
-0.13354280 -0.30741527 0.00000043
-0.17604095 -0.19374292 0.00000045
-0.30229293 0.18343860 -0.05350838
-0.35887719 -0.27296166 0.00000403
-0.15601198 0.23478348 -0.00000260
-0.37509372 -0.10557011 0.18624078
-0.55873298 -0.00031286 -0.25924326
-0.22971625 -0.71056957 0.00000196
-0.17434891 -0.51877934 -0.00000035
-0.29193233 -0.09060506 0.00000398
-0.35578328 -0.53970259 -0.00000150
-0.34539068 -0.40390015 -0.00000109
-0.24418922 0.21047899 0.01702999
-0.00254570 0.78425633 0.00000411
-0.05866293 -0.06465275 0.00000228
-0.08756960 0.16076479 0.00000306
-0.19648445 -0.53523520 -0.00000052
-0.35770211 -0.63450716 0.00000311
-0.13960702 0.44620329 0.00000227
-0.24207825 0.21556568 0.02548056
-0.00227049 -0.16789868 0.00000160
-0.14124049 -0.30127846 0.00000231
-0.37729036 -0.78885864 -0.00000225
-0.54083962 -0.50571806 0.19581759
-0.06397136 0.47526907 -0.00000056
-0.07734980 -0.72363732 0.00000077
-0.07845590 0.61058575 0.04295732
-0.28908691 0.19824106 -0.04543322
-0.48497908 -0.05528054 -0.14912136
-0.05456934 0.37774573 -0.00000280
-0.14159856 0.34587969 0.00000598
-0.06941865 -0.34031257 0.00000073
-0.45344143 0.08084450 -0.17747024
-0.46990919 -0.33447141 0.08270364
-0.08841868 0.00154981 -0.00000930
-0.27409566 0.19546805 -0.02701876
-0.25001660 0.19639125 0.25922916
-0.49841606 -0.11036122 -0.13842150
-0.06047814 0.71518852 -0.02891642
-0.15919230 0.17123329 0.00000741
-0.08469641 0.07883116 0.00000169
-0.18561398 0.35188026 0.14222550
-0.20102390 0.31468341 0.07352376
-0.09691607 -0.24825028 0.00000211
-0.55246220 -0.42531472 -0.05124144
-0.27067680 0.14651944 0.09552928
-0.40820572 0.23500366 -0.19871311
-0.10228890 0.04504555 0.00000970
-0.39409653 0.00354169 -0.07323138
-0.48163164 -0.31655813 -0.02182699
-0.38093844 -0.17554484 0.00000444
-0.39899374 0.14848315 -0.14731335
-0.02813669 0.65711074 0.00000492
-0.16288607 0.17161723 0.00000733
-0.05646321 0.35778872 0.00000255
-0.65802032 -0.35984552 -0.20261280
-0.27294639 -0.09780484 0.00000381
-0.31332756 -0.61710838 0.00000282
-0.08888164 0.27090657 -0.00000390
-0.38740248 0.12102085 -0.12111272
-0.22445735 -0.74379809 -0.00000121
-0.06016474 0.55808112 0.00000303
-0.08617132 0.43891217 -0.00000062
-0.16942478 0.18737117 0.00000375
-0.16122714 -0.31046156 0.00000025
-0.41454588 -0.06609144 -0.06365474
-0.06783900 0.49741171 0.00000580
-0.03589123 0.13307218 -0.00000826
-0.02353416 0.70241234 0.00000393
-0.40145119 -0.49523108 -0.00000166
-0.08685584 -0.08381125 0.00000127
-0.17509107 0.22342558 0.00000150
-0.06977826 0.32534806 0.00000748
-0.40314699 0.06849926 -0.11425492
-0.35152085 -0.04865364 0.03693962
-0.27608226 0.23901321 -0.04986809
-0.16053556 0.38092183 0.00000198
-0.22309469 -0.18890969 0.00000321
-0.47949989 -0.35763479 0.30934659
-0.61456274 -0.75817853 -0.00000360
-0.26270440 -0.50117594 0.00000273
-0.16783104 -0.34544942 0.00000012
-0.26569306 0.15856245 0.04650341
-0.20915992 0.29503022 0.20568875
-0.37989396 0.28632442 -0.19066582
-0.36538812 -0.21598039 0.00000422
-0.12015213 0.58727665 -0.03654991
-0.48121639 0.08780698 -0.21244918
-0.14413772 -0.32263693 0.00000228
-0.13000029 0.08026239 -0.00000647
-0.12435572 0.62348540 -0.05845724
-0.07032594 0.63021282 0.06446136
-0.18174889 0.36120908 0.14640546
-0.28759739 -0.02038994 0.00000412
-0.42087233 -0.21609621 0.33535201
-0.19549530 0.13721370 0.00000116
-0.24933377 0.04438539 0.00000061
-0.23008794 0.24450966 0.10295645
-0.00454334 -0.00623145 0.00000196
-0.20178518 0.24099717 -0.00000109
-0.47645802 0.08560650 -0.20597898
-0.46745720 -0.59013742 0.00000405
-0.17898085 0.02967663 0.00000342
-0.51936758 -0.02619205 -0.20210208
-0.59595280 -0.66187730 -0.00000325
-0.32136428 0.02416401 0.02121690
-0.13664221 0.47010863 0.12243852
-0.14831161 0.44193492 0.14305417
-0.55704152 -0.59543207 0.00000471
-0.43017045 0.16798723 -0.19210241
-0.28223322 0.11862058 0.07389403
-0.40931082 -0.18817882 0.20957275
-0.19741123 0.52310522 -0.09436889
-0.63718308 -0.24613005 -0.23257947
-0.20384853 -0.53548948 0.00000220
-0.31112995 -0.47217718 -0.00000106
-0.29673438 -0.67113496 0.00000256
-0.35144273 -0.50390207 -0.00000138
-0.38916827 0.00825449 -0.06983590
-0.18974079 0.45415372 -0.05303075
-0.31680761 -0.60995200 -0.00000144
-0.66595689 -0.56492239 -0.11475182
-0.26344584 0.11187904 0.00000069
-0.26169885 0.16819769 0.01359624
-0.17275003 0.38294057 0.08732372
-0.08205863 -0.63812912 0.00000102
-0.28223525 0.11861735 0.16201170
-0.45066814 0.18635451 -0.22416808
-0.03235365 0.11884017 0.00001023
-0.12151512 0.50790574 -0.00059341
-0.22078387 -0.01982267 0.00000062
-0.17302389 0.18105733 0.00000141
-0.01081550 0.32173184 0.00000859
-0.25779776 -0.26105306 0.00000329
-0.25512280 -0.16538140 0.00000351
-0.23398734 0.06163807 0.00000392
-0.29217892 0.35529192 -0.12318316
-0.21770777 -0.73648232 0.00000180
-0.21524062 0.26754286 0.00000543
-0.54352827 -0.40707697 -0.04966752
-0.70726455 -0.59605673 -0.14716578
-0.11340941 0.59063140 -0.03044150
-0.26154231 -0.21103832 -0.00000011
-0.43788755 -0.02684533 -0.10883239
-0.33302484 -0.60404121 0.00000300
-0.09752820 -0.15684092 0.00000234
-0.18922886 0.52547269 -0.08615199
-0.55395872 -0.53738984 0.25570101
-0.46869505 -0.08914954 -0.11453693
-0.44485796 -0.45477317 0.00000422
-0.69766156 -0.64646216 -0.11238909
-0.26545374 -0.34322336 -0.00000046
-0.47753260 0.02582114 -0.17895045
-0.56889317 -0.57344385 0.16645578
-0.08079101 0.22628081 0.00000318
-0.66226005 -0.63619768 -0.07685067
-0.26739613 0.15443609 0.18095196
-0.30499905 0.29055200 -0.10721573
-0.14422091 0.23208298 -0.00000301
-0.36872863 -0.09020625 0.32236769
-0.28815903 0.10431201 0.21498143
-0.14731657 -0.69251573 -0.00000062
-0.31469971 -0.72258213 -0.00000171
-0.30636307 0.08503512 -0.01164824
-0.09640769 -0.07503136 0.00000254
-0.50319992 -0.41484754 0.19840962
-0.34593244 0.03585088 -0.03354950
-0.30643999 0.06019562 0.00046556
-0.66153748 -0.39285932 -0.19102375
-0.26880429 0.00137111 0.00000038
-0.35793464 -0.06414940 0.30689798
-0.03334130 -0.41580973 0.00000121
-0.46061939 -0.67181069 -0.00000246
-0.62110374 -0.69948524 0.00008190
-0.08134522 -0.59988686 0.00000001
-0.63073601 -0.56351146 -0.07523502
-0.51375838 -0.44033639 0.15951277
-0.37617893 0.22824502 -0.15897873
-0.13733120 -0.28876412 0.00000045
-0.00324576 0.15241212 0.00000236
-0.62735330 -0.71457558 0.14780454
-0.60609613 -0.39372196 -0.12736284
-0.41493901 -0.37976985 -0.00000145
-0.43498464 -0.25015950 0.17087336
-0.55484264 -0.53951700 0.01960903
-0.24742501 0.20265000 0.23198101
-0.38398430 -0.12703372 0.18039566
-0.43278755 -0.71779004 -0.00000241
-0.10934620 0.26064870 -0.00000349
-0.13427258 0.39557792 0.00000218
-0.39954154 -0.56971086 -0.00000184
-0.36950294 -0.09206633 0.03514545
-0.33706689 0.04786652 -0.02911314
-0.44935515 -0.11431232 -0.08058045
-0.26487561 0.16567095 -0.00242209
-0.01503067 0.76370971 0.01400206
-0.16342953 0.01958315 0.00000106
-0.37184156 -0.28453390 -0.00000096
-0.03091395 0.28674260 -0.00000533
-0.26570247 -0.13562485 0.00000367
-0.09560077 0.08979167 -0.00000732
-0.13656326 -0.16101174 0.00000263
-0.49164190 -0.67234572 0.00000403
-0.17851023 0.27323915 0.00000604
-0.34326783 -0.02872727 0.17269950
-0.19920269 0.45397326 -0.06374221
-0.00809373 0.27793620 -0.00000620
-0.38545362 -0.76873675 -0.00000225
-0.46928787 -0.33297739 0.22392104
-0.36952442 -0.07762387 -0.00683951
-0.35836160 -0.22633890 0.00000414
-0.24780523 0.44970419 -0.11717521
-0.52386851 -0.08990777 -0.17712628
-0.62679042 -0.35718496 -0.16823981
-0.23070059 0.24302541 0.22554011
-0.42295777 0.13878423 -0.17007260
-0.09233267 0.58767190 -0.00499734
-0.23811027 -0.52062966 0.00000249
-0.28097905 0.30649209 -0.08734421
-0.38629948 -0.13262426 0.20819940
-0.02238991 0.64295450 0.00000347
-0.15509486 0.03222359 0.00000325
-0.44247147 0.12955592 -0.18797328
-0.32337729 0.21918072 -0.09445473
-0.09167310 0.66727644 -0.04186436
-0.71915930 -0.73068485 -0.09711349
-0.43104088 -0.24063283 0.03958385
-0.31917465 0.02944885 0.03772735
-0.07436843 -0.40775569 0.00000053
-0.21331866 0.44823692 -0.07713629
-0.18710847 0.00106753 0.00000860
-0.08759006 0.07460308 0.00000285
-0.45465961 -0.29766034 0.19605032
-0.46289812 -0.15069865 -0.07883614
-0.14329856 0.30107592 0.00000639
-0.49043642 -0.03822738 -0.16340670
-0.62388140 -0.37997206 -0.15415211
-0.33572566 -0.01051882 0.16930657
-0.13173642 0.50538358 -0.01106319
-0.16862927 0.44965187 -0.02681647
-0.39022632 0.09194346 -0.11058972
-0.09291893 0.57566989 0.05626685
-0.52985430 -0.18070464 -0.14104646
-0.02916463 -0.23885360 0.00000123
-0.11812783 0.45259448 0.00000242
-0.47241660 -0.34053451 0.31040084
-0.07009510 0.61251747 0.00000311
-0.46084488 -0.48564155 0.00000426
-0.51135033 -0.43451816 0.05015277
-0.33828108 -0.69055919 0.00000283
-0.60097339 -0.65089043 0.17022535
-0.17977807 0.52179900 -0.07363384
-0.54086595 -0.04334338 -0.21852426
-0.18684009 0.34892482 0.08479998
-0.20079137 0.52361733 -0.09846713
-0.28032552 0.12322763 0.03980958
-0.54939181 0.06794378 -0.28084384
-0.37960041 -0.11645508 0.29956249
-0.03305774 0.16483914 -0.00000771
-0.08424390 0.27797739 0.00000333
-0.19810259 0.32173909 0.03486897
-0.37475683 0.21665443 -0.15187852
-0.01860385 -0.00615287 0.00000212
-0.21843702 0.16945393 0.00000111
-0.43614702 -0.25296083 0.05516244
-0.45216662 0.07670862 -0.17405912
-0.10168234 0.35354893 0.00000227
-0.38360672 -0.34892178 0.00000402
-0.56459525 0.02319019 -0.27703922
-0.65985604 -0.79304217 0.09147124
-0.63046944 -0.72209701 0.02092861
-0.28955436 0.10094863 0.00529393
-0.25494565 0.18450146 0.01245207
-0.66193225 -0.14210816 -0.30997473
-0.13655792 -0.56570048 -0.00000024
-0.25754186 -0.63812455 -0.00000115
-0.40452006 -0.17660487 0.02135941
-0.26326431 0.16441820 0.01604615
-0.36710777 -0.08628980 0.17546465
-0.44651214 0.03739167 -0.14902659
-0.05563823 0.42735289 0.00000672
-0.06164875 0.55663279 0.00000386
-0.15096088 0.08858821 -0.00000567
-0.35500104 0.05139953 -0.05124394
-0.45458976 -0.29748712 0.08835854
-0.34343521 0.12350399 -0.07212374
-0.12365710 0.25171762 -0.00000323
-0.33416860 0.26758356 -0.12964094
-0.41547415 0.00965987 -0.10051256
-0.64028980 -0.56913329 -0.08347821
-0.41168977 -0.19391954 0.14863380
-0.65189645 -0.70415232 -0.03291264
-0.52768523 -0.17844032 -0.13964184
-0.11447121 0.52363493 0.08645952
-0.21035313 0.29215172 0.18884473
-0.05836343 0.44836927 0.00000356
-0.23823864 0.16987508 0.00000599
-0.33715112 0.10467501 -0.05605170
-0.10105075 -0.67350221 -0.00000029
-0.02413892 0.74172020 0.02057255
-0.64074185 -0.15176302 -0.28123591
-0.68612348 -0.79292936 -0.03000759
-0.37526822 0.20715462 -0.14797402
-0.29952372 -0.50389775 -0.00000107
-0.44304452 -0.49987314 -0.00000192
-0.45365479 -0.55007922 -0.00000211
-0.17702048 -0.17925574 0.00000048
-0.21860791 0.27222463 0.11252831
-0.47953191 -0.43200666 0.00000454
-0.28630006 -0.33624931 -0.00000057
-0.10952527 0.47087160 0.00000531
-0.44665563 -0.05637160 -0.10488233
-0.17531757 0.46331119 -0.04090451
-0.11839262 -0.27601333 0.00000220
-0.35105859 -0.28196208 0.00000394
-0.28016476 0.12360644 0.27997337
-0.41703868 0.04023937 -0.11674888
-0.21159430 -0.63274408 -0.00000086
-0.22895799 -0.67797942 0.00000203
-0.05595877 0.47992918 -0.00000071
-0.28948719 0.26169824 -0.07587975
-0.58362827 -0.08335002 -0.24840555
-0.65981378 -0.76974215 -0.01094894
-0.01451411 -0.30072703 0.00000136
-0.13743745 0.30977045 -0.00000166
-0.18400074 0.29453160 0.00000412
-0.21330353 0.28503413 0.12376158
-0.42912068 -0.23599963 0.10120096
-0.04905779 0.68156302 0.00179882
-0.11238736 0.31161655 0.00000685
-0.03351219 0.53850102 0.00000314
-0.00784937 0.73917038 0.00000302
-0.27641476 0.13267044 0.00783892
-0.54524858 0.02068506 -0.25378316
-0.44065032 0.15037840 -0.19573732
-0.13053196 -0.15859069 0.00000259
-0.70282268 -0.45803431 -0.20732507
-0.21977904 -0.48198535 -0.00000053
-0.39480389 0.13967453 -0.13837244
-0.15675544 0.23487143 0.00000377
-0.12213358 0.50513676 0.07434424
-0.07048603 0.20769491 0.00000305
-0.28629493 0.10882645 0.03812346
-0.36848206 -0.08960224 0.04788378
-0.14351535 -0.47436489 0.00000190
-0.21314370 -0.25003890 0.00000009
-0.01442708 -0.27390039 0.00000142
-0.08101107 0.56243399 0.00000169
-0.63504045 -0.73313354 0.11135940
-0.55314280 -0.53541620 0.09034330
-0.09943382 -0.32601194 0.00000194
-0.27722947 0.13070812 0.08829727
-0.52422142 -0.46559653 0.16045487
-0.40066320 -0.24498416 -0.00000103
-0.23615211 -0.36973063 -0.00000035
-0.27268978 0.14165765 0.21451417
-0.03678482 0.00428193 -0.00001080
-0.65555823 -0.14608636 -0.30082265
-0.37945874 -0.31561429 -0.00000108
-0.06202936 0.25592399 0.00000311
-0.31176983 0.07520042 -0.01316381
-0.06184264 0.05387118 0.00000176
-0.63314867 -0.19547056 -0.25191739
-0.14838621 0.09036930 0.00000841
-0.69137715 -0.36881662 -0.23642969
-0.44928266 -0.28467668 0.13720687
-0.60716178 -0.33994032 -0.15399492
-0.27916153 0.12603191 0.17790835
-0.30429879 0.01351398 0.00000433
-0.62990292 -0.12562194 -0.28122354
-0.14000797 0.46198977 0.03879822
-0.27973706 0.20485291 -0.03789430
-0.57536945 -0.51475226 -0.03510980
-0.20000188 -0.34221997 -0.00000006
-0.09936682 -0.01422937 0.00000136
-0.50074247 0.13487634 -0.25697068
-0.02890274 -0.46883754 0.00000105
-0.10241714 0.55273643 0.09422066
-0.20824929 0.17120558 -0.00000229
-0.55024940 -0.29531256 -0.11015361
-0.22327960 0.07975103 -0.00000367
-0.26476555 0.38692795 -0.10685767
-0.20349451 -0.37201632 0.00000261
-0.56737776 -0.09817997 -0.22285688
-0.63791226 -0.60890898 -0.06196837
-0.10630643 0.38461073 0.00000232
-0.18280770 0.34004077 0.00000423
-0.33105441 0.00075737 0.18248152
-0.02954726 0.71378106 0.00000401
-0.54253437 -0.50615058 -0.00171310
-0.44682947 0.18971055 -0.22137483
-0.05463490 -0.25073347 0.00000179
-0.41923955 0.21136985 -0.20013316
-0.21117318 0.25141677 0.00000135
-0.01807241 0.27072836 0.00000257
-0.13432450 -0.31068532 0.00000224
-0.32874477 0.00632168 0.32716978
-0.59434200 -0.63488121 0.11461132
-0.02602694 0.67266643 0.00000352
-0.35443722 -0.12504168 -0.00000045
-0.45850936 -0.79250158 0.00000348
-0.22985754 -0.34412541 0.00000287
-0.43919756 0.14508127 -0.19157526
-0.14773388 0.31397762 0.00000189
-0.50398013 0.04656192 -0.21892873
-0.40348180 0.19583643 -0.17481304
-0.43980876 0.19810633 -0.21733257
-0.05836511 -0.15221596 0.00000206
-0.23988095 0.22087972 0.01971568
-0.04321435 0.73429247 -0.01824821
-0.14801847 0.44264340 0.10882135
-0.32753113 0.24879510 -0.11318911
-0.32418593 -0.13603998 -0.00000030
-0.04371242 0.60465306 0.00000141
-0.36054008 -0.12418994 0.00000441
-0.25205191 -0.46146689 0.00000275
-0.00058655 0.03747224 0.00000210
-0.08323802 -0.38270937 0.00000167
-0.27070459 -0.10399289 0.00000378
-0.04316155 0.37220387 -0.00000325
-0.13914582 -0.05360695 0.00000103
-0.56216795 -0.53983759 -0.00819326
-0.26615232 0.15744019 0.21556042
-0.27762703 0.12974223 0.04346232
-0.43764953 -0.25659957 0.32287558
-0.17014305 0.10426197 0.00000123
-0.59049030 -0.22003697 -0.19163859
-0.14326117 0.45413277 0.01052909
-0.43789107 0.17346030 -0.20349738
-0.62784980 -0.32074500 -0.18666936
-0.30544568 0.06257504 0.26330359
-0.14684160 0.36127638 0.00000202
-0.11321024 -0.52018408 0.00000155
-0.38055902 0.29066790 -0.19347724
-0.38364515 -0.12622303 0.39205331
-0.33953736 -0.50278950 -0.00000131
-0.54191909 -0.35651143 -0.07172799
-0.51976317 0.07883983 -0.25218908
-0.26029331 -0.21801574 -0.00000012
-0.12843276 -0.72475811 -0.00000059
-0.49945533 0.05937347 -0.21982089
-0.01441283 -0.10039874 0.00000186
-0.65849224 -0.78974975 0.10433834
-0.30217292 0.07047515 0.22855824
-0.33955538 -0.01976837 0.08521285
-0.41944869 -0.21265954 0.34288499
-0.29374228 0.09083363 0.10945027
-0.42623017 -0.46127302 0.00000406
-0.27491514 0.18340943 -0.02225913
-0.29206863 -0.20933943 0.00000368
-0.27425385 0.13788629 0.15705931
-0.25618499 0.18150089 0.21366392
-0.29716487 0.26578355 -0.08657013
-0.10811839 -0.49249981 0.00000012
-0.20492591 -0.15345856 0.00000316
-0.27349776 0.13971115 0.04527903
-0.17607603 0.37491037 0.09549242
-0.31318655 0.21359332 -0.08018756
-0.26619112 0.26339772 -0.05010380
-0.34344857 -0.02915631 0.08159221
-0.29768169 0.08131801 0.27222024
-0.43243770 -0.24401121 0.18480347
-0.02241558 0.74588123 0.01354877
-0.10319697 -0.06417426 0.00000262
-0.09368349 -0.04433459 0.00000260
-0.45336471 -0.52428449 -0.00000205
-0.48516583 0.14549796 -0.24421863
-0.01683976 0.18218460 0.00000235
-0.28338871 0.11582523 0.20940463
-0.52919173 -0.47759600 0.16132227
-0.44568649 -0.27599926 0.24454293
-0.07738641 0.52136083 0.00000539
-0.56501187 -0.04388310 -0.24581739
-0.49157228 -0.45445757 -0.00000210
-0.51487055 -0.44302501 0.28627332
-0.15626752 0.09909385 -0.00000530
-0.35714940 0.11201731 -0.08233825
-0.13246783 0.39402763 0.00000219
-0.12542111 -0.10988476 0.00000097
-0.52308422 -0.78421238 -0.00000312
-0.18251232 0.51777654 -0.07485171
-0.01128538 0.60985746 0.00000346
-0.11324512 0.51199224 0.00000260
-0.17385816 -0.62617229 0.00000175
-0.14491487 -0.31959771 0.00000229
-0.04853014 0.33451816 0.00000320
-0.29723050 -0.12420471 -0.00000010
-0.36802632 -0.08850570 0.13591715
-0.06878070 -0.66962235 0.00000084
-0.19082637 0.01114517 -0.00000602
-0.21604696 0.47123061 -0.09111545
-0.55523830 -0.39526407 -0.06861012
-0.05835888 0.59165293 0.00000503
-0.10221187 0.09498876 0.00000162
-0.60868531 -0.37042795 -0.14132519
-0.61199645 -0.58349445 -0.04441136
-0.62503724 -0.16720644 -0.25602015
-0.36352723 -0.46764093 -0.00000136
-0.65470715 -0.74604314 -0.01632251
-0.64956251 -0.33980315 -0.20243494
-0.32844563 -0.05060616 0.00000435
-0.47741083 -0.11409387 -0.11269255
-0.12456994 -0.23172524 0.00000067
-0.40296017 -0.17284670 0.20411370
-0.35965371 -0.15674761 -0.00000056
-0.18519482 -0.52448444 0.00000209
-0.14020882 0.04812888 -0.00000681
-0.31478439 0.06111189 -0.00995046
-0.19899806 0.13161399 -0.00000336
-0.35439855 -0.75937219 -0.00000204
-0.43123110 -0.01525387 -0.10671594
-0.25452243 0.21599827 -0.01439392
-0.65753018 -0.78742723 0.14222765
-0.36571079 -0.31378009 -0.00000099
-0.64850839 -0.59791168 -0.07925467
-0.31959463 0.19001635 -0.07635650
-0.35779558 -0.06381065 0.23565057
-0.37346192 0.24201658 -0.16238726
-0.34783819 -0.31560863 -0.00000089
-0.24195399 0.21587185 0.05947612
-0.12435349 0.49977831 0.05298089
-0.58436225 -0.40529687 -0.09709645
-0.29113855 -0.30078700 -0.00000051
-0.03809032 0.21483437 -0.00000655
-0.18342853 0.35715607 0.14568417
-0.04903825 0.08154433 0.00001030
-0.22043853 -0.51089495 0.00000239
-0.38423763 -0.53542127 -0.00000166
-0.11678802 -0.49018684 0.00000166
-0.23211598 -0.14194044 0.00000340
-0.00901492 0.76502571 0.00000357
-0.34933771 -0.67894649 0.00000294
-0.51738968 0.08391673 -0.25188044
-0.29297065 -0.34687264 -0.00000064
-0.33024396 -0.17313128 -0.00000043
-0.37155971 -0.10572848 0.00000454
-0.18334081 -0.03874275 0.00000329
-0.44116400 0.05137193 -0.14953182
-0.15153148 0.41983062 0.00000213
-0.17187438 -0.60087019 -0.00000054
-0.14120942 0.56349616 -0.04933603
-0.55611934 -0.57661269 0.00000475
-0.46750933 -0.32867918 0.11978827
-0.44302118 -0.26956451 0.24179087
-0.17477556 0.26683760 0.00000617
-0.04400181 -0.37926310 0.00000079
-0.26277878 0.08150773 0.00000062
-0.17954321 0.29013233 -0.00000078
-0.30114125 -0.77504430 0.00000233
-0.53435168 -0.79867443 -0.00000322
-0.17642068 -0.57183897 -0.00000049
-0.37572226 -0.75225774 -0.00000215
-0.14754528 0.13482829 0.00000798
-0.38075062 -0.11922163 0.05638708
-0.50692076 0.06929185 -0.23302445
-0.03618398 -0.04821109 0.00000166
-0.55715634 0.05243646 -0.28237375
-0.21775740 -0.33958927 0.00000279
-0.34601703 -0.03537850 0.34955510
-0.64144854 -0.59190410 -0.07403913
-0.13121199 -0.00215462 0.00000298
-0.29699869 0.04224029 -0.00000219
-0.26927857 -0.37129317 0.00000310
-0.05724572 0.05757833 0.00001039
-0.20084093 -0.53322857 0.00000218
-0.01144970 0.29417424 0.00000282
-0.45007079 -0.65187094 0.00000377
-0.66564310 -0.50062171 -0.14478119
-0.22414688 0.21215795 -0.00000099
-0.17813179 -0.79251296 0.00000136
-0.18004080 -0.39638422 0.00000237
-0.34166301 -0.36349305 0.00000367
-0.22694764 0.25208838 0.16589239
-0.07996395 0.47333906 0.00000379
-0.05149914 0.67566707 0.00320358
-0.37330047 -0.35522172 -0.00000114
-0.42974938 -0.47926109 0.00000404
-0.24362059 -0.38420283 -0.00000043
-0.35928673 -0.06741313 0.29496796
-0.59509558 -0.63670049 0.16939885
-0.16155516 0.40997062 0.04246318
-0.25131487 0.19326625 0.14344843
-0.03616679 0.40009520 0.00000327
-0.11036556 0.09364920 0.00000307
-0.19212747 0.00939932 -0.00000601
-0.49313388 -0.36009867 -0.01437345
-0.39523285 -0.15418803 0.12895574
-0.55415736 -0.51440731 -0.01107185
-0.11372843 0.52542750 0.10189236
-0.05785621 0.32155789 0.00000324
-0.18981223 -0.72368394 0.00000162
-0.27194737 0.14345093 0.12045408
-0.38077066 -0.64562253 -0.00000191
-0.43873809 0.11306572 -0.17592050
-0.26151923 0.16862673 0.19764988
-0.19561165 0.13205569 0.00000115
-0.10931588 0.56531443 -0.01380629
-0.29763372 0.08144954 0.07578036
-0.00302137 0.19552681 0.00000999
-0.36963847 -0.09239998 0.18711838
-0.43888085 -0.60513266 0.00000380
-0.03229154 -0.26647711 0.00000158
-0.28753470 -0.15825967 0.00000377
-0.01095720 0.10106891 0.00000234
-0.18184265 -0.43686943 -0.00000019
-0.13030233 -0.36558869 0.00000207
-0.16761911 0.10666326 0.00000125
-0.17787203 0.35331973 0.00000181
-0.38404434 0.11078652 -0.11244176
-0.15041052 0.15273731 0.00000775
-0.22870605 0.24785662 0.03652755
-0.27030133 0.14742035 0.22673079
-0.30303992 0.06839055 0.02719241
-0.61846971 -0.61877218 -0.03512509
-0.16577692 0.47156864 -0.03391999
-0.29105125 0.09733373 0.03075880
-0.21021611 -0.22503081 0.00000017
-0.34826838 -0.04081471 0.35004040
-0.24726351 -0.26160310 -0.00000015
-0.51726447 -0.79888799 0.00000391
-0.17366063 -0.42463849 0.00000225
-0.13104372 0.57721105 -0.04421936
-0.44080050 -0.63511614 -0.00000225
-0.31489567 -0.34547198 -0.00000076
-0.36914386 -0.09121152 0.35748292
-0.37212552 -0.63671868 -0.00000184
-0.36805624 0.13000660 -0.10328390
-0.03364017 0.68008944 0.00000459
-0.07727293 0.54653102 0.00000514
-0.24645993 0.15285416 -0.00000151
-0.19304266 0.33394715 0.05753926
-0.15717094 -0.18973343 0.00000271
-0.35648062 -0.06062723 0.02790190
-0.00399962 -0.74676250 0.00000016
-0.07467142 0.11247251 0.00000952
-0.37866771 0.27954246 -0.18606175
-0.31783790 -0.54670283 -0.00000129
-0.56407518 -0.24955481 -0.14755183
-0.10397369 -0.20722343 0.00000085
-0.20004821 0.23075177 -0.00000135
-0.18272179 0.35886874 0.06459578
-0.16081116 0.41176081 0.06620492
-0.69086707 -0.40094386 -0.22066497
-0.21508764 0.02075594 0.00000367
-0.11774846 -0.19927755 0.00000239
-0.28302577 0.11670175 0.20196648
-0.13453192 0.60087847 -0.05938387
-0.14751294 0.16997810 0.00000763
-0.43516700 -0.70656477 -0.00000239
-0.37658808 0.22518320 -0.15799984
-0.19992422 -0.66602058 0.00000184
-0.36403235 -0.07887154 0.32834091
-0.17783554 0.52576340 -0.07329111
-0.05142407 -0.09922249 0.00000214
-0.63150637 -0.71224105 -0.00582690
-0.49827163 -0.40294710 0.14029584
-0.06910428 0.14305330 -0.00000705
-0.51800003 0.07630811 -0.24898164
-0.36059655 -0.07056928 0.15243468
-0.11248060 0.02481528 0.00000972
-0.19060611 0.08311730 0.00000365
-0.42390895 -0.36571991 0.00000428
-0.17472513 -0.27822474 0.00000262
-0.51815309 -0.10561972 -0.16318033
-0.05280727 0.51087580 -0.00000019
-0.04394360 0.40259772 -0.00000262
-0.09622679 0.28342711 0.00000343
-0.09025388 -0.12846524 0.00000113
-0.65963948 -0.64287445 -0.07070556
-0.33613348 -0.01150446 0.02189750
-0.07873828 -0.33661834 0.00000068
-0.03084559 0.72411418 0.00000404
-0.28019948 0.18471198 -0.02890363
-0.13669603 0.14206637 -0.00000503
-0.30494011 -0.17333519 0.00000387
-0.49242497 -0.38883793 0.33155379
-0.13410548 -0.70422923 0.00000125
-0.55308459 -0.72077387 0.00000437
-0.18420031 -0.21964206 0.00000034
-0.34453711 -0.03180213 0.24453949
-0.02705434 -0.36872949 0.00000128
-0.00173946 0.07497976 0.00000220
-0.63403484 -0.73070584 0.13385072
-0.21959521 -0.68193315 0.00000195
-0.07384424 -0.67715276 -0.00000014
-0.10333520 0.55052623 0.01712943
-0.27613624 0.06647390 0.00000050
-0.33770377 -0.01529497 0.17700994
-0.13820900 -0.07718117 0.00000097
-0.37793648 0.15999634 -0.12872967
-0.56858636 -0.09629951 -0.22512446
-0.19898076 -0.71340928 0.00000172
-0.37501293 0.14476861 -0.11820021
-0.00296984 0.17343343 0.00000246
-0.25095669 0.37091744 -0.08353621
-0.20813774 0.29750221 0.16222706
-0.22699849 0.25197147 0.02820654
-0.19502738 -0.34794513 0.00000260
-0.13557594 -0.19004719 0.00000255
-0.00068048 0.35639436 0.00000842
-0.37570336 -0.10703839 0.10257156
-0.06053887 -0.71328985 -0.00000015
-0.00889980 -0.20199837 0.00000144
-0.07853732 0.67851320 -0.03218788
-0.32919271 0.01141718 -0.00290412
-0.04698914 0.57551057 0.00000379
-0.41746235 -0.20786467 0.35694554
-0.54596770 -0.51809376 0.08686042
-0.05248805 0.18255946 0.00000922
-0.13019765 0.44735741 0.00000517
-0.37812793 0.00691134 -0.05660018
-0.12943425 0.48751138 0.10459583
-0.05027049 0.04762847 0.00000250
-0.37036653 -0.33575005 -0.00000107
-0.30512394 0.15504769 -0.04331713
-0.20142017 0.31372293 0.03549120
-0.22003781 -0.13346166 0.00000034
-0.37925088 -0.11559944 0.02118976
-0.08066073 0.40787797 0.00000363
-0.44819700 -0.31800624 0.00000459
-0.58890807 -0.24474490 -0.17815688
-0.00942128 0.27127215 0.00000912
-0.27086899 -0.55541806 -0.00000102
-0.47322202 -0.49211278 -0.00000209
-0.03399287 0.72109466 -0.00149047
-0.33001153 0.00326342 0.32807912
-0.13463257 -0.76643894 0.00000110
-0.15013004 0.03508719 0.00000322
-0.04826828 -0.59881650 0.00000087
-0.15239489 0.33337260 0.00000398
-0.45861611 -0.73850758 0.00000361
-0.25844086 -0.60720866 0.00000243
-0.03589698 0.71333330 0.03069231
-0.26358852 0.16363006 0.14403515
-0.19794311 -0.05035510 0.00000337
-0.20288311 0.39730540 -0.04115868
-0.08300076 -0.01709168 0.00000258
-0.40705087 -0.53267133 -0.00000179
-0.40822893 -0.18556623 0.19384762
-0.43785379 -0.25708332 0.10132647
-0.32103286 -0.70814226 0.00000265
-0.39221888 -0.14691294 0.15940818
-0.40613902 -0.18052585 0.31494344
-0.40736462 0.07638184 -0.12278886
-0.27515634 -0.39026681 0.00000310
-0.49885115 -0.66810545 0.00000409
-0.10374888 -0.63452946 -0.00000021
-0.20164180 0.12534911 -0.00000341
-0.22918395 0.24669605 0.01012065
-0.07978196 0.16478436 0.00000301
-0.07893765 0.60942246 0.04842184
-0.29340396 0.11360538 -0.01036493
-0.36406887 -0.47571902 0.00000356
-0.20508608 -0.01136866 0.00000352
-0.21739085 0.27516437 0.07747602
-0.66268087 -0.79986176 0.13381000
-0.26918776 0.15011714 0.02893668
-0.19026216 -0.44335584 -0.00000026
-0.11580438 0.04703162 0.00000142
-0.06259549 -0.02553046 0.00000241
-0.24119600 0.21768983 0.20857752
-0.33785451 -0.01565996 0.03476519
-0.11621492 -0.71954481 -0.00000050
-0.27943546 0.12537680 0.03145203
-0.43389785 -0.24753985 0.26751263
-0.23655400 -0.09847890 0.00000354
-0.21640440 0.27754291 0.18800786
-0.63233238 -0.09152370 -0.30010957
-0.47912910 -0.31829300 -0.01815196
-0.06249827 -0.16582811 0.00000121
-0.40800722 -0.62097653 0.00000353
-0.31785892 -0.35417610 -0.00000080
-0.22334696 0.49788645 -0.11204114
-0.61305055 -0.28489328 -0.18672772
-0.15347531 0.31651811 0.00000606
-0.59398752 -0.64826089 -0.00000321
-0.26046067 0.08142603 0.00000063
-0.36608120 -0.08381537 0.26803772
-0.23228925 0.01250184 0.00000063
-0.07600262 0.66603321 -0.02339851
-0.14569478 -0.62770589 -0.00000045
-0.22335937 -0.06392434 0.00000049
-0.11489684 -0.43171372 0.00000023
-0.20308534 0.42484584 -0.05440683
-0.29837140 0.07965419 0.19727005
-0.11859726 -0.54701013 -0.00000008
-0.48666135 -0.37492048 0.21508480
-0.10994217 0.37910703 0.00000228
-0.25236262 0.19074368 0.05753622
-0.10646874 0.06367012 0.00000296
-0.42345610 -0.22233651 0.40524809
-0.17371534 0.38060846 0.03759262
-0.35208978 -0.05003206 0.15263703
-0.03251520 0.31180969 0.00000258
-0.01536508 0.55018640 -0.00000053
-0.56099097 -0.55436674 0.20877748
-0.54147339 -0.50724640 0.15484899
-0.21418184 -0.74801014 0.00000175
-0.05958108 0.62112582 0.00000319
-0.40146555 -0.16923608 0.15069209
-0.08738997 0.12628951 0.00000915
-0.14355427 0.45342101 0.10847554
-0.04895279 0.34443857 0.00000767
-0.44115648 -0.26506220 0.22998560
-0.04490070 -0.53245417 0.00000040
-0.29174900 -0.12607516 0.00000389
-0.17374576 0.37367744 0.00000512
-0.49758806 -0.51567461 -0.00000229
-0.56585012 -0.56609751 0.24877440
-0.63290437 -0.72797667 0.06260602
-0.34334625 -0.60832476 -0.00000159
-0.28866140 -0.59398083 0.00000269
-0.18613662 0.17960292 0.00000133
-0.00210865 0.54795394 0.00000339
-0.31590907 -0.26884516 0.00000371
-0.00719524 -0.60058433 0.00000046
-0.25837283 0.17622209 0.13985687
-0.12068909 0.61059354 -0.04818119
-0.03256257 -0.64490701 0.00000063
-0.57171725 -0.58025738 0.05043396
-0.35747870 -0.06303934 0.08746111
-0.20002927 -0.15686961 0.00000312
-0.10772855 -0.66316871 -0.00000031
-0.08728118 0.29920808 0.00000743
-0.13740940 0.46826450 0.02226281
-0.51089146 -0.66422866 0.00000419
-0.07045179 0.62991003 0.02942487
-0.07021539 0.62633202 0.00000447
-0.06212093 0.71351028 -0.02999759
-0.57770150 -0.72736466 -0.00000331
-0.27546772 0.13495547 0.03910393
-0.01036535 0.62945282 0.00000552
-0.32874660 0.12726964 -0.05714502
-0.45066421 0.00484196 -0.13838082
-0.29628606 0.28724492 -0.09571217
-0.30604804 -0.55233523 0.00000293
-0.08388031 -0.24091928 0.00000089
-0.08131790 0.18376768 0.00000307
-0.09733153 0.11083381 0.00000913
-0.15937214 0.07343658 0.00000838
-0.58512449 -0.61262872 0.12777658
-0.29731899 0.26061393 -0.08430530
-0.46672358 -0.17102883 -0.07359294
-0.19792628 0.37366831 -0.02433522
-0.57596577 -0.76687418 -0.00000339
-0.54456786 -0.51471470 0.09768745
-0.34565821 0.17607484 -0.09950121
-0.37637188 -0.10866452 0.39010564
-0.30597986 -0.37924005 -0.00000079
-0.17912508 0.40801349 -0.01911578
-0.68251348 -0.35282550 -0.23387434
-0.21491778 -0.12829397 0.00000038
-0.34744208 -0.03880965 0.10941406
-0.45540544 0.17066636 -0.22215878
-0.30505215 0.30876376 -0.11588288
-0.14053352 -0.09884488 0.00000281
-0.53191532 -0.48417368 0.28035172
-0.31140371 -0.72461679 0.00000254
-0.05497449 0.36151193 0.00000257
-0.62201083 -0.76290874 -0.00000366
-0.36575587 0.06592088 -0.07037245
-0.17258469 -0.35693223 0.00000007
-0.24642712 0.07343511 -0.00000309
-0.50725845 -0.42464220 0.11474973
-0.05795722 0.53895683 0.00000053
-0.19472257 0.32989045 0.08211942
-0.26185333 -0.51264012 0.00000269
-0.52294394 -0.13275509 -0.15582252
-0.44995970 -0.64547619 -0.00000233
-0.59493315 -0.70823295 -0.00000336
-0.51214203 -0.43642928 0.04460388
-0.38053416 -0.11871225 0.38828685
-0.31080911 0.18613877 -0.06449713
-0.32648632 -0.42251885 0.00000341
-0.15822412 0.03918621 0.00000874
-0.22071205 -0.61127863 -0.00000086
-0.28662471 0.21555262 -0.05080895
-0.32276179 0.25647253 -0.11137398
-0.21956729 0.46554502 -0.09244415
-0.12207841 0.32342115 0.00000207
-0.13576464 -0.29674839 0.00000228
-0.34591879 -0.50488940 -0.00000135
-0.29369923 -0.20613149 -0.00000029
-0.14617716 0.13031620 0.00000805
-0.26701898 0.29524367 -0.06609871
-0.49506891 -0.39521184 0.06547666
-0.50878110 -0.34144618 -0.04104027
-0.07637512 -0.09392119 0.00000130
-0.51415324 -0.46710343 -0.00000227
-0.49759164 -0.44372738 0.00000464
-0.12629632 0.34404672 0.00000381
-0.23224652 0.23930115 0.03782274
-0.16198871 0.29690522 0.00000610
-0.21227984 0.07319061 0.00000090
-0.15638537 -0.34108690 0.00000233
-0.40453418 -0.26359175 0.00000439
-0.44750064 -0.74724881 0.00000351
-0.57275758 0.01924878 -0.28448954
-0.62762841 -0.71523971 0.06921069
-0.28694217 0.10724404 0.28637879
-0.36024183 -0.06971409 0.18037100
-0.25684457 -0.70347321 0.00000218
-0.14757618 0.26791744 -0.00000219
-0.22754814 0.30015608 -0.02338696
-0.48346808 -0.11598312 -0.11871047
-0.57246194 -0.63406046 0.00000473
-0.32034514 -0.73400715 -0.00000177
-0.30424404 -0.14914090 0.00000392
-0.42468220 -0.11737840 -0.05098199
-0.03440318 0.26914479 0.00000869
-0.13823922 0.05854344 0.00000131
-0.08959863 0.31444293 0.00000225
-0.17547427 0.05582835 0.00000826
-0.28335702 0.35272276 -0.11190506
-0.22406977 -0.46720413 0.00000252
-0.25454140 0.35287351 -0.07909854
-0.06562616 0.46483163 0.00000616
-0.44140087 -0.75629322 -0.00000255
-0.01786613 -0.43580920 0.00000105
-0.36383325 -0.70714806 -0.00000196
-0.52620498 -0.24651504 -0.10578208
-0.00140224 -0.21048474 0.00000147
-0.27039105 0.11833220 0.00000066
-0.01776669 -0.59124720 0.00000066
-0.35672227 -0.06121880 0.22032474
-0.32213120 0.02229530 0.13675210
-0.13893269 -0.58381467 -0.00000030
-0.18594145 0.35109601 0.06332287
-0.19787521 0.02313907 0.00000355
-0.26913725 -0.27000630 -0.00000030
-0.08935392 -0.05004562 0.00000134
-0.24232891 -0.67312003 0.00000215
-0.62803209 -0.55085304 -0.07813225
-0.47084097 -0.35761454 0.00000466
-0.00618067 0.75960586 0.00000395
-0.14240020 -0.05670163 0.00000100
-0.71128158 -0.73986165 -0.08378909
-0.03297620 -0.03181221 0.00000217
-0.21644827 0.27743495 0.19528531
-0.34650034 -0.03652670 0.11714384
-0.27200439 -0.21043147 0.00000353
-0.37422605 -0.10346920 0.04047325
-0.13521251 0.05837103 -0.00000675
-0.40291792 -0.03164746 -0.06666597
-0.06462983 -0.44332256 0.00000050
-0.67019981 -0.49881794 -0.15083233
-0.06372857 0.56725656 0.00000517
-0.06073481 0.47199277 0.00000364
-0.43964002 -0.66982739 -0.00000233
-0.44422157 -0.27245625 0.09414750
-0.16820797 0.39390817 0.05947172
-0.44308772 -0.26972997 0.35555430
-0.26457945 0.16124716 0.09333220
-0.47930145 -0.08926564 -0.12658295
-0.49542838 -0.24146606 -0.07305497
-0.58919233 -0.43586490 -0.08816119
-0.00477405 0.59812904 0.00000353
-0.28243121 0.11813787 0.18525208
-0.37412114 -0.10322837 0.33433655
-0.18422882 -0.70805650 0.00000162
-0.30451835 -0.17694390 -0.00000028
-0.16645848 -0.44965282 -0.00000013
-0.38878486 -0.50085386 -0.00000160
-0.55959586 -0.11355592 -0.20671207
-0.36269590 -0.07564026 0.29863958
-0.32880250 0.00745982 -0.00058267
-0.30547306 -0.35938215 0.00000341
-0.40127016 -0.16876817 0.24011284
-0.10051116 0.03537564 0.00000148
-0.32345897 0.01910294 0.07265871
-0.26151498 0.44806898 -0.13204423
-0.00597558 0.26539136 0.00000271
-0.27694811 0.13139173 0.03380165
-0.46759732 -0.64464864 -0.00000243
-0.36317467 -0.50636952 0.00000347
-0.23452105 -0.23912846 -0.00000001
-0.61178714 -0.69360182 -0.00000343
-0.19450210 0.01937455 0.00000087
-0.63753050 -0.73914487 0.07205259
-0.43650153 0.20101508 -0.21493358
-0.56059102 -0.70535118 -0.00000315
-0.46086557 -0.58581816 -0.00000225
-0.25619520 0.18149314 0.03243021
-0.51330437 -0.43924011 0.15519720
-0.19983665 0.47806225 -0.07584856
-0.41574293 -0.04083181 -0.07695773
-0.32021024 -0.25735514 -0.00000058
-0.53686286 -0.07517024 -0.19891630
-0.27127917 -0.22768060 -0.00000021
-0.34703704 -0.03782756 0.00945651
-0.23674003 0.16835850 0.00000421
-0.33920201 0.07546386 -0.04459113
-0.15606042 0.11824838 0.00000347
