ply
format ascii 1.0
element vertex 1393
property float x
property float y
property float z
end_header
-0.27460790 0.35608606 -0.00000039
0.06796060 -0.45841369 0.00000000
-0.78690637 -0.66783330 -0.00000033
0.34436001 0.38601190 -0.00000074
0.77004624 0.02166042 -0.00000191
-0.42684536 -0.13219629 -0.00000017
-0.30700647 0.06943119 0.01308358
0.59920215 -0.22951624 -0.00000074
-0.15565066 -0.60964650 0.00000000
-0.34475820 0.17674795 -0.00000037
-0.66321618 0.07476850 0.00191405
-0.45019679 0.32402862 0.00079507
0.51227969 0.08926013 0.00000203
0.19580458 0.35642352 -0.00000005
-0.21896769 0.33968628 -0.00000012
0.49371956 -0.72755246 0.00000000
0.51225319 -0.12492884 -0.00000055
-0.10388959 -0.11804242 0.00000000
-0.16778725 0.20617432 0.00000000
-0.51258971 0.21602700 -0.00000116
0.48966206 0.17756432 0.00000099
-0.14767817 -0.33372939 0.00000000
-0.34386570 -0.06158384 0.00000000
-0.06945048 -0.52807528 0.00000000
0.27776541 -0.08514352 0.00000000
0.23266656 0.05870384 0.00000000
-0.60911250 -0.20693932 -0.00000082
-0.01227480 0.39628405 0.00000000
0.16739911 0.39950958 -0.00000001
-0.74856292 -0.29828751 -0.00000125
0.09150832 -0.56106920 0.00000000
-0.34632246 0.38361239 -0.00000074
0.22421969 0.00822535 0.00000000
0.35896857 0.22162592 0.00000277
0.32194404 -0.09332070 0.00000000
-0.05328817 0.02046693 0.02243166
-0.00963309 -0.28239771 0.00000000
0.30768952 -0.25678661 0.00000000
0.19082293 0.60400537 -0.00000047
0.63761282 -0.16321646 -0.00000102
-0.25348107 -0.27047234 0.00000000
-0.42151025 -0.34128629 0.00000000
0.51366007 -0.06784033 -0.00000066
0.46700833 -0.13915660 -0.00000033
0.59466908 -0.36499654 -0.00000048
0.57835096 0.03000311 -0.00000111
-0.47603174 0.05457950 0.00832054
0.34490737 0.21078371 0.00000322
-0.09816387 -0.11055513 0.00000000
-0.44691389 0.17507715 0.00549778
0.25606284 0.01325763 0.00000794
0.28913199 0.15263355 0.00000526
-0.60689382 0.14957980 -0.00000144
-0.39215158 0.10590183 0.00932651
-0.29753450 0.11820203 -0.00000006
-0.31017932 -0.33832681 0.00000000
-0.03111966 0.52779918 0.00000000
0.18158262 -0.47979185 0.00000000
-0.31650758 -0.11357947 0.00000000
-0.47602236 -0.38878280 0.00000000
0.61230478 -0.29881192 -0.00000067
-0.33227630 0.37773125 0.00277913
0.07002930 -0.43159475 0.00000000
-0.40418191 -0.50542589 0.00000000
-0.75612802 -0.25884770 -0.00000135
0.06659276 -0.65997363 0.00000000
0.13264151 0.06384695 0.00000904
-0.74020649 -0.27373706 -0.00000126
0.21684862 -0.78456996 0.00000000
0.54357286 -0.70220737 0.00000000
0.34705945 -0.20423167 0.00000000
0.05293826 -0.03120359 0.00000000
-0.20772991 0.27324472 0.00000000
0.05121190 0.69313686 -0.00000003
0.68323407 -0.61480406 -0.00000041
-0.45494047 0.21958567 0.00387489
0.39215042 -0.47006467 0.00000000
-0.32260594 0.23194376 -0.00000037
0.24269085 0.08512215 0.00000706
-0.16012901 -0.29343976 0.00000000
0.33321973 0.10304289 0.00000524
-0.17627165 -0.64530507 0.00000000
0.10118788 0.29903338 0.00000599
0.72426229 0.01103237 -0.00000170
-0.20533076 0.13909601 0.01407198
-0.14212054 -0.28141893 0.00000000
-0.61530095 -0.28389176 -0.00000071
0.22821907 0.13494782 0.00000653
0.30861948 -0.70455618 0.00000000
0.13363611 0.17621472 0.00000734
0.20924049 -0.19174157 0.00000000
-0.00757311 0.46809430 0.01001766
-0.26987774 -0.33504369 0.00000000
-0.09405740 -0.03530630 0.00000000
0.02219308 -0.43022727 0.00000000
0.12390370 -0.75089672 0.00000000
-0.37315906 -0.31066711 0.00000000
0.22250903 0.13627617 0.00000660
0.70648703 -0.62752642 -0.00000043
0.75397624 -0.34629440 -0.00000113
0.76690749 -0.25098192 -0.00000137
-0.23000672 -0.18500966 0.00000000
-0.33489239 0.31513582 0.00463196
-0.15253801 0.49159678 -0.00000011
-0.38179919 0.28407349 -0.00000072
-0.36312161 0.27606532 0.00496679
0.08068893 0.26182389 0.00000000
-0.76349198 -0.73924306 -0.00000015
0.52179261 0.22216762 -0.00000121
-0.12921818 0.12622462 0.00000000
-0.18405623 0.12002382 0.00000000
0.31678227 0.01825768 0.00000000
-0.10779415 0.00113725 0.00000000
-0.44106109 0.29508291 -0.00000099
0.49147465 0.06033844 -0.00000079
-0.07532644 0.02318112 0.02166721
-0.17970653 0.00144211 0.01911505
0.49666705 -0.52943530 0.00000000
-0.61504436 -0.72069121 0.00000000
0.25809489 -0.11766553 0.00000000
-0.59983054 -0.15942429 -0.00000086
-0.68479556 -0.32462280 -0.00000093
-0.20020072 0.21778688 0.01179990
0.25660268 -0.70513414 0.00000000
0.16816711 -0.69954664 0.00000000
0.20810813 -0.24838333 0.00000000
0.28911362 -0.51636368 0.00000000
-0.24490681 0.25646665 -0.00000008
-0.01230294 0.49639345 0.00000000
0.09921311 0.34375119 0.00000535
0.29828866 0.32314241 -0.00000043
-0.02136522 -0.25069489 0.00000000
-0.48170028 0.19580375 -0.00000099
-0.14316774 0.30741011 0.00000000
0.02900336 0.42987737 0.00000511
0.12701323 0.26549742 0.00000610
0.33801721 -0.67268516 0.00000000
-0.28855837 -0.66259235 0.00000000
-0.00155745 0.73331490 0.00201160
-0.60571333 -0.33596292 -0.00000058
-0.27798499 -0.37500109 0.00000000
-0.26832290 -0.24838930 0.00000000
0.54937635 0.00254641 -0.00000093
-0.51957576 -0.67588499 0.00000000
0.32477558 0.06149965 -0.00000008
-0.16527968 -0.12071743 0.00000000
0.22835198 -0.22047433 0.00000000
-0.22294554 0.29819132 -0.00000006
0.11433532 0.08924324 0.00000000
-0.12630677 0.56574558 -0.00000012
0.31162027 -0.74522139 0.00000000
0.24362466 0.36392487 0.00000261
-0.37583711 -0.24520657 0.00000000
0.61202874 -0.76658478 0.00000000
0.19294965 -0.33415268 0.00000000
0.37851278 0.40638807 -0.00000092
0.20572625 -0.74557465 0.00000000
-0.73466079 -0.51360176 -0.00000072
0.04483262 -0.13477728 0.00000000
-0.65712196 -0.47495002 -0.00000055
-0.78276355 -0.06245002 -0.00000182
0.27214475 0.18373744 -0.00000007
-0.10277169 -0.65197421 0.00000000
0.62518485 -0.59065241 -0.00000021
0.21730983 -0.13587209 0.00000000
-0.64975487 -0.12783851 -0.00000113
-0.03586617 0.24361408 0.00000000
0.20013671 0.25838984 0.00000510
0.55980965 -0.55132085 -0.00000000
0.23642682 -0.24659810 0.00000000
0.41098726 -0.64393104 0.00000000
-0.33258191 -0.27477926 0.00000000
-0.36834505 0.18678284 0.00756347
-0.10181495 0.61747602 -0.00000011
-0.00481152 0.41547252 0.01172827
-0.08626801 0.44014068 0.00845070
0.36500628 -0.28508498 0.00000000
-0.16676408 0.52325614 0.00339699
0.06823010 0.61353619 0.00000177
-0.05824793 0.66636394 -0.00000001
-0.61715790 0.02045582 0.00501475
-0.64060900 0.12308900 -0.00000154
-0.06864747 -0.70978798 0.00000000
-0.75433137 -0.06153215 -0.00000170
0.25008233 -0.51999188 0.00000000
0.59701940 -0.54052622 -0.00000018
-0.10592425 0.36333405 0.01021597
-0.16706856 0.33221471 0.00928881
0.76974912 -0.16581173 -0.00000158
-0.35707055 0.43383495 -0.00000088
-0.21405501 0.14000549 0.00000000
0.13162296 0.64521185 0.00000006
0.05326531 0.12084639 0.00000938
0.05608075 -0.59702823 0.00000000
-0.06683444 -0.26592197 0.00000000
-0.56172731 -0.15845106 -0.00000070
-0.58702421 0.19621870 0.00051616
-0.18613610 0.18630435 0.00000000
0.52249836 0.07482469 -0.00000095
-0.37285669 -0.14700924 0.00000000
0.34264794 0.08371044 0.00000538
-0.41544666 0.25539465 -0.00000081
0.13534267 -0.48984036 0.00000000
-0.11155439 -0.13791330 0.00000000
0.68522808 -0.28407882 -0.00000101
-0.34324504 0.33832489 0.00365758
-0.45787391 -0.40155397 0.00000000
-0.52772674 -0.72985395 0.00000000
-0.31669817 -0.78235781 0.00000000
-0.51884956 0.16478545 -0.00000109
-0.34644118 0.29890498 -0.00000059
-0.29097590 -0.19585061 0.00000000
0.08654006 -0.51847697 0.00000000
-0.04305022 0.66099044 0.00296404
-0.22208462 0.40833731 -0.00000026
-0.46976223 -0.34048627 0.00000000
0.03384141 -0.42296337 0.00000000
-0.61817331 0.13124148 0.00156107
-0.44032820 -0.34039246 0.00000000
0.22673225 0.40456938 -0.00000027
0.11649056 0.49848479 0.00000000
-0.28004400 0.40195114 0.00364460
0.37434082 0.35897259 -0.00000082
-0.72796619 -0.27735859 -0.00000120
0.70286615 -0.79812741 -0.00000000
0.32077854 -0.42960341 0.00000000
-0.33771699 -0.39504148 0.00000000
0.50645123 -0.76970501 0.00000000
-0.78533532 -0.45803839 -0.00000085
-0.05158460 0.47141563 0.00000000
-0.68429956 -0.71753098 -0.00000021
-0.02018818 0.31598161 0.00000000
0.23224348 0.32414916 -0.00000015
-0.13816805 0.37704289 0.00000000
0.15365000 -0.15973738 0.00000000
-0.49999266 0.11423498 0.00573747
0.31568730 -0.31805532 0.00000000
-0.54353043 -0.49702317 -0.00000003
0.26944665 0.47360020 -0.00000057
0.06689902 -0.34561538 0.00000000
0.48861985 -0.62828692 0.00000000
-0.31081998 -0.10772174 0.00000000
-0.18573123 -0.70914119 0.00000000
-0.75057711 -0.24492954 -0.00000136
0.72620972 -0.65056148 -0.00000037
-0.09545462 0.60448767 0.00309066
0.18594001 0.12765320 0.00000728
0.70747268 -0.73238534 -0.00000017
0.09228019 0.09483268 0.00000000
-0.35732167 0.07184019 0.01145474
-0.49735228 0.25736268 0.00139765
0.09971737 0.01302664 0.00001030
0.13937136 0.40186053 0.00000000
0.67389968 -0.32449771 -0.00000089
-0.55293967 0.14702280 -0.00000121
-0.41516672 0.29307649 0.00283343
-0.23539905 -0.58237224 0.00000000
-0.36264170 0.30300719 0.00414935
-0.19102145 0.17463787 0.00000000
-0.21546749 -0.29544849 0.00000000
0.27228058 -0.75661709 0.00000000
-0.35367721 0.34823968 -0.00000071
-0.54583478 -0.53483849 0.00000000
-0.01116200 0.40719202 0.01178791
-0.70003075 0.03735317 -0.00000164
0.52888144 0.11422569 -0.00000104
0.60441813 0.05968893 -0.00000127
-0.60858888 0.03252449 -0.00000124
0.64576251 0.09299302 -0.00000151
0.73043582 0.00063667 -0.00000067
0.70784348 -0.00670460 -0.00000159
0.27097201 0.49545768 -0.00000012
0.15689917 0.27932700 0.00000000
0.09137860 -0.48733981 0.00000000
-0.06569097 -0.76191318 0.00000000
0.41211519 0.32831014 -0.00000092
-0.20693096 0.54133657 -0.00000043
0.38620426 0.23351054 -0.00000065
-0.39386433 -0.69343014 0.00000000
0.13268258 -0.28891010 0.00000000
0.23874565 -0.01685016 0.00000000
0.56067489 -0.50507534 -0.00000009
-0.62360234 0.09256690 0.00258805
0.32675011 0.41603300 -0.00000072
-0.18720748 0.16763332 0.00000000
-0.16934728 0.28223217 0.00000000
0.05693640 0.45942541 0.00000000
-0.56343473 0.12009005 -0.00000120
0.73751492 -0.07672390 -0.00000160
-0.17316534 0.14239465 0.01496347
0.63108624 -0.54021711 -0.00000032
0.21280633 0.46119797 -0.00000031
-0.64566232 0.01872880 -0.00000137
0.47645467 0.15520232 0.00000162
-0.63749759 0.10973561 0.00162841
0.33513333 0.26281954 -0.00000048
-0.43663887 0.20682528 -0.00000081
-0.63238697 0.15349092 0.00043464
-0.09473113 0.34610970 0.01109366
-0.24994501 -0.50403648 0.00000000
0.32423612 0.44598320 -0.00000076
0.22271144 -0.06729237 0.00000000
-0.27233369 0.30372455 0.00691715
0.00039034 0.54421622 0.00000000
0.55258050 -0.75960995 0.00000000
-0.55760939 -0.10707257 -0.00000078
-0.15768397 0.19168278 0.01391923
0.16148195 0.20269998 0.00000652
-0.02470452 -0.30461281 0.00000000
0.05601800 0.50031693 0.00000365
-0.46167417 -0.13259188 -0.00000032
-0.50364124 -0.24736645 -0.00000030
0.14066035 -0.36641756 0.00000000
-0.62124578 -0.32530419 -0.00000066
0.45696611 -0.34014922 0.00000000
0.68389407 -0.65739287 -0.00000034
-0.42200826 0.23657221 -0.00000081
0.53580017 0.23998549 -0.00000094
0.40708786 0.28050925 -0.00000082
0.34613654 0.25437751 -0.00000051
-0.00757330 0.38273273 0.01265421
-0.20816438 -0.28354895 0.00000000
0.05158638 0.41893440 0.00000000
0.42535715 0.00996918 -0.00000042
0.18278564 -0.61225757 0.00000000
-0.52929129 -0.40597023 -0.00000013
0.32007332 -0.40970571 0.00000000
-0.58014479 0.05647577 -0.00000116
0.31168927 -0.69249212 0.00000000
-0.15879729 -0.35376396 0.00000000
-0.00966010 0.66636370 0.00000000
-0.52041072 0.18548001 0.00290583
-0.45850591 -0.67419882 0.00000000
0.04801733 0.28212019 0.00000000
0.23997512 0.37045679 0.00000257
-0.42824250 -0.06788557 -0.00000029
0.73187302 -0.20162531 -0.00000135
-0.15506722 0.19493698 0.00000000
-0.19865620 -0.68826869 0.00000000
0.24609681 -0.59446808 0.00000000
0.46625725 -0.19378044 -0.00000023
0.65065597 -0.04365050 -0.00000129
-0.67322046 0.12349841 0.00009965
0.21736638 -0.01710218 0.00000000
0.26577206 0.23739258 0.00000429
0.57480061 0.19115426 -0.00000087
0.23237915 0.43961464 -0.00000035
-0.00308374 0.12398289 0.00000000
0.78366094 -0.34614078 -0.00000113
-0.02811060 0.06321496 0.02188887
0.67074668 -0.34801538 -0.00000083
-0.39806757 -0.29451089 0.00000000
-0.22127380 -0.22980964 0.00000000
-0.42782340 -0.10776447 -0.00000022
0.14811034 -0.51709930 0.00000000
-0.46456981 0.32176423 0.00042098
0.46664198 -0.77074671 0.00000000
-0.73229557 -0.12161833 -0.00000150
-0.22373373 0.21563360 0.01113963
0.10061814 -0.73711516 0.00000000
0.45518627 0.21546027 0.00000102
0.48922837 0.09108548 -0.00000083
-0.14450645 -0.46701100 0.00000000
0.22563062 -0.54393834 0.00000000
-0.42338290 0.27591250 -0.00000088
0.74593920 -0.75649298 -0.00000011
0.06067134 0.64031969 0.00000148
0.17057244 0.24209875 0.00000579
-0.18079230 -0.05187841 0.00000000
-0.65039770 0.07933882 0.00216887
-0.70778188 0.02902164 -0.00000166
0.10809438 -0.62819775 0.00000000
0.67845868 -0.16591190 -0.00000119
-0.31503556 0.18522100 -0.00000026
-0.40079614 -0.65998438 0.00000000
0.46448258 0.12768622 -0.00000079
0.01933677 -0.07496025 0.00000000
-0.25583512 0.37224692 0.00531011
0.32080624 0.33885273 0.00000154
0.11312648 0.01785745 0.00001003
0.71409299 -0.53419470 -0.00000066
-0.29432616 0.37505133 -0.00000050
0.71526897 -0.67027847 -0.00000032
0.25267677 -0.38786940 0.00000000
0.60761460 -0.78848637 0.00000000
-0.09864194 0.58925335 -0.00000005
-0.17591813 0.19687567 0.00000000
-0.30244866 -0.12193979 0.00000000
-0.26824771 0.31078011 -0.00000028
0.38685945 0.02229006 -0.00000028
0.27566498 -0.21994177 0.00000000
0.40051100 0.17498772 -0.00000060
0.10826240 0.37506817 0.00000000
-0.26586609 0.53096090 0.00009734
-0.04890296 0.20162776 0.00000000
-0.77375661 -0.03286927 -0.00000183
0.08641081 -0.48530716 0.00000000
0.49112376 -0.73876863 0.00000000
-0.09777155 0.25644830 0.01376912
0.71292498 0.06195915 -0.00000174
0.39127812 0.31943602 0.00000051
0.72533130 -0.18711757 -0.00000135
-0.15758470 0.15042676 0.00000000
-0.23236094 -0.40327952 0.00000000
0.30672774 0.01118684 0.00000720
0.10846560 -0.13152734 0.00000000
-0.03377614 0.37736447 0.00000000
0.27408232 0.41815787 0.00000111
0.53180350 0.19519405 -0.00000011
0.45406199 0.11612010 0.00000270
-0.05208229 0.67490515 -0.00000000
-0.57462196 0.16972976 -0.00000134
-0.42936091 0.01823309 0.01088516
0.62526905 0.00359209 -0.00000126
-0.00509987 -0.45552503 0.00000000
-0.45985906 -0.43608955 0.00000000
0.08202557 -0.15124751 0.00000000
-0.05006730 0.42368855 0.01007685
0.48040397 -0.11325432 -0.00000044
0.20047492 0.02076549 0.00000000
-0.09544205 0.54411993 0.00495577
0.36248922 0.06216211 0.00000536
-0.65192064 -0.17980071 -0.00000105
-0.10023645 0.52699294 0.00533671
-0.62224540 0.04793624 -0.00000133
-0.36244085 -0.62473452 0.00000000
-0.07558556 -0.78879879 0.00000000
-0.74696726 -0.34221443 -0.00000114
-0.06422504 0.15597691 0.01790840
-0.14662246 0.42570452 0.00703264
0.17833641 0.02765153 0.00000000
-0.48659742 -0.45970754 0.00000000
0.18589600 -0.34851032 0.00000000
-0.50010284 0.06758955 0.00717500
0.18013744 0.09628267 0.00000000
-0.06652507 0.12983223 0.01864490
-0.29199201 -0.26574057 0.00000000
-0.18446224 -0.48297018 0.00000000
-0.00225994 0.38743495 0.00000000
-0.29069359 -0.53123556 0.00000000
0.22050755 -0.74660748 0.00000000
-0.03215355 -0.07051153 0.00000000
-0.17061068 0.53092709 0.00304119
-0.27054788 0.38836252 -0.00000043
0.07809918 0.60743614 0.00000171
-0.61997968 -0.30430637 -0.00000069
-0.11679034 0.67988634 -0.00000029
0.07057767 -0.74117466 0.00000000
0.22354238 0.40036897 -0.00000025
-0.34053754 0.25557909 -0.00000049
0.64336230 -0.01306599 -0.00000131
0.20667255 0.11611193 0.00000714
-0.69868555 -0.19692952 -0.00000122
0.12564301 -0.68504467 0.00000000
-0.15210382 0.43164053 0.00668001
-0.10294109 -0.13039605 0.00000000
0.46784819 -0.05406247 -0.00000049
0.51086210 -0.22139335 -0.00000037
0.36349233 -0.64565513 0.00000000
0.25821223 0.23305255 0.00000451
-0.11599752 -0.26871938 0.00000000
-0.40500176 -0.78295198 0.00000000
0.45763883 -0.62358275 0.00000000
-0.12246121 0.13718727 0.00000000
0.45477439 -0.51333872 0.00000000
-0.07375750 -0.71222053 0.00000000
-0.06263172 0.25060026 0.00000000
-0.62375139 0.17415124 0.00006321
-0.21896173 0.33228729 0.00768367
-0.43965191 0.33143048 0.00089218
-0.35268660 -0.37270084 0.00000000
0.17725716 0.28068202 0.00000000
-0.05458096 0.02660864 0.02220203
-0.28155700 0.05289112 0.01438046
-0.53295589 -0.02646184 -0.00000081
0.06380589 0.24347189 0.00000000
-0.17760783 -0.62825850 0.00000000
0.07701256 0.36302080 0.00000539
0.33503360 -0.12796723 0.00000000
-0.09794597 0.01751981 0.02114350
-0.72559293 -0.50925221 -0.00000073
-0.02567050 0.71669147 0.00178035
-0.02611980 -0.02623986 0.00000000
-0.17823970 0.46215422 0.00492998
0.12322516 -0.49836509 0.00000000
0.63349142 -0.04161644 -0.00000122
-0.50782726 -0.55667757 0.00000000
-0.47757287 -0.05561179 -0.00000053
0.44740199 -0.01873236 -0.00000046
0.65287532 -0.47177368 -0.00000054
-0.39424870 0.13616789 -0.00000051
0.74023464 -0.34481997 -0.00000114
0.44087672 -0.45679839 0.00000000
0.47478132 -0.20608284 -0.00000025
-0.16591721 0.41925500 -0.00000004
0.52922104 0.25455365 -0.00000105
-0.56164433 0.08751847 -0.00000114
-0.58478990 -0.78332300 0.00000000
0.50872800 -0.66305517 0.00000000
-0.31480525 0.21060396 0.00848165
-0.35138196 0.10817356 -0.00000028
0.19866828 -0.76820387 0.00000000
0.01362972 0.37974489 0.00000000
0.25951023 -0.02101585 0.00000000
0.68114229 -0.21688232 -0.00000111
-0.13511185 0.50214668 0.00502694
-0.09300646 -0.03298600 0.00000000
-0.52985114 0.03133014 -0.00000090
-0.44870308 -0.08573826 -0.00000035
-0.00997979 -0.30825581 0.00000000
0.38431582 0.30368636 0.00000091
0.21487900 0.10740447 0.00000715
0.42357873 0.14171781 -0.00000064
0.14516462 0.53005145 -0.00000014
0.17108132 -0.38024375 0.00000000
0.10478489 0.35991090 0.00000502
0.36274976 0.25949268 0.00000206
0.13089156 0.36960614 0.00000448
-0.44251678 -0.21158756 -0.00000010
-0.26451377 0.33888897 0.00607246
0.58075644 -0.75686354 0.00000000
0.36602410 -0.46361098 0.00000000
0.37236797 -0.18792257 0.00000000
0.60298256 -0.39389863 -0.00000046
-0.35958197 -0.66681615 0.00000000
0.18090646 -0.01738633 0.00000000
0.35996370 0.12398262 -0.00000034
-0.55769805 -0.18729906 -0.00000063
-0.12006436 0.21790886 0.00000000
-0.68949038 -0.02488244 -0.00000148
-0.73761304 -0.02784006 -0.00000168
0.55126420 0.11189883 -0.00000114
0.21960150 0.32299087 0.00000375
0.06949013 0.48773871 0.00000364
-0.20153071 0.42091765 0.00548428
-0.24072141 0.02778975 0.00000000
0.03749326 -0.34491458 0.00000000
-0.13980922 0.08216658 0.01785388
0.30939940 -0.45611463 0.00000000
-0.45259143 0.22311534 -0.00000091
0.72287521 0.01071056 -0.00000169
0.00107204 0.48762992 0.00000000
-0.39943070 -0.43178937 0.00000000
0.21096962 -0.39209989 0.00000000
0.62312862 -0.05047322 -0.00000116
0.20547979 0.18167809 0.00000617
0.18389903 -0.73036571 0.00000000
-0.70155288 -0.65177827 -0.00000037
-0.64093264 -0.71220335 -0.00000006
-0.42351247 0.13926699 -0.00000064
0.31560464 -0.71340070 0.00000000
-0.50688701 -0.73765776 0.00000000
-0.16082493 -0.75064385 0.00000000
0.35825692 -0.33119274 0.00000000
-0.11049845 -0.09311649 0.00000000
-0.66981421 -0.46845853 -0.00000062
0.67700902 -0.56544396 -0.00000048
0.42731176 -0.67187810 0.00000000
-0.39706207 -0.19881864 0.00000000
0.51434507 -0.40374583 -0.00000007
0.75966276 -0.53587355 -0.00000066
0.01681765 -0.55606122 0.00000000
-0.43624494 0.23967893 -0.00000087
-0.24493724 -0.68714608 0.00000000
-0.66711868 -0.33018557 -0.00000085
0.24033301 -0.58124294 0.00000000
-0.20215627 -0.23364217 0.00000000
0.08089182 0.63843141 0.00000115
-0.41790903 -0.57098414 0.00000000
0.74901415 -0.34980975 -0.00000113
0.57963481 0.18710190 -0.00000089
0.02484455 0.17027751 0.00000907
0.24169300 0.09510151 0.00000693
0.07970576 0.58426870 0.00000000
0.28799631 0.07478938 0.00000000
-0.36657059 -0.05442761 -0.00000005
-0.19911914 0.45226583 -0.00000024
-0.46291806 -0.14684697 -0.00000030
-0.01650620 0.25553144 0.01630719
0.44888466 0.15048865 0.00000223
-0.67276947 -0.34252012 -0.00000085
-0.05561610 0.37497664 0.01141005
-0.11128330 -0.10743328 0.00000000
0.72100638 -0.35518575 -0.00000103
0.47128071 0.09791202 0.00000268
0.29681550 -0.49367387 0.00000000
-0.03337979 0.42815558 0.00000000
-0.51724578 0.04296743 -0.00000087
0.08282728 0.60777801 0.00000162
0.04325675 -0.71178533 0.00000000
0.18134120 -0.65056092 0.00000000
0.43998995 -0.01116903 -0.00000044
-0.51991274 0.12743752 0.00471422
-0.01632052 0.72103553 0.00193494
0.13524928 0.18787551 0.00000000
0.06155434 0.22215943 0.00000000
0.03639655 0.34860127 0.00000622
0.28740818 0.46790283 -0.00000064
-0.56885129 -0.51066616 -0.00000011
-0.41529934 -0.57823257 0.00000000
0.50249872 0.11072653 0.00000186
0.42194362 -0.57440721 0.00000000
-0.03014235 0.19046638 0.00000000
-0.53925740 -0.10709150 -0.00000070
-0.60099106 0.17786242 0.00065172
-0.49845366 0.27948960 0.00068009
0.41577042 -0.23969402 0.00000000
0.13895399 -0.26883458 0.00000000
0.18681498 0.58621878 -0.00000002
-0.09514087 0.51890144 0.00000000
0.20968456 -0.53108231 0.00000000
0.06226086 -0.08231806 0.00000000
-0.58072748 -0.76291172 0.00000000
0.23587483 -0.77013980 0.00000000
-0.03304609 0.60965345 0.00485864
-0.32177561 0.06939350 0.01262847
-0.60924700 -0.08821643 -0.00000103
0.20967736 0.01309406 0.00000864
-0.52013026 0.18428330 -0.00000113
-0.26286259 -0.58546114 0.00000000
-0.35790778 0.30083157 0.00436281
-0.26714481 0.18057311 0.01088175
0.41256212 -0.30349174 0.00000000
0.37312403 0.14467472 0.00000378
-0.42882640 -0.27215661 0.00000000
-0.62809550 -0.24316617 -0.00000084
-0.01199730 0.58863489 0.00000000
0.33267023 -0.40604535 0.00000000
-0.43269072 0.33339823 0.00104646
0.17288618 0.24212094 0.00000000
-0.38039693 -0.58552335 0.00000000
0.29726909 0.27104337 0.00000313
0.70154921 -0.75677034 -0.00000011
-0.05973769 -0.02137177 0.00000000
0.22803633 0.05816026 0.00000769
0.07611641 0.25202268 0.00000707
0.73336916 -0.43829682 -0.00000090
0.46803025 -0.21967509 -0.00000019
-0.10993869 0.49794033 0.00000000
0.56245674 0.00332776 0.00000251
-0.72926201 -0.29080751 -0.00000118
-0.07072367 -0.60591674 0.00000000
-0.24724826 0.30374922 -0.00000018
0.21928544 -0.48214704 0.00000000
-0.25842140 -0.29153327 0.00000000
0.40260220 -0.10064568 -0.00000013
0.69373722 0.00010793 -0.00000155
-0.53186766 -0.46145281 -0.00000004
-0.64355394 -0.51804153 -0.00000042
-0.48574662 0.03481171 0.00863106
-0.44116996 0.14491404 -0.00000072
-0.63290082 -0.56676856 -0.00000028
-0.03814743 -0.39197357 0.00000000
-0.15874102 0.37585450 0.00819809
0.37579606 0.36522078 -0.00000084
0.06156589 0.40433210 0.00000000
-0.16685032 -0.47921846 0.00000000
-0.33980583 0.11691700 -0.00000024
-0.23277484 0.29172293 -0.00000009
0.32783645 0.08868110 0.00000559
-0.34284972 -0.59919160 0.00000000
-0.42573590 -0.66872711 0.00000000
-0.10933966 -0.42026292 0.00000000
-0.17687210 -0.32699272 0.00000000
-0.24181289 -0.49229362 0.00000000
0.61673810 -0.08069106 -0.00000108
0.07090374 -0.39792021 0.00000000
0.31761427 -0.52851360 0.00000000
-0.30226803 -0.15698022 0.00000000
-0.22539790 0.49248662 -0.00000042
-0.51639935 -0.14580007 -0.00000053
0.00625916 0.57403473 0.00000000
0.07978200 0.54928682 0.00000256
-0.24537896 -0.41670222 0.00000000
-0.65839671 -0.77096008 -0.00000003
0.06612952 -0.38056164 0.00000000
-0.47185214 -0.62225422 0.00000000
0.40177111 -0.19285242 0.00000000
-0.56059309 -0.25415150 -0.00000053
0.23028657 0.38101278 0.00000258
-0.59164471 0.08323783 0.00386353
0.47375489 -0.16725056 -0.00000031
-0.41729479 -0.40681869 0.00000000
-0.38112177 -0.38603362 0.00000000
0.01237876 -0.45481178 0.00000000
-0.03869439 0.73276808 0.00088146
0.66013771 -0.26680068 -0.00000093
-0.00499580 0.60261835 0.00594222
-0.58251067 0.14219186 0.00232455
0.06137853 -0.53667561 0.00000000
-0.34889059 0.35987432 -0.00000071
0.71136402 -0.35397525 -0.00000100
0.08211337 0.04022386 0.00000000
-0.15563171 0.27903612 0.00000000
0.24542246 0.53760053 -0.00000033
-0.05706379 0.41771768 0.01004520
-0.53978661 0.08885809 -0.00000105
-0.10776947 0.10505762 0.00000000
-0.11849524 -0.56701162 0.00000000
-0.48501608 -0.55102551 0.00000000
-0.29309685 0.12037754 0.01193951
-0.13833176 -0.38871161 0.00000000
-0.43071486 0.03611588 -0.00000049
0.21807874 -0.27835701 0.00000000
-0.18041577 0.35121821 0.00828964
0.42232770 -0.63655230 0.00000000
-0.44233288 -0.09034868 -0.00000031
-0.75652259 0.02164451 0.00067252
-0.24778427 0.27677189 0.00850817
-0.17082233 -0.62973900 0.00000000
-0.29385489 -0.11482375 0.00000000
0.10034190 0.63676164 -0.00000014
0.55504868 0.21834240 -0.00000134
0.03845576 -0.27228871 0.00000000
-0.35583155 0.22722274 0.00670082
-0.63983387 -0.15815431 -0.00000104
-0.61365693 0.11542250 -0.00000141
-0.54184768 -0.01666811 -0.00000087
-0.04333970 0.47239646 0.00000000
0.19123735 0.59857035 -0.00000046
0.54521730 0.00192040 0.00000286
-0.64204358 -0.45649182 -0.00000052
0.47062077 0.28676808 -0.00000110
-0.14345050 0.08280369 0.01772175
-0.36341858 0.18400619 0.00780144
-0.35674299 -0.47211326 0.00000000
0.56426770 0.10159223 0.00000083
0.24153004 0.39645522 0.00000210
0.13200970 -0.21919967 0.00000000
0.22936592 0.54076067 -0.00000007
0.30739845 0.48334705 -0.00000075
-0.69110664 -0.36771631 -0.00000089
-0.67546630 -0.71605476 -0.00000020
-0.37008036 -0.71237334 0.00000000
0.13807945 0.56849853 0.00000122
0.67908845 -0.75031504 -0.00000012
0.04706839 0.51850594 0.00000351
-0.39748114 -0.60358548 0.00000000
-0.19521389 -0.08734738 0.00000000
0.06893968 -0.21267640 0.00000000
-0.17145451 -0.77959844 0.00000000
0.61575883 -0.46234348 -0.00000040
0.51300422 0.27197334 -0.00000103
0.48080294 -0.44236080 0.00000000
0.45839843 0.08010913 0.00000322
0.76481471 -0.08973333 -0.00000169
0.57325976 -0.48549932 -0.00000017
0.30790267 0.11297505 -0.00000010
0.31926856 0.36605823 0.00000112
-0.45323259 0.21816661 -0.00000091
-0.52811990 -0.78203076 0.00000000
0.38118562 0.13977468 0.00000371
0.05659597 0.42312259 0.00000000
0.71024618 -0.30799872 -0.00000107
0.74437262 -0.64350283 -0.00000039
0.21121220 0.03216166 0.00000833
0.32359671 0.29420936 0.00000223
-0.10684620 -0.63563539 0.00000000
0.16987799 -0.54256132 0.00000000
-0.34351452 -0.35365040 0.00000000
-0.07290542 0.47995159 0.00000000
0.76505318 -0.32838490 -0.00000118
-0.07325534 0.23841564 0.01508324
-0.68246282 -0.14661017 -0.00000124
-0.29291581 0.36331667 0.00444041
-0.22997643 -0.29929230 0.00000000
0.62741073 0.09730172 -0.00000144
0.18105231 0.09526024 0.00000000
-0.64880805 0.14041770 -0.00000160
0.05681170 0.67322176 -0.00000002
-0.63072829 -0.70985857 -0.00000002
-0.03911766 -0.21392216 0.00000000
0.45662452 -0.51961636 0.00000000
-0.16339806 0.05586783 0.01793767
0.39897000 0.15817508 -0.00000057
0.73723179 -0.02260718 -0.00000169
0.06345063 0.16773434 0.00000853
0.59392411 -0.50170394 -0.00000023
-0.25259314 0.46960406 -0.00000049
0.20741289 0.16273373 0.00000643
0.13275619 0.28373594 0.00000574
-0.02048425 0.44433522 0.00000000
0.21394000 -0.04649321 0.00000000
-0.15126372 0.39466687 0.00000000
0.69810375 0.00912514 -0.00000158
0.12503652 0.52196627 -0.00000004
-0.66606171 -0.39795846 -0.00000072
-0.17675914 0.51417485 -0.00000025
0.20884446 0.04552840 0.00000000
0.24444983 0.07483918 0.00000719
0.12053898 0.28733469 0.00000000
-0.64626835 -0.50014967 -0.00000046
0.03454770 0.54803769 0.00000000
0.49714847 0.11409915 -0.00000091
-0.12341401 0.08628975 0.00000000
0.12069290 0.57275895 -0.00000011
-0.56693857 0.17226105 -0.00000131
0.35612725 0.11124016 -0.00000030
-0.51456240 -0.74655382 0.00000000
0.49413123 -0.41841617 0.00000000
0.19024160 0.14881773 0.00000690
-0.08476459 -0.45448906 0.00000000
0.11263332 0.53409703 -0.00000001
-0.30959178 0.42213112 0.00210838
0.57519599 -0.28888195 -0.00000053
0.69780127 -0.56346134 -0.00000057
0.54221163 -0.09835454 -0.00000073
0.15098796 0.54265707 0.00000140
-0.12849478 0.25051023 0.01300369
-0.45941050 -0.28440827 -0.00000004
-0.69060914 -0.50164834 -0.00000065
-0.15599250 -0.11938663 0.00000000
0.09393784 0.68721228 -0.00000020
-0.25673695 0.27544642 -0.00000017
-0.50363657 -0.43232160 0.00000000
-0.29451274 0.12759955 0.01167267
-0.37152980 -0.55107592 0.00000000
-0.45813274 -0.11728811 -0.00000033
0.08038959 0.36326183 0.00000534
0.12026759 0.16809249 0.00000766
-0.14699906 -0.48320988 0.00000000
-0.02811151 0.66161434 0.00000000
-0.09174961 -0.44756782 0.00000000
0.01160984 0.69640257 0.00000138
-0.79363067 -0.02631237 -0.00000193
-0.67491469 0.06558996 -0.00000158
-0.54475055 -0.66903133 0.00000000
0.32596804 -0.68197599 0.00000000
-0.09420812 0.06686915 0.00000000
0.73225463 -0.39168600 -0.00000102
0.39486605 0.32218631 -0.00000084
0.52030227 -0.75644918 0.00000000
0.51329865 -0.07291178 -0.00000065
0.49041949 -0.14777533 -0.00000042
-0.51326069 -0.39897845 -0.00000007
0.43304805 -0.43840834 0.00000000
0.26911542 -0.38192662 0.00000000
-0.46551785 0.16788022 0.00514536
-0.48394066 0.09734199 -0.00000082
-0.18766136 -0.70648716 0.00000000
-0.08903649 -0.34325440 0.00000000
0.09889425 0.43820226 0.00000393
0.60067901 0.19537086 -0.00000144
0.24154765 0.26666111 -0.00000009
-0.34351574 -0.74019733 0.00000000
0.34634492 0.43128758 -0.00000083
-0.41313486 0.35467257 0.00099342
-0.51019718 -0.76300499 0.00000000
0.57641738 -0.43656459 -0.00000027
-0.44022793 -0.21605868 -0.00000008
0.18963461 0.01745396 0.00000000
0.41152798 -0.49044300 0.00000000
0.68502113 0.03134189 -0.00000032
0.62152382 -0.15151012 -0.00000097
0.21306696 -0.05402686 0.00000000
0.76455986 -0.61026523 -0.00000047
-0.24189040 0.09578263 0.01428071
0.39228974 0.27291177 -0.00000074
-0.02247214 0.26524785 0.00000000
0.01161547 -0.24720389 0.00000000
0.37901796 0.34200646 -0.00000081
0.76642745 -0.53638208 -0.00000066
0.19072315 -0.79101951 0.00000000
-0.53151037 -0.35720031 -0.00000022
-0.39955511 -0.54383306 0.00000000
0.40078848 -0.25852297 0.00000000
-0.48662955 -0.15169163 -0.00000039
-0.10770818 0.07341209 0.01911567
-0.45609280 -0.15291237 -0.00000026
0.24367837 -0.31634718 0.00000000
-0.64177108 -0.25747742 -0.00000087
-0.11778428 -0.06348765 0.00000000
0.41402372 -0.40381471 0.00000000
0.47146171 0.31329273 -0.00000092
0.69088163 -0.61057657 -0.00000045
0.27596860 -0.08188978 0.00000000
-0.26684404 0.06650912 0.01441423
0.43294096 -0.60991672 0.00000000
0.53067041 -0.73662282 0.00000000
-0.34148093 -0.32453037 0.00000000
0.31736572 0.45594935 -0.00000035
0.30804306 0.10875947 -0.00000009
0.16290286 -0.43489543 0.00000000
-0.61334494 -0.53485201 -0.00000026
0.19119411 0.23837936 0.00000554
0.18934816 0.35221131 -0.00000002
0.60719282 0.01892491 -0.00000121
-0.18055379 0.41917753 0.00618609
0.41323576 0.01015948 -0.00000037
-0.27957795 0.09738589 0.00000000
-0.49692297 0.12338223 -0.00000092
0.02555317 0.56379645 0.00000316
0.68513030 -0.52439548 -0.00000058
0.33219737 0.14440633 0.00000457
-0.35750946 -0.65609148 0.00000000
0.06352590 0.12451054 0.00000917
0.40980815 0.36388734 -0.00000098
-0.43654308 -0.22316404 -0.00000005
0.72102023 -0.16710219 -0.00000137
0.01726659 -0.70240996 0.00000000
-0.01130461 0.01548590 0.00000000
0.70404256 -0.62443071 -0.00000044
0.54359795 -0.66884773 0.00000000
0.46374784 -0.62927763 0.00000000
-0.09614390 0.34017523 0.00000000
-0.03259766 -0.03337878 0.00000000
-0.64416159 0.00773506 0.00457346
0.44824081 -0.57907311 0.00000000
0.64242361 -0.06020123 -0.00000122
0.26827538 -0.75497367 0.00000000
-0.59652859 -0.01089861 -0.00000111
-0.25283360 0.14705727 0.00000000
0.60684607 0.17180217 -0.00000116
-0.05579131 0.43833861 0.00944758
-0.04470952 -0.76300192 0.00000000
-0.78720848 -0.65742147 -0.00000036
0.73977442 -0.22753081 -0.00000134
0.64531167 0.14878280 -0.00000151
0.41409490 -0.04982437 -0.00000026
-0.28675439 0.47401296 0.00121122
-0.18967847 -0.40690927 0.00000000
0.48317282 0.19168087 0.00000088
-0.30671048 -0.68483249 0.00000000
-0.42267141 0.29096740 0.00266673
-0.23480606 0.16593481 0.00000000
0.54052770 -0.16165845 -0.00000061
-0.21446048 0.14424471 0.00000000
-0.35336182 -0.78410130 0.00000000
0.34193168 0.40863919 -0.00000003
-0.19120467 0.18902934 0.01296596
-0.16321895 0.21819466 0.01292942
-0.04943034 -0.74300478 0.00000000
0.52961318 0.21622257 -0.00000042
0.69731922 0.05424886 -0.00000166
-0.58149633 -0.44604314 -0.00000028
-0.46104715 0.31255142 -0.00000111
0.17726222 -0.21430655 0.00000000
-0.03577453 -0.05390565 0.00000000
0.36913522 -0.26691764 0.00000000
0.17224379 -0.50717070 0.00000000
-0.12877753 0.40795424 0.00813200
0.31141465 0.32647069 0.00000193
0.07038380 0.62761497 0.00000152
-0.21856733 -0.03290297 0.00000000
0.68860825 -0.52574609 -0.00000060
-0.36729915 0.02254897 0.01266916
-0.15633630 -0.27484528 0.00000000
0.07924229 -0.17200253 0.00000000
0.75933726 -0.20211534 -0.00000147
0.61497440 -0.19499597 -0.00000087
0.26592178 0.34444741 0.00000250
-0.45034754 0.25612307 0.00288809
-0.47624574 0.01597814 0.00950637
-0.21159285 0.37680270 -0.00000015
0.77158999 -0.35839749 -0.00000110
-0.50924571 0.25497673 0.00110392
0.34253749 0.12571366 -0.00000027
-0.28553762 -0.62771465 0.00000000
0.26228938 0.30663161 -0.00000025
-0.06708212 0.33471351 0.00000000
-0.69825783 -0.41307291 -0.00000084
-0.36389326 0.16198621 -0.00000043
-0.22598793 0.26637810 0.00950262
-0.56243916 -0.46152593 -0.00000017
0.20933775 0.34638557 0.00000356
-0.23458683 0.00582343 0.01728483
0.25138944 -0.04928500 0.00000000
-0.13884840 -0.47868152 0.00000000
-0.06322170 0.47796128 0.00799428
0.58338309 -0.67945925 0.00000000
0.59105250 -0.48765994 -0.00000025
-0.22872487 0.52221819 0.00151485
-0.15489758 -0.69263826 0.00000000
-0.52664130 0.03278520 0.00743027
0.38572964 -0.72491569 0.00000000
0.41537726 0.20936166 0.00000189
0.60069244 -0.48855352 -0.00000029
-0.66688013 -0.01422288 -0.00000141
0.48499639 -0.41619887 0.00000000
-0.14023982 0.23913308 0.00000000
-0.10794417 -0.78165912 0.00000000
-0.43537878 -0.02769199 -0.00000039
0.42006396 0.28527078 0.00000053
-0.03589220 0.76194492 0.00006672
-0.40432627 -0.33378807 0.00000000
-0.51951022 -0.50790897 0.00000000
-0.45478116 -0.10361272 -0.00000034
-0.56471089 -0.50466990 -0.00000010
0.27142299 0.19128505 0.00000496
-0.01596591 0.47872405 0.00943014
-0.26278625 0.37277464 -0.00000037
0.62566696 -0.68169602 -0.00000005
0.74530884 -0.20029867 -0.00000141
-0.47376948 -0.68841186 0.00000000
0.26647134 0.36264317 -0.00000036
0.42581897 -0.32851770 0.00000000
0.22259321 0.44713434 0.00000162
-0.27350905 0.38727836 -0.00000044
-0.15864363 -0.04641487 0.00000000
0.33496597 0.25725965 0.00000263
-0.76015675 -0.11979407 -0.00000162
-0.58446408 0.01134481 0.00630623
-0.18739163 -0.25209875 0.00000000
0.53962517 -0.59154155 0.00000000
0.77875536 -0.33961751 -0.00000115
0.26445061 -0.42173033 0.00000000
-0.00403347 0.36745824 0.01323531
0.15203460 0.31781796 0.00000494
0.54209101 -0.11717251 -0.00000069
0.25238435 -0.59813236 0.00000000
0.06789054 0.64151293 0.00000134
-0.44010357 0.17192781 0.00580546
0.29054024 0.26899330 0.00000329
0.11710794 -0.73246639 0.00000000
0.62787988 0.06091225 0.00000029
-0.25473440 0.38703541 0.00488728
-0.32123535 -0.46343701 0.00000000
0.16041840 0.22286899 0.00000624
-0.02221643 0.71948357 0.00180079
0.17506086 0.55648628 0.00000071
-0.09176978 -0.25479073 0.00000000
0.08196188 -0.05921086 0.00000000
0.63700720 -0.15237680 -0.00000104
-0.02951990 0.42876467 0.01055464
-0.11088661 0.45006661 0.00738381
0.10113346 -0.47072755 0.00000000
0.49624392 -0.55173991 0.00000000
-0.29678907 -0.30198515 0.00000000
-0.09992699 0.60432393 0.00295755
-0.09415574 0.47165907 0.00723359
0.08546311 0.01541377 0.00001048
-0.08272030 -0.41933005 0.00000000
-0.21446258 -0.64728360 0.00000000
0.75059816 -0.07603984 -0.00000165
-0.02092756 -0.79775916 0.00000000
0.22012855 -0.54517653 0.00000000
-0.35580278 0.11852230 -0.00000031
0.16409620 -0.49881321 0.00000000
0.37695911 -0.69903660 0.00000000
0.57820999 -0.36511505 -0.00000041
0.44071433 0.02215989 -0.00000051
0.55696107 -0.06333128 -0.00000085
0.10949495 -0.04920258 0.00000000
0.18404344 -0.39323393 0.00000000
-0.27511419 0.09311068 0.00000000
0.43126680 -0.72037215 0.00000000
-0.71747681 -0.50174737 -0.00000075
-0.11693584 0.53888535 -0.00000004
0.52463889 -0.06403345 -0.00000071
0.01947737 0.16313810 0.00000926
-0.58590845 -0.44717045 -0.00000030
0.34855273 0.33940578 0.00000100
-0.78628238 -0.23811441 -0.00000140
0.13465861 -0.13790928 0.00000000
-0.26515371 0.24651323 0.00890629
0.09589840 0.33686892 0.00000550
0.08363032 0.08897172 0.00000940
0.61646823 0.04130264 -0.00000129
-0.30509799 0.46834647 0.00081956
0.03173738 -0.74931458 0.00000000
0.07491951 0.17101202 0.00000830
0.09549676 0.17254583 0.00000000
-0.03645943 -0.67945290 0.00000000
-0.69555482 -0.33151534 -0.00000097
-0.08222405 0.55109311 0.00514861
0.28387455 -0.44278130 0.00000000
0.43768519 0.23579935 0.00000102
-0.52065683 -0.53413414 0.00000000
0.13372041 0.01485602 0.00000976
-0.75017209 -0.55117089 -0.00000062
0.20956134 0.20257213 0.00000580
-0.51987494 0.21961901 -0.00000119
0.32158022 -0.73059359 0.00000000
0.19886272 0.53020616 0.00000069
0.49602001 -0.40162657 0.00000000
0.33711429 0.04684167 -0.00000011
-0.73673816 -0.40572627 -0.00000099
-0.51138689 -0.32276858 -0.00000020
0.20401452 0.08033800 0.00000000
-0.23451725 -0.13101018 0.00000000
0.37092324 0.08933412 0.00000475
0.08941149 -0.58344566 0.00000000
-0.08375945 -0.21393219 0.00000000
0.71511880 -0.58813924 -0.00000053
0.39828327 0.26529264 -0.00000075
-0.50910197 0.05341367 0.00733489
0.12763947 0.11063114 0.00000841
0.15507933 0.39665926 0.00000000
0.15527620 0.45460194 -0.00000005
-0.43731811 -0.72453975 0.00000000
0.43961258 -0.79978895 0.00000000
-0.11758632 0.43479314 0.00764865
-0.75111602 -0.64181727 -0.00000040
0.48889828 -0.77513539 0.00000000
-0.61711688 0.06603222 -0.00000134
-0.49044970 0.21628544 0.00287982
-0.35920772 0.36421409 -0.00000076
-0.20847801 -0.26645193 0.00000000
-0.79202883 -0.31522568 -0.00000121
0.16816327 -0.14263918 0.00000000
0.03896520 0.67390514 0.00000000
-0.02730622 0.04642938 0.00000000
-0.28533208 0.26273754 0.00778172
-0.33330395 0.41040001 -0.00000073
0.35618561 0.06793266 0.00000539
-0.57296014 -0.21063655 -0.00000066
-0.01688753 0.44774271 0.00000000
0.10576884 0.38498836 0.00000463
0.34170455 0.12267563 -0.00000026
-0.00787013 -0.34625754 0.00000000
-0.09834768 -0.28904559 0.00000000
0.70928612 -0.60632281 -0.00000048
0.62004110 0.12713526 -0.00000067
-0.39984175 -0.53717484 0.00000000
0.70288971 0.03588113 -0.00000165
-0.77178681 -0.06971936 -0.00000176
-0.09142375 0.24533353 0.01430846
-0.39648254 -0.43374364 0.00000000
-0.25110209 0.51870054 0.00093220
-0.12257827 0.05670328 0.00000000
-0.07147535 -0.25176732 0.00000000
0.76879243 -0.32317751 -0.00000119
0.59608375 -0.04139687 -0.00000106
0.22582284 0.39973603 -0.00000026
0.35818848 0.17493969 -0.00000042
-0.61861245 -0.79198947 0.00000000
0.74751659 0.01721195 -0.00000128
0.69845212 -0.64818743 -0.00000038
-0.43255706 -0.38367274 0.00000000
0.25512188 0.30445621 0.00000338
0.02379053 -0.79614392 0.00000000
0.37246504 -0.19510977 0.00000000
0.19146854 0.45748799 0.00000204
-0.01414311 0.55992787 0.00000000
0.43625341 0.27463382 -0.00000093
-0.01218908 0.48988973 0.00920191
0.71685848 0.04893107 -0.00000173
0.52602364 0.25436007 -0.00000099
0.25798998 -0.36896409 0.00000000
-0.10691140 0.45062780 0.00748925
-0.42989203 -0.68032492 0.00000000
0.31344296 -0.04617177 0.00000000
0.07575346 -0.70080526 0.00000000
0.69779598 -0.65193261 -0.00000037
0.61643127 -0.73185815 0.00000000
-0.15690899 0.58673858 0.00174040
-0.31397313 -0.11004770 0.00000000
-0.32663079 0.20035133 0.00843303
-0.11014894 -0.69380414 0.00000000
-0.02817066 0.73259207 -0.00000000
-0.79337476 -0.09377361 -0.00000177
-0.18736922 0.52682966 -0.00000032
-0.06655438 -0.08594405 0.00000000
0.36938823 0.42945024 -0.00000092
0.73087420 -0.27343000 -0.00000122
0.49637054 -0.11213224 -0.00000051
-0.61137906 -0.66858168 -0.00000001
-0.19516074 -0.36765172 0.00000000
-0.47402950 0.16422643 0.00499527
-0.31995059 0.41454655 -0.00000068
0.08063901 0.58498048 0.00000201
-0.04013874 -0.13737822 0.00000000
-0.18732986 0.29621739 0.00000000
0.23587408 -0.63468280 0.00000000
0.47153691 0.15103288 -0.00000087
0.29934798 -0.12380288 0.00000000
0.09872997 0.01656231 0.00000000
0.48312302 -0.60932829 0.00000000
0.07601806 0.11747164 0.00000000
-0.03140423 0.05914874 0.00000000
-0.33371194 -0.22530131 0.00000000
-0.58946372 -0.00620769 -0.00000109
-0.12807102 0.58979870 0.00253678
-0.11971489 0.18270776 0.00000000
-0.50949315 0.16710999 -0.00000106
-0.35960373 0.06063433 0.01173040
-0.43306696 -0.41108239 0.00000000
-0.11887691 -0.32717411 0.00000000
-0.55320886 -0.07178201 -0.00000082
-0.74991597 -0.40294205 -0.00000099
0.04072394 0.11737744 0.00000962
0.15210900 -0.53095631 0.00000000
0.35736911 0.37584433 -0.00000078
0.27399661 0.31856215 -0.00000032
-0.44260211 -0.73401715 0.00000000
-0.64050795 -0.14295356 -0.00000107
-0.12148476 -0.52458234 0.00000000
0.04907678 -0.17801412 0.00000000
-0.64094796 0.12497675 0.00105100
-0.47582129 -0.71005313 0.00000000
-0.38524168 0.00551972 -0.00000024
0.04069610 0.31832076 0.00000661
-0.25345660 -0.28131441 0.00000000
-0.64984716 -0.70384347 -0.00000011
-0.66310166 0.09855585 0.00118276
-0.32478628 0.23903346 -0.00000039
-0.74208761 -0.74976485 -0.00000013
0.06633640 0.51251145 0.00000000
-0.20381610 0.07583289 0.00000000
-0.54263689 0.02653630 0.00712915
-0.15000746 -0.60816758 0.00000000
-0.77463552 -0.36669827 -0.00000108
0.39504021 0.15525830 -0.00000055
-0.24470604 -0.47601772 0.00000000
-0.14820377 0.15382121 0.01538144
0.17187106 0.59913559 -0.00000038
0.13078700 -0.75020414 0.00000000
0.60010948 0.09170650 -0.00000131
0.04333503 0.06811385 0.00000000
-0.58705080 0.07707960 -0.00000123
0.57155997 -0.39322778 -0.00000033
0.40191129 -0.31403200 0.00000000
-0.25514066 0.08897609 0.00000000
-0.10789858 0.25750155 0.01342383
-0.07562669 -0.27205776 0.00000000
0.46612153 -0.45199390 0.00000000
-0.53458525 -0.20751540 -0.00000050
0.48847560 0.18368670 -0.00000100
-0.11052388 0.03959512 0.00000000
0.01593262 0.24489050 0.00000809
0.13443141 0.52101302 0.00000208
-0.18089250 -0.52518615 0.00000000
0.22451039 0.42418197 -0.00000029
0.16885746 0.52560265 0.00000134
-0.09588401 0.23735937 0.00000000
-0.03966202 0.06793924 0.00000000
0.04414780 -0.66247649 0.00000000
0.15599555 0.31005446 0.00000500
-0.20785990 -0.19989805 0.00000000
0.07651937 0.17953964 0.00000000
0.70770871 -0.70124645 -0.00000025
0.21209256 0.17327732 0.00000620
-0.79304366 -0.73248760 -0.00000017
-0.30410132 0.00992212 0.01501140
0.21425842 -0.12404251 0.00000000
-0.63089123 -0.50410404 -0.00000039
-0.53565715 -0.12256062 -0.00000066
0.65778463 0.02404587 0.00000033
0.14064126 -0.75543368 0.00000000
-0.00482795 -0.46645241 0.00000000
-0.02844657 0.49474265 0.00854993
0.10190609 0.52770682 0.00000000
-0.42979233 0.07714199 -0.00000056
-0.40088195 -0.31959998 0.00000000
-0.28822227 -0.08967296 0.00000000
-0.04030256 0.00131564 0.00000000
-0.19754208 -0.52470742 0.00000000
0.55258236 0.15565912 -0.00000122
-0.05300535 0.13482794 0.00000000
0.07404893 -0.53064636 0.00000000
0.23568461 0.56332804 -0.00000059
0.14076893 -0.41394852 0.00000000
-0.15347738 -0.70029897 0.00000000
0.35490869 0.00147780 0.00000652
0.49076479 -0.20182185 -0.00000032
-0.46792816 -0.00860979 -0.00000057
-0.42194450 0.26614369 0.00345602
0.31208937 0.16927651 0.00000454
-0.31437677 0.25237350 0.00720457
0.41921867 -0.20668172 -0.00000001
0.19440304 -0.56581862 0.00000000
0.20421425 -0.56560088 0.00000000
-0.00634721 0.69383033 0.00000000
-0.67448449 -0.46583732 -0.00000064
0.18786776 0.35764919 -0.00000002
0.09877444 0.46063102 0.00000000
-0.35348964 0.37510094 -0.00000076
-0.21355073 -0.67133376 0.00000000
0.34528272 0.35695779 -0.00000069
0.11021781 -0.49211218 0.00000000
-0.45759026 -0.29533883 -0.00000002
-0.43044183 0.09654040 0.00843276
0.34289965 0.44201520 -0.00000061
0.65663919 -0.65648133 -0.00000023
-0.79160146 -0.43059925 -0.00000092
-0.36035466 0.31431792 -0.00000068
-0.67729606 -0.43724218 -0.00000070
-0.40314570 0.21199947 -0.00000068
0.16988871 0.42859791 -0.00000007
-0.05961110 0.52379418 0.00000000
-0.46349566 0.20234137 -0.00000092
0.55883877 -0.31608075 -0.00000041
-0.39879274 0.11882537 -0.00000050
0.39919648 -0.05367950 -0.00000019
0.09316453 -0.15453108 0.00000000
0.45899993 -0.43614368 0.00000000
-0.02086250 0.23454245 0.01682094
-0.22469946 0.15580877 0.00000000
-0.65600185 -0.18405477 -0.00000106
-0.40971018 0.38627401 -0.00000102
0.14190193 0.06414041 0.00000000
-0.57045250 -0.10420488 -0.00000084
-0.21248683 -0.28851114 0.00000000
-0.00793608 0.30228000 0.00000000
-0.59401660 0.06636024 0.00431162
-0.16521958 0.26037504 0.00000000
0.29254670 -0.18793849 0.00000000
0.01671807 0.32853484 0.00000682
0.25444708 0.04932952 0.00000000
-0.26925067 0.17520743 -0.00000004
0.38067101 0.12984267 0.00000388
-0.00758050 0.75072865 0.00000000
-0.59274428 -0.75069854 0.00000000
0.34943129 -0.33144310 0.00000000
-0.04708923 -0.15351294 0.00000000
0.22881166 -0.59157572 0.00000000
0.36644669 0.40672824 -0.00000047
-0.13971470 0.10182973 0.00000000
-0.13360363 -0.65901319 0.00000000
-0.16169626 0.03959379 0.01849288
-0.56981276 -0.59257624 0.00000000
-0.16932725 -0.26630363 0.00000000
0.26912388 -0.67719883 0.00000000
-0.04163393 -0.35645959 0.00000000
0.50424836 0.28341456 -0.00000124
0.25956992 0.43692146 0.00000108
0.30648580 0.31178321 0.00000227
0.60358312 -0.29801588 -0.00000063
-0.19567782 0.45582898 0.00458664
-0.55099306 0.05285203 -0.00000103
0.03766529 0.19842888 0.00000846
-0.63431799 -0.61477383 -0.00000021
-0.28796921 0.30298193 -0.00000035
-0.43787529 0.02054868 0.01055059
0.45411150 -0.49102706 0.00000000
-0.21640095 -0.24974934 0.00000000
-0.07984462 0.39325708 0.01009716
0.13761481 -0.25803931 0.00000000
-0.33107978 0.36806210 0.00311479
-0.44081871 0.19129107 0.00518522
-0.09623807 0.49509427 0.00644544
0.35641057 0.00890346 -0.00000012
-0.47727497 -0.75422305 0.00000000
-0.26895317 -0.13893215 0.00000000
0.05865554 0.26691680 0.00000000
0.11072810 -0.58638206 0.00000000
-0.09505719 0.12326268 0.00000000
0.09736305 0.22331760 0.00000000
-0.11570990 0.41600750 0.00828683
0.08879158 0.19535353 0.00000000
0.79119797 -0.42608503 -0.00000093
0.56907108 0.11433474 -0.00000122
0.56629296 -0.36623016 -0.00000036
-0.60757008 -0.57990650 -0.00000015
0.13876853 -0.57957384 0.00000000
-0.49994130 0.28999263 0.00030968
-0.44650969 -0.48239129 0.00000000
0.41347742 -0.29301187 0.00000000
-0.38706599 0.20990239 0.00627091
0.73074449 -0.07754104 -0.00000157
-0.18097797 0.27327044 0.00000000
0.53481863 -0.38362627 -0.00000019
0.69015628 -0.13778261 -0.00000129
0.00560691 0.01055340 0.00000000
-0.33150789 0.07280037 -0.00000013
0.65284203 0.05771688 -0.00000014
-0.14769936 0.02766056 0.01929373
0.54222822 -0.17326158 -0.00000059
-0.17234177 -0.55088564 0.00000000
0.39197250 -0.14321802 -0.00000001
0.18793953 -0.18486305 0.00000000
0.29099776 0.26425592 -0.00000029
0.06397557 -0.17138471 0.00000000
-0.70346929 -0.32043387 -0.00000102
-0.25818042 -0.73083927 0.00000000
0.02743611 0.24537167 0.00000000
-0.12890971 0.48554022 0.00573153
0.56231615 -0.72264011 0.00000000
-0.72303347 -0.00654166 -0.00000166
-0.59936359 -0.15682217 -0.00000087
0.19412810 0.42368941 0.00000256
-0.04245095 -0.57213115 0.00000000
0.25537074 -0.50614584 0.00000000
-0.01155388 0.76791122 0.00000000
-0.32464453 0.46897335 -0.00000080
-0.64294268 -0.30975095 -0.00000078
0.26161752 -0.58279969 0.00000000
0.51468903 -0.67021496 0.00000000
-0.55571004 0.20947717 -0.00000133
-0.43300808 -0.03353471 -0.00000037
-0.61453100 -0.01823245 -0.00000118
-0.12768031 0.03752728 0.01960723
-0.10757730 -0.47763887 0.00000000
0.30633283 0.06631487 0.00000637
-0.29850120 0.28406671 0.00671599
0.24093100 -0.46226990 0.00000000
-0.00516009 0.20398268 0.01824978
-0.52015171 0.21141727 -0.00000118
-0.31881429 -0.58725655 0.00000000
-0.00293841 -0.12515922 0.00000000
0.06591944 0.10531064 0.00000000
-0.63590017 -0.00770571 -0.00000129
-0.13071104 0.05415725 0.01899999
