ply
format ascii 1.0
element vertex 1393
property float x
property float y
property float z
end_header
0.23674923 -0.38393183 0.00000000
-0.05913948 0.23028813 0.00000000
-0.64927764 0.12502612 0.07870546
-0.70548374 -0.71541875 -0.00000011
0.50142766 0.24761596 -0.00000040
0.12091693 0.06926272 0.00000000
-0.10966933 -0.76401331 0.00000000
0.41888557 -0.28381141 0.00000000
-0.43219722 -0.27428866 0.00000000
-0.46428365 0.23286148 0.31504522
-0.43545323 0.24028473 0.38061413
-0.75600784 -0.07507756 -0.00000084
-0.58064096 0.20221241 0.05251846
0.71834121 -0.54185600 -0.00000065
0.13565886 -0.72159242 0.00000000
0.25095173 -0.66043772 0.00000000
-0.44826878 -0.37138296 0.00000000
-0.28405615 0.41386213 0.31267602
-0.51279264 0.27304174 0.04338817
-0.31215680 0.36750700 -0.00000028
0.63297534 -0.54378824 -0.00000033
0.30720393 0.36264028 0.00000141
0.58516461 -0.35596326 -0.00000045
0.15936293 0.40599698 0.00000000
0.05216214 -0.71981558 0.00000000
0.46031203 0.33154301 -0.00000101
-0.66662280 0.10225498 0.09532524
0.05922880 0.14742547 0.00000889
0.38007424 -0.37183683 0.00000000
-0.48281808 0.25460363 0.19167752
-0.04861016 -0.74389330 0.00000000
0.61740735 -0.51844868 -0.00000030
0.00900079 0.70645387 0.00000127
0.74924564 -0.37882041 -0.00000105
0.13009763 -0.19225052 0.00000000
-0.04808960 -0.22102615 0.00000000
-0.30677040 -0.65291992 0.00000000
0.42274526 -0.07414574 -0.00000026
0.33503293 0.36151825 -0.00000065
-0.30068957 0.45810446 0.12621524
-0.38160442 -0.24055139 0.00000000
-0.48922063 0.22124261 0.27425189
-0.37355060 -0.74735615 0.00000000
-0.63580439 -0.44837040 -0.00000025
-0.02648534 -0.16162107 0.00000000
-0.72756814 -0.47712581 -0.00000040
-0.39577446 0.23829066 -0.00000035
-0.55944561 0.16824062 0.22149684
-0.34571301 0.38749542 0.20458411
0.33253517 -0.22189100 0.00000000
0.48553745 0.25005922 -0.00000014
0.29027559 0.37029043 -0.00000048
-0.25719688 0.42520719 0.36019512
0.43014371 0.08817712 -0.00000058
0.55230724 -0.21292472 -0.00000057
-0.70528947 -0.72274729 -0.00000010
-0.39413900 -0.69776974 0.00000000
-0.46340043 -0.20436265 -0.00000010
-0.16141339 0.61033396 -0.00000018
0.01412296 0.57901537 0.00000310
0.28402621 -0.14343121 0.00000000
-0.67651819 -0.27257388 -0.00000050
0.15267854 0.34957050 0.00000445
0.38820587 0.28730982 0.00000111
0.76193108 -0.26402200 -0.00000134
0.02024578 0.31981367 0.00000690
-0.21570860 0.56685078 0.05342218
0.54639586 -0.03467004 -0.00000086
0.71790709 -0.27392411 -0.00000117
-0.15532100 0.48274092 -0.00000005
-0.24570486 -0.21970414 0.00000000
0.07007710 0.57842649 0.00000227
-0.12564479 0.50226451 -0.00000000
-0.04662548 0.04894838 0.00000000
0.29228126 0.13425703 -0.00000007
0.15539440 0.10629183 0.00000000
-0.50913081 -0.02108864 -0.00000036
-0.19049003 0.08130333 0.00000000
0.64215627 0.00385806 -0.00000133
-0.51243515 0.16153313 -0.00000053
-0.10854263 -0.72917188 0.00000000
-0.16400819 -0.72530728 0.00000000
0.40933106 0.31042218 0.00000032
-0.27748405 -0.60236466 0.00000000
-0.67204326 -0.45928474 -0.00000032
0.19375877 0.03054004 0.00000000
-0.51072390 0.18326597 0.32470992
0.05071665 0.24908863 0.00000750
0.19401845 -0.24601747 0.00000000
0.51435575 -0.27760708 -0.00000029
0.69493673 -0.36747657 -0.00000090
-0.21459984 0.20227627 0.00000000
-0.23648479 0.56065578 0.00875950
0.67338987 -0.74007955 -0.00000015
0.08368207 0.11829764 0.00000000
-0.43073247 -0.42496730 0.00000000
0.78096938 -0.50382249 -0.00000074
-0.60834400 -0.58613296 -0.00000007
0.10326109 0.60099004 -0.00000009
0.63353853 -0.33736514 -0.00000069
-0.12852584 0.61478235 0.17364805
-0.00362272 -0.15925375 0.00000000
0.24213402 -0.45551063 0.00000000
-0.47740320 0.23759777 0.26035279
-0.26391113 0.34665843 -0.00000016
0.43322034 0.20404442 -0.00000080
0.50047269 -0.41142281 0.00000000
-0.75648635 -0.27049315 -0.00000066
-0.33455002 -0.55887101 0.00000000
0.04431428 0.13972711 0.00000000
-0.72566911 -0.57429498 -0.00000028
0.43002473 -0.71914332 0.00000000
-0.37330396 0.38051249 0.14146103
-0.03564415 -0.52106083 0.00000000
-0.45958061 0.28541310 0.16848453
0.37686029 -0.60951960 0.00000000
0.56096714 -0.47882182 -0.00000013
0.38134061 -0.00964052 -0.00000020
-0.70800955 0.02144325 -0.00000082
-0.04912022 0.18660415 0.00000000
-0.01629969 0.20576175 0.00000000
0.47968518 0.05146725 -0.00000072
0.46480475 -0.69890048 0.00000000
-0.41069947 -0.31618882 0.00000000
-0.76775718 -0.49779471 -0.00000038
-0.47499365 0.21593405 0.33408896
-0.26884917 -0.67368545 0.00000000
0.00227250 -0.51121262 0.00000000
-0.08938711 0.40658193 0.00000000
0.59866733 0.16981141 -0.00000144
0.13149604 0.02732329 0.00000961
-0.65173589 -0.14647494 -0.00000055
-0.01032792 0.23331667 0.00000000
0.49880501 0.00723877 0.00000366
-0.36178527 0.29929963 0.42549531
-0.29058769 -0.23852372 0.00000000
0.69629622 -0.08435338 -0.00000141
0.02850163 -0.27100821 0.00000000
-0.75802344 -0.79278478 -0.00000001
-0.72183405 -0.61516660 -0.00000023
-0.52083140 -0.07055601 -0.00000034
0.37709190 0.25136515 0.00000192
-0.16034055 0.18892258 0.00000000
0.23885367 0.11728498 0.00000000
0.39442292 -0.01161929 -0.00000025
-0.16966915 0.62576723 0.01398006
0.27622953 0.20401655 0.00000465
-0.52210638 0.19973394 0.23940332
0.09931264 0.20816168 0.00000000
0.16884655 0.30232530 0.00000000
0.22513460 0.08186308 0.00000000
-0.03072810 -0.30642838 0.00000000
0.71850541 -0.66279302 -0.00000034
0.43551172 -0.22366250 -0.00000005
0.10260191 0.43291663 0.00000396
-0.24958941 0.46891308 0.24962738
-0.32130553 0.38113660 0.29881993
-0.32509485 0.29721607 -0.00000025
-0.58505343 0.07433164 -0.00000061
0.31584637 0.11305304 -0.00000013
-0.08365651 0.39491925 0.00000000
-0.41275004 0.36153805 0.07875560
0.23590455 -0.05038286 0.00000000
0.15728529 0.28218120 0.00000000
0.49939196 0.19335214 -0.00000106
0.09781623 0.68863743 -0.00000022
-0.15427011 0.48426652 -0.00000005
0.08982805 0.65190561 0.00000075
0.26830195 0.22645677 0.00000443
0.47186847 0.05975154 0.00000330
-0.39040826 0.32110966 0.27102167
-0.24149492 0.52232855 0.11081047
-0.65749441 -0.60980046 -0.00000016
-0.24083260 -0.71111984 0.00000000
0.14593565 0.33474730 0.00000000
0.41289750 -0.50481559 0.00000000
0.07079844 0.69727301 0.00000036
0.33583236 -0.53370780 0.00000000
-0.26238711 -0.25945826 0.00000000
-0.28577339 0.12815907 -0.00000002
-0.40705720 -0.34480528 0.00000000
0.77626930 0.01863023 -0.00000193
0.02250852 -0.57445346 0.00000000
0.14779459 0.37278046 0.00000000
0.04141687 0.42843465 0.00000000
0.38654962 0.10241635 -0.00000042
-0.19886202 0.55120565 0.15294452
-0.63290425 0.16123705 -0.00000079
0.42910225 -0.03577539 -0.00000035
0.30832014 0.39765434 -0.00000060
-0.24889862 0.07632442 0.00000000
-0.04089483 0.45755827 0.00000000
-0.53312860 -0.79343700 0.00000000
0.17846703 0.14021555 0.00000720
0.46414450 0.01491630 0.00000420
-0.07579949 -0.71896957 0.00000000
0.32725854 0.08256664 -0.00000013
-0.12771674 -0.62802861 0.00000000
0.40129361 0.34625597 -0.00000013
-0.64748147 -0.69571385 -0.00000006
-0.57991792 -0.53990410 -0.00000005
0.49851614 -0.40814773 0.00000000
0.66261680 -0.28710822 -0.00000091
0.62039984 0.13407072 -0.00000079
-0.23684239 0.55261555 0.03229155
-0.04473359 0.00448605 0.00000000
-0.44407969 0.31373784 0.12920502
-0.33491265 0.35643109 0.33281384
0.29714479 -0.03847503 0.00000000
-0.57288304 -0.69857157 0.00000000
0.41626496 0.19846929 -0.00000071
-0.51894448 0.22155906 -0.00000060
0.78412177 -0.33467636 -0.00000116
0.36745127 0.07328950 0.00000508
0.50314131 0.19588222 -0.00000108
-0.49298029 -0.54462860 0.00000000
-0.25179899 0.53113862 -0.00000030
0.07627828 0.20226076 0.00000782
-0.22656651 0.54947486 0.07338692
-0.41844804 0.08808436 -0.00000026
-0.19962225 0.55274126 0.14591251
-0.10244238 -0.65723162 0.00000000
-0.30830391 -0.18569211 0.00000000
0.67946029 -0.26613580 -0.00000102
-0.61261188 -0.73313355 0.00000000
0.48195727 -0.16064547 -0.00000036
-0.78215544 -0.10369235 -0.00000087
0.33593613 -0.02417045 0.00000000
-0.19053262 -0.13629357 0.00000000
-0.02692936 -0.76131102 0.00000000
0.24616621 0.17762277 0.00000562
-0.48590368 0.26248560 0.15808357
0.59296585 -0.10309791 -0.00000093
-0.35125921 0.33338922 0.35332132
0.31186835 -0.30420060 0.00000000
0.07279010 -0.77037042 0.00000000
-0.15243940 -0.27752594 0.00000000
-0.05492793 0.43582991 0.00000000
0.09711983 -0.76007362 0.00000000
-0.60972208 0.13159625 0.17974095
-0.20045538 -0.35638418 0.00000000
0.36459233 -0.30774335 0.00000000
0.11145093 0.02668379 0.00000992
-0.16150332 0.38590728 0.00000000
-0.12078337 0.05645347 0.00000000
-0.25588815 -0.44650698 0.00000000
0.42827018 -0.60106129 0.00000000
0.21775617 0.45457867 -0.00000032
-0.00741087 0.79048702 -0.00000001
-0.33410950 0.03267733 -0.00000003
-0.50262196 -0.44397578 0.00000000
-0.35156666 0.43156089 0.05168065
-0.19736495 0.30282188 0.00000000
-0.40467359 0.35417310 0.12605300
0.03442896 -0.35482293 0.00000000
0.39821630 0.11875170 -0.00000050
-0.79975806 -0.18109461 -0.00000077
-0.62826571 -0.35762586 -0.00000032
0.58032578 0.08625595 -0.00000121
0.32576953 -0.76463445 0.00000000
-0.64328208 -0.37151665 -0.00000034
0.36477287 -0.06379121 -0.00000003
0.59788866 -0.39137159 -0.00000045
-0.44494092 0.07933349 -0.00000031
-0.09475258 -0.11200244 0.00000000
0.03794098 0.26398843 0.00000000
0.13288073 -0.51930044 0.00000000
-0.07803709 0.44114666 0.00000000
-0.28005365 0.40595958 -0.00000025
-0.66067302 0.09396969 0.13892764
0.26713000 -0.02908921 0.00000000
0.57995208 0.06870451 0.00000108
0.08301485 0.47022896 0.00000000
0.03347810 0.52748420 0.00000000
0.46962409 -0.39520265 0.00000000
-0.27077944 0.05825829 0.00000000
0.17976231 0.37949939 0.00000357
-0.68260043 -0.78402802 -0.00000002
-0.34581027 0.33643217 -0.00000033
-0.68772108 -0.35566919 -0.00000045
-0.14884745 -0.32686600 0.00000000
-0.14069829 0.38002548 0.00000000
-0.48887025 -0.68367735 0.00000000
-0.39764490 0.39046066 0.03643249
-0.54951803 0.15106818 -0.00000060
-0.09071685 -0.52180271 0.00000000
-0.07787936 -0.20166827 0.00000000
0.04544195 -0.04448473 0.00000000
-0.38974884 0.17274404 -0.00000028
0.13369333 -0.32060689 0.00000000
-0.33203133 -0.32367418 0.00000000
0.52364019 0.07832539 -0.00000096
-0.13188609 0.34615752 0.00000000
-0.07117210 0.53491119 0.00000000
-0.62905483 -0.69525929 -0.00000002
-0.45896087 -0.39870151 0.00000000
0.72404293 -0.56588444 -0.00000059
-0.70836545 -0.77164044 -0.00000004
-0.46675757 -0.37420919 0.00000000
-0.25005690 0.06347396 0.00000000
-0.41863410 -0.19346290 -0.00000002
-0.51921506 -0.37914065 -0.00000007
-0.14884535 0.03929176 0.00000000
0.74470811 -0.24117126 -0.00000134
-0.26957220 0.40194607 0.39353784
-0.66189790 0.11321953 0.07621306
0.26611958 0.50994113 -0.00000027
0.34095383 -0.20186849 0.00000000
0.11984288 0.55320311 0.00000182
-0.01005094 0.33174049 0.00000000
-0.50177426 -0.25059042 -0.00000014
-0.52929624 0.26210127 0.02634800
0.09393403 -0.15445691 0.00000000
0.59733582 0.09869927 -0.00000131
-0.53708187 0.24612589 0.05143333
0.57106051 0.08404404 0.00000099
-0.28123959 -0.05510954 0.00000000
-0.32659095 0.36010237 0.34705775
-0.11427958 -0.12997222 0.00000000
-0.28948709 0.38611329 0.38103467
-0.54690435 -0.32976503 -0.00000017
-0.46049154 0.24550464 -0.00000049
0.29471058 -0.49650751 0.00000000
-0.11343735 0.44228177 0.00000000
0.54497908 0.18818627 -0.00000025
0.17828586 0.60781536 -0.00000042
-0.56487342 -0.68599405 0.00000000
0.44442841 -0.46802255 0.00000000
0.68465620 -0.68508741 -0.00000029
-0.02659611 0.13964608 0.00000000
0.03718471 0.74507649 0.00000020
-0.67132287 0.03863013 -0.00000076
-0.66788671 -0.54532417 -0.00000024
-0.17666904 -0.77642108 0.00000000
-0.65608138 0.08958967 -0.00000077
-0.18935908 0.56136421 0.15093633
-0.13221435 0.63374453 0.10427015
0.46426922 -0.64733405 0.00000000
-0.21842153 0.02795385 0.00000000
-0.13835629 -0.00367651 0.00000000
-0.69693790 -0.79973123 -0.00000000
-0.20843109 -0.67152884 0.00000000
0.13332625 0.02886956 0.00000956
0.22881332 -0.73604328 0.00000000
0.23953393 -0.46790646 0.00000000
-0.56741331 -0.62554305 0.00000000
-0.66534781 -0.15485028 -0.00000058
-0.18575905 -0.32014636 0.00000000
0.33804265 0.30466314 0.00000178
0.22547534 0.41186225 -0.00000028
-0.00340017 0.03911798 0.00000000
-0.41048459 -0.31261040 0.00000000
0.32699398 0.38483818 -0.00000066
-0.19379838 -0.24053827 0.00000000
0.54666636 -0.43485939 -0.00000015
-0.02877109 -0.39066802 0.00000000
0.37613369 0.39583535 -0.00000047
0.55214167 -0.23073910 -0.00000053
-0.38663555 0.40471507 0.02649291
0.22429352 -0.22786115 0.00000000
-0.26846642 0.03151508 0.00000000
0.74163460 -0.09249532 -0.00000159
-0.21621144 0.02756176 0.00000000
0.44817788 -0.00851901 -0.00000048
-0.33229460 0.45479247 -0.00000040
0.11671990 0.16932808 0.00000770
0.41232841 0.17704860 0.00000249
-0.61516156 -0.15729879 -0.00000047
-0.11136564 -0.04222369 0.00000000
0.76661174 -0.60705853 -0.00000048
0.10207242 0.20571993 0.00000737
-0.34144786 0.38406171 0.22816563
-0.24371708 0.53625075 0.06135994
-0.12623407 0.65770035 0.04921120
-0.19993438 0.49949597 -0.00000016
-0.08662146 0.67221330 0.12609069
-0.22474200 0.50324929 -0.00000022
-0.50780618 0.28108376 0.03402894
-0.36505815 0.33850316 0.29539218
0.11881094 -0.18783561 0.00000000
0.05890111 -0.71371260 0.00000000
-0.43774557 0.31863222 0.13361501
0.34120745 -0.46323346 0.00000000
0.18422026 0.30100083 0.00000471
0.12810898 0.05777616 0.00000000
0.75667958 -0.72349728 -0.00000019
-0.41196415 -0.31526558 0.00000000
-0.62264326 0.15488275 0.06883592
0.10117968 0.51871110 0.00000269
-0.35439391 -0.13667148 0.00000000
0.45718395 0.07825293 -0.00000068
-0.50103736 -0.58841665 0.00000000
-0.24232929 -0.40334246 0.00000000
0.16452090 0.31136986 0.00000000
0.13698445 0.21020848 0.00000678
-0.43401797 -0.69970466 0.00000000
0.65881835 -0.02280051 -0.00000136
0.42445161 -0.69281920 0.00000000
0.38270584 -0.62309967 0.00000000
-0.50885219 -0.24097454 -0.00000017
-0.32038367 -0.54901593 0.00000000
0.37433570 -0.22533329 0.00000000
0.74053047 -0.72141286 -0.00000020
0.17414366 0.18564288 0.00000000
0.08551973 0.34426104 0.00000555
0.46647439 -0.67549279 0.00000000
0.35316392 -0.50064681 0.00000000
-0.02844894 -0.59048444 0.00000000
0.00528877 0.77581145 0.00000028
0.74052935 -0.70018366 -0.00000025
-0.25242965 0.46297794 0.25910695
-0.09121945 0.19424250 0.00000000
-0.51303709 -0.53916791 0.00000000
0.61166504 -0.03419639 -0.00000114
-0.72391478 -0.60690946 -0.00000024
0.43076212 -0.59602367 0.00000000
0.01807963 0.29412898 0.00000000
0.69873174 -0.13954885 -0.00000132
0.37849045 0.29350425 -0.00000072
0.54184327 0.14166153 -0.00000115
-0.18913742 -0.56661253 0.00000000
0.16708437 0.04597167 0.00000879
-0.30026177 0.44246340 0.17543454
0.03273763 0.02395869 0.00001115
0.40691100 0.14499826 -0.00000058
0.49372660 -0.20086282 -0.00000034
-0.10319496 0.67323316 -0.00000011
0.25238196 0.33434338 0.00000293
-0.23470848 0.51083420 0.16680457
-0.26886014 0.32575666 -0.00000015
0.34875819 0.10459414 0.00000492
0.38545210 -0.79351914 0.00000000
-0.17594558 -0.35755899 0.00000000
-0.07057224 0.12263278 0.00000000
0.14479694 -0.37383180 0.00000000
0.20715687 -0.69243833 0.00000000
-0.28901094 0.34350269 0.51300724
-0.46682589 -0.51580146 0.00000000
0.37826077 0.16328856 0.00000337
0.50530237 0.13614947 0.00000139
-0.48623770 -0.56201183 0.00000000
0.11068506 0.39994315 0.00000000
-0.22631347 0.43331839 -0.00000016
-0.45282448 0.25702755 0.27612435
0.00604368 0.14639673 0.00000000
0.21415025 -0.49327969 0.00000000
-0.31940283 0.37295249 0.32971532
-0.43141983 0.23369602 0.41314911
-0.32021723 0.27962816 -0.00000022
-0.32989078 0.40809955 0.18993719
0.09729531 -0.01368219 0.00000000
-0.48784892 0.25814584 0.16541804
0.14243092 0.51345911 0.00000205
0.01350228 -0.66141560 0.00000000
-0.78027148 -0.48596675 -0.00000039
0.54135048 -0.06684079 -0.00000078
-0.09739125 -0.55709927 0.00000000
0.57784827 -0.03138079 -0.00000100
-0.67041019 -0.36959527 -0.00000040
-0.70151863 -0.60810927 -0.00000024
0.12480718 0.59208064 0.00000108
0.68855874 -0.42487075 -0.00000077
-0.04938891 -0.15772415 0.00000000
0.57435003 0.13446937 0.00000009
-0.25905771 0.52980893 -0.00000031
-0.42308625 0.36107397 0.04851692
0.52222955 -0.28471597 -0.00000031
-0.03820599 0.74259677 0.05880350
0.12901405 0.20935968 0.00000691
0.00792115 -0.37804908 0.00000000
-0.30887577 0.39603025 0.29127307
-0.48610962 -0.21174712 -0.00000014
0.19742777 0.32187372 0.00000000
-0.13618173 0.36514555 0.00000000
0.40552809 0.22612922 0.00000180
-0.50150799 -0.51140333 0.00000000
-0.40487701 -0.77680072 0.00000000
0.33443969 0.09931000 0.00000528
-0.48556220 -0.05637288 -0.00000028
-0.03544380 -0.60234289 0.00000000
-0.54750501 -0.08144188 -0.00000039
-0.71761068 -0.33068729 -0.00000053
-0.09854919 -0.24721931 0.00000000
-0.54900782 0.12966943 -0.00000058
0.10862016 0.46116026 0.00000000
0.23737503 -0.15326301 0.00000000
-0.35956347 -0.26344409 0.00000000
-0.35579635 0.40948302 -0.00000041
0.53975524 -0.32728740 -0.00000031
0.56466648 -0.49303955 -0.00000012
-0.56839052 0.19499120 0.11216065
0.69237638 -0.12073035 -0.00000133
-0.77635934 -0.61803881 -0.00000023
-0.30790149 0.14704743 -0.00000008
-0.15078925 -0.15914406 0.00000000
0.37847071 0.20675631 -0.00000057
0.50813793 -0.05491243 -0.00000066
0.22291788 -0.66691284 0.00000000
0.15161552 -0.78105858 0.00000000
-0.23639464 0.39474993 -0.00000015
0.67657001 -0.36843441 -0.00000082
0.29693551 0.12532686 -0.00000007
-0.13941989 -0.37104535 0.00000000
0.30914616 0.47236995 -0.00000046
-0.03684188 0.74315115 0.06128370
-0.29050341 0.49333201 0.04951299
0.20289908 -0.51067989 0.00000000
-0.10152053 0.61783236 -0.00000006
-0.01420744 0.18567071 0.00000000
0.28524784 0.05194142 0.00000692
-0.01244549 0.14934466 0.00000000
0.34364207 0.08541555 0.00000534
-0.59575090 -0.21743925 -0.00000037
-0.08256627 0.51694178 0.00000000
-0.06527352 0.04449732 0.00000000
-0.29947398 -0.74511865 0.00000000
0.14848073 -0.44659767 0.00000000
0.48702489 -0.64817476 0.00000000
0.05183071 -0.18594636 0.00000000
-0.72886210 -0.10402674 -0.00000076
0.61754772 -0.16490469 -0.00000093
-0.08962224 0.30125300 0.00000000
0.58564492 0.16593011 -0.00000138
0.36149558 0.32127316 0.00000105
0.36172069 -0.44354454 0.00000000
-0.41327141 0.03512933 -0.00000021
-0.00575015 -0.31868083 0.00000000
0.38226042 -0.61442413 0.00000000
0.50597932 -0.30424768 -0.00000021
-0.47132537 0.22013668 0.33245225
0.44388444 0.10988222 0.00000300
0.01362542 0.21419247 0.00000000
-0.19442753 0.51425650 0.27970054
0.47326358 0.32261574 -0.00000118
0.05806452 0.36390194 0.00000000
-0.18746830 0.34043513 0.00000000
-0.12731140 0.66958608 0.00950506
-0.27350509 0.43370199 0.28422485
-0.51850084 0.11257873 -0.00000050
-0.34673516 0.30832989 0.44393370
-0.68838249 -0.18376727 -0.00000060
0.07095209 0.11315227 0.00000923
0.05215842 0.42110359 0.00000000
-0.24287243 -0.41428196 0.00000000
-0.13697319 -0.31587599 0.00000000
-0.24599418 0.52710927 0.08238564
0.10814689 0.38009430 0.00000467
0.24177999 0.30451578 -0.00000016
-0.17240492 -0.74325951 0.00000000
0.18235882 -0.12462656 0.00000000
0.62484244 -0.24946034 -0.00000081
-0.13599183 -0.37391461 0.00000000
-0.55253398 -0.30806152 -0.00000020
-0.50985288 -0.26063380 -0.00000015
-0.23972106 0.42811012 0.40483103
0.12126369 -0.04214669 0.00000000
-0.24011262 0.42328886 0.41839899
-0.20451178 0.58110297 0.04406365
0.45212804 -0.41374014 0.00000000
-0.01370553 -0.21628916 0.00000000
0.73555572 -0.67618107 -0.00000031
-0.54632938 -0.28555440 -0.00000021
0.29064293 0.08226397 0.00000000
0.63158753 0.11348883 -0.00000148
-0.42591905 0.37144336 0.00807828
-0.55871912 -0.69212853 0.00000000
0.62934130 -0.08032850 -0.00000113
-0.07292993 0.29813088 0.00000000
-0.13132259 -0.67593353 0.00000000
-0.73629668 0.05774145 0.01825790
0.44548170 0.28930152 -0.00000002
0.20899320 -0.51328299 0.00000000
-0.46112660 0.32818665 0.03273276
0.13462907 0.42072195 0.00000000
0.09870154 -0.11374586 0.00000000
-0.42256443 -0.66954801 0.00000000
-0.06589014 0.71790447 0.04963981
-0.22610538 -0.27361854 0.00000000
-0.36479202 0.40676113 0.08713319
0.00933695 0.24257290 0.00000000
0.13144363 0.01175817 0.00000000
-0.11928780 -0.56807820 0.00000000
-0.22944772 0.02550622 0.00000000
-0.41520198 0.38475987 0.00011626
-0.26728997 -0.15397239 0.00000000
-0.38173448 -0.19873510 0.00000000
0.16798603 0.41585361 0.00000319
0.14910564 -0.73331489 0.00000000
-0.35219488 -0.77459634 0.00000000
-0.71106739 -0.43702233 -0.00000042
-0.31414728 0.00630024 0.00000000
0.69762769 -0.09447750 -0.00000140
0.43414345 0.25803218 0.00000072
-0.56999172 -0.70857433 0.00000000
-0.12788912 -0.44078400 0.00000000
-0.31650526 -0.73947422 0.00000000
-0.11712924 0.11040060 0.00000000
-0.79782844 -0.70904949 -0.00000011
0.04639686 0.69733102 -0.00000002
0.26184212 -0.13191610 0.00000000
0.20630338 0.54781665 0.00000025
-0.02736767 0.37691584 0.00000000
0.21667167 0.50827765 -0.00000041
-0.04129789 0.75714483 0.00477270
0.49547493 0.01416727 0.00000361
0.75138832 -0.77502914 -0.00000006
0.46539129 -0.51004300 0.00000000
-0.31760402 0.30103598 -0.00000024
0.21268940 -0.08941456 0.00000000
0.45007977 0.26637996 -0.00000098
-0.69437959 -0.44526900 -0.00000038
0.17435640 0.06159824 0.00000000
0.03626314 0.56814818 0.00000000
-0.07857012 -0.25184462 0.00000000
-0.01221095 0.33015744 0.00000000
0.38737940 -0.05047221 -0.00000015
0.68892725 -0.64700755 -0.00000038
0.29266172 0.02700002 0.00000718
-0.56225386 -0.41991677 -0.00000012
-0.14631376 -0.07969329 0.00000000
-0.36443654 -0.78282034 0.00000000
0.26734589 0.04170727 0.00000734
0.01116105 -0.30235506 0.00000000
0.27019624 -0.74764165 0.00000000
0.32759464 0.12960780 0.00000491
-0.53893891 -0.00344486 -0.00000044
-0.27935108 0.11361962 0.00000000
0.13744435 0.61685915 -0.00000026
-0.32258502 -0.09866951 0.00000000
0.35997800 0.23874502 -0.00000054
-0.34902991 0.16098344 -0.00000018
0.10438716 -0.19069954 0.00000000
-0.03229964 0.31349756 0.00000000
0.10408812 -0.63202530 0.00000000
-0.15825965 0.63887415 -0.00000020
-0.24633604 -0.70112783 0.00000000
-0.71636406 -0.35635798 -0.00000051
-0.24252656 0.35900472 -0.00000013
-0.30563791 0.39872086 0.29294927
-0.29526164 -0.65044763 0.00000000
-0.41291987 -0.58614554 0.00000000
0.44861038 0.33883748 -0.00000091
0.10757423 -0.71384198 0.00000000
-0.52048901 0.04708465 -0.00000045
0.69790418 -0.43302785 -0.00000080
-0.38723095 0.27396944 0.42514172
-0.06794003 -0.54739795 0.00000000
0.73015098 -0.28670620 -0.00000120
0.41519802 -0.70770015 0.00000000
-0.61481487 0.14263020 -0.00000073
0.45251776 -0.78133122 0.00000000
-0.08759631 -0.17501113 0.00000000
-0.09187160 0.03733597 0.00000000
-0.23444202 0.44947680 0.35555538
0.07708881 0.23002292 0.00000739
-0.33948049 -0.29266811 0.00000000
-0.14363803 0.54936713 -0.00000008
-0.05154075 -0.60545909 0.00000000
0.43251702 -0.36419908 0.00000000
-0.57442387 0.17002778 -0.00000067
-0.50105468 -0.37273087 -0.00000003
0.62562441 0.17108127 -0.00000151
0.53348315 -0.20902812 -0.00000049
0.06195164 0.58651276 0.00000000
0.23257799 -0.38211622 0.00000000
0.06939373 0.24096536 0.00000000
-0.01028013 0.74574009 0.00000000
-0.54675812 -0.17601208 -0.00000030
0.46454360 0.01649453 0.00000417
0.52117535 -0.08078690 -0.00000067
0.44146110 -0.53899165 0.00000000
-0.15085912 0.61225632 -0.00000016
0.03832789 -0.65287823 0.00000000
0.68267825 -0.65549052 -0.00000034
-0.12149272 0.43421457 0.00000000
-0.55500163 -0.22226898 -0.00000028
-0.06432358 0.13837552 0.00000000
0.25546978 0.07865849 0.00000000
0.71348940 -0.71844493 -0.00000020
0.51299990 -0.29629986 -0.00000025
0.39604867 -0.61206093 0.00000000
0.14782639 0.31555158 0.00000504
0.11501847 0.26818662 0.00000000
0.40580758 0.29791777 -0.00000084
-0.14073813 -0.40482685 0.00000000
-0.30268732 -0.78739712 0.00000000
-0.15000024 -0.55404683 0.00000000
0.15776924 0.01836861 0.00000934
0.71299701 -0.10185087 -0.00000145
-0.40150333 -0.38955119 0.00000000
-0.45926410 -0.73559396 0.00000000
0.65199577 -0.57232919 -0.00000036
0.73750549 -0.38412259 -0.00000104
0.06732227 -0.04262347 0.00000000
-0.09366687 0.21641477 0.00000000
-0.61719332 0.15656749 0.08036884
-0.64030837 0.07574407 -0.00000073
-0.56090855 0.18297602 0.17188094
-0.47468405 -0.71922070 0.00000000
0.48648836 -0.08626647 -0.00000051
-0.47182808 -0.13324881 -0.00000018
0.00285010 -0.35012791 0.00000000
-0.19279035 -0.63321750 0.00000000
-0.65934846 0.13884938 0.00551728
-0.20310500 0.41110286 -0.00000009
-0.36643228 0.34111624 -0.00000038
0.27008000 0.25528839 0.00000391
-0.21105372 0.57599713 0.03966475
-0.47875704 -0.50859478 0.00000000
-0.37285339 0.32417007 -0.00000038
0.00299047 0.53436045 0.00000394
0.23358080 0.11158645 0.00000680
0.69380831 0.05743167 -0.00000092
-0.01618056 -0.42983091 0.00000000
0.33889865 0.28452140 0.00000210
-0.30002292 -0.54470815 0.00000000
-0.10422494 0.64362447 0.15973838
-0.62831256 -0.26375949 -0.00000040
0.55911263 -0.46481255 -0.00000015
0.07868992 0.10335592 0.00000926
0.15881040 -0.79508077 0.00000000
-0.36502897 0.37794777 0.17466339
0.59208542 -0.18737470 -0.00000078
-0.23375371 -0.18795920 0.00000000
0.79380212 -0.55087276 -0.00000062
-0.13859524 0.59557959 0.20162315
-0.18580255 0.21384071 0.00000000
0.45949633 0.14014985 -0.00000079
-0.25369852 0.52975599 0.05068007
0.30830054 0.24419166 -0.00000033
0.08207856 -0.36415221 0.00000000
-0.57383152 -0.12907859 -0.00000040
0.13344768 0.02536747 0.00000961
0.03395771 -0.28771896 0.00000000
-0.54298545 -0.69868559 0.00000000
0.57349174 -0.54634478 -0.00000007
-0.26569088 -0.40651519 0.00000000
-0.03866902 0.02005430 0.00000000
-0.38965498 0.34644735 0.19571964
0.76188981 -0.00051852 -0.00000184
-0.20649922 -0.63016581 0.00000000
-0.35620983 0.36339919 0.24623879
0.08346347 0.26275795 0.00000680
-0.01938159 0.49295683 0.00000000
-0.14099881 0.62149120 0.11489516
-0.27764184 0.43829333 0.25749115
0.14810832 0.51357607 -0.00000013
-0.01084024 -0.24535349 0.00000000
0.15976698 0.26999564 0.00000000
0.43788388 0.23514951 -0.00000087
0.36075453 0.11604896 -0.00000033
-0.49422743 -0.75416127 0.00000000
0.04701955 0.54777633 0.00000307
0.70137881 -0.01693098 -0.00000155
0.58887598 0.07560482 -0.00000123
-0.77080502 -0.78431097 -0.00000002
0.05943018 0.26878091 0.00000707
0.49311986 0.05484986 -0.00000079
-0.00674217 0.03817162 0.00000000
0.12697661 -0.24029873 0.00000000
-0.26867713 -0.37734299 0.00000000
0.25272363 -0.67093514 0.00000000
-0.51997316 -0.68664396 0.00000000
0.59259110 0.15169689 -0.00000055
0.21602080 0.25217004 0.00000000
-0.30750775 0.48530179 0.02202490
0.38632782 0.10243448 0.00000423
0.29741526 0.01374939 0.00000731
0.06878403 0.70288349 -0.00000012
-0.60758237 -0.34181734 -0.00000029
0.03267611 0.23878056 0.00000793
-0.00123418 -0.09918806 0.00000000
-0.06869412 -0.58540577 0.00000000
-0.06138844 0.01239018 0.00000000
0.76494265 -0.14464781 -0.00000159
0.29507681 0.49734942 -0.00000072
0.32691441 -0.15548317 0.00000000
0.18345226 0.04104396 0.00000862
0.16056415 -0.34584057 0.00000000
0.16180205 0.11023179 0.00000791
-0.35891889 0.29968695 0.43308851
-0.62446591 -0.73813953 0.00000000
0.08756763 -0.16409507 0.00000000
-0.35086606 -0.57590977 0.00000000
-0.17449431 0.57535250 0.15362089
0.73076910 -0.25275107 -0.00000126
-0.63963099 -0.35667692 -0.00000034
-0.12285670 -0.68975173 0.00000000
0.36232944 -0.46533970 0.00000000
-0.56449510 0.19222371 0.13256934
0.10542570 -0.44466275 0.00000000
-0.50435256 0.25859757 0.11348317
-0.33428786 0.34410405 0.37248462
0.02909453 -0.46268370 0.00000000
-0.55380901 -0.32962984 -0.00000018
-0.04981573 -0.47686153 0.00000000
0.08321864 -0.28671619 0.00000000
0.00931876 -0.78040052 0.00000000
0.19950471 0.09159921 0.00000762
0.09294880 -0.65037143 0.00000000
-0.23858109 -0.58238546 0.00000000
0.71311551 -0.68320565 -0.00000029
0.26279112 0.44853265 -0.00000050
-0.50330605 -0.65431340 0.00000000
-0.54875023 0.17502666 0.23347135
0.67364902 -0.18745751 -0.00000113
0.18611792 0.08817162 0.00000787
0.59344415 -0.27051432 -0.00000064
0.06921241 0.24987458 0.00000000
0.12215364 0.39265191 0.00000427
-0.38585170 -0.43172882 0.00000000
0.68931651 -0.50290839 -0.00000064
0.41383765 -0.49613781 0.00000000
-0.05212835 0.73804143 0.03011281
0.26687884 -0.42894148 0.00000000
0.00878605 0.78398840 0.00000010
0.54992467 0.24337705 -0.00000136
0.29332296 0.14677949 -0.00000010
0.66248726 0.13611491 -0.00000163
-0.61901179 -0.00439481 -0.00000061
-0.36329462 0.07986944 -0.00000014
0.08014489 0.11976639 0.00000899
0.09488847 0.58350788 0.00000179
-0.14804616 0.53138858 -0.00000008
-0.55450983 -0.14122174 -0.00000035
-0.26992913 0.48943740 0.12446192
0.18954762 0.58189229 -0.00000042
0.30069107 0.49601013 -0.00000070
-0.03205125 0.60085235 0.00000000
-0.60787527 -0.78423887 0.00000000
-0.31695802 -0.21685130 0.00000000
-0.34342041 0.37937001 -0.00000036
-0.40426335 0.35072883 -0.00000047
0.01264433 -0.35297015 0.00000000
0.17100945 -0.24665684 0.00000000
0.02961529 0.69382938 0.00000000
0.16676407 0.04818266 0.00000000
-0.07881985 0.19120216 0.00000000
0.47584634 -0.22351051 -0.00000022
0.06997804 0.51587249 0.00000000
-0.30376175 0.46240437 -0.00000035
0.58561920 -0.25763781 -0.00000063
0.68851846 0.00878850 -0.00000154
-0.26584539 -0.61098186 0.00000000
0.65316254 -0.27544836 -0.00000089
-0.49563875 -0.36827490 -0.00000003
-0.37405426 0.34941938 0.23440174
0.48561775 0.02948584 -0.00000071
0.77263615 -0.66085015 -0.00000035
0.50273358 0.24781850 -0.00000117
0.47218700 -0.51436827 0.00000000
0.17525582 -0.56621158 0.00000000
0.08373293 -0.48834665 0.00000000
-0.64724611 0.09925407 0.16386850
0.04948017 -0.50559203 0.00000000
-0.60640943 0.13516087 0.17896918
0.46905321 0.11703500 0.00000240
0.64391951 0.15382454 -0.00000161
-0.16550448 -0.62272344 0.00000000
0.58030472 -0.60200723 0.00000000
-0.30447421 0.18485183 -0.00000011
-0.39143491 0.36563336 -0.00000045
0.02055396 -0.38038792 0.00000000
0.42382467 -0.36205532 0.00000000
-0.57083562 -0.65822995 0.00000000
0.47340386 -0.78045636 0.00000000
0.46815970 -0.18417722 -0.00000026
-0.48678152 -0.22981770 -0.00000013
-0.54457556 0.21053547 0.13749420
-0.02533287 -0.43459079 0.00000000
-0.15360252 -0.49583724 0.00000000
-0.76678913 -0.65108143 -0.00000019
-0.56582062 -0.38887509 -0.00000016
0.73896750 0.01124311 -0.00000102
0.06539629 0.31889549 0.00000623
0.05264025 0.53526564 0.00000318
-0.33631797 -0.53302906 0.00000000
-0.30919173 -0.63051596 0.00000000
-0.57282177 0.16052069 0.20417154
0.54510146 -0.53170472 0.00000000
-0.07560110 -0.39898142 0.00000000
0.57384527 0.10747648 0.00000055
0.06391268 0.40285265 0.00000000
0.13752775 0.22717462 0.00000000
0.02130273 0.75930997 -0.00000002
-0.12937564 0.47566982 0.00000000
0.53069111 0.06325025 0.00000212
-0.65071776 -0.22014627 -0.00000049
-0.17585911 0.31199017 0.00000000
-0.65264924 0.12679456 0.06296140
0.53724357 -0.59970195 0.00000000
-0.16150337 0.60590073 0.09984366
-0.58427026 -0.46295692 -0.00000013
0.27831980 -0.23058645 0.00000000
-0.50921216 0.09752813 -0.00000047
0.50079132 0.26689895 -0.00000071
-0.42037963 -0.35766909 0.00000000
-0.20285298 0.51753847 0.24384132
-0.13129921 -0.40276872 0.00000000
0.33117676 -0.33883904 0.00000000
-0.36056433 -0.09290923 0.00000000
0.18255447 -0.50629445 0.00000000
0.54651056 -0.66785245 0.00000000
0.22493441 0.20106636 0.00000559
-0.79704676 -0.58905630 -0.00000026
-0.20099567 0.53218202 0.20467771
0.24783640 -0.62403988 0.00000000
0.79346916 -0.43634702 -0.00000091
0.28385667 -0.37420446 0.00000000
-0.72898143 -0.21117599 -0.00000066
-0.76803498 -0.68136422 -0.00000015
0.47766027 -0.17443475 -0.00000032
0.50965569 0.11660858 -0.00000097
0.68773450 -0.14655631 -0.00000126
0.32166382 -0.76128526 0.00000000
-0.08481971 -0.19363600 0.00000000
0.01008660 -0.66447127 0.00000000
-0.42173334 -0.54330531 0.00000000
0.54018720 0.08610722 0.00000155
-0.01919386 -0.20194345 0.00000000
0.06865365 0.32094027 0.00000000
0.32874003 0.32316991 -0.00000056
0.12344791 0.55675155 0.00000169
0.65978158 0.03685629 0.00000008
0.74556941 -0.79820430 -0.00000000
0.05572687 0.10439322 0.00000000
-0.57057377 -0.08129706 -0.00000044
-0.06206101 -0.75111143 0.00000000
0.71959313 -0.56330664 -0.00000059
-0.51452424 -0.02816019 -0.00000037
-0.18509351 -0.02770928 0.00000000
-0.77370480 -0.72494628 -0.00000009
0.19688145 0.55772141 0.00000027
-0.36832353 -0.02783430 -0.00000005
0.09291087 -0.71543660 0.00000000
0.12519766 -0.22479162 0.00000000
0.76149675 -0.37467627 -0.00000106
-0.35137324 -0.71285110 0.00000000
0.18738647 0.26808484 0.00000515
0.71633178 -0.46905700 -0.00000081
0.51612392 -0.43732354 -0.00000002
0.14384980 0.17300127 0.00000000
-0.52239998 0.08355312 -0.00000048
0.22875274 0.46992318 -0.00000039
0.44488649 -0.03911591 -0.00000042
-0.10082146 -0.67337965 0.00000000
-0.34239356 -0.05543223 0.00000000
-0.74128741 0.02821892 -0.00000090
0.43675170 0.30054206 -0.00000098
0.22134602 0.57308671 -0.00000054
-0.28966802 0.35444330 -0.00000022
-0.32853499 -0.52049759 0.00000000
0.03392399 0.30706381 0.00000688
0.27553236 0.15953090 0.00000541
-0.69448704 0.06908353 0.11158108
-0.39403245 0.30747925 0.30167023
0.45669827 0.33589888 -0.00000113
0.63988425 0.01486999 0.00000083
0.50714123 -0.47992552 0.00000000
-0.30101881 0.36295510 0.41664602
-0.59840460 -0.20536918 -0.00000039
0.11191879 0.05299973 0.00000952
0.40835157 0.03584150 -0.00000039
0.66721384 0.05191290 -0.00000032
0.06953618 0.19616881 0.00000801
-0.04826730 0.02194330 0.00000000
0.27369796 -0.79770067 0.00000000
-0.24745709 0.44641948 -0.00000022
-0.12192664 0.59792330 -0.00000008
0.01558899 0.34628130 0.00000657
-0.16254348 -0.67822280 0.00000000
0.06161363 -0.02140201 0.00000000
0.61199945 -0.35558757 -0.00000057
-0.68971565 -0.44549780 -0.00000037
-0.03197419 0.19398410 0.00000000
-0.28685395 0.29501450 -0.00000017
-0.60860578 0.16224776 0.08927393
-0.36801798 0.37773902 0.16614737
0.47782532 -0.11041683 -0.00000043
-0.06471169 0.46184310 0.00000000
0.46977759 0.29533811 -0.00000059
0.28305011 -0.13055618 0.00000000
0.25151389 0.33463239 0.00000294
-0.75927383 -0.36708674 -0.00000054
-0.45289832 -0.51769828 0.00000000
-0.05454702 -0.24091083 0.00000000
0.16172964 -0.70394845 0.00000000
-0.00923474 -0.65727391 0.00000000
-0.49358419 0.20518201 -0.00000053
0.22510737 -0.53685015 0.00000000
0.07958161 -0.06597955 0.00000000
0.72946346 -0.58141066 -0.00000055
-0.37776824 0.31736222 0.32121556
0.52270808 0.16444233 0.00000058
0.68903057 -0.35470708 -0.00000090
0.17413866 0.30235670 0.00000484
-0.35890211 -0.43938342 0.00000000
-0.36124724 -0.58051887 0.00000000
0.70419881 -0.32006166 -0.00000103
0.47068022 -0.25977966 -0.00000014
-0.55932843 -0.53420281 -0.00000001
-0.33811555 -0.75490924 0.00000000
0.33262596 -0.40850930 0.00000000
0.59717299 -0.46537542 -0.00000031
-0.24935393 0.11909644 0.00000000
0.68459869 -0.35993301 -0.00000087
0.41565980 -0.64697355 0.00000000
0.62646915 0.13293732 -0.00000149
0.61744033 -0.78136473 0.00000000
-0.60167996 -0.64365809 -0.00000001
0.16251845 0.15027002 0.00000000
-0.25387390 0.44518113 0.30919403
-0.43621989 -0.77192363 0.00000000
0.39061692 0.25548684 0.00000159
-0.29681396 -0.57724205 0.00000000
0.30932255 -0.71944596 0.00000000
-0.10870333 -0.41584031 0.00000000
-0.40412716 0.26477559 0.40154987
0.27545079 -0.15186055 0.00000000
0.09155857 0.63651287 -0.00000010
0.01996188 -0.47132337 0.00000000
-0.27212488 -0.03596951 0.00000000
0.44410189 0.16641306 -0.00000078
-0.60500145 0.19133028 0.01123371
-0.25052093 0.02881778 0.00000000
0.64653703 -0.09861915 -0.00000117
-0.09802931 -0.07614914 0.00000000
-0.18818631 0.52050938 0.27966476
0.44257214 -0.00190122 -0.00000047
0.35646669 -0.77019593 0.00000000
0.64811887 -0.22541970 -0.00000095
0.61737174 0.01349529 0.00000128
0.48845856 0.05636672 0.00000304
-0.08278730 0.53226395 0.00000000
0.20860174 0.01032449 0.00000870
0.77252767 0.01916260 -0.00000192
0.10977822 0.35317684 0.00000000
0.50988087 -0.79344636 0.00000000
0.25960450 0.30580926 0.00000327
-0.05893114 -0.07280885 0.00000000
0.70929365 -0.56469316 -0.00000059
0.25493225 0.16795648 0.00000000
-0.72506736 -0.51131893 -0.00000036
0.74032099 -0.58597300 -0.00000054
-0.43798323 0.33516243 0.08225466
-0.14709262 0.57589469 0.23589002
-0.49186994 -0.79755158 0.00000000
0.56071712 -0.50644096 -0.00000008
0.42134574 0.04793056 0.00000447
-0.51096372 -0.23426888 -0.00000018
-0.16853530 -0.71909889 0.00000000
-0.44145430 0.01841731 -0.00000025
0.78653757 -0.68231657 -0.00000029
0.04905514 -0.56906755 0.00000000
-0.07437915 0.49571059 0.00000000
-0.31482809 0.40835465 0.23529244
0.69421978 -0.65873691 -0.00000035
0.21680646 -0.49362915 0.00000000
0.18023717 -0.33221524 0.00000000
0.21525221 -0.11432710 0.00000000
-0.55953445 -0.52113583 -0.00000003
0.75878022 -0.67391692 -0.00000032
0.50831074 -0.28140118 -0.00000026
0.06277453 0.31412954 0.00000634
-0.47377657 -0.53350765 0.00000000
0.56572605 0.08100535 -0.00000114
-0.10304404 -0.60006280 0.00000000
0.49886690 -0.32626849 -0.00000014
-0.13950002 0.11532819 0.00000000
-0.09592893 0.00874625 0.00000000
-0.40650970 -0.69738252 0.00000000
-0.23632353 -0.34269297 0.00000000
-0.37441495 0.27318660 0.46679421
0.20265641 0.54018534 0.00000045
0.11650686 0.38617839 0.00000445
-0.25654053 -0.39801351 0.00000000
-0.07359066 -0.62820172 0.00000000
-0.08621403 0.68047819 0.10202367
0.28709179 0.04614519 0.00000698
0.52011896 -0.26094520 -0.00000034
0.09788660 0.66861359 -0.00000019
-0.37679659 0.31172809 0.34144870
-0.40050760 -0.46195878 0.00000000
0.52265657 -0.31597800 -0.00000026
-0.70327821 -0.45807373 -0.00000039
0.74811196 -0.06452412 -0.00000166
-0.31481863 -0.47654094 0.00000000
-0.00095999 0.42777297 0.00000000
0.01962224 -0.10997042 0.00000000
-0.52583827 -0.28047291 -0.00000017
0.25997957 0.30048155 0.00000335
-0.22621905 0.14545187 0.00000000
-0.74830456 -0.11293201 -0.00000079
-0.75114853 -0.01169932 -0.00000089
-0.45313748 0.22248185 0.38097760
0.12284984 -0.25916703 0.00000000
-0.59818641 0.16550595 -0.00000072
-0.12832443 0.29257888 0.00000000
-0.30144463 0.45784109 -0.00000034
-0.14249780 0.15978548 0.00000000
0.07636186 -0.19106252 0.00000000
-0.12507925 -0.08510826 0.00000000
0.26836508 0.46099572 -0.00000055
-0.25960375 -0.53417672 0.00000000
0.07283980 0.14402045 0.00000000
0.72572067 -0.01465273 -0.00000166
-0.04340512 -0.46599563 0.00000000
-0.14609066 0.63993115 -0.00000017
-0.20184855 -0.42056630 0.00000000
0.15150893 -0.61297537 0.00000000
-0.03646650 0.61030637 0.00000000
-0.37637237 0.15873722 -0.00000024
0.17722637 0.44847830 0.00000247
0.04862268 0.68383704 0.00000101
-0.74590012 -0.58555416 -0.00000027
-0.23314628 -0.26652690 0.00000000
-0.71279804 -0.29277970 -0.00000056
0.02038874 0.69076571 0.00000133
0.21459326 0.56123839 -0.00000049
-0.33288870 -0.24052665 0.00000000
0.02755781 0.27903931 0.00000000
0.05123848 0.59053771 0.00000000
0.08279251 0.61485279 0.00000150
-0.51784039 -0.31159321 -0.00000012
0.24785558 0.33998556 0.00000292
-0.44875925 -0.25507376 -0.00000003
0.32242954 -0.26388832 0.00000000
0.45232080 0.20776313 0.00000121
-0.34589279 -0.45287329 0.00000000
0.03102693 -0.09396087 0.00000000
-0.09192662 0.51279617 0.00000000
-0.07444396 -0.20730283 0.00000000
-0.75870337 -0.29867992 -0.00000063
-0.34826414 0.32624225 0.38438588
0.07106209 -0.49009255 0.00000000
0.33779216 -0.72688105 0.00000000
-0.04775622 -0.18626226 0.00000000
-0.36525919 0.34331504 0.28003788
-0.28961856 -0.67308200 0.00000000
0.26394196 -0.62723174 0.00000000
-0.78199208 -0.39041186 -0.00000051
-0.71469206 0.07854330 -0.00000089
0.18522288 0.13029857 0.00000725
0.47225027 0.06146293 -0.00000071
-0.00873539 0.68007059 0.00000000
-0.29561206 0.03161277 0.00000000
-0.32842421 0.32523995 0.44822443
0.24610664 0.16610215 0.00000000
-0.12367616 -0.15189893 0.00000000
-0.67999101 -0.12235660 -0.00000064
0.11547396 0.34779009 0.00000504
0.14412910 0.50612592 -0.00000010
0.11967376 0.39696516 0.00000424
0.10563535 0.03620406 0.00000986
0.00182459 -0.04245475 0.00000000
0.51115119 0.15639846 -0.00000104
-0.03027026 -0.61582315 0.00000000
0.03725675 -0.16179325 0.00000000
-0.32404853 -0.37572179 0.00000000
0.05510121 0.24278801 0.00000000
0.70773220 -0.41093652 -0.00000088
0.01009189 0.46121592 0.00000493
0.18073743 0.42214727 -0.00000010
0.04546475 -0.52097778 0.00000000
-0.07636494 -0.59693868 0.00000000
0.07464698 0.18357669 0.00000812
0.30121094 -0.16688963 0.00000000
-0.40028447 -0.39674424 0.00000000
-0.29015052 0.13097319 -0.00000003
0.53997029 0.14677592 0.00000054
0.29538218 -0.73552561 0.00000000
-0.47015372 0.26461502 0.19980373
-0.56862910 0.18333427 0.14713531
-0.35740421 -0.18066740 0.00000000
0.10002851 -0.71510998 0.00000000
-0.22781816 0.26892477 -0.00000002
0.46631353 -0.71304540 0.00000000
-0.33500975 -0.35198471 0.00000000
0.75678740 -0.03907090 -0.00000175
-0.40174837 -0.64007045 0.00000000
-0.48997139 -0.47776951 0.00000000
0.18232530 0.46954461 -0.00000019
0.09529769 -0.04408958 0.00000000
-0.69470540 -0.43329419 -0.00000039
-0.64648156 0.01237084 -0.00000068
-0.65113362 -0.02624566 -0.00000066
-0.41575439 0.32830149 0.17135752
-0.03031738 0.71847707 0.00000000
-0.16797497 -0.75885360 0.00000000
-0.10660309 -0.71168195 0.00000000
0.10105032 0.40802103 0.00000000
-0.18287157 0.55480059 0.19091127
0.54196984 -0.05388621 -0.00000080
0.41712042 -0.33874924 0.00000000
-0.17003607 0.55500151 0.22961029
-0.48470855 -0.74737910 0.00000000
0.42061669 -0.35924720 0.00000000
0.19932004 0.22235562 0.00000566
-0.32816065 0.32168255 0.45992787
-0.49701194 0.24564238 0.17564978
0.10606596 -0.65291090 0.00000000
0.48736354 -0.78085561 0.00000000
0.24892681 0.46773296 0.00000077
0.11650732 0.34509140 0.00000507
0.05992199 0.14752259 0.00000000
0.50385442 -0.00249950 -0.00000073
-0.30385727 0.45836043 0.11572842
-0.32337474 0.20491530 -0.00000016
-0.41999865 -0.10675889 -0.00000009
-0.56292995 -0.56839587 0.00000000
-0.39434462 -0.45464676 0.00000000
0.69226147 -0.24199721 -0.00000111
-0.60058676 -0.24997864 -0.00000035
0.08938498 -0.15748247 0.00000000
0.76698920 -0.70392297 -0.00000024
0.37192419 0.17881186 -0.00000049
-0.57366950 0.14268545 -0.00000064
-0.34414457 -0.29216069 0.00000000
-0.28398890 0.37493073 0.43212692
-0.73265548 -0.79273691 -0.00000001
-0.65151351 0.14171392 0.02074182
-0.47917426 0.31336291 -0.00000059
0.24332926 0.01189929 0.00000000
0.06975894 0.46830107 0.00000392
0.21192454 0.27632370 0.00000466
0.04738270 0.44418032 0.00000000
0.70701569 -0.44460390 -0.00000082
-0.20086243 0.48491998 0.34984710
0.79177575 -0.09007169 -0.00000177
-0.40768599 0.33224714 0.18398566
-0.47370630 -0.51522779 0.00000000
0.58629416 0.15981581 -0.00000057
0.32963571 0.41120533 -0.00000072
-0.49767422 0.19165252 0.33899277
-0.36528741 0.03291687 -0.00000010
-0.20083999 -0.28783813 0.00000000
0.26829439 -0.09968484 0.00000000
-0.31292362 -0.66395684 0.00000000
0.03701154 0.74600797 -0.00000006
-0.47602065 -0.78811164 0.00000000
-0.79037626 -0.32499308 -0.00000059
0.05831315 -0.03789898 0.00000000
-0.29956286 0.37138560 0.39528333
-0.21990801 0.52553906 0.16709732
-0.15619561 -0.16083409 0.00000000
0.37313495 0.00376589 0.00000613
-0.20658008 0.48366301 0.33618427
0.39016203 -0.70647650 0.00000000
-0.66978318 0.12973744 0.00146546
0.27360135 0.40573635 0.00000133
0.37271438 -0.44648730 0.00000000
0.10712199 0.68178360 -0.00000025
0.38999997 0.40668873 -0.00000097
-0.77830868 -0.66115555 -0.00000017
-0.30293810 0.07500163 -0.00000001
0.17292042 0.54496159 -0.00000029
-0.19932405 -0.73059938 0.00000000
-0.62496321 -0.09869848 -0.00000054
-0.00510680 0.59163757 0.00000000
0.05522190 -0.77758733 0.00000000
0.75508837 -0.29961200 -0.00000125
-0.14604133 0.59573331 0.17834533
-0.33247024 0.39619037 0.21851410
-0.38643286 0.38167199 -0.00000045
0.60715246 -0.37474668 -0.00000051
-0.61551958 -0.42732589 -0.00000023
-0.24478087 0.43949927 0.35444875
-0.62756782 -0.18084288 -0.00000047
0.12262664 -0.25638394 0.00000000
0.22014005 0.22050088 0.00000000
-0.78109507 -0.03968670 -0.00000092
0.00406042 0.41762056 0.00000567
-0.72348851 -0.66063672 -0.00000017
-0.15175653 0.58568918 0.19160468
0.41983773 0.09273661 0.00000375
0.28854926 -0.73373798 0.00000000
-0.30240359 -0.46315509 0.00000000
0.12301423 0.29274993 0.00000000
0.27453896 0.13259971 0.00000000
-0.79548483 -0.18882557 -0.00000076
0.11563213 0.62782192 -0.00000019
-0.22975659 0.52218919 0.14719217
-0.60045780 -0.50681231 -0.00000013
-0.02259561 0.04282491 0.00000000
-0.30501109 -0.13606297 0.00000000
-0.22862729 -0.39290096 0.00000000
0.73439604 -0.22575791 -0.00000132
0.22530720 -0.27285801 0.00000000
0.07602223 0.51597619 0.00000311
-0.45168189 0.32226231 0.07980858
-0.13618424 -0.76293218 0.00000000
0.54025702 0.11136708 -0.00000109
0.19626412 0.13693178 0.00000698
-0.42546739 -0.03333472 -0.00000017
0.36249044 0.10667272 0.00000462
-0.45253920 -0.70959984 0.00000000
0.14328004 -0.34663483 0.00000000
0.17234076 -0.35274142 0.00000000
0.15650839 0.09502771 0.00000821
-0.18230952 -0.47235607 0.00000000
-0.55585963 -0.78448896 0.00000000
-0.09858767 -0.53032817 0.00000000
-0.17949446 -0.28962838 0.00000000
-0.44620730 -0.25416850 -0.00000002
0.56276951 -0.34787202 -0.00000037
-0.54344609 0.21257389 -0.00000064
-0.35944911 -0.43833642 0.00000000
0.13823244 0.15743873 0.00000000
-0.70113194 0.06925986 -0.00000085
0.35096463 0.24025047 -0.00000051
0.29881927 0.14344228 -0.00000011
0.31624206 -0.66193919 0.00000000
0.69940506 -0.34483134 -0.00000096
0.64521714 -0.75893996 0.00000000
0.05712840 0.16198501 0.00000000
0.19310068 -0.57895703 0.00000000
-0.53456922 -0.40553466 -0.00000008
-0.18452913 -0.52189821 0.00000000
-0.36780902 0.40517447 0.08275199
0.03917304 0.13853750 0.00000000
0.14555671 0.54293219 -0.00000017
-0.27815532 0.15544126 -0.00000002
-0.40768389 0.34912434 -0.00000047
0.28135945 0.18238901 0.00000491
-0.36556144 -0.41736971 0.00000000
-0.37968370 -0.64764472 0.00000000
-0.48319202 -0.62893089 0.00000000
-0.08781823 -0.23250607 0.00000000
0.55484379 -0.06129070 -0.00000085
-0.67928213 -0.34555681 -0.00000044
0.29001255 -0.38052732 0.00000000
0.47055452 -0.12518292 -0.00000037
0.50206129 -0.52023692 0.00000000
0.51421413 -0.17037395 -0.00000048
-0.13391831 -0.14104696 0.00000000
-0.67817451 -0.08124308 -0.00000067
0.47825588 -0.32753597 -0.00000005
0.27293896 -0.47327887 0.00000000
-0.58677587 -0.57570855 -0.00000004
0.00527776 0.54337938 0.00000000
-0.38509464 0.35898291 0.17129138
-0.09407920 -0.24481976 0.00000000
0.76384888 -0.62054177 -0.00000045
-0.00069520 -0.74874467 0.00000000
-0.74420229 -0.40520014 -0.00000049
0.29163739 0.43191107 -0.00000059
-0.20514105 0.45426444 -0.00000013
-0.13545906 -0.08025541 0.00000000
-0.10388413 0.69516148 -0.00000013
-0.70537831 0.00259497 -0.00000080
-0.21280968 -0.04148472 0.00000000
0.00991518 0.09581637 0.00001041
0.16014316 0.58976679 0.00000044
-0.33080566 -0.52295783 0.00000000
-0.44875224 -0.49006939 0.00000000
0.10459392 0.12496576 0.00000855
0.21664137 0.05733397 0.00000000
0.27802964 0.00044167 0.00000780
-0.36346381 -0.52414281 0.00000000
-0.52696918 0.25787700 0.04641489
-0.39654123 0.24452020 -0.00000036
-0.54209310 -0.01133011 -0.00000044
-0.53385210 0.18330446 0.25374969
0.08141104 -0.75546748 0.00000000
-0.48249540 -0.37211595 0.00000000
0.02018526 -0.03780703 0.00000000
-0.60205684 0.17362434 0.07448685
-0.01104289 0.29185883 0.00000000
-0.21035143 -0.36463525 0.00000000
0.67609293 -0.27828791 -0.00000098
-0.38787004 0.30027187 0.34262119
0.66645549 -0.44720583 -0.00000064
0.54168102 0.08261326 0.00000158
-0.54471523 0.18841329 0.20482711
0.06099009 -0.00277211 0.00000000
-0.69822270 -0.40722342 -0.00000042
-0.63266009 0.14156486 0.07894704
0.34923554 0.40013103 -0.00000003
0.19654245 0.33436204 0.00000400
0.55363898 -0.21552739 -0.00000057
-0.51655102 0.28082550 -0.00000064
-0.41016251 -0.08281543 -0.00000009
0.24241215 -0.71356937 0.00000000
0.24630076 -0.42789089 0.00000000
0.23559643 -0.01253734 0.00000000
-0.57904020 -0.76498101 0.00000000
0.05158904 0.44578898 0.00000453
-0.31535717 -0.05692809 0.00000000
-0.45235642 0.22253465 -0.00000045
0.14451217 -0.06813505 0.00000000
0.63361510 -0.34172170 -0.00000069
0.02812649 0.35244352 0.00000629
-0.18916377 -0.35430646 0.00000000
