ply
format ascii 1.0
element vertex 1381
property float x
property float y
property float z
end_header
-0.29218846 0.38211619 0.00000010
-0.33885036 0.06003014 0.00608581
-0.02480077 -0.05993051 0.00000084
-0.40012227 -0.26804935 0.00000637
-0.72455519 -0.75237160 -0.00000012
-0.12100168 0.15881463 0.00000243
-0.38961415 0.27331635 0.03223526
-0.35436926 0.17221404 0.01773783
-0.69877909 -0.23645508 -0.00000109
-0.65836193 0.05013366 -0.00000132
-0.69233735 -0.70611655 -0.00000023
-0.08361972 -0.51729456 0.00000018
-0.16634945 0.14282622 0.00000753
-0.20822658 -0.45472490 0.00000022
-0.71606836 -0.47264879 -0.00000080
-0.25643863 -0.73830632 0.00000391
-0.05795940 -0.70886378 0.00000093
-0.20006356 -0.02022908 0.00000351
-0.33684105 -0.78084045 0.00000509
-0.49547659 -0.16294944 0.01816809
-0.31505498 -0.17027203 0.00000515
-0.12015406 0.11809191 0.00000057
-0.00694386 0.19761645 -0.00000858
-0.53415315 -0.50100664 0.00000019
-0.73894157 -0.63699158 0.02702679
-0.36397613 0.07187413 0.00000021
-0.41827476 -0.71276783 0.00000637
-0.67611138 0.10834375 0.07324793
-0.38956437 0.11409472 0.01982424
-0.36203584 0.40401196 0.03722648
-0.38799895 0.39685543 0.04155042
-0.72986362 -0.09212850 0.06774376
-0.34475001 -0.11151434 0.00000043
-0.37934326 0.28881139 0.03150892
-0.74215305 -0.16568043 -0.00000143
-0.52040311 0.01610630 0.00000312
-0.56264954 0.09930333 0.00000102
-0.14748075 0.22240665 0.00000064
-0.44499196 -0.31895927 0.00000030
-0.61845057 -0.74387051 0.00000937
-0.15014833 0.41029980 0.00000076
-0.11505061 0.33041720 0.00000572
-0.57385677 -0.74813409 0.00000003
-0.72014771 -0.42977415 0.03962807
-0.63778667 -0.11382910 -0.00000095
-0.00570888 -0.49746534 0.00000028
-0.32246545 0.37148362 0.02725397
-0.51215544 -0.32279239 0.00000005
-0.53222004 0.23964107 0.05642089
-0.66722390 -0.45905774 0.02739909
-0.30858891 0.48346171 -0.00000003
-0.65967003 -0.42123965 0.02892360
-0.32692611 0.15270181 0.00000028
-0.42732434 0.03075844 0.00000468
-0.10880040 0.16286640 0.00000224
-0.46503236 -0.29725317 0.00000026
-0.53011433 0.20357673 0.00000004
-0.03453391 0.08832217 0.00000108
-0.43319349 -0.11621725 0.01009832
-0.01587336 -0.23088675 0.00000036
-0.63893342 -0.25516652 -0.00000074
-0.12706281 -0.20219650 0.00000229
-0.10199873 -0.23002411 0.00000036
-0.08271189 0.18204145 0.00000186
-0.50056946 0.28313856 0.05385808
-0.17643964 -0.45096068 0.00000022
-0.22931642 -0.64473761 0.00000356
-0.23173783 0.13737129 0.00000059
-0.44388338 0.04791335 0.02488715
-0.18534716 0.41891790 0.00000333
-0.28981782 -0.48064045 0.00000020
-0.17718034 0.13950349 0.00000059
-0.41218016 0.00446216 0.00000538
-0.28330993 0.31636297 0.01560006
-0.78112474 -0.03585035 -0.00000184
-0.29676498 0.27366146 0.00000025
-0.26586507 0.35729253 0.01550783
-0.11179433 0.57902186 0.00380964
-0.16739714 0.39665907 0.00006505
-0.72032123 -0.22675312 -0.00000122
-0.14035524 0.33899909 0.00000522
-0.41958123 0.02598998 0.00000490
-0.04599354 0.54850510 -0.00000170
-0.54002402 0.04226931 -0.00000068
-0.24851256 -0.14433161 0.00000416
-0.34995847 -0.62511101 0.00000011
-0.00869730 -0.48374674 0.00000020
-0.61655140 -0.57587510 -0.00000011
-0.17663082 0.49688008 0.00960410
-0.43674480 -0.22366980 0.00239961
-0.35354190 -0.30427987 0.00000564
-0.13961278 0.65710678 0.01512054
-0.35483224 -0.29458035 0.00000567
-0.11283781 0.46025965 0.00000079
-0.03572245 0.42628961 0.00000077
-0.73612928 -0.23169245 -0.00000129
-0.49815619 0.12102368 0.04077934
-0.08570396 0.48337323 0.00000406
-0.25586754 -0.72163384 0.00000005
-0.54915581 0.02707422 -0.00000070
-0.46036859 -0.40312926 0.00000719
-0.09808068 -0.76022088 0.00000002
-0.28025228 -0.67529238 0.00000431
-0.49237962 -0.25755796 0.00000005
-0.38658869 0.24192569 0.02921980
-0.19444131 0.56289953 0.00000093
-0.29352874 0.03572296 0.00000052
-0.41730926 -0.63016769 0.00000011
-0.13378602 0.13500286 0.00000260
-0.47922913 -0.20028378 0.00000003
-0.07395080 -0.26320710 0.00000034
-0.09751679 0.15707547 0.00000207
-0.58739549 -0.19386833 0.03304021
-0.32754903 0.27904134 0.02101362
-0.10758282 0.29256802 0.00000068
-0.70788762 -0.79748844 -0.00000001
-0.13239711 0.54268491 0.00000070
-0.22754785 0.55122470 0.02340681
-0.79789984 -0.38724419 -0.00000103
-0.13119678 0.17997276 0.00000755
-0.17458424 0.36976147 0.00000073
-0.42568811 0.22274664 0.03507698
-0.61460879 -0.47826162 0.01601296
-0.05294847 -0.32946250 0.00000109
-0.21028934 0.24949760 0.00000540
-0.44003120 0.15643795 -0.00000033
-0.40219424 0.23485947 0.03160339
-0.71631021 -0.37991756 -0.00000095
-0.17027308 0.58371996 0.01516964
-0.27062099 0.51062091 0.02834282
-0.65573100 -0.18958293 -0.00000093
-0.79527354 -0.77941845 0.02652663
-0.07353049 0.55565082 0.00000085
-0.68006912 -0.31834289 -0.00000086
-0.21454890 -0.08025248 0.00000045
-0.65074269 -0.65149464 -0.00000017
-0.46392308 -0.26595385 0.00421650
-0.36980237 -0.20240772 0.00000037
-0.14804493 0.36658733 0.00000473
-0.48322862 0.08529338 0.03519393
-0.10459175 -0.06439578 0.00000204
-0.08985801 -0.46942952 0.00000156
-0.65808498 0.06822458 0.06673451
-0.68703592 -0.71823742 -0.00000020
-0.23891382 0.15073614 0.00000632
-0.61137748 -0.00270928 0.05243222
-0.24762395 -0.41530597 0.00000398
-0.11022094 -0.79888895 0.00000166
-0.57020309 -0.61436362 0.00000872
-0.43758748 -0.15163812 0.00000017
-0.47451829 -0.67193670 0.00000724
-0.50447995 -0.48709027 0.00000020
-0.00732195 -0.41390351 0.00000035
-0.04142739 0.52353044 0.00000418
-0.10596555 -0.00247985 0.00000050
-0.51992976 -0.28004179 0.01364809
-0.39561527 -0.04739226 0.00000023
-0.17633289 -0.30714629 0.00000297
-0.37008027 -0.52830441 0.00000575
-0.51324784 -0.27632370 -0.00000003
-0.15738756 0.51304728 0.00000241
-0.17625009 0.47117676 0.00752889
-0.21542366 -0.76739148 0.00000327
-0.21197215 0.53968754 0.00000028
-0.12781702 0.30468197 0.00000262
-0.30246641 0.06239081 0.00000658
-0.57405041 0.12838255 0.05562211
-0.36010515 0.23874786 0.00000276
-0.26478739 -0.20517449 0.00000037
-0.68013226 -0.10929289 0.05705852
-0.39497692 0.20514623 0.02793563
-0.45100887 0.10198734 0.03043307
-0.00229896 -0.56028079 0.00000018
-0.06484914 -0.13224657 0.00000042
-0.21238916 -0.23439577 0.00000356
-0.22620972 0.36954306 0.00000331
-0.14983321 -0.77563772 0.00000002
-0.44579460 -0.14242797 0.00000012
-0.48437119 -0.53616937 0.00000016
-0.28215648 0.03401468 0.00000727
-0.22684493 0.12017527 0.00000400
-0.76091226 -0.31482838 -0.00000121
-0.46650254 -0.63782811 0.00000010
-0.10154976 0.01433215 0.00001027
-0.24157987 -0.11444778 0.00000043
-0.30085134 0.25588710 0.00000026
-0.26750258 -0.21442507 0.00000037
-0.27740055 -0.04062769 0.00000466
-0.15716750 0.60602580 0.00000098
-0.31834712 0.14666813 0.00897716
-0.33686184 0.29933955 0.00000227
-0.06212952 0.54252114 0.00000360
-0.11557868 0.45040251 0.00000253
-0.40475896 -0.02223390 0.00000014
-0.52641035 -0.64833193 0.00000009
-0.58540638 -0.59322844 0.00000008
-0.27756915 0.02320613 0.00000470
-0.36650664 0.09681782 0.01414388
-0.04469682 -0.13704763 0.00000041
-0.70033695 -0.69034670 0.01561554
-0.49119003 0.20266158 -0.00000067
-0.33448080 -0.46931265 0.00000525
-0.58382191 -0.42504079 -0.00000017
-0.67666564 -0.67354592 0.01247387
-0.32090342 -0.52285624 0.00000017
-0.49551272 0.17171752 0.00000119
-0.00209945 -0.29456390 0.00000032
-0.56810363 -0.29645049 0.02142652
-0.04970395 -0.66136761 0.00000084
-0.38880103 0.02320011 0.00000554
-0.01669346 0.32995399 0.00000096
-0.71389096 -0.15780848 -0.00000129
-0.25941874 0.18047843 0.00000559
-0.38157434 -0.46766125 0.00000597
-0.01038522 0.68330055 0.00000245
-0.44825202 -0.07807431 0.00000000
-0.55722600 -0.29005986 -0.00000025
-0.21565307 0.35917566 0.00621802
-0.26395064 -0.34140119 0.00000029
-0.00454523 0.40240570 0.00000640
-0.11484657 0.00073877 -0.00000852
-0.31976294 0.27144199 0.01895826
-0.66527513 -0.14364266 -0.00000105
-0.79200755 -0.70538754 -0.00000024
-0.18337877 0.27499453 -0.00000200
-0.00574023 -0.29806471 0.00000040
-0.47215034 -0.18017098 0.00000003
-0.10596032 -0.74611844 0.00000003
-0.09900155 0.29599522 0.00000068
-0.77274595 -0.47141701 0.04627322
-0.45983229 -0.22663610 0.00000017
-0.21341090 0.54702141 0.02042228
-0.09995944 0.17984851 0.00000802
-0.73729526 -0.63043946 0.02722747
-0.53967049 -0.06677614 -0.00000051
-0.07678989 0.01330064 0.00000167
-0.12177299 0.51059602 0.00000081
-0.06982056 0.59740972 0.00000273
-0.34972756 0.13222752 0.00000019
-0.44974145 -0.18696817 0.00770041
-0.00830630 -0.16347563 0.00000052
-0.26013186 -0.66672382 0.00000008
-0.45049839 0.20417572 0.03829514
-0.23578306 -0.23814016 0.00000035
-0.02460567 -0.71161616 0.00000006
-0.51144653 -0.42124447 0.00000021
-0.05532407 -0.24848092 0.00000118
-0.25303685 -0.68924242 0.00000389
-0.23789770 -0.15718097 0.00000040
-0.50514881 -0.00606771 -0.00000042
-0.59425152 -0.48006455 -0.00000014
-0.08120178 0.45859114 0.00000079
-0.34195933 -0.40488157 0.00000025
-0.62263402 0.16053337 0.06725843
-0.09273534 0.10682625 -0.00000747
-0.69834122 0.07131913 0.07454408
-0.27149547 -0.47688691 0.00000020
-0.48278729 0.10855787 0.03691917
-0.03683952 -0.48416337 0.00000075
-0.24632492 -0.07604419 0.00000417
-0.31896357 0.17946867 0.01164690
-0.61856595 0.04220900 -0.00000110
-0.66634453 -0.26986285 0.04196457
-0.02309160 0.42467721 -0.00000440
-0.75168779 -0.10827754 -0.00000157
-0.27022146 -0.27542763 0.00000441
-0.04879985 -0.74501293 0.00000003
-0.49094195 0.14036223 0.00000177
-0.07605539 -0.30720745 0.00000146
-0.60080669 -0.27484028 0.02925682
-0.15316908 0.34924547 0.00000489
-0.09807943 -0.61457668 0.00000012
-0.04503515 0.00839734 0.00000051
-0.54415651 0.00111407 0.04009330
-0.43215740 0.20508289 0.03491764
-0.01510383 0.06378676 0.00000077
-0.06142437 0.46845216 0.00000172
-0.21064801 -0.58286989 0.00000014
-0.62728162 -0.21616279 -0.00000074
-0.44791931 0.32560023 -0.00000064
-0.04884065 0.01594276 0.00000051
-0.19655167 0.36300945 0.00292197
-0.57546728 -0.74053830 0.00000872
-0.19925741 -0.06026944 0.00000046
-0.53930663 0.02044992 0.04068708
-0.02846642 -0.21868698 0.00000036
-0.29746646 0.34788310 0.00000013
-0.21973175 0.06394898 0.00000781
-0.26261195 -0.42392061 0.00000420
-0.07930517 0.05618424 -0.00000869
-0.65469363 -0.61197410 -0.00000026
-0.18134588 -0.14193614 0.00000315
-0.10453255 0.03663852 0.00000052
-0.36851417 0.02255067 0.00000594
-0.29265811 0.40880074 0.02455773
-0.17244148 -0.40786899 0.00000285
-0.63567223 -0.11234456 -0.00000095
-0.15509738 -0.29913298 0.00000031
-0.29965407 0.49905543 -0.00000010
-0.37962377 0.07986998 0.00000012
-0.18334777 0.50656602 0.01161925
-0.37109320 -0.46216530 0.00000581
-0.42636438 0.19951532 0.03339761
-0.48918130 0.02823047 0.03186566
-0.70847092 -0.57666163 -0.00000056
-0.38140243 -0.60137743 0.00000012
-0.12114054 0.16404880 -0.00000568
-0.05347278 0.36959229 -0.00000438
-0.09191062 0.59563859 0.00136550
-0.12865173 0.00277254 0.00000244
-0.09451559 -0.23829746 0.00000035
-0.37622444 0.27629929 0.00000187
-0.72098399 -0.56200976 -0.00000059
-0.69285093 -0.69572030 0.01378991
-0.56535619 -0.07056108 0.03849788
-0.52550954 0.05191065 0.04053957
-0.57915954 -0.03071371 0.04419526
-0.08062341 0.37455805 -0.00000348
-0.02572572 0.29371848 0.00000068
-0.54661667 -0.06334931 -0.00000055
-0.22777371 0.40791794 0.00000041
-0.13306704 0.17499589 0.00000759
-0.53057280 -0.14264095 0.02634692
-0.62295529 -0.14162441 0.04379270
-0.71922436 -0.15111307 -0.00000133
-0.17849788 0.54206717 0.00000156
-0.77387603 -0.11547289 0.07419987
-0.03813943 0.36451070 -0.00000493
-0.08786912 0.56178415 -0.00000022
-0.65219706 -0.01513891 -0.00000119
-0.00172984 0.00000409 0.00000050
-0.61872130 -0.18186244 0.03986382
-0.15135674 0.53593802 0.00789225
-0.18681426 0.21550183 -0.00000286
-0.05134745 -0.22312556 0.00000036
-0.11754880 0.39096291 0.00000074
-0.01347710 0.53309930 -0.00000293
-0.64593029 -0.27149224 0.03800012
-0.10791169 0.64104546 0.00000068
-0.27113945 -0.65935156 0.00000418
-0.02915656 0.21916958 -0.00000756
-0.23757759 -0.73807471 0.00000004
-0.21159766 0.09949578 -0.00000400
-0.76602211 -0.67121959 0.02945240
-0.57354314 -0.01872604 -0.00000076
-0.03297161 -0.18165003 0.00000039
-0.12763116 -0.61580016 0.00000204
-0.27282165 -0.33492938 0.00000441
-0.14215996 -0.06083880 0.00000046
-0.19271711 -0.52533751 0.00000308
-0.53944411 -0.30959840 0.01501523
-0.37502532 0.35385770 0.03576270
-0.49764790 0.21823804 -0.00000073
-0.64629212 -0.06808579 -0.00000107
-0.03205198 -0.67637646 0.00000056
-0.58814967 0.03579434 0.05106362
-0.07703634 0.35931557 0.00000189
-0.77384648 -0.32822967 0.05762883
-0.03831878 -0.67667185 0.00000066
-0.42331252 0.00398327 0.00000517
-0.05415671 -0.59481452 0.00000013
-0.63623108 0.13612612 0.06791384
-0.50739275 0.03410017 0.00000309
-0.05760189 -0.44533741 0.00000022
-0.00824303 -0.05019539 0.00000047
-0.52701761 0.27001266 -0.00000093
-0.36510158 -0.28098980 0.00000583
-0.48731721 0.10668239 0.03762789
-0.30488719 0.31804813 0.01978787
-0.69212019 -0.13021212 0.05768331
-0.09685437 0.24787658 0.00000713
-0.44839196 -0.05987412 -0.00000003
-0.07375149 0.39105000 0.00000186
-0.49362424 -0.76961238 0.00000002
-0.09521889 -0.27795862 0.00000176
-0.49606346 0.06596521 0.03609816
-0.07399929 0.71100523 0.00698267
-0.01720014 -0.20409221 0.00000063
-0.75898865 -0.02554948 0.07840273
-0.07227584 -0.58936783 0.00000013
-0.52460259 -0.54272127 0.00000808
-0.37529138 -0.01169698 0.00735151
-0.41052928 0.33760661 -0.00000046
-0.59013348 -0.76520920 0.00000893
-0.63160319 0.06766915 -0.00000121
-0.05163033 -0.70661658 0.00000006
-0.52627576 -0.04764559 0.03293551
-0.24306961 -0.49814324 0.00000019
-0.40587981 -0.17456821 0.00000038
-0.49593931 -0.22420573 -0.00000002
-0.04174523 0.09426040 0.00001007
-0.04709798 0.00683829 0.00000050
-0.00184685 0.63472860 0.00000324
-0.09830327 0.22744812 0.00000064
-0.54775969 0.01527838 0.04186987
-0.38352690 0.28331752 0.03186963
-0.14081260 -0.78370424 0.00000213
-0.51164373 0.07675382 0.03987069
-0.10709310 -0.75700975 0.00000003
-0.41174721 0.36984327 -0.00000026
-0.22867060 0.42842840 0.00000235
-0.06186912 0.41072649 0.00000076
-0.78428961 -0.39002221 0.05478070
-0.14720011 0.28199945 0.00000290
-0.07425918 0.31939776 0.00000070
-0.38415065 0.39045391 -0.00000005
-0.47185376 0.17995055 0.00000152
-0.04867087 0.02382606 0.00001094
-0.59926033 -0.69897156 0.00000006
-0.32734447 0.31645777 0.02388843
-0.76953540 -0.66370015 -0.00000034
-0.46905754 -0.05885485 -0.00000014
-0.62646102 -0.48607440 -0.00000030
-0.30563898 0.45507879 0.00000046
-0.40722518 0.37218039 0.04324348
-0.28388136 -0.02404966 0.00000048
-0.49540714 -0.25196123 0.01122454
-0.40228176 -0.64759001 0.00000617
-0.11668682 0.62338773 0.00818540
-0.01707765 0.69025911 -0.00000027
-0.03004064 0.04507069 -0.00001036
-0.62524474 -0.41151542 -0.00000042
-0.63338957 -0.67577106 -0.00000004
-0.19778189 0.27999574 -0.00000148
-0.73230948 -0.49722232 -0.00000076
-0.30507402 0.15121756 0.00000517
-0.28247491 -0.02545478 0.00000475
-0.69191888 -0.12538602 0.05802123
-0.73460067 -0.43534838 0.04191095
-0.49533096 0.06731537 -0.00000048
-0.47040868 0.08822611 0.00000297
-0.39496865 -0.48502479 0.00000616
-0.33187708 0.32440956 0.02535743
-0.32507788 0.02241552 0.00056102
-0.03937288 0.52287280 0.00000422
-0.54569628 0.10162693 0.04820872
-0.49665410 0.15219888 0.04292475
-0.27642556 0.37576052 0.00000225
-0.10538507 0.05229394 0.00000053
-0.46634797 -0.19653761 0.00000009
-0.57681584 0.17643656 -0.00000044
-0.23531964 0.28570943 0.00000056
-0.25955521 0.04880176 0.00000053
-0.60583033 0.06721381 0.00000069
-0.13201337 -0.14535518 0.00000240
-0.29337766 -0.44621235 0.00000022
-0.77629987 -0.72472565 0.02721838
-0.02285088 0.75165631 0.00053219
-0.50051549 -0.06028307 -0.00000031
-0.69902112 -0.18343159 0.05483690
-0.12481674 0.66603930 0.00000055
-0.18326210 -0.67484886 0.00000008
-0.09030115 0.24068598 0.00000065
-0.11770423 -0.22397067 0.00000214
-0.22503548 -0.54222005 0.00000356
-0.07114144 0.41399697 0.00000523
-0.42245305 -0.22709266 0.00000673
-0.35012480 -0.36017657 0.00000027
-0.16259057 0.37747791 0.00000436
-0.04418373 0.22638001 0.00000822
-0.29967461 -0.45607057 0.00000474
-0.48958864 -0.31226250 0.00000015
-0.00925380 0.63065629 0.00000089
-0.23585351 0.32702246 0.00000049
-0.61512105 -0.10080094 -0.00000085
-0.44050313 -0.05685566 0.00000001
-0.46508271 -0.68324413 0.00000709
-0.37612727 0.29966228 0.03174934
-0.19908161 -0.56228294 0.00000315
-0.45421851 0.13863941 -0.00000038
-0.16387749 0.01485329 0.00000051
-0.39830787 -0.35216191 0.00000028
-0.21069878 0.37028611 0.00000056
-0.12737104 0.13468709 0.00000251
-0.23924011 0.33326318 0.00000362
-0.45456223 -0.52893096 0.00000017
-0.27842956 0.49135879 0.02831055
-0.42482808 -0.04655803 0.01394943
-0.53573693 -0.05059799 0.03448421
-0.12459352 0.63275441 0.01040104
-0.54137751 0.15025020 0.05118268
-0.45176341 0.27689064 0.00000041
-0.10012293 -0.48426775 0.00000171
-0.33791289 0.40116895 -0.00000017
-0.26341614 -0.53763902 0.00000414
-0.25558042 0.36577584 0.00000280
-0.23274647 0.45920348 0.01721790
-0.21505192 -0.37604512 0.00000351
-0.30944532 0.09682004 0.00000046
-0.29568810 0.44167471 0.00000086
-0.13731114 0.26280896 0.00000631
-0.30048715 -0.66097776 0.00000462
-0.75847366 -0.05586224 0.07594575
-0.11770787 0.26555696 0.00000244
-0.69125040 0.04811033 0.07140406
-0.78101193 -0.67166378 -0.00000032
-0.46892949 0.03441900 -0.00000029
-0.46849501 -0.43861442 0.00000729
-0.21734127 0.29422604 0.00000464
-0.31997020 -0.39359420 0.00000025
-0.09210588 -0.36330985 0.00000166
-0.70896352 0.08018459 0.07723120
-0.45012407 -0.65469807 0.00000009
-0.17637533 0.55863791 0.00000044
-0.59433551 0.17552075 0.06310529
-0.40237554 -0.01537225 0.01215680
-0.73584421 0.03054224 -0.00000171
-0.55651634 0.17480340 0.05593934
-0.63408205 0.14690310 -0.00000135
-0.15232620 -0.28151520 0.00000262
-0.52260651 0.00669454 -0.00000053
-0.47041767 -0.29480342 0.00319115
-0.22675368 0.10564359 0.00000713
-0.57982933 -0.37327426 -0.00000023
-0.09539086 0.34343151 -0.00000354
-0.60864375 -0.17438146 0.03855185
-0.62386520 -0.42600141 -0.00000039
-0.08387535 0.06392978 0.00000181
-0.44659677 0.18950028 0.00000186
-0.11564802 0.34412163 0.00000072
-0.02497571 0.05638479 0.00001085
-0.49097093 -0.43411538 0.00000023
-0.17886940 0.30102993 -0.00000171
-0.01840928 0.06248111 0.00000054
-0.76132613 -0.23095279 -0.00000142
-0.14643067 0.22659439 0.00000064
-0.04547822 0.33444003 0.00000140
-0.69591356 -0.52913280 0.02733628
-0.39457399 0.31981939 0.03678712
-0.24094358 0.30974059 0.00711937
-0.71001806 0.06571117 0.07630230
-0.25997565 -0.53400140 0.00000409
-0.24945060 -0.42194982 0.00000024
-0.15749613 -0.38583327 0.00000264
-0.70205277 0.09188464 -0.00000154
-0.62025278 0.09526214 0.06172875
-0.19475759 0.07544007 -0.00000490
-0.53714030 0.16046032 0.05118111
-0.37148672 0.11895664 0.00000439
-0.48415627 -0.19088954 -0.00000001
-0.01260301 -0.31206973 0.00000030
-0.05552231 -0.38135486 0.00000026
-0.13266591 0.55679697 0.00000221
-0.73608809 -0.42544112 0.04296195
-0.02876361 -0.62062327 0.00000011
-0.05007901 0.07450218 -0.00000928
-0.00087578 0.42706684 0.00000611
-0.71543271 0.06779544 0.07748259
-0.63559485 -0.11153864 0.04851125
-0.24960113 -0.04752332 0.00000047
-0.39559662 0.35905631 0.04003563
-0.01545498 0.60376973 0.00000088
-0.05415797 0.12296583 -0.00000837
-0.25936566 0.09285490 0.00000447
-0.65735855 -0.51113968 -0.00000043
-0.28589134 0.32994185 0.00000277
-0.26017313 0.05366500 0.00000734
-0.74831224 -0.22536348 -0.00000137
-0.33960330 -0.64850855 0.00000522
-0.69066211 -0.29007144 0.04496249
-0.35432200 -0.32242981 0.00000564
-0.63055173 -0.77991209 0.00000001
-0.36892632 -0.67654631 0.00000564
-0.62735437 -0.13378411 -0.00000087
-0.43597946 0.15232515 0.03153087
-0.33097911 0.10337836 0.00000541
-0.25413196 -0.11257882 0.00000043
-0.29441662 -0.10207082 0.00000488
-0.63066674 -0.49107193 -0.00000032
-0.22903755 -0.53432399 0.00000362
-0.09423282 0.36858636 0.00000073
-0.48766052 -0.18331631 0.01511300
-0.25969608 0.03602291 0.00000444
-0.03525427 -0.11231086 0.00000043
-0.02431238 0.43240150 0.00000569
-0.54154737 0.13595832 0.05010003
-0.69710031 -0.65266620 0.01794096
-0.00546699 0.26988576 0.00000075
-0.10776503 -0.50949645 0.00000018
-0.23605439 0.29521201 0.00000427
-0.03376575 0.40240127 0.00000075
-0.45854424 -0.40850717 0.00000024
-0.08528873 -0.31147276 0.00000159
-0.40760753 0.22216809 0.00000210
-0.12974269 0.56063575 0.00000221
-0.27605013 0.37321757 0.00000229
-0.23067009 0.47090730 0.01773899
-0.09377839 0.31678318 0.00000623
-0.43194214 -0.18965548 0.00414515
-0.12860413 -0.22765956 0.00000036
-0.60809301 -0.36273764 0.02378282
-0.58730681 -0.13675463 0.03747044
-0.20503802 0.36059371 0.00432930
-0.09266899 0.38898009 0.00000525
-0.58152885 -0.65313844 0.00000009
-0.02929197 -0.27692979 0.00000077
-0.57801228 0.13492892 0.05687535
-0.42889236 -0.69351690 0.00000007
-0.41420950 0.33503105 -0.00000047
-0.05001502 -0.51934278 0.00000093
-0.46704870 -0.39591207 0.00000730
-0.64725221 -0.22755886 -0.00000082
-0.22653689 0.28845301 0.00275754
-0.58469284 -0.42100287 0.01484736
-0.29801494 0.10324427 0.00000051
-0.12811920 -0.44733260 0.00000215
-0.59926876 -0.19664837 -0.00000062
-0.39980954 0.03295804 0.01543174
-0.25448952 -0.47709291 0.00000404
-0.38919258 -0.44342725 0.00000610
-0.04778044 0.62538961 0.00000268
-0.55279631 0.18963823 0.05639525
-0.52207781 0.19044514 0.05068420
-0.70773621 -0.78216017 0.00985776
-0.62575741 -0.55363091 -0.00000019
-0.18732207 -0.29943956 0.00000314
-0.45618791 0.02639468 0.00000419
-0.23860865 0.35142122 0.00992633
-0.06281455 0.27265521 0.00000067
-0.56278273 -0.69591800 0.00000856
-0.03258848 -0.41092872 0.00000073
-0.68955424 -0.21326888 0.05073411
-0.59089351 0.02396650 -0.00000092
-0.24908598 -0.06692800 0.00000046
-0.54632335 0.14149751 -0.00000087
-0.16390212 -0.35846710 0.00000028
-0.16709621 0.38505535 0.00000418
-0.04373705 -0.68496360 0.00000073
-0.60943966 0.00700536 0.00000155
-0.49756540 -0.62898382 0.00000761
-0.00340870 0.14993466 0.00000989
-0.57378304 0.09725187 0.05314800
-0.67040784 0.06563651 0.06884968
-0.74488536 -0.44993388 0.04270864
-0.25498612 -0.53914071 0.00000401
-0.11569935 0.41155803 0.00000076
-0.20709978 -0.01657823 0.00000361
-0.02515578 0.35764076 -0.00000543
-0.31063476 -0.72052126 0.00000005
-0.39836714 0.38333322 -0.00000021
-0.26682574 -0.15682250 0.00000040
-0.28446189 0.36792745 0.01983228
-0.43776934 -0.27358765 0.00000693
-0.08192845 -0.21244963 0.00000037
-0.61979482 0.12753285 0.06415527
-0.14162250 0.51257220 0.00000272
-0.16277903 0.32912789 0.00000316
-0.22853062 0.37389473 0.00000046
-0.47318392 0.30462895 -0.00000074
-0.42840459 -0.21866994 0.00000033
-0.68135603 0.04323307 0.06916431
-0.28674200 0.14204596 0.00000051
-0.20885351 -0.79796085 0.00000000
-0.16090773 0.50690054 0.00000061
-0.23149541 0.47189608 0.00000162
-0.06031915 0.43161642 0.00000168
-0.56875304 -0.64861409 0.00000868
-0.01495320 0.78391960 0.00000096
-0.23419657 -0.53088986 0.00000017
-0.37553720 0.05435761 0.00000018
-0.49236162 0.11096181 -0.00000053
-0.02329093 0.65734789 0.00000261
-0.02765122 -0.00155395 0.00000092
-0.46279913 -0.78215217 0.00000699
-0.79134798 -0.01628464 0.08520719
-0.04852617 0.04135562 0.00001070
-0.15173954 0.51700883 0.00000064
-0.50218785 0.22691149 -0.00000077
-0.06796577 -0.75294667 0.00000003
-0.00109382 0.22720220 -0.00000827
-0.12748556 -0.77186263 0.00000194
-0.48282344 0.31357924 -0.00000076
-0.65216283 -0.48038941 0.02290693
-0.37703594 0.27077786 0.02967076
-0.06301664 0.27802590 -0.00000558
-0.62590201 -0.47505348 0.01838571
-0.09002021 0.05811668 0.00000189
-0.29696703 0.46212352 0.02951891
-0.65179468 -0.32882877 0.03463829
-0.78523000 -0.62442007 -0.00000044
-0.29142318 0.24772758 0.00000032
-0.24777510 0.36381150 0.00000037
-0.34202577 0.07964412 0.00000032
-0.48925877 0.12479661 0.03940043
-0.12680713 0.47030166 0.00000079
-0.22735307 -0.52677786 0.00000017
-0.75663979 -0.42874265 0.04656823
-0.49797549 0.09335666 0.03859077
-0.50082797 0.09067809 0.03892162
-0.03272372 -0.53701270 0.00000066
-0.08058332 0.06133705 0.00000175
-0.30981787 0.32651732 0.00000237
-0.07991465 0.71448769 0.00836582
-0.37362671 -0.03819989 0.00000034
-0.49438511 0.06694345 -0.00000048
-0.68834847 -0.05399468 -0.00000132
-0.69170963 -0.67145650 -0.00000032
-0.18348933 0.32449176 -0.00000119
-0.29678934 0.34689383 0.00000230
-0.08390402 -0.61846225 0.00000138
-0.08949039 0.33362397 0.00000071
-0.40948750 -0.30379664 0.00000031
-0.60857068 -0.31654207 -0.00000048
-0.37543158 0.33587487 0.00000096
-0.26875117 0.44663674 0.00000130
-0.18891517 0.31471698 -0.00000118
-0.54720670 0.04348865 0.04396281
-0.21090740 -0.13907545 0.00000360
-0.49269500 0.27950214 -0.00000080
-0.04770208 0.59776710 0.00000159
-0.43839810 0.26830552 0.04101444
-0.40685064 0.03248240 0.00000005
-0.69478840 -0.25252895 0.04866125
-0.50516462 -0.43106675 0.00000023
-0.02804582 0.06796942 -0.00001005
-0.35710537 -0.21431886 0.00000575
-0.36845924 -0.08865905 0.00000044
-0.24060716 -0.41747542 0.00000387
-0.17007011 -0.22022785 0.00000036
-0.48632751 0.26103297 0.04945964
-0.49025407 -0.26898872 0.00000008
-0.59067088 -0.32756190 0.02324650
-0.12835562 -0.66499759 0.00000008
-0.38536022 -0.61171700 0.00000593
-0.38440481 0.30687075 0.03386690
-0.13143975 0.17761223 0.00000757
-0.73816111 -0.11086466 -0.00000149
-0.41444145 0.38298979 -0.00000055
-0.36757480 0.29012744 0.02939892
-0.41182983 -0.41922594 0.00000645
-0.43414158 -0.77139461 0.00000657
-0.09771197 -0.01471371 0.00000049
-0.15789324 0.05068582 0.00000892
-0.39894898 0.02984601 0.01502760
-0.06343461 0.25675293 -0.00000591
-0.30753482 0.14228273 0.00660314
-0.59374585 0.13742397 0.06002855
-0.38195327 0.21885174 0.00000265
-0.25062203 0.42378620 0.00000200
-0.52056975 0.25940783 -0.00000064
-0.16472859 -0.56210579 0.00000263
-0.57284108 -0.78843551 0.00000001
-0.69078660 -0.30729327 -0.00000093
-0.16801840 0.52956331 0.00000195
-0.32848900 -0.07018972 0.00000541
-0.16849248 0.49119754 0.00762959
-0.60829644 0.18019728 0.06609416
-0.10737367 -0.76608601 0.00000002
-0.41207091 -0.34525427 0.00000028
-0.20571843 0.05219988 0.00000053
-0.04290104 0.46970375 0.00000079
-0.68511996 0.05257576 0.07059847
-0.01229332 0.56282330 0.00000104
-0.16475473 0.50695716 0.00000236
-0.32564036 -0.46990213 0.00000021
-0.38905098 -0.14516665 0.00000041
-0.52759316 -0.76066003 0.00000002
-0.29207271 -0.08955281 0.00000044
-0.05413892 0.45228907 0.00000078
-0.25283449 0.40410335 0.01670350
-0.57829943 -0.35688494 -0.00000025
-0.46073430 -0.22780390 0.00658743
-0.30750583 -0.09513865 0.00000044
-0.11303796 -0.14556535 0.00000211
-0.20698156 -0.41146056 0.00000337
-0.22995406 0.35351887 0.00846597
-0.66801620 -0.30294388 0.03970312
-0.00365968 -0.31655528 0.00000036
-0.24679516 0.13627041 0.00000059
-0.19485299 0.19308686 -0.00000298
-0.56554911 0.16786222 0.05709697
-0.42893335 -0.70590944 0.00000006
-0.65740382 0.07623348 0.06723015
-0.23754027 0.32720735 0.00000375
-0.45248222 -0.11944745 0.00000004
-0.52648110 -0.14819440 0.02514534
-0.33076267 0.07736655 0.00590915
-0.17143062 -0.14255719 0.00000300
-0.13696859 0.08657545 0.00000874
-0.02197763 0.16623380 -0.00000864
-0.75733617 -0.67502693 0.02752316
-0.49019862 0.14258413 0.04096488
-0.21237356 -0.65958921 0.00000009
-0.14853930 0.34960132 0.00000296
-0.16754562 0.50438812 0.00848079
-0.43711243 -0.50987064 0.00000018
-0.32622516 -0.26714206 0.00000033
-0.12420409 -0.74774844 0.00000191
-0.55922742 0.05538217 0.04715176
-0.25164039 0.48993986 0.02316363
-0.24282550 -0.66543599 0.00000375
-0.31677780 -0.33102332 0.00000507
-0.57841355 -0.30201381 -0.00000034
-0.15562551 -0.42648377 0.00000023
-0.38804248 0.08828808 0.01753342
-0.49632363 -0.29018502 0.00842071
-0.54411968 -0.06231491 0.03514777
-0.45729693 -0.42537280 0.00000023
-0.53406794 -0.32236452 -0.00000007
-0.15616193 0.21615696 -0.00000377
-0.35992494 0.34058964 0.03189202
-0.21284811 0.24133160 0.00000547
-0.50622981 -0.66892166 0.00000772
-0.11131008 -0.17876098 0.00000039
-0.53153514 -0.14588401 -0.00000034
-0.20728139 0.00028198 0.00000887
-0.14156305 0.48221406 0.00000319
-0.42444069 0.13958556 0.02836620
-0.25139954 0.42176715 0.01780932
-0.14689582 -0.73616021 0.00000226
-0.10781811 0.25786422 -0.00000456
-0.27585599 0.33449517 0.01561077
-0.04478421 -0.04829956 0.00000047
-0.51625598 0.18205244 -0.00000077
-0.16280093 0.62117071 0.01668160
-0.58667692 -0.60580887 0.00083127
-0.01366590 -0.32564039 0.00000050
-0.60293761 -0.77424544 0.00000002
-0.36893604 -0.72851691 0.00000004
-0.06326633 0.16874062 -0.00000735
-0.03069727 -0.32391149 0.00000030
-0.64119407 -0.54429772 0.01586902
-0.00667143 0.39944641 0.00000641
-0.12047941 0.60142482 0.00000067
-0.55640372 -0.71173407 0.00000006
-0.06151576 0.70223571 0.00000133
-0.77962159 -0.62322013 -0.00000044
-0.45396686 -0.75133165 0.00000003
-0.26908107 -0.66235752 0.00000009
-0.25277805 0.14614383 -0.00000200
-0.46830801 -0.34435819 0.00000735
-0.16577303 0.09553595 0.00000056
-0.49546762 0.10027305 0.03865791
-0.09440605 0.67416601 0.00795007
-0.13405901 0.09933358 0.00000056
-0.72538574 -0.16092344 -0.00000135
-0.24086696 -0.71374215 0.00000005
-0.29859751 0.29031553 0.00000021
-0.64857946 -0.26292496 -0.00000078
-0.78326376 -0.51265009 -0.00000072
-0.16957345 0.04257873 0.00000053
-0.09818969 -0.11523941 0.00000191
-0.36748647 -0.59607338 0.00000567
-0.70283770 -0.21070704 0.05343068
-0.02887489 0.50544059 0.00000082
-0.01329719 0.39230292 0.00000095
-0.11832859 0.06001330 0.00000232
-0.16257414 0.25310962 0.00000311
-0.75079254 -0.62799684 -0.00000043
-0.07794437 0.18613028 0.00000826
-0.43926515 -0.14768099 0.00878993
-0.35833713 0.30680445 0.02896096
-0.09087767 0.62616019 0.00000079
-0.67791368 -0.34478253 -0.00000080
-0.33884070 0.06954692 0.00000578
-0.21463599 0.55337110 0.02114651
-0.65131144 0.12754544 0.07008075
-0.66088660 -0.08965095 -0.00000112
-0.39453621 -0.43767883 0.00000023
-0.23476072 -0.41655000 0.00000378
-0.29952109 -0.35364335 0.00000028
-0.72633754 0.07363477 -0.00000172
-0.01645049 0.17518574 0.00000086
-0.01074674 0.34566037 0.00000709
-0.20446282 0.58753024 0.00000036
-0.28127572 0.28551372 0.00000355
-0.46216251 0.26196723 0.04498860
-0.34775153 -0.77594296 0.00000526
-0.00748970 -0.19896798 0.00000038
-0.37308973 -0.09706358 0.00000043
-0.37141012 0.17056065 0.02080856
-0.31042571 -0.30844031 0.00000031
-0.33126245 0.43037106 -0.00000018
-0.15671204 0.21425120 0.00000300
-0.50478164 -0.49449238 0.00000019
-0.38257773 0.40211266 -0.00000041
-0.73516394 -0.66675524 -0.00000033
-0.71862569 -0.08311560 -0.00000143
-0.68054233 0.09367914 -0.00000115
-0.37396461 0.17202464 0.02140282
-0.30593701 0.46129081 0.03114088
-0.67562378 0.05677302 0.06914095
-0.12027657 0.14438074 0.00000241
-0.04893181 -0.02309884 0.00000122
-0.33810462 0.15253798 0.01314832
-0.70764365 -0.02425706 -0.00000147
-0.27017764 -0.70474135 0.00000414
-0.38828698 0.09001927 0.01771418
-0.49411416 -0.24114919 0.00000001
-0.54880565 -0.28685942 -0.00000021
-0.26353858 -0.70433204 0.00000006
-0.01401602 0.64810448 0.00000288
-0.28085746 -0.44978081 0.00000022
-0.61718181 -0.52651036 0.01273998
-0.11002151 0.03570725 0.00000218
-0.36511061 0.05527055 0.00000023
-0.01185367 -0.69352159 0.00000007
-0.56060775 -0.05127848 -0.00000064
-0.43737624 0.04771158 0.02364331
-0.14576496 -0.77673089 0.00000221
-0.17086456 0.54496251 0.01226255
-0.10834703 0.26434359 -0.00000443
-0.08291546 0.55214926 0.00000210
-0.21165938 0.03893734 -0.00000498
-0.12588602 -0.16512375 0.00000040
-0.23019948 0.56087414 0.02465687
-0.26409771 -0.26443442 0.00000033
-0.67241505 0.04226805 0.06740839
-0.23430627 0.21827820 0.00000417
-0.13202808 -0.54517567 0.00000016
-0.67030384 -0.73573822 0.00643562
-0.30738348 0.48017481 0.03288311
-0.25193190 -0.38114274 0.00000406
-0.39269903 0.09925763 0.00000002
-0.41170521 -0.23178786 0.00000657
-0.11394247 0.24359533 0.00000237
-0.07723339 0.35657591 0.00000072
-0.13471164 0.22559851 0.00000267
-0.03154382 0.39863181 -0.00000457
-0.68421340 -0.05763587 -0.00000129
-0.33664404 0.04476654 0.00447609
-0.07710276 -0.10912423 0.00000043
-0.17708055 0.09693822 -0.00000508
-0.00332613 0.71878995 0.00000100
-0.52493238 -0.55284687 0.00000808
-0.33472455 -0.54677540 0.00000521
-0.50989431 -0.42635101 0.00000022
-0.14254110 -0.58511804 0.00000013
-0.51623866 -0.72289050 0.00000005
-0.26217585 -0.75127135 0.00000399
-0.18576139 0.06326236 -0.00000537
-0.26642381 -0.03006216 0.00000450
-0.39451848 -0.02491838 0.00000020
-0.69097540 -0.20045449 -0.00000110
-0.05316138 -0.31658630 0.00000110
-0.35477017 -0.61406995 0.00000012
-0.53502076 0.10701895 0.04661933
-0.44853176 -0.03853535 -0.00000006
-0.30688158 -0.46366213 0.00000021
-0.23714406 0.11006327 -0.00000305
-0.18615408 -0.25183456 0.00000034
-0.06832745 -0.06779449 0.00000046
-0.67889701 -0.06830003 -0.00000125
-0.29951470 0.03699222 0.00000052
-0.41903022 -0.28754219 0.00000664
-0.12629314 0.34586553 0.00000072
-0.12832640 -0.54535138 0.00000016
-0.30888658 0.04637241 -0.00000192
-0.24136425 -0.47809102 0.00000020
-0.17061708 0.58649890 0.01545136
-0.52743448 -0.32222942 -0.00000004
-0.18995824 0.22749560 0.00000351
-0.40904262 0.22696187 0.03227836
-0.05978910 0.04013396 0.00000053
-0.46030976 0.21196415 0.00000125
-0.41892207 -0.41849711 0.00000024
-0.48792501 -0.79279664 0.00000737
-0.44548054 -0.19211849 0.00000020
-0.39540129 0.37168663 0.04098231
-0.55798349 0.05905319 0.04720374
-0.35531860 -0.51787763 0.00000018
-0.00647297 0.39053530 0.00000653
-0.10964122 -0.47042389 0.00000186
-0.33659618 -0.44761065 0.00000022
-0.61402643 0.17692593 0.06691665
-0.31506822 -0.12835732 0.00000042
-0.07653793 0.68141760 0.00000078
-0.38766086 -0.62683974 0.00000011
-0.79688417 -0.39923511 -0.00000100
-0.41668191 0.03692415 -0.00000001
-0.22995476 -0.60276411 0.00000359
-0.48992446 -0.66772931 0.00000008
-0.10793921 0.19971437 0.00000763
-0.54331405 -0.28434220 -0.00000018
-0.35949622 -0.54432146 0.00000016
-0.61882831 -0.20084840 -0.00000072
-0.22452280 -0.19425366 0.00000377
-0.41561160 -0.18896594 0.00112892
-0.15248829 -0.24128596 0.00000265
-0.11825100 0.64814642 0.00000061
-0.33014225 -0.51110424 0.00000516
-0.60544506 -0.60767957 0.00421377
-0.22932130 -0.50701774 0.00000364
-0.58356682 -0.24317307 0.02848159
-0.58803183 0.00474066 0.04862362
-0.61587795 0.11629115 0.06254274
-0.10647801 0.04716144 0.00000214
-0.23121487 -0.36570662 0.00000027
-0.29976663 0.00903417 0.00000735
-0.37634552 -0.43891738 0.00000590
-0.16070178 -0.02667871 0.00000291
-0.26229727 -0.60970756 0.00000012
-0.01150045 0.71903108 0.00000003
-0.49414089 0.10869268 0.03906717
-0.56859431 0.01283392 0.04559977
-0.61103070 -0.39046996 -0.00000037
-0.42489763 -0.45665838 0.00000021
-0.18707598 -0.17496364 0.00000039
-0.40773918 0.21625608 -0.00000025
-0.15633103 -0.00798432 0.00000285
-0.60984099 0.08617142 0.00000032
-0.42140996 0.03052555 0.01930863
-0.15491621 0.39679147 0.00000075
-0.09349980 -0.68672434 0.00000007
-0.16571271 -0.37239986 0.00000277
-0.54934148 0.17793615 0.00000006
-0.55397593 0.22974129 0.05974009
-0.57023161 -0.01955328 0.04338588
-0.60574720 -0.66787654 0.00000008
-0.15818785 0.32302810 0.00000517
-0.08755676 -0.38821140 0.00000158
-0.14093524 0.36974204 0.00000479
-0.45155539 0.01484182 0.00000446
-0.18315850 -0.32147376 0.00000306
-0.06614348 -0.07502086 0.00000045
-0.59738213 -0.10461222 0.04186708
-0.39551732 0.18767178 0.00000287
-0.45550264 0.31686477 -0.00000066
-0.57653456 -0.35968594 0.01808788
-0.41861798 -0.68440606 0.00000639
-0.55469098 -0.55955819 0.00000852
-0.35042812 0.02393029 0.00545152
-0.21836200 -0.57778388 0.00000343
-0.03201960 -0.77898510 0.00000001
-0.31612047 0.25857513 0.00000017
-0.11947290 -0.54587980 0.00000196
-0.49820722 0.16840728 0.00000119
-0.62444438 0.08442382 0.00000007
-0.57548421 -0.04263685 -0.00000073
-0.15039458 0.60816230 0.00000050
-0.15093730 0.27623756 0.00000295
-0.42397221 -0.58833123 0.00000653
-0.45299731 0.08624424 0.02958490
-0.00241638 -0.07300144 0.00000049
-0.25530974 0.41893237 0.00000024
-0.00727841 -0.70739343 0.00000006
-0.14417809 0.00961900 0.00000268
-0.77108811 -0.62621908 -0.00000043
-0.19415010 0.20734201 0.00000622
-0.68451109 -0.31611204 0.04177865
-0.53088791 -0.77030940 0.00000002
-0.61170459 -0.12745523 0.04278094
-0.13985127 0.01603602 -0.00000752
-0.52888674 -0.57445594 0.00000812
-0.50812368 -0.26420995 0.01266138
-0.76237082 -0.06501661 0.07596560
-0.59524559 -0.73648214 0.00000902
-0.36395678 0.03190789 0.00000588
-0.13878300 -0.36493475 0.00000237
-0.43033467 -0.04832585 0.01484695
-0.14098015 0.08350866 0.00000872
-0.64495151 0.06856621 -0.00000128
-0.59027990 -0.12531135 -0.00000068
-0.18694516 0.33549170 0.00000353
-0.56393510 0.00369885 0.00000248
-0.66477191 -0.32398855 0.03745470
-0.20593851 0.31899054 0.00000448
-0.12001781 0.50168416 0.00000329
-0.45075155 0.14288254 0.00000250
-0.25167575 0.33188960 0.01086528
-0.13774767 -0.71162086 0.00000006
-0.05422987 0.71686004 0.00372215
-0.00996636 0.47287498 0.00000535
-0.50921673 -0.27610429 -0.00000001
-0.20263943 -0.19614538 0.00000344
-0.15775599 0.48892501 0.00000065
-0.56923155 -0.09409278 0.03739421
-0.76609469 -0.60163887 -0.00000050
-0.28393272 0.11930659 0.00000056
-0.26122726 -0.60565086 0.00000012
-0.44231040 0.16274428 0.03353223
-0.36821285 -0.61942657 0.00000011
-0.17793170 0.51720317 0.01142940
-0.28636194 -0.69135188 0.00000007
-0.21298873 -0.18639355 0.00000038
-0.19408464 0.47801370 0.00000225
-0.71693677 0.01734817 -0.00000158
-0.44659742 0.14254274 0.00000258
-0.55880015 -0.60443989 0.00000855
-0.67191443 -0.71293181 -0.00000019
-0.61555390 -0.49097560 0.01520071
-0.16290256 -0.10890361 0.00000289
-0.24325390 0.53509522 0.02510377
-0.12013266 -0.79835383 0.00000181
-0.18670657 -0.56842259 0.00000296
-0.06968152 -0.73201796 0.00000004
-0.62291982 -0.32113618 0.02980917
-0.33078718 0.01835448 0.00131812
-0.67505284 -0.71259500 0.00913030
-0.41578231 -0.37186045 0.00000027
-0.40215932 -0.20633461 0.00000644
-0.15307763 -0.10334091 0.00000044
-0.59404429 -0.48949846 0.01127221
-0.73945072 -0.60488284 0.02962252
-0.09902156 0.22603150 0.00000214
-0.35400587 -0.24911889 0.00000569
-0.61113215 -0.42582776 0.01944192
-0.75794492 -0.17483109 0.06658339
-0.15805614 0.53246158 0.00000210
-0.77153585 -0.45145835 -0.00000087
-0.32467358 0.38852705 0.00000112
-0.33411298 -0.71257144 0.00000510
-0.52032809 -0.55735706 0.00000800
-0.44687026 -0.79556864 0.00000675
-0.60019537 0.09510432 0.00000037
-0.40417730 -0.17083260 0.00039130
-0.09256896 0.64161421 0.00507070
-0.36732837 0.18567585 0.02121829
-0.12373661 0.38945181 0.00000478
-0.79371982 -0.39996658 0.05577913
-0.54302733 0.16901122 0.05295230
-0.32333534 -0.61557147 0.00000499
-0.22399702 0.10815134 0.00000395
-0.02002455 0.54087826 0.00000084
-0.77081537 -0.04507787 0.07910550
-0.68340378 -0.79398714 0.00436285
-0.33442932 -0.58069673 0.00000518
-0.36125901 0.38695355 0.03575272
-0.05448574 0.39874517 0.00000075
-0.76763037 -0.51424907 -0.00000071
-0.26174121 -0.19357242 0.00000433
-0.52533896 -0.11389941 0.02760086
-0.75848655 -0.54388797 -0.00000064
-0.29875719 -0.38711000 0.00000477
-0.35196798 -0.65646553 0.00000540
-0.76445064 -0.49654962 0.04275700
-0.63988551 -0.19668587 0.04268824
-0.31039020 -0.54202361 0.00000016
-0.30055341 -0.24411010 0.00000035
-0.60674866 -0.07076243 -0.00000086
-0.76206169 0.02090876 -0.00000159
-0.09885871 0.36512521 0.00000073
-0.43580571 0.02333267 0.02145479
-0.50796057 -0.79020248 0.00000767
-0.79221329 -0.02497395 -0.00000192
-0.39141563 0.06998210 0.01674222
-0.39673382 -0.54422635 0.00000615
-0.02108541 0.45769706 0.00000110
-0.68169929 -0.49165023 0.02758260
-0.00845516 0.17007449 -0.00000898
-0.08600542 0.59208294 0.00000256
-0.38807934 0.28931393 0.00000144
-0.07909329 0.69294676 0.00653381
-0.25579611 0.30837515 0.00000041
-0.14859821 -0.52231979 0.00000017
-0.16552568 -0.74799313 0.00000253
-0.41622048 -0.61074442 0.00000012
-0.09830989 0.35443869 0.00000564
-0.46854834 0.02802855 0.02797089
-0.60039981 -0.78035534 0.00000001
-0.07754019 -0.20386405 0.00000154
-0.14198293 0.34476375 0.00000286
-0.54909728 0.04553150 0.04448045
-0.31762380 -0.45836514 0.00000021
-0.50710100 0.17881869 -0.00000072
-0.47452172 -0.70212845 0.00000722
-0.50115895 -0.78312596 0.00000001
-0.23735079 0.43327077 0.00000211
-0.46376434 0.27458509 0.04627238
-0.15427096 -0.31037664 0.00000263
-0.23166471 0.38394792 0.01115391
-0.73927869 -0.11176081 0.06798508
-0.73466817 -0.26728877 0.05500889
-0.21009281 -0.61740516 0.00000328
-0.21902992 0.36833181 0.00756242
-0.70505443 -0.59762464 0.02372179
-0.10628380 -0.50767515 0.00000179
-0.18633786 0.26303956 0.00000348
-0.57872365 -0.60219396 0.00000886
-0.23722827 -0.47271413 0.00000378
-0.34857811 -0.13769200 0.00000567
-0.38546147 0.14054244 -0.00000001
-0.67070867 -0.11939992 -0.00000112
-0.60211872 -0.33428622 -0.00000041
-0.61110816 -0.54826446 0.00990444
-0.32332215 -0.47829427 0.00000020
-0.74987786 -0.10160172 -0.00000157
-0.33333859 -0.30970989 0.00000534
-0.25217336 -0.40365449 0.00000405
-0.34569730 0.25700310 0.02270630
-0.18940861 0.29636947 -0.00000147
-0.25079651 -0.09786211 0.00000044
-0.21080106 -0.26549792 0.00000033
-0.14747671 -0.03395638 0.00000048
-0.02807680 0.03727739 0.00000095
-0.25713738 0.07204224 0.00000442
-0.16890500 -0.65843698 0.00000264
-0.18115207 0.56901678 0.00000109
-0.18738804 0.30982009 0.00000491
-0.56833302 -0.38167532 -0.00000016
-0.47145618 0.31600096 -0.00000075
-0.65602855 -0.19891443 0.04554939
-0.02852873 0.44538730 0.00000545
-0.54592162 0.11645279 0.04940543
-0.26877327 0.50728386 0.02773534
-0.63105725 -0.26722590 0.03553637
-0.66253823 0.12164835 -0.00000146
-0.20663536 0.41424590 0.00880783
-0.15132804 0.18671794 0.00000290
-0.64756513 -0.78840696 0.00000001
-0.34432033 0.39127761 0.03290422
-0.44476832 0.04072906 0.02449413
-0.25622933 0.16750053 0.00000583
-0.71172388 -0.53996114 0.02946527
-0.00437825 -0.04561465 0.00000054
-0.14921176 0.63424943 0.01514533
-0.30773249 -0.22110806 0.00000501
-0.32203480 0.09503672 0.00564437
-0.50469297 0.05962111 0.03722647
-0.21855724 0.05416946 0.00000796
-0.02977903 0.18544457 -0.00000809
-0.63603010 0.01891246 0.05875005
-0.40584777 -0.06327379 0.00000020
-0.30759625 -0.15612765 0.00000040
-0.06637805 -0.62091572 0.00000011
-0.19093889 0.12697141 0.00000737
-0.05881495 -0.60947402 0.00000101
-0.21357253 0.17742998 0.00000634
-0.33187245 0.30117396 0.00000002
-0.27547829 -0.66479137 0.00000424
-0.40044163 -0.14368398 0.00000036
-0.60688943 -0.14704024 0.04035086
-0.67827060 -0.46176117 -0.00000062
-0.57817241 0.07829142 -0.00000094
-0.59187808 -0.23110676 -0.00000052
-0.33540224 0.38714164 -0.00000014
-0.33126221 -0.52279621 0.00000517
-0.00624679 -0.53591220 0.00000017
-0.34979017 0.01611859 0.00000640
-0.43200218 0.12509892 0.00000313
-0.30018507 0.30585235 0.00000018
-0.52082250 -0.18103141 -0.00000022
-0.21640226 0.03427792 0.00000052
-0.69260293 -0.26484993 0.04729110
-0.79306752 -0.64169953 0.03683490
-0.26487288 -0.68961404 0.00000407
-0.20851458 -0.46064763 0.00000336
-0.02347079 0.49332849 0.00000081
-0.12727711 0.18390148 -0.00000517
-0.20312080 0.07429654 0.00000055
-0.07182859 0.27537786 0.00000067
-0.25679426 -0.06622371 0.00000433
-0.52503681 0.18741328 -0.00000083
-0.20208973 0.21075923 0.00000063
-0.33709055 0.10948512 0.00000520
-0.21076308 0.21841993 0.00000382
-0.08852471 0.31137081 -0.00000427
-0.30242585 -0.05483923 0.00000047
-0.35532822 0.40196200 0.03580579
-0.44071677 -0.33361138 0.00000694
-0.51744865 0.05335122 0.03913629
-0.10901494 0.08950465 0.00000056
-0.28769741 0.34018425 0.00000258
-0.48045760 -0.39381960 0.00000750
-0.20240522 0.40890635 0.00759966
-0.16852623 0.03579032 0.00000052
-0.04003951 0.41756666 0.00000565
-0.25476636 -0.20335152 0.00000037
-0.40459881 0.07772122 -0.00000001
-0.26273346 0.20495699 0.00000054
-0.15390782 0.56712772 0.01080200
-0.01406629 -0.69234618 0.00000028
-0.51646901 -0.72319017 0.00000784
-0.07607255 0.24346469 0.00000065
-0.17899740 0.19187238 -0.00000348
-0.15356244 -0.32672078 0.00000261
-0.49125420 -0.61354195 0.00000012
-0.78645468 -0.28462917 0.06339372
-0.07921751 -0.29424872 0.00000032
-0.66475105 -0.70976954 -0.00000015
-0.19413574 0.52392844 0.01500078
-0.21044505 0.57473297 0.02202237
-0.31694402 0.04708266 0.00095963
-0.58527742 -0.39142782 0.01725998
-0.19605066 -0.74911235 0.00000299
-0.63381822 -0.30510914 0.03310579
-0.05168597 0.31295447 0.00000692
-0.07118429 0.55083342 0.00000335
-0.27078317 0.13220474 0.00000610
-0.26529037 0.40287739 0.01895178
-0.03253046 0.35152769 -0.00000531
-0.37401213 0.18077255 0.00000339
-0.06292884 -0.02408104 0.00000143
-0.66361391 0.10018807 -0.00000143
-0.33957606 0.45696027 -0.00000027
-0.15806186 0.39746491 -0.00000077
-0.16366406 0.29214862 -0.00000231
-0.42193047 -0.30180352 0.00000031
-0.18058007 -0.35507424 0.00000300
-0.56764961 0.19357854 -0.00000107
-0.24193365 0.22046384 0.00035297
-0.52520736 0.16476000 0.04927266
-0.69699789 -0.06633712 0.06357358
-0.21875185 -0.63208829 0.00000341
-0.47225787 -0.50859600 0.00000018
-0.16363104 0.39615378 -0.00000062
-0.75228721 -0.06172434 -0.00000165
-0.37500763 0.14190235 0.00000397
-0.05679452 0.65811568 0.00000209
-0.02863993 0.69158185 0.00000093
-0.19686966 0.35160759 0.00209775
-0.26763233 0.45894175 0.00000113
-0.62211698 -0.56061612 0.01101224
-0.08330881 -0.12297864 0.00000168
-0.22548659 -0.68795792 0.00000007
-0.12513404 -0.20302195 0.00000226
-0.17413537 -0.65269144 0.00000009
-0.37950042 -0.75521931 0.00000575
-0.14546566 0.53447070 0.00000231
-0.40735956 -0.00692825 0.00000011
-0.42087360 0.28347448 0.03890252
-0.18557082 0.46983680 0.00917910
-0.04857582 -0.30214428 0.00000104
-0.05242645 0.39194042 0.00000582
-0.31089576 -0.61052178 0.00000481
-0.66669430 0.10193553 0.07097836
-0.28842357 0.47662446 0.02904200
-0.19979833 0.13245168 0.00000360
-0.45494981 -0.04625666 0.01963537
-0.54981070 -0.60015852 0.00000842
-0.62813730 0.06365204 0.06074819
-0.12929006 0.50472082 0.00000308
-0.04322662 0.46721926 -0.00000310
-0.21958833 0.27644862 0.00051663
-0.26719717 -0.25970520 0.00000437
-0.09883787 -0.75134884 0.00000152
-0.42057749 0.13037721 -0.00000018
-0.75515676 -0.05105641 -0.00000168
-0.65335084 0.09978200 0.06830205
-0.07629494 0.69245526 0.00000076
-0.08886865 -0.76148372 0.00000137
-0.09710988 0.39049430 0.00000074
-0.03468631 -0.78245027 0.00000001
-0.50318705 0.04008913 0.03542228
-0.09003797 -0.40838770 0.00000024
-0.04046629 0.16959146 -0.00000802
-0.55988080 -0.29713654 0.01982733
-0.08642715 0.15965391 0.00000850
-0.52377289 -0.72352505 0.00000005
-0.14210415 0.39305191 0.00000445
-0.33603769 -0.57413334 0.00000014
-0.51276841 -0.62497720 0.00000785
-0.07034325 0.69564109 0.00509861
-0.27484209 0.17582861 0.00000052
-0.61470549 -0.28491947 -0.00000056
-0.26028530 -0.68372338 0.00000400
-0.38786178 -0.59252329 0.00000598
-0.24061622 0.05137717 0.00000766
-0.35608383 -0.53778193 0.00000554
-0.31127614 0.22136337 0.00000396
-0.44094588 -0.25079856 0.00107710
-0.47530043 -0.00561093 -0.00000026
-0.11196358 0.62477635 0.00000068
-0.23473512 0.16049276 0.00000625
-0.37453346 0.31188913 -0.00000022
-0.51378581 0.17777007 0.04813853
-0.18891616 -0.61859682 0.00000011
-0.53642245 -0.16174260 -0.00000034
-0.64103694 -0.42428095 -0.00000048
-0.34145618 0.09155936 0.00000030
-0.25180025 -0.65102676 0.00000009
-0.64312215 -0.33861090 -0.00000063
-0.25066322 -0.62358535 0.00000011
-0.04399891 0.45096853 -0.00000334
-0.18780952 -0.22269450 0.00000319
-0.68172148 -0.69995646 0.01136795
-0.21731450 0.25980242 0.00000515
-0.56981352 0.03845789 0.04782406
-0.25215210 -0.60233489 0.00000393
-0.02126687 0.76385468 0.00118459
-0.22238504 -0.13560642 0.00000042
-0.13930041 0.25369907 0.00000641
-0.24588403 -0.30605504 0.00000402
-0.05562383 0.00890909 0.00001104
-0.01608032 0.21773492 -0.00000798
-0.69472838 -0.27377467 0.04699577
-0.26634291 0.15800364 0.00007780
-0.72987371 -0.10940175 -0.00000145
-0.63672085 -0.43371706 0.02363798
-0.22172386 0.02513158 0.00000386
-0.70237637 0.08381862 0.07627585
