ply
format ascii 1.0
element vertex 1395
property float x
property float y
property float z
end_header
-0.05638156 0.02664379 0.00000000
-0.12415828 0.45906306 0.11137295
-0.54837201 -0.22304626 -0.00000027
0.09459228 0.09987366 0.00000000
-0.25881679 0.18427311 0.18336767
0.77190555 -0.19991049 -0.00000150
-0.26064214 0.52028135 0.00980041
-0.19835772 0.54754820 0.02779142
0.72144825 -0.06565310 -0.00000155
-0.19643470 0.49215311 0.05723963
-0.09982281 -0.51527034 0.00000000
-0.67936850 -0.15771863 -0.00000060
0.68739823 -0.00075264 -0.00000152
-0.09486483 -0.71703435 0.00000000
0.41028594 0.06438654 0.00000441
0.00883390 -0.31694919 0.00000000
0.22915751 -0.13446233 0.00000000
-0.36161840 -0.64014560 0.00000000
-0.47876420 -0.12050947 -0.00000021
-0.50460878 -0.67786304 0.00000000
0.01246596 0.30392673 0.00000725
-0.39673105 0.20145470 0.10368490
0.71649921 -0.69427609 -0.00000026
-0.56010333 0.19187864 -0.00000066
-0.13639137 0.16105389 0.25819334
0.14016822 -0.01428322 0.00000000
0.76489308 -0.42972148 -0.00000093
0.15975322 -0.20117610 0.00000000
-0.23484453 0.36061345 0.10508665
-0.36415391 -0.44567857 0.00000000
-0.09755933 0.64809833 0.02791916
0.79495398 -0.64946131 -0.00000038
0.42666485 -0.46890167 0.00000000
-0.73874632 -0.55900178 -0.00000030
-0.67195427 0.01482603 0.05816736
-0.30035602 0.23228723 -0.00000014
0.68943934 0.05650429 -0.00000163
-0.26501117 0.23312569 0.15508678
0.03862256 0.58436062 0.00000265
-0.46633181 -0.29071021 -0.00000003
0.48216244 0.12926494 -0.00000087
-0.35392409 0.41727893 -0.00000042
-0.14569939 0.10273441 0.28337352
0.01450976 -0.08368446 0.00000000
-0.68463427 -0.33550554 -0.00000046
0.75201276 -0.68298250 -0.00000029
0.28863064 0.15093586 0.00000530
0.04967287 -0.19743292 0.00000000
0.39770970 0.23993882 -0.00000071
-0.02139449 0.33055151 0.00000000
-0.01505279 -0.59469647 0.00000000
0.10118293 0.52274347 0.00000000
0.21905174 0.25722641 0.00000484
0.04124926 0.02437781 0.00001101
-0.53013443 -0.26506495 -0.00000019
-0.12826089 -0.13758378 0.00000000
0.66857796 0.03894337 -0.00000151
-0.53403953 0.02653707 -0.00000046
-0.21259352 -0.07279840 0.00000000
-0.21669701 0.34030619 0.12484332
0.73225465 0.05307592 -0.00000159
0.77514597 -0.58393493 -0.00000054
-0.51343661 0.20116790 -0.00000057
0.20652667 -0.12862132 0.00000000
-0.17903972 -0.51348091 0.00000000
0.29516652 0.22107014 0.00000400
0.06379533 0.51779373 0.00000327
0.67437959 0.08214535 -0.00000161
0.75770252 -0.34694827 -0.00000113
-0.58884971 -0.07178195 -0.00000049
0.52014888 0.27560123 -0.00000123
0.22276683 -0.49272563 0.00000000
0.14809776 -0.43294665 0.00000000
-0.12225855 -0.79759405 0.00000000
0.37338504 0.21181177 0.00000265
-0.04315068 0.59813573 0.00000000
0.21075273 0.41778510 -0.00000022
0.33911609 0.30908675 0.00000169
0.14408062 0.58464623 -0.00000023
-0.69618107 0.08304797 0.01067014
0.74595200 -0.79165259 -0.00000002
0.50627664 -0.00147546 -0.00000074
-0.14232192 0.09405273 0.00000000
0.40032327 -0.57944344 0.00000000
0.18170347 -0.60869510 0.00000000
0.28981679 0.08115576 0.00000000
-0.17146387 0.10869127 0.00000000
0.39742767 -0.41232261 0.00000000
0.52441046 0.02332165 0.00000290
-0.02741532 0.55929956 0.10957753
-0.26998237 0.11358381 0.00000000
-0.35531663 -0.70159941 0.00000000
-0.16530064 0.52969898 0.05394550
0.01239217 0.27849389 0.00000764
-0.17734795 -0.05581985 0.00000000
-0.42298312 0.37308957 -0.00000053
-0.65070479 0.13811359 0.00574353
0.17493482 0.09766284 0.00000790
-0.05164737 -0.05027655 0.00000000
0.13754874 0.02722260 0.00000000
-0.53041317 -0.69636256 0.00000000
0.41665127 -0.12414776 -0.00000014
-0.49909470 -0.69914968 0.00000000
-0.21894273 -0.77091817 0.00000000
0.74529154 -0.54026377 -0.00000065
0.09947766 0.29436287 0.00000608
-0.73803704 0.01986763 -0.00000089
0.49503412 0.00288431 -0.00000070
0.43613061 -0.16141072 -0.00000016
0.14500379 -0.09461885 0.00000000
-0.04240318 0.58301685 0.08969247
0.75554361 -0.32535034 -0.00000119
-0.32063181 -0.08671680 0.00000000
0.10708322 -0.20453615 0.00000000
-0.06320889 0.24709577 0.25158625
0.35832489 0.35434373 0.00000056
-0.27002996 -0.68098092 0.00000000
-0.09584488 -0.36734571 0.00000000
-0.05015656 -0.14987764 0.00000000
-0.21347761 -0.76510307 0.00000000
0.18351321 0.12622576 0.00000000
-0.02781362 -0.02348685 0.00000000
-0.24930833 0.12797392 0.00000000
0.33831178 0.16061942 0.00000418
0.11193369 0.49334035 0.00000291
-0.49407832 0.24511587 -0.00000056
-0.26441076 0.09375847 0.22699654
0.10853536 0.09147436 0.00000000
0.53492815 0.17000024 -0.00000117
0.18857634 -0.37107042 0.00000000
0.22714742 -0.30598159 0.00000000
-0.09882872 0.34948433 0.18068328
0.05338444 0.46067166 0.00000000
0.35196065 -0.21904795 0.00000000
-0.12626188 0.04159947 0.00000000
0.36191978 -0.31373656 0.00000000
-0.19763500 -0.45853615 0.00000000
0.33470003 0.09210221 -0.00000018
0.36426757 0.20176222 -0.00000050
-0.16904010 -0.66117244 0.00000000
-0.76343988 0.00824949 0.01454365
-0.07722636 -0.77533774 0.00000000
-0.31551653 -0.28255073 0.00000000
0.54770619 -0.52961885 0.00000000
-0.40085323 -0.64645112 0.00000000
0.04423328 0.05957954 0.00000000
0.77596266 -0.42652359 -0.00000093
-0.54096968 -0.23301586 -0.00000024
-0.33720989 0.31722174 -0.00000029
-0.18874472 0.54124077 0.03597085
-0.23119043 0.20618777 0.18630195
-0.23234016 -0.24293378 0.00000000
-0.75749500 -0.47639487 -0.00000040
-0.27414390 0.33853591 0.09623856
-0.09749573 -0.61133557 0.00000000
0.25659573 0.24106356 -0.00000011
0.17655093 -0.51999362 0.00000000
0.07872279 -0.44247677 0.00000000
0.27492401 0.02190254 0.00000752
0.23405658 0.13022832 0.00000000
0.16838150 0.25098260 0.00000569
0.36180523 -0.22508655 0.00000000
-0.42729093 -0.28420745 0.00000000
0.38654913 0.35678416 -0.00000002
0.29116328 -0.52280228 0.00000000
-0.14561132 0.57819926 -0.00000011
0.02321085 0.04336223 0.00001100
-0.66942886 0.03521637 0.04898895
-0.46607382 -0.17118951 -0.00000014
-0.42446913 -0.11009874 -0.00000010
0.25033330 0.44776959 -0.00000045
0.08073334 0.25317103 0.00000000
-0.03756408 -0.67658660 0.00000000
0.02890144 -0.57047885 0.00000000
-0.10702538 0.17584129 0.00000000
0.30110763 0.18699961 -0.00000020
-0.43870284 -0.49852973 0.00000000
0.17744974 -0.11399447 0.00000000
0.64339474 0.00669435 -0.00000134
-0.23901275 0.17233235 0.19967676
-0.65938198 -0.48999725 -0.00000027
-0.18029414 -0.01653400 0.00000000
-0.01929534 0.33034730 0.00000000
-0.34329542 -0.27232797 0.00000000
0.72542470 0.04553257 -0.00000176
0.04092288 -0.76389502 0.00000000
0.48455997 0.02607187 0.00000362
0.22323780 0.48911916 0.00000091
-0.36241499 0.08220061 0.18258436
0.62275786 -0.18505524 -0.00000092
-0.54319576 0.05345948 -0.00000050
0.38506124 0.39150159 -0.00000092
-0.18387624 -0.57103429 0.00000000
0.22639722 0.25768295 0.00000471
0.06447641 0.38446214 0.00000000
0.36491227 -0.29414172 0.00000000
-0.42391516 0.35967248 -0.00000052
-0.15051821 -0.24651164 0.00000000
-0.44906321 -0.75720238 0.00000000
0.06778751 -0.19227533 0.00000000
-0.21010874 0.29259740 0.15273894
-0.01834617 -0.73683429 0.00000000
-0.51750132 0.07413981 0.10704709
0.26070542 -0.77432954 0.00000000
0.76191674 -0.43536751 -0.00000091
-0.64473983 -0.38608526 -0.00000033
0.25989263 -0.46984937 0.00000000
0.50169940 -0.10087007 -0.00000055
0.79362313 -0.72568999 -0.00000019
-0.30498887 0.16898442 -0.00000009
-0.32445527 0.14029911 0.17223771
0.12412688 -0.47370166 0.00000000
-0.34770471 -0.70163653 0.00000000
-0.56014586 -0.62895849 0.00000000
-0.67128507 0.06279758 0.03386494
-0.68316632 0.05705588 0.03071062
0.28419248 0.44456777 0.00000048
-0.15197969 0.54829932 0.05123315
0.58711145 -0.70210473 0.00000000
-0.59951254 -0.35233359 -0.00000026
0.28812906 0.30373812 -0.00000035
0.41204645 0.37155870 -0.00000100
0.79894357 -0.79600777 -0.00000001
0.07918184 -0.77058906 0.00000000
-0.63279020 0.10831639 -0.00000074
0.25185214 -0.22961661 0.00000000
-0.05081500 -0.13138535 0.00000000
0.00024878 0.17732421 0.00000000
0.39082127 -0.36985986 0.00000000
0.06326588 0.29552225 0.00000661
-0.64731563 0.09343120 0.03044114
-0.26714200 -0.26221162 0.00000000
0.21875213 0.11059838 0.00000704
0.31618857 -0.44964487 0.00000000
0.67948887 -0.70500906 -0.00000024
0.21751106 0.32355945 -0.00000009
-0.24458313 -0.50075415 0.00000000
-0.06768235 -0.45217797 0.00000000
-0.79660986 -0.30308527 -0.00000062
0.41921872 -0.20900076 -0.00000001
-0.22332084 0.40522104 -0.00000013
0.22145983 -0.28354934 0.00000000
0.17715375 0.60948085 -0.00000042
-0.12991669 0.14210955 0.27125257
0.03872680 0.36037065 0.00000601
-0.03165052 -0.02499943 0.00000000
0.61272809 0.07693900 -0.00000134
0.05124625 0.54373965 0.00000000
-0.07695805 -0.52603171 0.00000000
-0.63072405 0.09652245 -0.00000072
0.17888201 0.22108443 0.00000000
0.32377542 -0.64097743 0.00000000
0.75955205 0.01699766 -0.00000186
-0.04422762 0.23913139 0.00000000
-0.44884159 -0.00258623 -0.00000025
-0.14679297 -0.06727073 0.00000000
-0.54672410 0.24263965 0.00546353
0.17695137 0.14215731 0.00000000
-0.29294050 -0.22446305 0.00000000
0.13398612 0.41545197 0.00000375
0.42564298 -0.40442211 0.00000000
0.65337966 -0.65307956 -0.00000022
0.07160700 0.53834681 0.00000000
-0.62645848 -0.25447229 -0.00000040
-0.00053689 -0.69084645 0.00000000
-0.68181228 -0.53700271 -0.00000027
0.68733929 -0.00283449 -0.00000151
-0.25575961 -0.57507917 0.00000000
-0.47117181 0.16209853 0.08565943
-0.22468038 -0.54387390 0.00000000
0.28323855 0.32150980 0.00000255
0.08508978 0.33240091 0.00000000
-0.44363760 -0.01585601 -0.00000023
-0.51141968 0.24161634 0.02412762
-0.40170649 0.23173044 -0.00000035
0.17052625 -0.03006068 0.00000000
0.07296194 -0.53471503 0.00000000
0.33934674 -0.63734607 0.00000000
0.67579024 -0.13289123 -0.00000123
0.29945424 0.09869718 0.00000596
0.73626479 0.00599298 -0.00000174
-0.36671520 0.33945708 0.04820497
-0.43097158 0.20749107 0.08299187
0.44562328 -0.05348519 -0.00000039
-0.16867364 0.45710285 -0.00000006
-0.02044226 0.15198416 0.00000000
-0.14727263 0.10175898 0.28306640
0.21404142 0.38392681 -0.00000018
0.05403661 0.34897227 0.00000595
0.18494076 -0.44431644 0.00000000
-0.15868640 -0.52123901 0.00000000
-0.46964037 -0.58731851 0.00000000
-0.61411724 -0.20994595 -0.00000042
-0.46686092 -0.74087835 0.00000000
-0.11084693 0.02503979 0.00000000
0.76105846 -0.62029236 -0.00000045
0.49404746 -0.62845659 0.00000000
0.36169497 -0.77666249 0.00000000
-0.11716224 0.33283659 0.00000000
0.27466331 0.37645937 0.00000180
0.11387309 0.18552932 0.00000000
0.35317178 -0.45632996 0.00000000
-0.51460898 0.25493064 -0.00000062
0.25212734 -0.56899931 0.00000000
0.13662334 0.55292558 0.00000150
-0.34704235 -0.56841330 0.00000000
0.35291078 -0.11898117 0.00000000
0.04443401 0.20437635 0.00000826
0.09683249 0.57603432 -0.00000002
0.12732889 0.51235144 0.00000236
0.00868224 -0.11755399 0.00000000
0.79960600 -0.69309064 -0.00000027
-0.74964225 -0.44580512 -0.00000044
-0.76566832 -0.24692596 -0.00000069
0.28787531 -0.18707287 0.00000000
-0.40860174 0.18813762 0.10442799
0.30383128 0.38618713 0.00000108
0.00608146 0.08906650 0.00001057
0.44867567 -0.50391954 0.00000000
0.50913142 -0.03634408 -0.00000069
0.51953867 0.09733408 -0.00000098
-0.76234461 -0.11633742 -0.00000082
0.28427936 -0.22658961 0.00000000
0.29287401 0.24128502 -0.00000026
-0.05510370 -0.76989062 0.00000000
0.19708549 0.36750177 0.00000344
-0.14056916 0.56013119 0.05101670
-0.18969625 0.28842516 0.00000000
-0.32268760 0.34211291 0.06946053
-0.37925861 -0.37639256 0.00000000
-0.31036826 0.05981234 0.22082585
0.07420419 0.42393526 0.00000452
0.07963554 0.37212982 0.00000000
-0.51915022 0.19319309 0.04503420
0.79584539 -0.60466822 -0.00000049
-0.73677602 -0.34348034 -0.00000056
0.62459989 -0.49966884 -0.00000037
-0.39293638 -0.42172732 0.00000000
-0.11187394 0.62444667 0.03271621
-0.62465862 0.13357195 -0.00000074
0.14271967 -0.47638918 0.00000000
-0.46238332 -0.62017934 0.00000000
-0.64814012 -0.03492480 -0.00000065
-0.03899454 0.13932406 0.00000000
-0.68741689 0.08651666 -0.00000084
0.02837471 0.45158397 0.00000000
0.36366487 0.11993586 0.00000438
0.06792494 0.23989664 0.00000000
-0.30107050 -0.52347667 0.00000000
0.15822992 0.20937186 0.00000000
-0.24395944 -0.78396781 0.00000000
0.41496336 0.13057246 0.00000321
0.35382480 -0.51103556 0.00000000
0.23599692 0.17070673 0.00000000
0.50304631 0.25693201 -0.00000119
-0.63026860 -0.01521744 -0.00000062
0.28276162 -0.46254392 0.00000000
0.59708224 -0.50364072 -0.00000024
0.25198624 -0.08919201 0.00000000
0.06588989 0.64924870 0.00000125
0.63873193 0.06350790 0.00000004
0.56341768 0.20785114 -0.00000093
0.65217078 0.04474479 -0.00000145
0.56635496 0.10909183 0.00000066
-0.08937783 -0.77493832 0.00000000
0.59454926 -0.20111077 -0.00000077
0.15102868 -0.53909118 0.00000000
-0.22380664 -0.47990567 0.00000000
0.79367277 -0.45810893 -0.00000085
0.26271249 -0.35461953 0.00000000
0.33920179 -0.20768640 0.00000000
-0.46884791 0.20396472 0.06534389
0.29576395 0.47403011 -0.00000023
0.13715717 0.21065324 0.00000677
-0.16482025 0.48591142 0.07668895
0.16234623 -0.37122269 0.00000000
0.10317564 0.30797212 0.00000000
0.00935575 0.56455965 0.00000000
0.20730732 0.20415236 0.00000000
0.00586556 0.68496602 0.00000000
0.61852928 -0.19797421 -0.00000088
-0.67437693 -0.67637769 -0.00000013
-0.20957965 0.16395291 0.00000000
-0.02445210 0.58108639 0.00000000
0.79249968 -0.79340190 -0.00000002
0.03196980 -0.43487282 0.00000000
-0.08629861 -0.07155651 0.00000000
-0.57800721 0.19738044 0.01264394
0.22287950 0.41311938 -0.00000027
0.05944720 0.64027988 0.00000150
-0.75218611 -0.43217864 -0.00000046
0.29333343 0.07869660 0.00000639
-0.17983753 0.21558986 0.20785429
-0.75405503 -0.69526308 -0.00000013
-0.37451313 0.23141628 -0.00000030
-0.33249669 0.38624381 0.04174789
-0.20410481 -0.50322980 0.00000000
0.75942941 -0.42145303 -0.00000095
0.04622927 0.15107124 0.00000000
-0.01720686 0.68302076 0.05125916
0.02640614 0.35716312 0.00000624
0.54749774 -0.11877747 -0.00000071
-0.44122756 -0.33146358 0.00000000
0.11922472 0.32167740 0.00000000
-0.12054435 0.08802906 0.30385204
-0.27657520 -0.38967570 0.00000000
-0.12054964 0.39503112 0.00000000
-0.40467017 0.39083639 0.00230782
0.34218495 -0.77650877 0.00000000
0.00247299 0.27672853 0.00000781
-0.72489088 -0.63736506 -0.00000020
0.34792121 -0.07713085 0.00000000
-0.25587797 0.25893043 0.14652156
-0.02130189 0.19573587 0.00000000
0.00577388 -0.32992220 0.00000000
0.19419126 0.55429093 -0.00000039
-0.20843340 -0.16576463 0.00000000
0.21827506 -0.05666899 0.00000000
0.37945286 -0.48529236 0.00000000
-0.10819153 0.28845675 0.00000000
-0.39233553 0.07600808 0.17039362
-0.54649416 -0.75561870 0.00000000
0.19037362 0.56397442 0.00000029
0.39772308 -0.30971542 0.00000000
-0.13987317 -0.67514796 0.00000000
-0.50087349 -0.30753147 -0.00000009
0.44318089 0.11871638 -0.00000069
-0.24312475 -0.36249437 0.00000000
0.18463177 -0.66272771 0.00000000
-0.33873279 0.29047489 -0.00000027
-0.14654193 0.52208594 -0.00000007
0.06576842 -0.76584979 0.00000000
-0.12059178 0.42692887 0.00000000
-0.40801643 0.04163501 0.17999702
-0.02142054 -0.05818138 0.00000000
-0.34771743 0.21079361 0.12406858
0.31113596 0.02652395 0.00000691
-0.29428977 0.09023805 0.21345473
0.11104801 0.11620134 0.00000000
-0.04331415 0.09443828 0.00000000
0.06550161 0.02922056 0.00000000
0.12147079 -0.69292649 0.00000000
-0.06436074 0.66880699 -0.00000002
-0.69180949 -0.52642775 -0.00000030
0.61470570 -0.57548329 -0.00000019
0.37425555 0.26802075 0.00000170
0.73155240 0.03407366 -0.00000177
0.49772408 0.23251032 -0.00000008
0.09519783 0.18344923 0.00000000
0.01595648 0.00327277 0.00001171
0.27031721 0.47209108 0.00000029
0.33328002 0.04635516 0.00000619
-0.22294326 0.46139727 0.05942168
0.52132492 0.17995699 0.00000035
0.13956152 0.04663791 0.00000919
0.79217402 -0.36394665 -0.00000109
0.21977453 0.38105391 -0.00000020
-0.10066518 0.15321513 0.28057505
0.08042760 0.67200530 -0.00000012
-0.10401419 0.25473655 0.22669684
0.59650836 0.14507786 -0.00000139
0.10648807 0.14558661 0.00000821
-0.48201948 -0.67550355 0.00000000
-0.20054723 -0.54905972 0.00000000
0.39676426 0.34717447 -0.00000089
0.25572647 0.01835531 0.00000787
-0.16101944 0.36264017 0.00000000
0.48379765 -0.28702694 -0.00000014
0.47785032 -0.22323407 -0.00000023
-0.70074442 -0.02892734 -0.00000076
0.36574247 -0.26608085 0.00000000
-0.54300324 0.14598979 0.05703078
0.37367271 -0.77869935 0.00000000
0.39856713 0.17070007 -0.00000059
0.11923331 0.40456407 0.00000413
-0.19257057 0.59001450 0.00894687
0.00579716 -0.49604284 0.00000000
0.55253583 0.16397745 0.00000001
-0.03470165 0.42648304 0.00000000
0.48248847 0.12068002 -0.00000086
-0.33812351 -0.54316468 0.00000000
-0.03679801 -0.47187569 0.00000000
0.15245989 -0.21816704 0.00000000
0.66183602 -0.70734920 -0.00000016
0.51114844 -0.01221092 -0.00000075
-0.57834617 0.06984199 -0.00000059
-0.29758185 -0.00554435 0.00000000
-0.74742909 -0.14895014 -0.00000076
-0.13428965 0.42611653 0.00000000
-0.31793697 0.08582893 -0.00000005
0.20424444 0.10928156 0.00000728
-0.55142191 -0.40415141 -0.00000011
-0.19468619 0.10868221 0.25515061
-0.12186376 0.31637703 0.00000000
-0.36736771 0.16020101 0.13996571
-0.04910411 -0.45818065 0.00000000
-0.46232512 0.27193103 0.03377620
0.15542561 0.49617248 -0.00000013
0.30619254 0.48556200 -0.00000063
0.10254118 0.38198711 0.00000472
-0.10851705 0.25437248 0.22457053
0.24049500 0.35816050 -0.00000025
0.39286106 -0.73760280 0.00000000
-0.23683793 -0.56847096 0.00000000
0.32180862 -0.45878737 0.00000000
-0.48389713 -0.32713358 -0.00000004
-0.37975441 -0.65860386 0.00000000
0.34705333 0.33521442 -0.00000066
-0.56572347 -0.69999558 0.00000000
-0.26982501 0.43090685 -0.00000025
0.00424146 0.01173903 0.00000000
-0.62030128 0.17840593 -0.00000077
0.30600351 0.13346046 0.00000526
-0.00070975 -0.15726124 0.00000000
-0.33104777 -0.08071387 0.00000000
0.50238881 0.06504035 -0.00000084
-0.19432714 0.39282562 0.10935355
0.77441308 -0.27402322 -0.00000131
-0.17827021 -0.43533584 0.00000000
-0.54256630 -0.25548508 -0.00000022
0.37795806 0.22720274 -0.00000060
-0.19941279 -0.54781229 0.00000000
0.14883558 -0.46771586 0.00000000
-0.35144166 -0.44211008 0.00000000
0.38662282 0.12558004 0.00000384
0.11926706 0.10758471 0.00000859
-0.24249585 0.45393875 -0.00000021
-0.53143492 0.14901536 0.06141979
0.02149918 0.57291081 0.00000000
-0.20982417 0.35284142 -0.00000005
-0.31956850 0.11666575 -0.00000008
0.69123237 -0.47989879 -0.00000069
0.38591443 0.08421641 0.00000455
-0.09709557 0.14877954 0.28468778
-0.52039334 -0.03199165 -0.00000038
0.29618230 0.22121738 0.00000398
-0.22457147 0.04275700 0.00000000
-0.76596147 -0.17150748 -0.00000078
0.09337833 -0.31988174 0.00000000
-0.19334573 -0.58821250 0.00000000
-0.60516333 0.05942314 0.06956996
0.54157739 -0.41373066 -0.00000017
-0.04300963 0.66795238 0.04574442
0.32582060 -0.35652580 0.00000000
0.57906056 -0.15820162 -0.00000078
-0.06080828 -0.28637304 0.00000000
0.53053850 -0.31004977 -0.00000030
-0.16999240 0.39355754 0.12147959
0.39029865 0.05171596 -0.00000034
0.76375525 -0.08587117 -0.00000169
-0.34979733 0.28615216 -0.00000029
-0.15716576 -0.71342468 0.00000000
-0.07853108 0.27437078 0.00000000
-0.03019121 0.37776101 0.00000000
-0.01487279 0.00947299 0.00000000
0.25740757 -0.42386911 0.00000000
0.21508877 -0.73242532 0.00000000
-0.00678671 -0.11838691 0.00000000
0.07568799 0.71923419 -0.00000010
0.50703846 0.29014549 -0.00000126
-0.14646066 0.64897367 -0.00000018
-0.52744089 -0.75449907 0.00000000
0.25034460 0.03010358 0.00000000
0.45803172 -0.34882786 0.00000000
0.19013979 0.11413884 0.00000000
-0.38388428 -0.35034547 0.00000000
0.18297965 -0.04113266 0.00000000
-0.23157895 0.00988418 0.00000000
-0.13832490 0.16325546 0.25606890
0.55466591 0.15931649 0.00000005
0.32493940 0.29342615 -0.00000049
-0.38853675 0.24537249 -0.00000034
0.61265005 0.15280841 -0.00000147
-0.64820735 -0.07009229 -0.00000061
-0.15113996 -0.37904235 0.00000000
-0.38477862 -0.41069359 0.00000000
-0.35893379 -0.79302396 0.00000000
0.47722746 0.26868514 -0.00000110
-0.58428015 -0.68770684 0.00000000
0.04377429 0.32517122 0.00000000
0.31978927 0.45423891 -0.00000037
-0.15971961 0.27955274 0.18532839
0.32778586 -0.73404032 0.00000000
-0.05870314 0.59330090 0.00000000
-0.75221052 -0.39654838 -0.00000050
-0.44946094 -0.62154695 0.00000000
0.65939905 0.07127631 -0.00000153
-0.37772339 -0.44850864 0.00000000
0.13963850 0.28949043 0.00000555
-0.54500972 -0.64090092 0.00000000
-0.58297795 -0.43641944 -0.00000015
0.67148518 0.00938517 0.00000031
-0.15405367 -0.33219679 0.00000000
0.52056460 -0.10343461 -0.00000062
-0.47924402 0.14731784 -0.00000045
-0.29889295 0.34706328 -0.00000024
-0.51730876 0.25467074 0.01439505
0.50700016 0.09811651 0.00000199
-0.30505192 0.02974965 0.00000000
0.00296520 -0.18468891 0.00000000
0.15915922 0.27870461 0.00000000
0.62365190 -0.75637514 0.00000000
0.06390548 -0.51408068 0.00000000
-0.00798848 0.08722712 0.00000000
0.04088460 0.64909913 0.00000000
-0.55605371 -0.78246067 0.00000000
0.52398055 -0.17424890 -0.00000051
0.05815293 0.54887479 0.00000000
0.24542736 -0.15827549 0.00000000
-0.02676283 0.51921377 0.00000000
0.00664800 -0.32578716 0.00000000
0.15405569 -0.56622340 0.00000000
0.42055931 0.19158199 0.00000209
0.63427080 -0.21047325 -0.00000092
-0.00672805 -0.63964564 0.00000000
-0.09517297 0.70380108 0.00052692
0.23499864 0.56433709 -0.00000058
0.07732544 0.03747738 0.00001027
0.05838759 -0.34943533 0.00000000
-0.44244959 0.34713367 0.00535095
0.44789990 0.08661462 0.00000332
-0.13865044 0.31344103 0.00000000
-0.31313384 0.32206976 0.08466649
-0.58324951 0.04949858 -0.00000058
-0.30457157 0.08665486 -0.00000002
0.28743185 -0.68752953 0.00000000
-0.28207130 -0.38113080 0.00000000
-0.72875907 -0.21731624 -0.00000066
-0.74797890 -0.66112844 -0.00000017
-0.24539791 0.19438810 0.00000000
-0.16285913 0.19622963 0.22652353
-0.40666957 0.09687593 -0.00000025
0.65812026 -0.72479858 -0.00000011
-0.04058920 0.35502024 0.00000000
0.23581447 -0.54085799 0.00000000
-0.09469788 0.51736381 0.09655575
-0.03905770 0.57259496 0.09676557
0.56878906 0.12398586 0.00000037
0.03147621 0.62665885 0.00000000
-0.00984641 0.34615989 0.00000000
-0.19189641 0.18434657 0.00000000
-0.07380206 0.66488138 -0.00000004
-0.21299608 0.48165977 -0.00000017
0.17368030 0.04550753 0.00000000
0.45458999 0.23855454 -0.00000095
-0.14044318 0.12835410 0.00000000
0.37624612 -0.08657764 -0.00000004
0.47143227 -0.18961916 -0.00000026
-0.26919951 -0.27535865 0.00000000
-0.22074013 0.56428960 0.00769083
0.13812550 -0.74431078 0.00000000
-0.30006251 0.33044276 0.08708036
0.31849677 -0.40073641 0.00000000
-0.20700018 -0.64329968 0.00000000
-0.47779667 -0.26769316 -0.00000008
0.36036878 -0.40374980 0.00000000
0.03415781 -0.64686745 0.00000000
0.36272448 0.41872930 -0.00000087
0.40904624 0.27311880 -0.00000081
0.35221845 0.26354390 -0.00000055
-0.16427806 -0.63167681 0.00000000
-0.23321116 0.08654993 0.24672893
0.01232695 0.22643339 0.00000842
0.32958280 -0.34830459 0.00000000
-0.31704192 0.36225968 0.06201035
0.26919328 0.16207988 -0.00000002
0.15925160 -0.50938377 0.00000000
-0.15643241 0.39104402 0.12973744
-0.24763380 0.29131762 -0.00000008
0.15505301 -0.23491697 0.00000000
0.29195994 -0.22635444 0.00000000
0.51484724 -0.37792601 -0.00000011
0.26664268 -0.37588871 0.00000000
-0.05504722 0.67141804 -0.00000000
-0.23527818 0.13630085 0.00000000
0.70492814 -0.02119609 -0.00000156
-0.27036331 -0.19673641 0.00000000
-0.00192214 0.56004384 0.00000000
0.70731279 -0.24475981 -0.00000117
0.75898002 -0.70395023 -0.00000024
0.06347546 0.65512027 0.00000120
0.00022902 0.58404575 0.00000324
-0.30488050 -0.06360486 0.00000000
-0.32063972 -0.34042691 0.00000000
0.66608788 -0.75600391 -0.00000009
0.55884923 -0.55933002 0.00000000
0.12934305 0.30204828 0.00000000
0.02942329 -0.66546571 0.00000000
0.37871473 0.32591665 -0.00000078
0.04278793 0.21595497 0.00000000
-0.22032063 0.38212625 0.10149601
0.07337899 0.18991914 0.00000000
-0.21251831 0.09276200 0.25416845
-0.41933177 -0.05063364 -0.00000014
0.75871852 0.02654173 -0.00000165
0.02173746 -0.31888649 0.00000000
0.57966496 -0.29155584 -0.00000054
0.73455581 -0.49726323 -0.00000076
-0.11673369 0.15589036 0.27094536
-0.25788593 0.16485049 0.19382446
-0.30144995 -0.48391440 0.00000000
0.75647615 0.01154467 -0.00000183
-0.34843504 0.10497641 0.17806536
0.02421364 0.32025065 0.00000683
0.04222777 0.63059143 0.00000190
-0.24968729 -0.04891976 0.00000000
-0.46415977 -0.14145613 -0.00000016
0.26440755 -0.16288406 0.00000000
0.38727102 0.26140096 -0.00000070
-0.16884606 -0.77270252 0.00000000
-0.15738249 -0.01286233 0.00000000
-0.38762842 0.26393096 0.07626328
0.26502446 -0.45645324 0.00000000
-0.49400104 -0.42638410 0.00000000
0.16014516 -0.67321185 0.00000000
0.21284078 -0.71540859 0.00000000
0.33820093 -0.68382522 0.00000000
-0.05568924 -0.09449785 0.00000000
0.24521033 0.35580029 0.00000271
0.13041593 -0.58520069 0.00000000
-0.27023222 -0.73010246 0.00000000
0.36578731 -0.25384274 0.00000000
0.20202038 0.40956771 0.00000264
0.78148756 -0.30893871 -0.00000123
-0.40252470 -0.05604692 -0.00000010
0.29937590 0.26705300 0.00000315
-0.58420965 0.17323519 -0.00000069
-0.76090459 0.02852505 -0.00000094
-0.25564294 0.29147607 -0.00000010
0.21498227 0.48059964 0.00000121
0.22622283 0.10420238 0.00000000
0.39734653 0.02633021 0.00000529
0.14879253 0.61263317 -0.00000030
-0.58026706 0.16380702 0.02873184
-0.55852413 -0.20111423 -0.00000031
-0.72481291 -0.56392806 -0.00000030
0.50307239 0.00387377 -0.00000074
-0.77693300 -0.57411929 -0.00000028
0.74929117 -0.19360418 -0.00000144
-0.40377759 0.04932292 0.17822501
0.36541223 -0.26753703 0.00000000
-0.13700725 0.50856046 -0.00000003
0.43950781 -0.65854805 0.00000000
-0.71953886 -0.73237126 -0.00000008
0.00742653 0.65759581 0.00000000
-0.78224127 -0.03303032 -0.00000093
-0.64795023 -0.53728730 -0.00000020
0.38394185 0.27172540 -0.00000070
0.34765326 0.36329129 0.00000062
-0.20434859 0.44757588 -0.00000012
0.49079097 -0.38066291 -0.00000001
0.00534993 0.40099426 0.00000000
0.38700724 0.24920803 -0.00000068
-0.32822959 -0.10288310 0.00000000
0.65392049 -0.13568981 -0.00000114
-0.43062385 0.04454066 0.16688918
0.06432315 0.36703515 0.00000552
0.55399585 -0.36800265 -0.00000030
-0.31617991 -0.26759808 0.00000000
-0.52511520 -0.24774441 -0.00000019
0.32911278 -0.13136923 0.00000000
0.22026993 0.48644768 -0.00000039
0.32673275 -0.15152582 0.00000000
0.19760792 -0.33259724 0.00000000
0.04508878 -0.71935467 0.00000000
0.17105470 0.10145790 0.00000000
0.47740841 0.23758134 0.00000023
-0.12148414 0.25698978 0.00000000
-0.18630493 -0.53429022 0.00000000
0.28279181 -0.28505203 0.00000000
0.43586037 0.23761155 -0.00000087
0.30087378 -0.06990390 0.00000000
-0.32635151 -0.23075230 0.00000000
-0.17020584 0.13880579 0.00000000
-0.25889540 -0.62594097 0.00000000
-0.04877680 -0.45739948 0.00000000
-0.76049323 -0.48314019 -0.00000040
0.38678768 -0.27842259 0.00000000
-0.08669778 0.30944202 0.00000000
-0.10683858 0.10583250 0.30174674
-0.31412070 -0.49108426 0.00000000
-0.15286541 0.32015862 0.16798809
-0.13494170 -0.43241583 0.00000000
0.14629000 -0.07273508 0.00000000
0.16182752 -0.48821243 0.00000000
0.01701710 -0.20363673 0.00000000
-0.24428676 0.43775226 0.06060409
0.50115026 -0.17583824 -0.00000041
-0.05482867 -0.40222513 0.00000000
-0.03796582 -0.72700201 0.00000000
-0.76746362 -0.47218753 -0.00000041
0.29002981 0.43919481 -0.00000060
-0.68463603 -0.58255734 -0.00000024
0.24007802 0.47073546 -0.00000044
0.60191331 0.02850472 0.00000133
-0.21810527 -0.75054962 0.00000000
-0.60750704 -0.16829161 -0.00000044
0.53050313 -0.26862830 -0.00000037
-0.29706063 0.28055601 -0.00000017
-0.62225208 0.06536085 0.05773968
-0.01141247 0.42962604 0.00000000
0.21969785 0.48623861 0.00000102
-0.23115319 0.53400403 -0.00000026
-0.62257486 -0.05158043 -0.00000058
-0.39883798 -0.00397894 -0.00000014
0.44013940 -0.07534577 -0.00000033
-0.74397300 -0.44946071 -0.00000044
0.76147906 -0.33340432 -0.00000117
-0.25170345 0.18214176 0.00000000
-0.79989309 -0.01890526 -0.00000098
0.24661470 -0.40152263 0.00000000
0.50173919 0.10074918 0.00000205
0.19223756 0.34670033 -0.00000002
0.65308391 0.02183921 -0.00000141
-0.46251873 0.17421171 -0.00000043
-0.59233158 -0.63107570 0.00000000
0.11677187 -0.55892536 0.00000000
-0.27658533 -0.74679991 0.00000000
-0.19659121 -0.52025563 0.00000000
-0.12202798 -0.16744539 0.00000000
-0.02898761 0.66342492 0.00000000
-0.47926117 -0.29814423 -0.00000005
-0.52970228 -0.17688134 -0.00000027
-0.10827906 0.24802123 0.00000000
0.59453190 0.09144924 -0.00000128
-0.43262190 0.10570202 -0.00000031
0.39035621 0.33037313 0.00000035
0.11287368 -0.31148881 0.00000000
-0.34418929 0.24311641 0.10927483
-0.47409860 -0.07427555 -0.00000024
0.40543186 0.20112318 -0.00000067
0.02988782 0.54063082 0.00000000
-0.20144264 -0.41939512 0.00000000
0.04639972 -0.64155716 0.00000000
0.03277539 0.11020297 0.00000000
0.36758470 0.00132313 -0.00000016
0.26383315 -0.12990472 0.00000000
0.12097238 -0.26922802 0.00000000
0.46255214 -0.04788037 -0.00000048
0.36319920 -0.64712101 0.00000000
0.22474381 0.37329289 0.00000281
0.34240874 -0.39362731 0.00000000
-0.17379510 -0.30516365 0.00000000
0.25361609 0.40833797 -0.00000039
0.35861843 0.22011874 -0.00000051
0.18242429 0.56267464 0.00000046
0.45380536 -0.50868360 0.00000000
0.47770235 -0.41937828 0.00000000
0.07908902 0.64826068 0.00000102
-0.56988095 -0.19570480 -0.00000034
0.36364049 0.34098956 -0.00000074
-0.56803742 -0.05757684 -0.00000045
0.19256447 0.39559428 -0.00000011
-0.01052741 -0.11459067 0.00000000
0.07224837 0.68935986 -0.00000011
-0.12804554 0.17097170 0.00000000
0.75325058 -0.44225724 -0.00000089
-0.23350432 0.27040544 0.15212070
-0.11786798 -0.19664687 0.00000000
0.37626685 -0.22540546 0.00000000
-0.43768833 0.05378697 -0.00000027
0.19096627 0.25155062 0.00000000
0.74770909 -0.58039692 -0.00000055
-0.39856139 -0.22025399 0.00000000
0.25133827 -0.41225515 0.00000000
-0.29972027 0.21419426 0.14698092
0.45362533 0.16772597 0.00000185
0.03852353 0.01564109 0.00000000
-0.05014000 0.40864715 0.00000000
0.58348030 -0.28386711 -0.00000057
-0.79341675 -0.23634163 -0.00000070
0.65978639 -0.69640101 -0.00000017
0.68185420 0.06060698 -0.00000160
-0.46149718 0.25541754 0.04268567
-0.24901985 0.53921134 -0.00000030
-0.11433274 -0.66924327 0.00000000
0.18567450 -0.16724282 0.00000000
-0.41917315 0.34714024 -0.00000049
-0.22446437 -0.62593596 0.00000000
-0.27351634 0.05015239 0.00000000
-0.32154724 0.32918334 0.07668921
-0.41098447 -0.34500375 0.00000000
-0.33194441 -0.37501427 0.00000000
-0.10474851 -0.18683411 0.00000000
-0.21568635 0.32182623 0.13485681
-0.25054136 0.49862401 0.02611673
-0.12755873 -0.61403621 0.00000000
0.10517217 0.58878821 -0.00000008
-0.54751655 0.00900108 -0.00000047
0.59514148 0.12210908 -0.00000134
-0.05080935 0.25219910 0.00000000
0.08201322 0.01290125 0.00001057
-0.02687740 0.43235953 0.00000000
0.11848215 0.07539466 0.00000000
0.30029677 0.25308016 -0.00000031
-0.18126487 0.34982740 0.13815511
-0.11921961 -0.55678871 0.00000000
0.11964843 0.14918195 0.00000796
-0.75919417 -0.78754283 -0.00000002
-0.15257939 -0.12655078 0.00000000
0.12955551 -0.76005192 0.00000000
-0.03238064 0.56055949 0.00000000
-0.31551378 0.05580410 -0.00000002
0.33648198 -0.07091810 0.00000000
0.26261141 -0.63128942 0.00000000
-0.55461941 -0.49740979 -0.00000004
-0.66441914 -0.15286022 -0.00000058
0.01623561 -0.65867725 0.00000000
0.02379292 -0.70675942 0.00000000
0.67085612 -0.52703636 -0.00000052
0.68355403 -0.29853461 -0.00000098
0.09196270 0.45621043 0.00000000
-0.11530544 0.58276503 0.05236789
0.08426067 0.52282535 0.00000289
0.51196285 0.19432753 -0.00000111
-0.48769587 -0.46421476 0.00000000
0.11235259 0.18516946 0.00000000
0.00833454 0.59201819 0.00000299
-0.11198968 0.40558902 0.00000000
0.51402596 -0.26630154 -0.00000031
-0.69257913 -0.43963793 -0.00000038
-0.27289862 -0.47296954 0.00000000
0.49697045 -0.30765970 -0.00000016
0.75943959 0.02204425 -0.00000159
-0.26259626 0.31239806 -0.00000013
-0.41641471 0.31828800 -0.00000046
0.19236434 0.47685426 -0.00000025
0.31527655 -0.21828567 0.00000000
0.70951471 -0.29479816 -0.00000109
-0.28736195 0.38303410 0.06658579
-0.49858233 0.17890721 0.06294099
0.40771121 0.20617534 -0.00000069
-0.06247506 0.35193097 0.00000000
0.15605274 0.04837617 0.00000892
-0.67900945 -0.38977694 -0.00000040
0.23895864 -0.58364186 0.00000000
-0.70032829 -0.55751285 -0.00000029
0.40597397 -0.37206742 0.00000000
0.57599816 -0.33819384 -0.00000045
-0.33352968 0.45098511 0.00795517
-0.34571375 0.21944059 0.12065547
0.59329383 -0.06823278 -0.00000100
-0.10011283 -0.08014246 0.00000000
-0.19157317 -0.36001793 0.00000000
0.37473414 0.02158625 0.00000581
0.43943994 0.25077545 -0.00000090
-0.26802389 -0.15750304 0.00000000
0.56627346 -0.70786573 0.00000000
0.55433040 -0.70696463 0.00000000
-0.48306843 0.31663862 -0.00000060
0.59433418 -0.60421601 -0.00000005
0.07664859 0.06120154 0.00000000
0.62005794 -0.55818887 -0.00000025
-0.63402566 -0.11453296 -0.00000054
0.56980947 0.09277393 0.00000087
0.75510705 -0.76218133 -0.00000009
0.48595287 0.00814531 -0.00000067
0.77086826 -0.20573984 -0.00000149
-0.24857252 0.39976183 -0.00000018
-0.05080808 -0.26461852 0.00000000
-0.32209082 -0.19135932 0.00000000
0.49458245 0.11544194 -0.00000090
-0.79984381 -0.68576274 -0.00000014
-0.01144976 0.01903996 0.00000000
-0.64661931 -0.58554578 -0.00000016
0.26196563 0.08221343 0.00000000
-0.33832894 -0.24289920 0.00000000
-0.34659477 -0.44358772 0.00000000
0.00061021 -0.73813180 0.00000000
-0.32158653 -0.15142898 0.00000000
0.15826968 0.61893830 -0.00000036
0.25916703 0.03146260 0.00000000
0.27326763 -0.34388709 0.00000000
0.23253789 -0.05519446 0.00000000
0.02833002 -0.33677506 0.00000000
0.09613626 0.20015030 0.00000755
-0.26526393 0.29172325 0.12485165
-0.01584114 -0.17593414 0.00000000
-0.07882700 0.14378175 0.29664100
-0.32246071 0.38422776 0.04793985
-0.73866338 -0.56305926 -0.00000030
-0.24864787 0.25412267 -0.00000005
0.10471791 0.14218534 0.00000000
0.01687196 -0.16807338 0.00000000
-0.30480188 0.26659727 -0.00000018
-0.18140889 0.54906783 0.03571848
0.30431886 -0.03948389 0.00000000
0.03243009 0.18848759 0.00000000
-0.07549054 -0.57280133 0.00000000
0.61372894 -0.32991068 -0.00000062
-0.33157192 -0.16627716 0.00000000
0.13565606 -0.40804890 0.00000000
0.03522744 0.04855763 0.00001074
0.62360406 0.16068273 -0.00000153
0.29363929 -0.13110762 0.00000000
-0.19153947 0.58563439 -0.00000022
0.65579361 -0.41197484 -0.00000066
-0.57822997 0.05783071 0.08422565
-0.30049767 -0.58184392 0.00000000
0.14177063 0.25471679 0.00000604
-0.55101514 -0.43506313 -0.00000008
-0.16674649 0.59450046 0.01990976
-0.52857420 -0.44556793 -0.00000003
-0.28053547 -0.53830311 0.00000000
0.02006454 -0.76580249 0.00000000
0.60541579 -0.16221372 -0.00000088
-0.07333047 0.46782894 0.00000000
-0.20916492 -0.19244161 0.00000000
0.34435754 0.21934436 0.00000309
0.60337834 0.16010993 -0.00000144
-0.17281062 -0.37666843 0.00000000
-0.34579258 -0.13445314 0.00000000
0.11548363 0.48828495 0.00000000
0.01843927 -0.54348221 0.00000000
-0.39934324 0.04925426 0.18053852
0.57022189 -0.62461789 0.00000000
-0.29461088 -0.41707734 0.00000000
0.11591514 -0.06121290 0.00000000
0.22059693 0.47587663 -0.00000037
-0.51058912 -0.54870929 0.00000000
0.26200845 -0.68317429 0.00000000
0.51287660 -0.65422522 0.00000000
0.35985301 -0.68390370 0.00000000
0.05434468 0.53077441 0.00000322
-0.12151410 -0.70323516 0.00000000
-0.65101342 -0.61238301 -0.00000014
0.13173757 0.36864193 0.00000448
-0.12534379 -0.59070077 0.00000000
-0.71820905 -0.21571248 -0.00000063
-0.36198461 -0.64460052 0.00000000
0.32447819 -0.55083358 0.00000000
0.35094269 0.22006181 0.00000295
0.34910828 0.20700675 0.00000320
-0.01900328 -0.47033914 0.00000000
0.61674213 -0.57286066 -0.00000021
-0.30832530 -0.25475147 0.00000000
0.38694741 0.06569533 -0.00000035
0.78101206 -0.61875238 -0.00000045
-0.12145225 -0.17729577 0.00000000
-0.32715050 0.40963346 0.03247775
0.31249298 0.01275423 0.00000000
0.40177812 -0.52352364 0.00000000
0.02628361 0.59179797 0.00000273
-0.48759112 -0.75697865 0.00000000
-0.17032959 0.05117450 0.00000000
0.18178488 -0.67627630 0.00000000
0.28464245 -0.57849500 0.00000000
0.61579105 -0.08171845 -0.00000107
0.22151802 -0.73255328 0.00000000
0.04734335 -0.19620496 0.00000000
-0.22555783 0.43904406 0.06956276
0.10090135 0.03376928 0.00000997
-0.23724203 -0.00221428 0.00000000
-0.29527551 0.22071949 0.14591205
-0.43959093 0.32013207 -0.00000051
-0.31538397 0.35609235 0.06603073
0.34452468 0.22299917 -0.00000045
0.22452078 0.28546435 -0.00000005
-0.09214072 -0.20670824 0.00000000
-0.21643212 -0.51607382 0.00000000
-0.13957357 0.64531334 -0.00000016
0.23357955 -0.72841399 0.00000000
-0.37971838 0.08590002 0.17179376
-0.21847982 0.57449526 -0.00000027
0.70637291 -0.73687586 -0.00000016
0.39252812 -0.41018567 0.00000000
-0.70306393 0.03769430 0.03043519
-0.53381589 -0.12270735 -0.00000032
0.35491956 0.03660418 -0.00000017
-0.00936812 0.66823802 0.00000000
-0.00690346 -0.64849873 0.00000000
0.18496787 0.04153609 0.00000000
0.18158830 -0.13055999 0.00000000
-0.74551497 -0.46263801 -0.00000042
-0.40219187 -0.18204965 0.00000000
-0.56934542 -0.59579200 0.00000000
-0.43404637 0.25206427 -0.00000044
-0.54777435 -0.74986966 0.00000000
-0.46165233 -0.38063622 0.00000000
-0.54871856 0.19665335 0.02806512
0.67518410 0.01191630 -0.00000149
-0.09061267 0.70104647 0.00428510
0.06798327 0.14254672 0.00000000
-0.31358474 -0.17726792 0.00000000
-0.10567338 0.59151715 0.05281999
-0.57408933 0.03998904 0.09551946
0.48736229 0.31182626 -0.00000122
-0.49649538 0.08081811 0.11440822
0.20416520 0.52726366 -0.00000039
-0.43862023 0.04809564 -0.00000027
-0.53608024 -0.79050518 0.00000000
-0.39107839 -0.52822928 0.00000000
-0.03930736 -0.69668660 0.00000000
-0.68154518 -0.24221034 -0.00000053
0.15153509 -0.56889923 0.00000000
-0.13853232 0.45391346 0.00000000
0.11842478 0.04405247 0.00000000
-0.16829469 -0.77739494 0.00000000
-0.36717136 0.14358347 0.14860415
-0.47295177 -0.38150122 0.00000000
-0.16442059 0.14113459 0.25402695
0.14262643 0.56865937 -0.00000020
-0.27401043 -0.56713896 0.00000000
0.04745656 0.50751476 0.00000367
0.56442535 -0.70983600 0.00000000
-0.50221964 -0.73955090 0.00000000
0.00470611 -0.22716074 0.00000000
-0.30321233 0.34599964 -0.00000025
-0.71089759 -0.77924613 -0.00000003
0.23506095 0.05620680 0.00000761
0.22360959 0.13361005 0.00000662
0.71825002 -0.29010032 -0.00000114
0.03231333 0.61636467 0.00000227
0.06463438 -0.37852875 0.00000000
0.08252233 -0.75427214 0.00000000
-0.05804234 -0.70065745 0.00000000
-0.25850293 0.52370906 0.00913842
-0.69681913 -0.21174112 -0.00000059
-0.14292653 0.29513213 0.18595183
-0.61632697 -0.65583469 -0.00000003
0.63027372 0.07249999 -0.00000140
-0.21041208 0.58745927 0.00109324
0.37996480 -0.59331011 0.00000000
0.02314542 0.03512847 0.00001112
0.22423703 0.16443577 0.00000000
-0.43082389 0.08819000 0.14436079
0.67945409 -0.32421183 -0.00000091
-0.52123646 -0.08397990 -0.00000033
-0.15533236 0.21520371 0.22064231
-0.54806275 0.04643530 0.10557924
0.00233019 -0.39790544 0.00000000
0.18221765 -0.23626034 0.00000000
0.08735028 -0.37627812 0.00000000
0.77459104 -0.75298598 -0.00000012
-0.49467611 0.27532580 -0.00000059
-0.35899390 0.31599679 -0.00000034
0.45261356 -0.43453096 0.00000000
0.14440925 0.37887611 0.00000414
0.08614486 0.55586199 0.00000236
-0.22517909 0.53066848 -0.00000024
-0.34519962 0.02311965 -0.00000005
0.73278390 0.03006789 -0.00000177
-0.35301731 0.00791187 -0.00000005
-0.63596572 -0.35815614 -0.00000033
-0.29252145 -0.56638337 0.00000000
0.50591909 -0.11870427 -0.00000054
-0.05806264 0.63771139 0.05354748
0.15854231 -0.07091078 0.00000000
0.35723666 0.25316046 -0.00000056
-0.53302448 -0.75586700 0.00000000
0.07429413 0.49136393 0.00000000
0.54612172 -0.48985494 -0.00000005
0.43737505 -0.25813605 0.00000000
-0.79415785 -0.48851923 -0.00000039
-0.46273269 0.17730776 0.08218119
-0.05096368 0.73377847 0.00783890
-0.10641380 -0.13479959 0.00000000
-0.40335727 -0.66401808 0.00000000
0.67440696 -0.19270998 -0.00000112
0.30943268 -0.61747299 0.00000000
0.11880833 -0.70420163 0.00000000
-0.49171599 -0.44491820 0.00000000
-0.24932229 0.29642514 -0.00000009
-0.64422401 -0.63461374 -0.00000011
0.70542656 0.01091632 -0.00000037
-0.43876463 0.29181217 0.03566657
0.21044007 -0.16404616 0.00000000
0.46667280 -0.34048053 0.00000000
0.51086538 -0.11884974 -0.00000056
-0.54326330 0.19514641 0.03164208
0.54166376 -0.21668251 -0.00000051
-0.18974251 0.20929082 0.00000000
0.28933121 -0.28545937 0.00000000
-0.35799869 -0.15496391 0.00000000
0.53119749 -0.51029568 0.00000000
0.19325992 0.26172389 0.00000516
0.24176017 0.23455617 0.00000480
-0.64910858 -0.33978262 -0.00000038
0.62168516 -0.46783363 -0.00000041
0.30470061 0.15025055 -0.00000015
-0.15956390 -0.67253607 0.00000000
-0.57699032 0.04637476 -0.00000057
-0.57973631 0.08815361 -0.00000061
0.67730804 -0.21657905 -0.00000109
-0.41575106 0.33107147 -0.00000047
0.51488257 0.04531608 0.00000272
-0.78217017 -0.79677970 -0.00000000
0.28194672 0.22261888 -0.00000018
-0.23666799 0.25986895 0.15590858
-0.45776754 0.20899463 0.06845244
-0.60397324 -0.23905643 -0.00000037
-0.40811909 -0.26002345 0.00000000
0.33125517 -0.70698904 0.00000000
0.23260027 0.31664118 -0.00000014
-0.06686471 -0.44525824 0.00000000
0.38915938 -0.38686009 0.00000000
0.28080824 0.41548791 -0.00000052
-0.23811320 -0.24523151 0.00000000
0.02219612 -0.72947261 0.00000000
-0.29879694 0.42419309 -0.00000031
0.06472974 0.53022827 0.00000000
0.17909397 -0.32619656 0.00000000
0.01604058 0.13846526 0.00000000
-0.51997384 0.16387391 -0.00000055
-0.47804698 -0.44491541 0.00000000
0.03437981 0.27577609 0.00000000
-0.51244725 0.16019512 0.06543128
-0.46149816 -0.36406864 0.00000000
0.46520449 0.17342199 -0.00000088
0.74508746 -0.15332009 -0.00000149
0.35039710 0.09993220 -0.00000026
-0.14484389 -0.07032268 0.00000000
-0.53733302 0.07892074 -0.00000051
0.18165160 -0.66724439 0.00000000
0.51076444 -0.71285335 0.00000000
0.00947277 -0.76200155 0.00000000
-0.25751428 0.48711905 -0.00000027
0.05471440 0.19581434 0.00000000
-0.15311849 -0.59520952 0.00000000
0.14337516 -0.24599701 0.00000000
0.37214026 -0.77253379 0.00000000
-0.45924678 -0.58439803 0.00000000
-0.26423917 0.52183274 -0.00000032
0.79476441 -0.45878078 -0.00000085
-0.31066886 -0.55653796 0.00000000
0.77028152 -0.25131380 -0.00000137
0.13605031 -0.07758979 0.00000000
0.64846365 0.14774242 -0.00000156
-0.40269382 -0.14689408 -0.00000002
-0.05724837 -0.01130683 0.00000000
0.18223042 0.40979018 0.00000302
0.05888518 0.38088255 0.00000000
-0.28332014 0.00136260 0.00000000
-0.24475274 0.40209973 0.07868180
0.36354880 -0.21459308 0.00000000
0.25279265 0.43222412 -0.00000043
-0.75258637 -0.30841467 -0.00000061
-0.25220499 -0.12273565 0.00000000
-0.43442289 -0.70399419 0.00000000
-0.42497303 -0.51677092 0.00000000
-0.19187197 0.34297977 -0.00000001
0.56059697 -0.09374892 -0.00000081
-0.34769973 0.25174961 -0.00000026
0.35126534 0.42059140 -0.00000083
0.06917596 -0.45681809 0.00000000
0.44560820 0.20345861 0.00000141
0.73662653 -0.27550819 -0.00000124
0.24663293 -0.65054534 0.00000000
-0.10892053 -0.55040342 0.00000000
-0.47820176 0.24832889 -0.00000053
0.22674077 0.18363683 0.00000000
-0.27338862 0.05037676 0.00000000
0.55894102 0.21266569 -0.00000092
-0.14411382 0.43879402 0.00000000
0.62906425 -0.68584686 -0.00000006
0.04263841 0.61419247 0.00000000
0.24112810 -0.70130172 0.00000000
0.35007699 0.30376392 -0.00000062
0.70430165 -0.50042239 -0.00000071
-0.75968233 -0.43895414 -0.00000045
-0.31816749 0.02404010 0.00000000
-0.44002041 -0.07073221 -0.00000017
0.25003571 0.24618164 -0.00000009
-0.33691820 -0.24076179 0.00000000
0.16090777 -0.14646044 0.00000000
-0.06851707 -0.14691239 0.00000000
0.44144811 -0.28898622 0.00000000
-0.15965318 -0.72204161 0.00000000
0.25491332 -0.32449828 0.00000000
-0.18410847 0.06305493 0.00000000
0.25638894 -0.28797396 0.00000000
-0.50237486 -0.57367952 0.00000000
0.14625696 0.54712898 0.00000142
-0.07008706 -0.16048104 0.00000000
0.44194542 0.08347140 0.00000348
0.76489165 -0.75134126 -0.00000012
0.23790882 -0.57252093 0.00000000
0.02693114 0.24897204 0.00000000
-0.69867491 -0.62856456 -0.00000021
0.03776543 -0.65139618 0.00000000
-0.75585695 -0.68164617 -0.00000015
0.11999853 0.43511517 0.00000000
0.45644025 0.23202589 0.00000072
-0.31717923 -0.72774221 0.00000000
-0.65484408 -0.14095311 -0.00000057
-0.37865639 -0.17628686 0.00000000
0.60477570 -0.20477848 -0.00000080
0.24426657 0.07137478 0.00000000
0.67318514 0.09378176 -0.00000162
-0.73268315 -0.29624614 -0.00000059
-0.10172202 0.36586518 0.17078101
0.49545206 0.22816701 -0.00000110
0.58474640 -0.28542406 -0.00000058
0.08478809 -0.36875954 0.00000000
0.39157737 0.06894650 0.00000469
0.27665274 -0.57855971 0.00000000
-0.22302294 0.36836342 -0.00000009
-0.34435665 0.29041206 0.08488986
-0.06044799 0.63722672 0.05257100
-0.72876138 -0.36547866 -0.00000052
-0.14166537 0.36591249 0.15023564
-0.30752481 -0.02684076 0.00000000
-0.17683764 0.20258698 0.21607586
-0.52907797 -0.75129752 0.00000000
-0.39192800 0.14706487 0.13409631
0.03108585 0.39789628 0.00000556
-0.37497404 0.40693717 0.00929273
0.23446589 0.06842724 0.00000000
0.39774089 0.35916378 -0.00000092
-0.46424328 -0.17698504 -0.00000013
-0.44449591 0.22055461 0.06933185
0.22408717 0.37647158 0.00000277
0.11870434 -0.71384241 0.00000000
0.56105990 -0.26534967 -0.00000051
0.10512821 0.33178619 0.00000000
0.03816064 -0.42497988 0.00000000
0.01599411 0.09300139 0.00000000
0.00360536 0.37256100 0.00000000
-0.24037444 0.44596425 -0.00000020
0.02991342 0.57761011 0.00000000
-0.52373942 -0.05559100 -0.00000036
-0.26090492 0.44893921 0.04631869
-0.46447892 0.12636565 0.10745644
0.13235424 -0.77393962 0.00000000
0.29610765 0.41252039 0.00000079
-0.64367752 0.12741350 0.01485129
0.66330334 -0.15863691 -0.00000114
0.79068251 -0.60079124 -0.00000050
-0.33648280 -0.33905864 0.00000000
0.47716468 -0.12938160 -0.00000039
0.74518746 -0.38319746 -0.00000104
-0.43366089 -0.75622255 0.00000000
0.00998145 0.05299965 0.00001105
0.45224563 0.22576282 -0.00000091
-0.31005904 -0.08306028 0.00000000
-0.07230741 0.54689408 0.09288748
0.29268467 0.33163648 0.00000220
0.58870631 -0.49696824 -0.00000022
0.27130949 -0.68829241 0.00000000
0.72608697 -0.19784002 -0.00000133
-0.27787063 -0.26421940 0.00000000
-0.20547835 0.41897215 0.09019128
0.12994362 0.00781171 0.00000000
-0.03892175 0.42225316 0.00000000
0.00149800 0.09593228 0.00001054
-0.20599240 -0.67403162 0.00000000
-0.28873111 -0.30526609 0.00000000
0.06165881 0.20612038 0.00000000
0.04629260 0.42014391 0.00000500
-0.07707078 0.71300778 0.00509718
-0.01735621 0.72847667 0.02782901
-0.72736220 -0.22100373 -0.00000065
-0.10050502 0.20333060 0.00000000
-0.08519665 -0.59937328 0.00000000
-0.06671605 0.63555587 0.00000000
-0.08598504 -0.07084686 0.00000000
0.12756127 -0.75913451 0.00000000
0.11524181 -0.56455544 0.00000000
0.20786968 0.22947911 0.00000000
0.24793840 0.36364123 0.00000253
-0.04183410 0.46650469 0.00000000
0.24794935 -0.45185566 0.00000000
0.30963941 0.37986294 0.00000107
-0.32304070 -0.39985022 0.00000000
0.50357844 -0.62700029 0.00000000
-0.41187148 0.04123351 -0.00000021
0.54071903 0.25289839 -0.00000134
-0.15931207 -0.76662427 0.00000000
-0.18557895 -0.50645857 0.00000000
0.27965739 -0.02345870 0.00000000
0.19965125 0.00755554 0.00000887
-0.43804305 0.20210301 -0.00000041
0.06233191 -0.65447813 0.00000000
0.00419591 -0.77564508 0.00000000
-0.55410583 0.15367182 -0.00000061
0.71029138 0.06687784 -0.00000139
-0.08659720 -0.36906797 0.00000000
-0.31118839 -0.42626816 0.00000000
0.48522877 0.12639231 -0.00000088
0.55152865 -0.02559003 -0.00000089
0.02074832 -0.27838680 0.00000000
0.45097845 0.13683064 0.00000242
0.27711459 0.40405146 -0.00000048
0.54194584 -0.65063057 0.00000000
0.54237195 -0.32682744 -0.00000032
0.24863691 -0.36001459 0.00000000
0.75536338 0.01498694 -0.00000184
-0.57128049 0.11451187 -0.00000061
-0.22175498 -0.60814699 0.00000000
0.38434435 -0.27818619 0.00000000
0.29297841 0.49494566 -0.00000071
0.35117381 0.17744112 -0.00000040
-0.08247950 0.36611470 0.18053873
-0.45223291 0.19103213 -0.00000043
-0.25056959 0.21559484 0.17151285
