ply
format ascii 1.0
element vertex 1401
property float x
property float y
property float z
end_header
0.28227616 0.41582465 -0.00000026
-0.17799495 -0.21632857 0.00000000
0.60345733 0.25845523 0.29291090
0.53283509 -0.78254619 0.00000000
0.22738015 -0.66481829 0.00000000
-0.18319311 0.49120202 0.00000000
0.31506911 -0.55992406 0.00000000
-0.74360236 0.23240299 0.00000000
-0.54590514 0.09096634 0.00000000
0.20842762 0.64482066 0.25192151
-0.25721174 -0.53176672 0.00000000
0.56503481 0.26807307 0.15663662
-0.63392784 -0.68239619 0.00000000
-0.67496493 -0.63720736 0.00000000
-0.50453802 -0.68834205 0.00000000
-0.79239214 -0.74268802 0.00000000
-0.01211542 0.75771951 0.00000000
0.36845804 0.31205759 -0.00000035
-0.02630962 -0.39683408 0.00000000
0.41402173 -0.52016415 0.00000000
0.08988440 0.72985113 0.09337313
-0.41791187 -0.07222774 0.00000000
0.75279862 0.02954896 -0.00000093
-0.70963573 -0.08676398 0.00000000
0.03699690 0.40329750 0.00000000
0.18712454 0.65039735 0.17752002
-0.26375716 -0.54595685 0.00000000
-0.50210288 -0.44283990 0.00000000
0.22200547 -0.08735561 0.00000000
-0.35085261 -0.49510367 0.00000000
0.25017076 0.10642346 0.00000000
-0.16516987 0.11919397 0.00000000
0.78268236 -0.07400479 -0.00000090
-0.48291950 0.77461262 0.00000000
-0.12743260 -0.20610705 0.00000000
0.42228886 0.47504174 0.46047418
-0.58491961 -0.15888318 0.00000000
-0.08108746 0.25828528 0.00000000
0.41531971 0.24733379 -0.00000040
0.36083307 -0.16878375 0.00000000
0.12633407 -0.52137308 0.00000000
-0.20842607 0.08347460 0.00000000
0.40477472 -0.28796904 0.00000000
0.25513236 0.55888051 0.06629892
-0.51411411 -0.26863634 0.00000000
-0.62079960 0.10200490 0.00000000
-0.76353725 -0.13253773 0.00000000
0.07222851 0.13381341 0.00000000
0.43248207 0.38816960 0.09770676
0.41130409 0.28987645 -0.00000043
-0.21412640 0.32837882 0.00000000
-0.01712283 -0.33171461 0.00000000
0.55913154 -0.61165498 0.00000000
0.49850340 0.16607626 -0.00000050
0.19411222 -0.57933931 0.00000000
-0.68759762 -0.27515471 0.00000000
0.43831724 0.22190589 -0.00000042
-0.71262432 -0.46250800 0.00000000
-0.07750869 0.39664656 0.00000000
0.44780660 0.00209797 -0.00000025
0.51056009 0.32650220 0.17534490
0.52666106 -0.62988045 0.00000000
-0.22237365 0.72665262 0.00000000
-0.53783480 -0.16251348 0.00000000
-0.66502453 0.50964993 0.00000000
-0.15549271 0.54776196 0.00000000
0.14426142 0.00072835 0.00000000
-0.07507892 -0.08417465 0.00000000
-0.31733881 -0.19317923 0.00000000
0.15357367 0.52642982 -0.00000009
0.10055755 -0.19974111 0.00000000
-0.73504412 -0.03021154 0.00000000
-0.15395294 0.07496368 0.00000000
0.08917231 -0.09654115 0.00000000
0.10899891 0.07894955 0.00000000
-0.56260000 -0.59291483 0.00000000
0.63275079 -0.17120694 -0.00000049
0.51702058 0.37434711 0.43226327
-0.77503534 -0.23936242 0.00000000
-0.38556124 -0.65831486 0.00000000
-0.70824491 -0.00411372 0.00000000
0.76147601 -0.31273506 -0.00000061
0.16767965 -0.69058016 0.00000000
0.38637849 -0.51681684 0.00000000
-0.10969284 -0.52666540 0.00000000
-0.02631123 -0.38750111 0.00000000
-0.32809113 -0.28574746 0.00000000
-0.42791949 0.63023842 0.00000000
0.15083136 0.29695214 0.00000000
-0.06898297 -0.16789477 0.00000000
0.38198046 0.49555538 0.36682530
0.53914370 -0.34239735 -0.00000014
0.10515813 0.13893848 0.00000000
-0.18961757 -0.06080972 0.00000000
0.19230119 0.03141964 0.00000000
0.10288582 -0.05834095 0.00000000
0.52408050 0.21858810 -0.00000060
0.35501195 -0.63413257 0.00000000
0.30276446 0.55111873 0.25492491
0.04946511 0.75719180 0.03149835
-0.35544344 -0.64083849 0.00000000
-0.50726128 -0.32650841 0.00000000
0.41550770 0.01933269 -0.00000020
-0.51311194 0.68634866 0.00000000
-0.33284976 0.13153738 0.00000000
-0.48527220 -0.01247700 0.00000000
-0.75195501 0.01157366 0.00000000
-0.14533410 0.37170718 0.00000000
0.63103508 -0.17210634 -0.00000049
-0.65121766 0.42665087 0.00000000
-0.45030562 0.58049068 0.00000000
0.57327119 0.17602986 -0.00000067
0.15772279 -0.51077799 0.00000000
0.12444929 0.65071430 -0.00000013
-0.10645003 0.36189870 0.00000000
0.51434052 -0.33720817 -0.00000009
-0.65552224 -0.78138336 0.00000000
0.20471828 0.60274575 0.03531661
0.31968299 0.54913643 0.32558816
-0.60603020 -0.12101704 0.00000000
0.52297747 0.30974180 0.15479819
-0.06133562 -0.02868261 0.00000000
0.73001361 -0.50361428 -0.00000037
0.70746966 -0.06559097 -0.00000074
-0.53060309 0.04835620 0.00000000
0.18668452 -0.68644604 0.00000000
-0.11808406 -0.04878360 0.00000000
0.26695381 -0.61482244 0.00000000
0.31244402 0.51908353 0.14916040
-0.02916670 -0.55456885 0.00000000
-0.20928952 0.58180614 0.00000000
0.46252487 0.36942558 0.15116096
0.55214984 -0.34227475 -0.00000017
-0.68006144 0.49650369 0.00000000
-0.61289265 0.55441122 0.00000000
0.77003339 -0.61154101 -0.00000024
0.19048077 0.21173806 0.00000000
0.68231566 -0.72377842 -0.00000010
-0.71532812 0.29585101 0.00000000
-0.30020965 -0.01606478 0.00000000
-0.62863812 -0.30472258 0.00000000
0.48143387 0.37851022 0.28359835
-0.51791514 0.52898920 0.00000000
0.20598595 0.60526283 0.05322214
-0.06043158 0.37172906 0.00000000
0.28430128 0.47128229 -0.00000032
0.13827509 0.21299383 0.00000000
0.74206071 -0.79473317 -0.00000001
0.77854294 -0.36974883 -0.00000054
-0.02187462 -0.56910420 0.00000000
0.50492659 0.06240551 -0.00000043
-0.42078366 -0.03858617 0.00000000
0.16680475 0.16858530 0.00000000
0.46344143 0.28341165 -0.00000053
-0.49239420 0.69871015 0.00000000
0.39366051 -0.31258225 0.00000000
-0.47761232 0.10037017 0.00000000
-0.54214177 -0.12584841 0.00000000
-0.59178061 0.78564869 0.00000000
-0.12460285 0.18944791 0.00000000
0.22253820 -0.49921894 0.00000000
0.55813096 -0.30968287 -0.00000021
0.67600295 -0.01363939 -0.00000072
0.67322200 0.08897234 -0.00000081
0.49639684 0.35876758 0.26098574
0.08088037 0.72392912 0.02275815
0.01582458 -0.19602233 0.00000000
-0.34145535 -0.31963751 0.00000000
-0.58470445 0.27594833 0.00000000
-0.60898719 -0.50664231 0.00000000
0.17606164 0.30134332 0.00000000
-0.55592388 0.53325106 0.00000000
0.02582189 -0.71222462 0.00000000
-0.63502431 0.76018675 0.00000000
0.54229146 -0.70854380 0.00000000
-0.10456083 0.73529476 0.00000000
-0.41036835 -0.50276442 0.00000000
-0.70814165 0.64156043 0.00000000
-0.64422880 0.56452691 0.00000000
-0.63712028 0.74190155 0.00000000
-0.16466583 -0.48895768 0.00000000
0.28342127 0.58265908 0.31262975
-0.09155797 0.01166568 0.00000000
-0.01286875 -0.45279934 0.00000000
-0.54852966 -0.36810068 0.00000000
-0.57269607 -0.66985297 0.00000000
-0.37156569 0.12949253 0.00000000
0.70011231 0.10446254 0.02164734
-0.69224655 -0.67599571 0.00000000
0.51613193 0.03545630 -0.00000043
-0.79236742 0.00382746 0.00000000
0.41542144 0.38785210 0.01549119
-0.01646612 0.50735786 0.00000000
0.25709116 0.02452652 0.00000000
-0.74673501 -0.35043962 0.00000000
-0.14111063 0.71428974 0.00000000
0.03628054 0.70589764 0.00000000
-0.32918657 0.19719588 0.00000000
0.26165458 0.59028286 0.24571973
0.34675826 0.47332812 0.09503247
0.13683637 -0.18131846 0.00000000
0.55486216 -0.67652261 0.00000000
-0.06690453 -0.26448403 0.00000000
0.66681161 -0.73512446 -0.00000007
0.48876554 0.31937274 0.03850611
-0.70279848 0.40997587 0.00000000
0.35582954 -0.46333805 0.00000000
-0.41686283 0.54696783 0.00000000
-0.55806193 0.42417757 0.00000000
0.35554421 -0.01303462 -0.00000004
-0.73984918 -0.17256864 0.00000000
-0.57079251 0.78709053 0.00000000
0.54922501 0.10237948 -0.00000056
0.21773201 0.37672650 -0.00000009
0.15276516 0.45128050 -0.00000002
0.25370393 0.19969734 -0.00000001
-0.66413472 -0.71655403 0.00000000
0.44680380 0.38123601 0.13265985
0.70823020 0.10187427 0.04780786
0.07528092 -0.11847922 0.00000000
0.23169914 0.32652587 -0.00000008
0.15169298 0.43829858 -0.00000000
0.32766719 0.23242502 -0.00000020
-0.18128681 0.07970090 0.00000000
-0.24534939 -0.54536363 0.00000000
-0.09458764 -0.35732590 0.00000000
0.62114408 0.23348106 0.25843420
0.08697529 0.71966393 0.03141457
-0.13872391 0.58255851 0.00000000
0.28440384 -0.21000978 0.00000000
-0.00892730 0.69141046 0.00000000
-0.69732190 -0.37972330 0.00000000
0.27663603 -0.03104145 0.00000000
0.66328657 -0.58088610 -0.00000019
0.07485721 -0.77947516 0.00000000
0.63378814 -0.45672851 -0.00000024
-0.79444610 0.05773701 0.00000000
-0.18425160 -0.10210399 0.00000000
-0.68005125 -0.63086079 0.00000000
-0.33993322 0.60061660 0.00000000
-0.63951617 -0.66605512 0.00000000
-0.21012309 0.32804363 0.00000000
0.30363874 -0.14014488 0.00000000
-0.74160780 0.21962717 0.00000000
-0.38440744 -0.69224297 0.00000000
-0.77013492 0.58240459 0.00000000
0.64099617 0.20688409 0.22652432
-0.61595018 -0.03625273 0.00000000
0.28491496 0.57713068 0.29354156
-0.63598338 0.35533381 0.00000000
-0.59150396 -0.56877802 0.00000000
-0.12464303 -0.27149616 0.00000000
-0.27917246 0.24914170 0.00000000
0.77842819 -0.46950721 -0.00000041
0.72740093 0.09328401 0.09786377
-0.09038304 0.00845424 0.00000000
0.60704847 0.24707670 0.25606890
0.56575098 0.31176484 0.36672990
0.16850291 0.66558249 0.16126208
0.42807395 0.09139244 -0.00000029
0.36120455 0.50308995 0.30418062
0.10227597 0.61817438 -0.00000006
0.78988236 0.01093592 0.00387494
0.24699033 0.58103308 0.13258253
0.54899258 0.18130451 -0.00000062
0.29857672 0.54738087 0.21742891
0.54759575 -0.13378581 -0.00000034
-0.27995340 -0.16999240 0.00000000
0.67154782 -0.45017734 -0.00000033
-0.32227036 0.22711811 0.00000000
0.27209174 -0.24426521 0.00000000
-0.18647604 0.30527476 0.00000000
-0.68256983 0.74295143 0.00000000
-0.57474896 0.71670319 0.00000000
-0.11024898 -0.48995756 0.00000000
0.24065723 0.56556921 0.02946152
-0.24356277 -0.18349067 0.00000000
-0.77946705 -0.01677964 0.00000000
0.65646762 -0.59616085 -0.00000017
-0.40498118 -0.78436810 0.00000000
-0.54630160 0.01587390 0.00000000
-0.06138319 -0.06407678 0.00000000
-0.79966623 0.16895255 0.00000000
-0.02760705 0.61370881 0.00000000
0.12432429 0.15359049 0.00000000
-0.72081449 -0.73737661 0.00000000
0.27976204 -0.65350075 0.00000000
0.28977303 0.52052052 0.04870288
0.21818009 -0.51374669 0.00000000
0.15174818 -0.58904842 0.00000000
-0.11022323 0.52824707 0.00000000
-0.38545818 0.16091063 0.00000000
0.30726293 -0.26042213 0.00000000
0.02654730 0.48418673 0.00000000
-0.07710444 0.41139122 0.00000000
-0.74218199 0.25800150 0.00000000
-0.59706562 -0.78314004 0.00000000
0.58520827 0.27682874 0.29349966
-0.41997757 0.48991246 0.00000000
0.51999342 -0.01722878 -0.00000039
0.57093009 -0.08639081 -0.00000043
0.76531169 -0.30968107 -0.00000061
0.00555496 0.72779337 0.00000000
-0.44190045 0.70489183 0.00000000
-0.31036518 0.64842327 0.00000000
0.76162613 0.00598036 -0.00000092
0.30495287 -0.29063465 0.00000000
-0.48936166 -0.73418006 0.00000000
-0.15315292 -0.26031434 0.00000000
0.19958165 0.08618613 0.00000000
-0.41256605 0.28066040 0.00000000
-0.21760923 0.69747796 0.00000000
0.38046064 0.06153672 -0.00000016
0.51063331 -0.28403148 -0.00000013
-0.14257388 -0.67978936 0.00000000
-0.68867706 0.79718662 0.00000000
0.35528230 0.18191935 -0.00000021
-0.46770765 -0.01067106 0.00000000
0.32752719 0.01955431 -0.00000001
0.73943777 0.01384503 -0.00000088
0.09263932 -0.33216560 0.00000000
-0.46147190 0.44256639 0.00000000
0.60764881 -0.55122544 -0.00000010
-0.54117052 0.60130867 0.00000000
-0.03583258 -0.22394384 0.00000000
-0.04214461 0.12976205 0.00000000
-0.13424342 -0.31058600 0.00000000
-0.11543611 -0.54447789 0.00000000
-0.52370536 -0.19885418 0.00000000
0.41309672 0.48948031 0.48529508
-0.53807312 0.05433647 0.00000000
-0.67239712 -0.62306836 0.00000000
0.08319443 0.54429356 0.00000000
-0.07608789 -0.34650126 0.00000000
0.09186839 -0.35249922 0.00000000
0.56713811 -0.52564483 -0.00000004
0.10297975 0.65571416 -0.00000009
-0.42677979 -0.46303926 0.00000000
0.67433949 -0.11083645 -0.00000063
-0.33599965 0.04135378 0.00000000
-0.72723031 0.06308459 0.00000000
0.29892901 0.23390197 -0.00000014
0.04108261 -0.64530765 0.00000000
-0.62581687 -0.15758777 0.00000000
0.77489958 -0.54819382 -0.00000031
-0.14637595 0.31789631 0.00000000
-0.55700424 0.51186209 0.00000000
-0.40647271 0.28685148 0.00000000
0.02044907 -0.66063481 0.00000000
-0.44176023 -0.37505925 0.00000000
0.37658337 0.47991063 0.26727637
-0.70559957 -0.14303189 0.00000000
-0.06206294 -0.10786559 0.00000000
0.42400640 -0.02117384 -0.00000018
0.64928297 -0.59939877 -0.00000015
-0.65872031 0.08196806 0.00000000
0.04061210 0.29229223 0.00000000
0.08456476 0.72650558 0.05237810
-0.33979690 -0.11141919 0.00000000
-0.26195905 -0.32596960 0.00000000
-0.23878475 0.70661739 0.00000000
0.17212126 -0.60261934 0.00000000
-0.46799240 -0.18501235 0.00000000
0.31681222 0.52997644 0.22136064
0.55329775 0.32837222 0.38638321
0.11945132 -0.77118988 0.00000000
0.28972125 0.55687906 0.22046963
0.35599440 -0.75684424 0.00000000
-0.39282791 0.39206707 0.00000000
-0.62950305 -0.02490394 0.00000000
-0.75967687 0.67611631 0.00000000
0.38054070 -0.13920759 0.00000000
0.16666851 0.67618742 0.20275545
0.15314827 0.66250879 0.07407771
0.44612227 -0.68411183 0.00000000
0.31509915 -0.05426790 0.00000000
-0.79445795 0.30914282 0.00000000
-0.56268940 0.23089292 0.00000000
-0.74361150 -0.36665534 0.00000000
0.21325829 0.59198603 0.02481517
-0.17538440 -0.61900543 0.00000000
0.57805033 0.05518881 -0.00000058
0.76208969 -0.05543179 -0.00000087
0.00628871 0.51966175 0.00000000
0.42542860 -0.17512338 -0.00000005
0.40067589 0.37402638 -0.00000048
-0.61874717 0.74042431 0.00000000
-0.14401805 0.42343999 0.00000000
-0.36152676 0.22219287 0.00000000
0.49087660 -0.41850392 0.00000000
0.22356363 -0.11674010 0.00000000
0.21467837 0.62437419 0.18476153
-0.43010421 -0.10672329 0.00000000
0.50065204 0.34767992 0.22866150
-0.63939103 0.36142129 0.00000000
0.11058837 0.15188479 0.00000000
-0.61309749 0.42409940 0.00000000
-0.21480014 -0.58693755 0.00000000
-0.49653552 0.20321872 0.00000000
-0.15895140 0.51043712 0.00000000
-0.16871265 -0.49459803 0.00000000
-0.54401741 0.22060026 0.00000000
-0.30620818 0.31130225 0.00000000
-0.75320231 0.72633567 0.00000000
0.52445099 0.34343785 0.32118481
0.13961299 -0.03121271 0.00000000
-0.11620570 -0.07411920 0.00000000
0.50754878 -0.52076945 0.00000000
-0.44852060 -0.18793084 0.00000000
-0.25701398 0.02560247 0.00000000
0.41393852 0.37840542 -0.00000051
-0.11889815 0.58286771 0.00000000
-0.20915968 0.56456787 0.00000000
-0.16768208 -0.41797726 0.00000000
-0.79344783 -0.62012753 0.00000000
-0.24413214 -0.71126686 0.00000000
0.58357178 -0.62106030 0.00000000
0.74980027 -0.17396158 -0.00000074
0.53501848 -0.32195469 -0.00000015
0.07563643 0.42232280 0.00000000
0.64857998 0.19897527 0.22498669
0.45850576 -0.40305534 0.00000000
-0.24336244 0.69654122 0.00000000
-0.58069006 -0.12991583 0.00000000
0.07054515 -0.24120617 0.00000000
-0.60873074 -0.14377773 0.00000000
-0.69584075 -0.05398259 0.00000000
0.30526677 -0.47469364 0.00000000
-0.72277153 -0.79249590 0.00000000
-0.68753611 0.35536081 0.00000000
-0.01703525 0.31988893 0.00000000
-0.32456436 0.28539981 0.00000000
0.55246701 0.05420951 -0.00000052
0.39061343 0.42457731 0.07187121
0.20771462 0.61617336 0.11301796
-0.09035862 0.51425306 0.00000000
-0.25526689 -0.43031085 0.00000000
0.49046401 -0.49147095 0.00000000
-0.42671514 -0.39639779 0.00000000
-0.35699083 0.57134153 0.00000000
0.26031981 -0.45452417 0.00000000
-0.27235764 0.44199322 0.00000000
0.64820477 -0.04269682 -0.00000064
-0.27615383 0.33592403 0.00000000
-0.37731249 -0.77124175 0.00000000
-0.69116536 -0.08951655 0.00000000
-0.00227453 -0.31749783 0.00000000
-0.12581842 0.05393815 0.00000000
0.31203570 0.48915311 0.00562854
0.00447203 -0.16908154 0.00000000
-0.25250274 0.29743116 0.00000000
-0.27008477 -0.25769161 0.00000000
-0.17651407 -0.05612236 0.00000000
-0.24376940 -0.56618569 0.00000000
0.13522875 -0.39601291 0.00000000
-0.17234247 -0.35395347 0.00000000
-0.46586345 0.34426397 0.00000000
-0.79673558 -0.52463066 0.00000000
-0.65946086 -0.23432824 0.00000000
0.33650841 0.15686658 -0.00000015
-0.74182053 -0.01995877 0.00000000
0.30892514 0.19722038 -0.00000013
0.53056251 0.19056024 -0.00000059
-0.05804802 -0.47082603 0.00000000
0.35950401 -0.34927275 0.00000000
-0.35515632 -0.15194925 0.00000000
0.39175519 0.36725318 -0.00000045
-0.54718363 0.37922367 0.00000000
-0.39543672 -0.52614659 0.00000000
0.23870397 -0.20034895 0.00000000
-0.65631604 -0.35683150 0.00000000
0.34357918 0.45773486 0.00622093
0.60152033 -0.15891182 -0.00000044
0.47967308 0.38192030 0.29140116
0.58370388 0.27063146 0.25706325
-0.61999846 0.71904962 0.00000000
0.60401816 0.26215115 0.31304948
0.66256060 0.14503209 0.03592468
0.42755613 0.00256877 -0.00000021
0.74415093 -0.34393769 -0.00000057
0.69697364 0.12646663 0.11089923
0.79545162 -0.33668946 -0.00000058
0.08933396 0.24860388 0.00000000
0.26579326 -0.03066414 0.00000000
-0.07898875 0.36239497 0.00000000
-0.74326110 0.42468723 0.00000000
0.77231311 -0.75191834 -0.00000006
0.52805441 0.08088804 -0.00000049
0.49365275 0.14480223 -0.00000047
0.38485673 -0.08084453 -0.00000004
0.54308858 0.31698542 0.28421276
-0.00478670 0.43276955 0.00000000
0.04398895 0.76478080 0.04149419
0.75944749 -0.09031584 -0.00000083
0.70386337 -0.20677503 -0.00000061
-0.10095304 0.46454462 0.00000000
0.34632664 0.52356309 0.33065171
-0.67861127 0.77222184 0.00000000
0.59913136 -0.32539903 -0.00000028
0.04675044 -0.66279116 0.00000000
-0.02895293 0.09453621 0.00000000
-0.41657769 0.24561264 0.00000000
0.18969432 -0.68802308 0.00000000
0.08069111 -0.67040953 0.00000000
0.62059984 -0.00853948 -0.00000061
0.68411380 -0.46330955 -0.00000034
-0.75536365 0.11099751 0.00000000
0.48364162 -0.54010205 0.00000000
-0.13224732 -0.79138013 0.00000000
-0.41298287 -0.52615985 0.00000000
-0.17662198 0.64220821 0.00000000
-0.26843684 -0.36300992 0.00000000
-0.21072937 0.50509449 0.00000000
0.28202374 0.41272307 -0.00000026
0.10445856 -0.54829214 0.00000000
-0.33597180 0.53570159 0.00000000
0.47903864 0.14157924 -0.00000044
-0.48074735 -0.36883288 0.00000000
-0.05113220 -0.01030909 0.00000000
-0.12323785 0.06132896 0.00000000
0.14169740 0.65668608 -0.00000018
0.20960532 -0.69885056 0.00000000
0.50132260 -0.23049370 -0.00000016
-0.34506731 -0.21815143 0.00000000
0.63908618 0.04075814 -0.00000069
0.17324565 -0.72308955 0.00000000
0.46688297 0.36069725 0.13048549
0.26614187 0.50358726 -0.00000031
0.25073517 0.16550863 0.00000000
0.11652450 0.28187782 0.00000000
-0.01282158 -0.46206424 0.00000000
0.44107066 0.42759509 0.32486070
-0.60802234 0.77802045 0.00000000
-0.06137166 -0.34147659 0.00000000
-0.01197801 0.20592553 0.00000000
-0.65560767 0.26080333 0.00000000
0.25448505 -0.65862638 0.00000000
-0.07666747 -0.74335439 0.00000000
-0.55805461 0.34769288 0.00000000
0.21254804 -0.40541394 0.00000000
0.30749297 0.19404129 -0.00000012
0.31994877 -0.72652476 0.00000000
-0.68348714 -0.49269566 0.00000000
0.23863222 0.21366469 0.00000000
-0.15264066 0.00874194 0.00000000
0.49335716 0.10482915 -0.00000044
-0.51073632 0.60302667 0.00000000
-0.15067503 -0.13473618 0.00000000
0.00393002 0.02889897 0.00000000
-0.10524776 0.41070073 0.00000000
0.59903667 0.23389437 0.15579997
0.44719014 -0.62767252 0.00000000
0.37913333 0.46946089 0.22990248
-0.06095532 0.54202508 0.00000000
-0.43128418 0.58256656 0.00000000
0.12458151 -0.61806311 0.00000000
-0.69223454 0.55524133 0.00000000
-0.42463106 0.28584811 0.00000000
0.40863456 -0.42020809 0.00000000
0.57395386 0.27256179 0.22006848
-0.09263141 -0.03324870 0.00000000
-0.00195951 -0.24530843 0.00000000
-0.49272594 -0.56764457 0.00000000
0.36509720 -0.03640472 -0.00000004
0.75925763 -0.19614443 -0.00000074
-0.04842420 -0.75609412 0.00000000
0.73412404 -0.38804291 -0.00000051
0.11324800 -0.47040168 0.00000000
0.54897775 0.25189064 0.00411231
-0.26883572 -0.68865778 0.00000000
-0.34953115 0.29870043 0.00000000
-0.67696815 0.76926091 0.00000000
0.26015879 -0.66172333 0.00000000
0.61531446 -0.66500167 -0.00000002
-0.06430397 0.75294595 0.00000000
-0.61611296 -0.38462035 0.00000000
-0.65795050 0.05805441 0.00000000
-0.77638895 -0.12006732 0.00000000
-0.17949867 0.68542113 0.00000000
-0.58886735 0.11620404 0.00000000
-0.79293483 -0.23183378 0.00000000
-0.23082314 -0.79756120 0.00000000
0.21215462 -0.18994427 0.00000000
0.69022768 0.04643977 -0.00000081
-0.07807435 0.18003701 0.00000000
0.00746549 -0.30748019 0.00000000
-0.11769220 0.39162743 0.00000000
-0.39184874 -0.13964933 0.00000000
0.48541587 0.36108955 0.22002018
-0.72703138 -0.64410150 0.00000000
-0.14958821 -0.74814014 0.00000000
-0.69128962 0.20678653 0.00000000
0.49937643 0.29653438 -0.00000062
-0.04413246 0.28120938 0.00000000
0.62820918 -0.34283296 -0.00000033
0.79554886 -0.60465995 -0.00000024
-0.59996626 0.20398129 0.00000000
-0.55362851 0.39685146 0.00000000
-0.01891157 0.28151166 0.00000000
-0.15505031 0.59687542 0.00000000
-0.47498772 0.61979552 0.00000000
-0.72299901 0.34998756 0.00000000
-0.54499602 -0.59674763 0.00000000
-0.58657646 -0.08829181 0.00000000
-0.32538722 -0.02253114 0.00000000
-0.60617551 -0.56429642 0.00000000
0.47106389 -0.77372609 0.00000000
0.00606392 -0.35752967 0.00000000
-0.15732370 -0.14378223 0.00000000
0.29664026 -0.18333990 0.00000000
-0.20386326 -0.57325497 0.00000000
0.68595904 -0.22783665 -0.00000056
0.20232857 -0.61381009 0.00000000
-0.19617619 0.74689077 0.00000000
0.45167449 0.35032278 0.00945319
-0.68517083 -0.43678867 0.00000000
-0.64622924 -0.53169470 0.00000000
-0.78257854 -0.59217075 0.00000000
-0.77790357 -0.43009506 0.00000000
0.16294915 0.43363303 -0.00000002
0.29850404 -0.76129497 0.00000000
-0.72392598 -0.60285330 0.00000000
0.36650040 -0.09215376 0.00000000
-0.21546894 0.45006814 0.00000000
-0.23644990 -0.27002486 0.00000000
0.72625728 0.04991887 -0.00000089
0.54944642 0.32929034 0.37250621
0.47271715 0.03950800 -0.00000034
-0.12193506 0.36066773 0.00000000
-0.45711838 0.25630922 0.00000000
-0.57993062 0.53385007 0.00000000
0.48501471 0.34985219 0.16495865
0.47971838 -0.27934473 -0.00000007
0.38644810 0.50566015 0.43576739
-0.01213863 0.13650817 0.00000000
-0.34228563 -0.41179473 0.00000000
-0.76919928 0.46864344 0.00000000
-0.16368492 -0.74677072 0.00000000
0.46214866 0.14504454 -0.00000041
-0.40638040 -0.53069293 0.00000000
0.35852767 0.47194242 0.14415757
0.74374656 -0.28200155 -0.00000063
-0.16321581 -0.69871842 0.00000000
0.73516730 -0.26815211 -0.00000062
-0.19909459 0.48441543 0.00000000
-0.48951724 0.02739766 0.00000000
0.70319721 -0.64007998 -0.00000020
0.08884184 0.21726727 0.00000000
-0.36550975 0.55279353 0.00000000
0.08081995 -0.72599411 0.00000000
-0.15079969 -0.29134250 0.00000000
0.18414064 0.25833545 0.00000000
0.01699654 -0.27462021 0.00000000
-0.72826212 -0.24578104 0.00000000
0.53403881 0.24170268 -0.00000065
0.35445937 -0.66933562 0.00000000
-0.46702409 -0.56867845 0.00000000
-0.09140871 0.72427675 0.00000000
0.70040965 0.11474357 0.07169335
-0.66569456 -0.05127146 0.00000000
0.30303282 -0.23038322 0.00000000
-0.44822595 -0.76557077 0.00000000
0.07858902 0.47566984 0.00000000
0.36501344 0.50264090 0.32007596
-0.06146368 0.64547126 0.00000000
-0.69276432 0.31691668 0.00000000
-0.16917506 0.04774138 0.00000000
-0.76218172 -0.64933075 0.00000000
-0.56098536 0.06135596 0.00000000
-0.74241955 -0.25348055 0.00000000
0.04485416 0.76534536 0.04825842
0.07862738 -0.71484162 0.00000000
-0.11778815 0.68357493 0.00000000
-0.02422583 -0.11320425 0.00000000
0.70581252 0.11578056 0.10216021
-0.01653450 -0.23722022 0.00000000
0.60588116 -0.20907479 -0.00000040
0.37207409 0.47162906 0.20676287
0.65356400 0.16731483 0.09878116
-0.21338838 0.26333969 0.00000000
-0.24371837 -0.37527750 0.00000000
0.20402032 0.04616653 0.00000000
-0.02105989 -0.51622266 0.00000000
-0.45825778 -0.31767143 0.00000000
-0.65993422 0.12363494 0.00000000
0.62600147 -0.66770130 -0.00000004
0.41474917 -0.45097210 0.00000000
0.37573771 0.32505974 -0.00000038
-0.59957877 -0.61463270 0.00000000
-0.53402130 -0.23897000 0.00000000
-0.75254390 -0.45162297 0.00000000
-0.43937044 -0.21549075 0.00000000
-0.18064574 0.12723898 0.00000000
-0.79156600 0.07144182 0.00000000
-0.13098900 -0.13110051 0.00000000
-0.36309161 -0.16432716 0.00000000
0.20138310 -0.62318816 0.00000000
0.49793287 0.35539942 0.25231794
0.36111149 0.46485458 0.12284912
-0.04638088 -0.03873845 0.00000000
0.54639882 -0.69266797 0.00000000
-0.08078521 -0.68014787 0.00000000
0.51425605 0.32118488 0.16767425
0.20362422 -0.39825043 0.00000000
0.22959085 0.60987711 0.18672674
-0.71329939 -0.46166056 0.00000000
0.15864919 0.50095699 -0.00000007
-0.15028246 0.61609029 0.00000000
0.74476280 -0.18922329 -0.00000071
-0.59908699 -0.13026181 0.00000000
-0.07815150 -0.53846005 0.00000000
-0.34666989 0.72671252 0.00000000
-0.52937000 -0.56213557 0.00000000
0.59753826 -0.42386902 -0.00000019
0.44943201 0.39365809 0.20386240
0.33870986 -0.51407910 0.00000000
-0.62023111 -0.21831930 0.00000000
-0.17773046 -0.34405734 0.00000000
0.22889755 -0.47401676 0.00000000
-0.06307005 -0.67574033 0.00000000
0.74918959 -0.04010669 -0.00000086
-0.73825631 0.30245755 0.00000000
-0.14741340 -0.07743301 0.00000000
0.08376059 -0.45685630 0.00000000
0.27859792 -0.58412132 0.00000000
0.32536084 0.20097882 -0.00000016
0.42840301 0.47165550 0.47337988
-0.58123672 0.35942404 0.00000000
-0.17835610 -0.63297598 0.00000000
0.51506669 -0.42627724 -0.00000002
0.76782741 -0.54062000 -0.00000032
-0.39296112 -0.68587407 0.00000000
-0.47378450 -0.42307968 0.00000000
-0.10749132 -0.73266655 0.00000000
0.24072015 0.59349467 0.16187408
-0.78986120 0.30204381 0.00000000
0.41032038 0.47508899 0.40407487
-0.67631794 0.65917824 0.00000000
0.15397735 -0.37329754 0.00000000
0.72117680 -0.40368452 -0.00000047
0.31695545 0.48920597 0.02915379
0.74091634 -0.13874269 -0.00000075
0.31129176 0.27727836 -0.00000020
0.53777895 -0.33753331 -0.00000014
-0.39872852 -0.11662086 0.00000000
0.32517910 0.53413249 0.28060657
0.36518303 0.48128311 0.21983464
0.59075922 0.23400047 0.11714148
-0.30560539 -0.53245987 0.00000000
-0.40601784 -0.23049086 0.00000000
0.38119454 -0.14720419 0.00000000
-0.18880998 0.42192710 0.00000000
0.16534577 0.67160334 0.17481028
0.62907700 0.10284067 -0.00000073
-0.48159252 0.32835183 0.00000000
-0.72211894 -0.41349414 0.00000000
0.29928602 0.52047559 0.09349609
0.11954025 0.57108605 -0.00000005
0.41898705 -0.72975511 0.00000000
-0.31806492 0.72091934 0.00000000
-0.64474333 0.79751964 0.00000000
0.35684377 0.50007075 0.26926591
-0.46045357 0.00134660 0.00000000
-0.14422325 -0.54188174 0.00000000
0.50795640 0.36301592 0.33577281
0.11867551 -0.77674724 0.00000000
0.35284590 -0.55537720 0.00000000
-0.53975887 -0.54128566 0.00000000
-0.04972182 0.26756981 0.00000000
-0.55790886 0.67767711 0.00000000
-0.46548772 -0.25133844 0.00000000
-0.12844063 0.16559272 0.00000000
-0.07241201 -0.19799549 0.00000000
0.39185022 -0.00108673 -0.00000013
-0.24804083 0.54272161 0.00000000
-0.41561663 -0.37328521 0.00000000
0.47312913 -0.72343166 0.00000000
-0.48267658 -0.19054322 0.00000000
-0.33914407 -0.00817319 0.00000000
0.12765930 0.49461318 -0.00000000
-0.63087366 0.57644358 0.00000000
0.79926818 -0.26051471 -0.00000067
0.11919682 0.27054468 0.00000000
0.01868415 -0.50924039 0.00000000
-0.54948948 -0.75466956 0.00000000
-0.44995275 -0.51214713 0.00000000
0.26429675 0.55764385 0.10380485
0.59965350 -0.75297974 0.00000000
-0.01565384 0.29135770 0.00000000
0.59300549 0.27147415 0.30505569
0.12270795 0.14575404 0.00000000
0.21048234 -0.46596633 0.00000000
-0.35814797 0.61821810 0.00000000
0.05962486 -0.17129136 0.00000000
0.03467043 0.04395899 0.00000000
0.01046083 0.13464090 0.00000000
0.15435347 0.44285077 -0.00000001
-0.61000629 0.43410156 0.00000000
0.52338316 0.14367670 -0.00000054
0.49969861 0.33834247 0.17997556
0.58240551 -0.51369538 -0.00000008
0.59968132 0.20076516 0.00211619
0.06470455 0.18170423 0.00000000
0.00029477 -0.71102563 0.00000000
0.44135849 -0.15527545 -0.00000010
0.34747409 0.52450182 0.34052141
0.34856833 -0.72328961 0.00000000
-0.37538656 0.03109798 0.00000000
0.10737450 -0.36618664 0.00000000
0.57481376 -0.36631242 -0.00000020
0.42865439 0.09708959 -0.00000029
-0.23859264 0.47594743 0.00000000
0.07857724 -0.56826127 0.00000000
-0.47079061 -0.71321998 0.00000000
0.60839103 0.06951084 -0.00000065
0.04589795 0.46401032 0.00000000
-0.69888535 0.64729185 0.00000000
0.60986166 -0.44792112 -0.00000020
-0.06757763 -0.50245870 0.00000000
-0.60250857 0.39823169 0.00000000
0.10823645 -0.78811453 0.00000000
-0.46059140 0.07847018 0.00000000
0.17156778 -0.29134597 0.00000000
-0.37493810 0.35880520 0.00000000
0.00389051 -0.45661825 0.00000000
-0.36692453 0.51038840 0.00000000
-0.09196877 -0.51939512 0.00000000
-0.50043999 0.21494018 0.00000000
0.78053055 -0.12048397 -0.00000085
-0.06473209 -0.79292766 0.00000000
-0.29117401 -0.02605746 0.00000000
0.39742499 0.40409769 0.00720794
-0.39223799 0.19367785 0.00000000
-0.68457422 -0.39006326 0.00000000
0.44426016 0.45810979 0.48431528
0.08868344 0.52866514 0.00000000
-0.02998795 -0.37310884 0.00000000
-0.08051239 -0.47026870 0.00000000
-0.22017138 0.32951367 0.00000000
-0.00660871 0.22787437 0.00000000
0.41535208 -0.53195184 0.00000000
0.60190466 -0.79669282 0.00000000
-0.78452126 0.63104260 0.00000000
-0.54991365 0.26648589 0.00000000
0.27132392 0.57185819 0.20429820
0.03315800 -0.33900679 0.00000000
0.21700132 -0.72290251 0.00000000
0.19639499 -0.12386082 0.00000000
0.59299722 0.27112729 0.30337555
-0.70738327 0.76867114 0.00000000
0.19960762 -0.77280756 0.00000000
-0.01065397 -0.33024008 0.00000000
-0.61622587 -0.31171096 0.00000000
0.60361473 -0.36924197 -0.00000025
0.37171571 -0.65573472 0.00000000
-0.33294759 -0.32341490 0.00000000
0.13806589 -0.49465294 0.00000000
-0.62354790 -0.28125599 0.00000000
-0.13380898 0.56907129 0.00000000
0.54668221 -0.49569154 -0.00000002
0.11173344 0.27882751 0.00000000
-0.63590854 -0.59095091 0.00000000
0.26089313 -0.48406571 0.00000000
0.25602549 -0.24304678 0.00000000
-0.46176432 -0.46723135 0.00000000
0.61860332 -0.55799737 -0.00000012
0.72033609 0.03285394 -0.00000086
-0.35772894 0.51178130 0.00000000
0.63454500 0.17118600 0.02711711
-0.06978405 0.14717944 0.00000000
-0.58493812 -0.56262871 0.00000000
0.37856510 -0.45492104 0.00000000
0.55589797 0.25296503 0.04193462
0.10389451 0.41906607 0.00000000
-0.10124736 -0.40220935 0.00000000
0.42505536 0.46257427 0.41457888
-0.11721291 0.47505107 0.00000000
0.16868263 0.40720703 -0.00000001
0.04398233 0.08325285 0.00000000
-0.05852563 0.20650987 0.00000000
0.07897684 -0.07446472 0.00000000
-0.10538470 0.03639583 0.00000000
0.34144137 0.46466393 0.02888828
-0.11989748 -0.09575254 0.00000000
0.02619574 0.05318245 0.00000000
-0.48551325 -0.26506841 0.00000000
0.77162643 -0.38334798 -0.00000052
0.58393209 0.02247668 -0.00000056
-0.23280133 -0.72025068 0.00000000
0.42484862 -0.79649575 0.00000000
-0.26611358 0.61751363 0.00000000
0.26348082 0.57305771 0.17286749
-0.12558103 0.65825629 0.00000000
0.68552055 -0.45798867 -0.00000035
0.06870675 -0.62276395 0.00000000
0.00587063 -0.02521662 0.00000000
-0.39503833 0.33063363 0.00000000
0.69643001 -0.69776946 -0.00000013
0.07640157 0.39824579 0.00000000
-0.52132696 0.49049530 0.00000000
-0.76904244 -0.76077103 0.00000000
-0.20651579 -0.72532559 0.00000000
0.15877896 0.55766474 -0.00000012
0.41570354 0.38595034 0.00782861
-0.62196978 -0.31974164 0.00000000
-0.31285481 -0.36815175 0.00000000
0.67376043 -0.31788934 -0.00000045
0.46536761 -0.50533475 0.00000000
-0.34190358 -0.00619738 0.00000000
-0.02580260 -0.52135032 0.00000000
-0.35875152 0.69611234 0.00000000
0.28451080 -0.17144322 0.00000000
0.13888260 -0.20097407 0.00000000
0.04941294 -0.16198317 0.00000000
-0.15959289 0.54091089 0.00000000
0.60726585 0.23435307 0.19690208
0.41200144 0.44198075 0.25539286
-0.44277586 0.55085200 0.00000000
0.02575082 0.75009445 -0.00000001
0.52897157 -0.09095558 -0.00000034
0.51944990 0.19925081 -0.00000058
0.28474456 0.58739723 0.34130639
0.11840213 0.42550462 0.00000000
0.68579375 -0.79347908 -0.00000001
-0.26724079 -0.75119041 0.00000000
0.42542053 -0.24956016 0.00000000
0.03864876 -0.05174527 0.00000000
0.15838268 -0.63792886 0.00000000
0.76552685 -0.10818351 -0.00000083
0.69561033 0.01255072 -0.00000079
0.55282024 0.32867606 0.38556159
-0.40789632 0.60896218 0.00000000
-0.76530972 -0.60192107 0.00000000
0.53214607 -0.61704951 0.00000000
-0.50649598 -0.70976624 0.00000000
0.54387679 0.22174658 -0.00000065
-0.66858189 -0.11276385 0.00000000
0.20962640 0.60774633 0.08219439
-0.66439599 -0.74286415 0.00000000
0.16752294 0.19940024 0.00000000
-0.10685682 -0.07438283 0.00000000
0.25696981 -0.29926153 0.00000000
0.42387854 0.26555359 -0.00000043
0.20626139 -0.40903808 0.00000000
-0.13717663 0.43918526 0.00000000
-0.62361403 -0.27583158 0.00000000
0.20093166 0.63605735 0.17499892
0.51946773 -0.48718913 0.00000000
0.57710165 -0.73448117 0.00000000
-0.67328506 0.28975630 0.00000000
0.05487021 0.24297573 0.00000000
-0.20077922 -0.01034240 0.00000000
-0.26829590 0.47015320 0.00000000
-0.34320223 0.27329887 0.00000000
0.37483857 -0.38871782 0.00000000
0.59165206 -0.51933809 -0.00000010
-0.19880033 -0.12730971 0.00000000
0.40119264 -0.02411268 -0.00000013
0.20507990 -0.64300030 0.00000000
-0.02472116 -0.58356333 0.00000000
0.71024819 -0.45417744 -0.00000041
0.71612284 -0.22406819 -0.00000062
0.08162781 -0.24219347 0.00000000
-0.24770671 -0.19699161 0.00000000
-0.77311680 0.76912542 0.00000000
0.01929299 -0.60756927 0.00000000
0.28249276 0.06240876 0.00000000
-0.08392736 0.10668904 0.00000000
0.58453009 -0.35024721 -0.00000023
-0.63527939 0.35626429 0.00000000
0.39713289 -0.26491240 0.00000000
0.21489133 -0.29989295 0.00000000
-0.07059299 0.65401946 0.00000000
-0.42266188 0.52835117 0.00000000
0.45534067 -0.09310685 -0.00000018
-0.14493665 -0.56368039 0.00000000
-0.38465260 -0.26623878 0.00000000
-0.03970727 0.43765056 0.00000000
0.55484536 -0.12284340 -0.00000037
-0.02943270 0.23510344 0.00000000
0.77812184 -0.27458286 -0.00000066
-0.42022896 0.49458494 0.00000000
-0.23770839 -0.23783112 0.00000000
0.35619282 -0.59751266 0.00000000
-0.56520156 -0.69844938 0.00000000
0.06396864 0.05424957 0.00000000
0.56404786 0.28748538 0.24380659
-0.25130566 -0.21301549 0.00000000
-0.00886355 -0.64742026 0.00000000
-0.22409366 -0.23568069 0.00000000
0.12659485 -0.55646923 0.00000000
-0.47622803 0.75543679 0.00000000
0.57541603 -0.78483312 0.00000000
0.48936305 0.31728718 0.03146620
-0.09780045 -0.50684420 0.00000000
-0.56803010 0.53078984 0.00000000
-0.69603162 0.17318383 0.00000000
-0.22521387 0.28128703 0.00000000
-0.44850850 -0.10872745 0.00000000
-0.43772762 0.42668340 0.00000000
0.64593240 -0.73917662 -0.00000002
-0.09488319 0.34198416 0.00000000
0.33425472 0.22777445 -0.00000021
0.67335722 -0.06727708 -0.00000067
-0.00776189 -0.17008066 0.00000000
-0.75222736 0.41522487 0.00000000
0.73696315 -0.41272404 -0.00000048
0.70166561 -0.44321730 -0.00000040
0.16441474 -0.46381628 0.00000000
0.73644578 -0.43857857 -0.00000045
-0.58639744 0.72469330 0.00000000
0.21911587 0.29536597 -0.00000002
0.06609025 -0.05971071 0.00000000
-0.60653902 -0.41342728 0.00000000
-0.16014614 0.62289144 0.00000000
-0.31187440 -0.77461309 0.00000000
-0.73612222 0.03583682 0.00000000
0.16533401 -0.39007978 0.00000000
-0.32827777 -0.20604951 0.00000000
-0.31524275 0.67619648 0.00000000
-0.08922292 -0.79996168 0.00000000
-0.79220803 0.45970574 0.00000000
-0.64401135 0.32596124 0.00000000
0.27954995 -0.75816985 0.00000000
-0.06440734 -0.70902659 0.00000000
-0.71561028 0.52719712 0.00000000
-0.55309344 0.56638343 0.00000000
0.03757244 0.23304310 0.00000000
-0.20152623 0.68698661 0.00000000
0.65226500 -0.67713335 -0.00000009
0.72979718 -0.29756909 -0.00000059
0.13942737 0.39861198 0.00000000
-0.35685857 -0.03835156 0.00000000
0.18341701 -0.52895398 0.00000000
-0.60475572 -0.10526934 0.00000000
0.20717429 0.62080870 0.13239141
-0.11405312 -0.11851870 0.00000000
0.29375734 -0.71044333 0.00000000
-0.15526169 0.32280345 0.00000000
-0.60561330 -0.34053129 0.00000000
0.27968594 0.58199780 0.29182938
0.00096461 -0.67469909 0.00000000
0.24068974 -0.28775720 0.00000000
0.50361029 -0.08504738 -0.00000029
0.54000013 0.33634642 0.36119813
0.64414641 -0.04706101 -0.00000063
0.13744431 -0.36913419 0.00000000
-0.58261913 -0.34596353 0.00000000
-0.41414382 0.30331167 0.00000000
0.20953923 -0.73175638 0.00000000
-0.22135618 0.55025210 0.00000000
0.03247816 -0.50279742 0.00000000
-0.08184181 0.58490133 0.00000000
0.52124500 -0.37418324 -0.00000007
-0.53977065 0.54589660 0.00000000
0.28036127 -0.62950299 0.00000000
0.06633262 -0.13596668 0.00000000
0.63806819 -0.39332263 -0.00000031
0.03943329 -0.09243382 0.00000000
-0.19359529 -0.47882166 0.00000000
0.60321933 -0.04209967 -0.00000054
0.19191417 0.54069945 -0.00000018
0.34982533 0.50520057 0.26033089
0.19813119 0.63846274 0.17312985
-0.64429454 0.37878822 0.00000000
0.39759540 0.42207066 0.09304388
-0.62618500 -0.76713979 0.00000000
-0.21358510 0.40905861 0.00000000
0.23984427 0.50314295 -0.00000025
-0.45324375 -0.71485691 0.00000000
-0.68602391 0.40823145 0.00000000
-0.03449959 -0.07418151 0.00000000
-0.74336785 0.16866081 0.00000000
0.55140504 -0.28323652 -0.00000022
0.25254628 0.02495842 0.00000000
-0.64511623 -0.40018655 0.00000000
-0.14621281 -0.19863887 0.00000000
0.22402046 -0.21043830 0.00000000
0.13906465 0.44374257 0.00000000
0.07113119 0.27491509 0.00000000
0.08774838 0.37131497 0.00000000
0.08309499 -0.11026325 0.00000000
-0.35455304 0.48394111 0.00000000
0.66083317 -0.71777647 -0.00000007
0.27213076 -0.11850585 0.00000000
0.63949259 -0.12114264 -0.00000055
-0.11750789 -0.23569273 0.00000000
-0.19714399 0.56668177 0.00000000
-0.49922006 0.21157910 0.00000000
-0.52487667 -0.44134395 0.00000000
-0.44088025 -0.37157364 0.00000000
0.10396178 -0.53414004 0.00000000
0.10764028 0.54445621 -0.00000000
0.03354498 0.75946838 -0.00000004
0.44878030 -0.34606686 0.00000000
-0.48084274 -0.41566471 0.00000000
0.10428752 0.11180662 0.00000000
0.25429336 -0.19878722 0.00000000
0.34751304 -0.03519474 -0.00000000
-0.00283772 -0.74809636 0.00000000
0.52154197 -0.45075284 -0.00000001
-0.13201029 0.67229787 0.00000000
0.75730210 0.05393761 0.05317856
-0.73607152 -0.64191004 0.00000000
0.27936025 -0.09502602 0.00000000
0.66483523 -0.52619914 -0.00000025
-0.41621921 0.45575376 0.00000000
-0.10178122 -0.48145167 0.00000000
-0.44265953 0.19474511 0.00000000
-0.22475897 0.17451188 0.00000000
-0.75236644 -0.24211110 0.00000000
0.20850785 0.28778640 0.00000000
-0.41431892 0.74709905 0.00000000
-0.67541225 0.70871954 0.00000000
-0.18371076 0.63589369 0.00000000
-0.27511141 -0.56541016 0.00000000
-0.29271417 0.62314512 0.00000000
-0.25054045 0.63062574 0.00000000
-0.69224529 -0.55401688 0.00000000
-0.40161839 -0.05522635 0.00000000
-0.19209144 0.58440006 0.00000000
-0.13996152 -0.72455087 0.00000000
0.52939065 0.16725056 -0.00000057
-0.73053702 0.79877940 0.00000000
0.17988336 -0.38077462 0.00000000
0.25470226 0.01932054 0.00000000
-0.24898418 0.78096389 0.00000000
-0.12672480 0.19274708 0.00000000
-0.64191074 0.14209692 0.00000000
0.00223155 0.06563189 0.00000000
0.38295094 -0.18985104 0.00000000
0.34096356 0.49166087 0.15434972
0.12072790 0.21273749 0.00000000
-0.58282282 0.16666890 0.00000000
-0.75611864 0.55957293 0.00000000
0.74482001 0.06731705 0.05742390
0.37786413 -0.32734422 0.00000000
0.12368013 -0.67021669 0.00000000
0.58905345 0.19231478 -0.00000072
-0.57518783 -0.73756178 0.00000000
0.16346890 0.67104221 0.16327610
-0.16327455 0.00162599 0.00000000
0.29229208 -0.73853239 0.00000000
-0.25569133 0.53678608 0.00000000
-0.68995685 -0.33838005 0.00000000
-0.47606160 -0.46997951 0.00000000
0.60154339 0.20690569 0.03997632
-0.32624113 0.27352163 0.00000000
0.00582173 0.12699888 0.00000000
0.30082448 -0.74036318 0.00000000
-0.16823854 0.65310723 0.00000000
-0.74665575 0.49014273 0.00000000
0.41245536 0.00894847 -0.00000018
-0.36904837 -0.34779473 0.00000000
0.51189351 0.31486864 0.12661515
-0.61726037 0.51128032 0.00000000
0.28163053 -0.78037520 0.00000000
0.62298905 -0.11089045 -0.00000052
0.13141800 0.18952532 0.00000000
0.40141108 0.42252116 0.11322708
-0.33962831 0.29619221 0.00000000
-0.55213115 -0.00455328 0.00000000
-0.03780243 -0.53692471 0.00000000
0.55984135 0.32011113 0.37825773
0.48654608 -0.11852661 -0.00000023
0.65412695 0.18684663 0.19384898
0.63946468 -0.36532414 -0.00000033
0.19117678 0.38408729 -0.00000004
-0.43502661 -0.14585762 0.00000000
-0.36639392 0.30484647 0.00000000
-0.03707947 -0.17073695 0.00000000
-0.05986336 0.57981754 0.00000000
-0.74967389 -0.52854159 0.00000000
0.70057990 -0.74704968 -0.00000007
-0.04719431 0.54125113 0.00000000
-0.38632100 -0.65270422 0.00000000
0.49105584 0.39825256 0.42252084
-0.15935924 0.42857824 0.00000000
-0.01353610 0.50661471 0.00000000
-0.02136724 -0.20788197 0.00000000
-0.22071561 0.67190468 0.00000000
-0.17517149 0.43839464 0.00000000
0.70228211 -0.32179981 -0.00000051
-0.10178707 0.70181357 0.00000000
0.42980726 0.14456024 -0.00000034
0.31590024 0.48136582 -0.00000039
-0.01870199 -0.63433221 0.00000000
0.77374950 0.00026414 -0.00000094
-0.28839753 0.41339228 0.00000000
0.55780913 0.26901979 0.12693101
0.15302420 -0.73879619 0.00000000
0.24479510 -0.67216200 0.00000000
0.56217471 -0.77467191 0.00000000
-0.38947629 -0.23742002 0.00000000
0.71372798 -0.63634917 -0.00000020
-0.46777972 0.24463059 0.00000000
-0.60844405 0.04940687 0.00000000
0.38228327 -0.01777798 -0.00000009
0.04362726 -0.18798857 0.00000000
0.21501149 0.28517729 -0.00000000
0.71862200 -0.78493214 -0.00000002
-0.67251338 -0.75683091 0.00000000
-0.77217946 0.75453105 0.00000000
-0.42865156 0.10332702 0.00000000
0.03912674 0.14871306 0.00000000
0.67425908 -0.07981074 -0.00000066
0.61607128 0.16074430 -0.00000075
-0.63117399 0.69301475 0.00000000
-0.38002028 -0.72309157 0.00000000
0.23193439 -0.72553301 0.00000000
-0.56517106 -0.30911368 0.00000000
-0.67994035 0.15523383 0.00000000
0.37537583 0.50563243 0.38325338
-0.18806489 0.14641399 0.00000000
0.63901847 0.07050357 -0.00000072
0.61082255 -0.07713568 -0.00000053
-0.20926761 -0.30754935 0.00000000
0.72829509 -0.27265073 -0.00000061
0.20637236 -0.02331137 0.00000000
-0.67228640 -0.29733807 0.00000000
0.04775004 -0.47258690 0.00000000
0.26010487 -0.52918474 0.00000000
0.79646419 -0.45772860 -0.00000043
-0.68925063 0.72128762 0.00000000
0.56083814 -0.01886620 -0.00000047
0.02718367 -0.52976419 0.00000000
-0.70920069 -0.72859173 0.00000000
0.12188538 0.41726446 0.00000000
0.44163780 -0.50157163 0.00000000
0.01482301 0.05333432 0.00000000
-0.13670064 0.58066680 0.00000000
0.76454103 -0.66529287 -0.00000017
-0.40490192 0.12368817 0.00000000
0.58627839 0.24627857 0.15403019
0.42209795 0.42994537 0.24622000
0.26954961 0.57222259 0.19762794
-0.20603647 0.37980379 0.00000000
-0.29407376 -0.12740035 0.00000000
-0.63040577 -0.17356589 0.00000000
0.08201164 -0.49682364 0.00000000
-0.39911027 0.46273284 0.00000000
0.03742943 0.71526720 -0.00000000
-0.52683609 0.52875934 0.00000000
-0.35938903 -0.40908484 0.00000000
-0.56723241 -0.14231520 0.00000000
-0.19627881 -0.05959707 0.00000000
-0.46499298 0.55281829 0.00000000
-0.49619096 -0.47490314 0.00000000
0.06321807 -0.68711962 0.00000000
-0.21734660 0.14648574 0.00000000
0.09033466 0.14732051 0.00000000
0.42012742 0.43525960 0.26203911
0.46169673 -0.08468019 -0.00000020
0.18336044 -0.08273173 0.00000000
-0.28415573 0.18342594 0.00000000
0.15563982 -0.65122014 0.00000000
-0.47893890 -0.68089230 0.00000000
0.25326824 -0.41151593 0.00000000
-0.33096390 0.72189337 0.00000000
-0.39677562 -0.58392659 0.00000000
-0.29099207 -0.19546074 0.00000000
-0.75855639 0.29365984 0.00000000
-0.14735526 0.24914406 0.00000000
0.54886852 -0.47253533 -0.00000005
0.34921987 0.12838924 -0.00000015
-0.58705968 -0.04549291 0.00000000
0.53832624 -0.03140450 -0.00000041
0.56770184 -0.29771883 -0.00000024
0.18391148 -0.40621495 0.00000000
0.27535972 0.16291992 -0.00000002
-0.35822384 0.76930058 0.00000000
-0.38903003 -0.74531581 0.00000000
0.01554703 0.04875540 0.00000000
0.72036018 -0.46821586 -0.00000041
0.79213591 -0.79083688 -0.00000001
0.05248700 -0.45954520 0.00000000
0.38866510 -0.30017440 0.00000000
-0.06043157 0.68860463 0.00000000
0.26794033 0.49648629 -0.00000030
0.64443219 -0.56729999 -0.00000017
0.77226981 -0.59572915 -0.00000026
0.17988708 0.03680340 0.00000000
0.42057494 0.46260000 0.39350373
-0.48581541 -0.16959870 0.00000000
-0.43546350 -0.52730048 0.00000000
0.45934777 -0.13100227 -0.00000016
-0.24835630 -0.31727671 0.00000000
0.01078496 0.06718594 0.00000000
-0.64562830 0.53571220 0.00000000
0.77102338 -0.37027838 -0.00000054
0.77606434 -0.68547508 -0.00000014
0.28692499 0.56849915 0.26221521
-0.65381151 0.55542575 0.00000000
-0.30121768 -0.59266207 0.00000000
0.10238117 -0.43931667 0.00000000
0.03157241 -0.17034291 0.00000000
0.37404080 -0.45213130 0.00000000
-0.61719902 0.47388516 0.00000000
0.42656100 0.15700857 -0.00000034
-0.75413071 -0.25602906 0.00000000
-0.54586174 0.03386944 0.00000000
0.46968624 0.40530179 0.35477128
0.42387629 -0.01483080 -0.00000018
0.65176564 -0.50190826 -0.00000024
0.06226182 -0.23723441 0.00000000
-0.76309053 -0.76586848 0.00000000
0.08173016 0.20714909 0.00000000
0.70255306 -0.05821791 -0.00000074
0.39588453 0.40924174 0.02425644
0.54812574 -0.24869769 -0.00000024
0.48609427 -0.33123153 -0.00000004
-0.58053639 0.77246434 0.00000000
0.55849804 -0.39413052 -0.00000014
0.21667778 -0.44556745 0.00000000
-0.32162645 0.39197214 0.00000000
-0.31192595 -0.73751721 0.00000000
-0.38845442 0.76076472 0.00000000
0.31590157 0.53607047 0.24588324
0.34137522 -0.17356496 0.00000000
-0.00197204 0.46341350 0.00000000
-0.62713421 0.47784247 0.00000000
-0.51176391 -0.09702984 0.00000000
0.27471247 0.53854355 0.06271831
-0.13190063 0.43805208 0.00000000
-0.39740524 0.02057894 0.00000000
0.36831673 -0.07405957 -0.00000001
-0.50740991 -0.07125638 0.00000000
0.53023113 0.31223101 0.20089144
0.66729638 -0.62744692 -0.00000016
0.12286973 0.39800830 0.00000000
0.75063233 -0.26655929 -0.00000066
-0.18822197 0.31245950 0.00000000
-0.36215478 0.69146641 0.00000000
-0.13989143 0.39745968 0.00000000
0.42720949 0.13833208 -0.00000033
0.78409427 -0.78548857 -0.00000002
0.32449142 0.42314993 -0.00000036
0.05809414 -0.43470108 0.00000000
-0.33919148 0.34868587 0.00000000
0.63072211 0.21467986 0.21479959
-0.08608430 -0.71076710 0.00000000
0.45486329 -0.63095907 0.00000000
0.70075566 -0.13194556 -0.00000067
-0.40852753 0.67236523 0.00000000
-0.73674492 -0.75948706 0.00000000
-0.07249427 -0.11780268 0.00000000
-0.49536827 0.12801257 0.00000000
-0.11010824 0.31635047 0.00000000
-0.77291564 0.01101628 0.00000000
-0.30385310 0.14526469 0.00000000
-0.65075380 0.33145538 0.00000000
-0.23722856 0.62063429 0.00000000
-0.51800184 -0.77872311 0.00000000
-0.02079335 -0.02413193 0.00000000
0.30656320 -0.77274245 0.00000000
-0.57789606 -0.02764777 0.00000000
0.76520249 -0.22682117 -0.00000072
-0.78915425 -0.44878889 0.00000000
-0.38978299 0.40164601 0.00000000
-0.27881686 -0.71525489 0.00000000
0.07731508 0.29360874 0.00000000
0.74252033 -0.59103328 -0.00000026
-0.23184352 -0.73693097 0.00000000
0.08073155 -0.58363466 0.00000000
-0.52089394 -0.27996641 0.00000000
-0.18194172 0.74710324 0.00000000
-0.47471272 -0.60114549 0.00000000
-0.59082165 0.23405892 0.00000000
0.54998013 -0.24559133 -0.00000025
0.15174128 0.47687012 -0.00000004
-0.49173256 -0.60762416 0.00000000
-0.63256534 0.18589337 0.00000000
0.42301167 0.44957924 0.34343067
-0.29654650 0.76717742 0.00000000
0.12621949 -0.71362606 0.00000000
0.04884537 -0.76916886 0.00000000
0.73300125 0.08311084 0.07622973
-0.69912157 -0.71170959 0.00000000
-0.21330845 0.49566799 0.00000000
0.31867220 -0.66011017 0.00000000
-0.51845649 0.37824769 0.00000000
-0.62497071 0.67475448 0.00000000
-0.63333049 0.59507540 0.00000000
0.40987346 -0.14975571 -0.00000004
0.10430358 -0.62947476 0.00000000
-0.32818939 -0.51502742 0.00000000
-0.72089857 0.14926554 0.00000000
-0.52295783 0.35031155 0.00000000
-0.16371952 -0.70256562 0.00000000
-0.05862711 0.34731249 0.00000000
0.58254911 0.00799683 -0.00000054
0.69661553 -0.12173630 -0.00000067
-0.14137998 -0.29917461 0.00000000
-0.31183303 0.47680468 0.00000000
-0.42629481 -0.66506287 0.00000000
0.02250708 -0.54956763 0.00000000
0.59012760 0.22110137 0.05312794
0.07831799 0.72193125 0.00118375
0.16478999 0.63560339 0.00186553
0.11797848 -0.53185532 0.00000000
-0.39682714 -0.23803229 0.00000000
