ply
format ascii 1.0
element vertex 1408
property float x
property float y
property float z
end_header
0.04761483 -0.13659889 0.00000000
-0.75998882 -0.53994576 0.00000000
0.10600365 -0.45837750 0.00000000
0.19534972 -0.44631175 0.00000000
0.47950374 0.41665147 0.02143769
0.53027237 -0.00401410 0.00000000
-0.67425794 0.34803006 0.00000000
-0.63162497 0.79733733 0.00000000
-0.70648660 -0.61237289 0.00000000
-0.30792161 0.19105676 0.00000000
0.76927292 -0.23684710 0.00000000
-0.36114970 -0.31576170 0.00000000
-0.60817062 -0.50564655 0.00000000
0.34930383 0.67567205 0.05015810
-0.63589088 0.26883681 0.00000000
-0.56080345 -0.56637324 0.00000000
-0.55034363 -0.67721796 0.00000000
-0.73234386 -0.05466585 0.00000000
0.09283206 -0.74516479 0.00000000
-0.43443753 -0.20980465 0.00000000
0.19773968 0.57274211 0.00000000
-0.04384942 0.77195159 0.00000000
0.53106526 -0.67575032 0.00000000
-0.03975492 0.38891322 0.00000000
0.46612375 -0.58154433 0.00000000
-0.77612986 -0.09604068 0.00000000
0.12367683 -0.73301301 0.00000000
0.32498939 0.36295324 0.00000000
-0.38556840 0.13928513 0.00000000
-0.79816454 0.33403706 0.00000000
0.16310898 0.65713864 0.00451418
0.41920853 -0.31985391 0.00000000
-0.35455751 -0.56704716 0.00000000
-0.33846900 -0.18476562 0.00000000
0.28967785 -0.17785032 0.00000000
0.27694234 -0.05647388 0.00000000
0.45783954 0.69171263 0.07793221
-0.07948408 -0.41446974 0.00000000
-0.71145201 0.73599084 0.00000000
0.54819846 0.05052072 0.00000000
0.34681983 -0.30744341 0.00000000
-0.47801602 -0.62262208 0.00000000
-0.62976863 0.59149145 0.00000000
-0.15860650 0.03622114 0.00000000
-0.43619960 -0.67984610 0.00000000
-0.37995544 -0.36666826 0.00000000
-0.58534419 -0.06252606 0.00000000
-0.06822846 0.23306773 0.00000000
-0.56315464 -0.69007391 0.00000000
0.37211176 0.63051869 0.04517623
-0.26484092 -0.09433088 0.00000000
0.37382994 -0.09892163 0.00000000
-0.04466329 -0.23161096 0.00000000
0.29598231 0.44369275 0.00000000
-0.01424973 -0.72980791 0.00000000
-0.49279016 -0.79206193 0.00000000
-0.08794590 0.09095593 0.00000000
-0.19385676 -0.47700900 0.00000000
-0.34805030 0.46993438 0.00000000
-0.54728313 -0.60625646 0.00000000
-0.53589060 -0.08102515 0.00000000
-0.61115269 -0.15844443 0.00000000
-0.52965882 0.31925276 0.00000000
-0.14330772 0.40782027 0.00000000
-0.18791256 0.52088252 0.00000000
0.20166772 0.58362354 0.00000000
-0.77528035 -0.59382255 0.00000000
-0.06862701 0.39262637 0.00000000
0.51118938 0.73092082 0.09856788
0.67560876 -0.56137160 0.00000000
0.15489224 -0.32406086 0.00000000
-0.35248466 0.55035307 0.00000000
0.41068217 0.70585119 0.07057071
-0.68909037 0.72165182 0.00000000
-0.47858587 -0.32254723 0.00000000
0.54317963 0.30155365 0.00997323
0.00978012 -0.30890454 0.00000000
-0.32981624 0.41230617 0.00000000
0.46103648 0.70166302 0.08086338
-0.43877804 0.32041003 0.00000000
-0.43013170 -0.68012793 0.00000000
0.42670490 0.78078826 0.09085004
-0.74530619 -0.44347746 0.00000000
0.60321903 -0.53315559 0.00000000
0.52657511 -0.65262521 0.00000000
0.12171473 0.48281324 0.00000000
-0.12100506 -0.37196036 0.00000000
-0.51341547 -0.61849129 0.00000000
-0.57815808 0.59061034 0.00000000
-0.30465512 -0.65232034 0.00000000
0.19172195 -0.11197337 0.00000000
-0.47752445 0.78890919 0.00000000
0.28230613 0.66065175 0.03187230
-0.05422938 -0.62314738 0.00000000
-0.13020758 0.47467888 0.00000000
0.59093889 0.40503864 0.04369297
0.54205668 0.00735467 0.00000000
0.75754887 -0.50473344 0.00000000
-0.62481459 -0.60417944 0.00000000
-0.13523831 -0.57866317 0.00000000
0.77195276 -0.69598360 0.00000000
-0.38370618 0.16900900 0.00000000
-0.44535008 0.40907961 0.00000000
0.08376904 -0.13693512 0.00000000
-0.17959166 0.19824162 0.00000000
-0.27691603 0.34433227 0.00000000
-0.47099415 0.21181499 0.00000000
-0.44139514 -0.04729847 0.00000000
0.04772683 -0.11361364 0.00000000
0.19646861 -0.36375813 0.00000000
-0.33396529 -0.08436194 0.00000000
-0.69367976 -0.29046654 0.00000000
-0.55190387 -0.13788102 0.00000000
0.51239339 -0.66512764 0.00000000
0.00063925 0.14509081 0.00000000
0.31447241 -0.02571906 0.00000000
0.70710784 -0.52685138 0.00000000
-0.20997223 0.73782139 0.00000000
-0.75994949 -0.08463292 0.00000000
0.79386180 -0.60242763 0.00000000
0.62276797 0.55703864 0.08467744
-0.65071367 0.76737417 0.00000000
-0.42837350 0.69909317 0.00000000
0.67845237 0.64653310 0.11704484
0.08687668 -0.27513120 0.00000000
0.40710709 -0.54380684 0.00000000
0.70136562 0.62933987 0.11832011
-0.69984669 0.73554425 0.00000000
-0.18532855 0.13899458 0.00000000
-0.06674081 -0.10759241 0.00000000
0.11651763 -0.28705253 0.00000000
0.06779476 -0.05336867 0.00000000
-0.03172096 0.66904938 0.00000000
-0.32604804 -0.63841770 0.00000000
-0.66411478 0.72755958 0.00000000
-0.04800828 -0.54763851 0.00000000
0.24407332 -0.32167158 0.00000000
0.13833037 0.00170959 0.00000000
-0.57089590 -0.61353419 0.00000000
0.69971234 -0.62838409 0.00000000
-0.15828947 0.03070904 0.00000000
-0.20532385 -0.16556043 0.00000000
0.11807891 0.35786418 0.00000000
-0.61487081 -0.23729567 0.00000000
0.65309709 0.32417117 0.03952176
-0.69276684 -0.72943725 0.00000000
-0.17112744 0.22197127 0.00000000
-0.46933388 -0.48428909 0.00000000
-0.03158461 0.68605157 0.00000000
0.54302228 0.51171974 0.05679445
0.77746281 -0.68611683 0.00000000
-0.79482948 0.06494662 0.00000000
-0.24758875 -0.00480267 0.00000000
0.42356954 -0.54779382 0.00000000
-0.63853498 -0.69635956 0.00000000
0.64938450 -0.50467069 0.00000000
0.76209900 -0.13020018 0.00000000
0.76745267 -0.38400258 0.00000000
0.74136863 0.22138869 0.03628656
0.19817496 -0.44986392 0.00000000
-0.11259214 0.62695617 0.00000000
0.48048714 -0.76861208 0.00000000
-0.00184312 0.25302025 0.00000000
0.26697107 0.56749480 0.00768413
0.66806513 0.02917066 0.00000000
-0.46586946 -0.50960096 0.00000000
0.34324145 -0.66304542 0.00000000
0.78177461 0.39023722 0.08293962
0.73026780 0.22108373 0.03374365
0.04431483 0.60739594 0.00000000
0.48477409 0.18234840 0.00000000
0.09889492 0.79665122 0.02130188
0.22757959 0.59395022 0.00480005
0.79100526 -0.29366736 0.00000000
0.08599002 -0.23442651 0.00000000
-0.20536111 -0.43415106 0.00000000
-0.49869835 -0.46695509 0.00000000
-0.70051551 -0.39347588 0.00000000
0.58023424 0.57083725 0.07827098
0.65603311 0.72543782 0.12963816
-0.61388156 0.01675858 0.00000000
-0.20815666 0.48527903 0.00000000
-0.33390884 -0.38959439 0.00000000
0.34193056 0.18357071 0.00000000
0.37557796 0.51428827 0.02003557
-0.11256677 0.00152884 0.00000000
0.42860236 -0.46527499 0.00000000
-0.42395573 -0.79489399 0.00000000
0.67486229 0.32014194 0.04347598
-0.40807921 0.28738373 0.00000000
-0.00398243 0.03865143 0.00000000
-0.76868282 -0.78677754 0.00000000
0.08050529 0.25486460 0.00000000
0.75226030 0.41054911 0.08088795
-0.64527821 0.71207012 0.00000000
-0.24869692 -0.44028153 0.00000000
0.07304779 0.07178707 0.00000000
0.33299714 0.00820895 0.00000000
-0.17149477 0.60210727 0.00000000
-0.68607241 0.28303387 0.00000000
-0.04778594 -0.76524173 0.00000000
0.33176131 0.52472186 0.01259286
-0.48949544 -0.41990751 0.00000000
-0.17796980 -0.08344946 0.00000000
-0.19475663 -0.65571919 0.00000000
-0.42084710 -0.03147901 0.00000000
0.07801686 -0.45422118 0.00000000
0.48996231 0.20356241 0.00000000
-0.69422319 0.67839131 0.00000000
-0.32625119 0.51082020 0.00000000
-0.72460138 0.18800373 0.00000000
-0.33698131 0.43618773 0.00000000
0.30943263 -0.11607343 0.00000000
0.27927929 0.26378597 0.00000000
0.42811786 0.21227521 0.00000000
0.74541341 0.58886846 0.11911748
0.27509426 -0.63519749 0.00000000
-0.49680068 0.30547527 0.00000000
-0.71497513 0.21555478 0.00000000
0.09514010 -0.51549446 0.00000000
-0.21795120 -0.40128586 0.00000000
0.49236798 -0.12376493 0.00000000
0.20528302 -0.32431021 0.00000000
-0.36114179 0.17179035 0.00000000
0.13904638 0.53204209 0.00000000
0.38522373 -0.48420177 0.00000000
0.05647272 0.34120945 0.00000000
0.70194100 0.22019758 0.02723066
-0.70922548 0.71527470 0.00000000
-0.47013925 0.08845137 0.00000000
0.08332623 0.64979920 0.00000000
-0.47886784 -0.00898022 0.00000000
0.64272368 -0.43677649 0.00000000
0.24525573 0.22836628 0.00000000
-0.58635070 0.37117077 0.00000000
0.18530790 -0.70377902 0.00000000
-0.77561349 0.11162252 0.00000000
0.01510815 0.30774014 0.00000000
-0.25800936 -0.54014544 0.00000000
-0.45602094 0.47889621 0.00000000
-0.65484169 0.17369029 0.00000000
-0.40154983 0.39655802 0.00000000
0.04237189 -0.11913065 0.00000000
-0.19486868 0.18626855 0.00000000
-0.58156813 -0.38014171 0.00000000
0.39009423 -0.56445212 0.00000000
0.34662634 -0.35071764 0.00000000
0.41018107 -0.17704406 0.00000000
-0.29034390 -0.43077437 0.00000000
-0.27771064 -0.23350528 0.00000000
-0.55327684 -0.24538805 0.00000000
-0.17936545 0.72806775 0.00000000
0.57863161 0.72540316 0.11237388
0.54876896 -0.70312466 0.00000000
-0.68123457 0.55366160 0.00000000
0.72322064 0.10244685 0.00572254
-0.11434562 -0.74991525 0.00000000
0.34973916 -0.75349089 0.00000000
-0.47006337 -0.26868266 0.00000000
-0.57144726 -0.45371094 0.00000000
-0.22149990 -0.46720005 0.00000000
-0.62245153 0.24741038 0.00000000
0.35040043 0.60577878 0.03481998
0.11237315 -0.45304839 0.00000000
0.63580241 0.10491284 0.00000000
-0.61250198 -0.54232051 0.00000000
0.76834458 0.34718441 0.07034683
0.14144223 -0.40634525 0.00000000
-0.46627522 -0.36764877 0.00000000
0.59368805 0.54160565 0.07475336
-0.09167863 -0.38036939 0.00000000
-0.39733830 0.65453910 0.00000000
0.42014995 -0.72355921 0.00000000
-0.24306401 0.44395210 0.00000000
-0.30235554 0.66490102 0.00000000
0.17762863 0.07318447 0.00000000
0.57377265 -0.04371367 0.00000000
-0.20026978 0.64361882 0.00000000
-0.70717642 -0.27504128 0.00000000
0.50889073 -0.20386955 0.00000000
-0.47905274 -0.74535423 0.00000000
0.51108538 0.66721595 0.08434180
0.00316970 -0.48376609 0.00000000
-0.05442230 0.60613621 0.00000000
0.79958452 -0.07440311 0.00000000
-0.06067334 -0.56068188 0.00000000
0.47862733 -0.74327535 0.00000000
0.60726419 -0.07561048 0.00000000
0.10642932 -0.18515285 0.00000000
-0.31475766 -0.49675036 0.00000000
0.42228360 -0.79177679 0.00000000
-0.65442558 -0.25596419 0.00000000
0.73198452 -0.42605736 0.00000000
0.03983584 -0.42609370 0.00000000
-0.10540099 0.17347565 0.00000000
-0.29776013 -0.07187635 0.00000000
0.57887706 0.56461676 0.07658155
-0.71657181 -0.53541911 0.00000000
0.27916190 -0.36936469 0.00000000
0.52350103 -0.45404112 0.00000000
-0.17799605 -0.32694385 0.00000000
0.27509764 -0.06313913 0.00000000
0.65559923 0.20009866 0.01241778
0.17677528 -0.33899911 0.00000000
0.72084742 0.26127019 0.04060292
-0.18714203 -0.12739665 0.00000000
-0.21672884 -0.54514986 0.00000000
-0.63246519 0.23570475 0.00000000
-0.11064487 -0.25250173 0.00000000
0.77719109 -0.24765322 0.00000000
-0.49604148 0.46538998 0.00000000
-0.15131535 0.09190141 0.00000000
-0.08161448 -0.57743304 0.00000000
0.21780707 0.68269178 0.02240610
-0.11307612 0.07197510 0.00000000
0.50864329 0.60635273 0.07022799
0.66238250 -0.27909184 0.00000000
0.77447880 -0.65574628 0.00000000
-0.47074131 -0.43950369 0.00000000
-0.13432092 -0.32358576 0.00000000
-0.49534161 0.21816808 0.00000000
-0.62168745 -0.32637285 0.00000000
0.51654546 -0.73362954 0.00000000
0.60389659 0.73043591 0.11912871
-0.76664555 0.73531707 0.00000000
0.38601210 -0.03118333 0.00000000
0.07949907 -0.18888356 0.00000000
0.20019688 -0.30915318 0.00000000
-0.33151154 -0.72476521 0.00000000
-0.09032595 0.32648732 0.00000000
0.38246565 0.63653843 0.04882671
0.13307321 0.66954553 0.00058384
0.73806006 -0.02922780 0.00000000
0.16570261 -0.71198494 0.00000000
-0.42499410 0.78145791 0.00000000
0.48944989 0.25667043 0.00000000
-0.57802683 0.58709368 0.00000000
0.67512278 -0.34683790 0.00000000
0.08606903 -0.43149292 0.00000000
0.25972592 0.40927994 0.00000000
0.61796260 -0.75777226 0.00000000
0.05378422 -0.03454513 0.00000000
0.30230840 0.43034301 0.00000000
-0.58351337 -0.40822049 0.00000000
0.64566982 0.32718598 0.03853800
-0.75822623 -0.38874063 0.00000000
0.29480510 0.09858018 0.00000000
0.05890939 0.08591652 0.00000000
0.46466720 -0.76018997 0.00000000
0.16741523 -0.46651174 0.00000000
-0.19117276 -0.77975364 0.00000000
-0.08675379 0.21563282 0.00000000
0.41080914 -0.40663088 0.00000000
0.56411562 0.49243239 0.05719709
0.69579706 -0.01650816 0.00000000
0.63501175 -0.14074101 0.00000000
0.08338849 -0.53328304 0.00000000
-0.52371944 0.55617173 0.00000000
-0.33668737 -0.61588425 0.00000000
0.31914889 0.35526410 0.00000000
-0.29682152 0.04619326 0.00000000
0.56921507 -0.61010331 0.00000000
-0.54410705 -0.64177156 0.00000000
-0.38543490 -0.54550701 0.00000000
0.42137159 0.65418478 0.06143496
0.36830287 -0.45978260 0.00000000
-0.32336887 -0.70852570 0.00000000
-0.38657886 -0.50441294 0.00000000
0.22563320 -0.35017167 0.00000000
-0.51257234 0.66402694 0.00000000
0.00884144 -0.27934486 0.00000000
-0.74575104 -0.79661422 0.00000000
-0.70612745 -0.22502451 0.00000000
0.44048663 -0.18507883 0.00000000
0.46731173 -0.48766375 0.00000000
0.15324158 -0.45763446 0.00000000
-0.21435241 0.08243477 0.00000000
-0.49733609 0.55941159 0.00000000
-0.70767894 0.40305611 0.00000000
-0.53627981 0.27058935 0.00000000
-0.24260913 0.46285339 0.00000000
0.65022572 0.16856433 0.00418922
-0.17315069 -0.40152760 0.00000000
0.10988474 0.04236643 0.00000000
0.27042916 0.17899002 0.00000000
0.27392673 -0.04837635 0.00000000
0.46037566 0.19765904 0.00000000
-0.33168900 -0.31972847 0.00000000
0.23408184 -0.08953570 0.00000000
0.35940283 0.25802415 0.00000000
-0.17180956 -0.56543218 0.00000000
-0.56458878 0.08732960 0.00000000
0.22704676 -0.27908018 0.00000000
-0.31751001 0.43400843 0.00000000
-0.25576077 0.26962066 0.00000000
-0.26373675 0.69596880 0.00000000
0.40930183 0.71952578 0.07331169
0.11273954 -0.30752576 0.00000000
0.07349236 -0.73867306 0.00000000
-0.58312884 -0.00690333 0.00000000
0.74773397 -0.20542939 0.00000000
-0.66468406 0.66644815 0.00000000
0.76277723 0.27092162 0.05210290
-0.51341078 -0.14021860 0.00000000
0.66004128 0.50093577 0.08047943
0.50073493 0.44029074 0.03144151
-0.64126023 -0.28361887 0.00000000
0.49290221 0.42011851 0.02519784
0.60656728 0.15230621 0.00000000
-0.09440809 0.59436015 0.00000000
0.70495468 0.38393277 0.06440713
0.33008022 -0.71221233 0.00000000
0.13819438 -0.26753957 0.00000000
-0.22366952 0.30852103 0.00000000
-0.30311414 0.44002337 0.00000000
-0.75520138 0.17506378 0.00000000
-0.59297086 -0.42608133 0.00000000
-0.18336344 0.56423200 0.00000000
-0.41169827 -0.67874273 0.00000000
-0.49351702 -0.62185763 0.00000000
-0.48607821 0.47165756 0.00000000
0.52589132 -0.46198081 0.00000000
0.24417343 0.12919397 0.00000000
-0.76339593 0.69567057 0.00000000
0.35597216 0.49483508 0.01132741
-0.79061373 -0.09342276 0.00000000
0.34026867 -0.79990873 0.00000000
-0.63253666 0.00937805 0.00000000
-0.66250526 0.76504186 0.00000000
-0.26609949 0.43412347 0.00000000
0.30297166 0.40546064 0.00000000
0.02983730 0.73230654 0.00000000
0.32927927 -0.47493008 0.00000000
-0.12181974 -0.00011152 0.00000000
-0.66315447 0.20944828 0.00000000
0.57770745 0.05209241 0.00000000
-0.77711896 -0.13550628 0.00000000
-0.01454792 0.07482779 0.00000000
-0.13838073 0.41337817 0.00000000
0.70662842 -0.37358353 0.00000000
-0.24690664 0.57675951 0.00000000
0.22781155 0.44805645 0.00000000
0.51965815 -0.01984154 0.00000000
-0.41946091 0.42469236 0.00000000
-0.39832702 0.36674942 0.00000000
0.25325859 0.56561842 0.00420860
-0.77796196 -0.33934166 0.00000000
0.60018809 0.02400043 0.00000000
-0.23201732 0.48569284 0.00000000
-0.60530925 -0.60913514 0.00000000
0.09422437 -0.32632863 0.00000000
-0.52794191 0.67781804 0.00000000
0.77209300 0.16615104 0.03082135
0.13867214 0.72089613 0.01328068
0.17049952 0.37612240 0.00000000
0.48169140 0.27502876 0.00000000
-0.60625179 0.36523955 0.00000000
-0.71294458 -0.47954860 0.00000000
0.06649708 0.15366055 0.00000000
-0.55866761 -0.55270370 0.00000000
-0.51154133 -0.47008717 0.00000000
0.23104097 -0.36201793 0.00000000
0.78174846 -0.19503015 0.00000000
-0.06502717 0.29414028 0.00000000
0.56259994 -0.46460353 0.00000000
0.34115230 -0.64786986 0.00000000
-0.21376252 -0.41807104 0.00000000
-0.05503092 0.18906323 0.00000000
0.15381872 0.64049131 0.00000000
0.52614553 -0.40608856 0.00000000
-0.65651420 -0.50457078 0.00000000
-0.41684928 -0.50725753 0.00000000
-0.20435249 -0.27611658 0.00000000
-0.27427692 -0.75149810 0.00000000
-0.40735770 0.10937497 0.00000000
-0.35907809 -0.59127866 0.00000000
-0.42000958 0.06260643 0.00000000
0.00526778 0.10328813 0.00000000
0.59542669 -0.28352687 0.00000000
-0.10263484 0.03856928 0.00000000
0.48669871 0.76355907 0.10038436
-0.38855301 -0.64943773 0.00000000
-0.69080192 0.46068347 0.00000000
0.38091265 -0.60172508 0.00000000
0.27294774 0.11694881 0.00000000
-0.66469084 -0.30279975 0.00000000
0.73312629 0.03976610 0.00000000
-0.60327998 -0.40802047 0.00000000
-0.53870809 -0.64387638 0.00000000
0.51757452 0.57340716 0.06487404
-0.06908362 0.68372687 0.00000000
0.75267189 -0.25709974 0.00000000
-0.24177843 -0.67995272 0.00000000
0.26884447 0.78950678 0.05759905
-0.54735170 -0.30563793 0.00000000
-0.02691137 0.44195323 0.00000000
0.08447203 -0.17045719 0.00000000
0.75926571 -0.65188131 0.00000000
0.63205553 -0.67769036 0.00000000
-0.01005054 0.61222588 0.00000000
-0.33113171 0.56160723 0.00000000
0.04243381 -0.37844929 0.00000000
0.48842159 -0.22424986 0.00000000
0.64742941 0.40690692 0.05670400
0.60347089 0.33551718 0.03098723
-0.65775051 0.64590873 0.00000000
-0.33361252 0.42897885 0.00000000
-0.77010457 -0.75194056 0.00000000
0.19691423 -0.73623043 0.00000000
0.65859637 0.56082037 0.09350847
0.68432090 -0.49085249 0.00000000
-0.04334034 -0.45190823 0.00000000
0.51865161 -0.19900980 0.00000000
-0.33077093 -0.64679323 0.00000000
0.00834197 0.58050073 0.00000000
-0.01260881 -0.06745359 0.00000000
0.46281525 0.18367432 0.00000000
0.79931074 -0.75136332 0.00000000
0.15490435 0.39056911 0.00000000
0.42347216 0.28325626 0.00000000
-0.02664580 0.24927656 0.00000000
0.37143323 -0.77298800 0.00000000
-0.15978292 -0.78499812 0.00000000
-0.59653577 -0.00633645 0.00000000
0.03274780 0.20914870 0.00000000
0.03921551 0.41307153 0.00000000
0.58904865 -0.52506293 0.00000000
-0.35331855 -0.44670168 0.00000000
-0.23217904 0.41095047 0.00000000
-0.49329053 0.26710093 0.00000000
0.31183375 0.16530596 0.00000000
0.74212942 -0.70939985 0.00000000
-0.76473274 -0.34944437 0.00000000
-0.77364675 0.11128596 0.00000000
0.77677030 -0.14492936 0.00000000
-0.57205156 -0.41617379 0.00000000
0.23321920 0.21772041 0.00000000
0.77008907 0.20599976 0.03925881
-0.76284307 -0.18060627 0.00000000
0.34019491 -0.12296483 0.00000000
0.48715823 -0.66048049 0.00000000
0.61734234 0.09207522 0.00000000
0.23602023 0.06937715 0.00000000
-0.78053986 -0.48877072 0.00000000
-0.17891091 -0.23847262 0.00000000
0.50446745 0.34073883 0.01007869
0.49479932 0.18373030 0.00000000
-0.50161309 -0.37707726 0.00000000
-0.61254379 -0.22097402 0.00000000
0.45990988 -0.48808967 0.00000000
0.44983505 0.44467069 0.02106995
0.53811401 0.64929641 0.08637267
-0.79410139 -0.36595772 0.00000000
0.76023428 0.74568092 0.15738283
0.41494755 -0.25526343 0.00000000
0.31809635 0.36237670 0.00000000
0.12748386 0.02284585 0.00000000
-0.20592727 -0.00618248 0.00000000
-0.03223058 0.79602306 0.00000000
-0.03429956 0.73420171 0.00000000
-0.15979179 -0.41416708 0.00000000
0.63402166 0.02533667 0.00000000
-0.67108545 -0.79465561 0.00000000
-0.41196888 0.63888240 0.00000000
-0.61218339 -0.41233151 0.00000000
0.58552338 0.10414180 0.00000000
-0.58536154 -0.10169828 0.00000000
-0.37197299 -0.74969482 0.00000000
0.27751842 -0.25399047 0.00000000
0.57457886 -0.24834035 0.00000000
0.60392640 -0.41268741 0.00000000
0.62472433 -0.00241271 0.00000000
0.79082428 -0.44580808 0.00000000
-0.08512448 -0.36219062 0.00000000
0.71732169 -0.40568899 0.00000000
0.16661432 -0.09458861 0.00000000
-0.41391514 0.55989920 0.00000000
0.10315479 -0.03862210 0.00000000
0.39247189 0.13263631 0.00000000
-0.61744214 0.34341136 0.00000000
0.42385498 -0.06170829 0.00000000
0.05615334 -0.60717630 0.00000000
0.17809429 -0.26173346 0.00000000
0.02133877 -0.35757909 0.00000000
-0.17289811 0.30640452 0.00000000
-0.13766423 -0.38383526 0.00000000
0.00527179 0.65102978 0.00000000
-0.64110061 -0.58316454 0.00000000
-0.18821716 -0.51829430 0.00000000
-0.71119506 -0.58028202 0.00000000
-0.07098202 0.10889388 0.00000000
-0.78203487 0.36363787 0.00000000
0.16628695 -0.29612619 0.00000000
0.08049034 0.16336316 0.00000000
-0.30665848 0.20815645 0.00000000
-0.10577149 0.03110558 0.00000000
0.17183258 0.31434461 0.00000000
0.19252769 0.43259066 0.00000000
-0.11870593 -0.56599967 0.00000000
-0.39409675 0.79547212 0.00000000
0.23304572 -0.13412625 0.00000000
-0.32418928 -0.31784146 0.00000000
0.06696526 -0.26178980 0.00000000
0.43438245 0.00428575 0.00000000
-0.55593070 0.39356679 0.00000000
-0.07550326 0.61932218 0.00000000
-0.68282544 0.15367583 0.00000000
-0.53985288 0.16714719 0.00000000
0.32858753 0.63210900 0.03582711
0.49242468 0.19826524 0.00000000
0.28700791 -0.45505898 0.00000000
0.76916379 -0.22040856 0.00000000
-0.44370586 0.75396239 0.00000000
0.48268092 -0.74273131 0.00000000
0.72047568 0.14526805 0.01465749
0.36237219 -0.35733504 0.00000000
0.05657950 -0.50770413 0.00000000
0.71986403 0.44662048 0.08170731
-0.08272230 -0.38737595 0.00000000
-0.51205622 0.70443843 0.00000000
0.58692029 -0.09258637 0.00000000
0.68014627 -0.56280281 0.00000000
-0.38394451 -0.63131467 0.00000000
-0.03390923 0.13582521 0.00000000
-0.59973556 -0.08376957 0.00000000
-0.31837984 0.30381512 0.00000000
0.55528741 0.21322852 0.00000000
0.36546518 0.56095419 0.02818506
0.69070357 0.11936300 0.00224433
0.52253833 -0.59626946 0.00000000
-0.32211262 -0.58703973 0.00000000
-0.13615569 -0.16687319 0.00000000
0.30596174 0.32126168 0.00000000
-0.68934993 -0.05564868 0.00000000
0.30630619 0.72535856 0.05164936
-0.76824114 -0.08303533 0.00000000
-0.31580669 0.60187608 0.00000000
-0.07417546 -0.41038619 0.00000000
0.10773214 -0.30515460 0.00000000
-0.38001783 0.59568274 0.00000000
0.20211093 -0.58176118 0.00000000
0.68249466 -0.34479587 0.00000000
0.15892374 0.11251977 0.00000000
0.24312617 0.74371739 0.04165653
0.72539279 0.42399333 0.07789525
0.23317109 -0.12293790 0.00000000
0.71468517 0.43658154 0.07831452
0.40822816 0.05357022 0.00000000
0.17425402 -0.19761284 0.00000000
0.18943958 0.58354305 0.00000000
0.16525370 -0.64756513 0.00000000
0.62308606 0.51511260 0.07540101
-0.13536628 -0.45459598 0.00000000
-0.26724305 0.67256379 0.00000000
-0.46679730 -0.16660074 0.00000000
-0.79155841 -0.68938642 0.00000000
-0.19650848 0.76965057 0.00000000
0.53936465 0.24146688 0.00000000
0.59956906 0.51748720 0.07068734
0.38542856 -0.68661857 0.00000000
0.12500377 -0.24229620 0.00000000
-0.04148702 0.07365429 0.00000000
0.01702002 -0.48470814 0.00000000
-0.44882760 -0.70459031 0.00000000
0.60778028 -0.69342627 0.00000000
-0.10583469 -0.31558150 0.00000000
-0.68040038 0.65442448 0.00000000
0.46897057 0.63687741 0.06818844
0.79429687 -0.33843695 0.00000000
0.53627529 0.10814681 0.00000000
-0.12559918 0.32234509 0.00000000
0.02032418 0.31296364 0.00000000
0.16783865 0.62699701 0.00000000
0.68683079 0.34791412 0.05233611
0.68784110 0.47204320 0.08023580
-0.05568309 -0.41144781 0.00000000
0.71968568 -0.76645087 0.00000000
-0.11830002 0.16635058 0.00000000
-0.19821332 0.77377865 0.00000000
0.21841796 -0.34360025 0.00000000
-0.09213794 0.00026475 0.00000000
-0.73325432 -0.24112923 0.00000000
-0.08038058 0.34227585 0.00000000
-0.36802227 0.44956679 0.00000000
-0.04392609 0.30737487 0.00000000
-0.56558969 -0.17480617 0.00000000
0.34709202 -0.07750558 0.00000000
-0.77864336 0.05223780 0.00000000
0.17587003 0.54919570 0.00000000
-0.35741919 0.41204604 0.00000000
-0.67001728 -0.56940259 0.00000000
-0.19646689 0.06751253 0.00000000
0.71057864 -0.00961509 0.00000000
0.60928971 -0.76861542 0.00000000
0.49743272 -0.42232635 0.00000000
0.56889707 -0.53837767 0.00000000
-0.13247833 -0.48673683 0.00000000
-0.43134374 0.21882671 0.00000000
0.05620777 -0.09004706 0.00000000
-0.68791552 -0.02335507 0.00000000
0.20719299 0.34804482 0.00000000
-0.23827159 -0.25733319 0.00000000
-0.72711614 0.77569750 0.00000000
0.40444379 0.59638232 0.04477396
-0.09291974 -0.33915695 0.00000000
0.03424476 0.07518544 0.00000000
0.77569594 0.70926040 0.15271010
-0.01473378 -0.20211460 0.00000000
-0.26019849 0.71529324 0.00000000
0.06749791 -0.48005161 0.00000000
0.16561068 -0.04336492 0.00000000
0.12523932 0.72417458 0.01101677
0.36202138 0.10959012 0.00000000
-0.14236908 -0.08577112 0.00000000
0.49201848 -0.61867456 0.00000000
-0.33665999 -0.23876284 0.00000000
-0.31661019 0.40769031 0.00000000
0.73554451 0.14538005 0.01804204
-0.50991655 -0.79903656 0.00000000
0.21558591 0.46453408 0.00000000
-0.71129626 -0.46773025 0.00000000
-0.10171703 0.55016083 0.00000000
0.53132705 -0.17461134 0.00000000
-0.76453075 0.32814251 0.00000000
0.51020550 0.38797976 0.02189029
-0.55606475 0.29879322 0.00000000
0.62856711 0.26857862 0.02165853
0.32468085 0.67809074 0.04520769
-0.09170239 0.77304243 0.00000000
-0.55343583 -0.09564012 0.00000000
0.12907808 -0.15517523 0.00000000
-0.62294846 -0.23937493 0.00000000
-0.63246486 0.71267438 0.00000000
0.57663228 -0.53070253 0.00000000
0.48447957 -0.26818904 0.00000000
0.49792248 0.20736951 0.00000000
-0.44639578 0.22394575 0.00000000
0.31393911 -0.03868497 0.00000000
-0.21320829 -0.16819865 0.00000000
0.55922278 0.17270974 0.00000000
-0.42063074 0.50480804 0.00000000
0.64473335 -0.41432572 0.00000000
-0.23235448 -0.07504331 0.00000000
-0.13859514 0.73498251 0.00000000
-0.76263997 -0.05811110 0.00000000
0.73151287 0.21834874 0.03341148
-0.36908837 -0.05374528 0.00000000
0.19931083 0.48641898 0.00000000
0.27768097 0.70673198 0.04111464
-0.61037028 0.69607902 0.00000000
0.65881772 0.43851029 0.06628895
0.27000874 0.33691288 0.00000000
-0.25895502 -0.30896976 0.00000000
0.61938458 0.66971857 0.10904491
0.51387983 0.23131710 0.00000000
-0.22720011 0.55430803 0.00000000
0.35869510 -0.39509615 0.00000000
-0.10972296 -0.67224959 0.00000000
-0.21002397 -0.50551416 0.00000000
0.34864024 -0.20648916 0.00000000
-0.55735798 -0.43937311 0.00000000
0.23122701 0.32873233 0.00000000
0.16641530 -0.29769689 0.00000000
0.01278889 0.06192783 0.00000000
0.30150293 -0.79839203 0.00000000
-0.26771361 0.57615870 0.00000000
0.75458010 -0.29656489 0.00000000
0.46122008 -0.16679707 0.00000000
0.23689259 0.02244940 0.00000000
0.64901200 0.34844939 0.04402380
-0.39897355 0.79605212 0.00000000
0.24081997 0.64570675 0.01929104
0.32367957 0.37125607 0.00000000
-0.06054036 0.62076641 0.00000000
0.43416019 -0.47139986 0.00000000
0.37481416 0.19549719 0.00000000
-0.44615388 -0.41797375 0.00000000
-0.36098672 -0.43131475 0.00000000
-0.69460701 -0.39235952 0.00000000
-0.79843970 -0.47910388 0.00000000
0.56439493 0.00467964 0.00000000
-0.02865101 0.57184623 0.00000000
0.47062544 -0.78835463 0.00000000
-0.06769735 -0.54987735 0.00000000
0.45570489 0.01922740 0.00000000
0.44054104 -0.78757247 0.00000000
-0.39476444 -0.68289906 0.00000000
0.76244679 0.42637407 0.08668718
-0.54744508 0.30281307 0.00000000
-0.03840253 0.03359681 0.00000000
-0.17897240 0.05212320 0.00000000
0.44613588 -0.28445280 0.00000000
-0.05359346 0.07620475 0.00000000
-0.39493045 -0.33679872 0.00000000
0.61975240 -0.12659880 0.00000000
-0.61976496 -0.53008533 0.00000000
0.06465937 0.79760459 0.01388166
-0.39050121 -0.32800190 0.00000000
-0.55469570 0.36974825 0.00000000
0.05136358 -0.67439976 0.00000000
0.29323397 0.58298713 0.01699341
0.02384802 0.77556319 0.00000000
0.17954275 -0.41741077 0.00000000
-0.28287250 -0.43076521 0.00000000
0.30992416 -0.52698868 0.00000000
0.38945474 0.10946243 0.00000000
0.04509750 0.53597657 0.00000000
-0.31812971 0.35748825 0.00000000
-0.53297499 -0.21297946 0.00000000
-0.07377837 -0.33881143 0.00000000
-0.24281059 -0.48304828 0.00000000
-0.09759927 -0.34480239 0.00000000
0.58021488 0.19433411 0.00000000
-0.54438162 -0.60938389 0.00000000
0.34995634 0.27927849 0.00000000
0.60965649 0.44757703 0.05734992
-0.45916390 0.37938157 0.00000000
0.20875918 0.52049252 0.00000000
-0.29049343 -0.73267256 0.00000000
-0.24292993 0.16070543 0.00000000
-0.51576495 -0.13408831 0.00000000
-0.18073410 0.02457227 0.00000000
0.52099353 -0.55449422 0.00000000
-0.61159268 -0.10767284 0.00000000
0.40562849 0.62288512 0.05094685
-0.41067252 0.13009703 0.00000000
-0.21608297 -0.41053014 0.00000000
0.28577402 0.19384694 0.00000000
0.68174571 0.51843476 0.08921978
0.47926337 -0.60558707 0.00000000
0.24019209 0.10122061 0.00000000
-0.64746622 -0.13030088 0.00000000
0.32110022 -0.70674650 0.00000000
-0.10480613 -0.27591302 0.00000000
-0.57539762 -0.24947929 0.00000000
0.31353328 -0.07787939 0.00000000
0.36480262 -0.59393802 0.00000000
-0.68549596 -0.51023138 0.00000000
0.78734738 0.49477275 0.10748812
-0.36220746 0.04219874 0.00000000
-0.06968272 0.74715623 0.00000000
0.29768603 0.33808624 0.00000000
-0.10682090 0.25379762 0.00000000
0.19980977 -0.17522153 0.00000000
0.03035713 0.77586119 0.00138637
-0.62137542 -0.30349557 0.00000000
0.02231322 0.47232682 0.00000000
0.39959796 0.54230958 0.03163813
0.60145684 0.59079185 0.08745138
-0.53433304 -0.63538012 0.00000000
-0.65345412 -0.37245157 0.00000000
-0.18986305 -0.40161347 0.00000000
-0.79026234 0.38865852 0.00000000
-0.10075384 -0.67354283 0.00000000
0.11602438 -0.54582207 0.00000000
0.52818107 -0.45577176 0.00000000
-0.64205640 0.56648073 0.00000000
0.72848060 0.76839562 0.15536760
-0.51384561 -0.58464606 0.00000000
0.32413257 -0.56421421 0.00000000
0.26713263 0.02369228 0.00000000
0.08046594 0.73416352 0.00326162
-0.30722379 0.42319124 0.00000000
-0.27875377 0.56845108 0.00000000
-0.07847681 -0.60049520 0.00000000
-0.33148300 -0.56471487 0.00000000
0.49310700 -0.47439895 0.00000000
-0.46011090 0.29889386 0.00000000
-0.40059612 0.38950192 0.00000000
0.42020484 0.16422972 0.00000000
0.11307266 -0.47334346 0.00000000
0.61328177 -0.61937445 0.00000000
0.76621618 -0.07361983 0.00000000
0.01753213 0.00138285 0.00000000
-0.30412505 0.10789695 0.00000000
0.18718029 -0.44559286 0.00000000
0.46992997 -0.35860779 0.00000000
-0.68607951 -0.17812235 0.00000000
-0.77859787 0.77991762 0.00000000
0.05225288 -0.15073905 0.00000000
-0.61348512 0.09276331 0.00000000
-0.08331224 0.10994457 0.00000000
-0.59637183 -0.22767529 0.00000000
0.75001625 -0.30450316 0.00000000
0.69197004 -0.02104545 0.00000000
0.32601934 -0.66969361 0.00000000
-0.60285166 -0.17926160 0.00000000
-0.39526632 0.70916229 0.00000000
-0.19911181 -0.50827424 0.00000000
0.09289321 0.42041023 0.00000000
-0.13736063 0.04021601 0.00000000
-0.68830970 0.08648149 0.00000000
-0.34712598 -0.31803987 0.00000000
0.13264902 0.79036306 0.02742537
-0.35345779 0.22289591 0.00000000
0.67539346 -0.02333476 0.00000000
0.07124396 0.17960458 0.00000000
-0.30852265 -0.22813359 0.00000000
-0.52311293 0.44441578 0.00000000
-0.10427650 0.59740735 0.00000000
0.58655754 -0.48603937 0.00000000
-0.72234926 -0.61883260 0.00000000
0.37897246 -0.14096266 0.00000000
0.34581558 0.30212199 0.00000000
0.69936078 0.13904496 0.00856251
0.37969704 0.67564570 0.05692835
0.61182865 0.06280251 0.00000000
0.46213715 -0.36163117 0.00000000
-0.15974668 -0.38256486 0.00000000
-0.41006878 0.55882090 0.00000000
-0.78819831 -0.13408830 0.00000000
0.15984688 -0.12220551 0.00000000
0.79134615 -0.69532472 0.00000000
-0.09922217 0.65014322 0.00000000
0.29124020 -0.28801447 0.00000000
0.77500652 -0.55476638 0.00000000
0.64997864 0.12579569 0.00000000
0.47098428 -0.29152692 0.00000000
0.69175317 -0.69618494 0.00000000
0.61509515 0.61206720 0.09523532
0.65031911 0.21759472 0.01514131
-0.32644068 0.73446912 0.00000000
-0.43653686 -0.45455027 0.00000000
0.62757508 0.08810677 0.00000000
0.21476872 -0.30190458 0.00000000
0.41869700 -0.67747988 0.00000000
-0.09726632 0.03365771 0.00000000
0.19843468 -0.33392416 0.00000000
-0.52358549 -0.21654382 0.00000000
-0.24207269 -0.23454041 0.00000000
0.02730929 -0.42353907 0.00000000
-0.14652763 -0.21021490 0.00000000
0.68375864 0.18409495 0.01512788
-0.30673659 0.61788448 0.00000000
0.27399553 -0.05160205 0.00000000
-0.11724722 0.06555386 0.00000000
-0.43501146 -0.68071292 0.00000000
-0.64356668 -0.08337823 0.00000000
0.58251188 -0.54966334 0.00000000
0.34797643 -0.44881257 0.00000000
-0.65211673 -0.09695169 0.00000000
0.61805424 0.75854392 0.12855177
-0.39175216 0.08744506 0.00000000
-0.12418569 -0.68814249 0.00000000
0.22841892 0.60220853 0.00682835
-0.62183435 -0.16128451 0.00000000
-0.67762689 -0.72830909 0.00000000
-0.08853689 0.27319700 0.00000000
0.61868560 0.40468810 0.04980092
0.15349186 -0.33676284 0.00000000
-0.12937178 0.18981196 0.00000000
0.34642428 -0.08140433 0.00000000
-0.29019239 -0.59324016 0.00000000
-0.53985426 0.37952645 0.00000000
-0.55320589 0.62991002 0.00000000
-0.12602554 0.62438344 0.00000000
-0.56667117 -0.70185171 0.00000000
0.75202821 -0.44088796 0.00000000
-0.03068648 0.25502939 0.00000000
0.78057661 -0.38539015 0.00000000
-0.68796421 -0.41602564 0.00000000
0.24587597 -0.63253616 0.00000000
-0.46235175 -0.45726512 0.00000000
0.79301949 -0.46674763 0.00000000
0.17406766 -0.70325570 0.00000000
0.08720526 0.28093116 0.00000000
0.06275536 0.25299936 0.00000000
-0.06027990 -0.51389800 0.00000000
0.66226394 0.26444839 0.02825037
0.71462308 -0.75215313 0.00000000
-0.74860450 0.38216308 0.00000000
0.10563040 0.59963943 0.00000000
-0.61100041 0.63869187 0.00000000
-0.66122162 -0.21150644 0.00000000
0.12122012 0.35301647 0.00000000
-0.41706000 -0.48442458 0.00000000
0.63455764 -0.31549319 0.00000000
0.10907485 0.16908118 0.00000000
-0.49998116 -0.70654400 0.00000000
0.31275789 0.07773423 0.00000000
-0.18622469 0.04865506 0.00000000
-0.27621907 0.01651080 0.00000000
0.29591480 0.16224179 0.00000000
0.46585539 -0.73630800 0.00000000
-0.11204724 -0.42571666 0.00000000
0.25730472 0.06162393 0.00000000
-0.12352767 -0.61744982 0.00000000
0.34101738 0.28237520 0.00000000
-0.79349940 -0.49427096 0.00000000
-0.06551398 -0.60908476 0.00000000
0.27681517 -0.46723573 0.00000000
0.78159324 0.74048324 0.16098597
-0.43837373 0.61751263 0.00000000
0.75992024 -0.63025574 0.00000000
-0.37980097 0.32110890 0.00000000
0.25964978 -0.28868526 0.00000000
0.00371096 -0.36772493 0.00000000
0.50162180 0.74019588 0.09850266
-0.65597667 0.45222955 0.00000000
0.03410729 -0.58644036 0.00000000
-0.73678283 -0.70551930 0.00000000
0.45122314 0.48962465 0.03140186
0.03007203 -0.08350533 0.00000000
0.34963119 0.37360500 0.00000000
0.72686505 0.30898583 0.05258269
-0.03880523 -0.61906585 0.00000000
-0.16301372 0.70040744 0.00000000
0.39045345 0.29310655 0.00000000
0.79140877 0.16543457 0.03496805
0.19118957 -0.36190090 0.00000000
-0.38463545 -0.75466410 0.00000000
0.49978711 0.20046016 0.00000000
0.74291716 -0.53831661 0.00000000
0.30530927 0.58079361 0.01919654
0.11854440 0.77646133 0.02118140
0.61253870 -0.10780194 0.00000000
0.14919929 -0.54899192 0.00000000
-0.05269917 -0.58335597 0.00000000
0.00702715 -0.50428310 0.00000000
-0.04798908 -0.58497170 0.00000000
0.78569527 0.37820213 0.08113052
-0.28611190 -0.46487290 0.00000000
0.43235597 0.53561818 0.03744965
0.39729901 0.59394288 0.04263716
-0.42710673 0.75923952 0.00000000
0.71054852 0.52756201 0.09767623
-0.51547853 0.13695242 0.00000000
0.51809389 -0.21606642 0.00000000
-0.39131958 -0.11215716 0.00000000
0.06620301 -0.57239999 0.00000000
-0.27571054 0.62266405 0.00000000
0.29056751 0.76897960 0.05786568
-0.48159823 0.08510265 0.00000000
0.49603354 -0.58925363 0.00000000
0.74501418 0.50818961 0.10104126
-0.70624008 0.53117981 0.00000000
0.07275826 -0.19935214 0.00000000
-0.78429691 0.23453470 0.00000000
-0.03796761 -0.29382377 0.00000000
-0.73355211 0.54013805 0.00000000
-0.45842409 -0.11240204 0.00000000
-0.26299620 0.32975485 0.00000000
0.06710396 0.24685436 0.00000000
-0.31262093 -0.53835817 0.00000000
-0.13746473 0.70388117 0.00000000
-0.09007831 -0.71806915 0.00000000
-0.47460926 0.27576686 0.00000000
0.31712741 -0.27678022 0.00000000
-0.20807942 0.68329959 0.00000000
-0.62055190 -0.60572606 0.00000000
-0.64069129 0.35372388 0.00000000
-0.63325229 0.65179470 0.00000000
0.17210977 -0.44070958 0.00000000
-0.12472238 0.53719416 0.00000000
0.13072513 0.45172808 0.00000000
-0.42752849 -0.12293246 0.00000000
0.45567234 0.45707316 0.02513648
0.40968816 -0.79648472 0.00000000
0.35983060 0.73056535 0.06474340
-0.05400327 0.09321487 0.00000000
0.01283048 -0.08540826 0.00000000
0.25179655 -0.60517574 0.00000000
-0.61086125 0.01944594 0.00000000
-0.26988133 0.64726391 0.00000000
0.13186168 -0.04007542 0.00000000
-0.54792988 0.15192405 0.00000000
-0.49813624 0.39685980 0.00000000
-0.13165719 -0.10017578 0.00000000
-0.61961184 -0.23339053 0.00000000
-0.45573700 0.19237825 0.00000000
-0.48310255 0.21239712 0.00000000
-0.78786884 0.43345735 0.00000000
-0.34891753 -0.75142150 0.00000000
-0.50996930 0.59327056 0.00000000
0.13482609 -0.06475275 0.00000000
0.14206876 0.47454873 0.00000000
-0.42794802 0.41394505 0.00000000
-0.11546065 0.12153513 0.00000000
-0.34279344 0.01608094 0.00000000
0.52024892 -0.76885303 0.00000000
-0.14009686 -0.56938670 0.00000000
0.07205518 0.21413768 0.00000000
0.40310953 0.70098911 0.06779840
-0.74838496 -0.22474369 0.00000000
-0.14006294 -0.60125573 0.00000000
-0.29606334 0.35060274 0.00000000
-0.06337015 -0.07512602 0.00000000
-0.13299316 0.13214012 0.00000000
0.38644294 0.58144115 0.03742957
0.42783634 -0.02400402 0.00000000
0.06297185 -0.01671308 0.00000000
-0.50881713 0.32917838 0.00000000
-0.26305716 -0.17348647 0.00000000
-0.27177577 0.35695039 0.00000000
-0.14685844 0.29496732 0.00000000
-0.79124281 0.09195081 0.00000000
-0.26125126 -0.10093104 0.00000000
-0.68183703 -0.58648702 0.00000000
-0.45800913 -0.26454213 0.00000000
-0.33922989 -0.32906555 0.00000000
-0.40139573 -0.42276471 0.00000000
0.28145772 0.63018395 0.02489038
0.43688293 0.06894007 0.00000000
0.70405867 0.66368344 0.12657736
-0.18110357 -0.59963331 0.00000000
0.49573351 -0.73723474 0.00000000
-0.74845747 0.79747713 0.00000000
-0.12678944 -0.35166491 0.00000000
-0.63384124 -0.50846672 0.00000000
-0.42818347 0.74038578 0.00000000
0.24015098 0.61298084 0.01184568
0.05047752 -0.15313773 0.00000000
0.51505381 0.58635361 0.06719844
0.37624909 0.31014521 0.00000000
-0.22797025 -0.60064191 0.00000000
0.08188703 0.43975169 0.00000000
-0.64493718 -0.27915960 0.00000000
0.43386264 -0.15124672 0.00000000
-0.39783786 -0.44093125 0.00000000
0.06742148 -0.38062099 0.00000000
0.65912779 0.03710699 0.00000000
-0.69653243 0.47167461 0.00000000
0.46230152 0.40998800 0.01611686
0.27340250 0.08432425 0.00000000
-0.41121715 0.24643439 0.00000000
0.27245917 0.76668804 0.05331755
-0.78616454 0.13926436 0.00000000
-0.66090584 -0.46441674 0.00000000
-0.72058933 -0.52333038 0.00000000
-0.71712206 -0.54035373 0.00000000
-0.62974950 0.27782494 0.00000000
0.38679759 -0.06090234 0.00000000
0.05532057 0.18927444 0.00000000
0.23409890 0.04292096 0.00000000
-0.31258839 0.61154112 0.00000000
0.37081155 -0.36750179 0.00000000
0.70650929 0.32418976 0.05143409
-0.37847448 0.26405322 0.00000000
0.41176337 -0.62903073 0.00000000
-0.76160934 -0.47896387 0.00000000
-0.76551307 0.12153535 0.00000000
0.67690498 -0.40451386 0.00000000
-0.20806879 -0.77018015 0.00000000
0.14964141 -0.05955130 0.00000000
0.70053459 -0.70418600 0.00000000
-0.15919405 -0.51671845 0.00000000
0.16656150 0.14609025 0.00000000
0.24449608 -0.40325743 0.00000000
-0.45935251 -0.19928333 0.00000000
0.34610935 -0.71880434 0.00000000
-0.56003669 -0.25590324 0.00000000
-0.55483140 -0.02177805 0.00000000
-0.40802057 -0.25517677 0.00000000
0.70894257 -0.21562976 0.00000000
-0.06397213 0.75559291 0.00000000
-0.21128911 0.39986271 0.00000000
-0.10214190 0.02911500 0.00000000
-0.50677385 -0.53155182 0.00000000
0.48299750 -0.57622459 0.00000000
-0.56995322 -0.15045716 0.00000000
-0.07221677 -0.73900528 0.00000000
0.38399541 0.37026398 0.00000000
-0.13618676 0.78021692 0.00000000
0.16803541 0.38900940 0.00000000
-0.73126914 0.16164770 0.00000000
-0.46638715 -0.39722855 0.00000000
-0.68895125 0.11534317 0.00000000
0.22371679 0.53964214 0.00000000
0.35665680 -0.24381115 0.00000000
0.40105989 -0.63583987 0.00000000
0.15100646 -0.70412095 0.00000000
-0.56042831 -0.07797285 0.00000000
0.32771705 -0.72855574 0.00000000
-0.17307095 0.65241149 0.00000000
-0.59588008 0.10570479 0.00000000
0.59649251 -0.58926321 0.00000000
0.56848711 -0.34075896 0.00000000
-0.62707585 -0.43429450 0.00000000
-0.78767556 0.34554319 0.00000000
-0.47019819 -0.54041629 0.00000000
-0.46213836 0.09533267 0.00000000
0.49023372 -0.44836005 0.00000000
-0.07516909 0.38920420 0.00000000
0.00729506 0.02789365 0.00000000
0.28658637 -0.01267350 0.00000000
-0.17012025 -0.09766353 0.00000000
0.52417179 0.39333464 0.02619792
0.35642703 -0.04325945 0.00000000
0.54074694 0.43118049 0.03833103
0.67171098 0.21904630 0.02023423
-0.09232862 -0.28562733 0.00000000
-0.61296004 -0.37304586 0.00000000
0.05755983 0.21585903 0.00000000
-0.67110211 0.78904658 0.00000000
0.74232020 -0.43421849 0.00000000
0.38067637 -0.31666882 0.00000000
-0.16504013 -0.50833301 0.00000000
0.15516157 -0.78380289 0.00000000
0.16765083 -0.13520349 0.00000000
-0.59556125 -0.55472218 0.00000000
0.69486036 -0.06698949 0.00000000
-0.17759085 0.68984063 0.00000000
0.71552242 -0.35433992 0.00000000
-0.20486015 0.28711487 0.00000000
0.16863829 -0.78599464 0.00000000
0.51719854 -0.74479031 0.00000000
0.68896443 -0.63639741 0.00000000
-0.27121356 0.21415283 0.00000000
0.51133468 -0.54120144 0.00000000
0.70487918 -0.01684312 0.00000000
-0.09381323 0.55357024 0.00000000
-0.51724342 -0.21192836 0.00000000
0.78213340 0.07085657 0.01181405
0.72273477 0.54376843 0.10400633
0.66539294 -0.74993501 0.00000000
0.76139250 0.52008100 0.10734395
0.18193150 -0.67994607 0.00000000
0.04291522 0.58794112 0.00000000
0.57031608 0.74944569 0.11588018
-0.61078178 -0.38232565 0.00000000
-0.18520202 0.05703812 0.00000000
-0.41618650 0.74140227 0.00000000
-0.69205151 -0.13074058 0.00000000
-0.72579911 0.07186007 0.00000000
-0.51075847 0.67393808 0.00000000
-0.57837717 0.32575722 0.00000000
0.64778741 0.48813197 0.07489285
0.25720863 0.06911070 0.00000000
-0.11012342 0.22362491 0.00000000
-0.45090500 0.60251742 0.00000000
-0.55492959 0.72995393 0.00000000
-0.22972526 -0.73326893 0.00000000
0.04408621 -0.10875805 0.00000000
-0.18953621 -0.38554732 0.00000000
-0.75532504 0.37933716 0.00000000
-0.01551951 -0.69158765 0.00000000
0.74805850 -0.78716088 0.00000000
0.74886524 0.38623300 0.07470978
0.77392512 -0.23411524 0.00000000
-0.78568188 -0.31241691 0.00000000
0.19961268 -0.15787074 0.00000000
0.78978225 -0.78075625 0.00000000
-0.74561782 -0.52117640 0.00000000
-0.37950675 -0.13419299 0.00000000
-0.01015969 -0.63444321 0.00000000
-0.38769370 0.44942821 0.00000000
0.54532222 -0.46903646 0.00000000
0.67663826 -0.29629498 0.00000000
0.72743882 0.08829650 0.00350817
0.40384595 -0.03263604 0.00000000
0.29708419 -0.61087664 0.00000000
-0.33912104 -0.77750317 0.00000000
0.29364538 -0.67210120 0.00000000
-0.18295930 -0.63578156 0.00000000
0.15589011 0.37915521 0.00000000
0.65964271 0.42877271 0.06430189
-0.36785652 -0.24399085 0.00000000
0.78412371 -0.52543967 0.00000000
0.61102771 -0.28985439 0.00000000
0.20445906 0.29438355 0.00000000
-0.73660293 0.43748225 0.00000000
-0.14370731 -0.25731042 0.00000000
0.51607294 0.56660994 0.06302383
-0.15555890 -0.60170145 0.00000000
0.64451728 0.41060153 0.05687845
-0.50361141 0.76451880 0.00000000
-0.28520831 0.33089848 0.00000000
0.23202439 -0.21190000 0.00000000
-0.46211809 0.34876747 0.00000000
-0.27137134 0.63216637 0.00000000
-0.72156157 -0.58118734 0.00000000
0.63079746 -0.19702417 0.00000000
0.63087923 0.57419628 0.09031110
0.12576581 -0.20106257 0.00000000
-0.67478407 0.67381608 0.00000000
0.29986505 -0.66768856 0.00000000
0.08950788 -0.19455795 0.00000000
-0.52062736 -0.21301978 0.00000000
0.59903664 0.23762204 0.00817301
-0.59694954 0.76354192 0.00000000
0.08638995 -0.12914508 0.00000000
0.49952982 0.49110346 0.04250148
0.39467861 0.20877987 0.00000000
0.35623331 0.19191273 0.00000000
0.67845938 0.69674737 0.12824158
-0.26752737 -0.00506926 0.00000000
-0.55181044 0.09570627 0.00000000
-0.21857594 0.51309773 0.00000000
-0.44744246 -0.36428480 0.00000000
-0.53824767 -0.60847612 0.00000000
-0.28371607 -0.65884208 0.00000000
-0.11289322 0.11027855 0.00000000
-0.26668894 -0.41480878 0.00000000
0.61078316 0.29244516 0.02301464
0.24256717 0.70123584 0.03206071
-0.62808145 -0.46626162 0.00000000
0.14963572 0.76897095 0.02644320
-0.53733836 0.71336119 0.00000000
0.62889100 0.40559628 0.05227868
-0.02682229 0.25458983 0.00000000
0.40308949 0.12100969 0.00000000
-0.00982824 0.38112548 0.00000000
-0.55355122 0.77401990 0.00000000
-0.33913658 0.52434590 0.00000000
-0.74495108 -0.44356231 0.00000000
-0.04380552 0.55755098 0.00000000
-0.23335529 -0.53907840 0.00000000
0.70698710 0.19420297 0.02256021
0.45857964 0.24255330 0.00000000
0.38252165 0.15159227 0.00000000
0.29975277 -0.07943571 0.00000000
0.64642905 0.03053150 0.00000000
-0.58630976 0.04029116 0.00000000
-0.76405277 0.21349577 0.00000000
-0.62670915 -0.17854354 0.00000000
0.30072751 -0.39581615 0.00000000
0.45026083 0.33124445 0.00000000
-0.77045353 -0.60309700 0.00000000
-0.33940629 0.06396061 0.00000000
0.31001769 0.25542472 0.00000000
-0.79794828 0.02998285 0.00000000
-0.17867812 0.03288213 0.00000000
-0.26212389 0.12013178 0.00000000
-0.58661005 -0.57018655 0.00000000
-0.17270979 0.71989265 0.00000000
-0.13183734 -0.07809979 0.00000000
0.28166527 -0.50943093 0.00000000
0.04753893 0.02235750 0.00000000
0.42818923 0.69763915 0.07264302
-0.77627170 -0.27710735 0.00000000
0.00882457 -0.51708192 0.00000000
-0.29773944 -0.73053717 0.00000000
-0.37974698 -0.21847081 0.00000000
0.36275945 -0.73874339 0.00000000
0.32278481 -0.31168697 0.00000000
0.09792629 0.19825994 0.00000000
0.28457257 -0.18123386 0.00000000
0.53531578 0.66768757 0.08984908
0.33184456 -0.22904358 0.00000000
-0.30931953 -0.06168791 0.00000000
-0.06742149 0.13895760 0.00000000
-0.75181290 0.65184154 0.00000000
-0.09353609 0.37174209 0.00000000
-0.15811531 -0.50628068 0.00000000
0.14057097 -0.55039476 0.00000000
-0.15792048 -0.30602916 0.00000000
0.68154975 -0.74009877 0.00000000
-0.76001786 -0.28253862 0.00000000
0.14146315 0.35747907 0.00000000
0.53356307 -0.53283756 0.00000000
-0.49860470 0.09302784 0.00000000
-0.20418591 -0.45090654 0.00000000
-0.14870525 0.74559068 0.00000000
-0.22095495 0.03204489 0.00000000
-0.43064191 -0.50890823 0.00000000
0.51889860 -0.49542120 0.00000000
0.08445695 -0.12597235 0.00000000
-0.69212424 0.26188753 0.00000000
-0.70275021 0.56322811 0.00000000
-0.49132805 0.66172438 0.00000000
0.65727004 0.38364991 0.05371283
-0.58938962 -0.77341390 0.00000000
0.39165480 0.57447529 0.03703852
0.03080959 0.00579389 0.00000000
0.59873022 0.27844633 0.01720642
-0.72612025 -0.37828850 0.00000000
0.26233272 -0.23100486 0.00000000
0.67385607 -0.64236395 0.00000000
0.23216748 -0.21426732 0.00000000
-0.45454081 -0.10061981 0.00000000
0.65050416 -0.55965665 0.00000000
-0.21934707 0.65131269 0.00000000
0.48788663 -0.42935755 0.00000000
-0.59502005 0.55243729 0.00000000
0.33481168 0.30922556 0.00000000
0.45585815 0.63101940 0.06395901
0.11698570 0.29389375 0.00000000
-0.04204245 -0.23907326 0.00000000
0.07247771 -0.47900757 0.00000000
0.18301985 -0.12478953 0.00000000
-0.67734353 -0.13471977 0.00000000
0.63870401 0.37943722 0.04863434
-0.74017210 0.51120095 0.00000000
0.24522672 -0.17410636 0.00000000
-0.57038159 -0.39363670 0.00000000
0.07038399 -0.54940841 0.00000000
-0.42593475 -0.37523591 0.00000000
-0.32955497 -0.77511385 0.00000000
0.31556536 -0.14158687 0.00000000
-0.58389900 -0.02908703 0.00000000
-0.17343460 -0.39084965 0.00000000
0.43509700 0.38697826 0.00492165
0.33562137 0.03553774 0.00000000
-0.66897538 0.51249381 0.00000000
0.18100637 0.30936675 0.00000000
0.44436187 0.16592820 0.00000000
-0.06350876 0.37808406 0.00000000
-0.35933326 -0.53568759 0.00000000
0.09214852 -0.42326781 0.00000000
0.44944269 -0.51599646 0.00000000
0.36457489 -0.52861428 0.00000000
-0.11889037 0.23042637 0.00000000
0.03695585 0.54484349 0.00000000
-0.16539210 0.79921584 0.00000000
-0.25634749 0.58051668 0.00000000
0.60179646 -0.00219081 0.00000000
-0.13703355 0.15504388 0.00000000
0.02182415 0.14493316 0.00000000
