ply
format ascii 1.0
element vertex 1377
property float x
property float y
property float z
end_header
0.13928305 0.32256142 0.00000466
0.19208611 0.48605069 -0.00000100
0.41726483 0.25394619 0.00000079
-0.31325370 -0.65357260 -0.00000009
-0.30679699 0.55962114 0.08134273
0.00364292 -0.22559846 -0.00000036
0.70264840 0.02715545 -0.00000174
-0.68788845 -0.01543666 -0.00000012
0.02015704 0.54842549 -0.00000084
0.02848273 0.44994085 -0.00000078
-0.22422081 -0.28996761 -0.00000032
0.30596136 -0.57838457 -0.00000014
0.49106906 0.17912674 0.00000072
0.36356851 0.10715264 0.00000446
-0.39636267 -0.24011322 -0.00000035
0.21433687 -0.54302729 -0.00000016
0.71900569 -0.35870889 -0.00000104
-0.74080628 -0.04562821 -0.00000005
0.16859816 0.23326906 0.00000567
-0.56493561 -0.43474419 -0.00000017
-0.52437532 -0.12989750 -0.00000027
-0.12937579 -0.79977995 -0.00000000
0.40074273 0.11413182 0.00000362
-0.51790577 -0.67518765 -0.00000008
0.02504139 0.44516670 0.00000439
-0.16090629 0.33040876 -0.00000071
-0.05561778 0.57127441 -0.00000086
-0.60608040 0.04187129 -0.00000021
-0.21166591 -0.67407931 -0.00000008
-0.40511573 0.53559431 0.17233000
-0.33338502 0.11131769 -0.00000052
0.39032800 -0.53346798 -0.00000017
0.07913547 0.59322130 -0.00000087
0.40105039 -0.31737184 -0.00000030
-0.68819707 -0.50937559 -0.00000003
-0.50203194 -0.56369085 -0.00000015
-0.48939562 -0.34833063 -0.00000027
-0.47586841 -0.53780683 -0.00000016
-0.24866426 0.12794746 -0.00000058
0.33312865 -0.27219625 -0.00000033
-0.58915133 -0.28552929 -0.00000017
0.32428781 -0.77390538 -0.00000002
-0.66044009 -0.04339185 -0.00000014
-0.75464364 0.10840285 0.07721535
0.50991337 0.03333626 -0.00000114
0.72570270 -0.63412065 -0.00000041
-0.69206236 -0.13531611 -0.00000009
-0.19802103 0.25012071 -0.00000066
0.07103323 -0.66149306 -0.00000009
0.76611504 -0.21504541 -0.00000146
0.06709907 -0.10085783 -0.00000044
0.01900507 0.57439074 -0.00000086
-0.11165540 0.61275209 -0.00000085
-0.74074201 -0.64111685 0.00000000
0.04088154 -0.47629362 -0.00000020
0.35591093 -0.30815979 -0.00000031
-0.44976479 0.37671509 0.03243015
-0.59069538 -0.25378495 -0.00000018
0.14813663 0.54307037 0.00000077
-0.33468327 0.20199831 -0.00000053
-0.10561268 -0.23744213 -0.00000035
0.41460194 0.06475581 -0.00000089
0.47422014 0.05378258 0.00000329
-0.30110353 -0.25171131 -0.00000034
0.25321807 -0.76552877 -0.00000002
0.39169548 -0.16847705 -0.00000039
0.14216478 0.27438734 -0.00000067
-0.07555555 -0.03954056 -0.00000048
-0.51943346 -0.00926238 -0.00000030
-0.53497238 0.27981488 0.01811032
-0.59776711 -0.55382951 -0.00000011
0.27487015 0.35647848 -0.00000101
-0.30610102 -0.62262949 -0.00000011
-0.40702845 0.64863084 0.31311194
-0.10059467 0.55707163 -0.00000085
-0.07584728 -0.77179880 -0.00000002
-0.10188036 0.32675201 -0.00000070
0.39315818 -0.28209444 -0.00000032
-0.59059641 0.15215102 -0.00000025
0.53284774 -0.57551728 -0.00000014
-0.56430677 -0.12194177 -0.00000023
-0.45078349 -0.57721346 -0.00000014
0.25045109 0.14596857 -0.00000059
-0.59139672 -0.11021814 -0.00000020
0.23006872 0.53143398 -0.00000060
-0.26213046 -0.72068986 -0.00000005
-0.19791584 0.37388096 -0.00000071
0.16811043 -0.40424215 -0.00000025
-0.69306709 0.03542152 -0.00000012
-0.58171945 -0.53822196 -0.00000013
-0.06493221 -0.23162377 -0.00000036
0.29561080 0.43517100 -0.00000013
0.36859297 0.00329282 -0.00000063
0.41815054 -0.24477771 -0.00000035
-0.13681128 0.05802043 -0.00000054
-0.69150420 -0.31770152 -0.00000006
0.04851791 0.05013489 -0.00000053
0.55245613 0.03557277 0.00000212
0.30760943 -0.36384358 -0.00000027
0.55365214 0.07076053 -0.00000135
0.11853029 -0.51931580 -0.00000018
0.64024856 0.12631812 -0.00000174
-0.74996295 0.12477669 0.09153616
0.01415567 0.58813701 0.00000223
-0.18018240 0.16828375 -0.00000061
0.15718111 -0.34828984 -0.00000028
0.11968466 0.17088159 0.00000742
-0.29206309 -0.41242294 -0.00000024
-0.34674896 0.25595154 -0.00000053
0.07303551 -0.04707117 -0.00000047
0.14935243 0.58840771 -0.00000007
-0.59585614 -0.50307821 -0.00000013
0.06242009 0.03700861 -0.00000052
0.69092327 0.06652609 -0.00000110
0.12634451 0.63727956 -0.00000050
0.29966506 0.45328432 -0.00000128
0.31953066 -0.78695519 -0.00000001
-0.60316804 -0.22451501 -0.00000017
0.65698033 -0.66664412 -0.00000024
0.14685681 0.23295989 0.00000600
0.16054833 -0.74685902 -0.00000003
0.66912687 -0.11863928 -0.00000135
-0.36421143 0.61102037 0.21460984
0.30652854 0.41017519 0.00000011
-0.35068449 0.25290900 -0.00000053
-0.63120556 -0.20433027 -0.00000014
0.45951437 -0.12340284 -0.00000067
0.23430884 -0.06806185 -0.00000046
0.14353765 0.01374558 0.00000961
0.07382023 0.53943209 0.00000212
0.38078538 0.30974329 -0.00000126
-0.18064171 0.39349747 -0.00000073
-0.71710450 0.09934739 0.02014981
-0.27071278 0.68796852 0.19433988
0.29010025 -0.74942331 -0.00000003
0.08372399 0.42807947 -0.00000077
0.77551093 -0.14410007 -0.00000164
0.31413453 -0.76857005 -0.00000002
-0.50229079 -0.22832061 -0.00000028
-0.24148957 0.29131458 -0.00000065
0.48554338 0.25911613 -0.00000061
0.14785629 0.14302308 -0.00000059
-0.12429295 -0.72034848 -0.00000005
0.25804438 0.04778456 -0.00000053
-0.58426561 -0.08662858 -0.00000021
-0.19395078 0.63649815 0.03729003
-0.40039633 0.40602717 0.00786648
-0.53416524 0.48400716 0.26720065
-0.71727838 -0.03283927 -0.00000008
-0.38897633 -0.28875080 -0.00000032
0.16578235 -0.13165438 -0.00000042
0.28024391 0.00375878 -0.00000050
-0.24179516 0.49168289 -0.00000069
0.15894165 0.55039542 -0.00000102
-0.48026974 0.31664222 -0.00000040
-0.61167416 -0.57297565 -0.00000010
0.10548954 0.30368934 0.00000547
-0.54304700 -0.32082677 -0.00000022
-0.49587855 0.35951688 0.06784382
0.01443838 0.43904383 -0.00000077
-0.32168898 -0.43273462 -0.00000023
-0.11534379 -0.19361848 -0.00000038
0.41383062 0.01005681 -0.00000078
0.78308156 -0.57919241 -0.00000055
-0.68073224 0.28585877 0.20402813
0.34724554 -0.04694723 -0.00000047
0.40806399 0.29668175 -0.00000132
0.62985721 -0.33114035 -0.00000081
-0.12849151 0.22359260 -0.00000064
0.77374486 0.01307810 -0.00000173
0.64828731 0.06204799 -0.00000164
0.58269708 -0.10354904 -0.00000110
-0.63271960 -0.50353278 -0.00000009
0.25145699 -0.21127984 -0.00000037
-0.04192115 0.23220419 -0.00000065
-0.40270294 0.34029275 -0.00000049
0.37433578 0.16004501 -0.00000095
-0.43167910 0.38819155 0.02433561
-0.66458145 -0.25244658 -0.00000010
0.52096854 0.15430910 -0.00000141
0.06272256 -0.16602563 -0.00000040
0.47136642 0.06662599 0.00000312
-0.21768012 0.66593332 0.10240188
-0.13427763 0.45373534 -0.00000078
0.27843409 0.01381340 0.00000757
-0.67139410 0.21485105 0.10562686
-0.28257619 -0.18922685 -0.00000038
-0.77551207 -0.23626613 0.00000000
-0.49592310 -0.26716373 -0.00000028
0.43398482 -0.40027485 -0.00000025
-0.51776882 0.61447546 0.40690804
-0.13402206 -0.17426640 -0.00000039
0.12233174 0.29832786 -0.00000069
-0.15595990 -0.55012921 -0.00000016
0.08415817 -0.25498351 -0.00000034
-0.06450147 -0.39670105 -0.00000025
-0.28578350 -0.06400428 -0.00000046
-0.25116297 0.63917831 0.11064170
-0.50641404 0.62315252 0.40362854
0.09814419 0.14762527 0.00000812
-0.59013392 0.25217627 0.05181847
-0.37279011 0.60207154 0.21415652
-0.41980801 -0.17987352 -0.00000037
-0.61386326 0.35851792 0.21111918
-0.08967521 0.09944097 -0.00000056
0.00931522 0.30020515 -0.00000069
-0.68161992 -0.42354596 -0.00000005
0.53818607 -0.03630235 -0.00000109
0.41576425 0.04807810 0.00000452
-0.68188115 -0.68960633 0.00000000
-0.18902655 0.38418587 -0.00000072
0.08820366 0.07703661 -0.00000055
-0.49639730 0.51644910 0.26067771
-0.53166003 0.02406160 -0.00000029
-0.48320071 0.01575636 -0.00000034
0.31957578 -0.28380218 -0.00000032
0.29161669 -0.70969596 -0.00000006
-0.56436927 -0.18363268 -0.00000022
-0.28185587 0.65308750 0.16526730
-0.01910805 -0.59922461 -0.00000013
0.49580224 -0.50825512 -0.00000018
-0.75094432 -0.46355428 0.00000000
-0.47352033 0.61569347 0.35420723
-0.09464077 -0.79976799 -0.00000000
0.33517571 0.12977229 -0.00000077
0.33452258 0.38307015 0.00000006
-0.70932385 0.23858527 0.18114815
0.32524587 -0.72031042 -0.00000005
0.51104075 0.24343566 -0.00000155
0.46702480 0.18672364 0.00000104
-0.24389487 0.44149546 -0.00000067
0.04456293 -0.18461833 -0.00000038
0.23869261 0.39131798 0.00000175
0.08243998 -0.78665629 -0.00000001
0.05128831 0.37355990 0.00000516
0.26809498 0.17561793 0.00000506
-0.50703984 -0.33102319 -0.00000025
-0.66995671 0.05389216 -0.00000015
0.42403782 -0.32477337 -0.00000030
0.60135984 -0.65918765 -0.00000009
0.36353152 0.31450495 0.00000074
-0.04758540 0.42808587 -0.00000077
-0.25889407 0.59414695 0.06495931
-0.50373076 -0.49057403 -0.00000019
-0.00115516 -0.56638128 -0.00000015
-0.62213823 0.22907158 0.06271816
0.68208790 -0.14078661 -0.00000135
-0.60333955 0.07044243 -0.00000022
0.17305040 -0.61068154 -0.00000012
0.27335602 -0.68409379 -0.00000007
-0.53658755 -0.48078150 -0.00000019
0.18581950 0.34755109 0.00000355
-0.71721030 -0.29206824 -0.00000003
0.43236258 0.13758146 -0.00000109
0.25864774 0.46354272 -0.00000117
0.18429509 -0.39989479 -0.00000025
0.30377550 -0.20708164 -0.00000037
0.15903223 0.44115107 -0.00000081
0.00894373 0.22810239 -0.00000064
0.64694109 -0.51096086 -0.00000051
-0.18367127 0.69571101 0.09721984
0.45858272 -0.54247913 -0.00000016
-0.01166285 -0.29585244 -0.00000032
0.33181669 0.22684923 -0.00000094
0.22706379 0.03103131 0.00000807
-0.42034052 -0.26512380 -0.00000033
0.19052371 -0.44411733 -0.00000022
-0.31755042 0.34044357 -0.00000058
0.53014082 -0.62449090 -0.00000011
0.38157839 0.30130665 -0.00000125
-0.62285200 0.22381095 0.05714952
0.05426483 0.20855945 0.00000779
-0.35761204 0.30640583 -0.00000053
-0.58866363 0.57539280 0.44586942
0.11032375 0.64431306 -0.00000032
-0.41632698 -0.29817546 -0.00000031
0.69940871 -0.07991614 -0.00000152
-0.77971186 -0.23328108 0.00000000
0.13259716 0.27564199 0.00000552
-0.60493525 -0.22985041 -0.00000017
-0.45849211 0.52864395 0.22918943
-0.00436604 0.48027243 -0.00000080
0.57231518 -0.02378547 -0.00000122
-0.02232409 -0.30146231 -0.00000031
-0.47788981 -0.45683803 -0.00000021
-0.64495336 0.25008310 0.11639365
-0.47922772 -0.56372863 -0.00000015
0.50260006 -0.20987253 -0.00000064
0.59676597 -0.58290247 -0.00000021
0.03666167 0.54960525 -0.00000084
0.21372809 -0.06802892 -0.00000046
0.54968095 -0.32579300 -0.00000056
-0.03993627 0.12210185 -0.00000058
0.18530555 0.59643133 -0.00000090
0.03326681 0.65784702 0.00000081
0.47837255 -0.49572490 -0.00000019
0.10337592 0.45895593 0.00000298
0.28323159 -0.35806372 -0.00000028
0.01778029 -0.38883176 -0.00000026
-0.09355165 -0.63617202 -0.00000010
-0.21003029 0.63097248 0.05021560
-0.27036689 0.05868448 -0.00000054
-0.34316650 0.45238801 -0.00000057
0.66708402 -0.59403792 -0.00000042
0.39113376 0.01149666 -0.00000071
-0.67570456 -0.78436654 0.00000000
0.39450262 -0.38666743 -0.00000026
-0.65777979 0.27262036 0.15970433
-0.65295736 0.20718934 0.07366348
-0.39208827 -0.15926353 -0.00000040
0.75431262 -0.26280439 -0.00000134
0.70810285 -0.60314335 -0.00000049
0.15009962 0.14382314 0.00000740
-0.31787394 -0.57468270 -0.00000014
-0.48984640 -0.56176788 -0.00000015
-0.41135815 0.23501118 -0.00000046
0.45670048 -0.53061717 -0.00000017
-0.13936437 0.17153639 -0.00000061
-0.27560209 0.57709492 0.06453807
0.61026692 -0.16461989 -0.00000107
-0.43636067 -0.58455418 -0.00000013
-0.28426709 -0.57168491 -0.00000014
0.21883091 -0.34539345 -0.00000028
-0.18989380 0.17005713 -0.00000061
0.42993845 0.05596873 0.00000410
0.05253226 0.68591591 -0.00000095
-0.31298835 -0.60458293 -0.00000012
0.18128375 0.56312902 -0.00000112
0.20654982 0.36456361 -0.00000081
-0.02609955 0.04380118 -0.00000053
0.29368564 0.07158689 0.00000641
-0.67803169 -0.04115800 -0.00000012
-0.18125980 0.00896479 -0.00000051
-0.76560379 -0.37281228 0.00000000
-0.48423210 0.60779399 0.35765154
-0.54210061 0.52586459 0.32818347
-0.05026487 0.14882816 -0.00000059
-0.36923061 0.48646651 0.06821276
0.38492530 -0.66116705 -0.00000009
0.34199055 0.30509170 -0.00000113
-0.41164763 0.44931019 0.07465583
0.76534958 -0.00903805 -0.00000187
-0.70064403 0.28686553 0.22964759
-0.11285945 0.15593759 -0.00000060
-0.17964120 -0.17270774 -0.00000039
0.58406229 -0.10911801 -0.00000110
0.49787643 0.18035507 -0.00000138
0.28601872 0.06745483 0.00000659
-0.76363395 -0.41872503 0.00000000
0.69033441 -0.53757804 -0.00000060
0.18503623 -0.09317935 -0.00000044
0.12932548 -0.71629154 -0.00000005
-0.05357565 -0.67503241 -0.00000008
0.79388706 -0.15178249 -0.00000162
-0.63515768 -0.53357408 -0.00000008
-0.52798988 0.51679770 0.29979710
-0.42723119 -0.45742038 -0.00000021
-0.72440329 -0.71696222 0.00000000
0.49151401 -0.09332240 -0.00000083
0.20083373 0.46810651 0.00000110
-0.31525850 -0.32028985 -0.00000030
-0.29383580 0.58582629 0.09756283
0.63377089 -0.02278509 -0.00000142
0.22139603 0.02536819 -0.00000052
-0.50590064 -0.58594204 -0.00000013
0.68357272 0.02871883 -0.00000028
0.00815326 0.29768277 -0.00000069
-0.05748838 -0.09270345 -0.00000044
-0.74850128 -0.36405692 0.00000000
0.77393236 -0.10866067 -0.00000170
-0.36519014 -0.75529439 -0.00000003
0.34153105 -0.28198249 -0.00000032
-0.74631001 0.07899010 0.03098654
-0.26569730 0.31562810 -0.00000063
0.03890577 0.53572433 -0.00000083
0.38006668 0.14227983 -0.00000093
0.48787840 0.01154265 -0.00000102
-0.16917312 -0.54493421 -0.00000016
0.17924266 0.33056762 -0.00000071
0.12437875 0.06943311 0.00000899
0.34720400 -0.11563716 -0.00000043
-0.22075366 0.14549597 -0.00000059
-0.39674722 -0.41028904 -0.00000024
0.31565782 -0.63719786 -0.00000010
0.28814860 0.23847807 0.00000355
-0.36193522 -0.30072744 -0.00000031
0.52767216 -0.62952282 -0.00000011
0.30183524 -0.23583838 -0.00000035
-0.61073037 -0.35110600 -0.00000014
0.11711818 0.01736362 -0.00000051
0.16739368 -0.50940670 -0.00000018
0.06602081 0.55823362 0.00000193
-0.26566790 0.58915593 0.06714278
-0.68987809 0.12968885 0.02396478
0.01418863 0.37307301 0.00000572
0.22116981 0.26504677 0.00000436
0.52345927 -0.09052822 -0.00000094
-0.61237718 0.21253973 0.03051665
-0.69837494 -0.65634781 0.00000000
-0.21497367 0.36595068 -0.00000069
-0.21930835 -0.44837409 -0.00000022
0.53604846 -0.43090457 -0.00000031
0.54639966 -0.08902075 -0.00000101
-0.28161359 0.16292805 -0.00000058
0.08152269 0.56415474 -0.00000085
-0.42422193 -0.77977030 -0.00000001
0.36316954 -0.47186663 -0.00000021
0.02698972 -0.60328061 -0.00000012
0.02804444 0.38240636 -0.00000074
0.00940445 0.05364469 0.00001099
-0.37900702 0.38002580 -0.00000052
0.47509329 0.06634238 -0.00000109
0.21728220 -0.09669533 -0.00000044
-0.04717312 -0.38362770 -0.00000026
0.07557651 -0.28056871 -0.00000032
-0.14890415 -0.51965778 -0.00000018
0.17014752 0.47619899 -0.00000091
-0.03718858 0.36923146 -0.00000073
-0.54558887 -0.31179319 -0.00000021
-0.17765937 -0.42598852 -0.00000023
0.18658050 -0.06753021 -0.00000046
-0.18259601 0.54334902 -0.00000076
0.26680312 -0.74511912 -0.00000003
-0.43994758 -0.44125249 -0.00000022
-0.52889579 -0.55316978 -0.00000015
-0.14003776 0.66087227 0.00111289
-0.49917059 -0.71188228 -0.00000006
0.23528517 -0.57898960 -0.00000014
0.61397730 -0.58481626 -0.00000026
0.34455052 -0.11329787 -0.00000043
-0.60026750 -0.25155562 -0.00000017
0.30493498 -0.72162007 -0.00000005
0.14059703 0.02986660 -0.00000052
0.19962533 -0.43406447 -0.00000023
0.40556560 0.33192160 -0.00000038
-0.47611602 0.47342498 0.18314574
0.14820951 0.65030773 -0.00000118
0.23464367 0.36917629 -0.00000091
-0.42107169 -0.38753216 -0.00000026
-0.20137911 -0.34463503 -0.00000028
0.05321498 0.05682279 0.00001027
0.66956858 -0.78441985 -0.00000004
0.53240976 0.12881853 0.00000083
0.32773099 0.14270516 -0.00000077
0.40007770 -0.55590078 -0.00000015
0.22122219 -0.49229495 -0.00000019
0.15308775 -0.78309148 -0.00000001
-0.55519680 0.29578280 0.06243592
-0.09403671 0.53998562 -0.00000084
0.05856240 0.29909595 0.00000626
0.19886503 -0.29155196 -0.00000032
-0.47486092 -0.08311585 -0.00000033
0.12948311 0.56790431 -0.00000096
-0.70980864 -0.42183887 -0.00000002
0.17673025 0.04037857 0.00000868
0.78672983 -0.69964802 -0.00000025
-0.08925758 0.28155762 -0.00000068
0.43646478 -0.18929379 -0.00000047
-0.37424862 -0.40089938 -0.00000025
0.56187342 -0.39273067 -0.00000047
0.50731817 -0.11081952 -0.00000085
-0.67680589 0.25110226 0.15665242
0.25303670 0.44910475 -0.00000113
-0.02247943 -0.72640181 -0.00000005
-0.34291474 0.15597845 -0.00000052
0.50932677 0.29064186 -0.00000164
0.48067953 0.09644904 -0.00000117
-0.40683615 -0.57980747 -0.00000014
0.11574793 -0.76237047 -0.00000002
-0.28595375 -0.30355418 -0.00000031
-0.35981229 0.63912920 0.24364785
0.34062977 0.17343154 0.00000371
-0.65350195 0.05356278 -0.00000017
0.10598840 0.46882791 0.00000278
-0.11891554 0.68042190 -0.00000085
-0.56013192 -0.51058586 -0.00000016
0.03259572 0.39316342 -0.00000075
-0.26505378 -0.44422973 -0.00000022
-0.31725736 -0.62206672 -0.00000011
-0.08381613 -0.04293872 -0.00000047
-0.07692018 0.25827521 -0.00000066
-0.11112619 0.14451423 -0.00000059
-0.12884209 -0.29269925 -0.00000032
0.26390101 -0.62702821 -0.00000011
0.39412783 0.22104459 0.00000183
-0.25250422 -0.22057387 -0.00000036
-0.78778613 -0.26191380 0.00000000
0.06953099 0.71933447 -0.00000089
-0.01631442 0.36660388 -0.00000073
0.61672844 -0.15125033 -0.00000112
0.25113349 -0.35354902 -0.00000028
-0.06076763 0.29030984 -0.00000068
-0.00751943 -0.48817553 -0.00000019
-0.68426033 -0.42594107 -0.00000005
0.16040343 0.57770023 -0.00000009
-0.02219905 0.61529173 -0.00000088
-0.50918756 -0.08282514 -0.00000030
-0.13236411 -0.72450500 -0.00000005
-0.68147444 -0.27788701 -0.00000008
0.48339133 0.29281999 -0.00000156
0.07499399 0.58838494 -0.00000087
0.10224610 -0.66241231 -0.00000009
-0.39775397 -0.02043333 -0.00000043
-0.57433092 -0.00550360 -0.00000024
-0.39837240 0.43840318 0.04503928
-0.01149195 0.41026907 -0.00000076
-0.23267335 -0.75000571 -0.00000003
0.15226341 0.26386766 -0.00000066
-0.22763958 0.70768572 0.16573502
-0.01891474 0.59291494 -0.00000087
0.04589450 0.58178163 0.00000185
-0.27081682 0.63512331 0.12974612
-0.14455378 -0.44882334 -0.00000022
0.54227148 -0.04033565 -0.00000110
-0.59849878 -0.41959057 -0.00000014
-0.68790889 0.11770521 0.00687643
-0.56777244 0.35432638 0.14953714
0.66224486 0.01714384 -0.00000159
-0.54834925 -0.15207542 -0.00000024
-0.13396445 -0.55931169 -0.00000015
0.04113469 0.22400829 -0.00000064
-0.44210736 -0.50670040 -0.00000018
-0.06256303 -0.39483738 -0.00000025
-0.66280746 -0.24039050 -0.00000010
0.75409858 -0.66051858 -0.00000035
0.69980269 -0.13520556 -0.00000142
0.48885958 0.06194178 0.00000286
-0.66471249 0.23116856 0.11742812
-0.76308302 -0.77566965 0.00000000
-0.23306843 -0.08126445 -0.00000045
0.57235585 -0.18746790 -0.00000091
-0.46565934 -0.44887796 -0.00000022
0.03867593 0.03282993 -0.00000052
0.01501904 0.27055252 0.00000738
0.07198665 0.55299833 -0.00000085
-0.16006062 -0.66113009 -0.00000009
-0.43747454 -0.74040954 -0.00000004
0.11436496 0.37957577 -0.00000074
-0.17587781 0.64959350 0.03119376
0.72834484 -0.45292801 -0.00000087
0.47681573 0.08515210 -0.00000113
0.76258650 -0.41925018 -0.00000095
-0.01227564 -0.79642473 -0.00000000
0.10155339 0.46422020 -0.00000079
0.41137132 -0.67859429 -0.00000008
0.13415147 -0.73151112 -0.00000004
0.02633052 0.01196224 0.00001141
-0.41823068 0.65170283 0.33059403
-0.09314612 0.73712921 0.03707699
-0.52936433 -0.53480124 -0.00000017
0.55262011 0.23799427 -0.00000152
-0.76893403 -0.44924250 0.00000000
0.23358107 -0.04026717 -0.00000047
-0.36854741 0.17167618 -0.00000049
-0.29491608 -0.77024037 -0.00000002
0.25203878 -0.44693392 -0.00000022
0.06161345 0.22865348 0.00000735
0.43895360 -0.30693373 -0.00000031
-0.59679000 -0.68324181 -0.00000007
-0.73398319 -0.76665042 0.00000000
0.34024544 -0.62308047 -0.00000011
-0.00579868 0.24073162 -0.00000065
0.39934153 0.07661158 -0.00000087
-0.05360256 0.49282315 -0.00000081
0.30238663 0.42037355 0.00000001
0.17996603 0.34224354 -0.00000071
0.70513314 -0.55839615 -0.00000060
-0.72028205 0.23483595 0.18997706
0.78793298 -0.74647754 -0.00000013
-0.72268766 -0.63896563 0.00000000
-0.44089490 0.61002804 0.30731120
0.64528926 -0.35805223 -0.00000081
-0.37982882 0.10364367 -0.00000047
-0.00066907 -0.60633725 -0.00000012
-0.48931939 0.62470740 0.38459649
-0.12534623 0.65799871 -0.00000084
0.28301736 -0.59829872 -0.00000013
-0.09129125 -0.61657998 -0.00000011
0.63800730 -0.40170548 -0.00000070
0.27924696 0.44241981 0.00000006
-0.05157895 0.49774192 -0.00000081
-0.32581885 -0.27056526 -0.00000033
0.53941055 0.04568626 0.00000218
0.16923825 0.51999617 -0.00000100
0.55821178 -0.02393904 -0.00000118
0.30420608 -0.06469548 -0.00000046
-0.51409947 -0.68192003 -0.00000007
0.54698581 -0.72146337 -0.00000005
0.10322518 0.55577644 -0.00000085
-0.04393316 -0.03550446 -0.00000048
0.45489554 -0.59680631 -0.00000013
0.11678373 0.11685379 0.00000834
0.43625992 0.19031852 -0.00000121
-0.78750693 -0.22519403 0.00000000
0.30891253 0.32157188 -0.00000106
0.39715390 0.26806636 0.00000092
-0.38441663 0.08365899 -0.00000046
0.58299278 0.06120076 0.00000107
-0.13433423 -0.57842782 -0.00000014
0.16932435 0.04946103 -0.00000053
0.23787805 -0.76723633 -0.00000002
-0.53023062 0.08884852 -0.00000030
-0.27174710 0.17815937 -0.00000060
0.30820184 -0.12248913 -0.00000042
-0.29098414 -0.35388642 -0.00000028
0.13442301 0.22573319 -0.00000064
-0.25858763 0.59131287 0.06111303
0.56799022 -0.63424176 -0.00000010
0.74268221 -0.49176960 -0.00000077
0.21961048 0.24474711 0.00000471
0.47675363 -0.60652099 -0.00000012
-0.56815489 -0.12300783 -0.00000022
-0.59731256 -0.36644889 -0.00000015
-0.17835212 -0.24648544 -0.00000035
-0.24570955 -0.54596236 -0.00000016
0.62128676 -0.25441424 -0.00000093
0.23621210 -0.69819456 -0.00000006
0.23920416 0.55604793 -0.00000121
0.60852401 -0.48371952 -0.00000044
0.73089206 0.04683845 -0.00000187
0.15607108 -0.21442135 -0.00000037
0.64772444 -0.10865335 -0.00000130
0.01281130 0.46255717 0.00000429
-0.02308856 0.24534404 -0.00000065
0.77397447 -0.41800998 -0.00000095
-0.11662322 -0.33568423 -0.00000029
0.02607224 0.09114929 -0.00000056
0.60466314 0.19146351 -0.00000175
-0.75464015 -0.69211487 0.00000000
0.41661880 0.24641138 0.00000094
0.59988482 0.09493038 -0.00000154
-0.17001521 -0.16716678 -0.00000040
-0.38744971 -0.46805596 -0.00000021
0.20599638 0.06177771 0.00000789
0.16497991 0.51424707 -0.00000097
0.18090574 -0.79234242 -0.00000000
0.70623172 -0.13556542 -0.00000144
-0.55711560 0.21228271 -0.00000030
0.22510647 0.12224231 0.00000662
0.15582440 -0.05275946 -0.00000047
-0.68742361 -0.58777140 -0.00000001
0.19147843 0.28851474 -0.00000068
0.06179681 -0.68305493 -0.00000007
0.17084429 0.13075117 -0.00000058
0.72165511 0.02389484 -0.00000180
-0.45762131 -0.14772072 -0.00000034
-0.26600004 -0.49713796 -0.00000019
-0.51578814 -0.51416315 -0.00000018
0.21292625 0.43784018 0.00000141
0.00200286 0.11556593 0.00001009
-0.11793410 -0.17590925 -0.00000039
0.11989892 0.14594402 -0.00000059
0.33549113 0.06780401 0.00000570
0.23324473 0.11893954 0.00000655
-0.73655652 0.12425066 0.07447273
-0.06919506 0.64327956 -0.00000090
-0.63489708 0.17599536 0.01334068
0.49555680 0.19366453 0.00000037
-0.29790364 -0.71206381 -0.00000005
0.35222365 -0.26980645 -0.00000033
-0.33074966 0.41586699 -0.00000058
-0.16473732 -0.29420900 -0.00000032
0.62290165 -0.24735220 -0.00000095
0.15071405 0.56100724 0.00000040
-0.35211471 -0.17560003 -0.00000039
-0.45365866 0.57974104 0.28584996
-0.54167336 0.51482670 0.31414175
-0.49495439 -0.47794968 -0.00000020
-0.30235221 0.59172580 0.11521834
0.31066210 -0.37494915 -0.00000027
-0.18251922 0.11226346 -0.00000057
0.51786192 -0.14959631 -0.00000081
-0.45843238 0.39433241 0.06462187
-0.70475560 -0.11214578 -0.00000008
-0.55437309 -0.43978378 -0.00000018
-0.18365592 -0.33259184 -0.00000029
0.15556500 0.05017955 -0.00000053
-0.35340877 0.68058239 0.28657427
0.15737560 0.27140883 -0.00000067
0.28126772 -0.26050103 -0.00000034
-0.33933326 -0.29397416 -0.00000032
0.63825513 -0.15187603 -0.00000119
-0.37628230 -0.68993637 -0.00000007
0.59411517 -0.30923181 -0.00000074
-0.60808448 -0.33602910 -0.00000014
-0.04083615 0.52330441 -0.00000083
0.09725829 0.45117106 0.00000320
-0.03222849 0.33402360 -0.00000071
-0.10080426 -0.53081276 -0.00000017
0.36479644 -0.26014020 -0.00000034
0.72467786 -0.49074036 -0.00000077
0.19111094 -0.78612576 -0.00000001
0.02865756 0.34676273 0.00000593
-0.44526147 -0.23482259 -0.00000034
-0.24266376 0.28571673 -0.00000065
-0.69481907 -0.36919838 -0.00000004
0.37845304 -0.58686961 -0.00000013
0.02034930 0.11948114 0.00000975
0.06248557 -0.25168868 -0.00000034
-0.45470484 0.52058335 0.21467897
0.25232396 0.03468547 -0.00000052
-0.52509480 -0.62834796 -0.00000011
-0.06559462 -0.67892328 -0.00000008
0.28550309 -0.25776746 -0.00000034
-0.50580273 0.04456802 -0.00000032
0.71330144 -0.22957906 -0.00000127
-0.61018156 0.35040312 0.19667174
0.62443593 -0.31830497 -0.00000082
-0.30936090 -0.37773324 -0.00000026
0.33696430 0.23478805 -0.00000098
-0.05267607 -0.03876950 -0.00000048
-0.34889374 -0.48859207 -0.00000019
-0.22901509 0.27782516 -0.00000066
-0.09319385 -0.32052412 -0.00000030
-0.41965670 0.56139227 0.22173436
-0.24205890 -0.28668176 -0.00000032
-0.28655750 0.03536377 -0.00000052
0.36289602 -0.44410142 -0.00000022
-0.39890473 0.64706881 0.30124949
0.08287479 -0.32307199 -0.00000030
0.11767053 0.43424064 0.00000317
-0.69441339 0.12791916 0.02735188
-0.07984318 0.71725871 -0.00000090
0.59910910 0.14170236 -0.00000163
0.60338923 -0.47564097 -0.00000044
-0.60821518 -0.75910720 -0.00000003
0.51900186 0.19876075 -0.00000017
0.03522244 -0.55734788 -0.00000015
-0.47519411 -0.43580360 -0.00000023
-0.05890152 -0.44132999 -0.00000022
-0.60230595 0.04390344 -0.00000022
0.68033893 -0.61397736 -0.00000042
0.26220424 -0.64584424 -0.00000010
-0.04661088 -0.23768816 -0.00000035
0.31621991 0.43053109 -0.00000129
-0.27226318 -0.27363533 -0.00000033
0.35129542 -0.17190242 -0.00000039
0.26821436 0.26291546 0.00000349
-0.54391400 0.56471026 0.37797989
-0.32809837 0.49371429 0.02671359
-0.36937558 -0.21656141 -0.00000036
-0.62963177 0.44447516 0.33570548
-0.75912260 -0.40670363 0.00000000
0.19101166 0.43127235 -0.00000089
0.32873601 0.44436809 -0.00000136
0.41575263 0.06057592 0.00000429
0.59663595 -0.46999698 -0.00000043
-0.40226646 0.14736001 -0.00000045
-0.21202064 -0.61782276 -0.00000011
0.61245766 0.00580887 -0.00000141
-0.34387316 -0.29055953 -0.00000032
-0.75291396 -0.77267382 0.00000000
0.56110096 0.12509901 -0.00000148
-0.44531026 0.06665778 -0.00000039
0.07056095 0.08094114 -0.00000055
0.08140399 0.53307545 -0.00000083
0.02868104 0.33165169 -0.00000071
0.01096220 0.05678689 0.00001091
0.04856776 0.28434120 -0.00000068
0.33312472 0.08046294 -0.00000066
-0.39378163 -0.76303758 -0.00000002
-0.53459960 -0.65035240 -0.00000009
-0.24363873 -0.33715145 -0.00000029
0.26112042 0.15476631 -0.00000060
-0.62951887 -0.38375650 -0.00000011
0.55164983 -0.26596695 -0.00000069
0.45201145 0.33592490 -0.00000154
0.34009456 -0.24848168 -0.00000034
-0.78590267 -0.04456262 -0.00000001
0.05513414 0.05279726 -0.00000053
0.00590137 0.18306064 -0.00000061
0.43315137 -0.65083131 -0.00000009
-0.57287300 -0.44038287 -0.00000016
0.79435586 -0.06410651 -0.00000184
0.23404091 0.26938135 -0.00000071
0.41336720 0.17265902 -0.00000110
-0.21125189 0.65100209 0.07624239
-0.21702369 -0.13373359 -0.00000042
0.25506820 0.26700894 -0.00000078
0.02833624 0.76314026 -0.00000088
-0.60821693 0.48256291 0.35612530
-0.10721392 -0.31478685 -0.00000030
-0.44113040 -0.60313509 -0.00000012
0.27338199 -0.06907414 -0.00000046
0.22646654 0.38228903 0.00000215
-0.42669715 0.32980885 -0.00000046
-0.75069665 0.06786079 0.02272868
-0.20989579 0.60512541 0.01839544
-0.62070417 0.28979462 0.13533057
-0.55336818 -0.01248574 -0.00000026
0.32305685 -0.57725634 -0.00000014
0.32383280 0.39558356 0.00000004
-0.05682581 0.47223499 -0.00000080
-0.36759414 -0.74030470 -0.00000004
0.15942625 -0.13612861 -0.00000041
0.43679400 -0.26360015 -0.00000034
-0.43516461 0.22123169 -0.00000043
0.38839139 -0.31515530 -0.00000030
0.45958129 0.30265191 -0.00000090
-0.54460657 0.22948361 -0.00000031
0.49525014 -0.00678580 -0.00000101
-0.05400014 -0.47939867 -0.00000020
0.19409206 -0.50258021 -0.00000019
-0.34924298 -0.06199382 -0.00000046
-0.22819625 0.67725564 0.12914813
0.09860885 0.22186981 -0.00000064
0.70899648 -0.03841795 -0.00000163
0.30836630 -0.30942063 -0.00000031
-0.05301951 0.08781787 -0.00000055
0.57492747 -0.07202608 -0.00000114
0.14536940 0.01427336 -0.00000051
0.36915855 0.00974522 -0.00000064
0.27418572 0.22256828 0.00000410
-0.14588460 0.00567033 -0.00000050
0.19353049 -0.38875785 -0.00000026
0.12019155 0.66123918 -0.00000082
0.43783208 0.23495208 -0.00000130
0.38555446 -0.45133028 -0.00000022
0.46688987 0.14587618 -0.00000122
-0.58089555 0.05875460 -0.00000024
0.53203821 -0.01811539 -0.00000111
-0.76686393 -0.30716229 0.00000000
-0.53527293 -0.43257124 -0.00000020
0.39145158 0.29737973 -0.00000127
0.04345172 0.50911213 0.00000307
0.61213877 -0.60449941 -0.00000022
0.04913074 0.49991188 -0.00000081
-0.13448319 -0.59322653 -0.00000013
0.53887159 0.10901531 0.00000106
0.31822604 -0.37169549 -0.00000027
0.60015765 0.19915415 -0.00000174
-0.68923176 -0.39169378 -0.00000005
-0.08573317 -0.76441678 -0.00000002
-0.60365981 -0.23191612 -0.00000017
-0.67752476 -0.34068046 -0.00000007
0.03577737 -0.27424493 -0.00000033
-0.31650400 -0.39899301 -0.00000025
0.48775145 -0.02672508 -0.00000095
0.42899371 -0.59821402 -0.00000013
0.65139739 -0.68972736 -0.00000018
-0.53784504 0.26835466 0.00759298
-0.07122370 -0.44177338 -0.00000022
0.32035726 -0.01493791 -0.00000049
-0.48993561 0.36547221 0.06785897
0.71789222 0.06970000 -0.00000187
-0.63174528 0.03870504 -0.00000019
0.13768436 -0.37273410 -0.00000027
0.47293986 0.03391856 -0.00000102
0.54637452 -0.48793088 -0.00000024
-0.50263330 0.53983551 0.29695721
0.29285961 0.22521294 0.00000370
-0.54836187 0.36492536 0.13874532
-0.75335797 -0.12611695 -0.00000003
0.38023623 -0.34574487 -0.00000028
-0.59021603 -0.06758675 -0.00000021
-0.63675586 0.02424002 -0.00000018
0.32928104 0.10957538 0.00000507
0.60054460 -0.08712355 -0.00000119
-0.54497883 0.22138411 -0.00000031
0.39525549 0.21760625 -0.00000113
0.28541132 -0.42455121 -0.00000023
-0.50170092 0.52640147 0.27936220
0.50593071 0.12252922 0.00000145
-0.08190747 0.36864837 -0.00000073
0.10529269 0.64867408 -0.00000031
-0.65135205 0.24637744 0.11969188
-0.44317338 0.59817927 0.29559017
-0.66380431 0.20200848 0.08060290
-0.54639687 -0.61158326 -0.00000012
-0.63833497 -0.25610612 -0.00000013
-0.67224905 -0.59505299 -0.00000003
-0.67703506 0.12634865 0.00414477
-0.33177852 0.23182938 -0.00000054
-0.40560127 -0.60183246 -0.00000012
0.26050237 0.47122477 -0.00000119
0.07578686 0.07162421 -0.00000054
-0.00843649 -0.33383588 -0.00000029
-0.19670243 0.61444825 0.01365508
0.35365014 -0.34745384 -0.00000028
-0.10535727 0.42538224 -0.00000077
-0.31817054 0.60387292 0.14946840
-0.08750244 0.21123280 -0.00000063
-0.16155333 0.58377578 -0.00000079
0.51804943 -0.42942887 -0.00000026
0.06422160 -0.29260494 -0.00000032
-0.25278940 -0.44944366 -0.00000022
-0.27678615 -0.46782157 -0.00000021
-0.14906236 -0.11738938 -0.00000043
0.32200676 -0.52576589 -0.00000017
0.46438455 0.29480565 -0.00000085
-0.33142824 -0.45607657 -0.00000021
0.17250713 0.52357780 -0.00000101
0.12205553 -0.31444393 -0.00000030
-0.61114715 0.36580992 0.21672335
0.01894789 0.01925698 0.00001140
-0.46798395 -0.71227859 -0.00000005
0.42458742 -0.50249757 -0.00000019
0.08449749 -0.10822048 -0.00000043
0.28875056 -0.30063341 -0.00000031
0.13393002 0.56564892 -0.00000097
-0.35112393 -0.17551576 -0.00000039
-0.16863148 -0.27965774 -0.00000033
0.01848848 -0.29924575 -0.00000031
0.34249276 -0.67741470 -0.00000008
0.43518462 -0.01695766 -0.00000080
-0.53960938 0.42513002 0.20175981
-0.11582601 -0.35440431 -0.00000028
0.04751163 0.55257402 -0.00000085
-0.24628380 -0.36317632 -0.00000027
-0.55083650 0.53311965 0.34776808
0.19407206 -0.10633252 -0.00000043
0.18213149 0.51575870 -0.00000103
0.50188591 -0.05094461 -0.00000095
0.27995307 0.47360148 -0.00000126
0.12914876 0.15349869 -0.00000060
0.77395473 -0.11788369 -0.00000169
-0.50274616 0.43238037 0.16549216
-0.16332219 0.72613062 0.10955352
-0.42865537 -0.41122137 -0.00000024
-0.04830071 -0.13779322 -0.00000041
-0.65522240 0.14817718 0.00416412
-0.64658987 -0.03280650 -0.00000016
-0.44621765 -0.31995325 -0.00000030
-0.19309421 -0.01005065 -0.00000049
-0.30187302 -0.58804031 -0.00000013
0.53783932 -0.61421797 -0.00000012
0.65234353 -0.49660061 -0.00000056
0.24750003 -0.66811799 -0.00000008
-0.76965804 -0.63966347 0.00000000
0.12471072 0.19346834 0.00000697
-0.12247657 -0.05175677 -0.00000047
-0.17323062 0.07602966 -0.00000055
0.36775040 -0.69064043 -0.00000007
-0.57162094 0.56046921 0.40671931
-0.02635373 -0.79053835 -0.00000001
0.61842422 -0.32615233 -0.00000078
0.70810235 0.01591008 -0.00000052
0.01873006 0.16710776 0.00000900
0.30426257 -0.72815597 -0.00000004
-0.20202280 0.44917987 -0.00000072
-0.46064194 -0.00836110 -0.00000036
0.57897602 -0.08126009 -0.00000113
-0.22027245 0.17308082 -0.00000061
0.25114533 0.39565073 -0.00000102
-0.11396651 -0.71828903 -0.00000005
-0.30252548 0.58799930 0.11086663
0.04577427 -0.36787595 -0.00000027
-0.44632489 -0.64536864 -0.00000010
-0.05753309 0.10612263 -0.00000057
0.04652160 -0.25387890 -0.00000034
-0.50974406 0.43471999 0.17692803
0.03349415 0.08569764 -0.00000055
0.33474090 0.06066261 -0.00000063
0.06510692 0.49985531 0.00000289
-0.61570860 0.37860081 0.23797514
-0.48311094 -0.72247930 -0.00000005
0.03034222 0.70202177 0.00000013
-0.43480282 -0.29267528 -0.00000032
0.21475330 0.16615378 0.00000606
-0.47345486 0.46636058 0.17123464
-0.60074242 -0.75076032 -0.00000003
-0.44219501 -0.28059083 -0.00000032
0.73058936 -0.61758184 -0.00000046
0.11654213 -0.06877509 -0.00000046
0.06167602 0.45063991 -0.00000078
0.29061406 0.03874406 -0.00000052
-0.67963349 -0.24108575 -0.00000008
0.30823780 0.39897092 -0.00000120
-0.37414208 0.27849484 -0.00000051
-0.36502541 0.26819733 -0.00000051
-0.32124473 -0.62868460 -0.00000011
-0.21837071 0.60741635 0.03158065
-0.27176575 0.17665414 -0.00000060
-0.54813111 0.41456599 0.19925861
0.51088432 0.08386736 0.00000205
-0.33300778 -0.57067364 -0.00000014
-0.39710507 0.31661209 -0.00000049
-0.15922092 0.40566635 -0.00000075
-0.42341640 -0.49620808 -0.00000019
-0.47498572 0.35458804 0.03621939
0.02997378 -0.09207132 -0.00000044
0.38688792 0.06923483 -0.00000081
0.34194426 0.19482357 -0.00000091
0.18839579 -0.70195268 -0.00000006
0.02899346 0.66112386 -0.00000091
0.65634710 -0.12934615 -0.00000129
-0.44437581 -0.47028138 -0.00000021
0.41874436 0.24108684 -0.00000125
-0.15501148 0.43266493 -0.00000077
0.18935278 -0.00364766 -0.00000050
0.03386230 0.02171683 0.00001114
-0.37255858 -0.10600451 -0.00000043
0.69035425 0.03284847 -0.00000171
-0.00262199 0.70851355 -0.00000094
0.26826045 0.17862609 0.00000500
0.70338258 -0.14396908 -0.00000141
0.02087487 0.40528715 -0.00000075
-0.54013484 -0.21821977 -0.00000024
0.03759245 0.47928720 -0.00000080
0.75944688 0.03872573 -0.00000195
0.36285620 0.43157077 -0.00000144
0.47605044 -0.42251844 -0.00000024
0.47132075 0.23198008 -0.00000140
-0.06281264 0.57070041 -0.00000086
0.05601113 -0.76570407 -0.00000002
0.49480778 -0.10054251 -0.00000083
-0.67253992 -0.34246618 -0.00000007
0.09592052 0.01772093 -0.00000051
-0.47262939 0.25941413 -0.00000040
0.15581182 -0.01834727 -0.00000049
0.53603619 -0.07199222 -0.00000101
0.09146098 -0.55129552 -0.00000016
0.49879119 0.04496742 -0.00000112
0.46299503 -0.78975093 -0.00000001
0.63057807 0.03977714 -0.00000154
-0.61518656 0.43887088 0.31115023
-0.10136814 0.23995036 -0.00000065
0.19388562 -0.43994509 -0.00000023
0.22653112 0.28600426 -0.00000072
0.20778480 0.22678539 -0.00000064
0.06715559 0.36388070 -0.00000073
-0.58765247 0.31773000 0.12906437
0.62332004 0.09829005 -0.00000163
0.23033929 -0.51248184 -0.00000018
0.19829136 0.53243976 -0.00000111
-0.29940865 0.63894776 0.16944737
-0.03872207 -0.19282873 -0.00000038
0.13599772 0.21517367 -0.00000063
-0.59742330 -0.57694206 -0.00000011
-0.05994561 0.08063248 -0.00000055
0.24774947 -0.65820425 -0.00000009
-0.10105326 0.75525402 0.06895910
0.66066876 0.04204057 -0.00000164
0.13618904 -0.41842056 -0.00000024
0.10836547 0.64439790 -0.00000029
0.11346368 -0.02127076 -0.00000049
-0.76560235 -0.05773483 -0.00000003
-0.52470497 0.38268153 0.13151847
0.43963693 0.14453591 -0.00000113
0.25138954 -0.72365066 -0.00000005
-0.20586034 0.29364552 -0.00000068
-0.03212417 -0.10018581 -0.00000044
-0.39025124 0.44900704 0.04807987
-0.66821335 -0.16095293 -0.00000011
0.34607475 -0.13437621 -0.00000042
-0.54766011 0.58619683 0.40888314
0.47336890 -0.48917789 -0.00000019
0.34259310 0.30748777 -0.00000114
-0.01788669 -0.20990772 -0.00000037
0.72997666 -0.11141367 -0.00000156
0.32076054 -0.55306188 -0.00000015
-0.75317819 -0.21280080 -0.00000001
0.34819282 0.17995452 0.00000345
-0.59587052 -0.18027248 -0.00000018
-0.31556177 -0.30764368 -0.00000031
0.75810490 -0.56540454 -0.00000059
-0.32080686 0.18897735 -0.00000055
-0.56451557 0.44823961 0.26056603
-0.20319131 -0.20114194 -0.00000037
0.46106434 0.16055857 0.00000163
-0.52861216 0.32331490 0.06359618
-0.43214322 -0.47207582 -0.00000020
-0.28387212 0.54757725 0.03851567
-0.72961913 -0.11235066 -0.00000005
0.21276664 0.31780982 -0.00000074
-0.33339492 -0.04333684 -0.00000047
0.76982848 -0.49124864 -0.00000077
0.31480716 0.21351869 -0.00000086
-0.07155006 0.55751265 -0.00000085
-0.42839117 -0.43408306 -0.00000023
0.28595901 -0.17051154 -0.00000039
-0.78892407 -0.50627936 0.00000000
-0.30956881 -0.57213433 -0.00000014
-0.29023807 -0.19425809 -0.00000038
0.52162060 0.17634505 0.00000018
0.19515528 0.57049362 -0.00000063
0.32097776 0.46476913 -0.00000115
-0.07752128 0.01808976 -0.00000051
0.56639869 -0.72020489 -0.00000005
-0.77190532 -0.44255911 0.00000000
-0.50558184 0.36429213 0.08557603
-0.61855076 -0.38059948 -0.00000012
0.41378069 -0.79225155 -0.00000000
0.56580237 -0.39190921 -0.00000049
-0.00142431 -0.42134769 -0.00000024
-0.22958693 0.26809673 -0.00000066
0.59646696 0.16345977 -0.00000167
-0.10192311 -0.37463489 -0.00000027
0.56212854 0.23666826 -0.00000170
-0.71168175 -0.24078682 -0.00000005
0.15980748 0.46463950 0.00000195
0.40503978 -0.15325131 -0.00000044
0.03213130 0.56046270 0.00000241
-0.28449849 0.69794464 0.22344175
-0.47749312 0.44828425 0.15404195
-0.46070150 0.63294537 0.35963655
-0.45965429 0.44481103 0.12794057
0.47246391 -0.51988927 -0.00000018
0.19926946 0.27661792 0.00000450
0.42296148 -0.39552760 -0.00000025
0.62119801 0.10503310 -0.00000045
0.14500433 0.08315339 -0.00000055
-0.26193013 -0.67806524 -0.00000008
0.38768251 0.09806678 0.00000416
0.00430416 0.75425263 -0.00000097
0.09524435 0.37805009 -0.00000074
0.03729564 0.66246837 0.00000067
0.58798523 -0.37073826 -0.00000060
-0.73655241 -0.57970307 0.00000000
0.65511945 -0.35090322 -0.00000085
0.41430879 0.29588193 0.00000009
-0.08299273 -0.02284284 -0.00000049
-0.36914010 -0.51306466 -0.00000018
-0.54773021 -0.66313109 -0.00000009
0.06460290 0.35285631 0.00000529
-0.01791181 0.14981042 -0.00000059
-0.03050485 -0.05620426 -0.00000046
0.17861466 -0.38800889 -0.00000026
0.76996963 -0.10508122 -0.00000170
0.63661558 -0.58435804 -0.00000034
0.74629589 -0.09126620 -0.00000165
0.18184665 -0.61808487 -0.00000011
0.49711521 -0.37590794 -0.00000030
0.44846265 0.19288968 -0.00000125
0.72939645 -0.65878132 -0.00000035
0.75461164 -0.70295537 -0.00000024
0.41253020 0.37471702 -0.00000129
-0.58408952 0.01842420 -0.00000023
-0.07503370 -0.50524642 -0.00000018
-0.37382348 -0.43908362 -0.00000023
0.75287302 -0.00595139 -0.00000184
-0.63061570 -0.04967908 -0.00000017
-0.68782251 0.08132703 -0.00000013
0.45245834 -0.75694505 -0.00000003
0.61199499 -0.28772482 -0.00000084
-0.15955491 0.66912406 0.03512217
-0.23259636 -0.14954044 -0.00000041
0.11174966 -0.61696308 -0.00000011
0.15585845 0.28375325 0.00000504
0.60644088 0.17604488 -0.00000144
0.24781794 0.27644592 0.00000364
0.15660115 -0.57684261 -0.00000014
-0.53048365 -0.77652300 -0.00000001
0.49502969 -0.73169472 -0.00000004
-0.20222175 -0.08352423 -0.00000045
-0.48546822 0.45490949 0.17192332
-0.48904287 -0.63868716 -0.00000010
-0.28391393 0.27638944 -0.00000060
-0.13754392 -0.20949839 -0.00000037
-0.47439199 -0.01355970 -0.00000034
-0.36854660 0.51194446 0.09857840
-0.70820714 0.25167305 0.19580937
0.55896014 -0.45035132 -0.00000035
0.11686645 0.36625626 0.00000428
-0.36762253 0.40635217 -0.00000054
-0.65093882 -0.36538959 -0.00000009
-0.25026395 -0.71325159 -0.00000005
0.04982149 0.10413951 0.00000956
0.04910041 0.67255730 -0.00000092
-0.11644273 0.18289344 -0.00000061
0.47572425 -0.04472410 -0.00000087
0.26541106 -0.46389261 -0.00000021
-0.15587824 -0.61600699 -0.00000011
0.03477147 -0.05391477 -0.00000047
-0.61204653 -0.33542339 -0.00000014
0.24855802 0.13267404 -0.00000058
-0.12108952 -0.77978218 -0.00000001
0.58060090 -0.13275153 -0.00000104
0.20697823 0.02417643 -0.00000052
0.28872278 -0.19947232 -0.00000038
-0.30072779 0.23234615 -0.00000058
-0.15202328 0.64213271 -0.00000081
-0.55757506 0.47759233 0.28801496
-0.09098642 -0.49078919 -0.00000019
-0.23879171 0.66454662 0.12655960
-0.40129697 -0.25598833 -0.00000034
-0.02390421 -0.26264709 -0.00000034
-0.34545528 0.48519166 0.03753319
-0.19024734 0.61224627 0.00305256
0.64376965 -0.71711970 -0.00000010
0.67618262 -0.77726828 -0.00000006
0.47096249 -0.31401276 -0.00000033
-0.49295792 -0.74020713 -0.00000004
-0.48030365 -0.05027122 -0.00000033
0.43940138 -0.05460638 -0.00000074
0.01554559 -0.47300090 -0.00000020
-0.08478326 0.75546178 0.04928717
-0.30401798 0.45853892 -0.00000061
0.16837538 0.09640748 -0.00000056
0.32795388 0.29904874 -0.00000107
-0.57499668 -0.01198745 -0.00000024
-0.65321401 0.39504629 0.30405033
0.08644735 0.41023348 0.00000403
-0.38538706 0.53988088 0.15341764
-0.42016209 -0.67158952 -0.00000008
0.35532190 0.02973656 0.00000601
-0.05463653 0.00604239 -0.00000050
0.13946421 -0.58300431 -0.00000014
-0.16950297 0.38464097 -0.00000074
-0.21106932 0.15396130 -0.00000060
-0.67797847 -0.03683156 -0.00000012
0.37245213 -0.77649671 -0.00000001
-0.12111997 -0.79857770 -0.00000000
0.56174412 0.19801858 -0.00000162
0.32004858 -0.03892216 -0.00000048
0.14722248 -0.73307618 -0.00000004
0.44996505 -0.24052274 -0.00000041
-0.73990621 0.06320084 0.00380622
-0.45168277 0.37503838 0.03272566
0.02907754 -0.09988930 -0.00000044
0.02988074 0.07213072 0.00001038
-0.13699589 0.57665351 -0.00000081
-0.11933295 0.55939118 -0.00000083
-0.44916404 0.43445215 0.10240616
-0.13872891 0.56757315 -0.00000081
-0.71220992 -0.26110219 -0.00000005
0.39579547 -0.78569334 -0.00000001
0.41390691 0.13610873 -0.00000103
-0.24355882 0.56277053 0.00775050
0.07250661 0.12297697 0.00000891
0.14089684 -0.63974971 -0.00000010
0.06293350 -0.07623588 -0.00000045
0.10216899 0.66591317 -0.00000107
0.41924664 0.06015719 0.00000423
0.52319767 0.09204086 0.00000166
-0.50555826 0.33131997 0.04516546
0.37059134 -0.77057895 -0.00000002
-0.50062774 0.51561944 0.26484275
0.38005851 -0.16050264 -0.00000040
-0.50649958 0.55733215 0.32312104
-0.10795491 0.72736755 0.04325836
0.21087957 -0.45080115 -0.00000022
0.13442818 -0.52482175 -0.00000017
0.53815355 0.11788157 -0.00000139
-0.48948230 -0.12882815 -0.00000031
-0.15992547 -0.30804868 -0.00000031
-0.45273052 0.28756219 -0.00000042
0.59015422 0.09978533 0.00000024
0.78005207 -0.54903992 -0.00000063
-0.48428409 0.18866187 -0.00000037
0.07858529 -0.20288541 -0.00000037
0.40012295 0.30786665 -0.00000132
-0.67970629 0.03429488 -0.00000013
-0.34882270 0.14612084 -0.00000051
0.22448581 -0.22258755 -0.00000036
-0.33948947 0.53822234 0.09517447
0.04652533 -0.67370823 -0.00000008
-0.20146425 0.15159707 -0.00000059
0.05681863 0.26780282 0.00000679
-0.46919628 0.55722437 0.27730251
0.03739491 0.06015840 -0.00000054
-0.50722889 -0.10663084 -0.00000029
-0.38969674 -0.14024764 -0.00000041
0.10163125 0.21653532 -0.00000064
0.79612347 -0.18942290 -0.00000153
-0.54659345 0.39388032 0.17204124
-0.06400641 -0.32641601 -0.00000030
0.02224677 0.43976739 0.00000452
0.07914180 0.18172223 -0.00000061
-0.62149457 -0.02679365 -0.00000019
-0.61052042 -0.59385046 -0.00000009
0.28503022 -0.62778643 -0.00000011
-0.01104906 -0.05896126 -0.00000046
0.70466606 -0.70546284 -0.00000024
-0.57535429 -0.43596948 -0.00000016
0.09927456 0.02260434 0.00001013
-0.41857030 0.24001171 -0.00000045
0.34723049 -0.18644679 -0.00000038
-0.70334923 -0.38162957 -0.00000003
0.18262760 0.49399916 0.00000099
0.42042167 -0.45279254 -0.00000022
-0.44318150 -0.06090121 -0.00000037
0.16832589 -0.16079644 -0.00000040
-0.31121636 -0.18856783 -0.00000038
0.21008599 0.10142635 -0.00000056
-0.57096593 0.21087148 -0.00000028
0.09156761 0.04527529 0.00000988
-0.06279356 0.64254660 -0.00000090
-0.23313323 -0.00090660 -0.00000050
-0.12482230 -0.18357561 -0.00000039
0.56558539 0.00536221 0.00000241
-0.28730831 0.47201058 -0.00000063
0.45819217 -0.32358424 -0.00000030
0.46910164 0.21304042 -0.00000136
0.00476027 0.59837328 -0.00000087
-0.69351766 0.28147357 0.21431610
0.10972622 0.14869878 0.00000793
0.46551586 -0.61434736 -0.00000012
-0.47974961 0.18929027 -0.00000038
-0.71323647 0.16602865 0.09707845
0.36212375 -0.65579075 -0.00000009
0.01895001 0.36483929 0.00000579
-0.46932611 -0.22747519 -0.00000031
-0.71718381 0.15200242 0.08473466
0.01948158 0.38708293 0.00000542
0.19116531 -0.69308583 -0.00000007
0.36181185 0.20172117 -0.00000099
-0.27772353 0.67908419 0.19204525
0.09506589 -0.77259131 -0.00000002
0.09260945 0.21175643 0.00000716
0.10359812 -0.42248503 -0.00000024
0.54956896 -0.05051339 -0.00000110
0.04526634 0.14878724 0.00000890
-0.48021427 -0.14018155 -0.00000032
-0.67310000 -0.48595325 -0.00000005
-0.27056923 -0.49106996 -0.00000019
-0.38950710 -0.55971283 -0.00000015
0.53135239 -0.57252203 -0.00000014
-0.48362392 -0.32939811 -0.00000028
0.01961024 -0.04924965 -0.00000047
0.02362921 0.45172641 -0.00000078
0.14066867 -0.05384520 -0.00000047
-0.46932144 0.25513422 -0.00000040
-0.22378057 0.64986346 0.09019207
-0.11193438 0.58825112 -0.00000084
-0.15523690 0.25797986 -0.00000066
-0.38247366 0.39024733 -0.00000052
0.15342734 0.19685289 0.00000649
-0.27399071 0.62649332 0.12306386
0.17906929 -0.17776093 -0.00000039
-0.26099322 0.33468245 -0.00000064
-0.00575194 0.72461618 -0.00000095
0.32899932 -0.13841370 -0.00000041
0.11164062 -0.78871815 -0.00000001
0.33357134 -0.37585907 -0.00000027
-0.28040254 -0.31209075 -0.00000030
0.66928696 0.10611614 -0.00000139
-0.14794033 0.34827720 -0.00000072
0.19772461 0.40469449 -0.00000086
-0.48599613 0.48164784 0.20531687
-0.61782038 -0.57304436 -0.00000009
-0.11500033 -0.09690000 -0.00000044
0.69966229 -0.49765579 -0.00000071
-0.66122551 0.19036587 0.06318563
0.38189614 -0.14401815 -0.00000041
0.40506591 0.02159055 0.00000520
-0.68045029 -0.56384992 -0.00000002
-0.39385103 0.66290994 0.31446119
-0.68669783 -0.27937626 -0.00000007
-0.00757106 0.06138214 -0.00000054
0.09199493 0.13387953 0.00000844
-0.68243935 -0.18041481 -0.00000009
0.26417718 -0.60935205 -0.00000012
-0.19388034 0.07395611 -0.00000055
-0.19088283 -0.57655410 -0.00000014
0.71552604 -0.02551261 -0.00000168
0.26246893 0.09184348 0.00000655
-0.46303657 0.32837910 -0.00000042
0.13620447 0.22086236 -0.00000064
-0.01732567 0.14730621 -0.00000059
0.02782933 0.01133907 0.00001140
0.24827698 0.52830506 -0.00000089
0.12273025 0.57054194 -0.00000095
0.52843821 -0.23431432 -0.00000067
0.54745164 0.10712429 0.00000093
-0.57346066 -0.04764867 -0.00000023
-0.25667303 0.25572652 -0.00000063
-0.48836588 0.33978105 0.03447199
-0.36605131 0.29311338 -0.00000052
-0.59340597 0.26984489 0.07746495
0.27472871 0.50473146 -0.00000097
-0.49407996 -0.66794157 -0.00000008
-0.45064828 0.56534048 0.26452623
0.60406658 0.15066324 -0.00000094
0.16761631 0.26322679 -0.00000066
-0.51982860 -0.25404001 -0.00000025
-0.40447386 -0.72484752 -0.00000005
-0.20374154 -0.33215349 -0.00000029
-0.62905867 0.39739036 0.27733736
-0.07759398 -0.34620071 -0.00000028
-0.79663928 -0.02179020 0.00000000
-0.09917746 -0.78344463 -0.00000001
-0.06924635 -0.41779570 -0.00000024
-0.30635202 -0.62023747 -0.00000011
-0.10082012 0.75670656 0.07045255
0.40062096 -0.33290664 -0.00000029
-0.38908385 0.03579902 -0.00000044
