ply
format ascii 1.0
element vertex 1380
property float x
property float y
property float z
end_header
-0.29319949 0.02728415 0.00000717
-0.39221821 0.08597667 0.00000440
-0.24118740 0.11229816 0.00000668
-0.54654558 0.01897462 0.38985845
-0.05731429 -0.38385370 0.04088317
-0.35540680 0.01214876 0.25351032
-0.42820157 0.26498212 -0.00000088
-0.25580717 -0.60601409 0.18247123
-0.02353709 -0.57081143 0.00000000
-0.30639741 0.19321279 -0.00000023
-0.31882782 0.25166969 0.00000304
-0.73286119 -0.63039173 -0.00000042
-0.02385483 -0.45546891 0.01701602
-0.33812597 -0.58420537 0.00000000
-0.24171165 -0.51803437 0.00000000
-0.35834873 -0.05021511 0.25561604
-0.27416327 0.43437091 0.19556560
-0.36346893 -0.71529830 0.00000000
-0.34048091 0.25540000 0.24287103
-0.22191353 0.21397023 0.15829448
-0.51900225 -0.34449473 0.37021297
-0.02226170 0.40829681 0.01587962
-0.38527180 -0.11474549 0.27482071
-0.30914521 -0.55946359 0.22051808
-0.68042289 0.11079961 -0.00000169
-0.61775235 -0.10855015 0.44065374
-0.19467205 0.36417432 -0.00000006
-0.61246795 0.17019113 -0.00000124
-0.35045699 0.09690319 0.00000501
-0.33270534 0.35387071 0.23732471
-0.29390034 0.21424096 0.00000414
-0.01984109 -0.63935013 0.01415296
-0.15768737 0.26908212 0.00000558
-0.50326379 0.03208831 0.00000316
-0.25591016 -0.35758778 0.18254469
-0.77667337 -0.34557105 -0.00000114
-0.71623897 -0.17227010 -0.00000134
-0.28146063 0.49138685 -0.00000066
-0.16677225 -0.10529837 0.11896124
-0.55215536 -0.25374952 0.39386188
-0.31381508 -0.45962574 0.00000000
-0.03864057 -0.69644234 0.00000000
-0.61970186 0.11679732 -0.00000144
-0.33845483 0.01496019 0.24142542
-0.35061878 -0.44411220 0.25010183
-0.26098819 0.02049855 0.00000000
-0.27122865 0.43545756 0.19347163
-0.02698594 0.34645571 0.01924199
-0.06823661 0.48924961 0.04867424
-0.61432598 -0.70131952 0.43820849
-0.22405289 0.51885278 0.00000039
-0.63102924 -0.13791699 0.45012438
-0.33374180 -0.31467820 0.00000000
-0.36798936 0.11129382 -0.00000035
-0.44685004 -0.38960435 0.00000000
-0.48855216 -0.79831318 0.34849185
-0.46819095 -0.46236742 0.00000000
-0.26850271 -0.66602435 0.00000000
-0.09497496 0.22062973 0.06773849
-0.33362247 0.37621945 0.23797866
-0.29693328 0.43480771 -0.00000062
-0.26641828 0.29680822 0.19004074
-0.07569592 0.69224311 0.05399494
-0.77410944 -0.43909188 -0.00000090
-0.60157581 -0.63468050 0.42911374
-0.32151538 -0.43143865 0.22934192
-0.14641916 0.22706731 0.10443537
-0.32503050 0.37739910 -0.00000064
-0.28544111 0.40588705 -0.00000052
-0.32000807 0.39154346 -0.00000064
-0.39764128 -0.44118439 0.00000000
-0.42319268 -0.69580053 0.30186992
-0.52623169 0.15273560 0.37537061
-0.29027987 0.43344947 0.20706189
-0.10424922 -0.08157910 0.07436259
-0.17700500 0.13484052 0.12626042
-0.49830834 0.00917692 0.35545212
-0.45583407 0.11739885 0.32515454
-0.27638716 -0.67680514 0.00000000
-0.31853104 -0.71733797 0.22721315
-0.06769883 0.49638931 0.04828639
-0.14883312 0.13132749 0.10615565
-0.37395728 -0.78491429 0.00000000
-0.76384885 -0.07289191 -0.00000172
-0.32314068 0.15279201 0.23050174
-0.37714860 0.27765267 0.26902564
-0.08473743 0.14319914 0.06044452
-0.65374140 -0.26408814 -0.00000091
-0.04063843 -0.45843047 0.00000000
-0.35286678 0.25563181 0.25170382
-0.74999127 -0.16967768 -0.00000149
-0.19664006 0.00614324 0.14026642
-0.19462346 0.45974331 0.13882830
-0.39584786 -0.22316048 0.00000000
-0.07465995 -0.45733179 0.05325610
-0.05877854 -0.36362503 0.04192765
-0.44754110 -0.03415682 0.31923877
-0.24073731 -0.01628532 0.17172166
-0.05041762 -0.25733161 0.00000000
-0.64040292 -0.51409710 0.45680997
-0.04811774 -0.05302516 0.00000000
-0.69826311 0.05200235 -0.00000166
-0.00749326 0.57247551 0.00534120
-0.10457615 0.45028665 0.00000367
-0.56154567 -0.69580518 0.40055948
-0.12331956 0.17067309 0.08795671
-0.06144467 0.25761859 0.00000721
-0.09756919 -0.49725488 0.00000000
-0.64479182 -0.60642211 0.45994045
-0.52227301 -0.62498104 0.37254565
-0.08519470 -0.56660480 0.00000000
-0.60943733 -0.70533165 0.43472133
-0.57470557 -0.29535167 0.40994734
-0.26303313 -0.36641125 0.18762562
-0.60091658 -0.26567734 0.42864422
-0.10859419 0.45367763 0.00000000
-0.31976994 0.31960446 -0.00000052
-0.24655555 0.39748275 0.17587240
-0.06073487 0.31081719 0.04331554
-0.20412014 -0.23817121 0.00000000
-0.04843832 -0.04332137 0.03455181
-0.01717049 0.18800436 0.01224797
-0.54363917 0.16852209 0.00000011
-0.34435145 0.20180938 0.24563188
-0.46436791 -0.21323436 -0.00000019
-0.50445066 0.19319193 0.00000045
-0.60798925 -0.57658888 0.43368866
-0.00022316 -0.12903910 0.00015918
-0.03409990 0.08583396 0.02432399
-0.33191673 -0.00646209 0.23676163
-0.13798690 0.58223602 0.00000099
-0.14990301 0.57434716 0.10692848
-0.51260744 -0.72653736 0.00000000
-0.39626943 0.10448024 0.28266587
-0.28082990 0.14024749 -0.00000003
-0.42898130 0.20722636 0.00000166
-0.46716446 0.16506215 0.33323681
-0.46173285 0.28063986 -0.00000105
-0.33788517 0.37033166 -0.00000068
-0.51505819 -0.02710797 0.36740007
-0.35364232 -0.68312095 0.00000000
-0.08766622 -0.60972510 0.00000000
-0.36515481 0.27519163 0.26046986
-0.20177482 0.33970290 0.00000381
-0.54800987 -0.68202547 0.00000000
-0.04940629 0.12955579 0.00000000
-0.09766085 0.57165705 0.06966309
-0.58128277 -0.10743747 -0.00000088
-0.29814736 -0.32753188 0.21267315
-0.55910041 0.19715041 -0.00000067
-0.64557989 -0.56326148 0.46050268
-0.03306080 -0.53831895 0.00000000
-0.08613487 -0.25099293 0.06144134
-0.59824503 -0.28846570 0.42673851
-0.79957995 -0.19659362 -0.00000151
-0.42509611 -0.42340547 0.30322772
-0.26686490 -0.22449275 0.00000000
-0.54455653 0.06450106 0.38844197
-0.09367804 -0.68761692 0.00000000
-0.29855284 0.32691794 0.21296300
-0.12165822 0.27671187 0.00000000
-0.16754271 -0.51938751 0.00000000
-0.16512979 0.18109838 0.00000679
-0.50874264 -0.57615418 0.36289424
-0.27961604 0.48184502 -0.00000063
-0.48246751 0.03928463 0.34415259
-0.26028235 0.31487786 -0.00000025
-0.42902159 0.03297415 0.30602356
-0.61621222 -0.09485201 -0.00000105
-0.45834307 -0.55635744 0.32694324
-0.06228945 0.65939584 -0.00000002
-0.05149160 0.28072172 0.00000701
-0.02765590 0.36283433 0.01972017
-0.15027307 0.42771062 0.10719223
-0.19136963 -0.46840138 0.00000000
-0.02777721 0.14549293 0.00000940
-0.03132844 0.25310072 0.00000773
-0.30832192 0.13033190 0.21992516
-0.25810828 -0.61314032 0.00000000
-0.55517532 -0.22711460 0.39601612
-0.04287045 -0.75905473 0.00000000
-0.79213249 -0.02686474 -0.00000192
-0.56019159 -0.78805798 0.39959340
-0.44291301 0.06555894 0.31593761
-0.17999862 -0.59718332 0.00000000
-0.70926800 -0.46050044 -0.00000080
-0.23520564 -0.35063463 0.16777584
-0.19348418 -0.24065255 0.13801528
-0.06189849 -0.62199775 0.00000000
-0.22147307 0.50726523 0.15798031
-0.44718308 -0.26258761 0.31898304
-0.01738747 -0.71846185 0.00000000
-0.53655773 0.12888268 0.00000091
-0.52722554 -0.06491055 -0.00000072
-0.22277988 -0.11393012 0.00000000
-0.03565968 0.17513781 0.02542624
-0.42281845 -0.63702580 0.30160297
-0.01973573 0.20167783 0.00000000
-0.17078762 0.14728725 0.12182546
-0.06266027 0.05163103 0.04469655
-0.49228780 -0.32515058 -0.00000011
-0.34415988 0.42902625 -0.00000041
-0.14210168 0.35075227 0.00000459
-0.04574893 -0.46178113 0.03263342
-0.28070705 -0.37613983 0.20023270
-0.33252669 -0.29147533 0.00000000
-0.05748775 0.35851704 0.04100009
-0.43421675 -0.40009266 0.00000000
-0.18854148 -0.22194033 0.13448957
-0.41456425 -0.13765999 0.29571557
-0.39247490 0.09932811 0.27995462
-0.00407235 0.36120627 0.00000000
-0.61915680 0.11344850 -0.00000143
-0.38443642 -0.54233687 0.27422447
-0.10362707 0.28626168 0.07391146
-0.27932681 -0.69832286 0.00000000
-0.12339659 -0.37072747 0.08802071
-0.53472163 -0.15945532 0.38142620
-0.24816705 0.35217268 0.17702185
-0.10590526 -0.12812140 0.00000000
-0.16125832 0.06705733 0.00000000
-0.35947391 0.24354393 -0.00000055
-0.58984766 0.20471000 -0.00000146
-0.16377476 -0.31724699 0.11682308
-0.26944722 0.45617058 0.00000057
-0.43804524 -0.38710584 0.31246465
-0.43779243 0.00491977 -0.00000046
-0.06449591 0.08271753 0.04599441
-0.23861836 -0.72278246 0.17021018
-0.06448006 0.44434027 0.04599463
-0.06334712 -0.03341163 0.04518649
-0.01460489 0.00165693 0.00001175
-0.45015141 0.11568401 0.00000279
-0.16914238 0.57197577 0.12065188
-0.00732295 0.31036635 0.00522358
-0.06930845 0.48041775 0.04943431
-0.03663841 0.70281814 0.00000090
-0.19144434 -0.25620363 0.00000000
-0.75203602 0.02340011 -0.00000184
-0.06484835 0.70149809 0.04625709
-0.18286498 0.55197766 0.13044088
-0.47605584 -0.71301155 0.33957803
-0.34104189 0.17855132 0.24326688
-0.37673590 0.04789513 0.26873212
-0.46238608 -0.52856787 0.32982725
-0.53737047 -0.04703529 -0.00000080
-0.17933200 0.38791439 0.00000344
-0.34662405 0.32823004 -0.00000065
-0.58404800 -0.36974348 -0.00000042
-0.52964255 -0.65803782 0.37780243
-0.30408929 -0.45827214 0.21691162
-0.25356425 -0.10848987 0.18087133
-0.53055694 -0.53733758 0.37845487
-0.23385922 0.31429229 -0.00000014
-0.61454366 0.02974769 0.00000106
-0.01735428 -0.74015025 0.01237908
-0.16721550 0.57955823 0.11927783
-0.62860990 -0.51715759 0.44839783
-0.19723781 -0.64795176 0.14069280
-0.13405469 0.33026850 0.00000000
-0.11991714 0.52007442 0.08553887
-0.47395929 -0.00850412 0.33808343
-0.16263810 0.30672056 0.11600624
-0.46284451 -0.19788062 -0.00000021
-0.45327924 0.18424022 0.00000158
-0.13315866 0.27608946 0.00000000
-0.58125642 -0.47547022 -0.00000023
-0.07890149 -0.31850167 0.05628166
-0.21019351 -0.18377921 0.14993430
-0.21092361 0.37965808 0.00000297
-0.56115424 -0.49444405 -0.00000011
-0.34736660 0.09963278 0.24777682
-0.02519296 0.59928970 0.01797053
-0.42137527 -0.17856445 0.30057394
-0.38754939 0.32685833 0.00000046
-0.20780887 -0.66602284 0.00000000
-0.55846188 -0.30390190 0.39836037
-0.18658344 -0.05045704 0.00000000
-0.07580964 0.36724330 0.00000535
-0.32489405 0.00272568 0.23174398
-0.01083163 -0.30222640 0.00000000
-0.36696382 -0.39021458 0.26176100
-0.25341160 -0.45288615 0.18076243
-0.00204335 0.30130172 0.00000000
-0.27396854 0.11980772 0.19541910
-0.15373785 0.22983323 0.00000623
-0.72330911 -0.27586035 -0.00000119
-0.07222354 0.15386347 0.05151818
-0.31229386 -0.35941348 0.22276406
-0.29058532 -0.38180123 0.20727903
-0.11180245 0.38609723 0.07975043
-0.15724422 0.53814558 0.00000135
-0.30404987 -0.37813103 0.21688350
-0.61921704 -0.32009856 -0.00000066
-0.38646625 0.14773462 -0.00000050
-0.50842278 -0.17153630 0.36266668
-0.24344313 0.10373051 0.00000000
-0.01175034 0.01808924 0.00000000
-0.41015999 -0.38866213 0.00000000
-0.22240181 -0.61209011 0.00000000
-0.23602595 0.36751324 -0.00000024
-0.20322022 0.11420054 0.14496014
-0.20397430 -0.48518657 0.14549804
-0.11251701 0.01051177 0.00000000
-0.30787569 0.29266548 0.21961045
-0.37294898 0.13023866 -0.00000041
-0.26713392 -0.52429526 0.19055078
-0.10579349 0.04548233 0.00000000
-0.26586957 0.03148207 0.18964893
-0.03854898 -0.73622771 0.02749759
-0.49013654 -0.68565306 0.34962201
-0.04813996 0.41910311 0.03433308
-0.41116766 0.21841642 0.00000182
-0.08767396 0.34643244 0.00000548
-0.49704247 -0.25730901 0.35454875
-0.22025423 0.22150403 0.00000000
-0.03357148 -0.58754082 0.00000000
-0.26119993 -0.70543838 0.18631797
-0.11784881 0.12447369 0.08406339
-0.20108876 -0.11113704 0.00000000
-0.33512389 0.12701984 0.23904956
-0.73810209 -0.73010827 -0.00000017
-0.08582468 0.68862473 0.06122017
-0.79795039 -0.22399135 -0.00000144
-0.50552456 0.19834218 -0.00000109
-0.01151220 0.66282039 0.00000000
-0.37370220 -0.17688038 0.26656778
-0.01219914 0.55488879 0.00869774
-0.55431823 0.10930501 -0.00000114
-0.01221206 -0.18003126 0.00000000
-0.18863551 0.30748014 0.00000000
-0.11378747 0.14599802 0.08115674
-0.54071860 0.12168922 -0.00000111
-0.05545606 0.70912442 0.03955731
-0.04878654 0.72470721 -0.00000008
-0.40166616 -0.15455960 0.28651508
-0.47512638 0.21561552 0.33891628
-0.40814947 0.08443153 0.29114011
-0.19583239 -0.26759167 0.00000000
-0.48061764 0.03372186 0.34283303
-0.52353381 0.04366206 -0.00000090
-0.27409918 -0.33906356 0.19551921
-0.21764799 -0.49538435 0.15525169
-0.26136982 -0.58438720 0.18643916
-0.59598691 -0.13588159 0.42512798
-0.26671580 -0.31630440 0.00000000
-0.05069920 0.26591428 0.03615599
-0.03687548 -0.61244648 0.02630385
-0.25170104 0.04946238 0.17954226
-0.25034823 0.41762478 0.17857628
-0.62712652 -0.31222126 -0.00000071
-0.33997106 0.09846727 -0.00000021
-0.39539129 -0.59495855 0.28203875
-0.24062030 0.19374941 0.17163193
-0.03752685 0.38606648 0.00000564
-0.46125654 0.12226930 0.00000246
-0.26306798 -0.09563741 0.00000000
-0.24710097 0.30131864 0.17625727
-0.28991713 0.12719005 -0.00000005
-0.21137863 -0.59242397 0.00000000
-0.03029194 0.26767226 0.00000000
-0.19485566 -0.52903804 0.00000000
-0.51907095 -0.74692544 0.00000000
-0.06020923 0.48936926 0.00000375
-0.51938668 -0.19532688 -0.00000046
-0.29272941 -0.21048134 0.20880844
-0.71195715 -0.33326411 -0.00000104
-0.43678786 -0.22973357 0.31156797
-0.47854781 -0.50244245 0.00000000
-0.04017667 -0.70106308 0.02865864
-0.28489034 -0.43982770 0.00000000
-0.24629526 0.49548583 0.17568688
-0.02491357 0.68600160 0.00000133
-0.11464718 0.32271473 0.00000000
-0.56542657 -0.23493114 0.40332853
-0.15406586 -0.62650825 0.10989758
-0.53183849 0.05412380 0.00000225
-0.56996135 0.18450157 -0.00000066
-0.18798825 -0.30646316 0.00000000
-0.28920775 0.06122854 0.20629656
-0.39008421 -0.28245547 0.00000000
-0.09189390 0.01299626 0.00001042
-0.34566027 -0.65346264 0.24656484
-0.60813567 -0.65814328 -0.00000002
-0.53088697 -0.21883303 0.37869077
-0.28602633 -0.79038802 0.00000000
-0.27129236 0.47928410 -0.00000059
-0.04785774 0.02818987 0.03413767
-0.16606575 0.18103649 0.11844910
-0.28915820 0.06013168 0.00000673
-0.75230567 0.02951015 -0.00000158
-0.55963530 -0.48401836 -0.00000012
-0.16318741 -0.02178115 0.11640412
-0.02983259 -0.02299223 0.02128005
-0.13679215 0.44771600 0.00000000
-0.67648824 0.05264024 -0.00000157
-0.48992456 0.27081023 -0.00000057
-0.09005373 0.23637964 0.06422829
-0.35877735 -0.37382159 0.25592146
-0.08305328 -0.00173538 0.05924319
-0.51473750 -0.64100285 0.36717039
-0.00870569 0.27716093 0.00000000
-0.33315477 0.07166262 0.23764487
-0.00129385 0.32509627 0.00091463
-0.03729986 0.06163501 0.00001051
-0.71250062 -0.22187197 -0.00000123
-0.27562506 0.20590379 -0.00000013
-0.26870969 -0.50330530 0.19167480
-0.54452321 0.12994099 -0.00000114
-0.61611670 0.03009135 0.43948721
-0.53663975 -0.09993687 0.38279452
-0.05563496 -0.79449927 0.00000000
-0.11257975 0.20269934 0.00000726
-0.03395063 -0.33606262 0.02421751
-0.21666932 0.11312985 0.15455360
-0.00123753 -0.66620781 0.00000000
-0.51104252 -0.74204681 0.36453458
-0.22707643 -0.22638323 0.16197715
-0.48386034 -0.28276929 0.34514563
-0.15610770 0.17925515 0.00000696
-0.46491323 -0.32394897 0.33163022
-0.58884080 -0.31492217 -0.00000054
-0.18001166 0.15045837 0.12839662
-0.30220745 -0.43291331 0.00000000
-0.07333734 -0.64501804 0.00000000
-0.09523446 0.03466817 0.06792035
-0.60162055 -0.72486272 0.00000000
-0.50174165 -0.35567319 -0.00000010
-0.24953381 -0.09967801 0.00000000
-0.18536153 -0.36111504 0.13222126
-0.48462023 -0.11980979 -0.00000044
-0.15478777 -0.60305071 0.00000000
-0.36196118 0.21812428 0.25819044
-0.30427658 0.34582109 -0.00000050
-0.62994121 -0.58359951 -0.00000024
-0.16820125 0.09250603 0.00000000
-0.78463745 -0.68814487 -0.00000028
-0.37926162 -0.64454697 0.27053321
-0.24889421 0.15972575 0.17753333
-0.46245860 -0.15464045 0.32987954
-0.25486617 0.13761637 0.00000000
-0.06738669 0.02731724 0.00001057
-0.43019635 0.06632746 0.30686231
-0.52675159 -0.00209817 0.37574124
-0.02806907 0.76266603 -0.00000005
-0.48919459 -0.25632363 -0.00000022
-0.39847908 0.24583302 -0.00000072
-0.12233048 0.37124214 0.00000459
-0.17377724 -0.32399358 0.00000000
-0.24758644 -0.07033685 0.00000000
-0.65459776 -0.12854206 -0.00000115
-0.65035977 0.11782672 -0.00000157
-0.22626782 0.51935771 -0.00000047
-0.45550627 -0.54398253 0.00000000
-0.53921738 -0.75961223 0.00000000
-0.39558805 0.30751475 0.00000063
-0.19304556 0.48890890 0.00000149
-0.20288243 -0.20697871 0.00000000
-0.59065195 -0.67315070 0.42132149
-0.53768972 -0.39287205 -0.00000019
-0.08220995 0.34182521 0.05863493
-0.08826132 0.44507000 0.06295817
-0.35238028 -0.66460165 0.00000000
-0.26485076 0.42660910 0.00000115
-0.02130130 0.56102021 0.01519455
-0.08891755 -0.46085061 0.00000000
-0.25316983 -0.50066763 0.18058998
-0.10261382 0.11754604 0.07319604
-0.45219951 -0.78862979 0.00000000
-0.22622788 0.22172019 0.00000000
-0.02267749 0.74446266 0.00000049
-0.18678950 -0.72694716 0.13323986
-0.47385188 0.04779454 0.33800337
-0.68757035 -0.69127475 -0.00000027
-0.34054877 -0.70679755 0.24291873
-0.42316537 -0.24347499 0.30185075
-0.66556025 -0.29745860 -0.00000090
-0.73177976 0.03443202 -0.00000177
-0.62784085 -0.70090585 0.44784886
-0.19429182 0.34248460 0.00000391
-0.12345252 0.46924076 0.00000310
-0.79206433 0.00543693 -0.00000194
-0.60369939 -0.67174614 0.00000000
-0.18265854 0.40030940 0.13028976
-0.07752828 -0.16171341 0.00000000
-0.31958094 -0.43640559 0.22796205
-0.37524591 -0.28313160 0.00000000
-0.23295467 -0.62849162 0.00000000
-0.39317210 -0.65887374 0.00000000
-0.35085408 0.05345289 0.25027011
-0.65527693 -0.31767311 -0.00000082
-0.02880573 -0.03999005 0.02054758
-0.03220278 -0.18056514 0.02297074
-0.43266131 -0.13957206 0.30862456
-0.15250900 -0.31289365 0.10878704
-0.32660147 0.34123839 0.23296948
-0.58353410 0.04039002 0.41624541
-0.53067938 -0.73052165 0.37854192
-0.12743292 0.39478247 0.09089988
-0.64420442 0.07914925 -0.00000033
-0.09000554 0.18498954 0.06420235
-0.19520496 -0.07416626 0.13924274
-0.01704282 0.54416818 0.01215270
-0.21363159 0.28493887 0.15238168
-0.33849052 0.12521992 0.24144568
-0.44692927 -0.44415886 0.00000000
-0.21863488 0.06398551 0.00000774
-0.09908925 0.37163724 0.00000000
-0.45002818 -0.13082337 0.32101271
-0.48239577 -0.01639423 -0.00000062
-0.07765223 0.34171648 0.00000570
-0.14169595 -0.20105295 0.00000000
-0.21910735 0.27548762 0.15629287
-0.13842431 0.33946022 0.09873436
-0.13208846 -0.24325722 0.00000000
-0.66500318 0.00183372 0.00000056
-0.23627024 -0.10242286 0.00000000
-0.42639445 -0.65840241 0.30415379
-0.21646854 -0.66736058 0.15441037
-0.41405593 0.19367681 -0.00000070
-0.04022158 -0.70170181 0.00000000
-0.35725105 -0.57137801 0.25483273
-0.17881342 -0.52756620 0.00000000
-0.30411447 -0.38547066 0.00000000
-0.06327682 0.47376990 0.04513634
-0.33502977 0.09124763 0.00000541
-0.35433486 -0.54773347 0.25275256
-0.57065990 -0.64651057 0.00000000
-0.00591706 0.37199968 0.00422073
-0.45859382 0.22357608 0.32712301
-0.05552627 -0.71502174 0.03960775
-0.06311038 0.09617159 0.00000000
-0.03015730 0.06891248 0.02151167
-0.06398522 0.71419688 -0.00000012
-0.26911091 -0.26931886 0.19196100
-0.35842849 0.26291508 0.25567140
-0.50857230 -0.30104502 0.36277315
-0.77836854 -0.28960411 -0.00000128
-0.13094048 0.29036093 0.09340188
-0.21956471 -0.66517665 0.15661892
-0.27572050 0.48297176 0.00000000
-0.36982828 0.33375930 0.26380521
-0.52696164 0.07022913 0.00000207
-0.55967488 -0.24341989 0.39922572
-0.02536212 0.68263286 0.01808954
-0.49835040 0.17280498 0.35548237
-0.34913413 0.21211754 0.24904348
-0.04475070 -0.56842212 0.03192137
-0.40841101 0.11068862 0.00000367
-0.36303079 0.37397236 0.00000014
-0.15631151 0.60580198 0.11149979
-0.48881274 -0.70750816 0.00000000
-0.62666024 -0.77382818 0.44700655
-0.29834751 -0.28697761 0.00000000
-0.63763888 -0.07916646 -0.00000117
-0.31164394 0.24831189 0.22229753
-0.39730922 -0.37443932 0.28340685
-0.32176693 0.13808324 0.22952179
-0.41907619 0.11490952 0.29893088
-0.15685572 0.59865230 -0.00000031
-0.50952090 0.06392401 0.36344807
-0.27261453 0.26473410 0.19445644
-0.07896969 0.02699843 0.00000000
-0.38872097 -0.17559003 0.00000000
-0.63003412 -0.23231883 0.44941434
-0.51766936 -0.20424497 0.36926240
-0.72358943 -0.60761461 -0.00000048
-0.09706799 0.28956965 0.06923272
-0.52431566 -0.30350207 0.37400319
-0.04722334 0.19019666 0.00000000
-0.09201246 -0.53636979 0.00000000
-0.07718128 0.52071258 0.00000000
-0.40428174 0.07467278 0.28837643
-0.50225159 -0.64390141 0.35826394
-0.05097687 -0.53531159 0.03636259
-0.12552561 -0.11854818 0.00000000
-0.27620821 -0.10078955 0.00000000
-0.08986362 -0.11795276 0.06410112
-0.41379284 -0.40892479 0.00000000
-0.77516274 -0.42008764 -0.00000095
-0.64283867 -0.62136043 0.45854721
-0.29352099 0.05649067 0.20937328
-0.31832744 -0.75629467 0.22706791
-0.42289140 0.18312377 0.30165597
-0.03943431 -0.05463570 0.02812911
-0.61051471 -0.06698559 0.43549106
-0.53957969 -0.45248253 -0.00000009
-0.18004170 0.17633683 0.00000000
-0.78859057 -0.26500005 -0.00000134
-0.01278073 -0.33168257 0.00000000
-0.63630512 -0.36582891 -0.00000065
-0.64523623 -0.46470905 0.46025776
-0.39204280 -0.04745523 0.27965070
-0.47627310 0.08966853 0.00000272
-0.08680949 0.07517461 0.00000956
-0.08299548 0.40731549 0.00000464
-0.10500989 -0.56115789 0.07490519
-0.16227060 0.11310803 0.11575014
-0.74792416 -0.16718484 -0.00000148
-0.65084515 -0.63627513 -0.00000024
-0.06149799 0.19858597 0.00000809
-0.40851221 0.28132647 0.29139915
-0.33606191 0.10233656 -0.00000020
-0.08572401 0.41379858 0.06114827
-0.05206891 0.50464200 0.00000000
-0.04526530 -0.39084100 0.00000000
-0.19918936 -0.74628944 0.00000000
-0.20089188 0.25837600 0.14329328
-0.12935016 -0.18578566 0.09226748
-0.34700849 -0.66108015 0.00000000
-0.10018662 -0.67548001 0.00000000
-0.26709547 0.14481408 0.00000580
-0.53402351 0.19790458 -0.00000121
-0.56395354 -0.53501331 0.40227734
-0.34988348 -0.26013968 0.00000000
-0.06752468 0.42248771 0.00000000
-0.05051976 -0.31919845 0.00000000
-0.29944952 -0.34464140 0.00000000
-0.48815788 -0.34797925 -0.00000005
-0.35198405 -0.66188254 0.25107570
-0.03116963 -0.75049689 0.02223378
-0.32146827 -0.01784584 0.22930852
-0.40152662 0.01984795 0.00000532
-0.32147482 -0.15896185 0.22931299
-0.59771934 0.10228048 0.00000018
-0.51006584 -0.48654809 0.36383824
-0.38569550 0.40471545 -0.00000080
-0.09281898 -0.42807971 0.00000000
-0.22851195 -0.28995211 0.00000000
-0.31416100 -0.76990203 0.00000000
-0.23414277 0.26859217 0.16701793
-0.50625889 -0.14267072 0.36112318
-0.01716112 -0.37930939 0.00000000
-0.20418833 -0.29986304 0.00000000
-0.72623362 -0.43076808 -0.00000092
-0.41617140 0.03996782 0.29685709
-0.24687068 0.40823393 0.17609537
-0.26859748 -0.39092169 0.19159476
-0.57593816 -0.36371995 0.41082647
-0.47283309 -0.23646784 0.33727975
-0.41662299 -0.31393511 0.00000000
-0.01807563 -0.48380180 0.00000000
-0.37812898 0.24871323 0.26972614
-0.51607861 0.02140131 0.00000310
-0.05762136 0.60752097 0.00000000
-0.23263254 0.24575864 0.16593505
-0.05797004 0.02759711 0.00001071
-0.04742399 0.52280964 0.00000000
-0.33116518 0.22327896 0.23622236
-0.09569238 0.38141912 0.06825306
-0.52396259 -0.07183907 0.37375169
-0.35327912 -0.16706399 0.00000000
-0.39913611 0.31769063 0.00000039
-0.59788344 0.17258839 -0.00000100
-0.10977339 0.41466989 0.07830307
-0.21512654 0.42457153 -0.00000025
-0.53483261 -0.60929191 0.38150468
-0.41926511 0.24130196 0.00000128
-0.24029668 0.28319728 -0.00000011
-0.21661474 0.22899494 0.15450845
-0.00491295 -0.21132580 0.00000000
-0.45510671 -0.09699942 0.32463538
-0.62136881 -0.02386819 -0.00000120
-0.02581704 -0.34194346 0.01841569
-0.58198562 0.07808823 -0.00000121
-0.63787342 -0.50356685 0.45500566
-0.04255160 -0.38577546 0.03035272
-0.26139331 0.14031352 0.18644907
-0.55010179 0.24169118 -0.00000124
-0.30876032 -0.27545831 0.00000000
-0.18380787 -0.19522807 0.00000000
-0.75165652 -0.02178923 -0.00000176
-0.46527263 0.04082365 0.33188325
-0.29014542 0.02487664 0.00000725
-0.01096271 0.48801001 0.00000451
-0.05207451 0.53977339 0.03714556
-0.61516637 -0.14365964 0.43880906
-0.61230185 -0.43994171 0.43676520
-0.26898254 -0.52022326 0.19186943
-0.03947329 -0.48948611 0.02815691
-0.09935640 -0.14073016 0.07087247
-0.14910897 0.43848620 0.10636187
-0.03275924 -0.16068061 0.02336767
-0.13832073 0.44104325 0.09866249
-0.29047129 0.22329206 0.00000406
-0.07535260 0.53756748 0.00000000
-0.12845605 -0.15878612 0.00000000
-0.35406307 -0.76079265 0.25255869
-0.16666459 -0.31078701 0.11888444
-0.01422383 0.18429435 0.00000000
-0.00735940 0.60981003 0.00524636
-0.38998779 -0.52078841 0.27818436
-0.11184977 0.24855183 0.00000000
-0.40509223 0.28718887 -0.00000082
-0.17136223 -0.35064965 0.12223535
-0.00568170 0.07566246 0.00405285
-0.71849816 -0.01689398 -0.00000162
-0.25677783 -0.64476729 0.18316362
-0.59894626 -0.09609437 -0.00000097
-0.14025613 0.42905411 0.00000000
-0.32401862 -0.71685397 0.23112752
-0.15309558 0.46063862 0.10920563
-0.25780110 0.46490493 0.00000065
-0.02949336 0.75369223 0.02103792
-0.46036259 -0.45943730 0.32838395
-0.03624396 -0.53240795 0.02585338
-0.25825140 0.00141750 0.00000000
-0.17467213 0.24592991 0.00000000
-0.36541800 -0.17600489 0.00000000
-0.18384310 0.54771629 0.13113858
-0.40949370 0.26324218 -0.00000080
-0.10749934 0.17519782 0.00000000
-0.41038120 0.01239012 -0.00000036
-0.76608463 -0.14347686 -0.00000160
-0.23305523 -0.08909368 0.00000000
-0.33761450 0.02228413 0.00000651
-0.01584479 0.51140782 0.00000409
-0.34205959 -0.04431039 0.00000000
-0.27201452 -0.69160945 0.00000000
-0.26907204 -0.07837208 0.19193327
-0.46850868 -0.22769311 -0.00000018
-0.54209361 0.08580548 0.38668414
-0.21330336 -0.71286534 0.15215260
-0.18901753 0.46653592 0.00000194
-0.18336730 -0.25546348 0.00000000
-0.15044747 0.29040999 0.10731000
-0.02751432 0.28576210 0.00000730
-0.56470615 0.04103309 0.00000183
-0.26222134 0.19780186 0.18704682
-0.04238079 0.12301793 0.00000000
-0.48092103 -0.55703440 0.00000000
-0.24828387 -0.54302625 0.00000000
-0.00679896 -0.40062076 0.00000000
-0.13971556 0.04241307 0.09966128
-0.08770019 0.57420188 0.06255551
-0.45556826 -0.36754179 0.00000000
-0.03898560 0.26496795 0.00000000
-0.06765538 0.63231827 0.00000000
-0.08459842 0.02704631 0.00000000
-0.01361001 0.63274933 0.00970823
-0.42809833 0.11383908 0.00000324
-0.51304649 -0.33818685 0.36596462
-0.06606292 -0.22819339 0.00000000
-0.60441488 -0.41727570 0.43113934
-0.57745711 -0.49872577 0.41190976
-0.16730855 0.33081497 0.00000000
-0.38209394 0.16796686 0.27255430
-0.41374929 0.03624458 -0.00000042
-0.24716338 -0.46639091 0.17630548
-0.51937406 0.22139771 -0.00000119
-0.13715117 0.21543510 0.09782402
-0.48562968 -0.68147161 0.00000000
-0.46600656 -0.30633960 -0.00000003
-0.07194807 0.49743658 0.00000000
-0.18643554 -0.72401930 0.13298737
-0.60175483 -0.09189195 0.42924242
-0.24851771 -0.23859967 0.00000000
-0.54420110 -0.49284419 -0.00000004
-0.41149023 -0.48268108 0.29352238
-0.49387601 0.02713654 0.00000343
-0.06074861 -0.45234124 0.00000000
-0.04294172 0.74219069 0.03063110
-0.12848845 0.54828061 0.00000174
-0.75622131 -0.36919039 -0.00000108
-0.68100016 0.08445687 -0.00000113
-0.50808537 0.21357121 0.00000004
-0.00203501 0.37120946 0.00000640
-0.25438406 -0.06701811 0.00000000
-0.01495361 0.42145978 0.00000545
-0.23224126 0.42332207 -0.00000033
-0.31211711 0.15683415 0.00000475
-0.70231408 -0.37997023 -0.00000091
-0.30816281 -0.12484440 0.00000000
-0.11688119 -0.77741723 0.08337317
-0.54169733 0.11599913 0.38640213
-0.02669389 -0.17611843 0.00000000
-0.22788315 0.20392084 0.00000550
-0.13754604 0.51506146 0.00000212
-0.69207595 -0.32036894 -0.00000097
-0.16002123 0.52392735 0.00000154
-0.24189531 0.05325426 0.00000755
-0.42504636 0.35832244 -0.00000103
-0.25010499 0.14127922 0.00000000
-0.61272700 0.01716707 0.43706863
-0.24851885 -0.35350254 0.00000000
-0.04856737 -0.37967527 0.03464386
-0.37635498 -0.09395335 -0.00000003
-0.28314608 0.13547902 0.20196621
-0.37290107 -0.00750937 -0.00000016
-0.57457146 -0.42863388 -0.00000028
-0.74707251 -0.31095444 -0.00000122
-0.32866471 -0.02070600 0.00000000
-0.03614189 0.60712219 0.00000235
-0.13069934 -0.09585715 0.00000000
-0.40940347 0.07922799 -0.00000047
-0.61799246 -0.58881454 -0.00000018
-0.18699058 -0.23021185 0.00000000
-0.08583073 -0.37778489 0.06122439
-0.29735226 0.17815104 0.21210638
-0.49106096 -0.34217163 0.35028189
-0.38992960 -0.07583546 0.27814327
-0.56405195 -0.55038929 -0.00000002
-0.19567900 0.21100079 0.13958087
-0.09824082 -0.76546588 0.07007670
-0.17773324 -0.33277601 0.00000000
-0.13986828 -0.38831885 0.00000000
-0.29627276 0.23054394 0.00000382
-0.23548384 0.50398554 0.16797489
-0.33758561 0.13423159 -0.00000026
-0.32376135 -0.64925928 0.23094400
-0.15706445 0.31101826 0.00000000
-0.63014367 -0.27329090 0.44949240
-0.32788633 0.22017581 0.23388701
-0.28236770 -0.29065283 0.20141727
-0.34032963 -0.01771362 0.24276271
-0.01890488 0.73704189 0.01348434
-0.15732388 0.28650647 0.11222157
-0.03848488 -0.20895482 0.00000000
-0.06686541 0.13747837 0.04769613
-0.49223127 -0.75748688 0.35111622
-0.47553483 0.21929517 0.00000057
-0.08628524 0.12901127 0.00000876
-0.24371018 0.37667579 0.17384015
-0.67899162 0.03347030 -0.00000154
-0.44326014 -0.01006549 -0.00000046
-0.71717521 -0.33448922 -0.00000106
-0.66571152 -0.65589588 -0.00000027
-0.68404604 -0.37884940 -0.00000084
-0.53401204 0.11647636 0.38091987
-0.46201252 -0.78076210 0.32956071
-0.47052677 0.19287098 0.33563525
-0.07394086 -0.20054637 0.00000000
-0.06947281 0.45116688 0.04955104
-0.16643243 0.13703064 0.11870989
-0.53626820 0.04826867 0.38252971
-0.40310815 0.26629082 0.28754351
-0.22684642 0.42806276 0.16181353
-0.29503381 -0.01750104 0.21045229
-0.23941586 0.06787666 0.17077905
-0.07103747 0.55951123 0.00000254
-0.04618589 -0.37458490 0.00000000
-0.40364896 0.26986190 0.28793008
-0.41688845 -0.53614012 0.29737301
-0.00071972 0.28947072 0.00000000
-0.32966485 -0.40587061 0.23515506
-0.24221040 0.37886401 0.17277290
-0.00271508 0.61853608 0.00193671
-0.78869444 -0.06663703 -0.00000183
-0.35548772 0.04160942 0.25356870
-0.32924003 0.05667434 0.23485238
-0.27237957 -0.54410370 0.00000000
-0.07743596 0.10454280 0.00000926
-0.00296317 -0.31354775 0.00000000
-0.43109511 -0.57603291 0.00000000
-0.59529889 -0.68100841 0.42463621
-0.22430817 -0.70486862 0.00000000
-0.09881647 0.15652046 0.07048733
-0.78021500 -0.38833292 -0.00000103
-0.60373441 0.01248093 -0.00000118
-0.45979584 -0.56936121 0.32797952
-0.10443885 0.61237003 0.07449804
-0.40862464 -0.30365908 0.29147847
-0.25363242 0.32784350 0.18092037
-0.12243328 0.49039117 0.08733034
-0.15518345 0.58756873 0.11069469
-0.20817083 -0.14457794 0.00000000
-0.36210794 -0.02441882 0.25829760
-0.40691379 -0.50414213 0.00000000
-0.24023622 0.34749662 0.17136462
-0.60104684 -0.12314119 -0.00000093
-0.04855349 0.45167188 0.03462864
-0.52201014 -0.49228173 0.00000000
-0.34163090 -0.63594921 0.00000000
-0.00804552 0.17303486 0.00573899
-0.30593685 0.23211064 0.21822604
-0.52283729 -0.27060946 0.37294869
-0.24981708 -0.78365372 0.00000000
-0.31496372 0.14532681 0.22466894
-0.38712007 -0.70422925 0.00000000
-0.40354529 -0.57895669 0.00000000
-0.37469313 0.12822012 0.26727509
-0.06159525 0.42913427 0.00000000
-0.21901247 0.52024249 0.00000047
-0.33045868 -0.68337943 0.00000000
-0.34249731 -0.27245311 0.00000000
-0.14466705 0.05073693 0.00000000
-0.64824376 -0.73556856 0.46240250
-0.03863460 0.33602947 0.02755116
-0.70184354 -0.55352822 -0.00000060
-0.00025228 0.70667726 0.00000140
-0.76191338 -0.41117413 -0.00000097
-0.45551419 -0.63619030 0.00000000
-0.21520457 0.09466440 0.15349985
-0.05103466 0.04328953 0.03639139
-0.67596764 0.00348214 0.00000032
-0.06022872 -0.75381552 0.00000000
-0.18712422 -0.12509558 0.13347862
-0.59118557 -0.79541282 0.42170187
-0.05062856 0.06480662 0.03610209
-0.64987680 -0.41026916 -0.00000063
-0.71930412 -0.00036016 -0.00000165
-0.38330049 0.15178958 0.27341494
-0.15190382 0.60794152 0.00000029
-0.03009969 0.25631112 0.02146154
-0.74035954 0.02363026 -0.00000179
-0.15147765 0.60568288 0.10805175
-0.15242687 0.38162842 0.00000000
-0.00566368 0.14278329 0.00000977
-0.04954514 0.42772118 0.00000484
-0.16030258 -0.75373623 0.00000000
-0.05374000 0.30514580 0.00000000
-0.22298922 0.29663807 -0.00000006
-0.21744167 0.42783764 0.15510276
-0.37499560 0.09419808 0.26748573
-0.26149340 -0.03642405 0.18652731
-0.21328804 0.30921973 0.00000410
-0.14349404 -0.45739234 0.00000000
-0.44800720 -0.77144676 0.31957050
-0.20136406 -0.23397073 0.00000000
-0.23438511 0.01330923 0.16719054
-0.08557892 -0.39290347 0.00000000
-0.09241175 0.69097377 0.00000005
-0.34012525 -0.01651202 0.24261692
-0.41519262 -0.08114740 -0.00000021
-0.63790744 -0.65996594 0.45502960
-0.48960092 -0.11047106 0.34924076
-0.17869401 -0.18995437 0.00000000
-0.01411985 0.31095874 0.00000712
-0.31145604 -0.14859063 0.22216644
-0.26522017 0.34232423 -0.00000032
-0.35200387 0.30204531 -0.00000062
-0.07213367 0.22729076 0.05145407
-0.43202784 -0.61663308 0.00000000
-0.01665777 -0.45158351 0.01188224
-0.67139077 -0.20559617 -0.00000109
-0.03619251 0.48091631 0.00000424
-0.26041618 0.26046422 0.18575471
-0.06663257 0.23042081 0.00000754
-0.02127475 0.09256041 0.01517561
-0.60406633 -0.29375515 -0.00000064
-0.03235173 0.31156947 0.00000684
-0.45079976 -0.57034951 0.32156248
-0.21433754 0.44151150 0.15289072
-0.02992373 0.05674340 0.00001070
-0.08440802 0.41219678 0.00000454
-0.29479155 -0.45489637 0.00000000
-0.34005435 -0.54093794 0.24256606
-0.43880402 0.15870808 0.00000229
-0.09073835 -0.02476440 0.06472508
-0.04533764 0.14504916 0.00000000
-0.50285924 0.19095860 -0.00000107
-0.57456871 -0.30642449 0.40984970
-0.14224669 -0.05144164 0.00000000
-0.01095725 -0.39352001 0.00000000
-0.69910849 -0.36251663 -0.00000093
-0.24069654 0.48257849 0.17169318
-0.60693193 -0.06509735 0.43293539
-0.35637524 0.04465480 0.25420845
-0.03380748 0.59596583 0.00000000
-0.56761688 -0.33653135 0.40489077
-0.28690010 -0.73188940 0.20465031
-0.06785269 0.66003216 0.04839930
-0.22510310 0.52056649 0.16057007
-0.48066864 -0.76595532 0.34286841
-0.19995555 -0.30618959 0.00000000
-0.23464099 0.55182387 -0.00000036
-0.29129687 -0.02946797 0.20778664
-0.46694400 -0.53195778 0.00000000
-0.30011688 0.28386446 0.21407860
-0.48064600 -0.08575060 -0.00000049
-0.36754462 -0.01546720 0.26217571
-0.03416168 0.31607654 0.00000000
-0.29071937 0.06197514 0.00000668
-0.43939197 -0.79941592 0.00000000
-0.04114429 0.69989876 0.02934787
-0.18984038 -0.62748730 0.00000000
-0.43661282 0.04857926 -0.00000054
-0.50339202 -0.08976518 -0.00000058
-0.34741037 0.04255193 0.24781363
-0.07529566 -0.22944402 0.05370957
-0.40403295 -0.11384070 0.28820341
-0.12830207 -0.68081038 0.00000000
-0.04190485 -0.56092148 0.02989138
-0.07629136 0.40550971 0.05441981
-0.45930367 0.02660533 0.32762934
-0.17586937 0.57595872 0.12545064
-0.49634238 0.27912998 -0.00000083
-0.09223020 0.55802417 0.00000000
-0.24590798 -0.58241372 0.00000000
-0.09402338 -0.05059736 0.06706834
-0.13262861 -0.45154456 0.00000000
-0.09052934 0.17606124 0.06457599
-0.01309930 -0.16183905 0.00934393
-0.14978517 -0.52654399 0.10684409
-0.18821203 -0.13308841 0.00000000
-0.17832881 -0.78004781 0.12720471
-0.65664388 -0.29978907 -0.00000086
-0.58869965 -0.41617723 -0.00000036
-0.43472629 0.30031490 -0.00000097
-0.55838193 -0.13824900 0.39830359
-0.69427932 -0.78829466 -0.00000003
-0.62474044 -0.07868230 0.44563854
-0.19103647 0.48308789 -0.00000026
-0.39765061 0.20247437 0.00000234
-0.49381789 0.10552288 0.00000212
-0.02647903 0.71479342 0.01888684
-0.41861977 -0.48353520 0.29860799
-0.63626762 0.14109104 -0.00000155
-0.49374321 -0.60185465 0.00000000
-0.13996386 -0.19532979 0.00000000
-0.20852465 0.47466537 -0.00000031
-0.13939995 0.54396737 -0.00000014
-0.16506780 0.37837491 0.00000383
-0.08772460 0.67561905 -0.00000015
-0.24990041 -0.31532018 0.00000000
-0.24096057 0.50911799 -0.00000051
-0.12382607 -0.76946461 0.08832706
-0.23889522 0.09800043 0.17039922
-0.26543413 0.24806297 -0.00000016
-0.55575842 -0.46291238 0.39643170
-0.04108226 -0.74575594 0.02930461
-0.16018481 0.33844164 0.00000451
-0.03025686 0.53923311 0.02158269
-0.63107245 -0.75917668 0.45015389
-0.55451338 0.09015300 0.39554442
-0.36658753 0.24385185 0.26149119
-0.23800557 0.38933897 0.16977107
-0.04132407 0.51058053 0.02947710
-0.12183636 0.35311507 0.00000000
-0.44449245 0.14179907 0.00000246
-0.57569312 -0.34021760 -0.00000044
-0.28351904 -0.08427474 0.20223854
-0.50367286 -0.59693127 0.35927783
-0.13386982 0.44810276 0.00000326
-0.01447943 0.55710871 0.00000000
-0.26896968 -0.74430112 0.00000000
-0.01337800 -0.36214069 0.00954273
-0.56055341 -0.06598846 0.39985267
-0.53236568 0.04574341 -0.00000094
-0.27312898 0.28510263 0.19482388
-0.05024869 0.72229898 0.03584295
-0.47292762 0.19445608 0.33734731
-0.21121026 0.15237392 0.15065956
-0.47282933 -0.56890679 0.00000000
-0.21084962 -0.28321903 0.00000000
-0.11495797 0.60410628 -0.00000014
-0.14739542 0.43714391 0.00000000
-0.52591068 0.13202402 0.00000106
-0.03675105 -0.01395248 0.00000000
-0.46723465 -0.71434162 0.00000000
-0.10181512 0.53782885 0.00000000
-0.08931408 0.19874593 0.06370913
-0.69364709 -0.05698886 -0.00000145
-0.15275939 0.05054117 0.10895497
-0.06104641 -0.29443074 0.04354535
-0.01367248 0.63358446 0.00000229
-0.16767062 -0.22508499 0.00000000
-0.05195398 0.38431445 0.00000000
-0.05705478 0.39722313 0.00000518
-0.63116952 -0.47758325 0.45022372
-0.32122586 -0.61388219 0.22913540
-0.01276809 -0.28530297 0.00910767
-0.14645877 0.45675033 0.10447145
-0.40121607 -0.51003399 0.00000000
-0.31231577 0.41342343 0.22278045
-0.62428062 -0.60598324 -0.00000018
-0.29791643 0.27136094 0.21250896
-0.60521111 0.03574045 0.43170805
-0.34685573 -0.00812726 -0.00000005
-0.04686792 -0.03321577 0.03343162
-0.08059977 0.01043266 0.05749307
-0.45131714 0.06688989 0.00000358
-0.18998156 -0.17356749 0.13551680
-0.24577130 -0.14960966 0.17531249
-0.64144014 -0.17691338 0.45755055
-0.31019425 0.34292305 -0.00000052
-0.60657648 -0.77914303 0.43268048
-0.30755077 0.19827466 0.21938121
-0.00916211 0.17757818 0.00652473
-0.44125548 0.11788558 -0.00000068
-0.29333009 0.07605815 0.20923713
-0.30532146 0.40237842 -0.00000060
-0.15064218 0.45226549 0.10745556
-0.71653736 -0.61957632 -0.00000045
-0.04460957 0.14364084 0.03182070
-0.13933515 -0.14726881 0.00000000
-0.59317348 -0.24597681 0.42312094
-0.05651126 0.58915086 0.00000000
-0.20542921 -0.60164463 0.14653585
-0.32892243 0.26535334 0.23462344
-0.19224806 0.21126173 0.13712629
-0.59082075 -0.18036509 -0.00000079
-0.13474319 0.16396420 0.09611441
-0.25174528 -0.13442464 0.00000000
-0.38882453 0.04377389 0.00000517
-0.17717621 -0.30474676 0.12638255
-0.34018894 0.36327374 0.24266253
-0.04078287 0.21018235 0.02908138
-0.11523309 -0.59264255 0.00000000
-0.50565769 0.04696420 -0.00000083
-0.05762930 -0.39995262 0.04110787
-0.34424224 0.39869621 0.00000009
-0.23397715 0.25046420 0.16689432
-0.27032989 -0.68837966 0.19283051
-0.47797155 -0.51069070 0.34094470
-0.04172594 -0.65878228 0.02976376
-0.18649048 -0.50522497 0.13302656
-0.21581390 0.05851517 0.15394341
-0.16959956 0.58661658 -0.00000035
-0.54821393 0.12408485 0.39105095
-0.06890018 -0.40371455 0.04914757
-0.11112383 -0.60028797 0.00000000
-0.16543835 0.47036825 0.00000233
-0.25928286 -0.72056508 0.18495050
-0.51096826 -0.37779442 0.36448211
-0.09670177 0.32542242 0.00000000
-0.31771102 0.35156922 0.00000139
-0.36423174 -0.54244939 0.00000000
-0.63816202 -0.07673674 0.45521242
-0.41001099 0.29021010 0.29246828
-0.33221825 0.02831597 -0.00000005
-0.25271149 0.35986288 0.00000250
-0.11804023 0.64455032 0.08420022
-0.39309051 0.11402710 0.28039829
-0.08643497 0.21237934 0.00000000
-0.38804057 -0.08360261 0.27679577
-0.67926171 0.07732993 -0.00000162
-0.62684436 -0.14656491 0.44713920
-0.54912926 -0.07012093 0.39170358
-0.17806262 -0.55716712 0.00000000
-0.45674208 0.12831562 0.32580226
-0.52174459 -0.59123909 0.00000000
-0.25630909 0.23110474 -0.00000009
-0.75050557 -0.47590096 -0.00000081
-0.74004213 0.03579923 -0.00000145
-0.30811089 -0.29575789 0.21978029
-0.64705027 -0.17751046 -0.00000103
-0.25824081 -0.46037298 0.00000000
-0.17787628 0.21888051 0.12688192
-0.08484234 0.13170232 0.06050902
-0.12139128 0.54160209 0.08658818
-0.45145569 -0.11196060 -0.00000031
-0.12108047 0.41650492 0.08636380
-0.13745047 0.19774976 0.00000000
-0.10620756 0.41779280 0.00000413
-0.25148836 -0.00701776 0.17939056
-0.21644604 -0.22962163 0.00000000
-0.11502558 -0.62099385 0.00000000
-0.63252557 -0.29623320 -0.00000076
-0.53588726 0.13447898 0.38225795
-0.02113896 0.05760460 0.00001082
-0.51355925 -0.16744805 -0.00000048
-0.53448040 -0.44080043 -0.00000009
-0.49459677 -0.29745492 0.35280412
-0.20346042 0.35896856 0.14512777
-0.02890447 0.49658414 0.00000000
-0.39839137 -0.38606607 0.00000000
-0.24662548 -0.19533704 0.00000000
-0.43900580 -0.48310885 0.00000000
-0.45632314 -0.02840378 -0.00000048
-0.02857401 -0.31615796 0.02038229
-0.14738086 -0.49823655 0.00000000
-0.22203584 0.37683136 -0.00000020
-0.39606261 -0.13197485 0.28251798
-0.40265926 0.21695540 0.28722220
-0.42187520 -0.06001122 -0.00000028
-0.10088983 0.12786619 0.07196628
-0.51315028 -0.23601315 -0.00000036
-0.22176753 0.35114174 0.00000324
-0.58744267 0.08979474 -0.00000125
-0.51358692 -0.05944830 0.36635054
-0.31980810 -0.30054466 0.00000000
-0.22195334 0.46718645 0.00000130
-0.04289474 -0.73537046 0.00000000
-0.12245899 0.34006076 0.08735190
-0.37729137 -0.74608072 0.26912780
-0.36765472 -0.71551747 0.00000000
-0.53243101 0.13342297 0.37979269
-0.51444641 -0.27442324 -0.00000030
-0.57989308 0.16508261 -0.00000135
-0.71240576 -0.37876468 -0.00000096
-0.61580609 -0.29851351 -0.00000069
-0.63948228 0.07161464 -0.00000144
-0.07506547 -0.20318045 0.05354537
-0.35278551 -0.71073694 0.25164739
-0.47272569 0.18903741 0.33720315
-0.01409101 0.26352261 0.00000000
-0.20209700 0.36248732 0.14415526
-0.20288905 -0.42442585 0.00000000
-0.49218074 0.13095314 0.35108136
-0.57064862 -0.49708308 -0.00000014
-0.13227777 0.18182789 0.00000000
-0.50350957 0.03183032 0.35916230
-0.27949639 0.10602075 0.19936932
-0.36869182 -0.58325106 0.26299361
-0.07060544 0.26702708 0.05036396
-0.18151214 -0.70626939 0.00000000
-0.12170003 0.60177974 0.08680976
-0.33204287 -0.56447020 0.23685134
-0.06348244 -0.46180128 0.00000000
-0.13300646 -0.38976685 0.00000000
-0.03962041 -0.48331110 0.00000000
-0.26629918 0.14643036 0.18994879
-0.47565675 -0.41997990 0.33929364
-0.09606134 0.43052381 0.06852204
-0.25775892 -0.73013929 0.18386345
-0.17798078 -0.66197293 0.12695645
-0.10137439 -0.55048815 0.07231193
-0.56975765 -0.59703233 0.40641743
-0.26825994 -0.59148612 0.00000000
-0.03847589 0.71711818 0.02744476
-0.03664629 -0.19691209 0.02614037
-0.12371755 0.09942915 0.08823937
-0.53116041 -0.33961902 0.37888563
-0.35291780 -0.76431356 0.25174175
-0.13670959 0.43829190 0.09751714
-0.20726656 0.42852926 0.00000222
-0.47117296 -0.13778194 0.33609569
-0.24106007 -0.40956368 0.17195190
-0.23363627 0.37496997 0.16665392
-0.59909064 -0.56732052 -0.00000014
-0.08640150 0.05450441 0.06163153
-0.36040598 -0.26798531 0.25708319
-0.02333572 -0.66227111 0.00000000
-0.18484360 -0.45858839 0.00000000
-0.46540012 0.13280430 0.33197624
-0.63923932 0.12142981 -0.00000153
-0.38488465 -0.07634053 0.27454460
-0.29315944 -0.01236640 0.00000000
-0.46401111 -0.43408651 0.00000000
-0.72546287 -0.28088529 -0.00000119
-0.76128609 -0.18254211 -0.00000151
-0.76765244 -0.54792589 -0.00000063
-0.33139043 -0.56790203 0.23638595
-0.59074007 0.13419610 -0.00000134
-0.49440542 0.02432321 -0.00000074
-0.03553173 -0.39562727 0.00000000
-0.01471487 0.03155439 0.00000000
-0.06025904 -0.43810697 0.00000000
-0.59010493 -0.10976477 -0.00000091
-0.27367583 0.02830170 0.19521729
-0.16514136 -0.48086541 0.00000000
-0.43644577 0.10789557 0.00000318
-0.30334045 0.15021857 0.21637209
-0.40650467 0.04595975 -0.00000040
-0.73491632 -0.68497092 -0.00000029
-0.13574337 -0.17626053 0.00000000
-0.16406447 0.60187810 -0.00000035
-0.39688203 0.13984396 0.28309932
-0.00273611 0.33081206 0.00194354
-0.07908059 -0.17229858 0.00000000
-0.09557316 -0.52788980 0.06817382
-0.36919743 0.38665656 -0.00000084
-0.05052615 0.58256362 0.00000250
-0.40527041 -0.13866267 -0.00000007
-0.01208865 0.22301364 0.00862302
-0.13390175 0.36663022 0.09551420
-0.38901146 -0.35092760 0.27748793
-0.48326985 -0.34651440 -0.00000004
-0.75751428 -0.26701695 -0.00000133
-0.11097365 0.59529939 0.00000129
-0.57086347 0.01616781 0.40720715
-0.02597092 0.68763532 0.01852546
-0.26527817 0.26619934 0.00000382
-0.10249462 -0.27662455 0.07311101
-0.47359509 -0.59928538 0.00000000
-0.44579833 -0.15755978 -0.00000021
-0.25582488 0.40994862 0.00000160
-0.10206180 0.10768689 0.07280227
-0.66092714 -0.43044142 -0.00000065
-0.00892073 -0.22578168 0.00636330
-0.05978320 0.23096572 0.04263528
-0.57027436 -0.39579513 -0.00000032
-0.09731050 -0.46206267 0.06941309
-0.56058842 -0.79272181 0.00000000
-0.08341877 0.28835433 0.05949628
-0.58080115 0.09899118 0.00000056
-0.46593436 -0.15798874 0.33235886
-0.62922950 0.03297943 -0.00000133
-0.41045925 -0.54203015 0.00000000
-0.08559421 -0.30627100 0.06105568
-0.29503135 0.35456225 0.21044937
-0.47858629 -0.01210541 -0.00000061
-0.50779421 0.00780863 0.36221858
-0.20614335 -0.42102378 0.14704526
-0.01968358 0.00222524 0.00000000
-0.41827531 -0.42168015 0.00000000
-0.27983394 -0.30041729 0.00000000
-0.10221331 0.54100134 0.00000234
-0.22746941 -0.04558893 0.00000000
-0.29030270 -0.06900329 0.20707743
-0.65717949 -0.61696286 -0.00000030
-0.30749973 0.36932678 -0.00000055
-0.10274977 -0.58474948 0.00000000
-0.03829748 0.70205254 0.02731821
-0.02179083 0.45541884 0.01553805
-0.51771185 -0.37740248 -0.00000013
-0.31512600 -0.55044796 0.22478428
-0.57819415 -0.58902556 -0.00000001
-0.01789659 0.69458339 0.00000131
-0.48178899 -0.50673494 0.34366776
-0.20181675 -0.01793563 0.14395902
-0.24525211 -0.02539012 0.17494214
-0.01793002 0.32955891 0.00000679
-0.08435182 -0.25761153 0.00000000
-0.20464405 -0.09956643 0.14597579
-0.36885882 0.40031643 -0.00000041
-0.02419604 0.15272491 0.01725941
-0.73637508 0.03280112 -0.00000133
-0.10154541 0.49005098 0.00000312
-0.06589874 0.36521134 0.04700004
-0.30257452 0.06553543 0.21583135
-0.03222616 0.68095457 0.02298585
-0.59410150 0.04246875 0.00000124
-0.10612444 0.29711741 0.00000000
-0.20973748 -0.43203154 0.00000000
-0.14950512 0.43947597 -0.00000000
-0.14785311 0.10855967 0.00000814
-0.12409881 -0.69451551 0.08852161
-0.33675600 0.39151337 -0.00000072
-0.30343742 -0.53054510 0.00000000
-0.64213601 0.00173337 0.45804707
-0.24026316 0.31539431 0.17138379
-0.20424462 -0.17243365 0.14569087
-0.21258918 -0.50769787 0.15164317
-0.55807912 -0.14553218 -0.00000071
-0.24235696 0.54482362 -0.00000058
-0.20117443 -0.16311721 0.14350085
-0.22042570 0.12360476 0.00000682
-0.47416414 0.12476158 -0.00000083
-0.44529862 -0.68722861 0.31763843
-0.05433454 0.67442292 0.03875772
-0.28232607 0.44334993 0.20138830
-0.22567548 0.09864852 0.16097783
-0.10121895 0.64095341 0.07220055
-0.31325682 0.38110242 -0.00000060
-0.11888356 0.60452812 0.08480070
-0.06967258 0.57375808 0.00000234
-0.22681155 0.18754148 0.00000000
-0.01691408 -0.58986148 0.01206508
-0.19472692 0.39766590 0.00000298
-0.07854697 -0.72498204 0.05602877
-0.30113642 0.25377158 0.21480581
-0.32657490 0.02086061 0.23295124
-0.07636255 0.50142246 0.00000333
-0.79527799 -0.19524274 -0.00000151
-0.74510236 -0.22178127 -0.00000137
-0.15939443 -0.72827487 0.11369852
-0.03602969 0.65493813 0.02570054
-0.21147054 0.32776893 0.00000383
-0.20751067 0.22915513 0.00000543
-0.33005878 -0.79812302 0.23543606
-0.26501515 -0.72222680 0.00000000
-0.19940758 0.49193928 0.14224095
-0.46606524 -0.47457803 0.00000000
-0.14468183 0.19464595 0.00000690
-0.47915778 -0.35482724 0.34179110
-0.04486679 0.30742356 0.00000000
-0.06063890 0.19757801 0.04324509
-0.27108385 0.13773787 0.19336172
-0.52450277 -0.54935073 0.00000000
-0.29450253 0.14394414 0.21007356
-0.17090878 0.20362258 0.12191189
-0.48610965 -0.24846986 -0.00000022
-0.03747080 0.33150188 0.00000646
-0.09041110 0.00223840 0.06447913
-0.72692830 0.06870441 -0.00000174
-0.26972468 0.32332539 -0.00000031
-0.02478852 0.55358168 0.00000000
-0.69820184 0.07680738 -0.00000170
-0.54939969 -0.37401161 0.39189603
-0.70983537 -0.02720713 -0.00000157
-0.25582697 -0.60941873 0.18248535
-0.33584357 0.08897717 -0.00000018
-0.02425786 0.18586202 0.00000885
-0.72265620 -0.40272267 -0.00000096
-0.70850812 0.01796791 -0.00000164
-0.25048278 0.20158492 0.17866746
-0.09242367 -0.34523457 0.06592724
-0.57547712 -0.47286307 0.41049743
