ply
format ascii 1.0
element vertex 1372
property float x
property float y
property float z
end_header
-0.10867885 -0.72416646 -0.00000042
-0.54575264 -0.51757599 0.11614317
-0.51801736 -0.59883991 -0.00000250
-0.57094371 -0.24580208 -0.10123324
-0.00260446 -0.31772306 0.00000152
-0.50045084 0.04749764 -0.13871001
-0.27351354 0.26933991 -0.03946488
-0.27406716 0.09848654 0.00000446
-0.35696768 -0.06181231 0.23050405
-0.09238995 -0.44145534 0.00000168
-0.07718132 0.01606559 0.00000302
-0.50785742 0.13019733 -0.16932715
-0.14777749 -0.33426874 0.00000235
-0.02264198 0.10402646 -0.00000911
-0.17053709 -0.28283309 0.00000059
-0.35605488 0.25840509 -0.09679537
-0.29269648 0.15409263 -0.01847623
-0.01887790 -0.39225090 0.00000116
-0.42828790 -0.08796573 -0.04444238
-0.12987507 -0.31715913 0.00000229
-0.07471300 -0.06323088 0.00000185
-0.02612527 0.30358327 0.00000329
-0.05117737 0.17540141 0.00000969
-0.27081488 -0.32641720 -0.00000015
-0.49699048 -0.15881289 -0.07336533
-0.11758402 -0.58156500 -0.00000003
-0.60367676 -0.65741536 0.06291478
-0.49881532 -0.20057557 -0.06199367
-0.52150637 0.12653233 -0.17824114
-0.17167983 0.09842624 0.00000177
-0.00866301 -0.70804158 0.00000034
-0.04534173 -0.32959949 0.00000174
-0.54544919 -0.07267441 -0.13519819
-0.07787364 0.55554298 0.00000216
-0.39577589 -0.15550527 0.26633182
-0.70569984 -0.13548320 -0.23384612
-0.67041842 -0.59437026 -0.06823110
-0.43064700 -0.23969308 0.29868382
-0.25093776 -0.76468044 0.00000162
-0.48141481 0.11745423 -0.14601560
-0.22454071 0.25790413 0.01374292
-0.15784142 0.41893154 0.08442274
-0.13251356 -0.03043769 0.00000320
-0.04419444 -0.45225666 0.00000135
-0.67102216 -0.81999888 0.05802277
-0.07447642 -0.25390290 0.00000126
-0.30005930 -0.62723196 -0.00000127
-0.60464531 0.02952999 -0.20981243
-0.17247638 0.32164261 0.00000004
-0.39373844 0.25171102 -0.12244983
-0.25523000 0.44192955 -0.07856536
-0.18731395 -0.70037928 0.00000144
-0.05228349 -0.49282340 0.00000128
-0.61784656 0.03307010 -0.22059157
-0.44429911 -0.69335408 -0.00000235
-0.20918577 -0.17871756 0.00000320
-0.16063365 0.41218732 0.12487903
-0.46341217 -0.46896770 0.00000383
-0.30535114 0.34781362 -0.08674981
-0.43516790 -0.54976126 -0.00000184
-0.01495567 -0.30997514 0.00000144
-0.20940403 0.29444216 0.14422989
-0.40103937 -0.45557480 0.00000350
-0.03509012 0.50975284 0.00000701
-0.10200426 0.26504669 0.00000271
-0.17958420 -0.27244657 0.00000273
-0.49042945 0.04943660 -0.13193558
-0.26485565 0.22729180 -0.02030265
-0.29881759 0.07858181 0.05491423
-0.28906923 0.10211611 0.06430942
-0.22645660 0.27118035 -0.00544328
-0.15937775 0.41521957 0.06949997
-0.62375341 -0.70588489 0.14731428
-0.40142895 0.25237235 -0.12830299
-0.36596890 -0.08354639 0.35327221
-0.21015926 0.17431999 -0.00000195
-0.63781904 -0.73984145 0.05899955
-0.27956915 -0.20146422 0.00000018
-0.17818486 -0.28963336 0.00000267
-0.12402764 0.50056646 0.05323807
-0.48825084 -0.76308441 0.00000306
-0.29046879 0.09873239 0.18578959
-0.26806513 0.00845654 0.00000091
-0.03028454 -0.62798247 0.00000072
-0.06584969 0.00781533 -0.00000985
-0.23123457 -0.02417238 0.00000103
-0.51198792 -0.50210313 -0.00000216
-0.27148856 0.14455091 0.28297472
-0.27871076 0.12711527 0.27472758
-0.28998275 -0.57980449 -0.00000106
-0.13480910 -0.66570012 0.00000123
-0.13190044 0.11939718 0.00000367
-0.23797184 0.21084991 0.00000172
-0.03100173 0.53977365 0.00000437
-0.10203872 0.04418892 -0.00000798
-0.10173567 -0.17228581 0.00000258
-0.64720355 -0.76249711 0.08456295
-0.44566757 0.11496953 -0.11898649
-0.53147852 -0.76854913 0.00000331
-0.41538718 -0.20284613 0.13980620
-0.07976212 -0.00503769 0.00000200
-0.28147005 0.28747345 -0.05082935
-0.18646191 0.09870746 0.00000168
-0.50832309 0.03985268 -0.14216575
-0.10963619 -0.73707040 0.00000086
-0.04112947 0.28717215 0.00000315
-0.49850542 -0.35079737 -0.01603785
-0.17863634 0.18579103 0.00000200
-0.09979496 -0.18467849 0.00000132
-0.30250436 0.06969248 0.05293429
-0.28003947 -0.60971692 -0.00000110
-0.44288173 0.25877391 -0.16071582
-0.34401387 0.22444134 -0.07760533
-0.55003938 -0.61629453 0.00000389
-0.54857237 -0.77518853 -0.00000323
-0.37060169 -0.63751934 -0.00000173
-0.12874987 0.48916051 0.10623875
-0.59371491 -0.63336734 0.15415422
-0.33260661 -0.00299643 0.15815643
-0.54727017 -0.35543047 -0.05046441
-0.05282688 0.14952347 -0.00000723
-0.18212592 -0.06019018 0.00000341
-0.08788184 0.58782566 0.08709830
-0.03887936 0.70613351 0.00119367
-0.61180461 -0.67703867 0.17400782
-0.66272882 -0.79997748 0.04757130
-0.53098813 -0.48192908 0.06304853
-0.51557560 -0.44471848 0.02906991
-0.20639007 0.06859449 0.00000147
-0.27599173 0.13368057 0.25063925
-0.69586389 -0.53343070 -0.10548068
-0.12563679 0.49667960 0.02068451
-0.54295148 0.12988905 -0.19502323
-0.41013474 -0.19016519 0.12991349
-0.43700786 0.09075658 -0.10525152
-0.00312084 -0.64735893 0.00000046
-0.02778152 0.07943466 -0.00000947
-0.15062132 0.38639621 0.00000076
-0.23832370 -0.58964384 0.00000210
-0.47625926 -0.37619773 0.00000420
-0.46131158 -0.19561378 -0.03594280
-0.02704746 0.68390181 0.00000335
-0.22721845 -0.78626538 -0.00000133
-0.15296344 0.15776057 -0.00000403
-0.33880555 -0.79655168 -0.00000203
-0.36870127 0.23213815 -0.09809337
-0.32731280 -0.31064054 0.00000350
-0.09035806 0.58184894 0.05198336
-0.06285658 -0.24584132 0.00000135
-0.33321215 -0.20584000 -0.00000015
-0.51145908 -0.43478608 0.17279670
-0.49505368 -0.32735031 -0.02063856
-0.03237704 -0.02976482 0.00000221
-0.07038835 0.50705408 0.00000451
-0.03550564 -0.64877746 0.00000026
-0.56831915 -0.04803679 -0.15950495
-0.04736371 0.30629293 0.00000861
-0.26370290 0.16336476 0.06809278
-0.14383513 -0.40145851 0.00000211
-0.44691168 -0.27895161 0.10031120
-0.34242420 -0.02669673 0.12057615
-0.34009539 -0.02107482 0.12931557
-0.40570286 -0.51508119 -0.00000156
-0.46704205 -0.74036791 -0.00000263
-0.50240724 0.12863678 -0.16484563
-0.22873001 0.20982150 0.00000178
-0.42482037 0.25089725 -0.14504527
-0.04953345 0.47061423 0.00000713
-0.38685655 -0.26311288 0.00000401
-0.16362787 0.40495814 0.08679923
-0.08722004 -0.66624343 -0.00000011
-0.37858498 -0.44283673 -0.00000117
-0.30330224 0.06775631 0.01969473
-0.07828384 0.65135956 -0.01227923
-0.10548710 0.33595676 -0.00000168
-0.51133901 -0.43449286 0.08970576
-0.00666630 0.57096789 0.00000690
-0.30984740 -0.11678225 0.00000401
-0.15471490 0.09888108 0.00000374
-0.43800013 0.00458623 -0.07974893
-0.23398604 -0.49620284 -0.00000046
-0.15235416 0.43218377 0.02271922
-0.15645015 0.11785881 0.00000381
-0.04517903 0.55219707 0.00000649
-0.14908084 0.48004840 -0.01216054
-0.37430469 -0.10366457 0.15384557
-0.33618922 0.15284269 -0.05006264
-0.11002637 -0.29495118 0.00000091
-0.55964976 -0.55112312 0.02748035
-0.14332662 0.45396760 0.14869549
-0.03945133 -0.00894695 0.00000223
-0.11691263 -0.43482874 0.00000185
-0.69417789 -0.40667273 -0.14282748
-0.13175123 0.43734315 0.00000127
-0.17223341 -0.35908763 0.00000034
-0.32918712 -0.54956497 -0.00000120
-0.18453422 0.50867683 -0.04692853
-0.24454036 0.00368942 0.00000828
-0.17404694 0.16196403 0.00000406
-0.13303945 0.10629860 -0.00000573
-0.10533238 -0.32550786 0.00000212
-0.09189550 0.51701854 0.00000176
-0.06260205 0.64886209 0.00973996
-0.51071990 -0.43299954 0.12275804
-0.26080454 -0.03948308 0.00000080
-0.21286876 0.20287247 0.00000442
-0.49850941 -0.40352668 0.28945790
-0.02641491 -0.11563928 0.00000198
-0.10578518 -0.74075575 0.00000082
-0.26547229 0.07724987 0.00000434
-0.42602543 -0.22852387 0.00696216
-0.24695390 -0.23023121 0.00000029
-0.12096411 0.10929675 0.00000357
-0.42701776 -0.00704061 -0.06813846
-0.43535017 -0.25105062 0.38418565
-0.63485026 -0.67532481 -0.01744942
-0.32777234 0.00868034 0.18637409
-0.26102410 -0.13434459 0.00000050
-0.03235918 -0.66825419 0.00000061
-0.15830191 0.06360368 -0.00000587
-0.24235298 -0.75713024 0.00000160
-0.17649810 -0.76477243 -0.00000096
-0.29065226 -0.32980948 -0.00000028
-0.53181770 -0.11629047 -0.11190360
-0.48830742 -0.38203574 0.00000425
-0.56988736 0.01936553 -0.18117494
-0.02896838 -0.06678299 0.00000212
-0.07510441 0.19807249 0.00000357
-0.07952162 0.59043575 0.00000295
-0.28196751 -0.12277735 0.00000382
-0.49326223 -0.50386945 0.00000390
-0.40865287 -0.42542919 0.00000364
-0.00622232 0.72756083 0.00000474
-0.05491482 0.45795184 0.00000360
-0.37550447 -0.10656257 0.29955204
-0.09317574 0.33019683 -0.00000217
-0.11208118 -0.33672613 0.00000077
-0.03793113 -0.45244140 0.00000086
-0.03212112 0.08443930 0.00000296
-0.54299931 -0.51092895 0.11873453
-0.41818714 0.10570718 -0.09597416
-0.24617654 0.37706310 -0.05216450
-0.50642397 -0.18915980 -0.07106022
-0.22816932 -0.50909400 -0.00000047
-0.02062909 0.75019179 0.00613492
-0.46189504 -0.31513282 0.30186932
-0.47470481 -0.34605595 0.24052358
-0.55943551 -0.20276086 -0.10587784
-0.32835704 0.00725798 0.28191391
-0.19739581 0.43485820 -0.03390891
-0.22322411 0.39130176 -0.03963103
-0.25880884 -0.26221988 0.00000324
-0.60141591 -0.54464939 -0.03265682
-0.17729957 0.23761092 0.00000431
-0.24946579 -0.75372745 -0.00000136
-0.19383746 -0.54592301 -0.00000038
-0.40697431 -0.71539412 -0.00000219
-0.52087137 -0.17008499 -0.08748396
-0.48949780 0.03524390 -0.12693061
-0.23644258 -0.04771667 0.00000092
-0.53144424 -0.64819100 -0.00000273
-0.49537446 -0.39595753 0.25327427
-0.17536745 0.37661487 0.12069620
-0.08853782 -0.76734696 0.00000064
-0.18526995 0.20558942 0.00000202
-0.28279214 0.11726797 0.12463140
-0.28879300 -0.49737842 -0.00000080
-0.49168426 -0.38704974 0.30842995
-0.40824431 -0.63674242 0.00000297
-0.70437028 -0.26689477 -0.19286671
-0.58658008 -0.61614278 0.18073193
-0.64512383 -0.75747639 0.15007035
-0.57464590 -0.58733187 0.24245783
-0.01087702 0.21491066 0.00000324
-0.04900374 -0.30453471 0.00000184
-0.05054529 -0.79736892 0.00000031
-0.15236376 0.00368021 0.00000967
-0.19107812 -0.51098113 -0.00000025
-0.36062818 -0.23477350 -0.00000041
-0.29956142 -0.25186654 0.00000352
-0.47888374 -0.35613907 0.09822987
-0.28684676 0.33676669 -0.06978834
-0.05702794 0.24586234 0.00000361
-0.20254483 0.12490261 -0.00000323
-0.04522230 -0.45458701 0.00000135
-0.28066444 -0.07372689 0.00000396
-0.12868536 -0.74932873 -0.00000062
-0.53544038 -0.61970219 -0.00000267
-0.37879343 -0.08900107 -0.00775405
-0.13071181 0.55933565 -0.02279534
-0.40395294 -0.58238840 -0.00000176
-0.11004596 0.11128854 0.00000937
-0.29030358 -0.28346300 0.00000337
-0.23716072 0.22742927 0.19778551
-0.38557335 -0.13087062 0.17974242
-0.49116545 -0.09104880 -0.08971218
-0.49693141 0.14486238 -0.16576179
-0.04080318 -0.71948389 0.00000050
-0.17338592 0.38139838 0.15862608
-0.27469056 0.13682411 0.19515930
-0.23948079 -0.11713634 0.00000069
-0.36155552 -0.07288716 0.20099557
-0.21065872 0.29141249 0.15863417
-0.44434162 0.01207903 -0.08669031
-0.01462425 0.00097476 0.00001177
-0.05706285 -0.18977395 0.00000156
-0.16477199 0.25521929 0.00000728
-0.11964159 0.29483193 -0.00000212
-0.00058547 -0.38306196 0.00000130
-0.34970684 0.18960697 -0.07118784
-0.71307755 -0.23940460 -0.20763357
-0.33875528 -0.01784826 0.34713388
-0.65083459 -0.68423280 -0.02648458
-0.41988136 -0.48119809 0.00000353
-0.09995095 0.55869035 0.03292702
-0.04098098 0.44374680 -0.00000133
-0.26234115 -0.10626471 0.00000058
-0.33299696 0.37472703 -0.11525909
-0.24906170 0.19870083 0.11999347
-0.14540853 -0.19890371 0.00000276
-0.63832405 -0.38978359 -0.10692210
-0.15527081 0.13870882 0.00000844
-0.23025517 0.29319026 -0.01493130
-0.10268701 -0.29596841 0.00000096
-0.09051294 -0.21478839 0.00000128
-0.10383739 -0.67807028 0.00000101
-0.04664630 0.49030814 0.00000701
-0.29468406 0.01858743 0.00000078
-0.32351600 0.01895463 0.05040745
-0.21689265 0.12465403 -0.00000281
-0.26019243 0.17183424 0.13459445
-0.20816810 0.28796236 0.00000466
-0.46927528 -0.76818909 0.00000293
-0.53937228 -0.76028303 0.00000338
-0.70014999 -0.33315116 -0.16959655
-0.65915511 -0.25795638 -0.16235941
-0.30269465 0.06922091 0.07543382
-0.25669341 -0.27055773 0.00000011
-0.26437185 0.08878038 0.00000118
-0.03051858 0.57635240 0.00000449
-0.38569004 -0.27886194 0.00000396
-0.04938576 0.49688644 0.00000691
-0.55974570 -0.59956829 -0.00000275
-0.23912674 0.10533406 0.00000747
-0.33228058 -0.45426766 -0.00000093
-0.32772823 0.00879201 0.12242969
-0.55281432 -0.42841297 -0.03232263
-0.44634014 0.18061289 -0.13946381
-0.14779364 0.23322368 0.00000773
-0.39287719 -0.09461452 -0.01639536
-0.10882150 0.53727318 0.07553864
-0.30860753 -0.71416862 -0.00000159
-0.72222551 -0.78034571 -0.04969081
-0.41401766 -0.20517983 0.00000436
-0.25570622 -0.21636806 0.00000337
-0.39158965 -0.14540418 0.40130407
-0.26763314 -0.21204850 0.00000345
-0.36611850 -0.08389611 0.02426856
-0.42435052 -0.22449527 0.38015313
-0.29942945 0.07709854 0.26613493
-0.32865544 0.00654125 0.27407601
-0.26238218 0.13368106 0.00000133
-0.26418165 -0.70683267 -0.00000130
-0.62932850 -0.64705276 -0.02199763
-0.26312094 0.16475666 0.17185956
-0.11639380 0.27939187 0.00000780
-0.06385666 0.12249209 -0.00000747
-0.14283631 0.45515280 0.10498552
-0.08043707 0.65144456 -0.01388832
-0.14276187 0.31746350 -0.00000095
-0.41508863 -0.26023292 0.00000419
-0.54592194 -0.65468569 -0.00000284
-0.13319782 -0.20400963 0.00000267
-0.24978391 -0.17017906 0.00000348
-0.51321198 0.16653539 -0.18432362
-0.15145190 -0.17478391 0.00000287
-0.18121373 -0.52751470 0.00000195
-0.31571169 -0.11995426 0.00000403
-0.33595495 -0.45226470 -0.00000094
-0.69728449 -0.07017142 -0.24754288
-0.57398177 -0.58572808 0.13546052
-0.15851437 0.41730838 0.06670851
-0.26802118 0.22508112 -0.02195228
-0.32031435 0.02668444 0.04181894
-0.06793678 0.32659185 0.00000393
-0.51784180 -0.06576240 -0.11701374
-0.65897128 -0.15464722 -0.19367201
-0.51639757 -0.44670826 0.16187615
-0.48426942 0.01429545 -0.11671152
-0.05984098 0.22693212 0.00000357
-0.10037896 0.27130273 0.00000274
-0.20843514 0.21162285 0.00000442
-0.30651809 -0.56061823 0.00000260
-0.52189429 0.00660427 -0.14202057
-0.46913250 -0.25939327 -0.02227563
-0.26829747 0.35743291 -0.06244746
-0.03506741 0.44330231 -0.00000152
-0.25312784 0.18889318 0.08796699
-0.27401589 0.13846317 0.12015753
-0.64668866 -0.60106285 -0.04875501
-0.51586652 -0.05865668 -0.11772512
-0.21708909 0.32561768 -0.01513008
-0.08043786 0.05849043 0.00000317
-0.62525771 -0.76127958 -0.00000365
-0.50019962 -0.40760714 0.32122282
-0.44824922 -0.00106273 -0.08556145
-0.48102547 -0.36131676 0.27399008
-0.14977059 -0.67368848 0.00000130
-0.16491505 -0.35700347 0.00000039
-0.28836735 -0.09525917 0.00000394
-0.12363929 0.27520740 0.00000411
-0.15999544 -0.17873617 0.00000098
-0.15802701 -0.53101892 -0.00000011
-0.23211607 0.23961233 0.09431845
-0.49973736 0.01021915 -0.12683796
-0.51685247 -0.03711567 -0.12500685
-0.63122583 -0.72392444 0.11863735
-0.64659033 -0.03421036 -0.22123476
-0.55877422 -0.54901022 0.04873114
-0.12863457 -0.35461092 0.00000217
-0.33536370 -0.00964931 0.07517429
-0.66677064 -0.80973509 0.09743003
-0.29669542 -0.53451703 0.00000262
-0.36064675 -0.73513486 -0.00000197
-0.20028718 -0.03328044 0.00000119
-0.33343278 -0.00499155 0.17183220
-0.33555984 0.38518902 -0.12032720
-0.62604972 -0.54295703 -0.05127521
-0.26778041 -0.09833491 0.00000381
-0.48190390 0.06170060 -0.12940342
-0.43996675 -0.31446167 0.00000417
-0.33650144 -0.00480092 -0.00230478
-0.59646615 -0.57001462 -0.02129800
-0.40705319 0.03083348 -0.06499584
-0.47862706 0.10517811 -0.14022808
-0.28650069 0.10830735 0.30763833
-0.33429804 -0.00708252 0.22272822
-0.52690299 -0.47206838 0.10614433
-0.59703634 -0.64138392 0.06226084
-0.11130846 0.17007956 -0.00000503
-0.06586766 -0.42163033 0.00000158
-0.55900171 -0.54956436 0.22572333
-0.11570126 0.31329341 0.00000278
-0.23710402 0.06635289 0.00000128
-0.40098618 0.01542671 -0.05584704
-0.75000428 -0.52719923 -0.14716372
-0.41285895 0.04471979 -0.07349371
-0.16588551 0.32495769 0.00000452
-0.47844280 -0.35507874 0.20248238
-0.24888675 0.37102699 -0.05232073
-0.41551383 -0.54269568 0.00000331
-0.62334103 0.01913554 -0.22038769
-0.37078111 -0.09516033 0.30914498
-0.23806302 0.22525081 0.20078236
-0.16271619 0.41926954 -0.00367703
-0.01617520 -0.09653396 0.00000210
-0.57824293 -0.72379866 0.00000373
-0.00160967 -0.54660215 0.00000080
-0.22619381 0.25390474 0.22392025
-0.27535312 0.41848505 -0.08621711
-0.10183886 -0.61463341 0.00000119
-0.30662030 -0.32617438 0.00000333
-0.57855045 -0.40348616 -0.05882376
-0.18054066 0.18025847 0.00000197
-0.21208595 0.28798001 0.03218018
-0.15152897 -0.27023279 0.00000257
-0.25440515 -0.09025439 0.00000375
-0.05284027 0.36030288 -0.00000275
-0.18358635 0.22777912 -0.00000162
-0.21774122 0.06948837 0.00000811
-0.27046416 0.13920477 0.00000130
-0.20167892 0.31309010 0.19827276
-0.39408980 -0.52126021 -0.00000151
-0.07123677 -0.61773015 0.00000014
-0.39310144 -0.14352256 -0.00167238
-0.04520187 0.07679035 -0.00000900
-0.03294765 0.35285695 0.00000340
-0.09648317 0.07662490 -0.00000746
-0.64267704 -0.75893213 0.00000401
-0.58686139 -0.61682099 0.10333053
-0.09062532 0.18016010 0.00000906
-0.18191234 0.11887286 0.00000397
-0.51625305 -0.42557341 -0.00631837
-0.11422668 0.49161352 0.00000473
-0.23947914 -0.19243728 0.00000334
-0.03226593 0.00316488 0.00000270
-0.16100638 0.41128396 0.16268855
-0.37571548 -0.00692541 -0.03047623
-0.43234100 0.05487772 -0.09090306
-0.25800312 0.17712910 0.01784610
-0.51796030 -0.11154900 -0.10316321
-0.51951746 -0.45423775 0.09720893
-0.33830609 -0.47033314 0.00000307
-0.12995784 0.37783705 0.00000447
-0.47138098 -0.33802377 0.04849894
-0.57829676 -0.02580428 -0.17360509
-0.26004849 -0.39592453 -0.00000031
-0.28481772 0.11237799 0.11900280
-0.61497539 -0.68469261 0.05968843
-0.11844828 0.43534130 0.00000315
-0.07238985 0.62523166 0.02191433
-0.30233245 0.07008726 0.30209103
-0.13509109 -0.18949509 0.00000272
-0.12283514 0.34198827 0.00000431
-0.22216895 0.37049564 -0.03252182
-0.06839563 0.41283286 -0.00000116
-0.19666061 -0.72971380 -0.00000097
-0.24903011 0.08924011 0.00000746
-0.41686246 -0.35266382 0.00000391
-0.19583674 -0.64332765 0.00000167
-0.26095377 0.16998602 0.26053754
-0.03657655 -0.19896658 0.00000210
-0.60281871 0.07768931 -0.22312995
-0.07786912 0.39637268 0.00000327
-0.31109211 0.04893731 0.33150766
-0.25566049 -0.54334124 -0.00000074
-0.13134816 -0.70386092 0.00000109
-0.00157246 0.66267654 0.00000458
-0.23505318 0.23253065 0.06249498
-0.19009473 -0.43778686 -0.00000002
-0.06981041 -0.34547915 0.00000100
-0.32980975 0.00375539 0.16845916
-0.46619004 -0.67656538 0.00000320
-0.38426329 -0.57970087 0.00000301
-0.51226541 -0.28679204 -0.04563343
-0.08939666 -0.36707917 0.00000189
-0.32167446 -0.16316796 0.00000005
-0.72664695 -0.75399972 -0.06095985
-0.04073554 0.34041883 0.00000381
-0.27187016 0.14363552 0.21637465
-0.63028641 -0.17853940 -0.16531881
-0.71496283 -0.42569033 -0.15231265
-0.16756170 0.31941135 0.00000668
-0.09817300 -0.13374525 0.00000267
-0.14054741 0.46068237 0.01385526
-0.51530531 -0.44406552 0.01816250
-0.21342892 0.28472583 0.12847292
-0.02702621 0.07855564 0.00001090
-0.13166990 -0.47906823 0.00000180
-0.12035104 0.41166379 0.00000658
-0.19943233 0.43566713 -0.03565183
-0.37682013 -0.10973991 0.31314768
-0.05057323 0.45316456 0.00000361
-0.16236417 0.14726019 0.00000826
-0.15472463 0.54418712 -0.03583220
-0.30960622 0.05253339 0.11257322
-0.52816234 -0.52199100 0.00000406
-0.01341934 0.15362940 -0.00000833
-0.12416584 0.39473324 0.00000448
-0.37948356 -0.11617027 0.31763807
-0.08535696 -0.71578533 -0.00000025
-0.38130562 -0.12056641 0.15560900
-0.36082165 -0.07111754 0.32252161
-0.11785125 0.24771089 -0.00000318
-0.43618339 0.10376118 -0.10860445
-0.39014823 -0.40514269 0.00000359
-0.17161763 0.34907614 0.00000636
-0.23503871 0.23255773 0.06224378
-0.10067690 -0.25713380 0.00000230
-0.02732921 0.23787266 0.00000341
-0.12384712 0.47526981 0.00000597
-0.71809244 -0.16495931 -0.23398040
-0.57769300 -0.59468565 0.08240747
-0.35960105 -0.06816263 0.05130582
-0.26515591 0.15984336 0.23527403
-0.21729324 0.27539703 0.11588294
-0.22726550 -0.36666904 0.00000273
-0.23887453 -0.52028889 0.00000232
-0.20621043 0.32840603 -0.00798089
-0.04804650 0.67789702 0.00000491
-0.18667280 0.34931977 0.18037615
-0.20047470 -0.18076369 0.00000315
-0.02064808 0.76813897 -0.00547188
-0.11225974 -0.70607950 -0.00000038
-0.47394364 -0.00060120 -0.10458505
-0.04235962 0.18646100 0.00000283
-0.55786754 -0.62858360 0.00000390
-0.27517989 0.24820158 -0.03425158
-0.03230383 0.33993281 0.00000854
-0.44465740 0.17003995 -0.13501011
-0.11214928 -0.41711333 0.00000052
-0.48670986 -0.29113909 -0.02552957
-0.14054216 0.36607361 0.00000449
-0.34712743 -0.03805136 0.12057713
-0.63874848 -0.75919933 -0.00000373
-0.60075257 -0.57507087 -0.02290893
-0.44843992 0.27218865 -0.16888428
-0.60078079 -0.65042548 0.19948917
-0.39920728 0.16893555 -0.10127058
-0.56345551 -0.02301105 -0.16354863
-0.56941819 -0.76067876 -0.00000331
-0.34916407 -0.04295798 0.12388577
-0.22179885 0.15043319 0.00000734
-0.09868832 0.27855744 0.00000277
-0.02664003 0.04315997 0.00001122
-0.22676015 -0.74893695 -0.00000121
-0.20350701 -0.25551714 0.00000293
-0.34304330 -0.02820108 0.36198520
-0.26464475 -0.01650391 0.00000405
-0.06647055 0.19409474 0.00000271
-0.19853772 0.49542494 -0.05318677
-0.36256211 -0.07531337 0.24912381
-0.15271919 -0.00717395 0.00000340
-0.30364802 0.33293865 -0.08097021
-0.31486849 -0.20081919 -0.00000003
-0.03281147 -0.22724343 0.00000199
-0.22895058 -0.14801501 0.00000342
-0.38551810 -0.13074477 0.36716669
-0.29354813 -0.03371085 0.00000062
-0.35664525 -0.60407563 0.00000276
-0.58579843 -0.61919334 0.00000410
-0.40209158 -0.17075219 0.25299737
-0.26475174 0.16082407 0.05900886
-0.05362757 0.49122431 0.00000006
-0.36171403 -0.07327576 0.37008299
-0.45030751 -0.70600489 0.00000301
-0.30657975 0.32901442 -0.08193016
-0.39681276 0.28111395 -0.13366074
-0.56534123 -0.00432575 -0.17062026
-0.28599399 -0.41959123 -0.00000054
-0.47153882 -0.33840894 0.15076973
-0.20668563 0.02003844 0.00000871
-0.56677504 -0.79232252 0.00000344
-0.34182012 -0.02523250 0.17429044
-0.32048025 0.02629170 0.10033278
-0.03919690 0.45874757 0.00000739
-0.26764174 0.48478369 -0.10073162
-0.37205448 -0.09823637 0.26117514
-0.04451666 0.39459095 0.00000346
-0.43293633 -0.08390156 -0.04909563
-0.49507769 -0.43706811 0.00000412
-0.15753318 -0.53870298 -0.00000013
-0.38809219 -0.29852586 -0.00000078
-0.31214966 -0.02754749 0.00000053
-0.30815256 0.05605077 0.12631041
-0.35176004 -0.04924413 0.35818474
-0.43798823 0.14263101 -0.12176560
-0.42182197 0.04484336 -0.08011820
-0.09819400 0.44165986 0.00000447
-0.04918029 0.46363728 -0.00000066
-0.07188323 -0.58087886 0.00000025
-0.04394007 -0.78439169 0.00000031
-0.24193501 -0.67077273 -0.00000106
-0.41622223 0.21735541 -0.12851629
-0.20206961 -0.40693757 0.00000001
-0.51769919 0.10694874 -0.16948160
-0.33654956 -0.01252196 0.31716572
-0.17603319 -0.03585737 0.00000345
-0.32532753 0.01456970 0.34430113
-0.29050960 0.09864041 0.02299356
-0.00562381 -0.05627054 0.00000229
-0.29663091 0.08386239 0.01922737
-0.51580844 -0.42448974 -0.00632149
-0.03111018 0.63888143 0.00000431
-0.11039523 0.01478336 0.00000188
-0.51435531 -0.38567095 -0.01707018
-0.18254785 -0.01619805 0.00000135
-0.16912548 0.33900589 0.00000458
-0.32244836 0.26834501 -0.07512169
-0.23752887 0.22655180 0.08827329
-0.22977976 -0.16122516 0.00000061
-0.29767756 -0.67768245 -0.00000141
-0.50071638 -0.40884759 0.09135527
-0.09516095 0.54615161 0.00000248
-0.65329839 -0.27738460 -0.15214132
-0.62949145 -0.72924272 0.00000402
-0.06161665 0.66288789 -0.00354070
-0.32088957 -0.05368535 0.00000427
-0.01626741 0.62708514 0.00000182
-0.23690978 -0.31449341 0.00000009
-0.38712826 -0.63495871 0.00000285
-0.34458063 -0.03190846 0.26075910
-0.36103925 -0.72223159 0.00000242
-0.58634330 -0.70886313 0.00000382
-0.20534965 -0.23510290 0.00000300
-0.14623958 0.16944895 0.00000215
-0.47752719 0.07402125 -0.12993507
-0.17237929 -0.07994405 0.00000121
-0.16862588 -0.42544607 0.00000219
-0.54983199 -0.52742498 0.12954914
-0.33645913 -0.01228659 0.13070804
-0.21327729 0.28509140 0.18618157
-0.66007458 -0.37852141 -0.12633467
-0.63232128 -0.68013345 -0.01412712
-0.03919985 0.32604125 0.00000376
-0.21586362 0.13324230 -0.00000265
-0.37362728 0.06008363 -0.04933507
-0.03704329 0.59151755 0.00000169
-0.41846286 -0.21026698 0.02730540
-0.14418292 0.61224398 -0.04880165
-0.29202797 -0.48168399 0.00000276
-0.04864207 0.72244124 -0.01213374
-0.31372011 0.19298800 -0.04577062
-0.02700368 0.12961539 0.00001046
-0.38734049 -0.48993270 -0.00000137
-0.21347175 0.28461941 0.21737658
-0.55158729 -0.65523171 0.00000378
-0.24500665 0.19219596 0.00000162
-0.31389342 -0.50855697 -0.00000098
-0.25653378 0.03122910 0.00000786
-0.18503222 -0.78962537 -0.00000108
-0.06153437 0.55514380 0.00000461
-0.10863030 0.53773373 0.10994330
-0.11958467 0.45095120 0.00000119
-0.42371159 0.28190351 -0.15366855
-0.36746560 0.01198520 -0.03016990
-0.19708735 0.19255260 -0.00000196
-0.55028613 -0.62846825 0.00000386
-0.74356419 -0.48604490 -0.15495868
-0.15022937 0.39071667 0.00000631
-0.14497219 -0.11702974 0.00000301
-0.46058584 -0.21272189 -0.03020169
-0.02365397 -0.16882312 0.00000183
-0.13533555 -0.44390425 0.00000193
-0.06185757 0.65065514 0.05721871
-0.06119509 -0.66844084 0.00000004
-0.12012493 -0.78088477 0.00000078
-0.20327260 -0.67300962 0.00000162
-0.14282286 -0.54262118 -0.00000006
-0.51176509 -0.26958402 -0.05050394
-0.44357436 -0.69110797 -0.00000234
-0.28821068 -0.74121478 0.00000192
-0.53043676 0.04623129 -0.16035909
-0.15503084 0.42571779 0.07198126
-0.57837417 -0.53791737 -0.01777285
-0.08620942 0.36844409 0.00000313
-0.47986863 -0.24732369 -0.03383957
-0.21161663 0.13087251 0.00000419
-0.01315690 0.32841900 0.00000361
-0.08512269 0.59448759 0.08053820
-0.04349779 -0.13299847 0.00000235
-0.57171214 -0.58024868 0.13558375
-0.27645266 0.13256860 0.26526983
-0.13346052 -0.76719683 0.00000091
-0.61413245 0.02266169 -0.21469290
-0.22217237 0.12776416 0.00000753
-0.08213255 0.55954886 0.00000375
-0.23149418 -0.29846124 0.00000296
-0.56457433 -0.03482239 -0.16077542
-0.54447144 -0.17670995 -0.10281084
-0.10954976 0.65730088 -0.03706552
-0.59704734 -0.64141065 0.06700148
-0.44377658 -0.35816990 0.00000406
-0.26433016 0.45641225 -0.08966111
-0.31480431 -0.67977302 -0.00000152
-0.06888929 -0.29662452 0.00000116
-0.07791087 -0.48259654 0.00000052
-0.11622012 0.51941185 0.06192406
-0.24034782 0.19615583 -0.00000058
-0.49921491 -0.40522765 0.21453253
-0.39200996 0.14727802 -0.08939103
-0.00165131 0.57674946 0.00000429
-0.16701559 0.37791713 0.00000267
-0.24238357 0.01359149 0.00000108
-0.07465036 0.24700119 0.00000282
-0.45989609 0.10359232 -0.12597975
-0.12063954 0.00228566 -0.00000831
-0.27662783 -0.10039880 0.00000386
-0.37981763 -0.74865480 -0.00000213
-0.61752083 -0.69083851 0.18568517
-0.42987706 -0.65409079 0.00000305
-0.73006180 -0.54897661 -0.12587944
-0.13176643 0.18669473 0.00000838
-0.23198082 0.16530446 0.00000705
-0.40067592 -0.66500007 0.00000284
-0.32889796 0.23659388 -0.07019852
-0.33324789 -0.04959235 0.00000436
-0.01175389 0.22907699 0.00000329
-0.26017505 -0.01186699 0.00000089
-0.44556716 0.09863083 -0.11394149
-0.30458203 -0.79444040 0.00000186
-0.22473638 0.45772887 -0.06096516
-0.55384624 -0.53711307 0.05071478
-0.08509640 0.08230810 0.00000224
-0.15619157 -0.79145819 -0.00000092
-0.42172815 -0.73703430 -0.00000235
-0.23706875 0.13246220 0.00000726
-0.11891361 0.39110601 -0.00000010
-0.09394456 0.48702745 0.00000632
-0.44648511 -0.18030061 -0.02970831
-0.05125106 0.11715824 0.00001020
-0.47851352 -0.35524198 0.01610011
-0.15298366 0.43066078 0.06305511
-0.21968373 0.08590405 0.00000144
-0.67295886 -0.48652273 -0.10292724
-0.50478036 -0.41866572 0.28007877
-0.01342250 0.23934971 0.00000333
-0.06352259 0.63248156 0.00000336
-0.35282175 -0.15453190 0.00000415
-0.20754329 0.23415768 0.00000198
-0.52121183 -0.02855498 -0.13081643
-0.73974940 -0.68821727 -0.09061297
-0.41788995 -0.35409755 -0.00000113
-0.18545676 -0.03354690 0.00000128
-0.34058516 0.39059647 -0.12566618
-0.51190774 -0.43586904 0.16739597
-0.31322250 -0.60040614 -0.00000127
-0.35484618 -0.71051025 -0.00000186
-0.42855814 -0.41696862 -0.00000139
-0.33504468 0.14559914 -0.04701279
-0.46654765 -0.70571992 -0.00000252
-0.07361350 -0.30123262 0.00000111
-0.63981368 -0.74465553 0.00596951
-0.20643113 -0.61020091 0.00000184
-0.03834087 0.30399209 0.00000322
-0.32457739 0.01639590 0.15676599
-0.72266609 -0.54010775 -0.12314428
-0.58302368 -0.00748015 -0.18265681
-0.10960192 0.39331538 0.00000307
-0.45815702 0.14566816 -0.13751034
-0.50599783 -0.57160953 0.00000377
-0.53381568 -0.40393905 -0.02581061
-0.18399564 0.25265968 -0.00000108
-0.25047631 -0.46665218 0.00000255
-0.21026497 0.31811661 -0.00782833
-0.24372526 -0.74822787 0.00000163
-0.11898474 0.20615245 -0.00000403
-0.14727012 0.12483145 -0.00000490
-0.08516365 -0.22780113 0.00000127
-0.35778652 -0.16461435 -0.00000017
-0.11496617 0.23052670 0.00000825
-0.17655674 0.34545409 0.00000631
-0.45974799 -0.67072163 0.00000318
-0.49336650 -0.29002268 -0.03076133
-0.64444789 -0.75584455 0.14719824
-0.64512085 -0.37412647 -0.11668311
-0.23578302 0.23075681 0.16095471
-0.10598955 -0.10897003 0.00000280
-0.22010655 0.26860741 0.05756222
-0.25618713 0.18149788 0.13490375
-0.02621610 0.65699555 0.00000471
-0.34727089 0.10897912 -0.04485016
-0.13390908 -0.43178950 0.00000196
-0.22159316 0.26501800 0.06773264
-0.46757348 -0.32883641 0.16741158
-0.73159724 -0.63346027 -0.10129051
-0.70309653 -0.07473881 -0.25042378
-0.23380547 0.01006002 0.00000838
-0.05278408 -0.28414630 0.00000129
-0.65193721 0.03217534 -0.24537214
-0.35496368 -0.05698007 0.37664127
-0.27129147 -0.01957752 0.00000408
-0.10694693 0.35372312 0.00000729
-0.29487281 -0.43987167 -0.00000065
-0.04444329 0.61481700 0.00000595
-0.15105486 0.43531511 0.01306634
-0.14600227 -0.19965733 0.00000099
-0.43773354 -0.79659721 -0.00000263
-0.08790924 0.05630134 0.00000321
-0.30740961 0.05783322 0.26383923
-0.11395907 0.52487237 0.01578840
-0.59769905 -0.39436767 -0.07567164
-0.64726745 -0.76265142 0.15983915
-0.29436936 0.08933558 0.00625935
-0.06869767 0.64490710 -0.00327001
-0.42844795 -0.23438155 0.23544358
-0.02965534 0.72839968 0.02480520
-0.03831844 0.70692023 0.00000524
-0.38589350 -0.66529453 0.00000275
-0.27166956 0.14413166 0.07034736
-0.45178656 -0.29073058 0.35801751
-0.17203230 -0.38414485 0.00000234
-0.25544504 -0.10924012 0.00000370
-0.39305166 -0.14892541 0.19215825
-0.32400949 -0.74363319 -0.00000178
-0.24676720 0.20423934 0.14279373
-0.00919550 0.02793430 -0.00001113
-0.04986256 -0.73902110 -0.00000011
-0.23908214 -0.28089887 0.00000018
-0.69400150 -0.30417878 -0.17389752
-0.06741208 0.66457774 -0.00831331
-0.30615170 0.06086602 0.29498288
-0.15459892 0.00656508 0.00000961
-0.48354613 -0.41065136 0.00000414
-0.46811124 0.13416948 -0.14132708
-0.06265274 0.37738683 0.00000406
-0.67582245 -0.74689085 -0.02577443
-0.41420117 0.05089636 -0.07635648
-0.21738021 -0.59129263 -0.00000066
-0.05565649 -0.69535778 0.00000066
-0.18066162 -0.34736345 0.00000250
-0.49503381 0.16405221 -0.17020792
-0.11265417 0.01352900 -0.00000831
-0.09863941 -0.60684496 0.00000120
-0.41193884 -0.77284883 0.00000257
-0.60235155 -0.65421622 0.06813895
-0.30750943 -0.02861579 0.00000427
-0.33219243 -0.00199525 0.24419749
-0.14879196 0.62529948 -0.05616322
-0.10010792 -0.33848365 0.00000084
-0.40547780 -0.17892586 0.21778789
-0.41825524 -0.56649408 -0.00000179
-0.35059998 -0.04643763 0.18918444
-0.19106714 0.33870950 0.19220922
-0.26759384 0.30456883 -0.04583572
-0.20908656 0.01647310 -0.00000534
-0.62567645 -0.61487896 -0.02910759
-0.48445902 -0.36960691 0.31347483
-0.12637493 -0.22845150 0.00000255
-0.26141872 0.10977125 0.00000127
-0.49212272 -0.30086548 -0.02654670
-0.22785689 0.04929646 0.00000403
-0.06356796 -0.27097339 0.00000127
-0.15185700 0.43338369 0.02643619
-0.52031064 -0.42146624 -0.01055049
-0.26104320 0.07380412 0.00000742
-0.71286120 -0.14081446 -0.23748594
-0.28041113 -0.20444680 0.00000355
-0.25123370 0.19345304 0.24730361
-0.27246156 -0.78159486 -0.00000159
-0.23620071 0.49701620 -0.08134906
-0.09427097 0.43422752 0.00000443
-0.00988293 0.54052773 0.00000413
-0.08097377 0.07649373 0.00000323
-0.57962154 -0.01480897 -0.17792373
-0.30740361 0.08584802 -0.00851486
-0.32498213 0.01541697 0.00314875
-0.31006478 0.05142088 0.29211332
-0.23916664 0.17184682 0.00000159
-0.26129866 -0.42779139 -0.00000041
-0.09062930 0.49501932 0.00000125
-0.55709970 0.09955011 -0.19618517
-0.02272917 -0.67063520 0.00000027
-0.06760573 -0.44466099 0.00000070
-0.11764370 0.60046924 -0.02571415
-0.46316424 -0.31819447 0.24027415
-0.19519180 0.30446840 0.00000227
-0.02264512 0.17578750 0.00001012
-0.12860447 0.10834119 -0.00000582
-0.14724067 -0.16921861 0.00000108
-0.33839066 -0.01695450 0.19060622
-0.49511524 -0.54164718 0.00000380
-0.49387930 -0.39234680 0.22622232
-0.06410621 0.15360331 0.00000337
-0.59121223 0.03647483 -0.20205357
-0.07530639 0.32207528 0.00000805
-0.19121559 -0.58123448 -0.00000047
-0.31447200 0.28632532 -0.07473541
-0.33677813 -0.57938964 0.00000272
-0.44557739 -0.44846565 -0.00000159
-0.08531239 -0.30719041 0.00000103
-0.75779414 -0.79552203 -0.07120938
-0.49766874 -0.23983761 -0.04919954
-0.12774299 0.47164532 0.00000595
-0.08603774 0.46901299 0.00000345
-0.06190656 0.42885091 0.00000421
-0.17772438 -0.23448766 0.00000069
-0.34533060 0.16609501 -0.06081464
-0.48208649 -0.36387281 0.13795418
-0.04362851 0.30020398 0.00000871
-0.49097432 -0.72458533 -0.00000273
-0.04819718 -0.54062131 0.00000052
-0.64676760 -0.50209070 -0.07894051
-0.07750874 0.47319644 0.00000351
-0.25951453 0.16059921 0.00000457
-0.40350391 -0.17415832 0.16476399
-0.62237355 -0.70255368 0.08053252
-0.32856537 -0.52275066 -0.00000112
-0.02270308 -0.17214044 0.00000183
-0.39576111 -0.15547323 0.35670783
-0.21476714 -0.16084848 0.00000070
-0.18013477 0.58673873 -0.06745882
-0.70830377 -0.33583005 -0.17477305
-0.23982669 0.22099523 0.14321796
-0.46990950 0.15385256 -0.14863884
-0.35049761 -0.04619219 0.30640799
-0.27304381 0.14080568 0.17271812
-0.56140674 -0.06944861 -0.14790723
-0.13644892 0.07560579 -0.00000628
-0.10273721 0.05436031 -0.00000774
-0.62243663 -0.55349899 -0.04541096
-0.69489800 -0.69396408 -0.05590366
-0.23894708 0.22312885 0.07786461
-0.22962667 0.15263958 0.00000436
-0.55629539 -0.18996381 -0.10746566
-0.37114949 -0.52802081 0.00000309
-0.63369462 -0.72988272 0.00475322
-0.18915603 -0.12312658 0.00000097
-0.27963122 0.12489663 0.24504673
-0.59466139 -0.63564884 0.02670585
-0.23647825 0.50985444 -0.08546140
-0.15145754 -0.36981060 0.00000226
-0.27505592 -0.00868898 0.00000413
-0.03394772 0.38977207 -0.00000269
-0.31232318 0.16498651 -0.03622027
-0.07070505 0.05652013 0.00000310
-0.04377296 0.58647757 0.00000407
-0.42889123 -0.62911057 -0.00000205
-0.00784329 0.73541685 0.00000545
-0.56980162 -0.27216130 -0.09237008
-0.30030840 0.07498088 0.21354592
-0.72981189 -0.47097983 -0.14943842
-0.22404901 -0.20284649 0.00000322
-0.27073675 0.14636750 0.24454434
-0.03884516 0.25503235 0.00000353
-0.02214384 0.63064853 0.00000460
-0.00574492 0.07525580 0.00000277
-0.07090618 -0.35904312 0.00000181
-0.56116747 -0.00066486 -0.16866942
-0.11196893 0.38720128 -0.00000039
-0.17867680 -0.47730035 -0.00000007
-0.30945031 -0.71524578 -0.00000160
-0.20869488 0.32364016 -0.00835926
-0.36679321 -0.20432355 -0.00000035
-0.05576683 0.26212027 0.00000298
-0.14247497 0.43896749 0.00000301
-0.72120189 -0.23966817 -0.21352368
-0.33798231 0.30459783 -0.09757377
-0.04125149 0.42277783 0.00000768
-0.16246328 -0.16862652 0.00000295
-0.21566144 -0.56560781 0.00000203
-0.00944284 -0.62914845 0.00000048
-0.13234702 -0.40767611 0.00000202
-0.17242171 -0.48273229 0.00000203
-0.03652908 0.42355889 0.00000404
-0.10065122 0.10056896 0.00000342
-0.33809684 -0.00038677 -0.00481509
-0.55411807 -0.58927174 -0.00000269
-0.36554962 -0.08252943 0.19149433
-0.11139467 0.40789736 0.00000003
-0.07576141 0.18192631 -0.00000585
-0.05540677 0.48020760 0.00000696
-0.08978196 0.46421477 0.00000449
-0.37306794 -0.71535928 -0.00000199
-0.34630125 0.21585992 -0.07667659
-0.46310555 0.22754953 -0.16607325
-0.46746129 -0.32857178 0.34409612
-0.36354432 -0.07768183 0.03340712
-0.40427885 -0.17603012 0.18790379
-0.01625367 0.23430324 0.00000333
-0.41416590 0.06551508 -0.08078435
-0.08400884 -0.64482824 -0.00000002
-0.66421815 -0.07049492 -0.22314417
-0.37283039 0.25247347 -0.10731639
-0.06006055 0.28061005 -0.00000422
-0.51980206 -0.45492295 0.05012890
-0.68321527 -0.02921382 -0.24967115
-0.25194495 0.19173528 0.23823990
-0.17404353 -0.78874059 -0.00000102
-0.58440849 -0.29388095 -0.09649303
-0.11251658 0.01904307 0.00000188
-0.34647667 -0.71060556 -0.00000181
-0.04036250 0.21578436 0.00000293
-0.40487118 -0.17745949 0.17149817
-0.46513816 -0.39458152 0.00000407
-0.68335070 -0.13250041 -0.21832986
-0.44408030 -0.27211828 0.15621912
-0.54338199 -0.51185410 0.15055312
-0.40591180 -0.07578004 -0.03170770
-0.02661064 0.46578266 0.00000379
-0.56831835 -0.57205617 0.22230493
-0.05156434 0.57040817 0.00000459
-0.09917612 0.56056378 0.03575524
-0.16332625 0.55692538 -0.04603030
-0.24073863 0.21879790 0.03610910
-0.18665620 -0.67562727 0.00000152
-0.07808003 0.53830211 0.00000465
-0.48843580 -0.37920739 0.28599722
-0.28652629 0.10825635 0.03904346
-0.27244088 0.14226570 0.11772590
-0.23706458 0.06912739 0.00000129
-0.08724875 0.29876742 0.00000807
-0.31013060 0.05128404 0.02044721
-0.03324546 0.75297339 -0.01011315
-0.43611037 0.20869635 -0.14049611
-0.19750015 0.34089424 -0.00538454
-0.20268051 0.13690027 0.00000774
-0.15271808 0.25094063 0.00000750
-0.46563491 0.05582978 -0.11566035
-0.58640359 -0.61571668 0.13262044
-0.49392668 -0.39246099 0.22152034
-0.11858865 0.51369671 0.05825276
-0.32295539 0.02030853 0.19565076
-0.15086305 0.36435947 0.00000273
-0.63648125 -0.15255654 -0.17778064
-0.32946411 -0.40251742 0.00000323
-0.33405811 0.28988363 -0.09021228
-0.31353884 0.34959215 -0.09330829
-0.11548671 -0.77316896 0.00000078
-0.15061433 -0.71927147 -0.00000066
-0.58768392 -0.09656089 -0.15896508
-0.06755363 0.63690502 0.02244250
-0.11072561 0.64329827 -0.03366741
-0.29004683 0.09977065 0.00954042
-0.10210418 0.55349099 0.05755184
-0.14835195 0.30686512 -0.00000100
-0.54569932 -0.55101525 -0.00000252
-0.05107886 -0.32774630 0.00000117
-0.15304106 -0.36620283 0.00000043
-0.51983230 -0.45500341 0.27090190
-0.27330137 -0.22200649 0.00000016
-0.01192454 0.34371968 0.00000350
-0.25437020 -0.47440452 -0.00000052
-0.34244976 -0.02676812 0.36143107
-0.50740710 -0.65581880 0.00000351
-0.50809829 -0.59643143 0.00000370
-0.34123031 -0.07684475 0.00000020
-0.26250586 0.16624172 0.22691236
-0.05046483 -0.68661302 0.00000005
-0.21094730 -0.79080484 0.00000130
-0.48057594 -0.36022381 0.08304199
-0.51029596 0.15446544 -0.17850584
-0.35407366 -0.05482106 0.11977406
-0.23678149 0.49022556 -0.07970915
-0.41607658 0.17707111 -0.11614656
-0.18121002 0.50920047 -0.04464607
-0.33370886 -0.00565279 0.04061857
-0.32828111 -0.32176007 0.00000348
-0.58638957 -0.04060903 -0.17504583
-0.39060288 -0.14301898 0.32851429
-0.19288984 0.33431432 0.13630376
-0.14854373 0.30720885 0.00000256
-0.00781018 0.00189106 -0.00001172
-0.35823054 -0.06485771 0.26772241
-0.49445201 -0.39373149 0.28663709
-0.10102269 -0.70357206 0.00000091
-0.05238396 0.43809220 -0.00000111
-0.53973855 -0.25135545 -0.07661030
-0.31044926 0.10295681 -0.01596106
-0.33742177 -0.01462578 0.27015003
-0.29541896 -0.58141857 -0.00000110
-0.14180491 0.06153109 -0.00000641
-0.00181674 0.31446137 -0.00000526
-0.25941402 0.17370445 0.20992627
-0.00585739 0.30607884 0.00000342
-0.57544083 -0.61757558 -0.00000290
-0.66302259 -0.73881398 -0.01882674
-0.36631878 -0.17043685 -0.00000024
-0.52198900 -0.77390607 0.00000323
-0.24401356 0.21088927 0.09199997
-0.25496683 0.11750005 -0.00000181
-0.22140468 -0.40164544 -0.00000009
-0.34420240 -0.30067850 -0.00000052
-0.04059199 -0.13197024 0.00000184
-0.16788354 0.28025353 -0.00000098
-0.21756393 0.27475493 0.03547611
-0.24741786 0.20268033 0.06022297
-0.02184458 -0.60866748 0.00000047
-0.37229559 -0.09882069 0.35998314
-0.54353782 0.08933945 -0.18311116
-0.20716663 0.04851199 0.00000390
-0.19836123 0.33763226 -0.00502438
-0.54083142 -0.66558741 0.00000368
-0.30347414 0.14535550 -0.02374142
-0.05969003 0.57208391 0.00000465
-0.16982113 0.28134307 0.00000235
-0.31375748 -0.55185255 -0.00000112
-0.15526508 -0.26586925 0.00000073
-0.20256746 -0.38612244 0.00000007
-0.10738293 0.54075307 0.01150103
-0.62501798 -0.33559885 -0.11363760
-0.11569447 -0.53486776 0.00000013
-0.11894050 0.30567406 -0.00000192
-0.14724884 -0.56889832 -0.00000017
-0.71503103 -0.10076918 -0.25127048
-0.31871628 0.03054135 0.07149717
-0.26684735 0.15575651 0.26583312
-0.05335651 -0.59963599 0.00000030
-0.25931803 -0.53237356 -0.00000073
-0.51865862 0.08109649 -0.16231840
-0.03275241 0.44003732 0.00000766
-0.46087101 -0.53258102 0.00000362
-0.64966777 -0.76844580 0.01470362
-0.35269613 -0.05149214 0.21205034
-0.21847834 0.02401667 -0.00000490
-0.37659081 -0.10918940 0.29383854
-0.12655357 -0.64503945 0.00000125
-0.20126522 0.31409252 0.10740876
-0.00303417 0.15129592 0.00000295
-0.18788475 -0.11246087 0.00000101
-0.19433356 -0.67339423 -0.00000078
-0.59713566 -0.54167141 -0.03041780
-0.19222270 0.33592481 0.06539948
-0.17167608 0.19467349 0.00000207
-0.60891899 -0.67007099 0.05602934
-0.12162444 -0.06914199 0.00000155
-0.11065505 -0.14851829 0.00000137
-0.21980594 0.38565552 -0.03540242
-0.00222503 -0.15561684 0.00000203
-0.42671099 -0.23019314 0.35988457
-0.02011644 0.11126054 0.00001072
-0.25413080 0.18646225 0.20639022
-0.36533816 0.10048155 -0.05554117
-0.27257407 -0.17836870 0.00000030
-0.17625422 0.38849817 -0.00426186
-0.64680865 -0.76154378 0.13421028
-0.39872737 0.06054531 -0.06792193
-0.20534904 -0.12133081 0.00000336
-0.17866161 0.36866418 0.06730365
-0.06110001 0.65248391 0.06372429
-0.06432377 0.27106693 0.00000374
-0.01303178 0.76853358 0.00096246
-0.44664559 0.19122852 -0.14291987
-0.39117643 -0.14439916 0.21634407
-0.28776496 -0.79216232 0.00000176
-0.48766055 -0.37732653 0.05583669
-0.62187220 -0.11185477 -0.17943431
-0.65541543 -0.56011789 -0.06763205
-0.56456216 -0.22039413 -0.10427775
-0.20638627 -0.36633675 0.00000260
-0.61647838 -0.68832187 0.18012833
-0.01890930 -0.55610058 0.00000088
-0.26183062 0.16786891 0.24278982
-0.06725091 -0.07099337 0.00000268
-0.27701524 0.13123035 0.01989464
-0.13609132 0.48728831 -0.00481849
-0.43477062 -0.24964433 0.19760396
-0.30295847 0.06859495 0.06811647
-0.32483955 -0.12904883 0.00000406
-0.39994841 -0.70981651 0.00000270
-0.14145558 0.16990582 0.00000838
-0.24583024 -0.26531518 0.00000019
-0.10254298 0.00958015 0.00000315
-0.44819882 0.00843572 -0.08841975
-0.15683943 0.42134433 0.15151723
-0.38068386 0.15906510 -0.08465278
-0.36832781 -0.09977835 0.00000441
-0.12445541 -0.40763048 0.00000198
-0.26980282 0.14863590 0.09974352
-0.30375870 -0.24823965 -0.00000011
-0.25573829 0.48350801 -0.09159553
-0.03620320 0.54720174 0.00000443
-0.29594290 -0.56959486 0.00000251
-0.65399637 -0.57677520 -0.06151865
-0.15197752 -0.52491165 0.00000178
-0.33446522 -0.18640738 -0.00000010
-0.34718601 -0.03819748 0.30713414
-0.46741005 -0.53708623 -0.00000200
-0.12336625 0.55720551 -0.01674856
-0.03983884 0.33787249 0.00000332
-0.02050418 -0.72864624 0.00000010
-0.08843699 0.01208665 0.00001056
-0.35680084 0.20247129 -0.08031454
-0.31726052 -0.40451945 -0.00000068
-0.32550918 0.17449922 -0.04880276
-0.61727700 -0.39802401 -0.08894635
-0.50527510 -0.41985797 0.20684152
-0.29212758 0.09472471 0.26020867
-0.48130364 0.13246069 -0.15050193
-0.04704596 -0.51853034 0.00000060
-0.12674280 0.35554205 0.00000438
-0.55200097 -0.53266201 0.14585452
-0.26497444 0.16029186 0.10737097
-0.61990053 -0.57962522 -0.03559428
-0.38952710 0.13761244 -0.08462119
-0.02472238 0.72120850 0.00000490
-0.07129858 0.02861306 0.00000302
-0.09551120 0.03687209 0.00000319
-0.04836445 0.68323188 0.02302922
-0.01279392 0.36928748 0.00000858
-0.13433548 0.60601767 -0.03966927
-0.16643907 -0.50882038 -0.00000009
-0.28457940 0.11295867 0.14893147
-0.09460693 0.33531651 -0.00000202
-0.36465062 -0.08036282 0.28589232
-0.54698452 -0.52054827 0.07302674
-0.16092139 0.41149558 0.08903730
-0.08085096 -0.78654272 -0.00000045
-0.01101720 0.09288266 0.00000272
-0.23558776 -0.40369828 -0.00000018
-0.37733640 -0.27372275 -0.00000063
-0.14434403 0.48084494 -0.00892196
-0.67142605 -0.46895399 -0.10714878
-0.20863069 -0.66269246 0.00000169
-0.40253733 -0.17183156 0.33320823
-0.27988895 -0.58690546 -0.00000102
-0.28230183 -0.02809742 0.00000412
-0.55018918 0.00669392 -0.16284159
-0.62264219 -0.64426136 -0.01793362
-0.43290499 -0.24514056 0.20438246
-0.10534670 0.37341095 0.00000714
-0.61598283 -0.64970123 -0.01138378
-0.26560043 0.15877415 0.18681999
-0.30711704 0.05854138 0.14807125
-0.16868380 0.37195610 0.00000264
-0.30468245 0.06442294 0.05043088
-0.35613943 -0.72115353 -0.00000190
-0.27255146 0.14198942 0.16907294
-0.19025920 0.25608346 0.00000445
-0.32427506 -0.58685919 0.00000262
-0.38183203 -0.12183217 0.02801278
-0.09832257 -0.52033768 0.00000147
-0.70265556 -0.80037968 -0.02921099
-0.41606210 0.04739890 -0.07666322
-0.33862228 0.25575659 -0.08317806
-0.22528876 0.03570727 0.00000397
-0.07737387 0.47993651 0.00000053
-0.44571874 -0.27607966 0.30108467
-0.03234078 0.09592698 0.00000260
-0.56160830 -0.36405837 -0.05837504
-0.25444214 0.07962007 0.00000121
-0.20068820 0.00914324 -0.00000575
-0.00011321 0.19633400 0.00000311
-0.18094911 0.36314875 0.04515154
-0.11463927 0.36000920 0.00000712
-0.19315945 -0.37255476 0.00000017
-0.44154032 -0.26598968 0.24246972
-0.51235272 0.16470337 -0.18313449
-0.33242787 -0.53168864 0.00000284
-0.30360073 -0.60484080 0.00000244
-0.23304903 0.23736254 0.02963891
-0.28894066 0.10242133 0.19315581
-0.03358468 -0.35301379 0.00000119
-0.55319139 -0.57145602 0.00000405
-0.71891493 -0.44529621 -0.14924880
-0.11565604 0.40118424 0.00000306
-0.74251088 -0.67309541 -0.09724548
-0.01022977 -0.02541224 0.00000236
-0.57231848 -0.23144391 -0.10661423
-0.55860756 0.04235765 -0.17988289
-0.54011664 -0.50397293 0.24905130
-0.16258565 0.40747681 0.10076978
-0.41621247 -0.32381744 0.00000400
-0.15572663 0.42403346 0.08702806
-0.13730035 0.04870238 0.00000950
-0.63618751 -0.17837424 -0.16970577
-0.55586196 -0.28139247 -0.07931591
-0.15761637 0.21134673 0.00000411
-0.17825602 0.36964343 0.06619508
-0.11556537 -0.04807361 0.00000165
-0.67549517 -0.43943644 -0.11912440
-0.30636629 0.06871085 -0.00253592
-0.06603741 0.63692742 0.00000409
-0.05203362 0.45878463 0.00000425
-0.20445843 -0.04681561 0.00000359
-0.06636926 0.19821529 0.00000352
-0.53425299 -0.48981539 0.16811245
-0.19738260 0.32346263 0.19123087
-0.42745423 -0.23198584 0.31879824
-0.36547486 -0.08234698 0.14307343
-0.66263396 -0.14982380 -0.19783195
-0.09596672 0.43062563 0.00000442
-0.23810944 0.22515158 0.07137198
-0.20948309 0.52335823 -0.06973299
-0.33314404 -0.50795501 0.00000292
-0.74592971 -0.68197987 -0.09705339
-0.49988676 -0.40684537 0.10825618
-0.26253334 0.48935796 -0.09836992
-0.12134331 -0.55627718 0.00000149
-0.18050603 0.30074630 0.00000235
-0.09751502 -0.01184349 0.00000305
-0.29626934 0.04921470 0.00000087
-0.00968379 -0.06904748 0.00000223
-0.57189059 -0.58068009 0.18603810
-0.01026989 -0.23826582 0.00000169
-0.44644260 -0.51634066 0.00000358
-0.23708068 -0.54807032 0.00000222
-0.35872190 -0.65647468 0.00000261
-0.53233447 -0.40174225 -0.02539079
-0.21158066 0.45593142 -0.05074996
-0.21590975 0.02170210 0.00000387
-0.13101290 0.48369794 0.11339252
-0.06051417 0.06417433 -0.00000881
-0.11923326 0.12937068 0.00000362
-0.68930537 -0.58386395 -0.08530887
-0.11403228 -0.46639062 0.00000035
-0.03527355 0.01010824 -0.00001072
-0.29376120 0.09078502 0.23728557
-0.53751282 -0.52457321 0.00000410
-0.34040322 -0.50250435 -0.00000112
-0.34477486 -0.03236884 0.04809021
-0.72479622 -0.32751639 -0.18942358
-0.46049616 -0.31174705 0.08884212
-0.33858501 -0.01741677 0.10531500
-0.08291245 0.36861752 0.00000315
-0.07332902 -0.47470946 0.00000057
-0.51472196 -0.31042911 -0.04024352
-0.12986817 0.60981963 -0.03754413
-0.22636550 -0.47630328 -0.00000035
-0.47937006 -0.04700934 -0.09444961
-0.25162569 0.19251125 0.10838547
-0.09892244 -0.51159917 0.00000030
