ply
format ascii 1.0
element vertex 1402
property float x
property float y
property float z
end_header
-0.12398590 -0.17701050 0.00000000
0.40255535 0.12994430 -0.00000027
0.00788303 0.45194772 0.00000000
-0.78271713 -0.55624772 0.00000000
0.48788559 -0.19148580 -0.00000016
-0.55094143 0.29274693 0.00000000
-0.47025794 0.41821388 0.00000000
-0.45969647 -0.31601265 0.00000000
0.41748649 0.35353980 0.15563017
-0.62310153 0.61795573 0.00000000
0.28605397 0.45218363 0.33175459
-0.37712560 0.43701759 0.00000000
0.16095771 0.62941788 -0.00000019
-0.43768287 -0.13448207 0.00000000
0.00137737 -0.53076403 0.00000000
-0.06195869 -0.75099148 0.00000000
0.33831260 0.40869511 0.28464701
-0.32411130 0.21321842 0.00000000
-0.18389096 -0.18938735 0.00000000
0.79388853 -0.18573206 -0.00000077
0.46541860 -0.66105556 0.00000000
-0.57090639 0.35745152 0.00000000
-0.09133849 0.53437194 0.00000000
0.41724680 -0.10375107 -0.00000009
-0.21975586 -0.29300001 0.00000000
0.33842311 -0.73863815 0.00000000
-0.65201351 -0.12837991 0.00000000
0.55854349 -0.14316241 -0.00000036
0.59374608 -0.69564306 0.00000000
-0.52445766 0.66488213 0.00000000
-0.26955190 -0.44991371 0.00000000
-0.33285707 0.67870062 0.00000000
-0.38511386 0.60250316 0.00000000
-0.36354941 -0.38485935 0.00000000
0.68779671 -0.18247120 -0.00000060
0.11487099 0.58550928 -0.00000006
0.46713161 -0.68524286 0.00000000
0.48089830 0.25434393 0.34784732
-0.11880519 -0.23959640 0.00000000
0.06560571 0.37876232 0.00000000
-0.62527681 -0.07514710 0.00000000
-0.12020498 -0.41886526 0.00000000
0.65366994 -0.10740946 -0.00000059
0.01231305 0.38654335 0.00000000
-0.77287176 0.76174818 0.00000000
-0.33650896 0.38701863 0.00000000
0.46084018 0.31194633 0.14617488
-0.13850410 0.29789715 0.00000000
-0.59635813 -0.53539918 0.00000000
0.47342593 0.28436442 0.22672866
0.06121607 -0.14030830 0.00000000
0.56744995 -0.52534190 -0.00000004
-0.22265524 0.57558034 0.00000000
-0.06212292 -0.47562173 0.00000000
-0.67427067 0.50662565 0.00000000
-0.19660237 -0.51654220 0.00000000
-0.34250674 0.75024084 0.00000000
0.47181754 0.29293886 0.18930963
-0.57802459 0.27148426 0.00000000
0.13656714 -0.74317110 0.00000000
0.72383485 0.07468061 -0.00000090
0.79129986 -0.08996301 -0.00000089
0.40926141 0.37489574 0.08509610
-0.74992187 0.46555949 0.00000000
-0.53223653 0.70429454 0.00000000
0.34306608 -0.78098401 0.00000000
0.53594443 0.23453342 0.15857608
-0.68161078 -0.12022663 0.00000000
-0.40305300 -0.72621613 0.00000000
0.54037531 0.11368491 -0.00000055
0.52573081 0.21662608 -0.00000061
0.56157877 0.21735107 0.11317509
-0.41831555 0.28383621 0.00000000
-0.15527068 -0.66063862 0.00000000
0.20801831 -0.05452603 0.00000000
-0.66591297 -0.42441254 0.00000000
-0.21783618 0.23918660 0.00000000
0.31749765 -0.66716376 0.00000000
0.21402463 0.37757506 -0.00000008
0.36752818 -0.73531332 0.00000000
-0.54888779 0.54281508 0.00000000
-0.33880977 0.34728989 0.00000000
0.29226193 0.47494818 0.17612942
0.24771910 0.51441649 0.20338650
0.04798699 -0.37688357 0.00000000
-0.67766084 0.24513741 0.00000000
0.17581310 0.35103914 0.00000000
0.20530338 -0.09640705 0.00000000
-0.77608726 0.74535316 0.00000000
-0.60115007 0.12209760 0.00000000
-0.25014430 -0.26149258 0.00000000
0.70237525 -0.60932267 -0.00000024
-0.55659443 0.71618948 0.00000000
0.14880614 -0.47168977 0.00000000
-0.00625864 0.57342645 0.00000000
0.52205572 -0.67295019 0.00000000
0.28139106 0.04211442 0.00000000
0.59411357 0.18195633 -0.00000072
0.06393370 -0.56580541 0.00000000
-0.35925318 0.05696270 0.00000000
0.48202364 -0.52271378 0.00000000
-0.10744147 0.05206282 0.00000000
0.20181896 0.55012712 0.25811848
0.65914618 -0.26364019 -0.00000047
0.10313758 0.67535291 0.11553418
0.74412036 -0.33430602 -0.00000058
0.17449258 0.30922991 0.00000000
-0.77634837 -0.15593247 0.00000000
-0.46798033 0.48453181 0.00000000
0.10348053 0.48711877 0.00000000
0.45579885 0.05210551 -0.00000031
0.07706992 -0.69778819 0.00000000
0.61522400 0.16098182 0.12780740
-0.70066758 -0.69529190 0.00000000
-0.79374130 0.43737205 0.00000000
-0.09132862 -0.69641362 0.00000000
0.30994183 0.03230756 0.00000000
-0.26963326 -0.78480061 0.00000000
0.42357754 0.30322929 0.39315695
-0.37077960 0.58213180 0.00000000
0.05764331 0.01639899 0.00000000
0.76963669 -0.62075174 -0.00000022
0.41209101 -0.05173686 -0.00000013
0.38707791 0.33674000 0.40921121
0.30317802 0.38830799 -0.00000028
0.73359935 -0.33925865 -0.00000056
0.56020047 0.18608226 0.28854320
-0.28407793 0.51106461 0.00000000
0.78124494 -0.58929275 -0.00000026
0.00835451 -0.59025024 0.00000000
-0.30104590 0.57732737 0.00000000
-0.78223379 0.76525218 0.00000000
0.34354411 0.36291828 0.50243534
0.44112024 -0.07286070 -0.00000017
-0.54673595 0.62443585 0.00000000
0.03217464 -0.25578923 0.00000000
0.05351623 0.38201435 0.00000000
0.42322738 -0.79532689 0.00000000
-0.22999739 -0.12731981 0.00000000
-0.78264118 0.10103328 0.00000000
-0.62298314 -0.13489508 0.00000000
-0.30402509 -0.48508757 0.00000000
-0.33886153 -0.55163896 0.00000000
0.55035602 0.10066213 -0.00000056
0.43116645 0.31645910 0.28132982
0.67254645 -0.57570803 -0.00000022
-0.50892141 -0.52006950 0.00000000
-0.34784365 -0.50531100 0.00000000
0.08868309 0.69649590 0.07960682
0.48075453 0.30805081 0.06012765
-0.54168092 -0.50113379 0.00000000
-0.35122672 0.02992603 0.00000000
-0.14433095 0.37184527 0.00000000
-0.63341409 -0.02099228 0.00000000
-0.56747449 -0.51517385 0.00000000
0.15220141 -0.67727336 0.00000000
-0.46682241 0.32391993 0.00000000
-0.40454693 0.63988670 0.00000000
-0.63676016 -0.00836522 0.00000000
0.56324360 -0.07158829 -0.00000043
-0.77186569 0.47323750 0.00000000
0.59405586 0.06073534 -0.00000061
-0.25321697 0.72900909 0.00000000
-0.42918099 -0.12358029 0.00000000
0.51092118 -0.71924830 0.00000000
0.29166922 0.09635566 -0.00000000
-0.36509485 0.07967576 0.00000000
0.47598419 -0.57643418 0.00000000
-0.33070924 0.12836784 0.00000000
-0.62035774 0.70928288 0.00000000
0.00943903 -0.38637129 0.00000000
-0.38449275 -0.60912231 0.00000000
-0.51647094 -0.16013071 0.00000000
0.18098601 0.60294725 0.08629904
-0.18656366 -0.75412226 0.00000000
-0.33891400 -0.61786088 0.00000000
-0.52273475 0.13952027 0.00000000
0.27578186 -0.42597808 0.00000000
-0.32561378 -0.34636160 0.00000000
-0.21752073 -0.13097952 0.00000000
-0.72639604 0.14964240 0.00000000
0.40877805 0.38752397 0.01985835
-0.10550866 0.17979724 0.00000000
0.09114158 -0.56119410 0.00000000
0.34201710 0.35654422 0.54487576
-0.64745445 -0.39308263 0.00000000
-0.25654634 0.32893986 0.00000000
0.54210032 0.11641010 -0.00000055
0.19757641 0.57386165 0.15341766
0.27335052 -0.61985993 0.00000000
0.11666554 0.34951075 0.00000000
-0.41049462 0.61656513 0.00000000
-0.02371454 0.27023599 0.00000000
0.58896699 0.18926449 0.11692641
-0.48342915 0.56475641 0.00000000
0.59183197 0.15572563 -0.00000069
0.25276088 0.50542187 0.22461915
0.60808046 0.05157950 -0.00000064
0.13266711 -0.45650712 0.00000000
0.08071860 -0.49165901 0.00000000
-0.24578764 0.42825533 0.00000000
-0.07363554 -0.60155086 0.00000000
-0.60198321 0.15102286 0.00000000
-0.64397940 -0.46708292 0.00000000
-0.73243329 -0.51934189 0.00000000
-0.75748156 0.15059266 0.00000000
-0.57992956 0.37025822 0.00000000
0.36532198 0.42611928 0.04596861
-0.05836341 -0.31879380 0.00000000
0.36480936 -0.44957953 0.00000000
0.39699566 0.14910803 -0.00000027
0.29577190 0.43434184 0.37539190
0.22692152 -0.15949319 0.00000000
-0.75661725 0.65104635 0.00000000
-0.79987347 -0.57496935 0.00000000
0.41738254 0.16061722 -0.00000033
-0.41649152 -0.70009073 0.00000000
0.62656468 -0.42606297 -0.00000025
-0.61880873 0.30833190 0.00000000
-0.53143429 -0.21343432 0.00000000
-0.37795893 0.63019920 0.00000000
0.16305255 -0.63270159 0.00000000
-0.38846170 0.74630802 0.00000000
0.16184978 -0.66962534 0.00000000
0.62483318 0.00835242 -0.00000063
0.20907760 0.55635554 0.18567311
-0.17361876 -0.63064667 0.00000000
0.23720224 0.24811411 -0.00000002
0.27286510 -0.68618410 0.00000000
0.74957373 -0.44885864 -0.00000044
-0.71136252 0.12426615 0.00000000
-0.13982178 -0.48491782 0.00000000
-0.32626124 -0.72658069 0.00000000
-0.42655028 0.45605402 0.00000000
-0.21748197 0.42008191 0.00000000
0.03447776 0.40441810 0.00000000
0.34292954 0.38950738 -0.00000037
0.72930584 -0.74263675 -0.00000007
-0.33666380 -0.57155110 0.00000000
0.30493099 0.45140291 -0.00000034
0.32431919 -0.43751395 0.00000000
-0.49476660 -0.63955938 0.00000000
0.19398428 0.56740227 0.20740906
0.16410748 -0.45596517 0.00000000
0.02035192 0.17019003 0.00000000
-0.09079979 0.13025271 0.00000000
-0.64272334 -0.11666766 0.00000000
0.08274451 -0.52990314 0.00000000
-0.04546156 -0.33651686 0.00000000
0.71973457 -0.49758116 -0.00000038
0.32083609 0.47761688 0.00830437
0.69455342 -0.13762945 -0.00000065
-0.03031416 -0.50116569 0.00000000
-0.11985532 -0.43742220 0.00000000
-0.72319961 0.77164174 0.00000000
0.02876701 -0.38034805 0.00000000
-0.31503296 -0.11613030 0.00000000
-0.34162473 -0.70573931 0.00000000
-0.78516358 -0.48871494 0.00000000
0.65692072 0.13646437 0.03552668
0.23971438 -0.39681121 0.00000000
0.72639754 0.06868482 0.02640949
0.07337984 -0.32922407 0.00000000
0.47924725 0.26885001 0.27879631
0.35243748 -0.21261768 0.00000000
0.78007987 -0.42040620 -0.00000047
0.18627333 0.56597037 0.25651953
-0.01770573 0.77797290 0.00000000
0.59045789 -0.74313879 0.00000000
0.24539171 0.33463721 -0.00000011
0.03403125 0.12956532 0.00000000
0.10075225 0.20386279 0.00000000
0.03351025 0.50860121 0.00000000
0.49898453 0.24251512 0.31423603
0.76078989 -0.11068261 -0.00000082
0.05718728 0.74236080 0.00242214
-0.47126157 -0.58637433 0.00000000
0.19703560 -0.08169669 0.00000000
0.54650968 -0.67364727 0.00000000
-0.38119061 -0.78426570 0.00000000
-0.09364026 0.74378419 0.00000000
-0.16072781 0.22016764 0.00000000
0.06407558 -0.47688158 0.00000000
0.11184295 -0.06531174 0.00000000
-0.39682049 -0.65564740 0.00000000
-0.74251621 0.30309233 0.00000000
0.49226700 0.29655468 0.06003985
-0.36276220 -0.65676195 0.00000000
0.27998472 -0.61719576 0.00000000
-0.64599882 0.64669291 0.00000000
0.34599963 0.18918374 -0.00000020
0.58870424 0.17302313 0.20558028
-0.08045518 0.06704367 0.00000000
-0.07475176 0.66434291 0.00000000
-0.66742746 0.77988305 0.00000000
-0.29521626 0.73118881 0.00000000
0.65679499 -0.49336991 -0.00000026
0.20383308 -0.23291551 0.00000000
-0.16133637 -0.71185065 0.00000000
-0.47661715 -0.06954184 0.00000000
-0.41264949 0.40965834 0.00000000
-0.50860537 -0.11157327 0.00000000
0.33430523 0.46195636 0.02007560
0.26732045 0.52205218 0.05708063
-0.54336515 0.77971152 0.00000000
-0.67777885 -0.31006426 0.00000000
-0.52281722 -0.03892113 0.00000000
-0.03077095 0.37736437 0.00000000
-0.51904356 -0.19719414 0.00000000
0.24370631 0.50264928 0.28814830
0.57968714 -0.45291401 -0.00000013
0.51584622 0.27836890 0.03106830
-0.09803479 -0.05215433 0.00000000
0.13690537 -0.38887030 0.00000000
-0.00021703 0.04555197 0.00000000
-0.39600386 -0.02421567 0.00000000
0.24200701 -0.24180188 0.00000000
0.55554541 0.10567414 -0.00000057
-0.27506643 0.00230794 0.00000000
0.24945985 0.52231372 0.15161630
-0.30913196 -0.26096182 0.00000000
-0.07603039 0.58693906 0.00000000
-0.30505492 -0.06685366 0.00000000
0.00542883 0.60068861 0.00000000
-0.02907218 0.43078290 0.00000000
-0.42630015 -0.62560784 0.00000000
0.69643464 -0.40066615 -0.00000042
0.17430938 -0.49753993 0.00000000
-0.21064833 0.27431412 0.00000000
0.31253366 -0.71038879 0.00000000
0.27280608 -0.03839542 0.00000000
-0.76504074 -0.64187504 0.00000000
0.45101181 -0.57125974 0.00000000
0.29091269 0.00232865 0.00000000
-0.54287496 -0.62685683 0.00000000
0.32210418 0.46257605 0.08228638
-0.74366508 -0.69828366 0.00000000
0.32266775 0.41968667 0.30964184
0.52015285 0.24567230 0.18356868
0.26769637 0.51424255 0.09701175
-0.04675776 0.00723881 0.00000000
-0.30308028 0.69692908 0.00000000
-0.36325433 -0.24322503 0.00000000
-0.21066563 -0.09753156 0.00000000
-0.01640301 -0.42665015 0.00000000
-0.71162152 -0.70311161 0.00000000
-0.33645515 -0.00074509 0.00000000
0.35558283 -0.58105882 0.00000000
-0.50072802 -0.60832034 0.00000000
0.03104127 -0.64972194 0.00000000
0.68927925 -0.39617992 -0.00000041
0.62901809 -0.64035678 -0.00000007
0.22919614 0.22329156 0.00000000
-0.11229999 0.10031579 0.00000000
-0.35598201 0.13344325 0.00000000
0.00892732 0.28511876 0.00000000
-0.06726901 0.70404436 0.00000000
0.14424178 -0.10350301 0.00000000
0.11147942 -0.60853044 0.00000000
0.34407216 0.03504091 -0.00000006
-0.29503065 -0.26811200 0.00000000
0.30963205 -0.38830496 0.00000000
0.71798338 -0.41193102 -0.00000046
-0.10664221 -0.57887718 0.00000000
-0.64789428 0.79746751 0.00000000
0.16382132 0.60506828 0.16710613
0.50158357 -0.03237183 -0.00000033
-0.61469724 0.58920019 0.00000000
-0.14435699 0.64136790 0.00000000
0.50704488 -0.29911015 -0.00000011
0.23995881 0.33762438 -0.00000010
-0.72531853 -0.32407723 0.00000000
0.34393635 0.45255491 0.01884189
0.61232642 -0.72708224 0.00000000
-0.70240129 -0.66522730 0.00000000
0.72329709 -0.66642903 -0.00000017
0.10178739 0.11563606 0.00000000
0.28786054 0.43466309 0.41616184
0.07887834 0.08713969 0.00000000
-0.24323968 0.71258839 0.00000000
0.38503257 -0.32695804 0.00000000
-0.11355658 0.21499338 0.00000000
0.26225799 0.49209198 -0.00000029
-0.16350740 -0.12973938 0.00000000
0.00175587 0.03366629 0.00000000
-0.57502241 -0.45291274 0.00000000
0.20047963 0.42716951 -0.00000010
-0.03698661 -0.54039578 0.00000000
0.29848705 -0.60038868 0.00000000
0.47475022 0.01416345 -0.00000032
0.39063741 -0.24183699 0.00000000
0.62096408 -0.16398942 -0.00000047
-0.16384120 -0.26789116 0.00000000
0.23305018 -0.74700829 0.00000000
0.19804880 0.58016992 0.11699539
0.10217559 -0.55204755 0.00000000
-0.70195124 -0.75788973 0.00000000
-0.02860563 0.38691430 0.00000000
0.55845341 -0.52586600 -0.00000002
0.62668528 -0.46771163 -0.00000022
-0.55147845 0.23379943 0.00000000
0.14756596 -0.10979523 0.00000000
-0.25358151 0.64815875 0.00000000
-0.49369166 0.53006425 0.00000000
0.21641263 -0.55496929 0.00000000
0.58411643 -0.52729947 -0.00000007
0.11433052 -0.79119558 0.00000000
-0.15512848 -0.41493499 0.00000000
0.20995557 0.55702973 0.17733576
0.62481724 -0.59755630 -0.00000010
-0.70377216 0.18405402 0.00000000
-0.23367110 0.62707251 0.00000000
-0.53883520 0.54290885 0.00000000
0.25858099 -0.27146689 0.00000000
0.56455645 0.21277962 0.12173621
-0.25774984 -0.11452479 0.00000000
-0.16257633 -0.15333294 0.00000000
-0.23529474 -0.47111256 0.00000000
0.53319527 -0.20740937 -0.00000025
-0.28679699 -0.17477135 0.00000000
0.44835884 0.27617594 0.40536161
-0.03308688 -0.36475192 0.00000000
0.63857452 0.13956003 0.11744696
0.56502931 -0.18211391 -0.00000034
0.24109433 -0.67549206 0.00000000
-0.55374665 -0.42913883 0.00000000
-0.68190518 -0.36447800 0.00000000
-0.01503545 -0.65436605 0.00000000
0.40717797 -0.58013778 0.00000000
-0.30127454 -0.26156996 0.00000000
-0.17825921 -0.39715337 0.00000000
-0.05200260 -0.68301877 0.00000000
-0.18532996 -0.41948466 0.00000000
0.25351678 0.48744233 0.31713553
-0.37354626 -0.58983012 0.00000000
0.19187666 0.58308588 0.13448592
-0.25543595 -0.36864186 0.00000000
0.25546679 0.31566621 -0.00000012
0.67868242 -0.07468146 -0.00000068
-0.51150658 0.28236040 0.00000000
0.79148717 -0.64156986 -0.00000020
0.60246924 -0.46088088 -0.00000017
0.13094997 0.63703405 0.17196992
0.32255293 -0.28394241 0.00000000
-0.23871618 0.42149468 0.00000000
0.18293634 0.34785174 0.00000000
0.58866213 -0.37138753 -0.00000022
0.23657947 0.51663887 0.25128512
-0.70297377 -0.13935043 0.00000000
0.40185263 0.36713882 0.16656062
0.25178115 0.45826805 -0.00000024
-0.00589033 -0.26641528 0.00000000
0.32118656 -0.26466768 0.00000000
0.07507035 0.23251217 0.00000000
0.70082769 -0.37849584 -0.00000045
-0.11861812 0.66911713 0.00000000
0.07835640 -0.17315118 0.00000000
-0.46320861 -0.02402453 0.00000000
-0.22156168 -0.54645409 0.00000000
-0.37233772 0.58907211 0.00000000
0.56878920 -0.54971124 -0.00000002
0.60859113 -0.01771552 -0.00000058
-0.04939160 -0.25895698 0.00000000
0.03289726 0.62748702 0.00000000
0.15607253 0.56796459 -0.00000013
-0.62864339 -0.60548046 0.00000000
-0.16182114 0.05723985 0.00000000
0.02848805 -0.11130778 0.00000000
-0.31325359 0.20289325 0.00000000
-0.06601921 -0.69002684 0.00000000
0.62705167 -0.09595848 -0.00000055
0.21645248 0.07721828 0.00000000
0.18341964 0.17768554 0.00000000
-0.31065906 -0.50223970 0.00000000
-0.77240322 0.58745122 0.00000000
0.48852077 -0.20627438 -0.00000015
0.48308130 0.11487560 -0.00000043
-0.45497050 -0.47958100 0.00000000
0.34439574 -0.24435288 0.00000000
0.11526800 -0.54132452 0.00000000
-0.31713877 -0.17275772 0.00000000
-0.46326632 0.15099627 0.00000000
0.64983773 -0.49715478 -0.00000024
-0.36029481 -0.76772325 0.00000000
0.60139403 0.12373223 -0.00000069
-0.32010406 0.00086757 0.00000000
-0.22450512 -0.19471692 0.00000000
-0.01781917 -0.06653839 0.00000000
0.10042674 0.64888104 -0.00000008
0.68130391 -0.66689380 -0.00000016
0.16338638 0.55391175 -0.00000013
0.48176965 -0.56073978 0.00000000
-0.65531174 -0.15534578 0.00000000
0.32690824 0.37911278 -0.00000033
0.55060277 -0.44076461 -0.00000008
0.23727867 -0.41780740 0.00000000
0.29036917 -0.27330386 0.00000000
0.34549350 0.30649086 -0.00000030
-0.70893681 -0.61027280 0.00000000
0.36473715 0.33462471 -0.00000037
-0.66790275 -0.62140012 0.00000000
-0.02830045 0.02368183 0.00000000
-0.32024989 -0.22662409 0.00000000
0.04337366 0.45404268 0.00000000
0.74421777 0.05463578 0.00615206
-0.57355317 0.12847043 0.00000000
-0.04193972 -0.77419404 0.00000000
0.46405398 0.31423601 0.11661223
0.03595519 -0.54713386 0.00000000
0.23375005 0.55263533 -0.00000028
0.43220226 -0.72219530 0.00000000
-0.72434532 0.74607409 0.00000000
0.15248579 -0.01169060 0.00000000
-0.77926342 0.53479403 0.00000000
-0.58638243 -0.59050181 0.00000000
-0.69853413 -0.34923350 0.00000000
0.64738467 -0.05464710 -0.00000063
0.06869621 0.29269405 0.00000000
-0.36465791 -0.39452358 0.00000000
0.19225595 0.58140998 0.14145062
-0.76988937 0.33279798 0.00000000
-0.74871651 0.51123992 0.00000000
-0.73879583 -0.09264423 0.00000000
0.24849851 0.54217640 0.05008529
-0.79462000 0.01156560 0.00000000
0.15371149 0.64565814 0.00338066
0.29651037 0.02344579 0.00000000
-0.42281447 -0.17945838 0.00000000
-0.12890640 0.60265545 0.00000000
0.50812442 -0.32070235 -0.00000009
-0.10196482 -0.50538173 0.00000000
-0.70858146 0.24220847 0.00000000
-0.02240979 0.60270050 0.00000000
-0.06264010 0.26073416 0.00000000
0.51170350 -0.61178160 0.00000000
0.20358833 -0.10598394 0.00000000
0.49356239 0.23818526 0.36661858
0.55991919 -0.13409036 -0.00000037
-0.10869485 0.39878689 0.00000000
-0.12071864 0.30052979 0.00000000
-0.78235477 0.36292110 0.00000000
-0.38707381 -0.24652128 0.00000000
0.26815119 0.49971884 -0.00000031
-0.73429218 0.71463560 0.00000000
-0.08872529 -0.27440766 0.00000000
-0.23373268 0.65826951 0.00000000
-0.44457515 -0.68154573 0.00000000
0.24179424 0.50094132 0.30759322
-0.73468364 0.40303415 0.00000000
-0.36680948 0.04905542 0.00000000
0.21735535 -0.12982566 0.00000000
-0.76798181 -0.68688640 0.00000000
-0.41653163 -0.34643431 0.00000000
-0.10693191 -0.75203582 0.00000000
0.19771558 0.49441272 -0.00000015
-0.67020390 -0.48974681 0.00000000
-0.09432889 -0.59696160 0.00000000
0.22911195 0.33567331 -0.00000008
0.58853228 0.21123279 0.00125588
-0.57954691 0.65127993 0.00000000
-0.45482311 -0.26450444 0.00000000
0.26187944 -0.68428272 0.00000000
-0.09040672 0.13293541 0.00000000
0.09614115 0.68835903 0.08325317
-0.49246416 -0.76010684 0.00000000
-0.52534838 0.63737422 0.00000000
0.76657557 -0.79689161 -0.00000000
0.28165850 -0.40605591 0.00000000
0.65000409 -0.51129136 -0.00000023
-0.03654376 0.02507427 0.00000000
0.35946507 -0.72666802 0.00000000
0.60367780 -0.32660628 -0.00000029
-0.47890218 -0.69780037 0.00000000
0.32724937 -0.01986208 0.00000000
-0.34767355 -0.17766858 0.00000000
-0.46351807 -0.52474754 0.00000000
0.18076217 0.59396763 0.13573592
-0.57478489 0.07701400 0.00000000
-0.24531615 0.63407565 0.00000000
0.14310660 0.44813009 0.00000000
-0.56961217 0.69683205 0.00000000
-0.47203973 -0.24051730 0.00000000
0.19338761 -0.56226593 0.00000000
-0.60744328 -0.30108089 0.00000000
0.47370526 0.31928120 0.03766821
-0.47944135 -0.06638063 0.00000000
-0.79233052 -0.07042259 0.00000000
0.19035534 -0.05390317 0.00000000
-0.54498617 0.53140108 0.00000000
0.20935781 -0.04787213 0.00000000
0.08338761 -0.68068806 0.00000000
0.37461481 0.41446553 0.05865058
0.52760242 -0.05579095 -0.00000037
-0.35691332 0.67587646 0.00000000
0.50477441 -0.42867669 0.00000000
-0.25978806 0.72924345 0.00000000
-0.14585327 0.14668600 0.00000000
0.63356824 -0.71860791 -0.00000001
0.22294344 -0.10085775 0.00000000
-0.25394205 0.45750974 0.00000000
-0.60357321 0.41907372 0.00000000
0.60726731 -0.33268432 -0.00000029
-0.28567765 -0.75120965 0.00000000
-0.62348605 -0.26795666 0.00000000
0.27197086 0.04577997 0.00000000
-0.28436045 0.70589297 0.00000000
0.19694016 -0.18822232 0.00000000
0.12033800 0.66072497 0.10171645
-0.07671742 -0.53696380 0.00000000
0.22271812 -0.14728996 0.00000000
0.35319527 0.38472009 0.33348657
-0.39431437 -0.02219948 0.00000000
0.53811942 0.01581996 -0.00000046
0.63394211 -0.04546297 -0.00000061
-0.62888038 0.02701650 0.00000000
-0.20041968 0.31044495 0.00000000
-0.48402881 -0.78297287 0.00000000
-0.25512960 -0.47005207 0.00000000
-0.47218548 -0.63478439 0.00000000
0.46586686 0.20968088 -0.00000047
0.20593203 0.39582851 -0.00000008
-0.54564142 -0.55005588 0.00000000
-0.44822339 -0.53614978 0.00000000
-0.60393354 0.24066964 0.00000000
-0.74002826 -0.17737331 0.00000000
0.36797040 -0.24715579 0.00000000
0.05882730 -0.40111341 0.00000000
-0.49233442 -0.09237098 0.00000000
-0.67457378 0.43142882 0.00000000
-0.05971428 0.00617950 0.00000000
0.58501724 -0.49701610 -0.00000010
0.44600569 0.19238104 -0.00000041
-0.71771166 -0.72789361 0.00000000
-0.15070557 0.65910938 0.00000000
-0.28278265 0.66368442 0.00000000
0.05254937 0.59312674 0.00000000
0.48156502 -0.38703703 0.00000000
-0.55701626 0.14653197 0.00000000
0.71386578 0.06665940 0.10460526
0.71677883 -0.49624859 -0.00000038
-0.73043750 0.69453738 0.00000000
-0.72619193 0.37980249 0.00000000
-0.09924556 0.40783026 0.00000000
0.40005221 0.39922249 0.00389020
0.05616352 -0.23730286 0.00000000
0.03645622 -0.04706082 0.00000000
0.61351062 -0.69371556 0.00000000
0.20365699 0.18951533 0.00000000
0.42918739 0.28399946 -0.00000046
0.59332768 0.02534133 -0.00000058
0.53343520 0.26288935 0.01973715
-0.36015137 -0.20139237 0.00000000
-0.48730532 -0.55210172 0.00000000
0.57396077 0.20543040 0.11069695
-0.54445842 -0.45930483 0.00000000
0.22172952 -0.48080952 0.00000000
0.47419963 0.28005594 0.24571621
0.58242484 0.08815143 -0.00000061
0.07607788 0.16527414 0.00000000
-0.27083373 0.33063539 0.00000000
0.23031213 0.52397335 0.24555294
-0.33367333 0.56732308 0.00000000
0.10324247 0.05861856 0.00000000
-0.56399073 0.35879942 0.00000000
-0.65917038 0.23701012 0.00000000
-0.38916998 0.19636710 0.00000000
0.61659844 -0.37060368 -0.00000028
0.41956566 0.06361531 -0.00000024
0.50451619 0.26065289 0.18709284
-0.03364237 0.60143886 0.00000000
0.59982986 0.17333021 0.14416805
0.26761268 0.46697783 0.35134455
0.39843403 -0.32014770 0.00000000
0.66815235 -0.08855034 -0.00000064
-0.35141356 0.67082788 0.00000000
0.03242562 -0.15644427 0.00000000
-0.06958663 0.05656733 0.00000000
-0.75925229 0.67572341 0.00000000
0.72977980 -0.29977551 -0.00000059
0.30242931 -0.50222709 0.00000000
-0.28384634 0.32979362 0.00000000
-0.18345019 0.43628651 0.00000000
0.17915026 -0.03452142 0.00000000
0.76868292 0.01215835 -0.00000094
0.10791500 0.37889929 0.00000000
-0.64551104 -0.37184108 0.00000000
0.70518293 -0.46026379 -0.00000039
-0.30876277 -0.58833020 0.00000000
-0.08350740 0.24905563 0.00000000
-0.65499383 0.34178996 0.00000000
-0.74831203 0.10331011 0.00000000
0.58511069 -0.05201825 -0.00000050
0.32892779 0.46653499 0.02436650
0.17364231 -0.18274337 0.00000000
-0.51742093 -0.30681732 0.00000000
0.46441228 -0.02507422 -0.00000026
-0.60331870 -0.38005228 0.00000000
-0.55256816 -0.33538350 0.00000000
0.46386325 -0.53954869 0.00000000
0.41030402 0.32851225 0.32864832
0.35905704 -0.26146940 0.00000000
-0.39137422 -0.03956732 0.00000000
-0.30336337 0.27260156 0.00000000
0.69246435 -0.15776111 -0.00000063
-0.38449089 -0.19552930 0.00000000
0.40339945 0.32901165 0.36305339
-0.18570478 -0.62544412 0.00000000
0.39828139 0.40031470 0.00753549
0.47824935 -0.33360397 -0.00000002
0.43219761 -0.54626612 0.00000000
0.60816083 -0.58252424 -0.00000008
0.36318551 -0.79317207 0.00000000
-0.54100732 0.26058098 0.00000000
-0.25090407 0.27803833 0.00000000
0.38486439 0.13844259 -0.00000024
0.72530118 -0.65079867 -0.00000019
-0.54998952 0.12748608 0.00000000
-0.02267955 0.10847159 0.00000000
-0.54487059 -0.31091437 0.00000000
-0.71089632 0.75299308 0.00000000
-0.77735209 -0.57414232 0.00000000
0.25891400 0.29500843 -0.00000011
-0.78480885 0.27339113 0.00000000
0.26271276 0.47455442 0.33696680
-0.62004242 -0.52508165 0.00000000
0.43560350 -0.39814810 0.00000000
0.71273568 -0.38413215 -0.00000047
0.05769887 -0.63410396 0.00000000
0.10590398 -0.02985148 0.00000000
0.77919890 -0.61034918 -0.00000024
0.23664767 -0.25798000 0.00000000
0.28398959 0.02673125 0.00000000
0.54548539 0.24110489 0.07202607
0.79897690 -0.13412524 -0.00000083
0.61788075 -0.34553342 -0.00000031
0.75238884 -0.27008241 -0.00000066
0.26140755 -0.59353194 0.00000000
0.25261790 -0.62054522 0.00000000
0.76152963 -0.20777733 -0.00000073
0.77262341 -0.63381720 -0.00000021
0.07564281 -0.00269100 0.00000000
0.72841057 -0.33623053 -0.00000055
-0.22207897 0.05460030 0.00000000
-0.49742400 0.63990793 0.00000000
-0.51872448 0.79077928 0.00000000
0.02594229 -0.60266932 0.00000000
0.39721836 -0.27453401 0.00000000
0.11460897 -0.71511072 0.00000000
0.65364936 0.13954613 -0.00000081
0.23872857 -0.15719832 0.00000000
-0.04847541 -0.22699268 0.00000000
-0.34773080 -0.73810483 0.00000000
-0.59140399 0.71024543 0.00000000
-0.62545540 -0.42167329 0.00000000
0.15950409 0.19652342 0.00000000
0.19379013 0.06365224 0.00000000
0.29873551 0.42592181 0.40470092
0.57303438 -0.10391950 -0.00000042
0.35686026 -0.78069477 0.00000000
0.40596480 0.33849888 0.29831329
0.59206853 0.20104225 0.03700031
0.73246632 -0.49219894 -0.00000038
0.34514767 0.04824466 -0.00000007
0.01060111 -0.39414355 0.00000000
0.55636295 -0.17254461 -0.00000033
-0.12784807 -0.78632851 0.00000000
0.32610600 0.42222703 0.27752791
0.23625810 -0.49797954 0.00000000
-0.57432024 -0.58630003 0.00000000
-0.07729098 0.29946957 0.00000000
-0.75071971 -0.32389388 0.00000000
0.11946365 0.58024031 -0.00000006
-0.38261237 0.55905333 0.00000000
0.25718625 0.00231517 0.00000000
-0.31908769 -0.26571024 0.00000000
-0.53331802 0.63482676 0.00000000
0.45065245 -0.46253473 0.00000000
-0.34152779 -0.12184599 0.00000000
0.21503632 -0.73051669 0.00000000
0.56503091 0.20601630 0.15551761
-0.46278559 -0.35485381 0.00000000
-0.75776856 -0.44580429 0.00000000
0.02337925 -0.25950910 0.00000000
-0.69306706 -0.57240914 0.00000000
-0.24644119 -0.75050605 0.00000000
0.25982377 0.34648696 -0.00000015
0.78453475 -0.22164104 -0.00000072
0.29066358 -0.33446088 0.00000000
0.14003568 -0.19416999 0.00000000
0.22694743 -0.34565770 0.00000000
0.30325455 0.44370019 0.28493095
-0.28232278 -0.06482906 0.00000000
-0.54878522 0.36497659 0.00000000
-0.26118490 -0.33350348 0.00000000
-0.78221455 0.52171361 0.00000000
0.31304336 -0.38516127 0.00000000
-0.72056048 0.51249659 0.00000000
0.78207676 -0.20688237 -0.00000074
-0.45714181 0.18369072 0.00000000
-0.20637275 -0.04809486 0.00000000
-0.31137144 -0.23831850 0.00000000
-0.08710507 0.20380816 0.00000000
0.10110532 0.32765577 0.00000000
0.69506460 -0.32431058 -0.00000049
0.76732418 -0.33259138 -0.00000058
0.30575032 0.44981793 0.23866377
-0.50257052 -0.24613996 0.00000000
0.50600224 -0.72802275 0.00000000
-0.04746038 0.41120754 0.00000000
-0.40795087 -0.45668301 0.00000000
-0.43658643 0.38088305 0.00000000
-0.53174337 -0.08344972 0.00000000
0.30477531 0.44277400 0.28173727
0.00066637 0.17826024 0.00000000
0.24419492 0.47947239 -0.00000024
0.56864840 -0.66918376 0.00000000
0.41532114 -0.51293487 0.00000000
-0.52050880 -0.69322158 0.00000000
-0.06573164 -0.20412780 0.00000000
-0.56726705 0.16048392 0.00000000
0.57688961 -0.55901945 -0.00000003
-0.54642338 -0.42095793 0.00000000
-0.34612173 0.49028639 0.00000000
0.36489546 0.41741358 0.09502349
-0.68131236 0.16694678 0.00000000
0.52584080 -0.29124228 -0.00000016
-0.29187156 0.48649017 0.00000000
-0.06456885 0.45694268 0.00000000
0.06912821 0.66375894 -0.00000003
0.39902907 0.33390276 0.36025628
0.56480656 0.03289180 -0.00000053
-0.35684599 0.37434447 0.00000000
0.42936395 -0.48441444 0.00000000
0.40808088 -0.45792593 0.00000000
0.28362848 -0.26656324 0.00000000
0.06080251 -0.78076886 0.00000000
0.45672896 0.32242842 0.11195296
-0.32941500 0.06476239 0.00000000
0.33194792 0.25499576 -0.00000023
0.73300449 -0.61401375 -0.00000023
0.05825125 0.71170490 -0.00000005
-0.63900651 0.70674373 0.00000000
0.19867217 -0.50519502 0.00000000
-0.20340614 0.51900235 0.00000000
0.07985769 0.02656565 0.00000000
0.39913507 0.39399234 0.03691119
-0.76849699 -0.50865992 0.00000000
0.50391344 -0.48801262 0.00000000
-0.63097924 0.42011011 0.00000000
-0.58776354 0.43289188 0.00000000
-0.49287928 -0.43623801 0.00000000
-0.73057141 0.62429394 0.00000000
-0.47895127 -0.56591069 0.00000000
-0.03004428 0.11414910 0.00000000
0.08890821 -0.49875226 0.00000000
0.41811916 -0.74423281 0.00000000
0.45095216 0.27864925 0.37814637
0.65759956 -0.45651944 -0.00000029
0.56321649 -0.75447169 0.00000000
-0.51155664 -0.05226106 0.00000000
-0.44582290 -0.21728109 0.00000000
0.03773135 -0.15234588 0.00000000
-0.40605985 -0.35733758 0.00000000
0.42102446 -0.61936176 0.00000000
-0.73973166 -0.43592605 0.00000000
-0.36080369 -0.05989278 0.00000000
0.66669872 -0.40096229 -0.00000036
0.36827821 0.42979337 0.01035299
0.24871835 0.50207905 0.26428937
0.34330527 -0.21789838 0.00000000
-0.69576730 0.09342756 0.00000000
-0.09725941 -0.04184013 0.00000000
0.16794990 0.17942041 0.00000000
-0.34507538 0.23328672 0.00000000
-0.51223643 0.18980780 0.00000000
-0.59513142 0.28799109 0.00000000
-0.37098474 0.40892517 0.00000000
0.02740579 -0.14710106 0.00000000
0.35611022 0.29921731 -0.00000032
0.77968884 -0.28691796 -0.00000064
0.39143379 -0.68371166 0.00000000
0.39325393 -0.26314271 0.00000000
0.27723962 0.05484969 0.00000000
-0.42067836 0.77365258 0.00000000
0.38828822 0.14916250 -0.00000025
-0.62890766 0.27753984 0.00000000
0.19530907 -0.12163234 0.00000000
-0.56301330 0.32121739 0.00000000
-0.70625129 0.73030358 0.00000000
-0.54703004 0.73482559 0.00000000
0.40539193 -0.59083031 0.00000000
0.28799692 0.48442620 0.14812707
0.60940251 -0.22607646 -0.00000039
0.28244144 0.43846808 0.42483193
0.75237631 0.04508802 0.01361443
-0.64541636 0.28990850 0.00000000
0.18708659 -0.31014069 0.00000000
-0.20380650 -0.79220861 0.00000000
0.41792387 -0.67930074 0.00000000
-0.40642957 -0.67875979 0.00000000
-0.26857708 0.16442847 0.00000000
-0.54590944 0.78711232 0.00000000
-0.16838478 -0.66497296 0.00000000
0.43590077 -0.11669162 -0.00000012
-0.24665967 -0.29587485 0.00000000
0.11334546 -0.18958209 0.00000000
-0.48530246 -0.30681501 0.00000000
0.63445311 -0.51837262 -0.00000019
-0.76289391 -0.12892092 0.00000000
-0.65230931 0.65156340 0.00000000
0.07520927 0.41453904 0.00000000
0.08879119 0.36066670 0.00000000
0.62603391 -0.33373580 -0.00000033
0.39665112 -0.57485725 0.00000000
-0.52721518 0.10521827 0.00000000
0.08677373 -0.73763147 0.00000000
0.23204311 0.37335060 -0.00000012
-0.15968592 0.22171660 0.00000000
-0.75105198 -0.32256850 0.00000000
0.45262926 0.30375004 0.23430837
-0.09302765 0.76176798 0.00000000
0.48969463 -0.78563351 0.00000000
0.35297478 0.38691059 0.32290471
0.23565048 -0.52414282 0.00000000
-0.52131031 0.68866546 0.00000000
0.36626116 -0.26598259 0.00000000
-0.57224804 0.06936156 0.00000000
-0.72416961 0.51585315 0.00000000
-0.13576673 0.12334029 0.00000000
0.14524246 0.63831520 0.08831664
0.50548259 0.28327522 0.06038289
-0.49725944 -0.64415645 0.00000000
-0.37003383 0.06689631 0.00000000
0.43106793 -0.26261566 0.00000000
0.75950831 0.03401096 0.03480580
-0.67875413 0.77182878 0.00000000
0.40499867 -0.04687213 -0.00000012
0.33817499 -0.52439843 0.00000000
0.50296845 -0.28079429 -0.00000012
0.40772083 -0.27195106 0.00000000
-0.10899376 -0.06348420 0.00000000
-0.11332230 -0.42699822 0.00000000
0.04925165 0.50749075 0.00000000
0.53857372 0.24851715 0.06933706
0.44631157 -0.61092065 0.00000000
0.14140486 0.04952124 0.00000000
0.05075285 -0.04782505 0.00000000
-0.25689822 0.32268170 0.00000000
0.32633614 -0.44833686 0.00000000
0.37040414 -0.43740002 0.00000000
0.21715453 -0.75766172 0.00000000
0.35312443 0.16916794 -0.00000020
-0.06448309 -0.38734972 0.00000000
-0.09225637 -0.46900757 0.00000000
0.15510774 0.20879651 0.00000000
0.23076856 0.56783804 0.00747924
-0.51387631 -0.27179022 0.00000000
-0.76500031 0.79464753 0.00000000
0.53462796 0.23048417 0.18739872
0.22997379 -0.13869040 0.00000000
0.63166261 -0.23483948 -0.00000043
-0.32126001 -0.74711782 0.00000000
0.08900378 -0.44173566 0.00000000
-0.50199422 -0.30974766 0.00000000
0.28707601 0.46941907 0.23368498
-0.35775418 -0.73699346 0.00000000
0.10155220 0.43290748 0.00000000
-0.36234031 -0.31990384 0.00000000
-0.55103218 0.77055440 0.00000000
-0.28139613 0.14149242 0.00000000
-0.07124877 -0.64395237 0.00000000
-0.08958243 0.58483724 0.00000000
-0.38502013 0.11853853 0.00000000
0.60288191 -0.70290636 0.00000000
-0.61332050 -0.27171854 0.00000000
0.40542079 0.36028652 0.18420179
0.37734462 0.35061173 -0.00000041
-0.44815202 0.27335019 0.00000000
-0.52220404 0.64951649 0.00000000
0.57855711 -0.51749094 -0.00000007
0.63476000 0.13381819 0.16878025
-0.14749936 0.46720104 0.00000000
0.06253809 0.08000867 0.00000000
0.55312041 0.21201156 0.18729211
0.16226811 0.05647872 0.00000000
-0.04444812 -0.34975091 0.00000000
0.33018743 -0.69833363 0.00000000
0.61877881 -0.03281717 -0.00000058
0.59149281 0.18113392 0.14703301
-0.38988618 -0.78568418 0.00000000
-0.20049035 0.58103724 0.00000000
-0.47947484 -0.50157512 0.00000000
-0.52942196 0.06004122 0.00000000
-0.25606307 -0.37990031 0.00000000
0.75380032 -0.62819201 -0.00000021
0.24198746 -0.58538312 0.00000000
0.28522013 -0.42338340 0.00000000
-0.12797399 0.70816343 0.00000000
0.53420901 0.23742955 0.15234115
-0.25635049 0.04863378 0.00000000
0.37932344 -0.13292683 0.00000000
0.44853617 0.01167875 -0.00000026
0.54186655 0.10635403 -0.00000054
-0.53150307 0.40653837 0.00000000
0.48818998 -0.76223983 0.00000000
0.60743807 -0.56929917 -0.00000009
0.17489440 0.01486368 0.00000000
-0.11268470 -0.19162318 0.00000000
-0.02446103 0.08527690 0.00000000
0.70603124 -0.11996766 -0.00000069
0.11274059 0.67003687 0.09250700
-0.31117500 0.68074790 0.00000000
0.61386530 -0.24258319 -0.00000039
-0.04428993 0.06141603 0.00000000
-0.19125547 -0.29547035 0.00000000
0.50686547 0.24110711 -0.00000059
-0.35251865 -0.07566834 0.00000000
-0.60586031 0.39871709 0.00000000
0.51726187 0.28259808 0.00074635
0.17808890 -0.73893198 0.00000000
-0.00592242 0.21650847 0.00000000
0.21822485 -0.69828579 0.00000000
0.31356271 0.47572038 -0.00000038
-0.07878746 0.22275300 0.00000000
-0.38356995 -0.18653638 0.00000000
-0.19094458 -0.47421765 0.00000000
-0.79601113 -0.47862278 0.00000000
0.32417312 0.42779895 0.25798084
-0.29843641 -0.77230610 0.00000000
-0.59236220 -0.78506408 0.00000000
0.33533438 0.45071672 0.07492258
0.07196845 0.59975337 0.00000000
0.62583697 0.17127878 -0.00000078
-0.63044369 0.30827772 0.00000000
-0.11545827 -0.31370418 0.00000000
-0.59612010 -0.05068140 0.00000000
0.58429568 0.04004443 -0.00000058
-0.22025858 0.79738708 0.00000000
0.57793037 -0.77563164 0.00000000
0.02998385 0.76836790 0.00884842
0.07167908 0.60967507 0.00000000
-0.01205784 -0.52612064 0.00000000
0.51822759 -0.50934311 0.00000000
0.54129259 0.12551662 -0.00000056
0.23097868 -0.12906653 0.00000000
-0.55271911 -0.29461246 0.00000000
0.45291135 -0.53952473 0.00000000
-0.73224992 -0.02062940 0.00000000
0.17107512 0.22762134 0.00000000
-0.42002444 -0.42630971 0.00000000
0.44110412 0.32428749 0.18589753
-0.19407457 -0.53234747 0.00000000
-0.11214059 0.42998781 0.00000000
-0.31195445 0.45656355 0.00000000
0.44071750 0.28394742 0.40466246
-0.40589431 -0.70458749 0.00000000
-0.20996410 -0.28635285 0.00000000
0.47903662 -0.33889716 -0.00000002
-0.50965169 -0.75728271 0.00000000
-0.48188366 0.52598876 0.00000000
-0.75362754 0.54566180 0.00000000
-0.64493290 0.53781143 0.00000000
0.29195152 -0.71246614 0.00000000
0.42031206 0.34925847 0.16345001
0.29816441 -0.07130770 0.00000000
0.62507806 -0.32002116 -0.00000034
-0.58537850 -0.08011666 0.00000000
-0.70709208 -0.25524847 0.00000000
0.53109919 0.23667300 0.17310988
-0.71461843 0.30033018 0.00000000
-0.04606351 0.75645050 0.00000000
0.00663512 0.09283442 0.00000000
0.40012539 -0.09448483 -0.00000006
0.42716466 0.08798951 -0.00000028
-0.58750797 -0.51119690 0.00000000
0.41547118 -0.31986406 0.00000000
-0.09307898 -0.69604353 0.00000000
-0.18240443 -0.37608282 0.00000000
0.10154064 0.36512428 0.00000000
0.07974166 -0.35450615 0.00000000
0.32617622 0.42330689 0.27135026
0.38343669 0.24486578 -0.00000033
-0.69713568 -0.29551595 0.00000000
0.39413937 0.34035808 0.35184648
-0.56911249 -0.42707346 0.00000000
-0.13551355 0.45751035 0.00000000
-0.27724755 -0.05339903 0.00000000
0.38078089 0.05087146 -0.00000015
0.53001772 0.08206770 -0.00000050
-0.23542385 0.28968125 0.00000000
0.61131968 -0.51179939 -0.00000015
0.73761440 0.05728532 -0.00000092
0.63128893 -0.66653532 -0.00000005
-0.29841925 0.40963652 0.00000000
-0.28265816 -0.41668266 0.00000000
-0.41398254 0.31206107 0.00000000
-0.11442896 -0.66676730 0.00000000
-0.67101480 0.12800144 0.00000000
0.74271712 -0.77229747 -0.00000003
-0.03745426 0.60943763 0.00000000
0.21797896 -0.45477944 0.00000000
0.71270149 -0.13242224 -0.00000070
0.04516578 -0.57037465 0.00000000
-0.70526743 -0.22064312 0.00000000
-0.46831427 -0.74494178 0.00000000
-0.58074520 0.71749993 0.00000000
0.72521536 0.06741175 0.03959824
0.52912778 0.21489687 0.30067283
-0.31072838 0.11082355 0.00000000
0.34869206 0.36973734 0.43815491
-0.70354338 -0.47823889 0.00000000
0.12157006 -0.75879087 0.00000000
-0.02689281 0.62223788 0.00000000
0.52814783 -0.27650519 -0.00000018
0.03930852 -0.26736392 0.00000000
-0.51182883 0.19402513 0.00000000
-0.51639240 0.47215995 0.00000000
-0.36559914 -0.70601780 0.00000000
-0.18302461 0.19611218 0.00000000
0.23486485 0.16966718 0.00000000
0.68031514 -0.65524662 -0.00000017
0.41005463 -0.57658337 0.00000000
0.17755899 0.11358652 0.00000000
0.76491730 -0.30499473 -0.00000062
-0.05501163 0.06164696 0.00000000
-0.19963819 -0.58414478 0.00000000
0.68890563 -0.05343751 -0.00000072
0.18056426 0.56586913 0.28772939
0.04528594 -0.41725505 0.00000000
0.61169644 -0.27767052 -0.00000035
0.10563026 0.19429137 0.00000000
0.13485601 0.10086787 0.00000000
-0.19448136 0.15044418 0.00000000
0.65424859 0.12146222 0.13046643
0.53686598 0.00484980 -0.00000044
-0.41070746 0.65925921 0.00000000
-0.77077782 0.06737315 0.00000000
-0.70731019 -0.21680452 0.00000000
0.37347095 0.24453941 -0.00000031
-0.67831161 0.33016263 0.00000000
-0.15448059 0.77773942 0.00000000
-0.39322321 -0.48605032 0.00000000
-0.71624120 0.69418639 0.00000000
0.18966406 -0.41425981 0.00000000
0.54032488 -0.72655634 0.00000000
0.23769927 0.53487694 0.14730480
-0.21143975 -0.65398230 0.00000000
0.46372663 0.28402753 0.28063938
-0.57017067 0.21902526 0.00000000
-0.57894107 0.72402219 0.00000000
0.37710771 -0.08798455 -0.00000002
0.30944096 -0.79400189 0.00000000
-0.79822159 0.01981115 0.00000000
-0.73935567 -0.09008847 0.00000000
-0.66797859 0.60839232 0.00000000
0.46680274 -0.03389806 -0.00000026
0.06187420 0.07112336 0.00000000
-0.71724006 -0.51506594 0.00000000
0.10418503 -0.71886576 0.00000000
-0.37392313 0.73183423 0.00000000
0.47743353 0.26953032 -0.00000055
0.19330507 0.41862912 -0.00000008
0.14625228 -0.72520401 0.00000000
0.16390978 0.08944496 0.00000000
-0.04266717 0.66490885 0.00000000
-0.24265662 -0.53330728 0.00000000
0.67592431 0.09732806 0.14367216
-0.03565826 0.56572822 0.00000000
0.54257737 0.04840963 -0.00000049
-0.16964665 0.71433339 0.00000000
0.29294252 0.32390582 -0.00000020
0.49911866 0.28403267 0.09049887
-0.27727088 -0.39624038 0.00000000
-0.00547178 0.65198651 0.00000000
-0.12215697 -0.43168505 0.00000000
-0.09850295 -0.29952042 0.00000000
-0.73425444 -0.54467352 0.00000000
-0.78974789 -0.24245550 0.00000000
-0.71743371 0.03727065 0.00000000
0.54275285 -0.04305479 -0.00000041
-0.27120508 -0.01576357 0.00000000
-0.15689767 0.55664437 0.00000000
-0.19542011 -0.68465683 0.00000000
0.65165842 -0.21099897 -0.00000050
-0.34600115 0.26896235 0.00000000
-0.18304432 0.30950187 0.00000000
-0.27537043 -0.30305046 0.00000000
-0.34782979 -0.34112335 0.00000000
0.78909614 -0.78397403 -0.00000002
0.44891934 -0.60468240 0.00000000
0.11592612 0.22191935 0.00000000
-0.30437518 0.33280068 0.00000000
0.73592800 0.04278430 -0.00000090
0.18395528 0.11137613 0.00000000
-0.17334206 -0.52273051 0.00000000
-0.32695578 -0.55560275 0.00000000
-0.27035546 0.35181745 0.00000000
-0.14576296 0.16848636 0.00000000
-0.04068703 0.30285467 0.00000000
0.49378598 0.13956166 -0.00000047
-0.17317812 0.47613567 0.00000000
0.70852064 -0.49077463 -0.00000037
0.60585803 -0.50966031 -0.00000014
0.34761410 0.35135570 -0.00000035
0.40762744 -0.44125033 0.00000000
0.36346753 0.38056085 0.30065077
-0.48934589 -0.51547250 0.00000000
-0.37148998 -0.19748674 0.00000000
0.46144137 0.27564283 0.33795292
0.52418557 0.23544018 0.21686956
0.39787094 0.32329731 0.42344402
-0.37121383 0.01622070 0.00000000
0.74264944 -0.08111744 -0.00000081
-0.20434754 -0.79565764 0.00000000
0.18810325 -0.16940076 0.00000000
-0.76837065 0.36231282 0.00000000
0.05515978 -0.51768861 0.00000000
0.67686853 -0.11110954 -0.00000064
0.06211029 -0.16734993 0.00000000
0.34239126 -0.55431787 0.00000000
-0.36157905 0.66541039 0.00000000
-0.18167124 0.48511186 0.00000000
0.29720011 0.47368438 0.15639203
0.05977943 0.73329223 0.03721110
0.07719963 -0.03022368 0.00000000
-0.36989145 0.03107208 0.00000000
0.49884092 -0.27619307 -0.00000011
0.60546002 -0.54098583 -0.00000011
-0.38961605 -0.42076732 0.00000000
-0.16994020 0.19846552 0.00000000
0.40062312 0.08538395 -0.00000022
0.51654132 0.06824262 -0.00000046
-0.33369533 0.24601444 0.00000000
-0.53858778 -0.47840300 0.00000000
0.64793612 0.13476935 0.09289367
-0.08076195 -0.10320852 0.00000000
0.76240507 -0.10078546 -0.00000083
0.28852218 0.48974807 0.11671843
0.21376597 0.22620780 0.00000000
-0.40021481 -0.21046581 0.00000000
0.32891071 -0.67846529 0.00000000
-0.05470460 -0.25084908 0.00000000
-0.73705825 0.41201176 0.00000000
0.12247443 0.43401281 0.00000000
-0.43664402 0.55109414 0.00000000
-0.30106939 0.73266859 0.00000000
0.02868729 0.73713931 -0.00000001
-0.67290612 0.42640086 0.00000000
-0.40897032 -0.63403484 0.00000000
0.58038828 0.19120923 -0.00000070
0.12647455 -0.27013277 0.00000000
-0.44914662 0.52536620 0.00000000
-0.64725161 0.25963498 0.00000000
0.28523365 0.44091892 0.39666907
-0.03817355 0.11132597 0.00000000
0.29291349 -0.57730904 0.00000000
0.15333712 -0.09405092 0.00000000
0.69450888 -0.47289769 -0.00000036
0.23417636 -0.12409100 0.00000000
0.40238470 0.39332124 0.02306026
0.13558749 -0.54033864 0.00000000
-0.04762919 0.56289221 0.00000000
0.64914845 0.13818762 0.06801982
0.77382194 -0.25035767 -0.00000069
-0.19331706 -0.32036726 0.00000000
-0.50984542 0.28643419 0.00000000
-0.16423458 -0.57172443 0.00000000
-0.56616216 -0.37260923 0.00000000
0.31990385 0.39792320 0.44138995
-0.54595125 0.14828074 0.00000000
-0.00646682 -0.41078376 0.00000000
0.18327218 0.12835326 0.00000000
-0.01898308 0.02533568 0.00000000
0.11539186 0.55391171 -0.00000003
-0.18895507 -0.41078259 0.00000000
0.56225606 0.21580184 -0.00000068
0.17683726 -0.35759316 0.00000000
0.04163006 0.57236153 0.00000000
0.75023696 -0.75939599 -0.00000005
-0.03083544 -0.27221208 0.00000000
-0.41735497 -0.43191955 0.00000000
-0.04230820 0.38620231 0.00000000
-0.24820040 0.73691744 0.00000000
0.04802054 -0.75694736 0.00000000
0.53673957 -0.71432009 0.00000000
0.37732541 0.41479212 0.04233592
0.21423670 0.29543680 -0.00000001
0.17183546 -0.21020351 0.00000000
0.28269178 -0.25851852 0.00000000
0.08112551 0.33937944 0.00000000
-0.24172772 0.37502199 0.00000000
0.52468976 -0.57896813 0.00000000
-0.67388617 -0.54668275 0.00000000
0.68040221 -0.18284608 -0.00000058
0.29182521 -0.37205568 0.00000000
-0.75555859 -0.24266596 0.00000000
0.16970005 0.27688595 0.00000000
-0.63685496 0.61915644 0.00000000
0.17843383 0.57877335 0.22985821
-0.22821694 0.48503335 0.00000000
0.57855336 0.19002676 0.16876988
0.43733592 -0.30770817 0.00000000
0.40368498 0.35724315 0.20987376
-0.72301636 0.16610680 0.00000000
-0.66341043 -0.45095193 0.00000000
0.25409971 -0.19813772 0.00000000
0.66250642 0.12328538 0.07631504
-0.27697232 -0.26552185 0.00000000
-0.43979921 0.37672192 0.00000000
0.55485933 0.22561166 0.10489658
-0.36645226 -0.58089681 0.00000000
-0.46563001 -0.45972476 0.00000000
-0.30233900 0.31326010 0.00000000
-0.41497194 0.25019772 0.00000000
0.61761299 -0.70089687 0.00000000
0.07373427 0.71654159 0.05222890
0.33351623 -0.21716459 0.00000000
0.35141762 0.07536456 -0.00000011
0.20183064 0.14618762 0.00000000
-0.06380412 -0.48808726 0.00000000
0.35929471 0.37320339 0.36258539
0.62830791 0.15610885 0.08370126
-0.70230514 0.72351321 0.00000000
0.35128997 0.43230262 0.08812880
-0.24372933 0.30628138 0.00000000
-0.67012018 0.54195473 0.00000000
0.05243222 0.13401511 0.00000000
-0.07091019 0.79384241 0.00000000
-0.20543663 0.39204183 0.00000000
0.07150546 0.44842697 0.00000000
-0.35434890 -0.66286849 0.00000000
0.73470014 -0.61448454 -0.00000023
0.20476448 0.53863577 0.30402224
0.11336028 -0.15288315 0.00000000
0.05163317 -0.57189541 0.00000000
0.35208231 0.42164002 0.14114814
-0.51310241 -0.68322748 0.00000000
0.30126318 0.42332617 0.40506609
0.68453647 -0.18813058 -0.00000059
-0.29569606 0.65816247 0.00000000
0.52531336 0.26415809 0.05654954
-0.63833922 -0.38426496 0.00000000
-0.24465478 0.02411838 0.00000000
0.31215446 0.24913502 -0.00000018
-0.03828370 0.06325149 0.00000000
0.22254296 -0.79381589 0.00000000
0.23217182 0.54012368 0.14881253
-0.28242576 0.67946107 0.00000000
0.49812792 0.28407925 0.09557059
0.18612443 -0.12933773 0.00000000
-0.50227310 -0.61044619 0.00000000
-0.04487279 -0.12515544 0.00000000
-0.21076788 0.57913627 0.00000000
-0.30933612 -0.48811485 0.00000000
0.08457448 0.66891191 -0.00000006
0.46418254 -0.62963507 0.00000000
0.16952490 0.58018284 0.27014112
0.09960566 0.68885278 0.06199149
0.70990048 0.06743836 -0.00000087
-0.00503655 -0.53352522 0.00000000
-0.25347208 -0.78364334 0.00000000
-0.77044870 0.38983806 0.00000000
0.09853443 0.41456768 0.00000000
0.01428980 -0.22692900 0.00000000
-0.37588267 -0.24809048 0.00000000
0.20226603 0.43458476 -0.00000011
-0.13126205 0.17597182 0.00000000
0.59713524 0.14405222 -0.00000069
0.11763984 0.67358789 0.04711591
-0.77308826 -0.39054753 0.00000000
-0.74441936 0.42497232 0.00000000
-0.75277825 -0.76932593 0.00000000
-0.75048072 0.20263542 0.00000000
-0.31288395 -0.09396874 0.00000000
0.28269031 -0.41557055 0.00000000
-0.66246297 -0.22510077 0.00000000
0.35410118 -0.22821303 0.00000000
-0.40458918 0.69697966 0.00000000
0.76810105 -0.51839680 -0.00000035
0.43979846 -0.34291085 0.00000000
0.55595714 0.19529096 -0.00000065
0.13069834 -0.71580693 0.00000000
-0.36180750 0.45943493 0.00000000
0.33002455 0.42791732 0.22591431
0.33180446 -0.14243436 0.00000000
0.41590668 0.16186366 -0.00000032
-0.35236061 -0.17157021 0.00000000
-0.24743982 0.12612297 0.00000000
0.42448277 0.32030282 0.29658445
-0.20274235 0.11613344 0.00000000
-0.03461676 0.09662642 0.00000000
0.41634121 -0.62472584 0.00000000
0.10586814 0.66271909 0.16872937
-0.42622076 -0.79491423 0.00000000
0.71269168 -0.57944653 -0.00000028
0.01941905 0.56289116 0.00000000
-0.19777837 0.48836035 0.00000000
0.37508175 0.34427754 0.43316045
-0.63020990 -0.36975544 0.00000000
-0.52108006 -0.70097776 0.00000000
-0.00234339 0.69278675 0.00000000
-0.09134947 0.12219016 0.00000000
