ply
format ascii 1.0
element vertex 1402
property float x
property float y
property float z
end_header
-0.56574113 0.10436803 0.00000000
0.20006920 -0.46100871 0.00000000
0.50390358 -0.35114336 -0.00000006
-0.00583534 0.24249462 0.00000000
0.55233304 -0.47656663 -0.00000005
0.31083878 0.48651474 0.10725790
0.33947170 0.28848652 -0.00000027
-0.27644706 0.19790922 0.00000000
0.15269004 0.64275229 0.18472602
-0.57734706 0.04909211 0.00000000
0.22127415 0.11412386 0.00000000
0.05810928 0.59979718 0.00000000
0.43496690 -0.30482931 0.00000000
0.51480195 -0.63206287 0.00000000
-0.55223758 -0.40471183 0.00000000
0.63322951 -0.19045558 -0.00000048
-0.30764128 -0.67852706 0.00000000
-0.15488112 0.05068297 0.00000000
-0.40463991 0.06121533 0.00000000
0.64629284 -0.64261764 -0.00000010
-0.03546801 -0.40511753 0.00000000
-0.17695451 -0.49617793 0.00000000
-0.70327718 0.66356281 0.00000000
0.28039993 0.50979084 0.39761675
0.32647912 -0.46638558 0.00000000
-0.13686886 -0.79524815 0.00000000
-0.43475432 0.35649646 0.00000000
-0.50296481 0.52685563 0.00000000
0.22138218 -0.07864004 0.00000000
-0.00775633 -0.58680091 0.00000000
-0.20613162 -0.00525688 0.00000000
-0.64933344 0.57145247 0.00000000
-0.25479407 0.52815245 0.00000000
-0.76785738 -0.72829419 0.00000000
0.64778305 -0.47331867 -0.00000026
0.69505301 -0.20815849 -0.00000059
-0.01042226 0.15084050 0.00000000
-0.59993399 0.58828763 0.00000000
-0.28658593 -0.46549634 0.00000000
-0.76380341 0.40499069 0.00000000
0.03104990 0.23373631 0.00000000
-0.63573918 0.60576399 0.00000000
-0.03731867 0.61394182 0.00000000
-0.04081075 0.21946874 0.00000000
-0.11000910 0.11738326 0.00000000
-0.30978144 0.58035073 0.00000000
-0.47887806 -0.13565982 0.00000000
-0.11259301 0.62968222 0.00000000
-0.28998205 -0.76512746 0.00000000
0.12725498 0.66914193 0.14602869
-0.54596022 -0.66454480 0.00000000
0.36774110 -0.06544414 -0.00000002
-0.16449871 -0.39218379 0.00000000
-0.34154995 0.61513427 0.00000000
0.05710775 -0.37895238 0.00000000
-0.42438252 -0.39337898 0.00000000
0.47491627 -0.53486557 0.00000000
-0.25051679 -0.72538639 0.00000000
-0.45732714 0.49176146 0.00000000
0.76020653 -0.08556606 -0.00000084
0.22493718 0.03798252 0.00000000
-0.33059192 -0.26283145 0.00000000
-0.41407492 0.03412466 0.00000000
0.44139066 0.35046655 0.33008497
-0.12003047 0.44285769 0.00000000
0.56098859 0.23625719 0.11162555
0.66210114 -0.07850437 -0.00000064
0.42578682 0.20892100 -0.00000039
0.25674187 0.23489438 -0.00000005
0.74445543 -0.73929693 -0.00000008
0.08246364 0.33701431 0.00000000
-0.49802851 0.42600829 0.00000000
-0.68714596 0.72356908 0.00000000
-0.14261707 0.26409371 0.00000000
-0.01917450 -0.35300080 0.00000000
0.26110997 0.53773248 0.04689117
-0.17492623 -0.17078262 0.00000000
0.63574800 -0.22008161 -0.00000045
-0.19357928 0.64910240 0.00000000
-0.63293369 -0.66445787 0.00000000
-0.33191318 -0.79377805 0.00000000
-0.64797381 -0.49276266 0.00000000
-0.73441863 -0.20833852 0.00000000
0.24155289 -0.44488867 0.00000000
0.67605559 -0.76574357 -0.00000004
0.20573891 -0.31307442 0.00000000
-0.28492183 -0.50482471 0.00000000
-0.36798502 -0.58154539 0.00000000
-0.73425880 0.17314239 0.00000000
0.35075027 -0.56338851 0.00000000
0.42614702 -0.72229649 0.00000000
0.30803290 0.25965130 -0.00000018
0.42515348 -0.28062673 0.00000000
0.71975575 -0.34240911 -0.00000053
-0.48369903 -0.10594493 0.00000000
0.34343479 0.33073442 -0.00000032
-0.61913222 0.41674516 0.00000000
0.74118830 -0.15148786 -0.00000074
0.41401309 -0.13502557 -0.00000006
0.18581800 0.02118139 0.00000000
-0.61947722 -0.39018551 0.00000000
0.23070265 -0.33720791 0.00000000
-0.17050024 0.73269374 0.00000000
-0.30935206 0.13756408 0.00000000
-0.74481121 0.78748144 0.00000000
0.45923430 0.07468161 -0.00000034
-0.60075695 0.70803780 0.00000000
-0.31674793 -0.23441748 0.00000000
-0.55515716 0.48800042 0.00000000
0.04916635 0.33558015 0.00000000
0.66907405 -0.29003322 -0.00000046
-0.41531160 0.50711747 0.00000000
0.19952832 -0.23139392 0.00000000
-0.66771181 0.37466312 0.00000000
-0.41030325 0.33472739 0.00000000
-0.13800508 0.78505168 0.00000000
-0.16225995 0.47619276 0.00000000
-0.00946187 0.12418760 0.00000000
0.33447972 -0.03765248 0.00000000
0.27906371 -0.06135029 0.00000000
0.42541936 0.36798516 0.26736203
-0.52156760 -0.65677065 0.00000000
0.19977623 0.28313725 0.00000000
0.18703185 0.61246163 0.02049618
-0.49729415 0.08504783 0.00000000
0.05142386 -0.77722404 0.00000000
0.32676811 0.26571723 -0.00000023
0.70623128 -0.18477097 -0.00000064
0.04432357 -0.29781209 0.00000000
-0.31579817 -0.47329699 0.00000000
-0.27392301 -0.23500305 0.00000000
-0.01446074 0.40870936 0.00000000
0.04474035 -0.10526111 0.00000000
-0.18832769 -0.75016955 0.00000000
-0.58235728 0.46676630 0.00000000
-0.76756109 -0.03201002 0.00000000
-0.21522797 -0.39369042 0.00000000
0.00617894 -0.22534288 0.00000000
-0.46120960 0.19080851 0.00000000
0.75749618 -0.05625007 -0.00000086
-0.74049364 0.76399480 0.00000000
-0.22056004 0.37404355 0.00000000
0.11354360 -0.20401809 0.00000000
-0.03287896 0.08706805 0.00000000
-0.64911090 0.09270763 0.00000000
0.75846355 -0.60069519 -0.00000025
0.10203180 0.38918468 0.00000000
-0.33365494 0.21109910 0.00000000
-0.20430095 -0.29279456 0.00000000
0.26323675 0.52833511 0.34163121
-0.49692584 0.09852149 0.00000000
0.54348331 -0.08549799 -0.00000038
-0.01835216 0.49486679 0.00000000
-0.17257608 0.57612427 0.00000000
0.18749414 -0.46593258 0.00000000
0.15297174 0.64385103 0.12876891
0.31220590 -0.35687895 0.00000000
0.61453480 -0.61334949 -0.00000006
-0.73226234 -0.77773309 0.00000000
-0.71649206 -0.17776179 0.00000000
-0.61059062 0.25727375 0.00000000
-0.39512238 -0.08343110 0.00000000
-0.08556982 -0.75612401 0.00000000
0.09808892 -0.18205706 0.00000000
0.14117325 -0.46032436 0.00000000
0.78471514 -0.74136379 -0.00000007
-0.47368001 -0.09156596 0.00000000
0.28989855 0.26786181 -0.00000015
-0.20414586 0.32640361 0.00000000
-0.59753367 0.19531990 0.00000000
0.72449583 -0.49347193 -0.00000038
-0.66682603 -0.20987683 0.00000000
0.70484436 -0.40151300 -0.00000044
-0.06563126 0.16857339 0.00000000
-0.00992401 0.40112894 0.00000000
0.72448917 -0.15729783 -0.00000070
-0.44757398 0.67856279 0.00000000
-0.42540683 0.58574868 0.00000000
-0.57610553 -0.79947778 0.00000000
-0.47944054 0.21030704 0.00000000
0.12972398 -0.42752153 0.00000000
0.21021060 0.58848255 0.05294416
-0.04797917 0.48919715 0.00000000
0.51450191 0.28333262 0.08775542
0.46199267 -0.09091421 -0.00000020
0.40523636 0.38593258 0.35798058
0.31821689 -0.46058643 0.00000000
0.23165798 0.37736783 -0.00000012
0.71600942 -0.01528355 -0.00000081
0.47561111 0.31667626 0.31265250
-0.43412587 -0.73372781 0.00000000
0.23263929 -0.65835472 0.00000000
0.31162921 -0.66258939 0.00000000
0.07464694 -0.15546196 0.00000000
-0.33722361 0.68217531 0.00000000
-0.73721606 0.11573215 0.00000000
-0.33028144 0.45562945 0.00000000
-0.53007767 0.32882907 0.00000000
0.05292763 -0.50728580 0.00000000
-0.54611875 0.12582605 0.00000000
-0.34083247 0.75631406 0.00000000
0.02608971 -0.13886047 0.00000000
0.33468515 -0.17380961 0.00000000
-0.62295409 0.74976258 0.00000000
0.68916018 -0.62750933 -0.00000021
0.31023718 0.44174253 -0.00000035
0.48710705 -0.23075336 -0.00000013
-0.52454591 0.27416724 0.00000000
-0.24744869 0.34044820 0.00000000
-0.54742889 -0.41539315 0.00000000
-0.22600257 -0.76424371 0.00000000
0.43384099 -0.44410632 0.00000000
-0.66256239 -0.05359497 0.00000000
0.13425041 0.25561999 0.00000000
-0.54383124 0.62738582 0.00000000
0.43628371 0.36207196 0.06662687
-0.73081210 0.02480663 0.00000000
0.56475782 -0.41998788 -0.00000013
0.19669846 0.49436090 -0.00000015
-0.02612634 0.72322179 0.00000000
-0.69244786 0.55048711 0.00000000
-0.32523811 0.78094701 0.00000000
0.33788940 -0.22004916 0.00000000
0.44227071 0.31883476 -0.00000052
-0.22708107 -0.58742221 0.00000000
0.34375720 0.44515367 0.44950599
-0.54132930 -0.21848487 0.00000000
0.41603306 0.37338094 0.42911960
-0.03799131 0.36998120 0.00000000
0.32826796 -0.38408240 0.00000000
-0.22133115 0.13791735 0.00000000
0.51720006 -0.69183501 0.00000000
0.25220128 -0.35005515 0.00000000
0.76623327 -0.72988355 -0.00000009
0.65114253 0.04065834 -0.00000072
-0.23428046 -0.10313845 0.00000000
-0.61152056 0.32550368 0.00000000
0.44894256 -0.17227294 -0.00000010
-0.56725678 -0.34242269 0.00000000
-0.10844106 -0.62055249 0.00000000
0.32257809 0.46974544 0.31116883
0.37351363 -0.22163733 0.00000000
-0.17962958 0.69087701 0.00000000
-0.49083683 -0.40736277 0.00000000
0.10709802 0.07795136 0.00000000
-0.20782828 0.44601930 0.00000000
0.51930184 0.27629041 0.17866607
-0.45920521 0.17528197 0.00000000
0.51791226 0.27611893 0.24195768
0.41627369 -0.59183414 0.00000000
-0.48100617 0.44397044 0.00000000
0.50508547 -0.47412109 0.00000000
-0.27610644 0.57014183 0.00000000
0.37257224 0.41984279 0.30746561
-0.47716281 0.64574752 0.00000000
-0.46151863 0.78032608 0.00000000
0.04776085 0.53241585 0.00000000
-0.39228632 -0.09539148 0.00000000
-0.73935096 -0.79802959 0.00000000
0.61140454 -0.02819505 -0.00000057
-0.59675863 0.61834857 0.00000000
0.44912292 -0.02696502 -0.00000023
-0.21483671 -0.03221190 0.00000000
0.34194101 -0.44060374 0.00000000
-0.00483924 0.20529546 0.00000000
-0.26578072 0.19673249 0.00000000
-0.13213720 -0.57694615 0.00000000
-0.55963062 0.57243965 0.00000000
0.28260928 0.08460093 0.00000000
-0.45361999 0.58239524 0.00000000
0.67381404 -0.41299554 -0.00000037
0.25968272 0.07394328 0.00000000
0.62728177 0.16950977 0.13004240
-0.12865979 0.79282424 0.00000000
0.08533395 0.15980442 0.00000000
-0.44981596 0.73980619 0.00000000
0.08091345 -0.67698834 0.00000000
0.39487458 -0.32818115 0.00000000
0.05857960 0.21410391 0.00000000
0.73064156 0.06904030 0.01285775
-0.35627885 -0.06576474 0.00000000
0.03696189 -0.11363073 0.00000000
-0.62359740 0.43981743 0.00000000
0.48892267 -0.65695130 0.00000000
-0.02306354 0.47116215 0.00000000
-0.22467942 0.31483210 0.00000000
0.34823146 0.44755015 0.17098918
-0.67291871 -0.52013019 0.00000000
-0.60445872 0.47487442 0.00000000
0.55205371 0.24333373 0.18696974
-0.51648608 -0.74948848 0.00000000
-0.22069067 0.59347534 0.00000000
-0.34079676 0.11441010 0.00000000
-0.78963326 0.12993276 0.00000000
0.35688595 0.22452524 -0.00000025
0.41570826 -0.78179079 0.00000000
-0.07484783 -0.16389616 0.00000000
-0.60718560 -0.79997672 0.00000000
-0.76932647 0.19224703 0.00000000
0.55529156 0.24024003 0.18112561
0.40806014 0.39024181 0.06880509
-0.40977164 0.72916318 0.00000000
-0.77839801 0.75585966 0.00000000
0.32991846 -0.20285618 0.00000000
0.43462826 0.35993777 0.22027311
0.02113837 0.60657739 0.00000000
0.20004560 0.14422298 0.00000000
-0.70838201 0.77452764 0.00000000
0.18107224 -0.53991300 0.00000000
0.51704525 -0.45180903 0.00000000
-0.41393535 0.11983835 0.00000000
-0.41299299 0.06429269 0.00000000
0.43053722 -0.50454258 0.00000000
-0.47008353 -0.56527874 0.00000000
0.63015120 0.16732774 0.10217247
-0.78335730 0.49424020 0.00000000
-0.55557955 -0.72043135 0.00000000
0.20712078 0.58733060 0.22490136
0.38498436 0.40721706 0.31612585
0.12219210 -0.24136220 0.00000000
0.29444159 -0.18533147 0.00000000
-0.76301571 0.69478447 0.00000000
0.69623298 -0.71804945 -0.00000010
-0.70686614 0.49425768 0.00000000
0.08657284 -0.08355077 0.00000000
0.51481279 -0.02726636 -0.00000037
0.14041996 0.62011126 -0.00000014
0.46711541 -0.03703325 -0.00000026
0.16764046 0.54343541 -0.00000013
-0.31500819 0.58983462 0.00000000
-0.09358741 0.32841782 0.00000000
-0.39001738 0.43376448 0.00000000
-0.05669906 0.54789211 0.00000000
-0.15350777 0.34289131 0.00000000
-0.66503871 -0.02014247 0.00000000
-0.06543088 0.79342755 0.00000000
-0.69739142 0.27762789 0.00000000
0.28365650 -0.50809029 0.00000000
-0.38945429 0.58758157 0.00000000
0.59684035 -0.24279018 -0.00000035
0.63698817 -0.49469500 -0.00000021
0.72215553 0.07562307 0.09002336
0.60130789 -0.36995477 -0.00000025
0.71817026 0.00891803 -0.00000083
0.09057935 -0.11365869 0.00000000
0.33907200 0.16295721 -0.00000016
0.34479005 0.44727153 0.32178952
0.59642763 -0.74349604 0.00000000
-0.42932960 -0.15422809 0.00000000
0.12620548 0.67209218 0.06897910
0.47256114 -0.54997440 0.00000000
-0.12940524 -0.32989679 0.00000000
-0.62193058 -0.09907562 0.00000000
-0.72836657 -0.67156935 0.00000000
-0.30209785 0.70894494 0.00000000
-0.24022162 -0.56790199 0.00000000
-0.36663586 0.58477045 0.00000000
0.23305272 -0.12106972 0.00000000
0.03115662 0.40090663 0.00000000
0.07525313 0.64891298 -0.00000003
0.45797836 -0.79390935 0.00000000
0.66409612 -0.39918592 -0.00000036
0.52911875 -0.31856471 -0.00000014
-0.47003101 -0.17531326 0.00000000
-0.39309836 0.47663001 0.00000000
0.48019094 0.31617171 0.14743135
0.27387864 0.52055634 0.22557420
-0.24159552 0.31657456 0.00000000
-0.19065980 0.30175553 0.00000000
0.59114449 -0.57304287 -0.00000005
-0.36765128 0.58243354 0.00000000
0.71237710 0.08545314 0.08792945
-0.00390977 0.04633918 0.00000000
0.41059358 0.38178986 0.30875045
0.58036542 0.21436849 0.21346645
-0.40349048 0.26830070 0.00000000
0.31298791 0.09201203 -0.00000004
-0.51089178 -0.78011925 0.00000000
-0.34172327 0.06777926 0.00000000
0.77725649 -0.08539037 -0.00000088
0.65583354 -0.70921767 -0.00000007
-0.32696399 0.72332086 0.00000000
-0.62007873 0.75859793 0.00000000
-0.45438428 -0.50457272 0.00000000
0.42914271 -0.04637450 -0.00000017
-0.10170246 0.24391715 0.00000000
-0.14336070 -0.36176105 0.00000000
-0.44711452 0.49769278 0.00000000
0.67742007 0.11935055 0.13089036
0.57191434 -0.30215572 -0.00000025
-0.59515186 0.56981539 0.00000000
-0.05424461 -0.39027179 0.00000000
-0.47524635 0.62164555 0.00000000
0.30021393 -0.16925549 0.00000000
-0.11084666 0.59420071 0.00000000
-0.27085530 -0.12870341 0.00000000
0.20532461 0.46415275 -0.00000014
0.13821263 0.65777643 0.16256254
-0.24714401 -0.03926938 0.00000000
0.07182263 0.34214928 0.00000000
0.02109258 -0.74169737 0.00000000
0.77772771 -0.56139951 -0.00000030
0.25052965 0.53436539 -0.00000030
-0.20672751 -0.68606047 0.00000000
-0.26181835 0.46628129 0.00000000
-0.08122335 -0.19192196 0.00000000
0.17972217 0.07956788 0.00000000
-0.35296006 -0.72256602 0.00000000
0.38606041 -0.67579848 0.00000000
-0.03891118 0.23608631 0.00000000
0.58435604 -0.36408600 -0.00000022
0.55701820 0.23803914 0.20035369
0.14161406 0.65813058 0.01031282
-0.41672239 0.09991087 0.00000000
0.29293743 -0.09513539 0.00000000
0.14730631 -0.69016337 0.00000000
0.29335895 0.09061546 0.00000000
0.70285114 -0.06517468 -0.00000074
0.48094514 0.31422746 0.19568047
-0.59582036 0.74783824 0.00000000
0.70246323 0.04412233 -0.00000083
-0.35583559 -0.40388414 0.00000000
-0.23422145 0.48526258 0.00000000
0.09072084 0.70854116 0.02988087
-0.56161123 0.07748105 0.00000000
0.35331170 0.44206553 0.18738401
-0.02237308 0.69435682 0.00000000
-0.24515473 0.78621766 0.00000000
0.37299662 0.24500825 -0.00000031
-0.64477230 0.13141671 0.00000000
0.39237214 0.27738957 -0.00000038
-0.76862699 0.66896627 0.00000000
0.08262325 0.53015139 0.00000000
0.24687965 0.04801441 0.00000000
0.43510116 0.35984206 0.20498058
0.28821536 0.51051514 0.05142986
-0.60727542 -0.26096852 0.00000000
0.14249831 -0.14604364 0.00000000
0.17560673 0.62405567 0.01364761
-0.56168045 -0.37701671 0.00000000
0.73313901 -0.39591109 -0.00000051
0.27682218 -0.65330003 0.00000000
-0.24467270 0.63352851 0.00000000
-0.74632788 -0.18845466 0.00000000
-0.35249603 -0.00439078 0.00000000
-0.75883146 0.28319778 0.00000000
-0.39024342 -0.61059387 0.00000000
0.56321478 -0.01297348 -0.00000048
0.25893010 0.42588423 -0.00000022
0.45239433 -0.65282893 0.00000000
0.28586876 -0.58655234 0.00000000
0.43766812 -0.07354931 -0.00000016
-0.70882352 -0.22616528 0.00000000
-0.02080551 0.68650207 0.00000000
-0.69504080 -0.72229888 0.00000000
0.54813582 0.19127782 -0.00000063
0.66867106 -0.63077493 -0.00000016
0.30417392 0.48875622 0.28657733
-0.79229905 -0.51581217 0.00000000
-0.58313515 -0.38426307 0.00000000
0.70743788 -0.66091319 -0.00000017
0.67211520 0.07908869 -0.00000080
0.33005314 0.35436973 -0.00000031
0.07990430 0.63423079 -0.00000002
0.33845099 0.46049568 0.04266555
-0.61685676 -0.56117022 0.00000000
0.26037371 0.34469727 -0.00000015
0.23824477 0.05598770 0.00000000
-0.67092881 0.32621753 0.00000000
0.65449841 0.14111267 0.17790272
-0.56468613 0.32115506 0.00000000
0.66736447 -0.61827643 -0.00000017
0.02881233 0.59309411 0.00000000
0.49446546 -0.33829206 -0.00000005
-0.47462925 0.24023744 0.00000000
-0.58865941 -0.45329171 0.00000000
-0.06398032 0.45912172 0.00000000
-0.23723848 0.77336548 0.00000000
0.39726048 0.23627418 -0.00000035
-0.55936518 -0.66653082 0.00000000
-0.56117938 0.26864537 0.00000000
-0.74158107 -0.42799775 0.00000000
-0.27465486 -0.05741712 0.00000000
0.34317170 -0.37962229 0.00000000
-0.73438694 0.42409096 0.00000000
0.33087581 -0.53496297 0.00000000
-0.11717373 0.67268251 0.00000000
-0.01876365 -0.14120119 0.00000000
0.39276186 -0.72169737 0.00000000
0.62091958 -0.65337760 -0.00000004
0.33075187 0.46081269 0.34193532
0.12742257 0.53335404 -0.00000004
-0.37056016 -0.24449792 0.00000000
-0.19402905 -0.34402167 0.00000000
0.46239184 0.33630112 0.05295171
0.24870676 0.54996485 0.05381788
-0.18219823 -0.10399882 0.00000000
-0.02877301 -0.68013529 0.00000000
0.14187502 -0.04108365 0.00000000
0.73800605 -0.36542973 -0.00000054
0.24968990 -0.35389341 0.00000000
-0.20502787 0.34087497 0.00000000
-0.10636631 -0.11036972 0.00000000
-0.22813028 0.61103143 0.00000000
-0.27563599 0.52244815 0.00000000
0.08388221 0.71564179 0.01925880
0.01927088 0.32079563 0.00000000
0.07279490 0.61955103 0.00000000
-0.25343525 0.06991797 0.00000000
0.01002921 -0.43323817 0.00000000
-0.62443863 0.68607549 0.00000000
0.69233072 -0.30890579 -0.00000050
-0.03620158 -0.65939597 0.00000000
0.35537583 -0.07031628 0.00000000
0.71175690 -0.45899974 -0.00000041
-0.74110084 -0.62972031 0.00000000
-0.71875574 -0.60723659 0.00000000
-0.66796060 0.77592317 0.00000000
0.61258957 -0.19226357 -0.00000043
-0.57279858 0.02239499 0.00000000
-0.44663436 0.35083792 0.00000000
0.23691001 -0.35175086 0.00000000
0.71879083 -0.54714009 -0.00000032
-0.38464858 0.38722907 0.00000000
0.28845376 -0.75703770 0.00000000
0.51050602 0.28883974 0.02648479
-0.55986915 -0.09933412 0.00000000
0.48823266 0.23543106 -0.00000054
-0.13851209 0.34017403 0.00000000
0.24950790 0.54699598 0.14170571
-0.36941808 0.05963637 0.00000000
0.57915903 0.09220993 -0.00000061
0.31535794 0.48268568 0.07927871
0.76378218 -0.32981174 -0.00000059
-0.11858132 0.48004009 0.00000000
-0.44123490 0.42445277 0.00000000
0.62380927 -0.61676166 -0.00000008
-0.58184556 -0.07801723 0.00000000
0.58844990 -0.63216051 0.00000000
0.57262956 -0.75996581 0.00000000
-0.51537818 -0.15041960 0.00000000
-0.11250301 0.11687510 0.00000000
-0.49384201 0.41273225 0.00000000
0.06628072 0.09965591 0.00000000
-0.51741615 -0.17897631 0.00000000
0.25967141 0.47509263 -0.00000027
-0.46113570 0.57464480 0.00000000
0.08019790 -0.24850266 0.00000000
-0.60123960 0.28945091 0.00000000
-0.55467108 -0.09250843 0.00000000
0.60658518 0.18729356 0.24813840
-0.52065633 0.78822175 0.00000000
0.10722329 0.26684928 0.00000000
-0.19596570 -0.72749963 0.00000000
0.37887790 -0.14108348 0.00000000
-0.05836784 -0.58718272 0.00000000
0.48056760 0.11332055 -0.00000042
-0.45959458 0.00307811 0.00000000
0.12049181 -0.48113249 0.00000000
-0.10176499 -0.34067458 0.00000000
-0.76446040 0.49110215 0.00000000
-0.73672123 -0.13808175 0.00000000
0.49863363 0.18479625 -0.00000052
0.50685728 -0.31919018 -0.00000009
-0.19793823 -0.31092906 0.00000000
-0.06973895 -0.32912534 0.00000000
0.58337877 0.11858912 -0.00000064
0.23739294 -0.42409015 0.00000000
0.19727474 0.59829840 0.17942881
0.51741225 -0.07928388 -0.00000033
0.05599047 0.57026114 0.00000000
-0.02681156 -0.68507730 0.00000000
-0.58351060 0.07713092 0.00000000
0.78746993 -0.13807541 -0.00000083
0.27921509 0.13232826 -0.00000001
-0.15585077 0.47332998 0.00000000
0.31022564 -0.43483035 0.00000000
-0.44051123 0.16246979 0.00000000
0.41202493 0.02868683 -0.00000020
0.32824710 -0.45891271 0.00000000
0.79044185 -0.47705521 -0.00000040
0.33954658 0.35723338 -0.00000033
0.41595037 0.37444532 0.38932574
0.59646450 -0.58782132 -0.00000005
-0.45396534 -0.47133486 0.00000000
0.32104800 0.33874626 -0.00000028
-0.01504854 -0.29248585 0.00000000
-0.45673363 -0.18315688 0.00000000
-0.02626155 -0.28859388 0.00000000
-0.75084842 -0.10967618 0.00000000
-0.44113447 -0.37805724 0.00000000
-0.20172766 0.47241158 0.00000000
-0.47789298 -0.51848253 0.00000000
0.70853172 -0.46397784 -0.00000039
0.03168884 0.62804122 0.00000000
-0.57230374 0.67200596 0.00000000
-0.00049515 0.22041371 0.00000000
0.07993464 0.43454556 0.00000000
-0.73882572 0.08576400 0.00000000
0.57825183 -0.61782883 0.00000000
0.11415439 -0.58146048 0.00000000
0.24884179 0.54925281 0.07721198
-0.26904420 -0.24540052 0.00000000
-0.65450114 0.55654469 0.00000000
-0.36279428 0.78159361 0.00000000
-0.38112551 0.46771788 0.00000000
-0.23734623 -0.30288951 0.00000000
0.15442536 0.64265759 0.11822260
-0.32269570 -0.26800833 0.00000000
0.16489432 -0.61494190 0.00000000
0.53467892 -0.70140723 0.00000000
0.11527785 -0.65892220 0.00000000
-0.40771198 -0.75919115 0.00000000
0.18434956 -0.20647645 0.00000000
0.33383189 -0.79632558 0.00000000
-0.79523568 0.70627690 0.00000000
-0.27338935 0.20816648 0.00000000
-0.03028158 0.29124991 0.00000000
0.79668792 -0.39658126 -0.00000050
-0.08117935 0.69474837 0.00000000
-0.21248266 -0.34954996 0.00000000
-0.01964078 0.75681477 0.00000000
-0.19944306 -0.35666161 0.00000000
-0.05246744 0.28327034 0.00000000
0.36070310 -0.12939992 0.00000000
0.37568113 0.42058293 0.15142876
-0.25290538 0.67666546 0.00000000
-0.26714004 0.39670536 0.00000000
0.32861669 -0.52460061 0.00000000
-0.00613410 -0.45025363 0.00000000
-0.65534477 0.20585106 0.00000000
-0.66249951 -0.02662485 0.00000000
0.15146966 0.31700839 0.00000000
0.46180476 -0.50046597 0.00000000
0.51883193 -0.79402405 0.00000000
-0.79570062 -0.55364415 0.00000000
0.43456780 0.35316448 0.49729125
0.19436507 -0.52434380 0.00000000
-0.44055909 0.63354959 0.00000000
-0.61175960 0.02353289 0.00000000
-0.58142899 -0.35497971 0.00000000
-0.28560767 0.68203127 0.00000000
0.53396386 0.11922328 -0.00000054
-0.14038910 0.69324641 0.00000000
-0.02534528 -0.52333300 0.00000000
-0.47605190 0.62595082 0.00000000
0.15475204 0.64146038 0.15351009
-0.14192095 -0.49629196 0.00000000
0.02560939 -0.22785226 0.00000000
0.47924673 0.31124203 0.38556097
-0.47857439 0.70134846 0.00000000
0.10387552 -0.00635975 0.00000000
-0.76918780 0.56754123 0.00000000
-0.74460206 0.04016494 0.00000000
-0.68150356 -0.22606864 0.00000000
-0.36367850 0.64633624 0.00000000
0.19678813 0.60306583 0.00588078
0.39870416 0.22138258 -0.00000034
-0.12389846 0.16919351 0.00000000
0.42445628 -0.18208338 -0.00000004
-0.01133161 0.25283618 0.00000000
-0.46179585 0.32875900 0.00000000
-0.33588723 -0.53747494 0.00000000
-0.24720820 -0.65138353 0.00000000
0.42248616 0.08594287 -0.00000027
0.74305865 -0.61749884 -0.00000023
0.49297299 0.29908816 0.32182435
-0.00596580 0.62970264 0.00000000
-0.63025175 0.33034336 0.00000000
0.72258369 -0.59756904 -0.00000025
-0.76925584 0.28618284 0.00000000
0.27435139 0.30751112 -0.00000015
0.43492728 -0.61592163 0.00000000
0.48302900 0.31415517 0.11412387
-0.18532894 0.30599740 0.00000000
0.24258322 0.55088398 0.26479990
-0.62308684 -0.37330418 0.00000000
0.28870960 -0.16683301 0.00000000
0.79273485 -0.32227957 -0.00000060
-0.04351137 0.12534498 0.00000000
-0.77425381 0.25686612 0.00000000
-0.42186100 -0.66234968 0.00000000
0.44635804 0.35077683 0.11612260
-0.27679495 -0.28151959 0.00000000
-0.58225554 0.03213981 0.00000000
-0.29403716 -0.64594137 0.00000000
0.06390554 0.44943138 0.00000000
-0.63952271 0.64314848 0.00000000
0.05771633 0.27825752 0.00000000
-0.11382770 0.52325776 0.00000000
0.25144235 0.12090801 0.00000000
-0.75225963 -0.79528675 0.00000000
-0.42275351 0.47044317 0.00000000
-0.06499857 0.40528464 0.00000000
-0.72722568 0.56413875 0.00000000
0.08608178 -0.10631330 0.00000000
0.38185847 0.40607592 0.48909278
0.54115329 -0.12097203 -0.00000034
-0.06784293 -0.24810583 0.00000000
0.57583949 -0.11725999 -0.00000042
-0.35940607 -0.10925837 0.00000000
-0.52735727 0.29450594 0.00000000
-0.11358241 -0.36498263 0.00000000
0.32858413 0.46853780 0.11664758
-0.06492664 -0.55830829 0.00000000
-0.33098404 0.26317857 0.00000000
-0.74890120 -0.53657015 0.00000000
0.70679669 -0.59747502 -0.00000025
-0.37984165 0.52123694 0.00000000
0.19818118 -0.68370359 0.00000000
-0.31577267 -0.64627311 0.00000000
0.08317595 0.34437055 0.00000000
0.14298836 -0.30047022 0.00000000
0.28935287 -0.23955691 0.00000000
-0.47802797 0.00691551 0.00000000
0.66140006 0.13516105 0.13938508
-0.35600283 -0.14134620 0.00000000
0.22724597 0.35704383 -0.00000009
-0.63950066 0.66370656 0.00000000
0.18137295 -0.60133293 0.00000000
0.08864221 -0.12176304 0.00000000
0.10566791 -0.52098605 0.00000000
-0.24914387 0.76876991 0.00000000
0.12904935 0.42705953 0.00000000
0.37591352 0.41955272 0.18377573
0.06101204 -0.61072737 0.00000000
0.54597531 0.25039146 0.14726407
-0.43048986 0.10977295 0.00000000
-0.49313167 0.08660472 0.00000000
-0.68051627 -0.58124005 0.00000000
0.35148425 0.44475483 0.15244155
-0.28433872 -0.15753221 0.00000000
-0.35640229 0.35299608 0.00000000
0.41007883 -0.55498569 0.00000000
0.37103354 -0.42965726 0.00000000
-0.13675504 -0.67636022 0.00000000
0.14024482 0.07231087 0.00000000
0.51602973 -0.60410055 0.00000000
-0.06321193 -0.35783735 0.00000000
-0.32718256 0.09001671 0.00000000
-0.30444348 0.18806807 0.00000000
0.15791884 -0.56955922 0.00000000
0.28825957 0.11350414 -0.00000001
-0.46764237 -0.13287514 0.00000000
-0.79035336 -0.34853281 0.00000000
-0.16847344 -0.28453173 0.00000000
0.16626063 0.63309607 0.02604165
-0.61270677 0.50291620 0.00000000
0.59386708 -0.67005514 0.00000000
0.37254852 0.25232632 -0.00000031
0.74930977 0.05000956 0.02755603
-0.47045903 -0.23039831 0.00000000
-0.13430145 -0.71786408 0.00000000
0.17961987 -0.16984862 0.00000000
0.37663557 -0.42627164 0.00000000
0.41847097 0.32181808 -0.00000047
-0.72518343 -0.02613048 0.00000000
-0.37874816 -0.11768273 0.00000000
-0.65974234 0.17923874 0.00000000
0.36951587 -0.30740374 0.00000000
0.28440339 0.50976486 0.23638716
-0.42232234 -0.68924525 0.00000000
-0.66699247 -0.79188970 0.00000000
0.28404779 0.51211326 0.15560517
-0.71095436 -0.35424066 0.00000000
0.31826797 -0.33407118 0.00000000
-0.24945281 0.49834561 0.00000000
0.31590296 0.48248197 0.06544083
0.27672054 0.51648997 0.27520868
-0.57337564 -0.56055536 0.00000000
0.30068774 0.49394397 0.21760274
-0.10224663 -0.23280365 0.00000000
-0.06016036 0.65602190 0.00000000
-0.01708524 0.21015590 0.00000000
0.10795309 0.69079626 0.05066580
-0.69699000 0.64303920 0.00000000
-0.18005297 -0.53847559 0.00000000
-0.71873759 0.65440022 0.00000000
0.31844932 -0.48243898 0.00000000
0.75995243 0.03929260 0.03056819
0.05796774 -0.43596366 0.00000000
-0.48399302 -0.71418271 0.00000000
0.19244164 -0.46974728 0.00000000
-0.19651948 -0.77598056 0.00000000
0.12026892 -0.54590541 0.00000000
-0.30383821 0.29386978 0.00000000
0.00146815 -0.33231859 0.00000000
0.35494829 -0.38840678 0.00000000
-0.08233860 0.06092079 0.00000000
-0.37545696 -0.09844276 0.00000000
-0.01188964 -0.30513887 0.00000000
0.59328267 -0.46674134 -0.00000015
-0.01391173 0.36986020 0.00000000
0.40242139 -0.45990310 0.00000000
-0.22193302 0.61964323 0.00000000
0.37217994 -0.30811588 0.00000000
0.49971771 -0.53938473 0.00000000
0.55612617 -0.64402584 0.00000000
-0.12920577 0.49561039 0.00000000
-0.61953430 -0.73622433 0.00000000
0.06922622 0.04542883 0.00000000
0.66510986 -0.46394799 -0.00000030
0.48283214 -0.47105430 0.00000000
-0.79083076 -0.38451613 0.00000000
0.77212266 -0.13221365 -0.00000082
0.58289271 -0.51139947 -0.00000008
-0.14318325 -0.01647987 0.00000000
-0.05888761 -0.40748931 0.00000000
-0.15197928 0.47686022 0.00000000
0.00250545 -0.05057677 0.00000000
0.11310882 -0.25448753 0.00000000
0.05540063 -0.48492639 0.00000000
-0.48427106 0.25754432 0.00000000
-0.34796985 -0.36949562 0.00000000
0.27142864 -0.68041619 0.00000000
0.49249783 0.30073727 0.27423420
-0.76187601 0.71124744 0.00000000
0.69142059 -0.38057820 -0.00000043
0.40399572 -0.21504282 0.00000000
-0.65518914 -0.17847435 0.00000000
-0.05927446 0.19124048 0.00000000
-0.51524747 -0.34656954 0.00000000
-0.01538562 0.60608105 0.00000000
-0.49741488 0.48042618 0.00000000
0.05909562 0.19105889 0.00000000
0.46378519 0.32980663 0.25977157
-0.15509558 0.28437566 0.00000000
0.10547303 0.06694713 0.00000000
-0.46811805 -0.79319292 0.00000000
0.44996720 -0.23013159 -0.00000005
0.22132939 0.57609229 0.10449451
-0.73462695 0.38002085 0.00000000
0.02568511 -0.30747253 0.00000000
-0.59645260 0.54990623 0.00000000
-0.71469801 -0.00336122 0.00000000
0.66674768 -0.46903295 -0.00000030
-0.07273314 0.23280071 0.00000000
0.14516439 0.29223856 0.00000000
0.37651730 -0.47545925 0.00000000
0.63796343 0.16124530 0.03204011
0.75700090 -0.22734082 -0.00000071
-0.32631496 -0.37744337 0.00000000
0.09869088 0.60990888 -0.00000004
0.55852604 -0.41324925 -0.00000012
0.35904017 0.36866003 -0.00000038
-0.28258072 -0.43969268 0.00000000
0.06628832 0.33686368 0.00000000
-0.26482681 -0.45779474 0.00000000
0.63117205 -0.36581548 -0.00000032
0.00686483 -0.70267473 0.00000000
-0.13956111 -0.74526631 0.00000000
0.24130014 0.16789740 0.00000000
-0.04554732 -0.64359685 0.00000000
-0.07053069 -0.26060317 0.00000000
0.02278680 0.68994045 0.00000000
0.20031010 -0.00343647 0.00000000
0.12352899 -0.70330500 0.00000000
-0.59924211 -0.31294161 0.00000000
0.27708920 -0.78882650 0.00000000
0.46076812 -0.58955680 0.00000000
-0.41170078 0.35927001 0.00000000
0.13047168 -0.28111147 0.00000000
-0.08871229 -0.37516273 0.00000000
-0.33343609 0.41819756 0.00000000
-0.13638849 0.71581786 0.00000000
-0.04661422 0.44153724 0.00000000
0.37677445 0.18270016 -0.00000026
0.32078946 -0.10269975 0.00000000
0.39844850 0.40128239 0.01087040
0.61985287 0.17425698 0.23876838
-0.61725838 -0.45836000 0.00000000
-0.66841165 -0.73046968 0.00000000
0.72120329 -0.28062360 -0.00000058
-0.51587083 -0.60791897 0.00000000
-0.31781829 0.08415645 0.00000000
0.56588860 -0.61509438 0.00000000
0.15585652 -0.74523847 0.00000000
0.77598846 -0.15286504 -0.00000081
0.54168934 0.25001658 0.33622969
-0.71149176 -0.69868986 0.00000000
-0.75692415 0.63040085 0.00000000
0.00030691 -0.51084002 0.00000000
-0.65229704 0.26642601 0.00000000
0.38282632 0.41470503 0.10004790
0.30512036 0.48421884 0.43213847
0.37290714 0.41391874 0.53402569
-0.16269914 0.48789396 0.00000000
0.48427760 -0.41532907 0.00000000
0.48771081 0.30731878 0.20147900
0.40870257 0.23014856 -0.00000037
0.18504839 0.61071811 0.17158924
-0.62374764 0.58624378 0.00000000
0.46262158 -0.07058776 -0.00000022
-0.77028869 -0.50083310 0.00000000
-0.38864821 0.09998564 0.00000000
0.64125378 -0.38539791 -0.00000032
0.39736446 0.39753504 0.20675317
-0.35637573 0.23142848 0.00000000
0.76843269 -0.40392965 -0.00000050
-0.61055238 -0.50049936 0.00000000
0.79428638 -0.53486965 -0.00000033
-0.47135110 0.58844983 0.00000000
-0.78238255 -0.76183826 0.00000000
0.49156693 -0.69046128 0.00000000
-0.17440068 -0.42715293 0.00000000
-0.05763478 -0.25305633 0.00000000
-0.39223550 0.55500071 0.00000000
-0.62791740 0.75363761 0.00000000
-0.21211660 -0.51721330 0.00000000
-0.34706222 0.79134955 0.00000000
-0.65340357 -0.63523699 0.00000000
-0.48083367 0.74636457 0.00000000
-0.51081996 0.04348178 0.00000000
-0.17146458 0.16811048 0.00000000
0.30402294 0.48841460 -0.00000037
-0.09575959 0.13257915 0.00000000
0.13117822 0.46763346 0.00000000
-0.07992389 -0.32950301 0.00000000
-0.40956696 0.47081115 0.00000000
0.56257833 -0.67624015 0.00000000
0.02348061 0.66791618 0.00000000
-0.79620130 0.77891945 0.00000000
-0.51489948 0.02019088 0.00000000
0.44835518 -0.52914853 0.00000000
-0.12286627 0.49579648 0.00000000
-0.22578993 -0.70763479 0.00000000
0.03020279 -0.48652327 0.00000000
-0.44816245 0.19000933 0.00000000
-0.07502514 0.70963987 0.00000000
0.42011387 0.12756444 -0.00000030
-0.51294942 -0.32071256 0.00000000
-0.11116292 0.45015590 0.00000000
0.58177958 0.21297176 0.21276013
0.34647425 -0.70792315 0.00000000
-0.39094989 0.01594540 0.00000000
-0.51690529 -0.61160481 0.00000000
-0.56509404 -0.21040716 0.00000000
-0.38823090 -0.01740789 0.00000000
0.69008025 -0.75149469 -0.00000006
-0.79228803 -0.66971558 0.00000000
0.24271302 -0.47724363 0.00000000
-0.35413316 0.68468089 0.00000000
0.06023581 0.10534258 0.00000000
0.11298935 -0.54503067 0.00000000
-0.32197312 -0.46348454 0.00000000
-0.32006050 0.69669671 0.00000000
-0.79951226 0.52370441 0.00000000
-0.52919703 -0.07645688 0.00000000
0.32695537 0.07732180 -0.00000006
-0.68150023 0.63234884 0.00000000
0.05104912 0.67658120 0.00000000
-0.70753225 0.73972086 0.00000000
-0.57381782 -0.56401849 0.00000000
0.27344911 0.51892127 0.30926386
0.37874695 0.40974724 0.46640003
0.26475301 0.52668996 -0.00000032
-0.75295809 0.29590769 0.00000000
-0.26275483 -0.64794049 0.00000000
0.55378885 -0.44334519 -0.00000008
-0.63063128 -0.46176481 0.00000000
-0.31130290 0.79796379 0.00000000
-0.03345188 0.25651480 0.00000000
-0.44681046 0.72826769 0.00000000
0.60214913 0.07504425 -0.00000064
0.78726252 -0.62692646 -0.00000022
0.51219011 -0.37404931 -0.00000006
0.21379305 0.58246758 0.15156268
-0.48292018 -0.13271409 0.00000000
-0.43911773 0.64011340 0.00000000
0.62187560 0.03004077 -0.00000065
-0.41060212 -0.17765472 0.00000000
-0.68365693 0.34912142 0.00000000
-0.67084436 0.53456163 0.00000000
-0.54132049 0.36110662 0.00000000
0.37186937 -0.48671794 0.00000000
0.67152451 0.02884536 -0.00000075
-0.70435087 -0.51364325 0.00000000
-0.02333653 -0.73030319 0.00000000
-0.69329458 -0.29939571 0.00000000
-0.71773042 0.66733042 0.00000000
0.61667031 -0.75846616 0.00000000
-0.55027175 -0.43020468 0.00000000
-0.73312064 0.07426035 0.00000000
-0.46633042 -0.29972838 0.00000000
0.29556539 -0.16562718 0.00000000
-0.74465682 0.77429759 0.00000000
0.50035337 0.29387765 0.23385600
0.70051793 -0.44055457 -0.00000040
0.77257517 -0.46092647 -0.00000042
0.02746044 -0.26759500 0.00000000
0.05658830 0.33108270 0.00000000
-0.23540866 -0.51989729 0.00000000
-0.49120796 -0.29003974 0.00000000
0.12689192 -0.28496378 0.00000000
0.58145716 -0.04989090 -0.00000049
-0.57560286 -0.62052378 0.00000000
0.49702514 -0.79255462 0.00000000
-0.53687872 -0.40454854 0.00000000
0.58721561 -0.07480714 -0.00000048
-0.34155090 -0.37984932 0.00000000
-0.57682931 0.40845231 0.00000000
-0.56276029 -0.21675868 0.00000000
-0.47094438 -0.74061665 0.00000000
0.67420074 -0.26575779 -0.00000050
-0.76524407 -0.63299170 0.00000000
-0.29322129 0.70865527 0.00000000
0.27081629 0.47544084 -0.00000029
-0.39631726 -0.77141587 0.00000000
-0.15432618 0.38137477 0.00000000
-0.44132898 0.71087652 0.00000000
0.31647977 -0.11461515 0.00000000
-0.50417415 -0.76772671 0.00000000
-0.51464132 0.36118656 0.00000000
-0.02185156 -0.38174331 0.00000000
-0.07301162 -0.62539903 0.00000000
-0.74820498 0.63908073 0.00000000
-0.47561471 -0.73144855 0.00000000
0.74359980 -0.13966314 -0.00000076
-0.37299316 -0.20976994 0.00000000
-0.34541236 0.62631242 0.00000000
-0.73425503 0.38581442 0.00000000
0.45034439 0.34933916 0.01278952
-0.63589270 -0.63102602 0.00000000
0.21275758 -0.73522501 0.00000000
-0.33619326 -0.46462194 0.00000000
0.25294376 0.36467920 -0.00000015
0.10749393 0.63803970 -0.00000009
-0.00353272 -0.17560711 0.00000000
0.46833678 0.32176872 0.40109504
-0.72719706 -0.33084590 0.00000000
0.28845421 0.44478271 -0.00000030
0.39595453 -0.45372678 0.00000000
0.01817550 -0.01127623 0.00000000
0.05328570 0.20280928 0.00000000
0.34713474 0.44858234 0.17360528
0.05147454 -0.50153712 0.00000000
0.46071300 0.33660591 0.10866110
0.39478427 -0.30749795 0.00000000
-0.28496182 0.42811963 0.00000000
-0.71369445 -0.19685556 0.00000000
0.40845337 -0.72270826 0.00000000
0.01465770 -0.49858697 0.00000000
-0.65513362 -0.44529306 0.00000000
-0.29739476 0.59805237 0.00000000
-0.00386885 0.39624084 0.00000000
0.22114134 -0.34103639 0.00000000
-0.40031552 0.29933811 0.00000000
0.22727251 0.05104513 0.00000000
-0.06971949 0.17967970 0.00000000
-0.34279486 -0.57768729 0.00000000
-0.41048957 -0.03924213 0.00000000
-0.58268648 -0.21530427 0.00000000
-0.48755009 -0.35546039 0.00000000
-0.55069900 0.78579310 0.00000000
0.16576963 0.62870949 0.22377206
0.07781275 -0.51785564 0.00000000
-0.14330228 -0.72367447 0.00000000
-0.65936627 0.08974457 0.00000000
0.63802786 -0.20906347 -0.00000047
-0.53731634 0.18606424 0.00000000
0.14593732 0.65334687 0.02898143
-0.56688705 0.53855336 0.00000000
0.33093442 0.46005765 0.36514149
-0.22806371 0.65967946 0.00000000
0.27338725 -0.78824623 0.00000000
-0.68583511 0.04168145 0.00000000
0.13888512 -0.20303565 0.00000000
-0.17661561 -0.77128506 0.00000000
0.54749413 -0.14527990 -0.00000033
0.14881588 -0.71792118 0.00000000
-0.46494819 0.69420395 0.00000000
0.41208503 0.37474150 0.53400390
0.04817020 -0.72178722 0.00000000
-0.78743630 0.14924803 0.00000000
0.28642058 -0.46876733 0.00000000
0.14775571 -0.67409217 0.00000000
-0.42894356 -0.63316890 0.00000000
0.57905298 0.21387032 0.28687555
0.53646830 -0.18553340 -0.00000027
0.10163947 0.46683972 0.00000000
0.15284081 -0.32559686 0.00000000
-0.20865908 -0.27413940 0.00000000
-0.77310795 0.66920632 0.00000000
-0.72528834 -0.59906472 0.00000000
0.58138107 0.21602287 0.10521362
0.31571747 0.48360447 0.02745103
-0.00032164 0.77391046 0.00000000
-0.63167913 0.15570191 0.00000000
-0.67452971 0.35887066 0.00000000
-0.67847576 0.65926730 0.00000000
-0.31299049 0.23239455 0.00000000
0.08986917 0.30598440 0.00000000
-0.44516814 -0.57300176 0.00000000
0.38912658 0.40769891 0.12866630
0.13107809 -0.74421101 0.00000000
-0.79843859 0.30781196 0.00000000
0.42086622 -0.08415022 -0.00000012
-0.77118090 -0.00970481 0.00000000
-0.05786699 0.69077271 0.00000000
-0.07235069 -0.15034885 0.00000000
-0.39895507 -0.15806308 0.00000000
-0.10788857 0.04009559 0.00000000
0.27225794 0.22458593 -0.00000007
0.35274972 -0.76402693 0.00000000
-0.75101989 -0.43858774 0.00000000
0.21580069 -0.51581225 0.00000000
0.22528894 0.09361117 0.00000000
0.03041705 0.27387274 0.00000000
-0.78451402 0.23691313 0.00000000
0.28161103 0.49795648 -0.00000033
-0.79785234 -0.71103904 0.00000000
0.00014142 0.01472959 0.00000000
-0.25299696 0.69434701 0.00000000
0.06388407 -0.00961053 0.00000000
0.11062491 0.68788978 0.06017997
-0.63600003 0.63938192 0.00000000
-0.52287131 -0.66505258 0.00000000
-0.25239316 0.62478776 0.00000000
0.19550010 0.42283610 -0.00000008
-0.37952626 -0.36466087 0.00000000
-0.06428878 -0.73082058 0.00000000
0.25492769 0.54048231 0.18604850
-0.78470168 0.61582185 0.00000000
-0.26783916 0.51152556 0.00000000
-0.32266034 0.47174970 0.00000000
0.12968041 0.25633862 0.00000000
0.44850808 0.16195776 -0.00000039
-0.33318332 0.77007627 0.00000000
0.36858797 0.42863234 0.11265866
-0.13998839 -0.18797463 0.00000000
-0.49594772 0.24288275 0.00000000
-0.74902594 0.45091217 0.00000000
-0.54981121 -0.63947637 0.00000000
-0.13858872 0.49647680 0.00000000
0.47439551 0.31864876 0.28197100
-0.76836404 0.75255596 0.00000000
-0.36510947 -0.04462038 0.00000000
0.70558227 -0.48857981 -0.00000037
-0.39637527 0.28099026 0.00000000
0.15167320 -0.01877353 0.00000000
0.38929723 -0.28197897 0.00000000
0.56938664 0.22613235 0.18163664
-0.28129969 -0.05912897 0.00000000
-0.19673390 0.12774363 0.00000000
-0.15863517 0.62089579 0.00000000
0.18310494 0.61540374 0.06042354
0.29700959 0.05261667 0.00000000
0.69498007 0.09725890 -0.00000086
0.45447736 0.34515920 0.01469486
-0.38698814 -0.72695746 0.00000000
0.22328852 0.20318172 0.00000000
0.34883088 0.44324123 0.32136306
0.77097344 -0.56717570 -0.00000029
0.45533097 -0.67197692 0.00000000
-0.50479354 0.79785004 0.00000000
-0.77067021 -0.13299503 0.00000000
-0.32935488 0.60781144 0.00000000
-0.05124019 -0.03878588 0.00000000
0.07876147 0.03372275 0.00000000
0.78918384 -0.68460186 -0.00000014
-0.65815861 0.30994091 0.00000000
-0.62335080 -0.55551553 0.00000000
0.24478023 0.55322459 0.08085181
0.43932309 0.35515302 0.22391902
0.44668928 -0.79631346 0.00000000
0.49767759 -0.16163835 -0.00000021
0.36820897 0.42436182 0.30115100
-0.30336741 0.33732263 0.00000000
0.65843361 -0.39972166 -0.00000034
-0.24137429 0.10389399 0.00000000
-0.54984196 0.34854176 0.00000000
-0.67644066 -0.00832346 0.00000000
-0.03905574 0.59342743 0.00000000
-0.55956358 0.12934046 0.00000000
0.38645803 -0.06298557 -0.00000006
-0.07308160 0.72203808 0.00000000
0.20300656 -0.07577599 0.00000000
-0.74457887 -0.69432092 0.00000000
-0.45326240 0.40645945 0.00000000
0.60419079 -0.21432645 -0.00000039
-0.05820856 0.07261745 0.00000000
0.34356930 -0.23413474 0.00000000
0.30662363 -0.35752086 0.00000000
0.03651592 -0.77924936 0.00000000
-0.69186317 0.41716519 0.00000000
-0.52856379 -0.62834604 0.00000000
0.57517658 0.05081605 -0.00000057
-0.36354247 0.68399202 0.00000000
0.32068225 0.46919741 0.41023236
0.60885179 0.16601029 -0.00000074
0.38655663 -0.38065851 0.00000000
-0.12142326 -0.40807035 0.00000000
-0.38154772 0.72719875 0.00000000
0.35293144 0.26465541 -0.00000028
-0.52428843 -0.69615430 0.00000000
-0.64177322 0.56492013 0.00000000
0.41101067 0.38129652 0.31184155
-0.40398937 -0.43729836 0.00000000
-0.16780808 0.47646254 0.00000000
-0.66995312 0.35760677 0.00000000
-0.56178859 0.05181907 0.00000000
0.05488129 -0.14313406 0.00000000
-0.74143089 0.61296459 0.00000000
0.33476059 0.46186657 0.13670706
0.45515992 0.33306477 0.47733339
0.41170197 0.38492797 0.13659440
0.25246617 0.17202187 0.00000000
0.26125264 0.08294199 0.00000000
0.29279826 -0.78443490 0.00000000
0.63727177 -0.04329005 -0.00000061
0.55928290 -0.22462692 -0.00000029
-0.70888639 -0.68126726 0.00000000
0.08256775 0.45628433 0.00000000
-0.16520474 0.66517588 0.00000000
0.03967469 -0.09290345 0.00000000
0.13921720 -0.32845268 0.00000000
0.13215014 0.11173469 0.00000000
-0.07220172 0.40358080 0.00000000
0.68883865 0.10776989 0.13746191
-0.08094807 -0.38860534 0.00000000
0.66054595 0.09360261 -0.00000079
0.18327695 -0.22630752 0.00000000
0.57015915 -0.53284389 -0.00000004
0.58089523 0.07419679 -0.00000060
0.71739412 -0.38878451 -0.00000048
0.43780912 -0.13958113 -0.00000010
0.64272649 0.10627313 -0.00000076
-0.16408456 -0.18397629 0.00000000
-0.22420758 -0.50161272 0.00000000
-0.39739839 -0.74328666 0.00000000
-0.08013333 -0.20127734 0.00000000
0.41555281 0.04276293 -0.00000022
0.38432209 -0.30681921 0.00000000
-0.46563823 -0.27571475 0.00000000
-0.69752985 0.39793359 0.00000000
0.57852077 0.21426390 0.29249615
0.15202031 0.64632648 0.06698744
0.62218235 -0.37079878 -0.00000029
-0.07208744 0.39470982 0.00000000
0.29189751 -0.36388457 0.00000000
0.61739389 -0.03193417 -0.00000058
0.70235387 -0.43189921 -0.00000041
0.30055128 -0.23375687 0.00000000
0.32931097 0.30498247 -0.00000027
-0.24493609 0.30371177 0.00000000
0.71259850 -0.76719845 -0.00000004
-0.50608171 0.19882741 0.00000000
0.43046401 0.36938935 0.00590459
0.19441145 0.21017979 0.00000000
0.11952977 0.28842130 0.00000000
-0.28672780 0.16732162 0.00000000
0.79540456 -0.10613790 -0.00000087
0.12250886 -0.79944731 0.00000000
0.00604467 -0.71746746 0.00000000
0.20672712 0.58840787 0.19719076
-0.47339988 -0.77959272 0.00000000
-0.41954705 -0.09250811 0.00000000
-0.47239700 -0.62416458 0.00000000
-0.69163705 0.34607079 0.00000000
-0.12655785 0.70575148 0.00000000
0.16926454 -0.27597365 0.00000000
-0.38882393 -0.30579266 0.00000000
-0.75586198 0.05817630 0.00000000
-0.65165797 -0.35291392 0.00000000
-0.61570208 -0.23284852 0.00000000
0.13384388 0.66270065 0.14004549
0.29895100 -0.62853205 0.00000000
-0.58208257 -0.55520651 0.00000000
-0.57994679 0.15501719 0.00000000
-0.43130297 0.02258830 0.00000000
-0.02837400 -0.20446340 0.00000000
0.09239728 0.70521044 0.09694324
-0.29013501 -0.06601855 0.00000000
0.65006253 0.14955626 0.01541477
0.59127898 -0.34917375 -0.00000025
-0.20078144 -0.61349844 0.00000000
0.28238879 0.51200745 0.22714540
0.29164728 0.50009053 0.33490791
0.22028055 -0.58240681 0.00000000
-0.67692503 0.04544669 0.00000000
-0.37070154 -0.24457264 0.00000000
0.02413427 0.04521283 0.00000000
-0.61985170 0.04496805 0.00000000
-0.15306679 0.31350797 0.00000000
-0.34225946 0.20186471 0.00000000
0.05909453 -0.74397844 0.00000000
0.60856697 0.18144436 -0.00000075
-0.08978612 -0.41683213 0.00000000
0.59672532 0.20042123 0.11564872
-0.58325235 -0.28906813 0.00000000
0.52323860 0.27339484 0.13645237
0.40244483 -0.62323341 0.00000000
0.48868960 0.30640906 0.19867830
-0.23093577 0.61800163 0.00000000
0.39365035 0.40236021 0.16170656
0.03978193 -0.06502634 0.00000000
0.00495793 0.45338258 0.00000000
0.33787618 0.28702134 -0.00000027
-0.71476770 0.30379720 0.00000000
0.68360144 0.08950291 -0.00000083
0.31239218 -0.43561192 0.00000000
-0.70238664 -0.43076877 0.00000000
0.52863880 -0.56156634 0.00000000
0.40981882 0.15221461 -0.00000030
-0.60108656 -0.30776133 0.00000000
-0.22383328 -0.20971234 0.00000000
0.79092811 -0.63500348 -0.00000021
-0.69263654 -0.24114082 0.00000000
0.02947718 -0.66961139 0.00000000
-0.34045570 0.39144777 0.00000000
0.32122569 0.47015142 0.34953247
0.44160697 0.35007926 0.33701582
-0.20917684 0.54314327 0.00000000
0.73016319 -0.75097601 -0.00000006
0.35192658 -0.12942000 0.00000000
-0.26431299 0.27386731 0.00000000
0.51743704 0.27635217 0.25176841
0.30942568 -0.63280005 0.00000000
-0.71705822 -0.09822083 0.00000000
-0.49464373 -0.65922275 0.00000000
0.69741798 -0.79086952 -0.00000001
0.18636446 -0.34908088 0.00000000
0.01308869 -0.29467942 0.00000000
0.77998026 -0.18769240 -0.00000077
-0.57752233 -0.17023786 0.00000000
-0.61884680 0.65946158 0.00000000
-0.06939048 0.51753577 0.00000000
0.61278071 0.18687255 0.01401736
-0.25521908 -0.28469051 0.00000000
0.58271955 0.21253333 0.19242571
-0.16428117 -0.38266577 0.00000000
-0.66020919 -0.20691956 0.00000000
-0.05010966 0.36720386 0.00000000
0.29229851 -0.58158213 0.00000000
0.64646438 0.15233338 0.04870283
-0.31039279 -0.42080491 0.00000000
0.10086536 -0.36206480 0.00000000
0.35602781 0.43799006 0.24249151
-0.57097886 -0.04321317 0.00000000
0.57361107 -0.26711744 -0.00000028
-0.68929440 0.53947798 0.00000000
0.60495096 -0.22593123 -0.00000038
-0.62608508 0.74269833 0.00000000
0.28935274 -0.14804352 0.00000000
0.13291840 -0.63102228 0.00000000
0.36184281 0.43609988 0.08337056
-0.00231255 0.19177619 0.00000000
-0.47061537 0.72694602 0.00000000
-0.45486082 0.45630303 0.00000000
0.62086635 -0.46769275 -0.00000020
-0.15036841 -0.07844464 0.00000000
0.55335099 0.24661759 0.00123346
-0.65911790 0.19963676 0.00000000
0.24494646 0.54518399 -0.00000030
0.49586954 -0.52689145 0.00000000
-0.40690242 -0.61422173 0.00000000
-0.49889838 -0.03442794 0.00000000
-0.15737416 -0.12172531 0.00000000
0.24024318 0.55436383 0.21859686
-0.08243432 -0.54670087 0.00000000
-0.53056162 -0.00745713 0.00000000
-0.43804331 -0.16238489 0.00000000
0.31074125 0.46027189 -0.00000036
0.33304878 0.45886096 0.32794331
-0.08504785 -0.50507122 0.00000000
0.25687555 0.23146374 -0.00000005
-0.77069628 0.26310586 0.00000000
0.45385111 0.33541375 0.43516963
0.51968527 -0.63225282 0.00000000
-0.58067119 -0.24304830 0.00000000
-0.70371663 -0.29284120 0.00000000
-0.42733283 -0.16858884 0.00000000
0.14529501 0.65121727 0.14135408
0.64127932 0.12074489 -0.00000077
0.16219093 -0.73385844 0.00000000
-0.13858956 0.42456524 0.00000000
-0.10267534 -0.24498977 0.00000000
0.33444172 -0.24250573 0.00000000
0.59533318 0.19932365 0.21659171
-0.68681596 -0.28250496 0.00000000
0.40030353 -0.21001727 0.00000000
-0.32177097 -0.04148992 0.00000000
0.41597882 0.38224460 0.07198857
0.44137932 -0.49189454 0.00000000
-0.25490342 -0.05625386 0.00000000
0.46172796 -0.08988682 -0.00000020
0.18877707 -0.10826832 0.00000000
-0.25844622 0.20425278 0.00000000
0.39764726 0.39444598 0.32051248
-0.02711430 -0.29311972 0.00000000
0.39376425 -0.51345521 0.00000000
-0.11360384 -0.12756452 0.00000000
-0.28231881 0.66664204 0.00000000
0.14885199 0.16529776 0.00000000
0.13534090 -0.50180854 0.00000000
0.15756982 -0.03601912 0.00000000
-0.26911931 -0.36777484 0.00000000
-0.08776828 0.11848280 0.00000000
-0.12449613 -0.79690598 0.00000000
0.77343850 -0.06721442 -0.00000088
-0.78068872 0.66571934 0.00000000
0.52454387 0.27127663 0.16941214
