ply
format ascii 1.0
element vertex 1399
property float x
property float y
property float z
end_header
-0.39496687 0.30177591 0.00000074
0.09262419 0.07166073 0.15116252
-0.24011840 0.07162822 0.00000730
0.04162397 0.12605792 0.06793992
0.11854081 -0.61813892 0.19343858
-0.45687577 -0.22650775 -0.00000014
-0.11867707 0.18965627 0.00000000
-0.03861354 0.60095507 0.00000000
-0.12696755 0.30499214 0.00000000
0.31351780 0.12848454 0.51160741
-0.38169857 -0.41377638 0.00000000
0.02527579 -0.48936503 0.04124583
0.41665698 -0.07629483 0.67991014
0.25898415 0.19166261 0.42261633
-0.64383637 -0.35358045 -0.00000071
0.05712534 -0.49892517 0.09321891
0.18919682 -0.53960865 0.30873725
0.07712714 -0.75869226 0.12585846
0.17791742 -0.38974239 0.29033117
-0.28324562 0.10688643 0.00000000
0.11247370 -0.16971196 0.18353809
-0.00351195 0.46897121 0.00000000
0.17821002 0.13216696 0.29080812
0.12388400 -0.04588510 0.20215777
0.31220547 0.05532234 0.50946416
0.30698286 -0.44991223 0.50094360
0.02918760 0.21325796 0.04764408
0.09121112 0.39292719 0.14884109
-0.12823668 0.43446439 0.00000355
-0.35603699 0.40439516 -0.00000023
0.17498930 -0.28809004 0.28555298
0.11333390 0.56311953 0.18494078
-0.21948444 -0.22474617 0.00000000
0.11840732 -0.70617775 0.19322075
-0.53146496 0.24511766 -0.00000129
-0.14273818 0.26269801 0.00000591
-0.12547750 0.55774334 -0.00000011
0.19837005 0.29798511 0.32370497
-0.18276180 0.23994943 0.00000564
-0.46380740 0.30262824 -0.00000110
-0.55295296 0.06390145 0.00000168
0.01791931 0.34360644 0.02925308
0.35662601 -0.47404264 0.58195211
-0.46183423 0.18788087 0.00000136
0.02621799 0.14653383 0.04278333
-0.21524802 -0.53671044 0.00000000
-0.12572244 -0.46365219 0.00000000
0.05392608 -0.11374481 0.08799825
-0.17120017 0.50565289 -0.00000021
-0.45214329 0.24662759 0.00000056
0.11531499 0.28633351 0.18818282
-0.04288201 0.25119002 0.00000000
0.17992428 0.16798672 0.29360534
0.08461864 -0.07481014 0.13808333
0.20887900 0.34785908 0.34085345
-0.18624686 0.13275584 0.00000720
-0.14711264 0.60504854 -0.00000028
-0.56995112 0.03359939 0.00000186
0.10027722 0.27746577 0.16363549
0.08952737 0.02061395 0.14611062
-0.09338589 -0.35522567 0.00000000
-0.15012856 0.58054973 -0.00000025
0.03464775 0.22827907 0.05655342
0.37751025 0.02071678 0.61603121
-0.31162193 -0.00725837 0.00000000
-0.22627563 -0.19791623 0.00000000
-0.79535557 -0.77596301 -0.00000006
0.00837915 -0.75033182 0.01367336
-0.18721824 0.18089102 0.00000646
-0.17739307 -0.02351989 0.00000000
-0.64624497 -0.52603250 -0.00000041
-0.67371028 -0.56381372 -0.00000046
-0.12430570 0.37803330 0.00000445
0.18674161 -0.10297602 0.30473077
0.01321405 -0.56254320 0.02156310
-0.65008749 0.04292668 0.00000016
0.02578489 0.58147279 0.04208133
0.17282084 -0.21640827 0.28201442
0.08750628 -0.19232811 0.14279547
-0.48217717 -0.21904801 -0.00000026
-0.07996748 0.59725211 0.00000183
-0.02539227 -0.03455693 0.00000000
-0.38576314 0.07305805 0.00000473
0.16898626 -0.69685667 0.27575704
-0.32134762 -0.37109081 0.00000000
-0.36308555 -0.74035674 0.00000000
0.10686477 -0.57828602 0.17438526
-0.17498946 0.00847510 0.00000000
-0.14018148 0.40055700 0.00000000
0.12317972 0.49548288 0.20100953
0.23773916 -0.29964508 0.38795016
0.03688068 -0.01478377 0.06018304
-0.40705602 0.37167328 -0.00000098
0.13811616 -0.17108185 0.22538225
0.19467647 -0.24640857 0.31767911
0.16069954 -0.79091519 0.26223450
-0.02848823 0.37109181 0.00000000
-0.48028365 -0.52731161 0.00000000
0.05919837 0.51418921 0.09660663
-0.15518926 -0.71627512 0.00000000
-0.07506119 -0.53975763 0.00000000
-0.64977191 -0.31202640 -0.00000081
-0.01980021 -0.39913975 0.00000000
0.07102155 0.15256448 0.11589517
0.06115267 0.61692520 0.09979049
-0.32289742 0.25892187 0.00000284
0.37754362 -0.33519290 0.61608529
0.09290275 -0.49994127 0.15160160
0.09154176 -0.53128689 0.14938069
-0.17356689 -0.32788157 0.00000000
0.12165548 0.31607900 0.19852804
-0.61171775 0.02588096 0.00000118
-0.07833551 0.09987872 0.00000000
0.03091686 0.49574920 0.05045110
0.23743341 -0.43272585 0.38745123
0.21312612 0.30192659 0.34778669
-0.52866949 -0.67048954 0.00000000
0.23617965 -0.35226522 0.38540531
-0.14069210 0.21237522 0.00000000
-0.43684062 -0.20006666 -0.00000010
-0.23929953 0.39455215 0.00000218
0.26968214 0.14643436 0.44007363
-0.62753854 0.04705301 0.00000053
-0.11782488 -0.32380210 0.00000000
-0.39031567 -0.14149215 -0.00000000
-0.22113992 -0.31305612 0.00000000
0.19796945 -0.11472809 0.32305271
0.23960222 0.24443364 0.39098844
0.26055411 0.05652344 0.42518563
-0.16309079 -0.02479274 0.00000000
0.36596909 -0.40315229 0.59719804
-0.17957740 -0.31921835 0.00000000
-0.36443554 0.16545311 -0.00000043
0.04673074 0.34827623 0.07625667
0.37581810 -0.42812069 0.61326989
-0.42084743 -0.05278462 -0.00000029
-0.10525077 0.56403544 -0.00000003
0.06427182 0.03447564 0.10489876
-0.48638999 0.12174022 -0.00000088
0.10235017 -0.06119626 0.16701818
0.08075816 0.34342576 0.13179220
-0.30047875 -0.38926109 0.00000000
0.20241726 0.18337169 0.33030967
-0.53409401 -0.55933224 0.00000000
0.03195958 0.01626211 0.05215264
-0.41762356 0.20621622 -0.00000073
0.00825617 -0.32194760 0.01347267
0.41665946 -0.02298409 0.67991401
0.11345792 -0.19791603 0.18514416
-0.34117422 0.24689207 -0.00000048
-0.60831059 0.02137682 0.00000132
-0.39654278 -0.74375562 0.00000000
-0.02737925 0.63179549 0.00000211
0.28515129 -0.61383309 0.46531874
0.08064689 -0.46916051 0.13160210
-0.62830566 -0.00062742 -0.00000127
0.00387992 0.73506806 0.00633137
-0.68083973 0.10881482 -0.00000168
0.15045539 -0.10038223 0.24551778
-0.69287857 -0.51925256 -0.00000062
-0.29827514 0.43491841 0.00000037
0.17748391 -0.29325073 0.28962376
0.18106356 -0.65909474 0.29546514
0.22091073 0.05464548 0.36049718
0.10587857 0.44608472 0.17277977
-0.44631173 0.02921239 0.00000430
0.40928144 -0.22632611 0.66787515
-0.77082238 -0.69949143 -0.00000025
-0.15111132 0.20859989 0.00000659
0.06846273 -0.78443118 0.11171960
-0.05277825 0.70789094 -0.00000006
0.27260146 -0.47675532 0.44483954
0.31104677 -0.72424483 0.50757579
-0.11769961 0.11676244 0.00000000
-0.65158858 0.02431827 -0.00000141
-0.48315753 0.04585798 -0.00000073
0.30381555 0.08950554 0.49577690
0.31878522 -0.37286159 0.52020260
0.19615856 0.30248200 0.32009967
-0.02366019 0.23692665 0.00000000
-0.09338352 -0.24585386 0.00000000
-0.31444781 0.11183341 -0.00000013
-0.09509151 -0.64897608 0.00000000
0.31933955 0.11048600 0.52110546
0.06299125 0.02937054 0.10280929
0.18821144 0.26184741 0.30712812
-0.27781805 -0.07133224 0.00000000
-0.45244382 0.26056697 -0.00000098
-0.14485903 0.61325621 0.00000034
-0.07916695 0.68600902 0.00000038
0.31147563 -0.22543063 0.50827417
-0.60481182 -0.42708105 -0.00000041
0.26516849 -0.72434664 0.43271019
0.38462758 -0.48605096 0.62764552
0.23303806 0.31614488 0.38027775
-0.61708273 -0.30221768 -0.00000069
0.13079661 -0.26473079 0.21343798
0.09867364 0.51095929 0.16101813
-0.72830656 -0.59990911 -0.00000050
-0.24306549 0.19196187 0.00000000
0.02205196 0.20719868 0.03600046
0.12170258 0.06359247 0.19861226
-0.00340153 0.67090377 0.00000000
-0.50954675 -0.13478281 -0.00000052
0.11716436 -0.68215701 0.19119244
0.04439283 0.35208298 0.07245178
0.07426633 -0.08048313 0.12119011
-0.01024808 0.61856460 0.00000000
0.40670764 0.00195344 0.66367496
-0.39372073 -0.37918772 0.00000000
-0.51944445 -0.02097920 -0.00000077
0.26538624 -0.31419501 0.43306514
0.06903734 0.00209370 0.11267594
0.13709676 0.31223037 0.22372465
-0.52930391 -0.50148763 0.00000000
0.22661726 -0.50487299 0.36980109
0.22655376 -0.62825208 0.36969747
-0.09585879 0.32317930 0.00000000
-0.09543150 -0.08827526 0.00000000
-0.48333449 0.30210781 -0.00000118
-0.25696796 0.36653991 0.00000231
-0.34014014 0.38882662 -0.00000072
-0.08137328 0.15105311 0.00000851
0.24805359 0.20681915 0.40477964
0.23418482 0.10235735 0.38215580
-0.75137571 -0.04064884 -0.00000172
0.34476366 -0.49551883 0.56259502
-0.03964580 -0.58069523 0.00000000
-0.34673460 -0.02271268 -0.00000003
-0.56024388 -0.22677334 -0.00000058
0.00670114 0.39978757 0.01094595
0.11753111 0.11741528 0.19180382
-0.45437304 -0.71631764 0.00000000
-0.55729667 0.01448766 0.00000242
0.27520848 -0.33656784 0.44909328
-0.57366141 -0.38831949 -0.00000035
-0.17173257 0.30234698 0.00000487
-0.54989338 -0.17362169 -0.00000063
-0.35746949 0.08628929 0.00000506
0.07806685 -0.51148644 0.12739191
0.35649215 -0.22565582 0.58173281
-0.11283822 0.07999296 0.00000000
0.04359059 0.20905623 0.07113248
-0.18617344 -0.18548495 0.00000000
0.07506137 0.31196161 0.12248748
0.07915994 -0.27181621 0.12917566
-0.04075770 -0.75728000 0.00000000
0.10062461 0.28940205 0.16420238
-0.47784564 0.07093855 0.00000300
-0.33174638 -0.45781446 0.00000000
0.11345838 0.13123683 0.18514492
-0.33331336 -0.62641405 0.00000000
-0.29480666 0.03475608 0.00000703
0.19960305 0.00816059 0.32571801
-0.25325299 -0.26717197 0.00000000
0.38318765 -0.54259834 0.62529600
0.31281331 -0.56364344 0.51045820
-0.46737770 -0.46984383 0.00000000
0.19611761 0.30690816 0.32003272
-0.11009936 0.17567374 0.00000000
0.25220507 -0.21283334 0.41155555
-0.15588361 -0.73286463 0.00000000
-0.15724066 0.51206870 -0.00000016
-0.14584006 0.49906408 0.00000223
0.13715977 0.40348977 0.22382455
0.37425120 0.00702613 0.61071148
0.15558682 -0.13993613 0.25389142
-0.50490019 0.09394502 0.00000210
-0.04257432 -0.53107406 0.00000000
0.09749928 0.05770553 0.15910235
0.12988127 -0.56487114 0.21194430
-0.65961230 -0.16154319 -0.00000112
-0.53837036 -0.43741358 -0.00000011
-0.59578716 -0.43350978 -0.00000036
0.32483939 -0.14996079 0.53008110
0.28027983 -0.17090078 0.45736821
0.38965189 -0.73030701 0.63584506
-0.29394364 0.05314731 0.00000677
0.24033063 -0.74577705 0.39217900
-0.58209111 -0.00034779 -0.00000107
-0.35851602 0.21853344 -0.00000050
0.02478234 0.46788109 0.04044856
-0.02433894 -0.23307222 0.00000000
-0.24397522 0.31377562 0.00000344
0.08299658 0.45867650 0.13544142
0.19135671 0.21126289 0.31226712
-0.61424365 0.09302637 0.00000001
-0.00079393 -0.73100948 0.00000000
0.22523301 0.34421519 0.36754090
-0.11679010 -0.60996540 0.00000000
-0.69051260 -0.29040795 -0.00000102
0.05032110 0.15137403 0.08211553
-0.30839046 0.00787768 0.00000723
0.12613446 0.03589837 0.20583013
-0.76068195 -0.46998204 -0.00000083
0.00963791 -0.65285628 0.01572745
-0.22871661 -0.59310234 0.00000000
0.35601181 -0.26450014 0.58094911
0.02476061 0.50202789 0.04041216
0.13470990 0.12832633 0.21982381
0.03145619 -0.11601744 0.05133120
-0.36800267 -0.62573004 0.00000000
-0.58807253 -0.38798424 -0.00000041
-0.48404182 -0.70421621 0.00000000
-0.10325021 0.47135923 0.00000337
0.25049816 -0.52091821 0.40877068
0.38893173 -0.43175314 0.63466891
0.00504820 -0.64000433 0.00823781
-0.29690455 0.45009735 -0.00000065
0.26066535 -0.06907276 0.42536065
0.06460632 0.29918710 0.10543720
0.16467974 0.07667880 0.26874096
-0.47064859 -0.24167515 -0.00000017
0.07361241 0.37105045 0.12013115
0.03925498 0.06241510 0.06407602
-0.01886932 0.26347332 0.00000776
0.15510143 -0.17768826 0.25309934
-0.24503450 0.01723472 0.00000804
0.33158780 -0.43124576 0.54109424
-0.36810639 0.36103320 -0.00000080
-0.22358537 0.45178191 0.00000152
-0.01071224 0.34782145 0.00000662
-0.53166683 -0.20609564 -0.00000049
-0.57601463 0.20864914 -0.00000118
-0.50733184 0.23654865 -0.00000117
0.18248144 0.09086532 0.29778863
-0.34967985 -0.03939804 -0.00000001
-0.47561362 -0.55284133 0.00000000
-0.25352715 0.44587698 0.00000105
0.33537744 -0.43479438 0.54727823
0.11079883 0.06393832 0.18080497
0.30219005 -0.27984518 0.49312202
0.20391190 -0.07210650 0.33274954
0.12402678 0.18235829 0.20240152
0.26510752 0.22835073 0.43260842
0.12945864 0.02452578 0.21125463
-0.58557185 -0.09569012 -0.00000092
0.33595700 0.14346233 0.54822195
-0.65561378 -0.78649310 0.00000000
-0.21357747 -0.03217549 0.00000000
0.24011908 0.22374015 0.39183192
-0.54744822 -0.49512482 -0.00000005
0.29767721 -0.50937508 0.48575869
0.13117767 -0.78134710 0.21405981
0.03321761 0.26891022 0.05421861
0.36818345 -0.31301872 0.60081116
-0.69844269 -0.76889224 -0.00000008
0.21752530 -0.71588967 0.35496455
-0.37518006 0.02498147 0.00000574
-0.16245787 -0.35352301 0.00000000
-0.73566419 -0.07983211 -0.00000158
-0.57433978 -0.72102622 0.00000000
-0.50314873 0.07360064 -0.00000086
0.07278104 0.35215689 0.11877507
0.20686569 -0.79712462 0.33756987
0.21549360 0.34760299 0.35164727
0.02105765 -0.56286532 0.03436253
-0.10754294 0.65057264 0.00000043
0.26179216 0.28531165 0.42719816
-0.35696251 -0.35556138 0.00000000
-0.46129563 -0.55234317 0.00000000
0.18922835 -0.71726057 0.30878871
0.20815456 0.14100454 0.33967942
-0.03526078 0.72107862 -0.00000001
0.20933786 -0.23033751 0.34160403
0.10252730 0.09695177 0.16730724
-0.48736054 0.21032360 0.00000049
0.35895114 0.05318390 0.58574445
-0.23725063 0.56151808 -0.00000059
0.17600605 0.06319267 0.28722322
0.19643047 0.01618317 0.32055248
-0.68214909 -0.18636834 -0.00000117
-0.20480858 -0.61792484 0.00000000
0.02656946 0.69262073 0.04335682
-0.36637635 0.36336119 -0.00000079
-0.77547037 -0.35703801 -0.00000111
-0.05723204 -0.42910387 0.00000000
-0.18514080 0.55202278 0.00000059
-0.65809140 -0.69177986 -0.00000017
0.35673743 0.00488465 0.58213544
-0.11189443 0.64090170 0.00000051
-0.00314671 -0.64982690 0.00000000
-0.11026134 0.30572744 0.00000575
-0.63541863 -0.64913727 -0.00000015
-0.42874844 0.28327720 -0.00000092
-0.06702203 -0.05984535 0.00000000
-0.16973987 0.19227300 0.00000655
0.34260572 -0.61923152 0.55907410
-0.61558693 -0.04320825 -0.00000114
0.38868535 -0.70392666 0.63426777
0.15684833 -0.53303206 0.25594998
0.33879151 0.02972445 0.55284775
0.09477536 -0.14945471 0.15465739
-0.00084905 0.21002353 0.00000884
0.06738284 -0.25532686 0.10995741
-0.07164943 0.19717773 0.00000796
0.32960262 -0.13595200 0.53785375
-0.48346625 -0.34263366 -0.00000004
0.28185083 -0.62860349 0.45993296
0.00636126 0.25311278 0.01038050
0.00848190 0.66385649 0.01384438
0.32155857 -0.64418415 0.52472913
-0.47134562 -0.17086830 -0.00000030
0.34568751 -0.57675955 0.56410286
-0.64043352 0.01476310 -0.00000135
-0.06985769 -0.78847779 0.00000000
0.24367838 -0.36378433 0.39764196
0.07410181 -0.76692184 0.12092163
-0.29972704 0.14461491 -0.00000012
-0.08467920 0.25959712 0.00000000
0.00572319 0.30754960 0.00935271
-0.67355946 0.10102366 -0.00000126
0.11014774 0.19366567 0.17974251
0.20791632 0.21173350 0.33928841
-0.26957540 -0.50365437 0.00000000
0.00718564 -0.29724154 0.01172575
-0.43837564 -0.62829088 0.00000000
-0.18952782 -0.04069333 0.00000000
0.30159743 0.04220351 0.49215896
-0.16431495 0.02017486 0.00000922
0.20563988 0.02779073 0.33557966
-0.55262042 -0.71830152 0.00000000
-0.54735433 -0.72063023 0.00000000
0.31990048 -0.34419419 0.52202239
-0.06831652 0.25614499 0.00000713
0.14840314 -0.04301365 0.24216887
0.02260207 -0.00753514 0.03688276
-0.42539618 -0.40365655 0.00000000
-0.25663712 0.37461575 -0.00000034
-0.77736981 -0.01228011 -0.00000188
0.22119579 -0.03691248 0.36095352
0.14485304 0.35417165 0.23637969
-0.03454068 -0.50932326 0.00000000
0.34302155 -0.62755513 0.55975269
0.28345646 -0.54826537 0.46255307
0.14546629 0.50290623 0.23737564
0.02251738 0.04216666 0.03674457
-0.72264591 -0.62501709 -0.00000044
0.05267497 0.37219209 0.08596584
0.08845696 -0.67312564 0.14434682
0.27040928 0.01519802 0.44126823
0.14953033 -0.25602042 0.24400824
0.24636041 -0.23394184 0.40201822
0.15997481 -0.78436510 0.26105187
-0.65364769 -0.14960691 -0.00000111
0.19068014 -0.66203678 0.31115779
-0.74276154 -0.37219093 -0.00000107
0.05768395 -0.29729891 0.09413046
-0.50583522 -0.69036432 0.00000000
-0.32273324 -0.73056702 0.00000000
0.27967717 -0.34525648 0.45638539
-0.08324844 -0.26982059 0.00000000
-0.26592361 -0.30512210 0.00000000
-0.57001161 -0.32002241 -0.00000045
-0.49063503 0.25130323 -0.00000026
-0.55433500 0.10163629 0.00000102
-0.43456687 0.07720221 0.00000373
0.20527597 -0.49185869 0.33497571
-0.72435847 -0.27465373 -0.00000119
0.06517991 -0.58499345 0.10636260
0.02145992 0.33944032 0.03501896
0.08254750 -0.21229973 0.13470357
-0.24938387 0.50477753 0.00000014
0.35570072 -0.12122196 0.58044098
0.01616141 0.38609929 0.02637269
0.02516168 0.34378994 0.04107103
-0.64817835 -0.55402885 -0.00000037
-0.39384018 0.29158832 -0.00000078
0.01038281 0.23631793 0.01695817
0.22802714 0.18568767 0.37210025
-0.01575213 0.47822170 0.00000000
-0.17757235 0.31477384 0.00000000
-0.18869384 0.39478389 -0.00000009
0.06973032 0.64977247 0.11378797
-0.20782217 0.18204104 0.00000613
-0.68701678 0.01315326 -0.00000005
-0.76311813 -0.68308066 -0.00000029
0.30344199 0.01632976 0.49516967
0.11585420 0.32974639 0.18905426
0.32696134 -0.15531616 0.53354375
-0.67176297 -0.50511395 -0.00000056
0.03155601 -0.33329657 0.05149408
-0.45640043 0.20454326 0.00000118
-0.07547073 -0.62654848 0.00000000
0.23523356 -0.29643754 0.38386144
-0.28935789 -0.01955359 0.00000000
0.38033752 -0.64085419 0.62064546
-0.37735251 -0.28562537 0.00000000
0.33866178 0.10367632 0.55263715
0.04055663 -0.28233283 0.06618156
0.36953697 -0.25535863 0.60301965
0.29112030 0.10447509 0.47506081
-0.36785998 -0.09279925 0.00000000
-0.25529603 -0.77610165 0.00000000
0.11309052 0.22767273 0.18454464
0.01871192 0.25798838 0.03054883
-0.46993122 -0.42429350 0.00000000
-0.54780287 0.00243585 0.00000280
0.26078794 0.21170022 0.42556224
0.41638545 -0.64214720 0.67946894
0.04317275 0.08214964 0.07046840
-0.12378307 -0.61258837 0.00000000
-0.08870097 0.14492777 0.00000849
-0.77558534 -0.40081358 -0.00000100
0.02576655 0.63040725 0.04204666
0.21830313 -0.46274045 0.35623384
-0.12590658 0.26370210 0.00000000
-0.76687136 -0.42651420 -0.00000093
0.27830601 0.20773558 0.45414597
-0.02064432 0.01803267 0.00001142
-0.41820601 -0.04779896 -0.00000029
-0.31046825 0.20733292 -0.00000028
0.35294836 -0.18792817 0.57594986
0.01982644 0.55342227 0.03235925
0.26963769 0.26827702 0.44000112
-0.45213463 -0.21081236 -0.00000014
0.04086403 -0.09217678 0.06668320
-0.07504711 0.08875231 0.00000000
-0.57964163 -0.56694744 -0.00000006
-0.20297825 0.31527446 0.00000420
0.13144102 0.18767475 0.21448954
-0.32000479 0.17102989 0.00000436
-0.23453750 0.29208746 0.00000398
0.12165533 0.53564375 0.19852081
-0.27579948 0.37777750 -0.00000043
-0.52268007 -0.26517958 -0.00000035
-0.35028010 0.29184919 0.00000176
-0.56069726 0.02780242 0.00000213
-0.01252016 0.75227723 0.00000053
-0.73198975 -0.43805401 -0.00000090
-0.78403021 -0.74640961 -0.00000013
-0.77094310 -0.25791363 -0.00000136
0.22295776 -0.22535343 0.36382939
0.26183528 -0.70682386 0.42727096
0.26815040 -0.12164087 0.43757505
-0.52180763 -0.23088904 -0.00000040
-0.17276433 0.49494027 -0.00000020
0.09051073 0.10263329 0.14771296
0.16782822 0.15966438 0.27387589
0.13351909 0.43099421 0.21787974
0.02780229 0.51747524 0.04537507
0.21717117 0.31574246 0.35438679
0.16762564 0.42567390 0.27353685
-0.24095303 -0.79121365 0.00000000
0.08510338 -0.40050126 0.13887435
0.22808898 -0.66360552 0.37220269
-0.13041138 0.54790704 0.00000171
-0.31774576 -0.64558226 0.00000000
0.11918879 0.30322399 0.19450341
0.12227200 -0.43538338 0.19952725
-0.09731811 0.46043311 0.00000363
0.03626782 -0.05483120 0.05918296
0.14424407 0.33474615 0.23538126
-0.38053638 0.04352388 -0.00000029
0.39508274 -0.11707778 0.64470513
-0.65661134 0.07669863 -0.00000152
0.28174711 -0.04775191 0.45976211
0.32675855 -0.61760189 0.53321444
0.03209276 0.38504060 0.05236996
-0.12091224 0.03365534 0.00000967
0.38392918 0.02481852 0.62650523
-0.27701267 -0.48236582 0.00000000
-0.37744787 0.12531565 0.00000402
0.27855777 -0.55402647 0.45455923
0.21370757 -0.77212983 0.34873467
0.24777183 -0.11214878 0.40432097
-0.50055948 -0.26538006 -0.00000025
0.34130026 0.11033828 0.55694231
-0.10845425 0.48900014 0.00000000
-0.20459792 -0.28719549 0.00000000
-0.46706646 -0.77794454 0.00000000
-0.53569003 -0.57946689 0.00000000
0.02751432 -0.41774732 0.04489873
-0.66181202 0.13603348 -0.00000165
-0.55627645 0.04954829 -0.00000105
0.25710625 0.08703025 0.41955858
0.01733203 -0.77687947 0.02828294
-0.21665700 0.44273996 0.00000181
0.05593577 0.53182799 0.09127774
-0.41946599 0.14460432 0.00000289
-0.76680576 -0.46180502 -0.00000085
-0.11735189 0.19724516 0.00000727
0.07578544 -0.34826825 0.12366904
-0.33122846 -0.50816917 0.00000000
0.36134820 -0.61924199 0.58965836
-0.19890303 -0.48531503 0.00000000
-0.65368507 -0.09466373 -0.00000121
-0.56953433 0.03700715 0.00000181
0.22080543 -0.57732061 0.36031718
-0.19507904 0.18799609 0.00000624
0.23797575 -0.39837454 0.38833623
-0.73062626 -0.25927331 -0.00000125
-0.60307159 -0.61151604 -0.00000008
0.19586591 -0.51873934 0.31962008
-0.69874409 -0.05197759 -0.00000148
0.05584645 -0.12102038 0.09113198
-0.61426268 -0.10135295 -0.00000103
0.08474292 -0.73001182 0.13828613
-0.00571002 0.22841531 0.00000849
-0.61542990 -0.21589273 -0.00000083
0.23657577 -0.56743900 0.38605171
-0.31531553 0.26180952 -0.00000039
-0.19591894 -0.37258083 0.00000000
0.30045854 -0.28194796 0.49029652
-0.09737561 0.32939382 0.00000000
-0.65712043 -0.77362172 -0.00000002
-0.40208561 0.25328239 -0.00000075
0.00679687 -0.69215917 0.01109134
-0.37336436 -0.64794974 0.00000000
-0.26283738 0.19692559 0.00000503
-0.28449021 0.30574646 0.00000279
-0.25124686 0.01534956 0.00000000
-0.47620208 0.28320461 -0.00000051
-0.11194923 -0.64418118 0.00000000
0.30066193 0.12108905 0.49062700
-0.33799569 -0.32329572 0.00000000
-0.33229268 -0.70797942 0.00000000
-0.17327402 -0.78075587 0.00000000
-0.20147277 0.42706689 -0.00000020
-0.59589491 -0.71296438 0.00000000
-0.18670373 0.51870858 0.00000111
-0.30854596 0.42825424 -0.00000066
0.40461041 -0.73288037 0.66025457
0.35397173 -0.50983242 0.57762094
-0.72860943 0.05857256 -0.00000180
0.07611407 0.37928347 0.12421308
0.08413789 0.07819314 0.13729882
0.10869123 0.21040692 0.17736573
-0.18054685 0.16127967 0.00000000
-0.34753183 0.33724748 0.00000106
0.23864908 0.18701282 0.38943328
-0.14507896 0.43037463 0.00000000
-0.11515031 -0.06661321 0.00000000
-0.04135585 0.36313613 0.00000593
0.07807549 0.41108102 0.12741279
0.19931882 0.21457262 0.32525347
0.05273384 -0.57035650 0.08605273
-0.38593159 0.03186890 -0.00000029
0.20214197 0.09550536 0.32986075
0.12366620 0.18795534 0.20180235
0.03864107 -0.34198974 0.06305571
-0.02947015 0.61562588 0.00000000
0.17179893 -0.15412338 0.28034684
0.11350265 0.16936164 0.18522883
-0.21564620 0.09569247 0.00000000
-0.32184975 -0.69108102 0.00000000
-0.21179854 0.40640914 0.00000251
-0.03679463 0.26756814 0.00000000
-0.28254225 0.19263723 0.00000472
0.08733646 0.09518519 0.14251835
-0.29287623 -0.33881686 0.00000000
-0.27078344 -0.21435819 0.00000000
0.33114356 -0.10137501 0.54036816
-0.19956439 0.47663963 0.00000157
0.31912970 0.09074235 0.52076589
-0.61726805 -0.79999406 0.00000000
-0.06047200 0.13544749 0.00000000
-0.65863372 -0.32316989 -0.00000083
0.06730623 -0.14069690 0.10983240
0.03879975 0.08511096 0.06331465
0.08063655 0.38788452 0.13158522
-0.06563484 -0.73612787 0.00000000
0.18905672 0.04020172 0.30851953
0.35375398 -0.41315861 0.57726527
0.04256145 0.34220257 0.06946365
0.16588272 0.44170361 0.27069116
0.13362215 -0.08975438 0.21804879
-0.48343609 0.09779152 -0.00000082
0.11196288 -0.50271219 0.18270451
-0.11458397 -0.34457888 0.00000000
0.23213681 -0.72512596 0.37880808
-0.12882236 0.40139138 0.00000404
0.15310968 -0.33701329 0.24984914
0.29582881 0.08325733 0.48274464
-0.35156601 0.07230232 -0.00000021
-0.43011453 -0.61608915 0.00000000
-0.32936209 0.23197156 -0.00000040
0.28450604 0.17897704 0.46426555
0.08010247 -0.18487168 0.13071370
-0.12403413 0.26257440 0.00000619
-0.57642781 -0.17101063 -0.00000074
0.16311455 0.02225963 0.26618859
0.27342061 -0.42760422 0.44617613
0.29096600 0.09226213 0.47480942
0.05685628 0.29639547 0.09277985
-0.07297472 -0.38595719 0.00000000
0.24459663 0.06943126 0.39914643
-0.62986521 -0.47317187 -0.00000044
-0.32421217 -0.24862491 0.00000000
0.33595973 0.12285024 0.54822648
0.10190380 -0.73830364 0.16628978
-0.16730856 0.03320212 0.00000898
-0.46976715 0.26020608 -0.00000000
-0.48895320 -0.63911823 0.00000000
0.13417520 0.10237632 0.21896372
-0.33909165 0.04332220 0.00000613
-0.04583123 0.14776424 0.00000909
0.06898405 0.32031789 0.11258011
-0.24554842 0.02138631 0.00000000
0.27346542 0.15663212 0.44625062
-0.32412988 -0.33109932 0.00000000
-0.70138148 -0.56667810 -0.00000058
-0.66896626 -0.18799326 -0.00000111
-0.03203119 -0.64159218 0.00000000
0.38145672 -0.46805200 0.62247120
0.22977863 0.10258473 0.37495864
0.33028765 -0.26089800 0.53897204
-0.42980796 0.30298583 0.00000005
-0.03010774 -0.16445184 0.00000000
-0.24377119 -0.54471660 0.00000000
-0.29012779 0.46035134 -0.00000064
-0.34279211 0.30581701 0.00000167
-0.21856471 0.06878850 0.00000000
-0.04330365 0.10342288 0.00000980
-0.66063000 0.13106449 -0.00000151
0.14853340 -0.29374483 0.24238142
-0.72741218 -0.27787891 -0.00000120
-0.53293960 -0.78481032 0.00000000
-0.74246651 -0.66926363 -0.00000033
0.38575869 -0.41857992 0.62949106
0.24422326 0.01950370 0.39852990
0.01867290 0.46027826 0.03047952
-0.23180483 0.48279127 -0.00000043
-0.55694049 -0.04224387 -0.00000089
-0.47528167 0.14160051 -0.00000086
0.14399613 -0.45536549 0.23497736
0.08893514 0.15709985 0.14512713
0.23167753 -0.08338710 0.37805795
0.03609800 0.42473811 0.05891443
-0.01857417 0.46625643 0.00000000
0.31063107 -0.53865970 0.50689711
0.11575025 -0.06841371 0.18888487
-0.50230544 -0.57566038 0.00000000
0.18427066 -0.31273957 0.30069859
-0.30860125 0.31635303 -0.00000046
0.23711692 -0.22344922 0.38693452
-0.52675208 -0.60003662 0.00000000
-0.32947448 -0.15283008 0.00000000
0.21096636 0.07557184 0.34426060
0.08456271 -0.38696100 0.13799207
0.18487473 -0.22977975 0.30168433
0.02040069 0.53308929 0.03329687
0.02690167 0.48287824 0.04389899
-0.41787682 0.34818173 -0.00000098
-0.38768544 -0.38837945 0.00000000
0.36696237 -0.56977914 0.59881947
0.00683684 -0.41742019 0.01115656
0.38578966 -0.00214612 0.62954013
-0.24856824 0.38790297 0.00000211
0.01869553 0.30549411 0.03050795
0.29529215 -0.79040189 0.48186691
-0.29455990 -0.30990220 0.00000000
0.05561714 0.59295405 0.09076045
-0.21781357 0.24317595 0.00000507
0.02225842 0.02461532 0.03634246
0.18364890 -0.03910983 0.29968395
-0.52317347 0.06551790 -0.00000093
0.16839081 -0.30335255 0.27478537
0.20567421 -0.53700219 0.33562557
-0.02557912 0.33839966 0.00000000
-0.13264191 0.47966644 0.00000000
0.00106808 0.05612269 0.00176362
-0.27381966 0.35418823 -0.00000038
-0.43321322 -0.20287973 -0.00000008
-0.56773008 0.09047904 -0.00000117
-0.44145086 -0.44777512 0.00000000
-0.47164918 -0.40570266 0.00000000
0.13382984 -0.52716065 0.21838770
-0.40056113 0.23305502 -0.00000071
0.13668433 0.53710576 0.22304448
-0.25640104 0.46373604 -0.00000050
0.03832648 -0.00227005 0.06254234
-0.11931488 0.19866574 0.00000722
0.17890237 -0.45227681 0.29193845
-0.03738699 -0.27853092 0.00000000
-0.12828691 0.61254458 0.00000067
0.18737909 -0.06733967 0.30577102
0.26931905 0.12069072 0.43948588
0.15995994 0.18823466 0.26102717
-0.08821940 0.43620534 0.00000000
-0.43893304 0.13750322 -0.00000070
-0.47358420 0.31303087 -0.00000096
-0.41716588 0.33415518 -0.00000023
-0.32199911 -0.43167349 0.00000000
0.21673483 -0.39918485 0.35367463
0.02635552 0.08627450 0.04302630
-0.11103038 0.48546869 0.00000304
0.32599382 -0.26068342 0.53196529
0.12532482 -0.42800968 0.20450894
0.19543545 -0.06328163 0.31891750
0.36735874 -0.11714709 0.59946469
0.09345019 0.58208020 0.15249418
-0.24994405 0.16308522 0.00000578
-0.21712926 -0.79844059 0.00000000
-0.25389291 0.31118401 -0.00000022
-0.43479655 -0.36008640 0.00000000
0.14403479 -0.12577938 0.23504045
0.03079729 0.65518652 0.05025842
-0.09559254 -0.45686941 0.00000000
-0.37567540 -0.43053382 0.00000000
-0.66449937 -0.77321484 -0.00000005
0.34978091 -0.18158260 0.57078115
0.36167653 -0.53804839 0.59019385
-0.25722757 0.46640315 0.00000063
-0.02743236 0.28843111 0.00000000
-0.29934731 -0.68536856 0.00000000
-0.60726799 -0.52200233 -0.00000025
0.26967550 -0.19209639 0.44006399
0.02584756 0.49378787 0.04217886
0.14665368 0.17667692 0.23932356
0.30994105 -0.67974280 0.50577145
-0.70058985 -0.10034430 -0.00000140
-0.04758777 0.64883870 0.00000000
-0.40905880 0.02763512 0.00000505
0.02507998 0.72656688 0.04092614
0.11839986 -0.05429980 0.19320858
0.01920848 0.58256323 0.03135006
0.24320691 0.09054527 0.39687806
-0.25208736 0.43389555 -0.00000043
-0.62655728 -0.36192367 -0.00000062
0.05151500 0.66238527 0.08406343
-0.32254463 -0.50684563 0.00000000
-0.48243765 -0.04422777 -0.00000057
0.08425709 -0.54806252 0.13749334
-0.59462379 0.11929252 -0.00000133
-0.28842057 -0.14913060 0.00000000
-0.72825261 -0.42734522 -0.00000093
-0.23401622 0.42152598 -0.00000033
-0.73291990 -0.59085431 -0.00000052
0.27545575 0.20577899 0.44949680
0.33076943 -0.31713051 0.53975841
0.12770056 -0.67099556 0.20838575
0.34616437 0.09008951 0.56488003
0.04079485 0.10607699 0.06658754
0.11452244 -0.58424177 0.18688128
-0.20026174 -0.50185542 0.00000000
0.12497027 0.18942683 0.20393037
0.04126672 0.65507075 0.06734203
-0.61707291 0.04416912 -0.00000130
-0.01165593 -0.19810877 0.00000000
-0.10878050 0.02392819 0.00001000
0.40560711 -0.02152343 0.66187862
0.24080317 -0.26400497 0.39294994
0.20665583 0.13395054 0.33722641
-0.45048640 0.01382268 -0.00000053
0.05328379 0.11148859 0.08695014
0.41684022 -0.25000622 0.68020973
0.31883525 0.10664872 0.52028255
-0.42364718 0.02932972 -0.00000045
-0.61345524 0.15261422 -0.00000147
0.09055143 -0.32567737 0.14776465
0.40814476 -0.74931709 0.66602204
-0.09986634 -0.23417793 0.00000000
-0.78695787 -0.53064517 -0.00000067
-0.08822866 0.60955197 0.00000149
0.13109181 -0.63424822 0.21391969
0.15033187 0.34578159 0.24532011
0.14843945 0.29789190 0.24222746
0.18398693 0.05700283 0.30024630
-0.74416687 -0.75701635 -0.00000011
0.08188954 -0.04254446 0.13362990
-0.06740862 0.46027673 0.00000408
-0.74052890 -0.72090856 -0.00000020
-0.29367795 0.13095386 -0.00000007
0.25882765 -0.04337804 0.42236178
-0.15681868 -0.13114845 0.00000000
-0.31505203 0.25974763 -0.00000039
0.18868970 0.01265333 0.30790943
0.07301224 0.25034726 0.11915517
0.00399160 -0.04837095 0.00651361
-0.45920551 0.23165817 -0.00000096
0.40231140 0.02250713 0.65650048
0.10835724 0.02468376 0.17682071
0.20154107 -0.77986799 0.32888099
0.02872395 -0.21092447 0.04687263
-0.00187070 0.46027198 0.00000507
-0.18424365 -0.65760146 0.00000000
-0.28799874 0.24881775 -0.00000025
-0.57393524 0.18605285 -0.00000136
0.02622211 0.11753943 0.04279006
-0.14932410 -0.33630587 0.00000000
-0.25963781 -0.49372319 0.00000000
0.27751667 -0.59007725 0.45286034
-0.65881947 -0.52601365 -0.00000047
-0.63199847 0.10832105 -0.00000147
0.39632816 -0.32142570 0.64673812
-0.37061121 -0.09729227 0.00000000
0.04788467 0.35066271 0.07814973
0.01244088 0.30214692 0.02031466
0.08485531 0.40190150 0.13847621
-0.67177546 -0.54921969 -0.00000048
-0.25314805 -0.12288513 0.00000000
0.02078934 -0.44082198 0.03392470
-0.44563550 0.23887176 -0.00000091
0.09563611 0.01134652 0.15607899
0.39051495 -0.62965501 0.63725309
0.28418606 -0.15085705 0.46374239
-0.10281100 -0.26031474 0.00000000
0.16362804 0.12238127 0.26701305
-0.00065092 -0.25278044 0.00000000
-0.77220877 -0.71795400 -0.00000021
-0.65869420 0.10739191 -0.00000159
0.12318274 0.04612368 0.20101342
-0.70087674 -0.62718415 -0.00000043
-0.26614829 0.10283830 0.00000000
0.19823302 0.19303099 0.32348818
-0.66824038 -0.45149314 -0.00000064
-0.56472864 -0.39702676 -0.00000029
-0.33230485 0.07293345 -0.00000013
-0.33968071 0.17300064 -0.00000034
0.11623675 0.51021909 0.18967978
-0.78341291 -0.53258325 -0.00000067
-0.23210452 -0.48380359 0.00000000
-0.73212002 0.01402276 -0.00000093
-0.26219776 0.29182650 0.00000345
-0.36619815 0.12750590 -0.00000037
-0.07656216 0.48229686 0.00000000
0.07560855 -0.56011710 0.12338039
0.33472388 -0.41658156 0.54621168
-0.52567280 -0.31992482 -0.00000026
-0.60362194 0.03694763 0.00000115
0.00814030 0.06158577 0.01330377
-0.18237770 -0.35968935 0.00000000
0.18628418 -0.51700644 0.30398431
-0.48754690 -0.10146232 -0.00000049
0.29127941 0.13743140 0.47531939
-0.04762206 0.68661755 -0.00000000
0.22649078 0.01474255 0.36960376
-0.06776923 0.02085097 0.00000000
0.32722111 -0.11653277 0.53396750
-0.45373003 -0.12640367 -0.00000030
0.08549993 -0.23177645 0.13952145
-0.14481237 0.53487848 0.00000165
-0.75667372 -0.04411214 -0.00000174
-0.34023690 -0.11703571 0.00000000
0.21921025 0.36064197 0.35771266
0.10043671 -0.65341991 0.16389575
0.07859964 -0.63545861 0.12826134
0.24517435 -0.51430747 0.40008314
-0.11506833 -0.24238046 0.00000000
0.11938321 -0.20474302 0.19481324
-0.19573200 0.22628703 0.00000000
0.31763943 0.11833665 0.51833115
-0.17507136 -0.65891911 0.00000000
0.02467151 0.24619291 0.04025974
0.01629824 0.69661883 0.02659801
-0.44369147 -0.61626041 0.00000000
-0.48752381 -0.48185112 0.00000000
-0.09659208 0.14795869 0.00000000
0.28526104 0.25019487 0.46549515
-0.66375093 -0.03284383 -0.00000136
0.36684398 -0.36888441 0.59862557
0.17104966 -0.25208692 0.27912415
0.10066338 -0.73334862 0.16426564
0.11312437 -0.75973613 0.18459987
-0.46455510 0.29801582 -0.00000054
0.01888350 0.35382568 0.03082615
-0.55568201 0.04993271 -0.00000105
0.16656369 0.05019176 0.27180374
-0.42995102 -0.70525651 0.00000000
-0.23891919 -0.54622364 0.00000000
0.14082249 0.35592909 0.22979780
-0.63615410 -0.27777576 -0.00000081
-0.34096218 0.25471016 -0.00000049
-0.05151787 -0.09219271 0.00000000
0.03840981 0.53941335 0.06268359
0.36567760 -0.46230281 0.59672259
-0.73618259 -0.38488694 -0.00000104
0.37879398 0.04584451 0.61812431
-0.17010077 0.32059895 0.00000462
0.19708872 0.21964845 0.32162011
0.23217448 -0.08950226 0.37886889
-0.34849399 0.38625110 -0.00000076
0.00333842 0.76815390 0.00544845
-0.18889545 0.50923367 0.00000123
0.17299895 -0.18975889 0.28230507
-0.52834511 0.22981845 -0.00000125
0.09784766 0.20134693 0.15967085
0.11383995 -0.28613100 0.18576757
-0.67749875 -0.32223837 -0.00000091
-0.14039319 0.47615003 -0.00000003
-0.69210232 -0.49506193 -0.00000066
-0.47511012 -0.00454658 -0.00000061
-0.25043175 0.11077326 0.00000000
0.00982369 0.65637897 0.01603410
-0.01106225 -0.50786526 0.00000000
0.12041282 0.42148845 0.19649276
-0.75812337 -0.37040682 -0.00000107
-0.22484682 0.06733977 0.00000760
0.05355747 -0.20106759 0.08739674
-0.27679134 0.42631841 0.00000093
0.13531566 -0.10651168 0.22081230
0.16597420 0.26263562 0.27084106
0.06002550 -0.10157032 0.09795148
-0.25602792 0.29093819 -0.00000019
-0.16301283 -0.01074524 0.00000000
0.35160647 -0.66544043 0.57376182
0.07618104 0.63988956 0.12431433
0.14118741 0.20041669 0.23040317
0.04727902 -0.19386270 0.07715138
0.30014691 -0.13445880 0.48978748
-0.79438824 -0.32378330 -0.00000119
-0.01225016 0.49991226 0.00000432
-0.54038556 -0.06779479 -0.00000077
-0.30350702 0.13914462 -0.00000013
0.10716318 0.12036682 0.17487221
0.28734311 0.11971184 0.46889316
-0.52949420 -0.79523478 0.00000000
-0.52207238 -0.52166089 0.00000000
-0.06940942 -0.24267121 0.00000000
-0.49401160 -0.13690360 -0.00000045
0.15425487 -0.24948579 0.25171789
-0.75091731 -0.52967481 -0.00000068
0.15812815 0.16750810 0.25804744
-0.33201159 -0.38770261 0.00000000
-0.19060162 0.08934490 0.00000778
-0.78322935 -0.07823574 -0.00000179
0.13957354 -0.79706330 0.22776044
-0.71679975 -0.25218231 -0.00000120
-0.63336421 -0.42884777 -0.00000053
-0.65241982 -0.65061251 -0.00000022
0.13644535 0.44402249 0.22265750
-0.35573009 0.36519966 0.00000043
-0.22085935 -0.15841942 0.00000000
-0.31387227 0.23007100 -0.00000033
0.21515097 0.24758409 0.35108851
0.40169103 0.00466739 0.65548896
0.17576779 0.33596390 0.28682575
-0.04819544 -0.37091509 0.00000000
0.26663084 -0.69231698 0.43509650
-0.00668497 0.78443381 -0.00000000
-0.55635209 -0.36431811 -0.00000032
0.11558917 0.46563112 0.18862452
0.32170926 -0.13261055 0.52497324
-0.10926127 0.19724939 0.00000000
0.19212792 -0.13412113 0.31352032
0.03517929 -0.68891285 0.05740666
0.40099796 -0.37791827 0.65435855
0.00401831 0.69794625 0.00655721
-0.17506252 0.44144052 -0.00000011
-0.23085721 0.13280774 0.00000000
0.14315544 -0.44265111 0.23360550
-0.25220042 -0.30194430 0.00000000
-0.40202256 0.02817517 -0.00000035
0.14109616 0.29901795 0.23025112
-0.49321800 0.00534500 -0.00000070
0.02407382 0.05045425 0.03928441
0.03910656 -0.59628623 0.06381530
0.01637078 0.40412123 0.02672454
0.07825703 0.09196265 0.12770225
0.00129576 0.43275855 0.00212464
-0.68745221 0.09490510 -0.00000142
0.18756851 -0.72077198 0.30608014
-0.38879879 0.20809415 0.00000242
0.31442524 -0.54429203 0.51308850
-0.13001781 -0.28811850 0.00000000
-0.49297665 -0.00941269 -0.00000067
-0.39633652 -0.25122009 0.00000000
0.15112296 0.41800504 0.24660867
0.08000230 -0.64439078 0.13055024
0.03949493 0.51865218 0.06445484
0.02329914 0.11660619 0.03802027
-0.42609038 0.31699875 -0.00000096
0.34276505 -0.50235820 0.55933369
0.03162920 0.52923626 0.05161351
0.12387500 0.39812808 0.20214249
-0.06880725 0.60770633 0.00000000
-0.23544382 0.11432838 0.00000000
-0.05913424 0.50797761 0.00000000
-0.06586436 -0.01368949 0.00000000
0.24130362 0.08571070 0.39377250
-0.66080222 0.04812749 -0.00000013
-0.27009951 0.52065227 -0.00000066
0.14306287 0.45120008 0.23345335
-0.32493923 -0.35848549 0.00000000
0.04268689 0.00517495 0.06965779
-0.45414492 0.05751333 -0.00000063
0.18293069 0.34254313 0.29851367
-0.23753652 -0.10376774 0.00000000
0.04821394 -0.63505390 0.07867700
0.31208270 0.16975497 0.50926436
-0.51428864 -0.07623683 -0.00000065
0.07838480 0.11413315 0.12792579
0.22648590 -0.18099692 0.36958651
-0.00577914 0.12633930 0.00000000
0.20593190 0.06788001 0.33604531
0.22851015 0.31995923 0.37288796
0.16394147 -0.14304252 0.26752479
-0.32350601 -0.08668313 0.00000000
-0.00041289 0.20872807 0.00000000
-0.54518404 -0.13146509 -0.00000068
-0.29975431 -0.07461690 0.00000000
0.33597591 -0.78825359 0.54825595
-0.32442161 -0.63350203 0.00000000
-0.03946027 0.49833700 0.00000000
0.25430991 -0.75044990 0.41499081
-0.18669457 -0.12637948 0.00000000
0.17342897 -0.79564142 0.28300678
-0.17137026 0.27127691 0.00000535
0.01964782 0.05089893 0.03208180
-0.27479710 0.03398687 0.00000000
0.15173885 -0.71582314 0.24761218
-0.05053156 0.32403875 0.00000000
0.11016310 0.13100246 0.17976758
-0.39484829 -0.44169460 0.00000000
-0.12575088 0.40408683 0.00000000
0.15752773 -0.05849997 0.25705865
0.12712202 0.35561266 0.20744117
0.31084237 -0.03555174 0.50724016
-0.22773249 0.46550619 0.00000121
-0.29593055 0.24826323 -0.00000029
-0.63382308 0.06517091 -0.00000141
-0.47344105 0.01357669 0.00000404
0.20294992 0.23569110 0.33117869
0.08157061 0.10164300 0.13310947
0.05528008 0.51079457 0.09021293
-0.46527815 -0.16390336 -0.00000028
-0.14217856 -0.70059101 0.00000000
-0.42467870 -0.76116511 0.00000000
0.14714595 0.36060932 0.24011650
0.06125361 -0.41583816 0.09995554
0.07968355 0.51401894 0.13002980
-0.43060566 -0.68724368 0.00000000
0.31105911 -0.40649026 0.50759513
0.28459515 -0.41121986 0.46441085
-0.39464100 0.08195267 -0.00000041
0.30818223 -0.28788649 0.50290018
0.03683988 0.13609138 0.06013306
0.23117628 0.24641863 0.37723884
-0.23793020 0.56203027 -0.00000059
0.14763152 0.28629275 0.24090912
-0.46527257 0.26305207 -0.00000104
-0.29292947 0.34594943 -0.00000045
-0.51648225 -0.24201600 -0.00000036
-0.40675998 0.19096364 -0.00000066
0.15841296 -0.02631751 0.25850319
0.04240505 0.59498481 0.06920139
-0.20417848 0.30364885 0.00000436
0.13613224 -0.01641402 0.22214482
-0.15941276 0.09124681 0.00000823
-0.34219342 0.08844009 0.00000531
0.13766361 -0.26780829 0.22464376
-0.50441503 -0.06744008 -0.00000062
0.40517966 -0.06489664 0.66118125
0.07792433 0.15667883 0.12715935
0.11595444 -0.53121325 0.18921807
0.07373804 0.62909723 0.12032827
0.26871284 0.11586965 0.43849684
-0.38383119 -0.52173120 0.00000000
-0.45295196 0.26071909 -0.00000098
-0.13171881 -0.59765484 0.00000000
-0.30701641 0.01948332 0.00000000
-0.08760178 -0.44901878 0.00000000
0.09344470 -0.29799717 0.15248596
-0.08683096 0.55641239 0.00000234
0.35921949 -0.60931541 0.58618466
0.11223838 -0.03978896 0.18315408
-0.35618622 0.28330483 0.00000179
-0.32004749 0.08568656 0.00000579
0.17771585 -0.09075612 0.29000226
0.10039572 0.30421858 0.16383745
-0.21011969 -0.36285268 0.00000000
0.03160000 0.08855529 0.05156586
0.20189078 -0.10430049 0.32945156
0.25803307 0.15034798 0.42106890
-0.70684111 -0.05691944 -0.00000150
-0.19947923 0.41348413 -0.00000017
0.02465685 0.58368134 0.04023582
0.27003333 0.04997747 0.44064705
0.23402890 0.28531515 0.38189365
0.00991782 -0.69082125 0.01618420
-0.03113735 0.65971207 0.00000000
-0.68778971 0.10517330 -0.00000171
-0.34770282 0.30310460 -0.00000061
-0.57258084 -0.17421063 -0.00000072
-0.00234960 -0.60576595 0.00000000
-0.73598325 -0.70460042 -0.00000024
0.21577737 -0.73675502 0.35211222
-0.09430582 0.58819083 -0.00000003
-0.37331004 -0.11260582 0.00000000
0.41100540 -0.12507420 0.67068798
-0.43795354 -0.32728231 0.00000000
-0.74487375 -0.65021304 -0.00000037
-0.08166932 0.49930771 0.00000000
-0.12106577 -0.61319889 0.00000000
0.15550325 -0.71198996 0.25375504
0.07214698 -0.37478784 0.11773169
0.38052196 -0.06911611 0.62094446
0.34254668 -0.41213751 0.55897703
0.01596055 0.21388525 0.02606044
0.06960909 -0.37243866 0.11359027
0.02177051 0.35951131 0.03553694
0.16415243 -0.32507713 0.26786905
-0.47648256 0.07335926 -0.00000075
0.21408901 -0.51224656 0.34935711
0.16758239 0.10659055 0.27347644
0.12446524 0.30842014 0.20310596
-0.34098819 -0.47816071 0.00000000
-0.76803757 -0.20856854 -0.00000148
0.02131907 -0.69574583 0.03478912
-0.30520542 -0.51115628 0.00000000
-0.29060658 -0.28540920 0.00000000
0.04789229 0.42836378 0.07816000
-0.32286256 0.43002788 -0.00000072
0.24766645 -0.61817008 0.40414982
0.26371859 -0.66739737 0.43034421
0.03752787 0.66317828 0.06124086
-0.25086977 0.09014554 0.00000686
-0.65368215 -0.61366374 -0.00000029
0.02641808 0.58908719 0.04311435
0.06427859 -0.58174907 0.10489181
0.06808604 0.25791911 0.11111648
-0.62263443 -0.37088307 -0.00000059
-0.24565061 0.44699174 -0.00000042
-0.02472747 -0.60223175 0.00000000
-0.47590731 -0.14535125 -0.00000036
0.12856818 0.05072666 0.20981575
0.15777301 0.21085929 0.25745842
0.25590007 0.19124371 0.41758369
0.27144636 -0.14757223 0.44295355
-0.21146493 0.58112726 -0.00000052
-0.01515745 0.62853334 0.00000000
-0.58187473 -0.46760376 -0.00000024
0.35301661 -0.59701216 0.57606266
0.33811439 -0.10196108 0.55174328
-0.32435703 0.46522593 -0.00000079
-0.16149601 0.20789297 0.00000000
-0.05894350 -0.56725403 0.00000000
0.21859603 -0.08138715 0.35671135
0.28927838 0.03979845 0.47205730
0.36637746 0.00447713 0.59786567
0.17114489 0.02317926 0.27927950
0.14482191 -0.38881367 0.23632489
-0.25095247 0.26418188 -0.00000012
0.15566016 -0.32326326 0.25401109
-0.22801735 0.32512183 0.00000355
0.10949449 -0.57470348 0.17867652
-0.01121557 0.10866237 0.00001020
0.12521237 0.21907712 0.20432545
-0.34994134 -0.16089236 0.00000000
-0.78759066 -0.78687892 -0.00000003
-0.41071007 -0.73726910 0.00000000
-0.17084604 -0.09564119 0.00000000
-0.66137384 -0.03836297 -0.00000134
-0.05398651 0.61513465 0.00000196
-0.16958580 -0.27646574 0.00000000
0.22401892 -0.33917475 0.36556104
0.39298675 -0.01846895 0.64128451
-0.37626611 0.34516456 0.00000037
0.30799146 0.13368187 0.50258958
0.37366992 -0.38092397 0.60976429
-0.51874801 -0.37254878 -0.00000014
0.11150913 0.04224878 0.18197939
0.00483618 0.15673351 0.00789182
0.21438996 0.37817600 0.34984622
-0.34089232 -0.14157735 0.00000000
0.11265999 0.47616134 0.18384445
-0.67673809 -0.68528626 -0.00000026
-0.08761105 0.35944546 0.00000000
0.26239862 0.05632664 0.42818859
-0.15308412 -0.30895571 0.00000000
0.11079324 0.13555167 0.18080862
0.24749601 -0.37368714 0.40387169
-0.22997537 0.28308297 0.00000422
0.13871880 0.28686530 0.22636521
0.37569763 -0.15468510 0.61307234
0.31470627 0.18321011 0.51354497
-0.35879303 -0.05559390 -0.00000002
0.09730469 -0.05055761 0.15878482
-0.15956875 -0.44094003 0.00000000
-0.65056851 -0.28621568 -0.00000086
-0.07092435 0.27840146 0.00000000
-0.71143683 -0.70163692 -0.00000025
-0.31050835 -0.46207940 0.00000000
0.26059113 0.28738121 0.42523829
0.25511519 -0.03038397 0.41630368
0.04585585 -0.37010244 0.07482900
0.17932863 -0.50163939 0.29263404
0.21881728 0.30172275 0.35707105
0.09368755 0.34913399 0.15288995
0.38294394 -0.26140121 0.62489737
-0.01342671 0.76114681 0.00000000
0.03510495 -0.68342889 0.05728535
-0.12150763 -0.05638613 0.00000000
-0.32341505 -0.30576459 0.00000000
-0.35273198 -0.53147360 0.00000000
-0.11705979 -0.19980273 0.00000000
0.03358326 -0.64561169 0.05480221
-0.50069548 -0.65028618 0.00000000
-0.31019413 0.14439031 -0.00000016
-0.04122109 0.20436286 0.00000000
0.06310428 -0.64263684 0.10297553
-0.62781964 -0.64704342 -0.00000012
-0.45912625 0.02452920 0.00000414
0.14170837 0.28510812 0.23124363
-0.27233901 0.34874879 0.00000231
-0.76696977 -0.44329395 -0.00000089
-0.28435339 -0.09320140 0.00000000
-0.53099120 0.23683927 -0.00000079
0.04571124 0.20734438 0.07459302
-0.38964570 -0.40069118 0.00000000
-0.50748035 -0.44499489 0.00000000
0.00749132 0.77768360 0.01222452
0.07123262 -0.10185272 0.11623960
-0.33450920 0.15024404 -0.00000028
0.13134761 0.10942184 0.21433711
-0.20943131 -0.05374707 0.00000000
-0.37759068 -0.69106702 0.00000000
0.09401110 0.11553496 0.15342443
0.05510592 0.28859800 0.08992355
-0.31578669 0.06238015 0.00000626
0.18629984 0.28959763 0.30400865
0.03684541 0.03814556 0.06014481
-0.40566507 0.16960414 0.00000274
-0.46957965 -0.19028110 -0.00000025
-0.35996861 0.26397214 -0.00000059
0.04975501 -0.20697462 0.08119177
0.20482188 0.28241821 0.33423321
0.41520696 -0.08741883 0.67754402
0.17294935 -0.61463502 0.28222413
-0.06948699 0.39676705 0.00000500
-0.61465166 -0.40007888 -0.00000050
0.04993313 0.18589470 0.08148243
0.18830604 -0.70824258 0.30728366
-0.59460532 0.12354749 -0.00000134
0.20867643 -0.06548899 0.34052435
0.05727893 0.12185613 0.09346954
0.29807785 -0.54513356 0.48641259
-0.57032457 -0.24809894 -0.00000058
0.25588448 -0.47627117 0.41756025
-0.46996929 -0.46384609 0.00000000
0.02965272 0.46787123 0.04838823
-0.34290263 -0.31512897 0.00000000
0.33377828 0.15057834 0.54466696
0.11046259 -0.22176256 0.18025628
-0.45019871 0.18452669 0.00000164
-0.02654989 0.48405709 0.00000000
0.09811434 0.40677801 0.16010582
-0.54686805 -0.55868396 0.00000000
0.09331464 0.49082365 0.15227331
0.26239088 -0.11215232 0.42817655
-0.09818530 0.43713206 0.00000396
0.01525363 -0.32595918 0.02489134
0.12746458 0.10576257 0.20800066
-0.50154761 -0.07693300 -0.00000059
0.14858490 -0.60582377 0.24246547
-0.11858928 -0.54910757 0.00000000
-0.26666819 0.24483389 0.00000415
0.04821299 -0.40257067 0.07867546
0.06609779 0.17151885 0.10786044
0.30504245 -0.51898173 0.49777744
-0.06783187 0.23952973 0.00000000
-0.54432994 -0.07800056 -0.00000077
-0.23528328 -0.17803383 0.00000000
-0.35316323 -0.37545922 0.00000000
0.22382866 0.09477499 0.36525726
-0.73004877 -0.31883377 -0.00000114
0.04032042 0.50972492 0.06579611
-0.11761731 0.18432861 0.00000746
0.25101004 -0.18860362 0.40960539
0.37141850 -0.30017507 0.60609010
0.06069995 0.65611617 0.09905159
0.15289714 -0.28036654 0.24950230
-0.01619029 -0.15733617 0.00000000
0.19349286 -0.46600142 0.31574766
-0.60326850 -0.06832991 -0.00000104
-0.65290115 0.13940441 -0.00000162
0.18012672 0.10583344 0.29394580
-0.25124002 0.15107129 0.00000000
0.03583587 0.50452821 0.05847808
0.07420591 0.57511497 0.12109111
-0.68034728 -0.56955012 -0.00000048
-0.69111247 -0.28966602 -0.00000102
-0.37447095 0.25757545 0.00000187
0.02037321 -0.55205788 0.03324564
0.20263134 0.08212720 0.33066872
-0.36926062 0.05954312 -0.00000027
-0.19872959 0.26198710 0.00000507
0.20892506 0.39645757 0.34092855
-0.40861290 -0.76167633 0.00000000
-0.45078057 0.17477785 0.00000179
0.14471866 0.48380525 0.23615517
0.29053675 -0.63737498 0.47410691
-0.74701563 -0.19130065 -0.00000144
-0.67767354 -0.24805461 -0.00000104
0.24162076 0.09090231 0.39428285
0.13431297 0.04547743 0.21917609
0.14429047 -0.62224699 0.23545768
-0.26169635 0.38215663 0.00000195
-0.23522877 0.16887886 0.00000000
0.01799228 0.69048919 0.02936036
0.12434800 0.20430552 0.20291493
0.19997055 0.14692572 0.32631722
-0.06077906 0.53018683 0.00000000
-0.69612338 -0.16056777 -0.00000127
-0.15516186 0.35617039 0.00000432
0.07353721 0.02369179 0.12001813
0.10753649 -0.49501088 0.17548139
-0.34938533 -0.69658106 0.00000000
