ply
format ascii 1.0
element vertex 1372
property float x
property float y
property float z
end_header
-0.44368194 -0.19870007 -0.00000034
0.21733306 0.16903910 -0.00000061
0.31319623 0.24706832 0.38075908
-0.55546300 -0.33456046 -0.00000020
-0.08892997 0.44900226 -0.00000078
-0.65618406 -0.19768366 -0.00000012
-0.32133701 -0.56843286 -0.00000014
0.49485102 -0.70973136 -0.00000006
0.58807906 0.15834316 -0.00000094
-0.25697773 -0.11106120 -0.00000043
0.68472705 -0.08761823 -0.00000078
0.33886125 0.38515462 0.12068033
-0.49011352 0.49182555 -0.00000039
-0.77971204 0.45578202 -0.00000003
0.47417196 -0.04984238 -0.00000060
0.71885024 -0.65120836 -0.00000019
0.09221323 0.42533822 -0.00000077
-0.36582687 0.06924022 -0.00000048
0.13497246 0.51522517 0.23792184
0.40883039 0.35206760 -0.00000096
0.25725904 0.34680039 0.31120154
-0.79496957 0.09339272 -0.00000001
-0.48887249 -0.13663809 -0.00000031
-0.01633551 -0.14665669 -0.00000041
0.75538884 -0.40891668 -0.00000049
-0.54030693 -0.18977971 -0.00000024
-0.53461275 0.22231389 -0.00000032
0.06077019 0.52514014 -0.00000083
0.35316530 0.28561821 0.25605159
-0.10209877 -0.12757567 -0.00000042
-0.64893225 -0.18511978 -0.00000013
-0.17551541 0.08544294 -0.00000055
-0.13142378 0.47590510 -0.00000080
0.77241841 -0.46986793 -0.00000041
0.43864122 0.19324402 0.26700812
-0.15385508 -0.17327797 -0.00000039
0.36450626 -0.32809500 -0.00000029
0.74176025 -0.49169620 -0.00000039
-0.38959429 0.39569929 -0.00000051
-0.42460608 0.59791484 -0.00000047
0.41775283 -0.66925265 -0.00000008
-0.64928781 -0.13698688 -0.00000014
-0.64631206 -0.53255685 -0.00000007
-0.43395430 0.21556147 -0.00000043
-0.42929883 0.73584941 -0.00000046
-0.60725551 0.00909126 -0.00000021
0.46622340 -0.04138947 -0.00000060
-0.00415804 0.09741413 -0.00000056
-0.61647939 -0.58105936 -0.00000009
0.12944000 0.13129451 -0.00000058
-0.12664216 -0.11895932 -0.00000043
0.19474723 -0.36988861 -0.00000027
0.34002352 -0.48945814 -0.00000019
-0.23587595 -0.17665871 -0.00000039
-0.68982253 0.70548434 -0.00000014
0.51701750 -0.72855054 -0.00000004
-0.18503945 -0.48069189 -0.00000020
-0.63851439 -0.18387998 -0.00000014
0.30489181 -0.11179818 -0.00000043
0.65712264 0.08929276 -0.00000094
-0.20386848 0.34041234 -0.00000070
-0.56107254 -0.19201410 -0.00000022
0.65178909 -0.47662331 -0.00000033
0.35111379 0.38068645 0.10831669
-0.08675445 -0.24170157 -0.00000035
0.74259957 -0.16969132 -0.00000076
-0.13755183 0.50575423 -0.00000080
-0.21882691 -0.66179053 -0.00000009
0.18232243 0.37193364 -0.00000074
0.28651569 0.32945443 -0.00000080
-0.51021670 -0.53886463 -0.00000016
0.52513881 -0.49023498 -0.00000019
0.65582139 -0.32238395 -0.00000050
0.41004395 0.28131464 0.17254871
0.58309006 0.08517209 -0.00000086
0.71852930 0.03290527 -0.00000095
0.24763550 0.50672777 0.07248063
-0.35155984 0.67835337 -0.00000056
0.22078906 -0.51538955 -0.00000018
-0.40285535 -0.72124983 -0.00000005
-0.26002462 0.70696320 -0.00000067
0.21423519 0.32570026 0.41304619
0.36451161 -0.39937661 -0.00000025
0.02004278 -0.17761513 -0.00000039
0.30465874 0.23046510 0.42068877
0.00283616 0.45066803 -0.00000078
-0.26140439 0.64367145 -0.00000067
-0.16004895 0.51448777 -0.00000078
-0.45533451 0.28001362 -0.00000042
-0.59389380 0.22022486 -0.00000026
-0.48764805 -0.04663351 -0.00000032
0.02917289 -0.50434715 -0.00000018
0.05258303 -0.60030531 -0.00000012
-0.76094411 -0.42607411 0.00000000
-0.10364280 -0.53487487 -0.00000017
0.53463649 0.13674696 0.20427452
0.49838693 -0.21418807 -0.00000045
-0.64391962 0.75987851 -0.00000020
-0.03253565 0.58301263 -0.00000086
-0.50534321 -0.18676293 -0.00000028
0.05680300 0.41414706 -0.00000076
0.37365180 0.32064231 0.16788634
0.03687327 -0.76365668 -0.00000002
-0.37573491 -0.45235539 -0.00000022
0.04689022 -0.49292886 -0.00000019
-0.32345896 0.61865755 -0.00000060
-0.21143682 0.35761222 -0.00000069
-0.07335409 0.10446431 -0.00000057
-0.12173999 0.05403306 -0.00000053
-0.52611360 -0.31282942 -0.00000023
-0.13571058 -0.45612754 -0.00000021
0.07644123 -0.25301449 -0.00000034
-0.34384574 -0.48705216 -0.00000020
0.24883828 -0.63081054 -0.00000011
-0.59332504 0.74201244 -0.00000026
0.40459067 0.35884252 0.05807519
-0.14124238 -0.71043397 -0.00000006
-0.21625424 0.56734703 -0.00000073
0.37835729 0.26372198 0.25081725
0.59427209 -0.32495068 -0.00000043
0.61227779 -0.03194088 -0.00000077
0.24659797 0.54839072 0.00795670
0.11301559 0.54717126 0.22205632
0.26174998 0.44999075 0.14017648
-0.75180796 -0.29707699 0.00000000
0.27062263 0.26741288 0.41606411
-0.33602375 -0.47845419 -0.00000020
-0.04471864 0.75569403 -0.00000094
-0.35377113 -0.56056767 -0.00000015
-0.67502323 0.79304665 -0.00000016
0.15248174 0.54230511 0.16710311
-0.62213761 -0.12080185 -0.00000017
-0.22492873 0.74139141 -0.00000072
0.04332113 0.24463581 -0.00000065
0.38808766 0.37886803 0.05248053
0.16829864 0.47347718 -0.00000083
-0.57212834 0.78051272 -0.00000028
-0.25750439 0.47650146 -0.00000067
-0.65042970 -0.30751982 -0.00000010
-0.50135714 0.05520675 -0.00000033
-0.36536891 0.17550896 -0.00000050
0.72661622 -0.58890264 -0.00000026
0.27756704 0.47134989 0.08113087
0.01133729 -0.62725493 -0.00000011
-0.67251748 -0.50021374 -0.00000004
0.05117466 0.70791160 -0.00000096
-0.16207874 -0.56115655 -0.00000015
0.12520867 0.08738426 -0.00000055
-0.14778334 0.53594338 -0.00000079
-0.32026615 0.43453629 -0.00000059
-0.11246972 0.78021468 -0.00000086
0.47909720 0.18749523 -0.00000086
0.71127220 0.01639713 -0.00000092
-0.67041943 0.55730951 -0.00000016
-0.09621958 -0.34922290 -0.00000028
0.24343838 0.53675719 -0.00000098
-0.16609147 0.01785824 -0.00000051
-0.55595895 0.01118004 -0.00000026
-0.06862394 -0.15072733 -0.00000041
0.57786669 -0.76502222 -0.00000002
0.08899882 -0.48790186 -0.00000020
-0.47624298 0.78177951 -0.00000040
-0.54057598 0.31369910 -0.00000032
-0.40514187 0.75330779 -0.00000049
-0.00616727 -0.66107278 -0.00000009
0.45971726 0.23092335 0.17368906
0.28163249 -0.71089187 -0.00000006
-0.33811578 -0.45751221 -0.00000021
0.32980793 -0.06341179 -0.00000046
0.67765909 -0.29564666 -0.00000055
0.05089014 0.72823558 0.03315130
-0.62338028 0.73331209 -0.00000022
0.33603198 -0.23950951 -0.00000035
0.34015560 -0.51487495 -0.00000018
0.75036230 -0.12963142 -0.00000081
0.38590351 -0.63277310 -0.00000010
-0.13411453 0.53513287 -0.00000081
-0.34593602 0.66479669 -0.00000057
-0.17693440 0.78646248 -0.00000078
-0.39900069 -0.14925051 -0.00000040
-0.36617948 -0.45152661 -0.00000022
0.22992473 0.07192807 -0.00000054
-0.01864910 0.17490886 -0.00000061
0.07524015 0.31193767 -0.00000069
-0.20618029 -0.65347796 -0.00000009
-0.02750976 0.61833173 -0.00000089
-0.30950073 -0.75637970 -0.00000003
0.38242650 0.02564223 -0.00000058
0.27733492 0.36186075 -0.00000083
-0.66364495 0.36558449 -0.00000017
-0.62920784 0.03393442 -0.00000019
0.29759716 -0.70152617 -0.00000006
0.55185832 -0.79001564 -0.00000001
-0.41893226 0.12172197 -0.00000043
-0.77792937 0.13587202 -0.00000003
0.01469973 0.13544213 -0.00000058
0.24547760 0.06149778 -0.00000054
-0.78792308 0.37875495 -0.00000002
0.36078750 -0.05444321 -0.00000047
-0.12942831 -0.34974984 -0.00000028
0.47903659 0.20691214 -0.00000088
0.17797583 0.61061230 0.01812250
-0.65856086 -0.17592061 -0.00000012
-0.04964839 -0.63108421 -0.00000011
-0.79537109 0.46733619 -0.00000001
-0.48928189 -0.77654250 -0.00000001
0.75845334 -0.34862426 -0.00000056
0.72068542 -0.34415892 -0.00000055
-0.57332228 0.72876506 -0.00000028
-0.37762166 0.58885007 -0.00000053
-0.23750273 -0.56526739 -0.00000015
0.52726143 0.21851597 -0.00000094
0.56909681 0.20887585 -0.00000098
0.05456663 -0.65025112 -0.00000009
0.02676354 0.05487229 -0.00000053
-0.67074916 0.22862388 -0.00000016
0.05584494 -0.19277568 -0.00000038
0.19209002 -0.28433950 -0.00000032
-0.34285379 -0.09479463 -0.00000044
-0.64535232 0.63327304 -0.00000019
-0.31508264 0.33636754 -0.00000058
-0.56466159 0.79928091 -0.00000029
0.23464059 0.24608230 0.50709066
0.40637213 -0.10163727 -0.00000047
0.34187901 0.30046436 0.25039757
-0.62958320 -0.05273211 -0.00000017
-0.70360372 0.06708379 -0.00000012
-0.53899784 0.41870349 -0.00000033
0.34713711 0.20467558 -0.00000074
0.19307713 0.38829536 -0.00000077
-0.47725551 -0.54471244 -0.00000016
-0.55698734 0.34393106 -0.00000030
-0.57930476 0.40328553 -0.00000028
0.29206358 0.46360201 0.07041220
-0.71885358 -0.59667486 0.00000000
-0.45334571 0.11738377 -0.00000039
0.70005794 -0.77664902 -0.00000003
0.69244105 -0.53553862 -0.00000031
0.70535438 -0.05905959 -0.00000084
0.37316317 0.24364761 0.29094990
0.71380975 -0.18534453 -0.00000071
-0.08906408 0.76193327 -0.00000089
-0.72456986 0.23465823 -0.00000009
-0.40379779 -0.71963259 -0.00000005
-0.12543035 0.16075636 -0.00000060
-0.69164237 -0.18393403 -0.00000008
-0.19928261 -0.52992716 -0.00000017
0.33640013 -0.47086620 -0.00000021
-0.62320778 -0.59473379 -0.00000008
-0.75736226 -0.64048228 0.00000000
0.39421728 0.37990150 0.04110365
-0.19939903 0.75647793 -0.00000075
-0.17344793 -0.22826590 -0.00000036
-0.22564015 0.13304368 -0.00000058
0.16077390 -0.41051878 -0.00000024
-0.10296309 0.70340659 -0.00000087
-0.47725465 -0.64344154 -0.00000010
0.70590721 0.01717905 -0.00000092
0.45116996 -0.37466438 -0.00000027
-0.40787241 -0.77245485 -0.00000002
-0.13947928 -0.16782095 -0.00000040
0.77041064 -0.33490652 -0.00000058
-0.26776034 0.21486696 -0.00000061
-0.02592397 -0.55980964 -0.00000015
-0.14784236 -0.73000123 -0.00000004
0.41901730 -0.40866210 -0.00000024
-0.43416180 0.31381300 -0.00000045
-0.29320940 0.29579588 -0.00000059
-0.35363939 0.02049464 -0.00000048
-0.13960381 -0.11048396 -0.00000043
-0.69490547 0.53326210 -0.00000013
-0.16847606 -0.32923160 -0.00000029
0.53808044 -0.49594568 -0.00000019
-0.04478192 0.68457220 -0.00000093
-0.62848327 -0.36810811 -0.00000012
-0.45275155 0.53678221 -0.00000043
0.57285834 0.13457060 0.14702475
0.40303590 0.34499113 0.08254425
0.38403995 0.20270647 0.33869967
0.09941072 -0.72763727 -0.00000005
-0.01449760 0.71000706 -0.00000094
-0.15267459 -0.77377823 -0.00000002
0.21303298 0.47710735 -0.00000088
-0.64965578 -0.36890335 -0.00000009
-0.78500528 -0.48039951 0.00000000
0.36316185 0.37825740 -0.00000094
0.18454416 0.39507411 0.35001979
0.44153251 -0.72794046 -0.00000005
0.41603346 0.24789366 0.21611715
0.15348857 0.48002711 0.26441704
-0.25723312 -0.63316231 -0.00000010
-0.10383926 0.24439645 -0.00000065
-0.18628194 -0.47580313 -0.00000020
-0.15175259 0.53462600 -0.00000079
-0.69645483 -0.01099826 -0.00000011
-0.33029400 0.59446731 -0.00000059
0.14777103 0.52966431 0.19466162
-0.60168342 -0.12352990 -0.00000019
0.19018428 -0.11948795 -0.00000043
-0.68153662 -0.24840559 -0.00000008
-0.00693778 0.68278525 -0.00000093
-0.73428521 -0.78025936 0.00000000
-0.48621754 -0.06065535 -0.00000032
-0.50641839 -0.57414295 -0.00000014
-0.67338792 0.13815260 -0.00000016
0.08671935 0.65019348 0.10019614
-0.65905208 0.49598109 -0.00000018
-0.09883169 0.72408776 -0.00000088
0.23385321 0.29650390 0.42825911
0.28447072 0.41352448 -0.00000089
-0.60384355 0.32637664 -0.00000025
-0.27506055 0.54292184 -0.00000066
0.14078521 -0.65514874 -0.00000009
-0.73263383 -0.07796999 -0.00000006
-0.11845089 0.26880720 -0.00000067
-0.70351535 0.17778599 -0.00000012
0.25791651 -0.67785388 -0.00000008
-0.70319017 -0.41053568 -0.00000003
0.59940825 -0.79756495 -0.00000000
-0.33112634 -0.03721176 -0.00000048
-0.55275844 0.79092248 -0.00000031
-0.78772956 -0.13370864 0.00000000
0.37480968 -0.04771274 -0.00000050
-0.70906132 0.24786721 -0.00000011
0.11720102 0.67284163 -0.00000099
0.00162620 0.27426596 -0.00000067
-0.26437047 0.18028458 -0.00000060
-0.30015568 0.43244955 -0.00000061
-0.39821038 -0.37401050 -0.00000027
0.10441229 -0.45864065 -0.00000021
-0.46222383 0.37469035 -0.00000042
-0.03301845 -0.60659263 -0.00000012
-0.63859048 0.35336590 -0.00000020
0.51711923 -0.28464048 -0.00000039
-0.64199657 0.70041794 -0.00000020
-0.15979300 -0.12869963 -0.00000042
-0.36435150 0.37086762 -0.00000053
-0.30338425 0.18416731 -0.00000056
-0.20046273 0.13522734 -0.00000058
-0.48707744 -0.49462932 -0.00000019
0.27177082 0.50647733 -0.00000098
-0.01241544 -0.55248495 -0.00000015
-0.23074687 0.67185010 -0.00000071
-0.13979395 0.57658452 -0.00000081
0.55201890 0.20306803 0.07133126
0.19246979 -0.48763764 -0.00000020
0.37239572 0.28279651 -0.00000085
-0.59766688 -0.57759837 -0.00000011
0.48932761 0.25666916 -0.00000094
-0.01489436 0.28066754 -0.00000068
0.22808028 0.26627050 0.48544612
-0.25038439 -0.77081782 -0.00000002
-0.66543036 -0.29369075 -0.00000009
-0.17440720 0.09372601 -0.00000056
-0.76274510 -0.26097796 0.00000000
-0.23250284 -0.01788996 -0.00000049
0.23866802 0.53070206 -0.00000097
0.47958214 -0.18113462 -0.00000046
-0.37517921 -0.55298292 -0.00000015
-0.65759356 -0.21135036 -0.00000011
-0.45500335 0.21671115 -0.00000041
0.00141845 0.28164665 -0.00000068
-0.55152134 -0.73638144 -0.00000004
-0.39212928 0.17452900 -0.00000047
0.38096375 -0.61690433 -0.00000011
-0.06564607 0.45411551 -0.00000078
-0.42529255 0.47871445 -0.00000047
0.65757395 -0.25845774 -0.00000057
-0.35603244 -0.17800606 -0.00000039
0.21300848 0.52083138 0.10507722
-0.02955030 -0.71404540 -0.00000005
0.18683525 -0.76546522 -0.00000002
-0.22429354 0.77235381 -0.00000072
-0.42823896 0.25142382 -0.00000044
-0.07569161 0.39439597 -0.00000075
-0.41667389 -0.45927862 -0.00000021
0.03123103 -0.57899106 -0.00000014
-0.09121499 -0.59433024 -0.00000013
-0.56083653 0.52893915 -0.00000030
-0.73422024 -0.34697201 -0.00000001
0.11372314 0.54126417 0.23031450
-0.70713547 -0.48878073 -0.00000001
0.23427244 0.45329254 -0.00000088
-0.41383648 0.71013257 -0.00000048
-0.48778496 0.27538425 -0.00000038
-0.21123812 0.30002222 -0.00000068
-0.31023968 0.61794308 -0.00000061
-0.60728726 0.10064659 -0.00000022
0.19042719 0.55013802 0.09439559
0.75375837 -0.29074003 -0.00000064
-0.79040639 0.76676852 -0.00000001
0.12776757 -0.22503745 -0.00000036
-0.02161402 0.17870575 -0.00000061
-0.42357651 -0.74938749 -0.00000003
-0.06310957 -0.53138529 -0.00000017
-0.40384936 0.76982912 -0.00000050
-0.58794240 0.63253932 -0.00000027
-0.67731418 0.64400083 -0.00000015
-0.52203797 0.00978531 -0.00000030
0.54043176 0.17359470 0.13654614
-0.35169690 -0.67136132 -0.00000008
-0.30378077 0.01752901 -0.00000051
0.43065337 0.34979255 -0.00000098
-0.23581673 0.34354071 -0.00000066
-0.74736961 -0.33985783 0.00000000
0.32944068 0.31369208 -0.00000083
0.11108060 0.21607729 -0.00000064
-0.03553375 -0.17984374 -0.00000039
0.08358109 -0.25620933 -0.00000034
0.19155088 -0.26184743 -0.00000034
-0.30056586 -0.60133992 -0.00000012
0.26250794 0.51490717 0.03586821
0.17409144 -0.20997851 -0.00000037
-0.16799249 0.03280071 -0.00000052
0.33279082 -0.49549752 -0.00000019
-0.37730922 0.09315092 -0.00000047
0.59157579 -0.66335075 -0.00000009
0.47156877 -0.57564736 -0.00000014
-0.04821868 -0.12569965 -0.00000042
-0.52867490 -0.46000465 -0.00000021
-0.28723738 0.05416246 -0.00000053
0.44091873 0.20005423 0.25257442
0.41926543 -0.75184474 -0.00000003
0.43506489 -0.67212170 -0.00000008
-0.30322809 -0.72003384 -0.00000005
0.28846130 0.32500512 0.29626106
-0.27440089 0.63744295 -0.00000066
-0.07470794 -0.74885733 -0.00000003
0.53176017 0.25485889 -0.00000099
-0.67669055 0.16885419 -0.00000015
-0.18459758 -0.02593435 -0.00000048
0.46146021 0.22128333 0.18623170
-0.12007192 -0.70928147 -0.00000006
0.64902309 0.11951974 0.04995973
0.26560698 0.26881483 -0.00000072
-0.27966322 0.61946690 -0.00000065
0.05011537 -0.31384623 -0.00000030
0.33857310 0.37865042 0.13146836
-0.18251081 0.51037188 -0.00000075
-0.67059344 0.69822535 -0.00000016
0.47065953 0.30937616 0.03170603
-0.52129782 -0.08406526 -0.00000028
-0.36573780 0.08494721 -0.00000048
-0.69152611 -0.76758394 0.00000000
0.72105575 -0.30866336 -0.00000059
0.42269036 0.27364458 0.16464495
0.27338202 0.19400933 -0.00000065
-0.65627230 -0.38933510 -0.00000008
0.60903779 0.06490797 -0.00000087
0.12483937 -0.22757292 -0.00000036
0.26693023 0.53262856 -0.00000100
-0.67431502 0.05557033 -0.00000014
0.00690198 -0.66868989 -0.00000008
0.45146403 -0.51238899 -0.00000018
0.51958346 -0.71885014 -0.00000005
-0.77314700 0.06040865 -0.00000003
0.24772710 -0.58102718 -0.00000014
0.03050962 0.47953852 -0.00000080
-0.78136572 -0.66915954 0.00000000
-0.61389242 -0.15979763 -0.00000017
0.56878277 -0.60491203 -0.00000012
-0.52154647 -0.33736543 -0.00000024
-0.77219995 -0.61385314 0.00000000
-0.30762572 -0.62727878 -0.00000011
0.41026827 0.29187270 0.15542346
-0.55403069 0.12536089 -0.00000029
-0.07257389 -0.49929183 -0.00000019
0.24479083 0.52960117 -0.00000097
0.06784779 0.19693547 -0.00000062
0.20725519 0.40759201 0.29406758
-0.45850470 -0.39694731 -0.00000025
0.60965939 -0.09259703 -0.00000070
0.74514837 -0.79296247 -0.00000001
-0.47636610 0.39669145 -0.00000040
-0.11792519 0.79422479 -0.00000085
-0.11435870 0.76335386 -0.00000086
-0.23190597 0.74183848 -0.00000071
0.24042327 0.45361691 0.16828952
-0.18251237 -0.32701792 -0.00000030
-0.76556797 -0.66843200 0.00000000
-0.16438511 0.04037677 -0.00000053
0.19055077 0.51448205 -0.00000090
-0.79383636 0.05329243 -0.00000001
-0.68292953 0.03531197 -0.00000013
0.26312372 0.15087417 -0.00000059
-0.68780954 0.38089857 -0.00000014
-0.27265338 0.77423435 -0.00000066
0.61419560 0.04467704 -0.00000085
0.57057525 -0.26381630 -0.00000047
-0.18540516 0.19245836 -0.00000062
0.32198713 -0.34623486 -0.00000028
0.58804093 -0.34259511 -0.00000041
0.13467063 -0.08447913 -0.00000045
-0.40857104 0.65225043 -0.00000049
-0.26973201 0.62361241 -0.00000066
0.54027179 0.12248654 -0.00000085
-0.18319940 0.57674975 -0.00000076
0.15385067 0.54542280 0.15997724
-0.02911847 0.28595079 -0.00000068
0.76610499 -0.26638261 -0.00000067
-0.25938852 -0.79730727 -0.00000000
0.28059702 0.36088264 0.25176900
0.28922229 -0.45749196 -0.00000021
0.47672652 0.29387623 0.04668804
-0.66879634 -0.65704458 -0.00000002
0.55518821 0.16957288 -0.00000092
-0.04802931 0.57886628 -0.00000086
0.31332607 0.46301264 0.03757782
0.60492603 -0.08231439 -0.00000070
-0.48449089 -0.40188423 -0.00000025
-0.66009641 -0.27657728 -0.00000010
-0.21122985 -0.16147603 -0.00000040
0.21841015 -0.52234986 -0.00000017
-0.72836035 -0.25562712 -0.00000003
-0.43184748 -0.63894768 -0.00000010
0.33654748 0.11319299 -0.00000063
0.46571550 -0.09651415 -0.00000054
-0.78354242 0.46086298 -0.00000002
0.24743336 0.25379086 -0.00000068
-0.11207766 -0.06865944 -0.00000046
-0.43045439 0.35849829 -0.00000046
0.02050895 0.73445625 -0.00000096
0.43577801 -0.76459284 -0.00000002
-0.33959396 0.61015737 -0.00000058
-0.34433782 0.62893400 -0.00000057
0.19207831 0.45061998 -0.00000083
-0.38381546 0.06325113 -0.00000046
0.66098267 0.09485890 -0.00000095
-0.71641704 -0.27098393 -0.00000004
0.46718796 0.23064498 0.16226574
-0.17873393 -0.23709427 -0.00000035
-0.11378304 -0.19504246 -0.00000038
0.62562726 -0.65661469 -0.00000011
-0.03096918 0.79172429 -0.00000096
0.57221760 0.09065245 -0.00000085
-0.49903042 0.04511628 -0.00000033
-0.26763152 -0.20826842 -0.00000037
0.34033628 0.23116828 0.36290730
0.44663458 -0.21947678 -0.00000039
-0.53807076 -0.16667604 -0.00000025
-0.78919909 0.52551547 -0.00000001
0.29515444 0.35270828 0.24163119
0.70994460 0.04713506 0.06816627
-0.56321426 -0.53716171 -0.00000015
0.64300117 -0.39521897 -0.00000041
0.18316551 0.52301825 0.14900215
-0.28906273 0.42888479 -0.00000062
-0.16436882 -0.27124201 -0.00000033
-0.68332646 0.47017107 -0.00000015
0.08244544 -0.22685501 -0.00000036
-0.66742444 -0.09417795 -0.00000012
-0.15771668 0.39929357 -0.00000075
-0.65794584 0.39720810 -0.00000018
0.46575268 0.31885025 0.02445204
0.09759985 0.20480735 -0.00000063
-0.11907827 0.72669539 -0.00000085
-0.47123036 0.25335903 -0.00000040
-0.47524120 -0.60410876 -0.00000012
-0.40846958 0.00939423 -0.00000042
-0.64190803 -0.31915835 -0.00000011
0.32626218 0.44866425 -0.00000097
-0.63304798 0.33311740 -0.00000021
0.07286478 -0.78694757 -0.00000001
0.62394536 -0.38302075 -0.00000040
-0.30032054 0.47724197 -0.00000062
0.37107754 -0.57706234 -0.00000014
0.64371411 -0.22512519 -0.00000059
-0.30181605 -0.25223990 -0.00000034
-0.52675155 0.36800766 -0.00000034
0.12164172 0.60863797 0.11073142
0.14089945 -0.00159434 -0.00000050
-0.67862602 0.46759653 -0.00000015
0.50749644 0.22241062 0.11132356
-0.46209957 0.19250089 -0.00000040
0.21375327 -0.05649907 -0.00000046
0.43644294 -0.70166941 -0.00000006
0.56784887 0.12590937 0.16873744
-0.68303951 -0.71093795 0.00000000
-0.47859238 0.56878253 -0.00000040
-0.79234194 0.72470310 -0.00000001
-0.74514615 -0.04558630 -0.00000005
-0.08039077 -0.37333327 -0.00000027
-0.56457143 0.42535752 -0.00000029
0.00566925 -0.07886116 -0.00000045
-0.71185171 -0.19740964 -0.00000006
-0.42034475 0.32521632 -0.00000046
0.34440378 -0.45341980 -0.00000022
0.22954894 0.52823996 0.06703982
0.26080202 -0.06615152 -0.00000046
-0.44316775 -0.74926464 -0.00000003
0.23481736 -0.24082346 -0.00000035
-0.06094937 0.34273009 -0.00000071
0.18539258 -0.69299471 -0.00000007
0.43772350 0.34848569 0.02190089
0.03570727 0.67154437 -0.00000092
0.78471597 -0.00059500 -0.00000098
0.14079243 -0.62250334 -0.00000011
0.44344605 -0.17672270 -0.00000043
0.61369839 -0.75563103 -0.00000003
0.57292686 0.15358975 -0.00000092
-0.45913283 -0.59338481 -0.00000013
-0.63338658 -0.79338247 -0.00000000
-0.38236197 -0.18323385 -0.00000039
-0.51113153 0.71489363 -0.00000036
-0.59364226 0.03556451 -0.00000023
0.69756805 0.09697487 0.00866471
-0.77635523 0.75045148 -0.00000003
0.74737907 0.02294675 0.04712788
-0.25215734 -0.33355758 -0.00000029
-0.25098951 0.00592397 -0.00000050
0.73813866 0.02634709 0.05640344
0.58183415 -0.05768383 -0.00000071
-0.67710333 -0.09351118 -0.00000011
0.78311946 -0.37248258 -0.00000053
0.22950861 0.41056223 0.25400627
-0.08735946 -0.15425731 -0.00000040
-0.61947284 0.79066860 -0.00000023
0.02548467 -0.52437541 -0.00000017
0.16371829 0.27110156 -0.00000067
-0.61463244 -0.73715678 -0.00000004
0.06961194 0.69572827 0.05504626
-0.75039460 -0.30219691 0.00000000
-0.37914044 -0.37735146 -0.00000026
0.35334703 0.12922923 -0.00000066
-0.08115335 -0.02194923 -0.00000049
0.13115620 -0.41768268 -0.00000024
-0.61677416 0.73441073 -0.00000023
-0.27277510 -0.37336732 -0.00000027
0.09082791 -0.00562474 -0.00000050
-0.34922437 -0.69536364 -0.00000007
-0.32816116 0.55163839 -0.00000059
0.55813182 0.14149351 0.15941895
-0.56766153 -0.31859918 -0.00000019
0.09102778 0.09142558 -0.00000056
-0.26746356 -0.69832102 -0.00000006
-0.09245040 -0.60768141 -0.00000012
0.06844083 -0.19348321 -0.00000038
-0.67400665 0.69755666 -0.00000016
0.29405521 -0.18755916 -0.00000038
0.25610912 0.09507930 -0.00000056
0.78158770 -0.41274094 -0.00000048
0.16184929 0.61453632 0.03750333
0.13682254 -0.74848187 -0.00000003
0.03018766 0.52585352 -0.00000083
0.71939057 0.06985553 0.01707748
-0.19779265 -0.53384924 -0.00000017
-0.23405191 -0.03634464 -0.00000048
0.30749658 0.40754431 0.13493498
0.34673007 -0.57325018 -0.00000014
-0.04425876 0.48535284 -0.00000080
0.64761860 -0.12128013 -0.00000071
0.27534693 -0.78321182 -0.00000001
0.68581676 -0.54879796 -0.00000029
0.21986062 0.40897653 -0.00000082
-0.56334988 -0.55123213 -0.00000015
0.48912152 0.23674338 0.11774358
-0.60216207 -0.02230515 -0.00000021
0.07486870 0.42436316 -0.00000077
-0.10817808 -0.31317703 -0.00000030
0.12680050 0.24579938 -0.00000065
-0.13886774 0.69937357 -0.00000083
0.06638593 -0.01874895 -0.00000049
-0.28168083 -0.54852655 -0.00000016
0.05138250 -0.34952040 -0.00000028
0.74078576 -0.53486149 -0.00000033
0.06378970 -0.78608209 -0.00000001
0.57099399 -0.61818006 -0.00000011
0.34418954 -0.28980283 -0.00000032
-0.43596052 0.52187395 -0.00000046
0.10369812 -0.26766847 -0.00000033
-0.11119905 0.31538243 -0.00000070
-0.69791813 0.78729086 -0.00000013
-0.16697181 -0.77148656 -0.00000002
0.01717357 0.11438494 -0.00000057
0.36380945 0.24567319 0.30258876
-0.73985566 -0.12577724 -0.00000004
0.00681997 -0.55592054 -0.00000015
-0.67338361 -0.61438807 -0.00000002
0.29851859 0.43775951 0.10120465
-0.69232258 -0.42563437 -0.00000004
0.06669818 0.48865756 -0.00000081
-0.49227998 -0.07699284 -0.00000031
0.62217809 0.15013280 0.04397506
-0.79392591 -0.37066539 0.00000000
0.02651847 0.32500051 -0.00000070
0.15571259 0.51733313 0.20163347
-0.65387069 0.11492393 -0.00000018
0.06823464 -0.66652672 -0.00000008
0.08333327 0.71193587 0.00751128
-0.31570482 -0.67223006 -0.00000008
-0.21768268 -0.37923260 -0.00000026
-0.11689123 0.17595634 -0.00000061
0.72217607 -0.48375088 -0.00000040
-0.24334523 -0.44653319 -0.00000022
-0.39760982 -0.27117034 -0.00000033
0.30325386 0.46918736 0.04376805
-0.75188859 -0.03900205 -0.00000004
-0.48602275 -0.68035487 -0.00000007
-0.42164146 -0.06341333 -0.00000039
0.17299964 -0.36120959 -0.00000027
-0.58391866 0.59160160 -0.00000027
0.49216590 -0.38117541 -0.00000026
0.42727589 0.20105968 0.27264594
0.12726834 0.63673536 -0.00000096
0.38739591 -0.22547810 -0.00000036
-0.14663534 -0.32531815 -0.00000030
0.18539435 0.45212228 -0.00000083
0.50835814 -0.73461235 -0.00000004
-0.61767540 0.07072125 -0.00000021
-0.62476976 0.44551460 -0.00000022
0.68104557 -0.06097348 -0.00000081
0.32643419 0.15432779 -0.00000066
0.65121101 -0.25143050 -0.00000057
-0.44685220 -0.74523226 -0.00000003
0.65352570 -0.32313802 -0.00000050
0.53705858 -0.78245705 -0.00000001
0.46672816 0.19558618 0.21867867
-0.47700688 -0.65787376 -0.00000009
0.58243728 -0.05769983 -0.00000071
0.13543919 -0.59865483 -0.00000013
0.11454991 -0.36627342 -0.00000027
-0.26247962 -0.05488040 -0.00000047
-0.46916711 -0.75629188 -0.00000003
0.19232313 -0.47982465 -0.00000020
-0.36922862 0.25212775 -0.00000051
-0.21321137 0.15567366 -0.00000060
-0.66328134 0.40143388 -0.00000017
0.59635634 -0.09498228 -0.00000068
-0.61502626 0.66991316 -0.00000023
-0.48150437 0.13943208 -0.00000037
-0.35900547 0.79759844 -0.00000055
-0.15538509 0.63986948 -0.00000080
0.65427205 -0.29363813 -0.00000053
-0.68419734 -0.66364777 -0.00000000
-0.48114853 -0.68723585 -0.00000007
-0.68690215 0.30638977 -0.00000014
-0.40007264 -0.04809302 -0.00000042
-0.18001073 -0.70050443 -0.00000006
0.32907772 0.27715115 -0.00000079
-0.25607433 0.34487236 -0.00000064
-0.23768693 0.36390755 -0.00000067
-0.78582326 0.50856114 -0.00000002
0.64293826 -0.74750499 -0.00000003
0.24767722 0.46492088 0.13881477
0.75253996 -0.17192126 -0.00000077
0.05157378 0.27506941 -0.00000067
-0.22158470 -0.40305675 -0.00000025
0.21647848 -0.19577410 -0.00000038
0.02030548 0.75233532 -0.00000097
-0.25077207 -0.25155921 -0.00000034
-0.36591157 0.48107961 -0.00000054
-0.74701108 -0.00941844 -0.00000005
-0.47091897 -0.75540261 -0.00000003
0.25935025 -0.54008872 -0.00000016
0.43907590 0.26569603 0.15124478
-0.36459701 -0.36565969 -0.00000027
-0.58179555 -0.04325265 -0.00000022
0.79714867 -0.21867066 -0.00000073
-0.65043982 0.03485213 -0.00000017
0.45963876 0.21951145 0.19193885
0.33441519 0.45304315 0.01991690
0.14357722 -0.65577306 -0.00000009
0.32681107 -0.38557248 -0.00000026
0.34552968 0.27329287 0.28775454
0.04470212 0.27358811 -0.00000067
0.48586318 0.01046033 -0.00000068
-0.66567234 -0.63062445 -0.00000003
0.66345938 -0.72727923 -0.00000008
0.70630704 -0.42433044 -0.00000045
-0.48870705 -0.17493931 -0.00000030
-0.64630097 0.27612387 -0.00000019
-0.15494021 -0.55619326 -0.00000015
-0.76876994 -0.11771883 -0.00000001
-0.20721768 0.03634930 -0.00000052
0.36985294 -0.08354014 -0.00000045
-0.79641426 0.22594755 -0.00000000
-0.68404965 0.70720996 -0.00000014
0.03055291 0.09079268 -0.00000056
-0.63952128 -0.67837255 -0.00000005
-0.00632958 -0.71033079 -0.00000006
-0.44623028 -0.09870926 -0.00000036
-0.32182369 -0.73128472 -0.00000004
-0.02911005 -0.68049602 -0.00000007
0.72429873 -0.11698161 -0.00000079
0.41875262 -0.31432887 -0.00000030
0.16788285 0.40986277 -0.00000076
-0.63644773 -0.01100128 -0.00000017
0.65629998 -0.48136594 -0.00000033
0.44114241 -0.65376770 -0.00000009
-0.63208111 0.18503084 -0.00000021
-0.41007162 0.28753282 -0.00000047
0.63764645 0.07598529 0.13717306
0.26621422 -0.71738808 -0.00000005
0.06758053 0.34759915 -0.00000072
-0.63704204 -0.39230263 -0.00000010
-0.30057553 0.30178704 -0.00000059
0.77493290 -0.72425752 -0.00000009
0.23959096 -0.76768458 -0.00000002
-0.38612013 -0.35937573 -0.00000028
-0.73361660 -0.79524121 0.00000000
-0.32742983 -0.57604774 -0.00000014
-0.73643992 -0.57589971 0.00000000
-0.10629781 0.74987799 -0.00000087
0.49543079 -0.07750511 -0.00000059
0.69739579 -0.73525724 -0.00000008
-0.13767515 -0.42169353 -0.00000024
0.57058218 -0.25847700 -0.00000048
0.08387670 -0.04745678 -0.00000047
0.79249871 -0.17423728 -0.00000078
-0.25126698 -0.32030376 -0.00000030
0.10078894 -0.64159157 -0.00000010
-0.54242602 -0.01186757 -0.00000027
0.52321996 0.25283004 0.03803637
-0.34772073 0.57358309 -0.00000057
-0.20072663 -0.67492482 -0.00000008
0.28063728 -0.19146259 -0.00000038
-0.44510860 -0.28424866 -0.00000032
-0.34567993 0.20544076 -0.00000052
0.08398081 -0.13681654 -0.00000041
0.42362014 0.23179133 -0.00000085
0.36926703 0.28398717 0.23306856
-0.06049594 -0.25865874 -0.00000034
-0.50573399 -0.19949688 -0.00000028
-0.65173150 -0.21451029 -0.00000012
-0.57148520 0.35784146 -0.00000029
-0.35976043 0.21949483 -0.00000051
-0.74423638 -0.62651960 0.00000000
-0.56394710 -0.04494353 -0.00000024
-0.66196310 -0.46447561 -0.00000006
0.21899319 -0.38525493 -0.00000026
-0.75620042 0.05293487 -0.00000005
0.23042274 0.35244581 0.34485781
-0.59535521 -0.06775351 -0.00000021
-0.24002515 0.70214526 -0.00000070
-0.31906823 0.72580195 -0.00000060
0.66684524 0.12492689 -0.00000099
0.32453788 -0.43826825 -0.00000023
-0.29591910 -0.11612502 -0.00000043
0.29928649 0.22611928 0.43612345
0.21812036 0.15797891 -0.00000060
-0.05502194 0.23057890 -0.00000064
0.35315625 0.19585745 0.39862848
0.24397103 0.14802362 -0.00000059
-0.79313734 0.16833098 -0.00000001
-0.23176228 0.48421822 -0.00000069
0.51889940 0.18626913 -0.00000090
-0.53614172 -0.42182078 -0.00000020
-0.74200799 -0.13217697 -0.00000004
0.55196038 -0.21060713 -0.00000051
0.16516430 0.40944126 0.35798111
-0.61244896 -0.06700850 -0.00000019
0.33858704 -0.66856210 -0.00000008
-0.52042739 0.59542526 -0.00000035
-0.14940575 0.54855215 -0.00000079
0.20246054 0.39478263 0.32202713
0.54571116 -0.08670333 -0.00000064
0.77494297 -0.54967977 -0.00000031
0.02568455 0.76879205 -0.00000099
0.51268756 0.25216919 0.05581420
0.71611979 -0.45846325 -0.00000042
-0.26344833 0.24492598 -0.00000062
-0.49387342 -0.63847527 -0.00000010
0.35374344 0.18327078 -0.00000072
0.14388734 0.05616187 -0.00000054
-0.68582164 0.65671061 -0.00000014
-0.40358605 -0.74906083 -0.00000003
-0.58560972 0.40079396 -0.00000027
0.03100955 -0.36888619 -0.00000027
0.19903397 -0.75429528 -0.00000003
-0.59850549 -0.31674150 -0.00000016
-0.37409797 0.08697942 -0.00000047
0.37853846 -0.19538558 -0.00000038
-0.52297018 0.75060659 -0.00000035
-0.23492572 -0.28212425 -0.00000032
-0.51923151 0.41857077 -0.00000035
-0.38759590 -0.43120239 -0.00000023
0.69407995 -0.51673043 -0.00000034
0.75212172 -0.44847471 -0.00000044
-0.31674722 0.73511184 -0.00000060
-0.23117308 -0.70782352 -0.00000006
-0.41970020 -0.10890603 -0.00000039
-0.16083617 -0.55669416 -0.00000015
0.74558197 -0.28224053 -0.00000064
0.07656314 0.71459408 0.01404211
0.37262389 -0.19520424 -0.00000038
-0.63760641 -0.79343206 -0.00000000
-0.03279395 -0.22338873 -0.00000036
-0.39764865 -0.33230648 -0.00000029
0.38433509 -0.74310043 -0.00000004
-0.45464585 0.55555374 -0.00000043
0.76063127 -0.50492885 -0.00000037
-0.76979230 -0.30953754 0.00000000
0.48359453 0.26848138 0.07611355
-0.31830006 -0.45558681 -0.00000022
0.36095288 0.26561506 0.27545300
-0.40994146 0.78055565 -0.00000049
0.01253204 -0.01007390 -0.00000049
0.36798201 0.24046246 0.30423765
-0.17877458 0.49244799 -0.00000075
-0.33219392 0.39567157 -0.00000057
-0.07079765 0.11155392 -0.00000057
0.04529603 0.72816264 -0.00000097
-0.17756613 0.17279450 -0.00000061
-0.27255590 -0.60268037 -0.00000012
-0.44899313 0.56520726 -0.00000044
0.35356394 -0.78167015 -0.00000001
-0.66901550 0.01032869 -0.00000014
-0.00021545 0.36251068 -0.00000073
-0.23898546 0.00657276 -0.00000050
0.19960525 -0.15237557 -0.00000040
0.29651717 0.15648647 -0.00000063
-0.73110215 -0.28431499 -0.00000002
0.49169787 0.17982611 -0.00000086
0.57760750 0.18278499 -0.00000096
0.05933707 0.52141436 -0.00000083
0.44954205 0.29201822 0.09281518
-0.66100941 -0.15836165 -0.00000012
-0.03554690 -0.15376705 -0.00000040
-0.16817595 -0.19218535 -0.00000038
0.35610983 0.30582906 0.21927498
0.48996688 -0.47380061 -0.00000020
-0.38138466 -0.09269731 -0.00000043
-0.27891091 0.02622133 -0.00000052
0.56838016 -0.41365113 -0.00000031
-0.21499439 0.17077307 -0.00000061
-0.40060849 -0.07182302 -0.00000041
0.63055425 -0.56924391 -0.00000021
-0.76294519 0.44172963 -0.00000005
-0.07182329 -0.35534759 -0.00000028
0.38325046 -0.76347860 -0.00000002
0.49228562 -0.43002897 -0.00000023
0.31068898 -0.24994636 -0.00000034
0.02941114 0.19961179 -0.00000062
-0.32121359 0.44392401 -0.00000059
0.76011297 -0.49312222 -0.00000038
0.54709372 -0.28834057 -0.00000042
-0.27264305 -0.68266321 -0.00000007
0.58354286 -0.73246477 -0.00000004
-0.53371588 0.69972654 -0.00000033
0.11264734 0.61422948 0.11613598
0.52369999 0.17699290 -0.00000089
0.29654251 0.34699938 0.24849375
-0.59374709 -0.48392815 -0.00000013
-0.46635453 0.34029457 -0.00000042
-0.18957539 0.22182189 -0.00000064
-0.55264474 -0.21879744 -0.00000022
0.31840380 -0.64413540 -0.00000010
0.24100467 -0.01201793 -0.00000049
-0.67929280 -0.06887687 -0.00000012
-0.25639171 -0.57860471 -0.00000014
0.54024056 -0.25504572 -0.00000045
-0.77763068 -0.68570880 0.00000000
-0.15700609 0.27653126 -0.00000067
-0.48326506 -0.38075497 -0.00000026
0.07272112 -0.72310443 -0.00000005
-0.12157505 -0.78540255 -0.00000001
-0.16672210 -0.77780993 -0.00000001
0.63525826 -0.31547894 -0.00000049
-0.32906316 0.57366938 -0.00000059
-0.21801077 0.07927979 -0.00000055
-0.31096859 0.23711673 -0.00000057
-0.03717520 0.18471467 -0.00000062
0.77106984 -0.79450723 -0.00000001
-0.04467548 0.73803859 -0.00000094
0.20711344 0.34357808 0.39596283
-0.76986347 -0.79814829 0.00000000
-0.78302546 -0.04849740 -0.00000001
0.33809007 0.42486334 -0.00000096
0.37278425 -0.04808773 -0.00000049
-0.58942783 -0.10481611 -0.00000021
0.10751207 0.13440147 -0.00000058
-0.40319447 -0.40325392 -0.00000025
0.52838301 -0.46256805 -0.00000022
-0.15725365 0.13777800 -0.00000059
0.19822960 0.41038539 0.30396583
-0.37648637 0.76164495 -0.00000053
-0.24165943 -0.27093883 -0.00000033
0.00357716 -0.74624491 -0.00000003
-0.02281218 0.46498302 -0.00000079
0.64196739 -0.68653514 -0.00000010
0.18165848 -0.26761412 -0.00000033
-0.57526791 0.28387761 -0.00000028
0.18106409 0.39943255 0.34862469
-0.23446283 0.36213589 -0.00000067
0.22975154 0.56367792 -0.00000099
0.67778453 -0.78644386 -0.00000002
0.71426296 -0.06107908 -0.00000084
-0.19745804 -0.50222260 -0.00000019
0.10450611 -0.77739037 -0.00000001
0.44533948 0.34849246 0.00979394
0.20370148 0.50382004 -0.00000090
0.38933464 -0.06152960 -0.00000050
0.55212260 0.21199745 0.05698428
0.15532119 0.46704900 -0.00000081
-0.43503042 0.64240633 -0.00000046
-0.24520935 -0.01111272 -0.00000049
0.10640661 0.48596943 -0.00000080
0.44032374 0.14943049 -0.00000078
-0.20186831 0.57043437 -0.00000074
0.24231366 -0.39502109 -0.00000025
-0.64911129 0.77364983 -0.00000019
-0.40936773 -0.43108156 -0.00000023
-0.41792855 0.51815157 -0.00000048
-0.16987534 0.15605794 -0.00000060
-0.59105439 -0.33790189 -0.00000016
-0.63135239 -0.54044983 -0.00000008
0.58492118 -0.76649358 -0.00000002
-0.34469853 0.03597057 -0.00000049
0.06760582 0.64039740 0.14611172
-0.32175605 0.10009324 -0.00000053
-0.22834707 0.26614590 -0.00000066
0.38593047 -0.75180310 -0.00000003
0.57468250 -0.52866218 -0.00000020
-0.52603874 -0.73429369 -0.00000004
-0.41948873 0.65360430 -0.00000048
-0.33885597 0.28146405 -0.00000054
-0.00310769 0.66266428 -0.00000091
-0.45012700 -0.77346293 -0.00000002
-0.56138110 0.16941779 -0.00000029
-0.56414842 -0.30717522 -0.00000020
0.27085359 0.37013490 0.25254904
0.78754572 -0.70662357 -0.00000012
-0.40800345 0.28545292 -0.00000047
0.08633461 -0.34088028 -0.00000029
0.19458691 -0.01502468 -0.00000049
-0.10878843 -0.13512025 -0.00000042
0.25314949 0.38678349 0.25422535
-0.68881668 0.39391697 -0.00000014
-0.54580401 -0.22895308 -0.00000023
-0.46442849 -0.64832035 -0.00000009
-0.50278268 -0.69472877 -0.00000007
-0.45543260 -0.22330812 -0.00000033
-0.29371476 -0.32423845 -0.00000030
-0.70625519 -0.73703163 0.00000000
-0.17909016 -0.40029634 -0.00000025
0.65780198 0.11808695 0.03829219
-0.62174744 -0.22125032 -0.00000015
-0.06190225 0.71157342 -0.00000092
-0.09584941 0.23912276 -0.00000065
-0.46227230 0.20613581 -0.00000040
0.36238908 -0.20741800 -0.00000037
-0.37068425 -0.17931474 -0.00000039
-0.08026911 0.44566508 -0.00000078
-0.16314281 -0.45785455 -0.00000021
-0.52632001 -0.30254123 -0.00000024
-0.21885802 0.23959990 -0.00000065
0.41448044 -0.26364785 -0.00000034
0.54035564 -0.71788508 -0.00000005
-0.31123136 0.45264442 -0.00000060
0.41616953 -0.71149986 -0.00000006
0.62663008 -0.77831969 -0.00000001
-0.50536755 -0.11681881 -0.00000029
-0.04480369 0.15053422 -0.00000059
0.22423499 0.12578363 -0.00000058
-0.43344600 0.30516092 -0.00000045
0.51435004 0.25313520 0.05163946
-0.50737839 0.48533385 -0.00000037
0.35114284 0.43847441 0.01648798
0.28473027 -0.00670979 -0.00000050
-0.69647762 -0.03008026 -0.00000010
0.22605823 -0.50109062 -0.00000019
0.11489321 0.25814824 -0.00000066
-0.30543034 -0.43192728 -0.00000023
-0.61187055 -0.11072443 -0.00000018
0.36704766 0.21051258 -0.00000076
-0.66481527 0.53899308 -0.00000017
-0.33490907 0.15880811 -0.00000053
-0.36929400 0.75395452 -0.00000054
0.33100092 0.21951650 0.39624007
0.11766394 0.24164051 -0.00000065
0.45605977 -0.17422561 -0.00000045
0.37589159 -0.50111975 -0.00000019
-0.16161469 0.76492794 -0.00000080
-0.69581277 0.05386020 -0.00000012
-0.47024174 0.63174422 -0.00000041
0.41259042 0.17924719 0.33061376
-0.35555172 -0.07870369 -0.00000045
0.44349767 -0.08205452 -0.00000053
0.67455049 -0.27595570 -0.00000057
-0.37712711 -0.09846447 -0.00000043
0.75702610 0.02521533 -0.00000098
-0.30851898 0.00980351 -0.00000051
0.31550255 0.08746396 -0.00000058
0.44664098 -0.03579657 -0.00000058
-0.76357803 0.67024962 -0.00000005
-0.13705725 0.51470586 -0.00000080
0.16592909 0.60373246 -0.00000097
0.18950609 0.36062173 0.39685803
-0.43318651 -0.36958386 -0.00000027
0.27130121 0.31710937 0.33605591
0.38485930 0.31615634 0.15721077
-0.25362380 -0.24077498 -0.00000035
-0.10291564 0.08160786 -0.00000055
0.56575113 -0.42810627 -0.00000029
0.66892217 0.12041566 0.01693177
0.05352917 -0.78473272 -0.00000001
-0.54440567 -0.64142834 -0.00000010
-0.59940426 -0.36628491 -0.00000015
-0.50066078 -0.52934700 -0.00000017
0.13170933 0.54616700 0.19396110
0.27036842 0.27497548 0.40445656
-0.49314232 0.06677260 -0.00000034
-0.38544179 0.34709918 -0.00000051
-0.53757990 0.00490997 -0.00000028
0.32789244 0.38023024 0.14592290
-0.39942664 0.00369613 -0.00000043
0.21194380 0.38456504 0.32319350
0.46705869 0.29684760 -0.00000096
-0.00345878 -0.28822416 -0.00000032
0.00250981 0.59713091 -0.00000087
-0.27487183 -0.66188551 -0.00000009
0.42536378 0.30938829 0.10362840
-0.02545011 0.47937927 -0.00000080
0.69951993 0.09092726 -0.00000099
-0.00190823 -0.37414346 -0.00000027
0.28128085 0.31673542 0.32079973
0.60594516 -0.28984700 -0.00000048
-0.25204602 -0.52934697 -0.00000017
-0.12999668 -0.42469021 -0.00000023
0.25324039 0.48824577 0.09293287
-0.57228466 0.66976800 -0.00000028
0.18453341 -0.44530775 -0.00000022
0.45620591 -0.55237614 -0.00000015
-0.35546293 -0.24239948 -0.00000035
0.53997011 -0.20925471 -0.00000050
0.46553339 0.19004024 0.22938469
-0.14522519 0.67616591 -0.00000082
0.59459324 0.13643641 -0.00000093
0.01766745 0.22671919 -0.00000064
-0.25763061 0.05787732 -0.00000054
0.33215556 0.34869035 0.18924563
-0.07055738 -0.42891577 -0.00000023
0.30081615 0.45527995 0.06972844
0.20353756 -0.75189529 -0.00000003
-0.78871682 0.20120876 -0.00000001
-0.44119583 -0.42782189 -0.00000023
0.18767855 0.61105669 -0.00000100
-0.13875855 0.42026482 -0.00000076
0.30193496 -0.51478574 -0.00000018
0.33515101 -0.51427705 -0.00000018
0.51199622 0.20510400 -0.00000091
-0.76475258 -0.48675719 0.00000000
0.27971048 0.40544473 0.18240129
-0.08698466 0.51219200 -0.00000082
0.40816867 0.37378510 0.02865961
0.77659906 -0.14226308 -0.00000082
-0.73453471 -0.77614273 0.00000000
0.28503250 0.29503971 -0.00000077
-0.11542546 0.33362790 -0.00000071
-0.40394934 0.28745260 -0.00000048
0.57099110 -0.25838948 -0.00000048
-0.69630564 0.58783697 -0.00000013
0.15677634 0.13558065 -0.00000058
0.11897641 0.02788728 -0.00000052
0.15468134 -0.39447285 -0.00000025
0.56401241 0.19831052 0.05983858
0.39781794 -0.22119716 -0.00000036
-0.20545173 -0.75619499 -0.00000003
-0.41037911 0.21827714 -0.00000046
0.45526770 0.02632604 -0.00000066
-0.16635050 -0.68480020 -0.00000007
0.15428164 0.14541892 -0.00000059
0.34454003 0.24440876 -0.00000077
-0.41671971 -0.58067490 -0.00000014
-0.05301115 -0.23349350 -0.00000035
0.11231056 0.11220049 -0.00000057
0.00733503 -0.50422337 -0.00000018
0.54056583 0.12867469 0.20767806
-0.04074521 -0.74997056 -0.00000003
0.32167591 -0.39657193 -0.00000025
-0.08672658 0.78459215 -0.00000089
-0.38166684 0.20979147 -0.00000048
0.39921877 0.22460642 0.27980941
-0.16559720 0.62203903 -0.00000079
-0.61267944 -0.01300962 -0.00000020
0.41164807 0.34633025 0.06673898
-0.26698443 -0.02068327 -0.00000049
-0.03200444 -0.38609069 -0.00000026
-0.41836720 0.49254605 -0.00000048
-0.00385098 -0.45274170 -0.00000022
-0.14554865 -0.77634466 -0.00000001
-0.73311615 0.15032121 -0.00000008
0.46881027 -0.58489646 -0.00000013
0.44342374 -0.52772924 -0.00000017
0.44066441 -0.09921046 -0.00000051
0.30714666 0.32225464 0.27095262
0.23888082 0.41267754 0.23576126
-0.33107012 0.78521019 -0.00000059
0.44596286 0.35221666 -0.00000100
0.10773151 -0.43393789 -0.00000023
-0.73815855 0.10146609 -0.00000008
0.74288439 -0.00376439 -0.00000094
-0.04399197 0.42395659 -0.00000076
-0.35596347 0.58166508 -0.00000056
-0.10183932 -0.66257563 -0.00000009
0.10853727 -0.13610952 -0.00000041
-0.40192924 -0.18235181 -0.00000039
-0.38392425 -0.49168955 -0.00000019
0.22640422 -0.44480310 -0.00000022
0.47399523 0.31977603 -0.00000099
-0.27035598 0.76767526 -0.00000066
0.72394036 0.04067274 0.05620120
0.14146342 -0.59504786 -0.00000013
-0.10759125 0.24953991 -0.00000066
0.26220179 -0.76211961 -0.00000002
-0.19637116 -0.05086235 -0.00000047
0.25676913 0.42047950 0.19495879
-0.33922194 -0.76423046 -0.00000002
0.46076438 -0.68817933 -0.00000007
-0.30627590 0.55370330 -0.00000062
-0.77303390 -0.67701444 0.00000000
-0.13671294 0.25238660 -0.00000066
-0.47042819 -0.36428976 -0.00000027
-0.36146545 -0.60284575 -0.00000012
0.03783071 -0.39133938 -0.00000026
0.68642082 -0.45551786 -0.00000039
0.33750845 0.34455023 0.18731945
0.08942469 0.64716559 -0.00000093
-0.63792345 0.29547124 -0.00000020
0.24011688 0.24633261 0.49799543
0.45097633 0.25257324 0.15318622
0.34707073 0.36065754 -0.00000090
0.20289603 -0.62670619 -0.00000011
-0.13784984 -0.78933556 -0.00000001
-0.69329631 0.17003437 -0.00000013
0.20201509 -0.38279365 -0.00000026
0.12279102 0.46030802 -0.00000079
-0.58643112 -0.49165043 -0.00000014
-0.26310646 -0.48967053 -0.00000019
0.03964131 0.28743604 -0.00000068
-0.10313029 -0.07843316 -0.00000045
0.21976011 0.55198425 -0.00000097
-0.47144349 -0.01580601 -0.00000035
0.04244319 0.74903602 0.01353070
-0.73338483 0.31355063 -0.00000008
0.19770615 0.44378976 0.25174270
-0.54932572 -0.61908753 -0.00000011
-0.08308951 0.00921327 -0.00000051
-0.23244451 -0.77978980 -0.00000001
-0.22199838 0.02521685 -0.00000052
0.61416265 -0.50328436 -0.00000026
0.27900100 -0.73716376 -0.00000004
-0.65602183 -0.14703361 -0.00000013
-0.55131919 0.78799975 -0.00000031
-0.06805847 0.79801820 -0.00000091
-0.33442136 0.27662151 -0.00000055
-0.24849510 -0.14626013 -0.00000041
0.06981181 -0.00853559 -0.00000049
-0.34161249 -0.54417536 -0.00000016
0.38633009 -0.04352601 -0.00000051
0.20677612 -0.43422049 -0.00000023
-0.72571400 0.43108169 -0.00000009
0.00475327 -0.65529800 -0.00000009
-0.19116076 0.58762432 -0.00000076
0.15626435 0.43334652 0.33414888
-0.50184119 0.35372419 -0.00000037
0.23841466 0.46634673 0.15126152
-0.47171679 -0.76077719 -0.00000002
0.10731627 0.04124775 -0.00000053
-0.46350703 -0.08105398 -0.00000034
0.02245002 -0.60470570 -0.00000012
0.24325415 -0.65262969 -0.00000009
-0.24581572 -0.40455522 -0.00000025
0.56781152 -0.62458767 -0.00000011
0.18741445 0.45202259 0.25501265
-0.41708258 -0.35514072 -0.00000028
0.35192661 -0.07274625 -0.00000045
0.74573037 -0.56380407 -0.00000030
0.60424352 0.16854130 0.04322233
-0.10277948 0.15952677 -0.00000060
-0.27310513 -0.37970075 -0.00000026
-0.25697124 0.77597140 -0.00000068
-0.65299364 -0.01379383 -0.00000015
-0.59925208 0.10791442 -0.00000023
0.00155767 -0.20487571 -0.00000037
0.75270889 -0.17069214 -0.00000077
0.23396675 0.30519350 0.41427752
-0.03565920 -0.05059552 -0.00000047
-0.45518534 -0.17477634 -0.00000034
0.52074922 0.16354172 0.18377402
0.25206543 -0.34655673 -0.00000028
0.32013038 0.44737428 0.05160862
-0.10677172 -0.70468972 -0.00000006
0.04817395 -0.76253024 -0.00000002
0.14773567 0.57280744 -0.00000092
0.58283219 -0.63774810 -0.00000010
0.43042160 -0.07956879 -0.00000052
0.12586277 0.63055540 -0.00000095
-0.37756797 -0.14477604 -0.00000041
-0.20374618 -0.49161496 -0.00000019
0.10014703 0.55382593 -0.00000085
0.63809441 -0.27637188 -0.00000053
0.58421053 -0.49451186 -0.00000024
-0.69655740 -0.22492905 -0.00000007
0.15066778 -0.49039466 -0.00000019
-0.24686256 -0.69488744 -0.00000007
-0.67922725 -0.31058919 -0.00000007
-0.79133074 -0.06182050 0.00000000
0.40549951 -0.73389623 -0.00000004
-0.15366013 -0.76650970 -0.00000002
-0.77846133 -0.50570111 0.00000000
0.34149614 0.32473098 -0.00000086
-0.17129525 -0.13254066 -0.00000042
0.01453952 0.44811588 -0.00000078
0.20034004 -0.60550025 -0.00000012
0.62572765 -0.09822518 -0.00000071
0.22512551 0.44726810 0.20266960
-0.02860138 0.07574519 -0.00000055
-0.50965359 -0.25349233 -0.00000026
-0.26401056 0.74501451 -0.00000067
0.03959656 -0.06678477 -0.00000046
0.73947329 -0.28762699 -0.00000063
-0.13822294 -0.52743833 -0.00000017
-0.35044374 0.17939975 -0.00000051
-0.12043840 -0.67416723 -0.00000008
-0.64786683 0.44446745 -0.00000019
-0.77298630 0.52566136 -0.00000003
0.35247548 0.17814943 -0.00000071
-0.77886554 -0.08236355 -0.00000001
0.10304378 0.48539025 -0.00000080
0.66684942 -0.64763152 -0.00000017
-0.13615044 0.78436260 -0.00000083
0.76572310 -0.06883459 -0.00000089
0.10862594 -0.75784303 -0.00000003
0.73753111 0.03784428 0.03910782
0.45097053 -0.45735641 -0.00000021
-0.68696202 0.10092404 -0.00000014
-0.47064610 0.59277074 -0.00000041
0.31370405 0.27406363 0.33707725
-0.59893119 0.14309837 -0.00000024
0.52935784 -0.23680339 -0.00000046
0.11210855 -0.31923843 -0.00000030
0.49664565 -0.44525957 -0.00000022
-0.00139917 0.45594686 -0.00000078
-0.58811882 0.09975071 -0.00000024
-0.41704793 -0.41451144 -0.00000024
0.42342836 -0.50888265 -0.00000018
0.51851866 -0.18306087 -0.00000050
-0.20629993 0.63528718 -0.00000074
0.49105944 -0.28116335 -0.00000037
-0.14509068 -0.65213433 -0.00000009
0.15600329 0.05905865 -0.00000054
-0.48509499 -0.69374765 -0.00000007
-0.23770031 0.29371175 -0.00000065
-0.45562167 0.59707914 -0.00000043
0.22723967 -0.45902777 -0.00000021
0.47562794 -0.53215856 -0.00000017
-0.07844982 0.39566023 -0.00000075
-0.50210553 -0.43347292 -0.00000023
-0.19021808 0.09896124 -0.00000056
-0.46517618 0.27067290 -0.00000041
0.00437117 0.63318260 -0.00000090
-0.11749128 0.24599469 -0.00000065
-0.19806156 -0.36511807 -0.00000027
0.77267819 -0.36606818 -0.00000054
-0.09551426 0.78723281 -0.00000088
-0.40303993 -0.39596751 -0.00000025
-0.01213223 0.35695046 -0.00000072
0.39848150 0.35138084 0.07962930
-0.48019579 0.09175056 -0.00000036
-0.32864921 -0.13039038 -0.00000042
0.43228668 -0.30391708 -0.00000031
0.32513222 0.20328315 0.43134361
-0.39477689 0.29966450 -0.00000049
-0.64250923 -0.08122775 -0.00000015
0.37516662 -0.40235147 -0.00000025
-0.41567491 0.64193921 -0.00000048
-0.36341659 -0.75578045 -0.00000003
0.35065011 0.33860339 0.17589215
0.02055532 0.73874675 -0.00000096
0.25839100 0.44981672 0.14578785
0.34362464 -0.45508712 -0.00000022
