ply
format ascii 1.0
element vertex 1382
property float x
property float y
property float z
end_header
-0.38831445 -0.22643545 0.00000296
-0.17456447 0.24614101 0.00000721
-0.18284254 0.48672143 0.00000351
-0.08241081 -0.39003660 0.00000128
-0.43739322 -0.44528592 0.00000111
-0.17857944 0.23289535 0.00000377
-0.03110562 0.25074135 0.00000934
-0.43297838 0.26420924 0.00000229
-0.69377113 -0.57612129 -0.00000049
-0.58373495 -0.22863189 0.18984199
-0.08260408 0.40821219 0.00000402
-0.29237046 0.29244981 0.09890155
-0.48385259 -0.04497216 0.00000107
-0.76628126 -0.07789157 -0.00000161
-0.62096468 -0.45405809 0.12223962
-0.33498045 -0.35782275 0.00000239
-0.11697634 0.01019254 0.00000253
-0.40557021 -0.02415034 0.07730310
-0.42308755 -0.19877914 0.01130047
-0.08997635 -0.68118093 0.00000064
-0.79557745 -0.01561528 -0.00000194
-0.53859546 -0.23376366 0.13293156
-0.44964333 0.19089660 0.00000273
-0.30894473 -0.10837225 0.00000309
-0.01882948 -0.53898681 0.00000082
-0.41331279 0.03361951 0.00000168
-0.08251893 0.68471183 0.04186673
-0.62330586 -0.64585166 0.02940308
-0.03139315 -0.06588547 0.00000229
-0.35952312 0.29848328 0.18276967
-0.57872509 0.05980139 0.00000162
-0.26543338 -0.37772011 0.00000132
-0.29804203 -0.43547495 0.00000204
-0.31586439 0.23650097 0.00000483
-0.40412711 -0.45145723 0.00000109
-0.12766378 -0.02105723 0.00000282
-0.45797327 0.10153061 0.20308227
-0.69084677 -0.52408526 0.17145735
-0.13770625 0.32106230 -0.00000144
-0.64021044 -0.00599652 -0.00000046
-0.23313763 -0.39633022 0.00000126
-0.13986336 0.46404935 0.00000394
-0.33064088 0.24518330 0.12140805
-0.43002574 0.04464273 0.00000464
-0.40413417 0.02954103 0.00000529
-0.15008656 -0.52529500 0.00000086
-0.06322011 -0.33118215 0.00000147
-0.25185345 0.27260216 0.04022061
-0.30762035 -0.25761001 0.00000169
-0.29222044 0.09173080 0.00000279
-0.78262619 -0.38008537 -0.00000105
-0.46728251 0.11426525 0.22064094
-0.18044828 0.10771200 0.00000284
-0.40131240 -0.15127530 0.00000196
-0.54286871 -0.45625693 0.02711013
-0.34311931 -0.29991520 0.00000260
-0.53424402 0.01027484 0.24940238
-0.76188950 -0.33173100 -0.00000117
-0.41024104 -0.08970291 0.05023328
-0.22113974 0.43130327 0.08238816
-0.08033678 0.53050143 0.00000416
-0.36133535 0.08739685 0.07967459
-0.12631767 0.04310129 0.00000263
-0.12976130 0.60106720 0.05703267
-0.48445399 -0.25885837 0.05522578
-0.25602655 0.52091254 0.00000300
-0.55313053 0.05467507 0.00000217
-0.53317938 0.00550330 0.24574055
-0.49246130 -0.68335978 0.00000036
-0.02468678 -0.26539644 0.00000167
-0.68819520 0.04929820 -0.00000037
-0.66711856 -0.32659738 0.24138221
-0.20609471 -0.06953771 0.00000290
-0.28112996 -0.58588900 0.00000152
-0.03333849 0.22249891 0.00000320
-0.28002762 -0.07771515 0.00000310
-0.25671086 -0.73958239 0.00000019
-0.70385003 0.04098853 -0.00000111
-0.70054027 0.06788397 -0.00000110
-0.36183484 -0.75827428 0.00000013
-0.37889816 0.06980308 0.09204665
-0.40763857 -0.53169104 0.00000084
-0.30476533 -0.25977455 0.00000169
-0.09470693 -0.41248028 0.00000121
-0.50693221 0.00159359 0.21218937
-0.26768161 0.21385483 0.00000599
-0.21002495 0.25904076 0.00000331
-0.16888626 0.48711690 0.04730998
-0.06805936 -0.52850570 0.00000085
-0.68536208 -0.64349541 -0.00000035
-0.16835092 0.10189549 -0.00000526
-0.00203368 -0.76198502 0.00000012
-0.32634678 -0.50531946 0.00000092
-0.53067369 -0.05230891 0.21389230
-0.10195592 0.11579205 0.00000286
-0.63666718 -0.65709774 0.03988212
-0.39051029 0.35325560 0.00000217
-0.05747105 0.34665807 0.00000358
-0.04192995 -0.05933778 0.00000231
-0.31738251 0.10730478 0.00000615
-0.13261564 0.10297501 0.00000910
-0.57906118 -0.32016052 0.00000039
-0.02799373 0.09562912 0.00001074
-0.14538610 0.53353261 0.00000499
-0.29482905 0.33212045 0.12164844
-0.19363945 0.34197209 0.00471929
-0.16647919 -0.18207702 0.00000243
-0.69135157 -0.79771632 -0.00000001
-0.42053427 0.36896170 0.00000133
-0.19442405 0.43969702 0.05440893
-0.38957615 0.04456210 0.09230858
-0.13745213 -0.33550009 0.00000187
-0.17420902 0.51217301 0.06621548
-0.49676191 -0.25770630 0.00000113
-0.20121014 -0.63496534 0.00000052
-0.36025582 0.14524158 0.10721967
-0.22783468 0.42746389 0.00000452
-0.33848296 -0.01594768 0.00061651
-0.12457502 -0.36827433 0.00000173
-0.08198763 0.13380082 -0.00000693
-0.26639803 0.01830257 0.00000782
-0.38353619 -0.10676723 0.00956814
-0.02679027 0.25481842 -0.00000586
-0.02189090 -0.22708880 0.00000179
-0.01074223 -0.03673892 0.00000239
-0.44101380 0.08249607 0.17316860
-0.02220121 -0.76064474 0.00000019
-0.62991082 0.00255985 0.00000124
-0.40981429 0.12049214 0.00000423
-0.50100974 -0.29976976 0.00000113
-0.22501679 0.33552600 0.03928578
-0.07023541 -0.15029652 0.00000224
-0.47993342 -0.33412499 0.01224410
-0.46049830 -0.08476076 0.11321127
-0.18915364 -0.00553474 0.00000248
-0.36813824 -0.05142341 0.00000219
-0.73662921 -0.71419961 0.13176503
-0.06821853 0.16604144 0.00000952
-0.28118240 0.40527818 0.00000264
-0.39283112 -0.51816406 0.00000207
-0.30368618 -0.28439601 0.00000161
-0.33416208 0.19402998 0.10013424
-0.21385852 0.23877424 0.00000668
-0.01205359 -0.71083264 0.00000032
-0.11262785 -0.73627001 0.00000020
-0.02988523 0.19879243 0.00000321
-0.11896616 0.06227651 0.00000966
-0.09288542 0.51985815 0.00000440
-0.44256869 -0.08211147 0.09294412
-0.05942470 0.50838964 0.00000042
-0.23982166 -0.38470635 0.00000202
-0.17142700 0.52586740 0.00000457
-0.69182806 -0.39997517 -0.00000062
-0.34255398 0.07102602 0.04889572
-0.45232858 0.08924853 0.19015729
-0.12450428 -0.73017900 0.00000059
-0.04342594 0.14275639 0.00000295
-0.17101610 -0.54985553 0.00000130
-0.02592768 0.16759528 0.00001014
-0.25273445 -0.30558021 0.00000155
-0.08872796 0.10628626 0.00000310
-0.02999649 -0.55348283 0.00000086
-0.01059520 -0.55497104 0.00000080
-0.03830092 -0.36619636 0.00000147
-0.54756024 0.23793350 0.00000022
-0.36511082 -0.25868950 0.00000169
-0.68203860 -0.55405533 -0.00000039
-0.23187575 -0.05996746 0.00000301
-0.65830794 -0.10940037 -0.00000055
-0.50737743 -0.22467790 0.09987438
-0.11827790 0.54291247 0.00000408
-0.34025641 0.11351242 0.06731277
-0.35336106 -0.07918951 0.00000225
-0.58551330 -0.74196074 0.00000195
-0.05272189 0.36603657 0.00000364
-0.54956142 -0.04877632 0.23839624
-0.03618339 -0.79087801 0.00000014
-0.63782464 -0.55946103 0.08997129
-0.15905592 -0.07857152 0.00000225
-0.28158606 -0.41403061 0.00000121
-0.45769966 -0.04830719 0.12802245
-0.04609117 -0.16181209 0.00000213
-0.17728778 0.41473439 0.02132177
-0.07288297 0.33909662 0.00000793
-0.71022413 -0.74458406 0.08481718
-0.66992305 -0.67861897 -0.00000017
-0.33595324 0.15421679 0.08243339
-0.13226791 -0.25832051 0.00000169
-0.08472483 0.17425761 -0.00000600
-0.56727270 0.03341336 0.00000021
-0.66014012 -0.36111985 0.21576180
-0.25304742 -0.31193789 0.00000153
-0.28840574 0.00722810 0.00000759
-0.23059262 0.14333675 -0.00000269
-0.36164349 0.13232766 0.10245449
-0.11203349 0.54233249 0.00639080
-0.03535814 -0.44499689 0.00000122
-0.69388501 -0.43143560 0.22132393
-0.45006415 -0.43452951 0.00000114
-0.07485985 0.14784380 0.00000319
-0.16807499 -0.13081895 0.00000260
-0.49357715 -0.34629103 0.00000124
-0.38332861 0.26253806 0.19350622
-0.49118020 0.09782603 0.00000291
-0.73260270 -0.56702624 -0.00000058
-0.55088969 -0.08805485 0.22040572
-0.47155144 0.27067722 0.00000148
-0.58161895 -0.11913592 0.24190440
-0.19821842 0.59982606 0.00000329
-0.15677796 0.51196099 0.04512157
-0.13908558 -0.60925751 0.00000060
-0.61493386 -0.21111668 0.23614316
-0.62714106 0.00433342 -0.00000034
-0.16552161 -0.17747588 0.00000195
-0.04560496 0.53967326 0.00000659
-0.65706584 -0.33004420 -0.00000035
-0.10803703 0.30178203 0.00000377
-0.19013269 0.02254940 0.00000893
-0.18556991 -0.34900564 0.00000141
-0.10670502 0.13172528 0.00000291
-0.49208802 0.00186804 0.00000096
-0.36725638 -0.25855700 0.00000280
-0.63389645 -0.41969215 -0.00000005
-0.36852119 -0.72648073 0.00000023
-0.41896589 -0.02813425 0.00000168
-0.66394607 -0.48035639 0.16087617
-0.40951191 -0.01446746 0.00000176
-0.07768314 0.36582367 -0.00000212
-0.30342928 0.39107358 0.16140806
-0.38856108 0.19246891 0.16485770
-0.64050222 -0.10163445 0.32153256
-0.68721900 -0.65096631 -0.00000036
-0.68479711 -0.44423481 0.20399786
-0.20222684 0.09377703 0.00000813
-0.38821806 0.07907222 0.00000189
-0.42743466 -0.51768046 0.00000217
-0.57495399 -0.43828470 0.00000053
-0.37669928 0.35432937 0.00000176
-0.43864724 0.17712401 0.21751311
-0.33695309 -0.52692160 0.00000187
-0.65881367 -0.27157848 0.25882270
-0.40690154 -0.44597531 0.00000111
-0.02950524 0.28629027 0.00000905
-0.46535044 0.10179606 0.21209529
-0.37331262 -0.79841643 0.00000000
-0.27654475 -0.08892017 0.00000222
-0.25844787 0.40417491 0.00000417
-0.32822397 -0.26273990 0.00000267
-0.48865716 -0.08161249 0.00000106
-0.57129849 -0.50362402 0.03771756
-0.25371061 0.34765800 0.07989024
-0.63733756 0.14772505 -0.00000042
-0.68210715 -0.40219568 0.22172561
-0.27427732 0.23150946 0.00000568
-0.28999232 -0.17736265 0.00000282
-0.32498153 -0.50298868 0.00000191
-0.17143423 0.48143169 0.00000504
-0.11501040 -0.78350999 0.00000040
-0.62227376 -0.57297264 0.06450817
-0.52009171 -0.12105948 0.16686208
-0.56897591 -0.34318184 0.00000051
-0.38001360 0.14900294 0.13288616
-0.36241858 -0.57342612 0.00000180
-0.60757955 -0.67219689 0.00000040
-0.10770362 -0.65564705 0.00000045
-0.00144482 0.09954754 -0.00000985
-0.23493909 0.26791582 0.01751138
-0.23492278 0.29836687 0.03268488
-0.37157280 0.42255223 0.00000175
-0.20633378 -0.29980915 0.00000156
-0.15128587 -0.06557455 0.00000275
-0.08019345 0.23384273 0.00000874
-0.53669873 -0.12610660 0.18434085
-0.71406043 -0.07787534 -0.00000111
-0.71534485 0.06553310 -0.00000124
-0.05040387 0.39257108 0.00000388
-0.23488781 0.39305914 0.07986727
-0.52324097 -0.46691750 0.00000104
-0.18973733 -0.69697625 0.00000032
-0.68161037 -0.34739448 0.24845912
-0.04176863 0.21603077 0.00000318
-0.67745471 -0.51191605 0.16140152
-0.36963929 -0.44617201 0.00000111
-0.07686916 0.66786564 0.02666214
-0.11952602 0.54438716 0.01643739
-0.38659215 0.26925160 0.20078375
-0.01666154 -0.51086705 0.00000095
-0.43239159 -0.75800684 0.00000013
-0.14018160 0.17751121 0.00000348
-0.10336112 -0.25920074 0.00000200
-0.16531335 0.30760407 0.00000346
-0.56603217 -0.27271082 0.14654264
-0.47667841 0.29635674 0.00000085
-0.65184424 -0.05741732 -0.00000053
-0.49935550 -0.65363554 0.00000196
-0.56799215 -0.30161963 0.00000048
-0.34596665 0.08218294 0.00000586
-0.13706861 0.52737189 0.02907623
-0.53399866 0.01604377 0.00000054
-0.71435556 -0.73684804 -0.00000016
-0.12424228 0.58950976 0.04462202
-0.64158309 -0.35319204 -0.00000018
-0.09860423 0.17991931 0.00000306
-0.43667297 0.07442102 0.00000420
-0.08473688 0.39468673 0.00000399
-0.52019913 -0.42814756 0.00000105
-0.22805556 0.45503428 0.10255182
-0.36118260 -0.16398175 0.00000199
-0.25079340 0.06303459 0.00000345
-0.16217284 0.52510714 0.00000476
-0.13823913 -0.39448860 0.00000127
-0.23668779 0.31378623 0.04249575
-0.08247077 0.21520530 0.00000317
-0.63893899 -0.06852918 0.33616131
-0.35042504 -0.25799125 0.00000275
-0.31064079 0.29917203 0.00000244
-0.34269596 -0.22524129 0.00000180
-0.04580367 0.25457288 0.00000330
-0.39213431 -0.54279905 0.00000199
-0.73342555 -0.34148659 -0.00000107
-0.28830916 0.13059500 0.01328312
-0.48963137 -0.32092510 0.03050442
-0.13903825 -0.59022095 0.00000108
-0.42877013 -0.49696076 0.00000224
-0.14389384 -0.57088446 0.00000115
-0.06804143 0.08734453 0.00001021
-0.18847703 0.51211491 0.00000439
-0.13190773 -0.23384348 0.00000217
-0.05538222 0.70801882 0.02081647
-0.14172604 0.03417735 0.00000303
-0.20936574 0.02186928 0.00000320
-0.24988796 0.52808207 0.00000304
-0.14900923 0.61782364 0.00000404
-0.05344397 -0.37140147 0.00000134
-0.03308937 0.42970172 0.00000384
-0.12887773 -0.56374193 0.00000074
-0.04319297 0.59640488 0.00000185
-0.29122951 -0.32454208 0.00000236
-0.61781936 -0.29002681 -0.00000000
-0.39831476 -0.03904525 0.06113833
-0.12340165 0.17465575 0.00000861
-0.33243437 0.01886730 0.01068814
-0.19255411 0.14409168 0.00000353
-0.25113382 -0.01242045 0.00000246
-0.31317620 -0.41184980 0.00000121
-0.02083276 -0.78829723 0.00000010
-0.47262458 -0.15352122 0.09351842
-0.56165066 -0.28331175 0.00000053
-0.67510291 -0.72572514 -0.00000018
-0.03971654 -0.46554235 0.00000117
-0.35062140 0.22614441 0.00000212
-0.07915550 0.72007644 0.00000432
-0.00606220 -0.53576097 0.00000084
-0.37759625 -0.77929997 0.00000006
-0.20749669 -0.79506717 0.00000064
-0.06489913 -0.10979861 0.00000216
-0.07068532 0.20207425 0.00000917
-0.52368689 -0.64717937 0.00000048
-0.50120880 -0.10741744 0.00000096
-0.49539449 -0.39338821 0.00000126
-0.30446697 0.49358967 0.00000234
-0.71735656 -0.16971464 -0.00000106
-0.65000733 -0.55661181 0.10606110
-0.02845502 0.31750565 -0.00000448
-0.00640006 0.41185215 0.00000830
-0.06465578 0.45608618 0.00000393
-0.24230249 -0.76579488 0.00000011
-0.18871936 0.03286051 0.00000886
-0.17684588 0.58711348 0.00000348
-0.13720428 -0.74362436 0.00000059
-0.54590849 -0.44433627 0.00000082
-0.37614333 0.24315161 0.17518441
-0.63848520 -0.14651286 0.29672119
-0.38911351 0.02010120 0.07955117
-0.07332935 0.16909604 -0.00000642
-0.00403780 -0.23712411 0.00000177
-0.58581199 -0.17008515 0.22154260
-0.35753285 0.23454793 0.14848652
-0.21192284 -0.66258863 0.00000043
-0.16690539 -0.18223645 0.00000243
-0.26604026 -0.49877430 0.00000094
-0.12863266 0.32087507 -0.00000169
-0.09913187 -0.36551519 0.00000166
-0.25289152 0.21536990 0.00000626
-0.18852716 0.47936930 0.06709306
-0.01218129 -0.32342772 0.00000149
-0.08486982 -0.09558133 0.00000220
-0.67948942 -0.11871377 -0.00000074
-0.16770350 0.06158032 0.00000893
-0.15132115 -0.57784714 0.00000115
-0.00459861 -0.36224549 0.00000138
-0.45602994 -0.13641817 0.08206736
-0.06496466 0.61986926 0.00000444
-0.47907467 0.10370675 0.22957512
-0.15503169 0.52807912 0.00000374
-0.09423180 -0.48980552 0.00000125
-0.33435361 0.25478927 0.13066973
-0.24976198 -0.17683678 0.00000270
-0.09752641 0.16259187 0.00000911
-0.26744353 0.26197751 0.05369317
-0.45781636 -0.27875923 0.01322688
-0.29592530 -0.70197626 0.00000120
-0.40596816 0.02152066 0.00000534
-0.25267604 -0.28213792 0.00000162
-0.20570056 -0.22273247 0.00000180
-0.43406809 -0.75654684 0.00000145
-0.33173388 0.19516302 0.09777992
-0.45213067 0.17779293 0.00000119
-0.43124409 -0.22078521 0.00000173
-0.22074617 0.18249929 -0.00000213
-0.10528382 0.29153711 0.00000341
-0.01273223 -0.75098341 0.00000015
-0.07717379 0.56091224 0.00000425
-0.63493357 0.02141995 0.00000095
-0.02207130 0.47286068 0.00000753
-0.76859919 -0.69536839 -0.00000026
-0.09777141 0.44012197 0.00000388
-0.47042065 -0.63952668 0.00000192
-0.03320122 0.74829228 0.01419492
-0.59949742 0.03052170 0.00000153
-0.60271227 0.06139197 -0.00000016
-0.27384030 -0.29628954 0.00000157
-0.33934815 0.29876886 0.15861934
-0.27781460 0.06529756 0.00000724
-0.67424605 -0.09223367 -0.00000071
-0.00728393 -0.03047918 0.00000240
-0.21210263 0.11456449 0.00000286
-0.60371360 -0.02544093 0.31523709
-0.26284242 0.36211107 0.00000453
-0.62539755 -0.18289976 -0.00000017
-0.37634018 0.15943234 0.13366484
-0.06923692 0.62242241 0.00000311
-0.44972565 0.10789194 0.00000360
-0.07856679 -0.46904664 0.00000103
-0.69031834 -0.59612326 0.13489268
-0.50774620 -0.12872620 0.00000092
-0.10034886 -0.17697881 0.00000225
-0.17427301 -0.42753785 0.00000169
-0.43067322 0.20067361 0.21965737
-0.12203669 0.22598928 0.00000818
-0.05268146 0.18851870 0.00000325
-0.52939922 0.24924975 0.00000059
-0.00112298 0.65725077 0.00000200
-0.12745990 0.06299966 -0.00000720
-0.77789340 -0.29101923 -0.00000127
-0.09708201 -0.75266569 0.00000044
-0.50430311 -0.71589586 0.00000026
-0.06266136 0.69269006 0.02193532
-0.20901807 0.49707971 0.10059967
-0.48026718 0.03128870 0.00000381
-0.08106593 0.02716079 0.00000283
-0.72624297 -0.43430923 -0.00000091
-0.50320275 0.07612770 0.24487083
-0.21649422 -0.00147585 0.00000315
-0.63745948 -0.05134896 -0.00000040
-0.20385054 -0.21667874 0.00000244
-0.18965292 0.27679524 0.00000336
-0.10354783 -0.17256396 0.00000227
-0.61300736 -0.18058897 -0.00000005
-0.12050903 -0.13323409 0.00000208
-0.07284618 0.14157155 -0.00000701
-0.21628882 -0.18176385 0.00000258
-0.12112303 0.57354498 0.03290339
-0.29587563 -0.44888231 0.00000199
-0.52114309 0.08984541 0.00000242
-0.27749952 0.18053443 0.02517543
-0.04747996 -0.26296568 0.00000168
-0.47791047 0.29993866 0.00000105
-0.32684048 -0.26089647 0.00000267
-0.38818061 0.38648668 0.00000187
-0.29339810 -0.36417925 0.00000225
-0.67362932 -0.61798962 -0.00000026
-0.06990206 0.07389442 -0.00000853
-0.22304237 -0.76571211 0.00000078
-0.59889816 0.10623342 -0.00000016
-0.56741225 -0.31972577 0.12475602
-0.15625295 0.32770889 0.00000352
-0.49608095 0.29299500 0.00000067
-0.12193019 0.62453954 0.05930981
-0.23855531 0.27546130 0.02563473
-0.53849712 -0.11669731 0.19119903
-0.39911035 0.21361020 0.18810475
-0.59293539 -0.66670251 0.00000042
-0.65930879 -0.44160360 0.17462017
-0.42002358 -0.01209180 0.10071325
-0.35848394 0.40109357 0.00000190
-0.42529190 -0.09076835 0.06782415
-0.34096420 -0.33624256 0.00000145
-0.56338191 -0.11944778 0.21979024
-0.55584919 -0.22314365 0.15900286
-0.42109340 -0.58831719 0.00000066
-0.25284944 -0.35745451 0.00000215
-0.14412139 0.33545647 0.00000398
-0.64184888 -0.79157154 0.00000003
-0.25653912 0.36001848 0.08945804
-0.31150894 0.33514102 0.14324061
-0.20191537 0.35435569 0.00000344
-0.20615823 0.38048517 0.00000338
-0.24821195 -0.25538806 0.00000245
-0.14156847 -0.78019907 0.00000049
-0.49567947 -0.07004653 0.16291039
-0.56380864 -0.02932233 0.26525338
-0.68067979 0.05558226 -0.00000090
-0.43562120 0.15209715 0.00000341
-0.27925514 0.31275971 0.09323928
-0.21497025 0.36311907 0.04095126
-0.67127608 -0.77315388 -0.00000007
-0.40753105 0.36084946 0.00000146
-0.48289098 -0.43753612 0.00000259
-0.03510203 0.02676474 -0.00001048
-0.69430277 -0.61566480 0.12994406
-0.03973845 0.33971874 0.00000356
-0.42717912 0.05049160 0.00000154
-0.70337911 -0.57767724 0.15981870
-0.78872578 -0.35774092 -0.00000111
-0.42204122 -0.40666631 0.00000250
-0.50833170 -0.51796930 0.00000242
-0.03493452 -0.50357982 0.00000103
-0.19160602 -0.48812653 0.00000155
-0.79378948 -0.25983924 -0.00000135
-0.29172311 -0.49675635 0.00000095
-0.57385320 -0.25518975 0.16469817
-0.07737699 0.15774642 0.00000945
-0.16367216 -0.56592816 0.00000073
-0.11795424 -0.24167417 0.00000174
-0.18610231 -0.64060336 0.00000106
-0.25551448 -0.68268408 0.00000037
-0.08024562 0.19636676 0.00000311
-0.22113134 -0.28312274 0.00000162
-0.33820073 0.39347367 0.00000210
-0.14817778 0.17305253 0.00000349
-0.12599267 -0.23927736 0.00000213
-0.15865159 -0.53345068 0.00000083
-0.25380082 -0.04405844 0.00000313
-0.02169932 -0.42619802 0.00000117
-0.08161482 0.24679687 0.00000327
-0.46475702 0.28042135 0.00000098
-0.38586088 -0.22522778 0.00000180
-0.45943654 0.14136882 0.00000115
-0.78048980 -0.26957624 -0.00000133
-0.01188828 0.68657089 0.00000465
-0.04803860 -0.07093531 0.00000228
-0.29037086 -0.40436786 0.00000124
-0.21225192 0.50940942 0.00000321
-0.05220834 0.06661866 -0.00000917
-0.59634200 -0.06170297 0.28827617
-0.44390704 -0.59963513 0.00000063
-0.07782292 -0.52741699 0.00000109
-0.20391505 0.46601822 0.07896422
-0.08316935 -0.47384840 0.00000102
-0.48293874 -0.57697558 0.00000215
-0.32621394 -0.03493123 0.00000338
-0.60146774 -0.27719825 0.18697139
-0.52297729 -0.60347677 0.00000061
-0.16783873 0.48306826 0.04402696
-0.03070162 0.01770843 0.00000256
-0.41729637 -0.27209905 0.00000291
-0.25558818 -0.51870792 0.00000088
-0.41650340 0.22660966 0.21553191
-0.15415763 0.45061693 0.01136775
-0.27729733 0.01396642 0.00000769
-0.00228289 -0.40055609 0.00000126
-0.42975109 -0.67403881 0.00000169
-0.37723821 -0.75082868 0.00000015
-0.44868640 0.23804162 0.00000226
-0.41760545 0.11868874 0.00000157
-0.06767798 0.19732844 0.00000332
-0.71231127 0.07963213 -0.00000115
-0.13629079 -0.02747903 0.00000241
-0.47557263 -0.72346904 0.00000024
-0.36376874 0.12047246 0.09909552
-0.40368754 0.34685378 0.00000151
-0.27145149 -0.41179303 0.00000121
-0.07685738 -0.08106232 0.00000225
-0.45028071 -0.13511953 0.00000147
-0.19131517 0.44221991 0.05192115
-0.54895059 -0.76798252 0.00000010
-0.24366268 0.39746139 0.00000453
-0.50172995 -0.41172207 0.00000273
-0.36937792 -0.79306387 0.00000002
-0.13944941 0.60537990 0.07084873
-0.14468322 0.29391112 0.00000342
-0.21602581 0.48736338 0.10419151
-0.22717896 0.16823805 0.00000371
-0.16037593 0.56436344 0.00000438
-0.35020875 -0.50568108 0.00000198
-0.38701110 -0.78829887 0.00000004
-0.47337809 0.31402837 0.00000099
-0.53397336 -0.07441044 0.00000062
-0.29406514 0.25966743 0.08459526
-0.12086024 0.39286232 0.00000674
-0.52349606 0.05788379 0.26020765
-0.34754298 0.04214735 0.00000625
-0.04629839 0.06519274 0.00000270
-0.41076510 0.05376877 0.12241430
-0.27402398 0.05771212 -0.00000333
-0.07892835 0.05528864 0.00000291
-0.53674623 0.24075788 0.00000054
-0.34123287 0.21009088 0.11665889
-0.16811501 0.09848594 0.00000281
-0.68976957 -0.74503856 -0.00000014
-0.29921121 -0.64971466 0.00000047
-0.53110055 -0.04661596 0.00000062
-0.03124140 0.01325200 0.00000264
-0.42041939 0.07306111 0.14366150
-0.27042617 0.23232296 0.00000289
-0.17884992 -0.53124885 0.00000084
-0.01867120 -0.68252487 0.00000042
-0.49300021 -0.57187162 0.00000071
-0.46507373 -0.10496705 0.00000131
-0.76702424 -0.69914936 -0.00000025
-0.69246832 -0.71448882 0.07844754
-0.71502818 -0.66622860 0.12968082
-0.48541742 -0.57652743 0.00000216
-0.14351436 -0.38179005 0.00000131
-0.27622224 -0.48569723 0.00000098
-0.34260297 -0.59629839 0.00000167
-0.36904144 -0.26236110 0.00000279
-0.11044580 -0.45263043 0.00000142
-0.06888251 0.51985418 0.00000092
-0.54748434 -0.03758192 0.24147842
-0.05114918 0.50693018 0.00000408
-0.68946364 -0.44512098 -0.00000056
-0.66386269 -0.46996446 0.16595867
-0.43044845 0.09821383 0.16828293
-0.48849332 -0.00385276 0.18727139
-0.28209300 -0.67744876 0.00000038
-0.14218188 0.46845571 0.00584514
-0.26829412 -0.45093093 0.00000190
-0.24945209 0.19973500 0.00098005
-0.09834440 0.53158387 0.00000586
-0.08769647 0.09709604 0.00000307
-0.29908887 -0.79281738 0.00000093
-0.01570876 0.38054424 0.00000843
-0.05487307 0.40808246 -0.00000184
-0.55410328 -0.34137984 0.09793133
-0.38776944 0.39330411 0.00000180
-0.28824269 0.46528661 0.00000252
-0.39000674 -0.54947437 0.00000078
-0.00889989 0.61571851 0.00000133
-0.18719787 0.10616776 0.00000825
-0.22324539 0.50056992 0.00000384
-0.05830018 0.00080627 0.00000250
-0.04276901 -0.34324885 0.00000156
-0.11192529 0.62639044 0.00000407
-0.12238636 0.63157883 0.00000441
-0.57107505 -0.68111862 0.00000209
-0.16956163 -0.19504978 0.00000240
-0.02185374 0.75093180 0.00184788
-0.41821564 0.22735608 0.21796583
-0.53989660 -0.37957654 0.00000082
-0.05138869 -0.23785845 0.00000191
-0.30051112 0.38526793 0.15499858
-0.19177746 0.26788263 0.00000676
-0.31108152 0.28070165 0.11557200
-0.44637206 0.09026024 0.18349263
-0.52208688 -0.51476207 0.00000247
-0.29358416 0.30053907 0.00000458
-0.42907716 -0.74397747 0.00000018
-0.49082007 -0.70507280 0.00000030
-0.42924820 0.05372815 0.14464962
-0.10723805 0.05805441 -0.00000785
-0.44536755 0.23706122 0.00000233
-0.53821300 -0.25959462 0.11958806
-0.37504038 0.08788645 0.09641486
-0.08072488 0.40032791 0.00000399
-0.20973936 0.55508008 0.00000353
-0.09685574 0.27614040 0.00000366
-0.11596894 0.20942810 0.00000842
-0.31467549 0.04216980 0.00092716
-0.66618688 -0.60372445 -0.00000020
-0.09376125 0.34611521 0.00000386
-0.43260482 0.12084838 0.00000142
-0.72285108 -0.37823859 -0.00000094
-0.04190136 0.59598760 0.00000449
-0.21751412 0.57915833 0.00000310
-0.02665651 -0.25952489 0.00000169
-0.42447953 0.07888243 0.00000154
-0.66536992 -0.13155557 -0.00000060
-0.44860004 0.30187461 0.00000159
-0.11760139 -0.42202732 0.00000118
-0.42934290 0.06323723 0.14950649
-0.64260987 -0.20441335 0.27281016
-0.17268363 0.55872700 0.08759698
-0.35243756 0.29676750 0.00000204
-0.56341476 0.13900557 0.00000015
-0.14560789 0.51122617 0.00000522
-0.17798148 -0.68710138 0.00000035
-0.20072504 0.31929544 0.00194067
-0.19963461 -0.27167473 0.00000225
-0.01961075 -0.31486815 0.00000158
-0.36301298 0.25385958 0.16471490
-0.07559543 0.51594968 0.00000102
-0.07113118 -0.24125751 0.00000196
-0.28322201 -0.22540826 0.00000265
-0.37488103 -0.34395339 0.00000256
-0.74267548 -0.19109113 -0.00000129
-0.36623206 -0.57817656 0.00000069
-0.48223489 -0.05954711 0.15195871
-0.08428806 -0.50790836 0.00000117
-0.09710848 0.32066661 0.00000773
-0.12312874 -0.57518083 0.00000107
-0.34045210 0.32251020 0.17179061
-0.27982346 -0.79130707 0.00000003
-0.32856348 0.29187187 0.14219346
-0.41919172 -0.39625570 0.00000253
-0.28864918 0.23310952 0.06482362
-0.72975972 -0.30279110 -0.00000107
-0.12040479 0.39312862 0.00000373
-0.19945917 0.17462149 0.00000746
-0.19591515 0.06231497 -0.00000535
-0.15730902 0.15724992 0.00000347
-0.50223412 -0.14785579 0.00000099
-0.51821823 0.04531676 0.00000294
-0.50675046 -0.50720688 0.00000091
-0.32364585 -0.58323106 0.00000165
-0.37180773 -0.58930258 0.00000178
-0.29929128 -0.15668397 0.00000201
-0.26262732 0.10900231 0.00000708
-0.58431456 -0.57005707 0.00000056
-0.65235783 -0.55423270 0.11007782
-0.42084551 -0.15143277 0.03221452
-0.17898434 -0.54286064 0.00000134
-0.23859716 -0.14788570 0.00000276
-0.40204260 -0.15727126 0.00666263
-0.35635399 0.23583301 0.00000206
-0.51501637 -0.00441454 0.00000074
-0.00667734 0.30580087 0.00000346
-0.01087351 0.59808939 0.00000440
-0.54362383 0.23221273 0.00000026
-0.00228506 0.71813155 0.00000568
-0.13776192 0.26079357 0.00000373
-0.21661687 0.28517972 0.00406021
-0.63316500 -0.28936823 -0.00000015
-0.54163140 -0.54807390 0.00000079
-0.39459361 -0.61394639 0.00000177
-0.06060291 0.41220727 0.00000748
-0.02249576 0.10307599 0.00001076
-0.13760798 0.51778621 0.02494222
-0.70730465 -0.08880953 -0.00000103
-0.57005908 0.01246280 0.29361874
-0.12200144 0.14512855 -0.00000560
-0.32462560 0.15019433 0.06678745
-0.48688082 -0.22037437 0.07734143
-0.38605274 0.01985723 0.00000196
-0.56186648 -0.64866330 0.00000047
-0.33938553 0.08195849 0.05052601
-0.20717528 -0.07026674 0.00000291
-0.34944075 -0.01110617 0.01622511
-0.09354223 -0.01894035 0.00000244
-0.17074685 0.56074152 0.08626994
-0.41809117 0.04404848 0.12638747
-0.05002021 0.35944661 0.00000810
-0.60717312 0.17579730 -0.00000013
-0.39173064 -0.16265437 0.00000317
-0.27966613 0.38220595 0.12837181
-0.13980360 -0.79154291 0.00000003
-0.12785208 0.28387231 0.00000759
-0.38067373 0.27853166 0.19828623
-0.30597195 -0.74467144 0.00000017
-0.30505876 0.33811605 0.00000246
-0.07834876 0.29347313 -0.00000364
-0.70110327 -0.52809095 -0.00000060
-0.08410539 0.31219639 0.00000348
-0.19766310 0.21583432 -0.00000204
-0.07853126 -0.29876252 0.00000180
-0.30957784 -0.61857798 0.00000150
-0.09528308 0.19416885 0.00000311
-0.01917047 0.05971344 0.00001119
-0.18303706 -0.37115389 0.00000134
-0.66214194 -0.48692142 0.15542960
-0.02852499 -0.13979262 0.00000215
-0.13761091 -0.26085095 0.00000210
-0.29945804 0.15539750 0.03908489
-0.18712780 -0.48614237 0.00000155
-0.07319823 -0.64627716 0.00000070
-0.47696213 -0.14032987 0.00000122
-0.39309049 0.25174401 0.00000318
-0.46310227 -0.51076623 0.00000230
-0.12957962 0.13176855 0.00000889
-0.32706961 0.04933164 0.01942308
-0.00117842 -0.02794982 0.00000241
-0.16037667 0.22260929 0.00000763
-0.17919919 -0.77267290 0.00000009
-0.70799164 -0.25362447 -0.00000090
-0.05404955 0.30726660 0.00000346
-0.18575078 0.56432246 0.00000390
-0.19805196 -0.58071752 0.00000128
-0.47339612 -0.05239588 0.00000118
-0.28862091 -0.72649860 0.00000023
-0.62930328 -0.26237165 -0.00000014
-0.23753358 -0.79654451 0.00000001
-0.18460965 -0.09515713 0.00000276
-0.14762473 -0.46208999 0.00000106
-0.23160562 -0.63023283 0.00000053
-0.26642144 0.09589644 0.00000360
-0.36755966 -0.04183247 0.00000219
-0.22044898 0.16862652 0.00000303
-0.21838273 -0.21289896 0.00000249
-0.14529824 0.31790255 -0.00000130
-0.50933291 -0.02231428 0.20315236
-0.43753307 0.04589201 0.15072159
-0.04888588 0.59522459 0.00000451
-0.47078818 0.06467039 0.00000365
-0.43158696 0.02634962 0.13381547
-0.46799481 -0.14763182 0.09088116
-0.14898026 0.46430922 0.01196296
-0.37180723 -0.18358365 0.00000193
-0.59232775 -0.22128456 0.00000018
-0.66983027 -0.60263354 0.10697645
-0.26902395 0.36232757 0.00000441
-0.01768820 0.28356753 0.00000344
-0.60306806 -0.38298594 0.13613753
-0.01414115 -0.52980039 0.00000089
-0.59502915 -0.17747430 0.00000012
-0.48687123 -0.63247976 0.00000052
-0.36213499 0.25773746 0.00000371
-0.24842049 0.32803374 0.06373315
-0.02775919 -0.24497634 0.00000182
-0.16157578 0.45591256 0.02294128
-0.63429691 -0.50083555 0.11496264
-0.65950284 -0.51629656 -0.00000021
-0.68064216 0.00390205 0.00000025
-0.05641280 0.22191282 -0.00000575
-0.61281589 -0.42252664 0.12815397
-0.08178078 0.55821311 0.00000208
-0.46493265 -0.29869948 0.01185034
-0.41848473 -0.52578820 0.00000212
-0.00740045 0.50499538 0.00000410
-0.08540266 -0.07921194 0.00000251
-0.56990348 -0.20044575 0.18724557
-0.41976633 -0.46904640 0.00000103
-0.36513030 0.01853627 0.04989235
-0.13542435 0.40106694 0.00000416
-0.32812034 -0.69317765 0.00000132
-0.15761824 -0.16783432 0.00000245
-0.35767876 0.13326683 0.09814399
-0.37653879 0.37402532 0.00000175
-0.56409550 -0.13608875 0.21234990
-0.10709059 0.56958530 0.00000417
-0.05375383 -0.64852703 0.00000064
-0.09841879 -0.37334144 0.00000133
-0.29851214 -0.74679610 0.00000017
-0.47227284 -0.63617379 0.00000194
-0.05656514 0.40238066 0.00000393
-0.17305396 -0.52273594 0.00000139
-0.48413728 -0.08712216 0.14049648
-0.15089204 -0.51031069 0.00000091
-0.33636815 0.13146861 0.00000234
-0.26568195 -0.45216941 0.00000189
-0.32677513 -0.37132421 0.00000134
-0.19320621 0.19424415 0.00000739
-0.09012636 -0.24980189 0.00000199
-0.19410409 0.33508790 0.00184515
-0.33103669 -0.29031491 0.00000259
-0.59032978 -0.24234000 0.19094580
-0.06255821 -0.74277625 0.00000018
-0.39067959 -0.77544140 0.00000126
-0.39372872 0.01447790 0.00000565
-0.31698297 -0.53249363 0.00000084
-0.45142888 -0.25560962 0.01708161
-0.10538827 0.43280519 0.00000662
-0.22848214 -0.73913018 0.00000019
-0.04366773 0.08223750 -0.00000907
-0.42744052 0.09127330 0.00000420
-0.02292458 0.55701537 0.00000424
-0.07067364 0.25918296 0.00000331
-0.56897938 0.03089975 0.30151446
-0.46135910 0.17859248 0.24559303
-0.54462262 -0.42297629 0.04582041
-0.16967308 -0.61871282 0.00000108
-0.63462587 -0.32026037 -0.00000014
-0.01064477 0.05185369 0.00001139
-0.33353427 0.10658073 0.05576801
-0.42987161 0.12750567 0.18220083
-0.22505209 -0.41725647 0.00000188
-0.67221621 -0.37838925 -0.00000045
-0.14012026 0.52012194 0.02913478
-0.16983056 0.51924820 0.00000361
-0.55261600 -0.48566200 0.02418098
-0.22300586 0.05549161 0.00000815
-0.02760456 0.28368403 0.00000347
-0.07786234 -0.03806854 0.00000262
-0.23095285 -0.02688404 0.00000242
-0.49711009 -0.39415327 0.00000124
-0.22590948 0.06878614 0.00000340
-0.53412275 -0.52292624 0.00000087
-0.60471387 -0.68099389 0.00000037
-0.45672865 -0.10511167 0.09852252
-0.58157673 -0.26807731 0.16757027
-0.33154690 0.22340321 0.11163575
-0.10076896 0.30694048 0.00000779
-0.45855079 0.20347308 0.00000243
-0.31893992 0.02828422 -0.00000274
-0.41131825 -0.69344227 0.00000157
-0.39780000 0.22412770 0.00000167
-0.19783716 -0.38861153 0.00000188
-0.69898987 -0.65702302 -0.00000036
-0.53615955 -0.65086372 0.00000208
-0.14024704 0.13176464 0.00000334
-0.41232648 0.06112728 0.12796456
-0.41140209 -0.44854705 0.00000110
-0.31833360 0.29947309 0.00000237
-0.43918276 -0.48556621 0.00000231
-0.26859229 0.16921550 0.00000644
-0.12204495 0.52489936 0.00975053
-0.22802900 -0.74453752 0.00000086
-0.14567549 0.53097351 0.04123377
-0.13239402 0.44042089 0.00000615
-0.44180388 0.16375476 0.00000317
-0.37547844 -0.18655083 0.00000305
-0.59266591 -0.20582921 0.21196812
-0.57100703 0.00092314 0.28900454
-0.01489558 0.05531431 0.00000272
-0.44963643 -0.20657672 0.03937813
-0.49780008 -0.63755816 0.00000051
-0.09577331 0.33261977 0.00000354
-0.62875065 -0.40222410 0.15746624
-0.40914099 -0.13128545 0.00000187
-0.24504644 -0.26167270 0.00000242
-0.48298234 -0.64064038 0.00000050
-0.00230895 -0.31173551 0.00000153
-0.58522802 -0.34828412 0.00000036
-0.39812486 -0.24570240 0.00000173
-0.31076618 0.37285763 0.16115686
-0.01492398 -0.76867663 0.00000010
-0.59703157 0.17413022 0.00000008
-0.08226622 0.49175291 0.00000068
-0.37553662 -0.33091760 0.00000260
-0.13902933 -0.41911733 0.00000161
-0.19165977 -0.73636610 0.00000020
-0.09587803 0.09083982 0.00000976
-0.17717907 -0.48618097 0.00000152
-0.06582582 -0.72433348 0.00000024
-0.59300538 -0.54498409 0.00000045
-0.18982509 -0.57513200 0.00000128
-0.43612397 0.02144194 0.13682541
-0.78149760 0.00668561 -0.00000183
-0.68304062 -0.57811651 0.13511044
-0.05332792 -0.29368543 0.00000174
-0.46067346 0.01731848 0.00000124
-0.20103547 -0.21165926 0.00000184
-0.55638357 -0.49525823 0.02393135
-0.15279754 -0.54454762 0.00000080
-0.45221165 0.12546987 0.00000123
-0.08934136 0.05073520 -0.00000850
-0.25691517 0.16843067 0.00000665
-0.16748291 0.36546366 0.00000415
-0.63788351 -0.57090538 0.08433439
-0.22477371 0.34765968 0.04504910
-0.36626553 -0.63043985 0.00000053
-0.50877000 -0.49083896 0.00000250
-0.34973648 -0.07271731 0.00000333
-0.15709328 0.46333614 0.00000550
-0.08213941 0.37554028 0.00000367
-0.69190355 0.02548616 -0.00000019
-0.32225641 -0.70524730 0.00000030
-0.25799595 -0.27579747 0.00000242
-0.67969673 -0.38098737 0.22940076
-0.18353152 -0.63818945 0.00000051
-0.49814017 -0.18332191 0.10937806
-0.61415013 -0.24771601 0.21694587
-0.25804849 0.27683019 0.04978855
-0.09385708 0.60803846 0.00000520
-0.14008115 -0.41532419 0.00000162
-0.44367847 -0.01308529 0.00000143
-0.18629277 -0.08071907 0.00000225
-0.21885622 0.49689988 0.11235638
-0.02331769 -0.60257762 0.00000062
-0.36628643 -0.32587182 0.00000148
-0.24074928 -0.03912343 0.00000310
-0.77623805 -0.29862211 -0.00000125
-0.03615806 0.45421604 0.00000392
-0.32512988 -0.08587630 0.00000321
-0.09299505 -0.78526539 0.00000033
-0.29820144 -0.34633829 0.00000232
-0.31805586 0.08147905 0.02461169
-0.55353800 -0.05842372 0.23837276
-0.31469368 0.32411248 0.00000393
-0.17999014 0.00276619 -0.00000705
-0.31854813 -0.76476359 0.00000011
-0.42835979 -0.71573354 0.00000026
-0.53008838 -0.77608855 0.00000167
-0.68061779 -0.48593669 0.17816714
-0.04689627 -0.53151541 0.00000084
-0.03745016 -0.33522796 0.00000145
-0.18030304 0.46851362 0.00000500
-0.29441551 -0.21448000 0.00000272
-0.37247773 -0.19249460 0.00000302
-0.13982579 0.56417373 0.00000478
-0.22307943 -0.75707982 0.00000081
-0.73625836 -0.79549926 0.09077093
-0.25214460 -0.47271693 0.00000102
-0.33882432 -0.25221728 0.00000273
-0.51977974 0.07999267 0.00000062
-0.59440723 0.11647534 -0.00000013
-0.47458352 -0.58496195 0.00000067
-0.15220393 -0.02520864 0.00000242
-0.20797154 0.12585704 0.00000776
-0.66912079 -0.67135288 -0.00000017
-0.51045805 -0.01319172 0.00000079
-0.08499627 0.59119820 0.00000460
-0.59112714 -0.55413154 0.03640239
-0.09255074 -0.53028081 0.00000084
-0.25357343 -0.26664863 0.00000243
-0.71342798 -0.55196332 0.18474296
-0.24194301 0.11886205 0.00000731
-0.41521787 -0.70568886 0.00000155
-0.30651488 -0.29220568 0.00000159
-0.36995957 0.05481424 0.07380163
-0.13061712 -0.33631005 0.00000145
-0.05670789 0.19073297 -0.00000641
-0.63542049 -0.72444818 0.00000020
-0.08635300 0.37400570 0.00000393
-0.16525180 -0.00737201 0.00000248
-0.12849025 -0.79006741 0.00000003
-0.48510161 0.00990387 0.19004854
-0.02695861 0.50906112 0.00000409
-0.07962184 0.45739374 -0.00000012
-0.68172012 -0.45730218 -0.00000047
-0.02521970 -0.30859367 0.00000161
-0.38034954 -0.16577462 0.00000313
-0.70579632 -0.00215705 -0.00000109
-0.07802528 0.26678488 0.00000849
-0.23539398 -0.65882105 0.00000115
-0.31822241 0.09390661 0.03100275
-0.03225267 -0.72313353 0.00000034
-0.51124049 -0.53006426 0.00000239
-0.34351553 0.18001438 0.10440623
-0.01029048 -0.30851880 0.00000157
-0.50231871 -0.56483210 0.00000073
-0.58190940 -0.65147759 0.00000046
-0.16977898 0.46105629 0.00000528
-0.00770511 0.77172817 0.00000513
-0.47738215 -0.31025745 0.02107594
-0.58529149 -0.00666908 0.30241831
-0.24646047 0.15118605 0.00000297
-0.66768404 -0.59363380 -0.00000022
-0.30922991 -0.36642743 0.00000135
-0.75188911 -0.05219848 -0.00000149
-0.49908196 -0.12010186 0.14204253
-0.63713271 -0.62260936 0.05764344
-0.31801993 0.23191403 0.00000243
-0.39383636 0.06468961 0.00000185
-0.45529244 -0.23850518 0.03026429
-0.16759728 -0.45692363 0.00000107
-0.00029205 0.63263838 0.00000448
-0.31598224 0.13919062 0.00000584
-0.73716947 -0.70907035 0.13497372
-0.09893631 -0.68254814 0.00000037
-0.14613064 0.12640825 0.00000869
-0.26584029 0.19491483 0.01831579
-0.50992232 -0.14901598 0.14067438
-0.41405849 -0.44194109 0.00000112
-0.77436778 -0.08990398 -0.00000168
-0.37829055 -0.08873701 0.01224446
-0.25819478 0.21134407 0.01730403
-0.04023087 -0.11231659 0.00000215
-0.34159033 0.13303976 0.07866428
-0.18242994 0.34526897 0.00000413
-0.42709240 -0.55838754 0.00000076
-0.66104199 -0.24125965 -0.00000046
-0.31252817 0.20511821 0.00000522
-0.16092220 0.13629142 0.00000341
-0.37846757 0.21501744 0.16395058
-0.61086732 0.01799108 -0.00000020
-0.02280562 0.34075060 -0.00000414
-0.18705104 0.17309023 0.00000361
-0.29394885 0.15961712 0.00000605
-0.10906877 0.39352967 -0.00000068
-0.08392087 -0.11727890 0.00000239
-0.50008914 0.25379619 0.00000111
-0.10451093 -0.76925058 0.00000041
-0.32822940 -0.12686473 0.00000309
-0.05837042 0.15230059 0.00000979
-0.03956156 0.45919683 0.00000393
-0.36481178 -0.00234416 0.03909430
-0.10126998 0.58787823 0.01614930
-0.15345389 -0.33921123 0.00000190
-0.18917106 -0.25498283 0.00000227
-0.13858743 0.22683330 0.00000363
-0.46774355 0.02630034 0.17732587
-0.01123337 0.25795171 0.00000957
-0.33485220 -0.45632638 0.00000208
-0.20690248 -0.72034489 0.00000025
-0.34994147 -0.61795719 0.00000162
-0.30065837 -0.07695870 0.00000226
-0.65588656 -0.49670410 -0.00000019
-0.34270205 0.25332086 0.13998972
-0.73825712 -0.33231267 -0.00000112
-0.29830132 0.05571656 -0.00000271
-0.01483757 0.64026562 0.00000450
-0.51540593 -0.15540434 0.14409087
-0.66160198 -0.56276150 -0.00000019
-0.38813983 0.10413355 0.00000482
-0.34516605 -0.11471063 0.00000214
-0.19809158 0.27116224 0.00000395
-0.06844153 -0.42542562 0.00000138
-0.30732125 0.16686487 0.05426595
-0.26154365 -0.20731747 0.00000185
-0.05675591 -0.62701461 0.00000071
-0.05309306 0.68621967 0.00000517
-0.33921459 -0.08036342 0.00000225
-0.05941436 0.67451314 0.00895951
-0.11543609 0.30978721 0.00000382
-0.17819078 0.04572452 0.00000264
-0.65478419 -0.17191776 0.30367590
-0.14936060 0.18332902 0.00000814
-0.30810909 -0.03822558 0.00000331
-0.66156720 -0.24247091 0.27665536
-0.29685460 -0.42016686 0.00000119
-0.56898661 -0.57617912 0.00000070
-0.04327166 0.31193670 -0.00000420
-0.28395768 0.33627773 0.00000267
-0.47384451 -0.42588150 0.00000260
-0.12103401 0.44587607 0.00000076
-0.03263753 0.58057397 0.00000441
-0.66618044 -0.75853174 -0.00000007
-0.14186704 -0.48735684 0.00000141
-0.09345249 0.13731457 0.00000939
-0.13311554 0.64558266 0.00000406
-0.57101179 -0.44142175 0.06839523
-0.41342342 -0.21111518 0.00000184
-0.39951722 0.07427314 0.11909763
-0.65726974 -0.67576445 -0.00000005
-0.53778110 -0.15050410 0.17347604
-0.52007573 -0.67564648 0.00000039
-0.40705688 -0.13479625 0.02390940
-0.31447894 0.03781730 0.00000262
-0.04272993 0.20556321 0.00000956
-0.42846855 0.02653754 0.00000154
-0.46019912 -0.06762270 0.00000132
-0.15959917 0.26098165 0.00000332
-0.63812019 -0.15546981 -0.00000031
-0.17284763 0.23502454 -0.00000231
-0.28288226 -0.68802385 0.00000120
-0.18774972 0.18180600 0.00000307
-0.67101613 -0.27437770 -0.00000053
-0.31433696 0.37445723 0.16625429
-0.51730378 0.06423163 0.00000276
-0.14078818 0.65881450 0.00000377
-0.52329680 0.25634915 0.00000063
-0.43082930 -0.00450008 0.11751098
-0.22094710 0.49836951 0.00000391
-0.02128192 0.70216717 0.00000553
-0.02005315 0.27629217 0.00000342
-0.71046335 -0.19688327 -0.00000097
-0.07122958 0.56962294 0.00000594
-0.41483517 0.26249261 0.00000147
-0.74483138 -0.44167459 -0.00000090
-0.71170561 -0.58139186 -0.00000055
-0.36719289 0.03222256 0.05920973
-0.29927394 0.15912740 0.04071694
-0.08790112 -0.24004021 0.00000202
-0.13244602 0.38556924 0.00000370
-0.63072672 -0.17928272 -0.00000022
-0.27076002 0.38233777 0.00000276
-0.63248064 -0.61101032 0.00000013
-0.42229475 0.13367287 0.00000151
-0.48131889 -0.12895788 0.11623773
-0.35289231 0.07110168 0.06137453
-0.73497247 -0.12094923 -0.00000127
-0.49919506 -0.16038724 0.00000103
-0.04782674 0.30714498 0.00000360
-0.49965003 -0.41912621 0.00000270
-0.44222598 -0.51317311 0.00000223
-0.00641560 -0.46757844 0.00000104
-0.05717368 0.03263552 0.00001085
-0.17685252 -0.55602391 0.00000076
-0.19856814 0.45256801 0.00000339
-0.23427237 0.33513679 0.00000536
-0.13308115 0.43601131 0.00000618
-0.33756283 -0.25124944 0.00000273
-0.38137870 -0.16514924 0.00000198
-0.23452622 -0.40712963 0.00000123
-0.00571680 -0.02520392 0.00000242
-0.56952334 0.00015445 0.00000021
-0.02822400 0.34722237 -0.00000385
-0.08142367 0.04895623 0.00001034
-0.33562083 0.09805205 0.05402676
-0.57992618 -0.12180677 0.23853413
-0.05100328 0.56247910 0.00000134
-0.52716539 0.26628561 0.00000046
-0.11393119 0.33729305 0.00000733
-0.05097200 0.45466455 0.00000407
-0.02691567 0.17667123 0.00000313
-0.17341690 0.04845255 -0.00000626
-0.38461704 0.08370677 0.10586692
-0.31343364 -0.64656918 0.00000048
-0.60682050 -0.55040688 0.00000032
-0.53348082 0.09733259 0.00000048
-0.25613913 -0.78443483 0.00000082
-0.22186094 0.02871796 0.00000326
-0.03805032 -0.79086097 0.00000014
-0.28113620 -0.63735170 0.00000136
-0.41194495 -0.39479735 0.00000127
-0.35788246 -0.39913940 0.00000125
-0.07320791 -0.63889342 0.00000072
-0.44308573 -0.20079414 0.03437466
-0.04095685 0.54113449 0.00000419
-0.21843811 -0.29924912 0.00000156
-0.43306057 -0.51494829 0.00000089
-0.47377146 -0.23003266 0.00000133
-0.68569990 0.11350225 -0.00000099
-0.64007346 -0.51076335 0.11696660
-0.12960429 -0.03445065 0.00000239
-0.45375419 -0.27701256 0.00920690
-0.33095712 -0.27677732 0.00000164
-0.13285873 0.50827247 0.01448157
-0.67001378 -0.77700226 0.02023238
-0.07082492 -0.20432343 0.00000186
-0.48866961 -0.51568366 0.00000089
-0.13025861 0.10361697 0.00000322
-0.40867224 -0.62667961 0.00000177
-0.31527616 0.23971082 0.10017781
-0.37735456 0.01016597 0.06044453
-0.56123135 -0.36405327 0.09520581
-0.33952283 0.15285022 0.00000525
-0.11593956 0.59219575 0.03596437
-0.38592926 -0.61180163 0.00000059
-0.26354384 0.03695900 0.00000262
-0.15868138 -0.53585227 0.00000083
-0.67484566 -0.12524816 -0.00000069
-0.36759794 0.05168890 0.06939916
-0.62930571 0.10928615 0.00000014
-0.42316178 -0.45372581 0.00000108
-0.00277879 -0.22683069 0.00000180
-0.05941725 -0.30448985 0.00000173
-0.54504373 -0.46181378 0.02695757
-0.09757160 0.60719919 0.00000423
-0.17228971 0.16661320 -0.00000378
-0.11738051 0.33678941 0.00000391
-0.27024422 -0.54028898 0.00000081
-0.04205594 0.24420045 -0.00000567
-0.22226833 -0.79831361 0.00000001
-0.19189619 -0.02458221 0.00000300
-0.62880883 -0.65009346 0.03391346
-0.31552313 0.42175658 0.00000289
-0.06808907 -0.58724376 0.00000087
-0.22125345 0.32363996 0.00000573
-0.30539138 -0.34208357 0.00000143
-0.19252027 0.45472032 0.00000491
-0.16613163 -0.60374463 0.00000111
-0.21628949 -0.32345692 0.00000214
-0.22706605 0.48467952 0.11614677
-0.03732677 0.75440277 0.00000468
-0.14131992 0.05650827 0.00000310
-0.60419897 -0.46409308 0.00000028
-0.20691832 -0.10410144 0.00000280
-0.61796982 -0.72348374 0.00000210
-0.34177956 -0.46014276 0.00000106
-0.57603755 0.09458556 0.00000007
-0.37264208 0.27950989 0.00000187
-0.11743240 0.57336083 0.02836951
-0.37833070 0.22016640 0.16635392
-0.19850500 0.50540546 0.09209346
-0.53196887 -0.55880329 0.00000236
-0.03378907 -0.30330009 0.00000155
-0.39590143 -0.12099169 0.00000198
-0.60962023 0.14420529 -0.00000029
-0.32499372 -0.65407069 0.00000144
-0.68304972 -0.17117618 -0.00000073
-0.31425986 0.17592584 0.06714010
-0.19085168 0.54809482 0.00000338
-0.11016261 0.11324434 0.00000319
-0.31695462 0.15596235 0.06042770
-0.16115598 -0.24549265 0.00000173
-0.54739906 -0.40944254 0.05591328
-0.27692800 0.00531289 0.00000252
-0.51875992 -0.04954996 0.20092331
-0.17014623 0.17020469 0.00000303
-0.28148891 0.07926819 0.00000275
-0.31562527 -0.38837840 0.00000129
-0.21051792 0.46358981 0.00000327
-0.00510143 0.10188683 -0.00000970
-0.03083971 0.15593929 -0.00000785
-0.54308527 -0.53657865 0.00000082
-0.13095126 0.49897963 0.00754670
-0.17538715 -0.07063157 0.00000281
-0.79219655 -0.28550381 -0.00000129
-0.08810496 0.56075861 0.00000452
-0.55082822 -0.38611670 0.00000072
-0.55265711 -0.12820811 0.20250771
-0.43867337 0.35064699 0.00000117
-0.39380199 -0.59146289 0.00000065
-0.45436361 -0.23333029 0.03172685
-0.36800963 -0.43337445 0.00000226
-0.03121971 0.64717028 0.00000260
-0.56093426 0.02307240 0.28792388
-0.09640293 0.65110993 0.04182481
-0.35257707 -0.53622292 0.00000189
-0.55240329 -0.39844440 0.06742395
-0.66942996 -0.29241319 -0.00000050
-0.45957050 -0.72328656 0.00000024
-0.19543310 -0.19223943 0.00000190
-0.00126852 -0.24309968 0.00000174
-0.60645656 -0.59155748 0.00000036
-0.56376760 -0.76524146 0.00000181
-0.37833691 -0.28424312 0.00000161
-0.58413601 -0.05926287 0.00000012
-0.43345513 -0.03365999 0.10613556
-0.17012968 0.12946050 0.00000290
-0.27674301 0.10400961 -0.00000227
-0.24324803 -0.11754139 0.00000287
-0.47846829 0.02770092 0.00000389
-0.62508431 -0.65049932 0.02922646
-0.10487931 -0.42159184 0.00000118
-0.61529931 -0.29425734 0.00000002
-0.36358143 0.40598427 0.00000214
-0.34754320 0.05531931 0.04706189
-0.21872723 0.56421224 0.00000310
-0.17243764 -0.67695793 0.00000090
-0.58935274 -0.30796163 0.15704112
-0.10590336 -0.62051903 0.00000056
-0.51772444 0.03428600 0.24148711
-0.57263063 -0.27956540 0.15106896
-0.09217002 0.62215764 0.00000427
-0.07687175 0.10209209 -0.00000774
-0.72489601 -0.64225523 0.15351901
-0.51734998 0.03540070 0.00000306
-0.12778165 -0.10470615 0.00000217
-0.64280817 0.01072227 -0.00000050
-0.38695645 -0.21188652 0.00000301
-0.09440016 0.55147011 0.00000228
-0.10142931 -0.52136365 0.00000087
-0.26751959 0.02082603 0.00000778
-0.50117204 -0.44558365 0.00000111
-0.47389707 0.13026613 0.23658722
-0.37537584 0.14094702 0.12328376
-0.06223782 -0.44361526 0.00000111
-0.43800855 -0.22816135 0.01461222
-0.14747102 -0.37757834 0.00000132
-0.01324971 0.66662941 0.00000597
-0.63057504 -0.41420794 0.15368608
-0.00755626 0.63365386 0.00000450
-0.52021984 -0.27701842 0.08923311
-0.76123603 -0.04275774 -0.00000159
-0.27780499 0.05072604 0.00000736
-0.25796118 0.27642734 0.00000297
-0.22542507 0.32648789 0.03526945
-0.58039603 -0.54319241 0.02893720
-0.32185805 0.10185099 0.03934286
-0.03436492 0.24824604 0.00000338
-0.11661698 0.39991805 0.00000674
-0.40663174 -0.07689781 0.05227388
-0.41121581 0.08478817 0.00000166
-0.52818394 -0.07883479 0.19766490
-0.10046407 0.12680848 0.00000937
-0.53453108 -0.00573059 0.24176741
-0.63567532 -0.45408432 -0.00000003
-0.37550925 0.06611933 0.08612266
-0.23080035 0.54774959 0.00000300
-0.19996438 0.03304177 0.00000260
-0.62145275 -0.24886638 0.22516498
-0.17265741 -0.32620809 0.00000148
-0.53978099 -0.27287156 0.11485428
-0.24946889 0.50639674 0.00000285
-0.11107445 0.13487161 0.00000914
-0.08662952 -0.75517365 0.00000014
-0.45321874 0.02427684 0.00000441
-0.09487669 0.45004218 0.00000419
-0.24126666 -0.72081813 0.00000098
-0.35865881 -0.72262921 0.00000024
-0.45243720 -0.17132725 0.00000148
-0.24821287 0.13646065 0.00000706
-0.41198477 0.13322360 0.00000161
-0.37507892 -0.44126492 0.00000112
-0.46822110 -0.10441188 0.11270921
-0.07342821 0.68585273 0.00000439
-0.23163557 -0.25208670 0.00000241
-0.35399375 0.28293138 0.16835606
-0.13225980 -0.29502993 0.00000158
-0.03159844 0.33709331 0.00000857
-0.06482724 0.57385245 0.00000429
-0.09898637 0.45722356 0.00000040
-0.50205545 0.17268274 0.00000192
-0.11048776 0.14111938 -0.00000600
-0.43268555 -0.13663077 0.05385310
-0.44178584 0.11152338 0.18857533
-0.23836390 0.00448925 -0.00000543
-0.22664392 0.43115434 0.08894149
-0.08504566 0.25215489 -0.00000433
