ply
format ascii 1.0
element vertex 1373
property float x
property float y
property float z
end_header
-0.32247601 -0.38985511 -0.00000026
-0.79590830 0.58735934 -0.00000001
0.26654339 -0.46124474 -0.00000021
-0.71781597 -0.16155250 -0.00000006
-0.76502808 -0.37586247 0.00000000
0.34318671 -0.42615609 -0.00000023
0.47749703 0.23100897 0.03016865
-0.48189225 -0.21082082 -0.00000030
-0.07304320 -0.58202632 -0.00000014
-0.36913928 0.41032436 -0.00000053
0.05257545 0.42884377 -0.00000077
-0.43335559 0.01896547 -0.00000039
-0.21607074 -0.41845023 -0.00000024
0.56294279 -0.18298401 -0.00000055
0.38461214 0.16731510 0.08180022
-0.37969057 0.56681808 -0.00000053
-0.72478358 -0.46741719 0.00000000
-0.44790237 -0.66105615 -0.00000009
0.08282425 0.07168910 0.21284568
-0.75378376 0.11849035 -0.00000006
-0.45739969 0.58452169 -0.00000043
-0.30955856 0.42028360 -0.00000060
-0.42684582 -0.11654799 -0.00000038
0.04930776 0.05955741 -0.00000054
0.14801556 -0.23754383 -0.00000035
-0.07881993 0.45096833 -0.00000078
0.05902223 -0.69238231 -0.00000007
0.39895351 0.10237905 0.09848373
0.07890850 0.22450265 -0.00000064
-0.65421308 -0.31758444 -0.00000010
0.58003249 0.08608419 -0.00000086
0.76702506 -0.59359445 -0.00000026
-0.74260355 -0.16416930 -0.00000003
-0.15305797 0.44837495 -0.00000077
0.25967829 0.43951165 0.03324061
-0.17638672 -0.05666812 -0.00000046
-0.12240868 -0.72149123 -0.00000005
-0.18386914 -0.78288753 -0.00000001
-0.37309230 -0.14156125 -0.00000041
-0.19265257 0.21351670 -0.00000063
0.69039324 -0.09805857 -0.00000078
0.03674817 0.66174571 0.03347002
0.10607582 0.57952394 -0.00000088
-0.47790947 0.00207572 -0.00000034
-0.21478030 -0.64093228 -0.00000010
0.49643366 0.20619721 -0.00000090
-0.41051177 0.48653851 -0.00000049
0.33772477 0.03951597 -0.00000055
-0.06427583 -0.46260870 -0.00000021
-0.31820631 0.43506708 -0.00000059
-0.02414607 0.28859893 -0.00000068
-0.58943605 0.70456828 -0.00000026
-0.39742729 0.04753158 -0.00000044
-0.38047453 0.53501601 -0.00000052
0.16620828 -0.77871756 -0.00000001
0.77046065 -0.64509867 -0.00000019
0.03234133 0.54435878 0.07363106
-0.49783403 0.51605218 -0.00000038
0.53196935 -0.12723955 -0.00000058
-0.05248189 0.61925360 -0.00000089
-0.32331637 0.27785086 -0.00000056
0.29021790 -0.22789416 -0.00000036
-0.49862818 0.46891880 -0.00000038
-0.58266324 -0.00357641 -0.00000023
0.13291551 0.30602457 -0.00000069
0.14711651 -0.78913909 -0.00000001
0.67348283 -0.31656333 -0.00000053
0.23430937 0.06780303 -0.00000054
0.67124521 0.06582514 0.02074961
-0.05975137 0.27359638 -0.00000067
-0.05307396 -0.65137426 -0.00000009
0.29063612 0.15684102 0.11624245
0.75104090 -0.48302780 -0.00000040
-0.60745399 -0.13371700 -0.00000018
0.29107236 0.43394038 -0.00000092
0.13422513 0.21816922 0.14759528
-0.07022129 0.55087602 -0.00000084
0.17212858 -0.34139623 -0.00000029
0.19968821 0.10540978 -0.00000057
-0.73943810 -0.07346696 -0.00000005
0.49024655 0.27956722 0.00995253
0.02769226 -0.06167767 -0.00000046
0.24026009 -0.75514516 -0.00000003
-0.76460919 -0.53234621 0.00000000
-0.22891600 -0.13180099 -0.00000042
-0.64653842 -0.38934069 -0.00000009
0.46981673 -0.62470058 -0.00000011
-0.14882839 -0.05609766 -0.00000046
-0.61834144 0.76654460 -0.00000023
-0.47913168 0.02271069 -0.00000035
-0.37808567 -0.26555369 -0.00000033
-0.61857232 -0.31276630 -0.00000014
0.67967701 -0.23364351 -0.00000062
-0.39201034 -0.56727419 -0.00000015
0.21613540 -0.29484717 -0.00000032
-0.70192696 0.66739731 -0.00000012
-0.74291167 -0.51141618 0.00000000
0.54859332 -0.18328283 -0.00000054
-0.09849784 0.37611982 -0.00000074
-0.64899221 -0.24547456 -0.00000012
-0.59369344 0.03444306 -0.00000023
0.56541949 0.20904490 -0.00000097
0.34147403 -0.56964380 -0.00000014
-0.01330526 -0.45321162 -0.00000022
-0.40844582 0.65029751 -0.00000049
-0.22639327 0.19804912 -0.00000062
0.65531205 -0.15706692 -0.00000068
-0.77750125 -0.06664620 -0.00000001
-0.38575135 -0.27799551 -0.00000033
-0.44222674 0.54916567 -0.00000045
-0.37008944 -0.53971357 -0.00000016
0.50180926 -0.52650705 -0.00000017
-0.27138270 -0.00424764 -0.00000050
0.34541782 0.44965619 0.00162301
-0.52156583 0.58516940 -0.00000035
-0.75749559 0.32143864 -0.00000005
0.74594477 0.04945495 -0.00000100
-0.68379259 -0.68488956 0.00000000
0.14594959 0.40090610 -0.00000075
-0.57816363 0.72890250 -0.00000028
0.73879141 0.01101708 -0.00000095
0.30196495 -0.33797103 -0.00000029
-0.43883510 -0.28448453 -0.00000032
-0.66091816 -0.39877737 -0.00000008
-0.56599158 0.16776578 -0.00000028
0.42539384 -0.51086225 -0.00000018
-0.46210918 -0.48737497 -0.00000020
-0.32466623 0.36937926 -0.00000057
-0.07007784 -0.33155066 -0.00000029
0.21455618 -0.12648519 -0.00000042
-0.48878813 -0.16884792 -0.00000030
-0.77704651 -0.28349582 0.00000000
0.74453385 -0.15388905 -0.00000078
0.05935086 -0.78519465 -0.00000001
0.16543025 0.44632806 -0.00000080
0.18180907 0.16272538 -0.00000060
0.14480739 -0.60936708 -0.00000012
-0.17162127 -0.42201866 -0.00000024
0.03220874 0.31167384 0.15040177
-0.03943675 -0.33457609 -0.00000029
0.09089395 0.09175888 0.20356681
0.37843806 -0.77829226 -0.00000001
0.78396094 -0.22588208 -0.00000072
0.13360548 0.26751957 -0.00000067
-0.04993071 -0.16733622 -0.00000040
-0.23674166 0.63868667 -0.00000070
0.10556782 -0.35874378 -0.00000028
0.57614384 0.14328373 0.02656729
-0.69952209 -0.28007859 -0.00000006
-0.59723753 -0.66124447 -0.00000009
0.32200097 0.14707292 -0.00000065
0.02117838 -0.62254064 -0.00000011
-0.27365333 0.54834351 -0.00000066
-0.37501435 0.39221120 -0.00000053
-0.72154857 -0.55268934 0.00000000
-0.72129236 -0.55290461 0.00000000
-0.49356066 -0.03723237 -0.00000032
0.30454611 0.10614110 0.12837382
-0.29029583 0.48948236 -0.00000063
-0.19154507 -0.65680422 -0.00000009
0.53795678 -0.06505845 -0.00000065
0.11056543 -0.55618059 -0.00000015
-0.74612525 0.45499387 -0.00000007
-0.41338706 -0.06619846 -0.00000040
-0.17769716 -0.45742515 -0.00000021
0.60132975 -0.67617276 -0.00000008
0.21105355 0.28121823 0.10147140
0.16893452 -0.18158471 -0.00000039
0.37381132 -0.20028715 -0.00000037
0.24858721 -0.35661080 -0.00000028
0.31654636 0.19157581 0.09624486
-0.16271909 0.41986214 -0.00000076
0.08842526 -0.76570038 -0.00000002
0.07739312 0.05550785 -0.00000053
0.04319346 0.19971326 0.18369821
-0.12204600 0.28952757 -0.00000068
-0.15440779 -0.67458252 -0.00000008
0.30972936 -0.45399618 -0.00000022
-0.64271647 -0.02430993 -0.00000016
0.71025730 -0.10963644 -0.00000079
-0.09835390 -0.11395768 -0.00000043
0.20346048 0.13950267 0.15070534
-0.47935928 -0.77223951 -0.00000002
-0.14048683 -0.15943610 -0.00000040
0.14531684 0.57388466 0.02664183
-0.24538648 -0.56907206 -0.00000014
0.14489910 0.60375526 -0.00000095
-0.31567416 0.14187722 -0.00000054
0.00201074 -0.43914167 -0.00000023
-0.08083879 -0.04466792 -0.00000047
-0.54282835 0.19790499 -0.00000031
-0.07464383 0.56129289 -0.00000085
0.41321743 -0.28117912 -0.00000032
0.30894336 0.23020772 0.08601314
-0.36703236 0.65188165 -0.00000054
-0.30048632 0.09996724 -0.00000055
-0.07636514 -0.32028131 -0.00000030
0.65388076 0.02218295 0.04086645
-0.62103772 -0.71543265 -0.00000005
0.06679150 0.26332695 -0.00000066
-0.25143237 0.08606019 -0.00000055
-0.22872990 -0.64482818 -0.00000010
-0.16100037 -0.09806183 -0.00000044
0.27127983 0.29632428 0.07663080
0.13880731 0.47674407 -0.00000080
-0.37724242 -0.28032011 -0.00000032
0.43199861 -0.43163956 -0.00000023
-0.79292059 -0.68256747 0.00000000
-0.54606554 0.44616058 -0.00000032
-0.41223817 0.13699867 -0.00000044
-0.60555635 0.24259501 -0.00000024
-0.73275944 0.61092227 -0.00000008
-0.26499395 -0.22639374 -0.00000036
-0.62391511 -0.00451692 -0.00000019
-0.70282977 0.69572050 -0.00000012
-0.04648558 -0.55813133 -0.00000015
-0.60976730 -0.29467954 -0.00000015
-0.62905521 -0.32097926 -0.00000012
0.33952109 -0.69499961 -0.00000007
-0.46391471 -0.31982090 -0.00000030
-0.09724603 0.40591228 -0.00000075
-0.59603865 0.24740878 -0.00000025
-0.50935277 -0.35252235 -0.00000025
-0.73147115 0.38111875 -0.00000009
-0.57892797 -0.37645186 -0.00000017
-0.08988271 -0.01087410 -0.00000049
-0.72477617 -0.67449438 0.00000000
0.07789785 -0.04691337 -0.00000047
-0.71535312 0.41400826 -0.00000011
0.69299998 -0.63122611 -0.00000021
0.76627172 -0.61448771 -0.00000023
-0.37259559 -0.34664803 -0.00000028
0.21732546 0.16782527 -0.00000060
0.04869993 0.61153262 -0.00000088
0.19591220 -0.37194711 -0.00000027
-0.14365352 0.54993922 -0.00000080
-0.16897209 -0.27748166 -0.00000033
-0.35961566 0.70142966 -0.00000055
-0.35900192 0.15948073 -0.00000050
-0.63564155 0.68259076 -0.00000021
-0.75505110 0.37250152 -0.00000006
0.44562270 0.02035755 0.11014109
-0.36263968 0.16755135 -0.00000050
-0.03785067 -0.40213080 -0.00000025
0.48906269 -0.57038316 -0.00000014
-0.56674656 -0.18271869 -0.00000022
0.09846209 -0.12880287 -0.00000042
0.38103493 -0.58978502 -0.00000013
0.78153257 -0.28107168 -0.00000065
-0.08213675 0.68857308 -0.00000089
-0.12755560 0.79395503 -0.00000084
-0.75015844 -0.20347242 -0.00000002
-0.16172012 0.42639960 -0.00000076
-0.03568172 0.55356540 -0.00000085
0.47607704 0.03477951 -0.00000069
-0.47098255 -0.52282357 -0.00000017
0.03349715 0.62053546 0.04813095
0.45245801 0.02673597 -0.00000066
0.06057882 0.69973046 -0.00000096
-0.35501683 0.64958443 -0.00000056
-0.72475785 -0.32567931 -0.00000002
0.61636736 -0.42795576 -0.00000035
-0.44122582 0.01062083 -0.00000038
-0.71526855 0.36103139 -0.00000011
0.68012720 0.03364557 -0.00000091
-0.43120296 -0.14990343 -0.00000037
-0.35188055 0.08803101 -0.00000049
0.29272913 0.28899917 0.07197338
-0.08559894 -0.32323139 -0.00000030
-0.15026681 -0.73664588 -0.00000004
0.30750484 -0.06227255 -0.00000046
0.65495116 -0.13758558 -0.00000070
-0.01563946 0.37230940 -0.00000073
0.39172473 0.29056964 0.03881190
0.31993160 0.34062247 0.04598072
0.45980956 0.24189147 0.03241258
0.08157682 -0.32301287 -0.00000030
-0.23950636 -0.37115551 -0.00000027
-0.38234890 0.23432909 -0.00000049
0.27707598 0.06341297 -0.00000054
-0.68800509 0.03795778 -0.00000013
0.56699441 0.08559537 0.04860693
-0.28240556 0.73269936 -0.00000065
-0.31986885 0.35948053 -0.00000058
0.15300484 -0.35908009 -0.00000028
-0.61391600 -0.20753712 -0.00000016
-0.05972962 -0.47119559 -0.00000021
0.56638706 -0.50916629 -0.00000021
0.23752439 0.05651973 0.16683629
0.10494326 -0.00336603 -0.00000050
0.48294978 -0.21384044 -0.00000043
0.03065410 0.11039149 -0.00000057
-0.38229238 -0.55747625 -0.00000015
0.17671060 -0.71697095 -0.00000005
0.09298018 -0.24376835 -0.00000035
0.03306858 -0.78355660 -0.00000001
0.23741450 0.33520568 0.07497676
0.44811637 -0.30074323 -0.00000031
-0.67148331 0.22467181 -0.00000016
-0.06029811 0.62822181 -0.00000089
-0.59078298 -0.30710725 -0.00000017
0.09728626 0.53889468 -0.00000084
-0.14499486 -0.42408652 -0.00000023
0.76087551 -0.15493206 -0.00000079
0.62398800 0.08231863 -0.00000090
-0.41972250 0.25789736 -0.00000045
-0.33076289 0.58736635 -0.00000059
0.03982642 -0.76347893 -0.00000002
0.24586639 -0.08138280 -0.00000045
0.46959925 -0.60953001 -0.00000012
0.63441329 -0.62213987 -0.00000016
0.07597509 -0.59776454 -0.00000013
-0.45980470 0.64510366 -0.00000043
-0.67501566 -0.49892152 -0.00000004
-0.19659417 -0.04743855 -0.00000047
0.52983511 -0.03162349 -0.00000068
0.16564634 -0.57882472 -0.00000014
0.13886919 0.50300919 -0.00000083
-0.50560996 -0.72284344 -0.00000005
0.27560031 0.25854972 0.08766223
-0.46278435 0.79504664 -0.00000042
-0.53815917 -0.66191327 -0.00000009
0.14804495 0.10885917 0.17908286
-0.69141800 -0.34170457 -0.00000005
-0.47481268 0.09525761 -0.00000036
-0.51180389 0.25033524 -0.00000035
-0.75600975 -0.30076388 0.00000000
-0.68260362 -0.52415873 -0.00000003
-0.71421283 0.07819409 -0.00000011
-0.74674362 0.17361089 -0.00000007
-0.51188694 -0.59163261 -0.00000013
-0.06638385 -0.55176885 -0.00000016
-0.46410205 0.06320626 -0.00000037
0.23755883 0.06704550 0.16335410
-0.17385299 -0.72595253 -0.00000005
-0.72262599 0.00812591 -0.00000008
0.32782781 -0.24645488 -0.00000035
-0.44213746 -0.30497094 -0.00000031
0.58155150 -0.37068040 -0.00000037
-0.24744718 -0.26127978 -0.00000034
-0.50099359 -0.10184472 -0.00000030
0.47180388 -0.22363503 -0.00000041
0.13554388 0.55543165 0.03594930
0.05774680 0.48650194 0.08433184
0.14986414 -0.53270832 -0.00000017
-0.49619489 0.07644858 -0.00000034
-0.11138915 -0.77308249 -0.00000002
0.22935495 -0.65288388 -0.00000009
-0.02500645 -0.00018150 -0.00000050
-0.57270856 -0.37973271 -0.00000017
-0.44243232 -0.63796104 -0.00000010
-0.03846156 0.20914361 -0.00000063
-0.68786069 -0.09981797 -0.00000010
0.34949229 0.42272348 0.00916048
0.16094011 -0.67996556 -0.00000008
0.17420811 -0.64021155 -0.00000010
-0.45501820 0.72745491 -0.00000043
-0.62977097 0.38210198 -0.00000021
-0.53853572 -0.77051490 -0.00000002
0.43773664 0.35580903 0.00212698
-0.56476030 0.38917296 -0.00000029
0.45220304 -0.07839983 -0.00000055
-0.02121641 -0.55256115 -0.00000015
-0.42714492 0.25147984 -0.00000044
0.42911930 0.35698245 -0.00000099
0.17545283 0.32888479 0.09749265
-0.57834388 0.63283707 -0.00000028
0.06847833 0.70434632 -0.00000097
-0.49268072 -0.62367379 -0.00000011
-0.28950972 -0.52185116 -0.00000017
-0.20776317 -0.47392807 -0.00000020
0.10713450 0.18475911 0.16754511
-0.62488578 -0.02348871 -0.00000018
-0.41024209 0.74405320 -0.00000049
-0.29317128 -0.44581203 -0.00000022
-0.68712615 0.50713726 -0.00000014
-0.63564300 -0.16844724 -0.00000014
0.52292435 0.10076110 -0.00000081
0.07475627 0.61676645 -0.00000089
0.22980724 0.40353166 0.05495487
0.59867936 -0.08432684 -0.00000070
-0.78735845 0.09310923 -0.00000002
0.30687331 0.04127800 -0.00000053
-0.61046919 -0.27422201 -0.00000015
0.44122239 -0.02300849 -0.00000059
0.35407655 0.05789743 -0.00000059
0.37574262 -0.06076167 -0.00000048
-0.33288870 -0.64091149 -0.00000010
0.04039067 0.61234226 -0.00000088
0.25274548 0.10680282 -0.00000057
-0.61891888 -0.34959121 -0.00000013
0.32055975 0.03976277 -0.00000053
0.47294567 -0.49099094 -0.00000019
0.51599450 0.12835194 0.05132515
-0.74259803 -0.39057335 0.00000000
0.76724271 -0.51728480 -0.00000035
-0.20037033 -0.76645456 -0.00000002
0.40310069 -0.13861933 -0.00000043
0.04842009 0.23158199 0.17146616
0.09089507 0.57725359 0.04347637
0.27457574 0.39863792 0.04180624
-0.68423612 0.76482563 -0.00000014
0.39555397 0.09253272 0.10285153
-0.18322995 0.35847767 -0.00000072
0.01088371 -0.60428289 -0.00000012
0.03417386 0.54674040 0.07224146
-0.76006211 0.75235830 -0.00000005
-0.59465787 -0.42196717 -0.00000014
0.02230974 -0.43253997 -0.00000023
0.18332812 0.37085435 -0.00000074
0.00598558 -0.14158371 -0.00000041
-0.59876961 0.72302831 -0.00000025
-0.55946598 0.67033668 -0.00000030
0.49702242 -0.16614180 -0.00000050
0.17323804 0.11827607 0.16767040
-0.08886575 0.07110071 -0.00000054
0.11419519 0.04240689 -0.00000053
-0.79766036 0.53621212 -0.00000000
0.47482320 0.21799724 0.03534094
-0.65489358 0.60148600 -0.00000018
-0.11141918 -0.41178214 -0.00000024
-0.44617891 0.65265702 -0.00000044
-0.30953049 -0.28740444 -0.00000032
-0.11932221 -0.72808241 -0.00000004
0.32402475 -0.33588567 -0.00000029
0.33742936 0.12707913 -0.00000064
0.37230540 -0.70482271 -0.00000006
0.18990602 -0.33353703 -0.00000029
-0.71551744 -0.60828028 0.00000000
0.17388973 -0.65981475 -0.00000009
-0.47717863 0.70449039 -0.00000040
-0.69178389 -0.13617736 -0.00000009
-0.48789065 -0.04719132 -0.00000032
0.38196529 0.23664055 0.05981307
0.60065936 -0.24371418 -0.00000053
-0.24138052 -0.29257849 -0.00000032
-0.27616700 0.39278174 -0.00000063
0.03046593 0.45212228 0.10466410
-0.05820872 -0.46418941 -0.00000021
-0.49498515 0.65464559 -0.00000038
-0.79046705 0.62002645 -0.00000001
-0.60582022 -0.78396131 -0.00000001
0.17554721 0.12108917 -0.00000058
-0.55434465 0.27349489 -0.00000031
-0.07847687 0.23654948 -0.00000065
-0.68110497 0.53470750 -0.00000015
0.13845094 0.26618041 0.13037033
0.67821034 0.03998763 0.02697275
-0.39918291 0.17469119 -0.00000046
0.67111551 -0.78812070 -0.00000001
-0.40384094 0.40895768 -0.00000050
-0.41798440 -0.30829117 -0.00000031
0.06826300 -0.44066820 -0.00000022
0.01817829 0.65828913 0.04073312
-0.42352061 -0.16517453 -0.00000037
-0.57191471 -0.42588085 -0.00000017
-0.29239499 0.35387555 -0.00000061
0.11330561 0.09049798 0.19659248
-0.17252851 0.49928348 -0.00000076
-0.06603087 0.62148829 -0.00000089
-0.26405403 0.58471331 -0.00000067
-0.47809066 0.52613274 -0.00000040
0.65965288 -0.21256707 -0.00000062
0.31386143 0.47574724 0.00342520
-0.00128497 -0.77747702 -0.00000001
0.22385306 -0.13114564 -0.00000042
-0.68206170 -0.12569309 -0.00000010
0.69953775 -0.06721337 -0.00000082
-0.69514719 0.59054175 -0.00000013
0.09250348 -0.08549155 -0.00000045
0.23301122 0.28977634 -0.00000070
0.18545583 -0.60383418 -0.00000012
0.61040409 0.01406510 0.05787965
-0.08033905 -0.64126964 -0.00000010
0.50241079 -0.19069967 -0.00000048
0.72759433 0.04239360 0.00989510
0.33420703 0.00225185 -0.00000051
0.59689642 0.03250093 0.05625459
0.55935659 0.02168910 -0.00000077
-0.10351144 0.25218005 -0.00000066
0.26815287 -0.38450995 -0.00000026
-0.42156570 -0.01104106 -0.00000040
-0.07732708 -0.08510060 -0.00000045
0.63504594 -0.18413929 -0.00000063
0.36899114 -0.05553469 -0.00000048
-0.54744936 0.39427339 -0.00000032
-0.24191267 0.37818509 -0.00000066
-0.54202080 -0.20128770 -0.00000024
-0.07544092 -0.38993352 -0.00000026
0.70252072 -0.11114440 -0.00000078
-0.39220511 0.50730291 -0.00000051
0.37583222 -0.11715486 -0.00000043
-0.64707987 0.75135087 -0.00000019
-0.55444332 0.32672443 -0.00000031
-0.08652773 0.02617991 -0.00000052
-0.05219576 0.39016244 -0.00000074
-0.51851322 0.01285943 -0.00000030
-0.72368680 0.47303842 -0.00000010
-0.05448286 -0.37519659 -0.00000027
0.36014271 0.33460411 -0.00000089
-0.63278148 -0.47753937 -0.00000009
-0.59016681 0.25247093 -0.00000026
0.13844937 -0.79239842 -0.00000000
-0.40202778 -0.49424983 -0.00000019
-0.02616859 -0.58717906 -0.00000013
-0.14184122 0.52316745 -0.00000080
0.15495470 0.59716569 0.01578689
0.19166842 -0.34869769 -0.00000028
0.30115987 -0.49871366 -0.00000019
-0.08161830 0.77746859 -0.00000090
0.21329431 0.18525600 -0.00000062
0.08377989 0.04860361 0.22014292
0.53533111 0.11197231 0.05035010
-0.72268973 -0.61207196 0.00000000
-0.33989024 0.53369563 -0.00000058
-0.32580291 -0.25735684 -0.00000034
-0.17515986 0.40298345 -0.00000074
-0.15419323 0.56349899 -0.00000079
-0.31543885 0.32631327 -0.00000058
0.43923934 -0.79323115 -0.00000000
-0.58843962 -0.60730426 -0.00000011
0.16639124 -0.57108638 -0.00000014
0.52226165 0.17258972 0.03467125
0.20046430 0.10358912 -0.00000056
-0.64708673 0.33140020 -0.00000019
0.59017397 0.17812772 0.01045114
0.57500704 0.19828767 0.00880469
0.59488157 0.19084747 0.00470450
-0.01740792 0.55280194 -0.00000085
-0.61737563 -0.79884466 -0.00000000
-0.72260615 0.18650073 -0.00000010
-0.70806419 -0.73307911 0.00000000
0.19589299 0.31032022 -0.00000069
0.05565180 0.49813077 0.08118808
-0.12171774 0.36585023 -0.00000073
0.76222689 -0.74636716 -0.00000007
0.32257615 -0.46046295 -0.00000021
0.40765933 -0.47800649 -0.00000020
-0.59391304 0.36588513 -0.00000026
0.18318173 -0.17341494 -0.00000039
0.71540866 -0.56874091 -0.00000029
-0.76775397 -0.78542721 0.00000000
0.50668027 -0.49119056 -0.00000019
-0.56178727 -0.54792202 -0.00000015
0.11497128 0.16522564 0.17140207
-0.00003948 0.23290549 -0.00000065
-0.32974181 0.75449610 -0.00000059
-0.30348883 -0.34592773 -0.00000028
0.13101951 0.30223517 -0.00000069
-0.00990847 -0.28913677 -0.00000032
0.26659146 0.17839291 0.11706437
0.63009069 0.10377887 0.02180507
0.46991133 -0.07282255 -0.00000057
-0.54842104 0.52742826 -0.00000031
0.56293520 -0.72080076 -0.00000005
-0.60699257 -0.78282216 -0.00000001
-0.40708970 -0.42880768 -0.00000023
0.15810213 0.42181132 0.07257176
0.10720785 -0.67787067 -0.00000008
0.12891243 0.42879247 0.07989488
-0.40004743 -0.60035223 -0.00000012
0.09641464 0.52328122 0.05945352
-0.72481569 0.51625623 -0.00000009
-0.23813098 0.61314502 -0.00000070
-0.02325728 -0.50147668 -0.00000019
0.00631458 -0.17113481 -0.00000039
0.62726714 0.15281037 0.00656808
0.38477308 0.09292842 0.10627603
-0.00446840 0.38970071 -0.00000074
0.55795771 -0.08730331 -0.00000065
-0.69214604 -0.69753996 0.00000000
0.07505102 0.67482656 -0.00000095
0.67463558 -0.65578369 -0.00000017
0.11416156 0.14940379 -0.00000059
-0.36305130 -0.65228626 -0.00000009
-0.59726122 -0.03340103 -0.00000021
-0.12223983 -0.54526489 -0.00000016
-0.32425728 0.37160218 -0.00000058
0.16447349 -0.72918709 -0.00000004
0.44940616 0.06723323 0.09343633
-0.75579844 0.66372565 -0.00000006
0.62022346 0.11925733 -0.00000094
-0.02120316 -0.79158658 -0.00000001
-0.65261095 -0.50397259 -0.00000006
0.00295535 -0.42738628 -0.00000023
0.30806768 -0.09923988 -0.00000044
-0.69584323 -0.44892686 -0.00000003
0.39523472 -0.23534236 -0.00000035
-0.12574161 -0.53657106 -0.00000016
-0.12861147 -0.14605362 -0.00000041
0.14825075 -0.68849925 -0.00000007
0.22827109 -0.78893677 -0.00000001
0.10557037 -0.41034061 -0.00000024
0.55985297 0.09607405 0.04750648
-0.34919602 0.31783239 -0.00000054
0.32446823 0.22893492 -0.00000074
0.36601954 0.02504162 -0.00000056
-0.49642068 0.69463388 -0.00000038
0.38309180 -0.20885478 -0.00000037
0.19362617 0.13090162 -0.00000058
0.05882327 0.71331493 -0.00000097
0.27077605 0.06380411 -0.00000054
0.33374122 0.29444337 -0.00000082
0.17230128 -0.02720550 -0.00000048
0.37244076 0.33963172 0.02899261
0.28672131 0.20158138 0.10278031
-0.42626138 -0.01941235 -0.00000040
0.61431503 -0.20047864 -0.00000059
0.05994541 0.41338699 0.10771624
-0.08634811 0.16506294 -0.00000060
-0.70314457 -0.09524939 -0.00000009
0.21818317 -0.26643011 -0.00000033
0.15973225 0.32245213 -0.00000070
-0.43813931 0.02992516 -0.00000039
0.00989823 0.66457970 0.04138913
-0.16226340 -0.01926835 -0.00000049
0.09647904 -0.69603237 -0.00000006
-0.25582923 0.20395967 -0.00000062
0.34138582 -0.40145343 -0.00000025
-0.62818614 -0.13984366 -0.00000016
-0.17934508 0.26482109 -0.00000067
0.41356902 0.28756681 0.03259896
-0.74411561 -0.61656663 0.00000000
0.02290135 -0.02960008 -0.00000048
0.20202159 0.22598005 -0.00000064
-0.12364391 -0.69514478 -0.00000007
0.56235935 0.12863643 0.03594262
0.00890783 -0.24364463 -0.00000035
0.18672822 0.59336735 0.00656212
0.49316900 0.24583614 0.02011162
0.11631292 -0.52059491 -0.00000017
-0.61756759 0.11649493 -0.00000022
-0.47555897 0.13312415 -0.00000037
0.02882092 0.36059984 0.13538572
0.32831465 0.08400403 -0.00000059
0.12444578 0.20345499 -0.00000063
-0.55149150 0.11673455 -0.00000029
-0.27239688 -0.31694589 -0.00000030
-0.17939883 -0.30868807 -0.00000031
-0.65932051 -0.01940208 -0.00000015
-0.18848017 0.77101191 -0.00000076
-0.07363895 0.46733649 -0.00000079
-0.30662640 -0.42262485 -0.00000024
0.51682537 0.10493804 -0.00000081
-0.34267724 -0.05895772 -0.00000046
0.41292605 -0.67438311 -0.00000008
0.62564245 0.06134362 -0.00000088
-0.06691882 -0.48788416 -0.00000020
-0.52089218 -0.22516615 -0.00000026
0.58843298 -0.28888389 -0.00000047
0.31507438 -0.72914897 -0.00000004
0.32518903 -0.18252794 -0.00000039
0.09465981 0.13872563 0.18683794
0.02324083 -0.74409515 -0.00000003
-0.77035194 -0.14018636 -0.00000001
0.26149201 -0.02334959 -0.00000049
0.24183028 0.14543118 0.13609823
0.47476790 -0.10535385 -0.00000054
-0.15071275 0.46096031 -0.00000078
-0.01580876 0.62341523 -0.00000089
0.19621760 -0.04431764 -0.00000047
-0.40773324 -0.74603699 -0.00000003
0.12370703 0.39772554 -0.00000075
0.33726582 0.18941448 -0.00000071
-0.10688876 0.34496426 -0.00000072
-0.31823529 0.15657034 -0.00000054
0.37333045 -0.20481483 -0.00000037
0.74287116 -0.16679403 -0.00000076
-0.03482301 0.33477020 -0.00000071
-0.70258937 -0.35470117 -0.00000004
-0.79570336 -0.13983440 0.00000000
-0.56026718 -0.28498819 -0.00000020
0.27887924 0.41004484 0.03662576
0.57057784 -0.64528074 -0.00000010
0.20292342 0.54412833 0.01745826
-0.26398821 -0.16561861 -0.00000040
-0.53167021 -0.70690303 -0.00000006
-0.39883705 -0.22092725 -0.00000036
0.38462455 -0.60746620 -0.00000012
0.42026211 0.21226562 -0.00000082
0.16246002 0.27765056 0.11867125
-0.22523422 -0.76491175 -0.00000002
-0.32480543 0.05169394 -0.00000052
0.50450286 -0.53329971 -0.00000017
-0.01116242 -0.17024329 -0.00000039
-0.05387554 -0.37474302 -0.00000027
-0.27342249 0.56399431 -0.00000066
0.45559915 0.28659032 0.01906159
-0.47945233 0.69768146 -0.00000040
0.42514290 0.16991820 0.06757691
0.01464901 -0.45153296 -0.00000022
-0.64503396 -0.59550079 -0.00000006
-0.40565709 -0.38841964 -0.00000026
0.22334002 -0.02099550 -0.00000049
0.11236219 0.36765730 -0.00000073
-0.66299139 -0.28241817 -0.00000009
0.19119961 -0.52897501 -0.00000017
0.77457453 -0.45554534 -0.00000043
0.16034279 -0.29196880 -0.00000032
0.35242895 0.24662088 0.06626163
0.05303886 0.74362315 -0.00000100
-0.32259054 -0.33886526 -0.00000029
0.39407783 0.02978191 0.12403025
-0.19408195 -0.39643348 -0.00000025
-0.08060806 0.21527205 -0.00000063
-0.56156401 0.34060599 -0.00000030
0.09629403 -0.02989487 -0.00000048
-0.06760897 0.07931503 -0.00000055
-0.71998345 -0.70312572 0.00000000
0.32623467 0.33939850 0.04430590
0.21562481 0.13244735 -0.00000058
0.37645013 -0.67294697 -0.00000008
0.42796984 -0.17368534 -0.00000042
-0.51196100 -0.02770478 -0.00000030
-0.68130497 -0.32644978 -0.00000007
0.18425725 0.42309417 -0.00000079
0.40998303 -0.04818164 -0.00000053
-0.52294842 0.63763068 -0.00000035
-0.29370180 -0.18993737 -0.00000038
-0.40854140 -0.18399348 -0.00000038
0.36077375 0.12410164 -0.00000066
0.08000619 -0.05849011 -0.00000046
0.63774082 -0.08914393 -0.00000073
-0.53045007 0.37758928 -0.00000034
-0.14423794 -0.32343186 -0.00000030
0.12101892 -0.46737239 -0.00000021
-0.72339581 -0.15921208 -0.00000005
-0.72392686 -0.29815386 -0.00000003
0.61902990 -0.58932327 -0.00000018
-0.12819784 0.29054932 -0.00000068
0.01461703 0.54947798 -0.00000084
-0.50925650 0.01608731 -0.00000031
0.31705391 0.43102333 0.01712011
-0.23165954 -0.18141304 -0.00000039
-0.05432613 -0.77332984 -0.00000002
-0.64065584 -0.62789228 -0.00000006
0.04839058 0.57603431 -0.00000086
-0.02489016 0.32321082 -0.00000070
0.17539021 -0.74449381 -0.00000003
-0.01475613 0.11611332 -0.00000057
-0.44833347 0.31120268 -0.00000043
0.34217365 0.28173242 -0.00000081
-0.22616768 0.02573647 -0.00000052
-0.36655128 0.31685886 -0.00000052
0.14962171 0.48579685 0.05426911
-0.59273503 -0.26474503 -0.00000017
-0.05395744 -0.65408511 -0.00000009
0.26589344 0.04654252 0.16077172
0.48656786 0.10680023 0.06813517
-0.37629104 -0.33109647 -0.00000029
0.35995867 0.34501489 0.03133347
-0.50627742 -0.04222295 -0.00000031
0.64237336 -0.02334432 -0.00000081
-0.16844744 0.53866688 -0.00000077
-0.38543911 0.55109227 -0.00000052
0.41139327 -0.28152448 -0.00000032
0.59376378 0.12806513 0.02577545
0.40012598 -0.23819021 -0.00000035
0.65161153 -0.10025003 -0.00000073
-0.44291646 -0.65523527 -0.00000009
0.08883362 0.22220487 0.16123212
0.42611753 -0.52688104 -0.00000017
-0.28282873 0.33609419 -0.00000061
0.38652374 -0.54322059 -0.00000016
-0.77423567 -0.65865168 0.00000000
0.15125903 0.21463595 0.14314354
-0.27673185 0.03907231 -0.00000052
-0.23291775 0.02379495 -0.00000051
0.34235486 0.41942224 0.01260261
0.31193599 0.12659108 -0.00000061
-0.59356127 0.12946948 -0.00000024
0.69221778 -0.66631536 -0.00000017
-0.17553872 0.69817955 -0.00000078
-0.67623680 -0.71805274 -0.00000000
0.76677421 -0.43060450 -0.00000046
0.37336098 0.04383001 0.12622926
0.07945815 0.20111362 0.17127838
0.22492353 -0.40622129 -0.00000025
0.57445716 -0.23424851 -0.00000051
-0.74046175 -0.27270806 -0.00000001
-0.52416900 -0.00696507 -0.00000029
0.33377479 0.22520405 -0.00000074
-0.45345054 -0.63850820 -0.00000010
-0.22322774 0.62585680 -0.00000072
-0.23387677 0.68832376 -0.00000071
0.16268550 0.11490378 0.17226204
-0.23541077 -0.09775919 -0.00000044
-0.12040897 -0.35471349 -0.00000028
-0.21058491 0.61913731 -0.00000074
-0.20652797 -0.16438344 -0.00000040
0.29911201 -0.44525172 -0.00000022
-0.16968389 -0.36469942 -0.00000027
0.16389768 0.03384148 -0.00000052
-0.66022608 -0.69137091 -0.00000002
0.16439732 0.51269660 0.04052673
-0.33451261 -0.15025453 -0.00000041
0.67564218 -0.51563498 -0.00000032
-0.23030758 0.71599983 -0.00000071
-0.06859389 -0.30468563 -0.00000031
0.52269173 0.05838785 0.07218729
0.32509234 -0.04980328 -0.00000047
0.11963781 0.36342798 -0.00000073
0.49301248 -0.10705714 -0.00000056
-0.07073028 0.35675763 -0.00000072
0.18317432 0.49863563 0.03897163
-0.01665899 0.30345961 -0.00000069
0.32936198 -0.67816487 -0.00000008
0.18778470 -0.39546124 -0.00000025
0.70638761 -0.20700082 -0.00000068
0.63483892 -0.58583858 -0.00000020
0.74185434 -0.45346794 -0.00000043
0.26530584 -0.19665596 -0.00000038
-0.75533535 0.61329677 -0.00000006
0.57653169 0.07231354 -0.00000084
-0.67978979 0.72044630 -0.00000015
0.22421455 -0.29404088 -0.00000032
-0.66554432 -0.13484947 -0.00000012
-0.61034085 -0.74093698 -0.00000004
0.72010341 -0.46580211 -0.00000042
-0.33636857 -0.03925254 -0.00000048
-0.63898549 0.29881289 -0.00000020
-0.21973239 -0.56581777 -0.00000015
0.46624901 0.19582093 -0.00000085
-0.66678811 0.59337004 -0.00000017
0.39641419 0.13112259 0.08984293
0.25107920 0.35003954 0.06557941
-0.03267203 -0.60924122 -0.00000012
-0.39163912 0.77760692 -0.00000051
-0.38117971 0.57190741 -0.00000052
-0.05787947 -0.41020318 -0.00000024
-0.27867063 -0.38536561 -0.00000026
0.15576609 -0.06529819 -0.00000046
-0.23006859 0.64253474 -0.00000071
0.44773862 -0.11032414 -0.00000051
-0.59290183 -0.03671996 -0.00000021
-0.15418173 0.45299880 -0.00000077
-0.44048064 -0.64150635 -0.00000010
0.43958991 -0.63654444 -0.00000010
0.07681148 0.66746743 -0.00000094
-0.70861305 -0.10576894 -0.00000008
-0.35433725 0.39406223 -0.00000055
-0.40332533 -0.69011433 -0.00000007
-0.45711167 -0.73458807 -0.00000004
-0.12924840 0.07696537 -0.00000055
-0.42179654 0.54479451 -0.00000047
-0.32815589 -0.03727409 -0.00000048
-0.05090169 -0.77991797 -0.00000001
-0.25896150 -0.68906083 -0.00000007
0.11442093 0.48618292 0.06574908
-0.69906207 -0.45346794 -0.00000002
0.67708048 -0.33336748 -0.00000051
-0.24672329 0.11877871 -0.00000057
-0.28124705 -0.10650554 -0.00000043
-0.61997089 -0.13692015 -0.00000017
-0.03332764 -0.14247516 -0.00000041
0.37809627 -0.55585124 -0.00000015
0.08185393 0.30491960 0.13625875
-0.46221285 -0.70421089 -0.00000006
0.03472231 0.61369297 0.04998325
-0.75314892 0.28655302 -0.00000006
-0.71999916 -0.11178940 -0.00000006
0.30001461 -0.32516863 -0.00000030
-0.09687561 0.62971779 -0.00000087
-0.69880094 -0.65875212 0.00000000
0.17465075 -0.54398732 -0.00000016
-0.72935990 -0.00871788 -0.00000007
0.25885360 -0.41948374 -0.00000024
-0.62405069 0.04946717 -0.00000020
0.20748815 0.44409753 -0.00000084
-0.29804077 -0.17280772 -0.00000039
0.57078752 0.02682060 0.06673703
-0.06169957 0.22406420 -0.00000064
0.46433908 0.00755080 -0.00000065
0.29852386 0.29251438 -0.00000078
0.22412635 -0.78125040 -0.00000001
-0.79535317 0.59570539 -0.00000001
-0.42184035 -0.12459078 -0.00000038
0.51740761 -0.70064658 -0.00000006
-0.27531019 0.37713762 -0.00000063
0.15686180 0.40138206 0.07971722
0.44496396 -0.23093102 -0.00000037
0.02348538 0.72301962 -0.00000095
-0.11202597 0.30190818 -0.00000069
0.03503240 0.13790215 -0.00000059
-0.74838874 0.12478278 -0.00000006
0.52302821 0.08889154 -0.00000080
-0.78606361 -0.48496801 0.00000000
-0.44510506 -0.62397185 -0.00000011
0.41041321 0.27879806 0.03653106
-0.33448262 -0.72835593 -0.00000004
-0.49373698 0.36153728 -0.00000038
-0.45834287 -0.45027390 -0.00000022
-0.17293355 -0.74281087 -0.00000004
0.33178141 0.27980581 -0.00000080
0.29221575 -0.45023420 -0.00000022
0.58635935 -0.08975716 -0.00000068
0.40505660 0.16399765 -0.00000075
-0.47135975 -0.59574372 -0.00000013
-0.45012964 0.16195224 -0.00000040
-0.00571592 -0.62262220 -0.00000011
0.45958372 0.28846643 0.01712904
0.23963991 -0.42591591 -0.00000023
-0.29248756 -0.18156924 -0.00000039
-0.56247135 0.22629715 -0.00000029
-0.07917565 -0.09445255 -0.00000044
-0.71815298 -0.22323819 -0.00000005
0.77408970 -0.61937590 -0.00000023
0.03940959 -0.27633897 -0.00000033
0.76907617 -0.49179516 -0.00000039
0.38898716 -0.39859963 -0.00000025
-0.48399033 0.40557044 -0.00000040
0.08085750 0.15115885 -0.00000059
-0.78492351 0.72417142 -0.00000002
0.42481695 0.32278415 -0.00000094
-0.15735422 0.73418598 -0.00000080
-0.50518246 -0.28625247 -0.00000026
0.64080731 0.02731103 -0.00000086
0.67838899 -0.59816941 -0.00000023
0.26002553 0.01664966 -0.00000051
0.53297997 -0.33786844 -0.00000035
-0.10785925 0.68418663 -0.00000086
0.19979548 0.13443779 -0.00000058
-0.73641342 -0.68927564 0.00000000
0.29365015 -0.17109618 -0.00000039
-0.64047406 0.46402578 -0.00000020
0.13447383 -0.07213402 -0.00000045
-0.45459919 -0.32586085 -0.00000030
-0.67773614 0.27617421 -0.00000015
-0.17486516 -0.14605772 -0.00000041
0.05798634 -0.02405385 -0.00000048
0.22418822 -0.18534068 -0.00000038
0.24975847 0.14601094 0.13329278
0.17686825 0.26577867 -0.00000067
0.46407291 -0.61398364 -0.00000012
0.40826074 -0.71281450 -0.00000005
0.42869945 -0.23629910 -0.00000035
0.60901742 0.09366753 0.03208814
-0.75891112 -0.58621286 0.00000000
-0.20576514 -0.32080340 -0.00000030
0.15599737 0.02983552 -0.00000052
-0.50461189 -0.10367135 -0.00000030
-0.43114797 -0.59352482 -0.00000013
-0.42677816 0.67936913 -0.00000047
0.53428247 0.19546243 -0.00000093
0.23508661 0.07079316 -0.00000054
0.13235201 -0.74520001 -0.00000003
-0.77392618 0.02626792 -0.00000003
-0.33563413 -0.54788274 -0.00000016
-0.29205141 0.46630692 -0.00000063
0.25218866 0.11864735 0.14151448
0.21137484 0.41181654 0.05830100
-0.66127112 -0.77633797 -0.00000001
0.37394346 0.29817149 0.04216854
-0.42122173 -0.21695984 -0.00000036
-0.16290369 0.48386067 -0.00000077
-0.02731765 0.76632602 -0.00000096
0.63063323 0.16460231 -0.00000099
0.10063477 0.17548163 -0.00000061
-0.77793917 -0.69891403 0.00000000
-0.25642672 0.38910320 -0.00000065
0.41499742 0.28416010 0.03325130
-0.62914433 0.43917551 -0.00000021
-0.18412691 0.66077874 -0.00000077
-0.07703306 -0.75422891 -0.00000003
-0.21403608 0.42312178 -0.00000070
-0.48658173 -0.60409296 -0.00000012
-0.28824105 0.07183381 -0.00000054
0.27459624 -0.11967463 -0.00000043
-0.27350986 0.38796717 -0.00000063
0.10192857 0.43766217 0.08586790
-0.72604582 -0.36716926 -0.00000001
0.24565327 0.21339996 -0.00000064
-0.45730962 0.20001339 -0.00000040
-0.21771518 0.45718130 -0.00000070
0.42510098 0.08046858 -0.00000069
-0.54385651 -0.60987687 -0.00000012
0.27884693 0.08610974 -0.00000055
0.35278334 -0.32766355 -0.00000030
0.66090485 -0.57423471 -0.00000024
0.12471103 0.06784429 -0.00000054
-0.64440387 -0.56839281 -0.00000006
0.09795474 0.53843482 0.05394884
0.42824823 0.33761468 0.01125532
0.58827284 -0.51053093 -0.00000023
0.11467424 0.15561842 -0.00000060
-0.60810517 -0.04886212 -0.00000020
-0.47643174 0.41136195 -0.00000040
0.24225036 -0.01009818 -0.00000049
-0.12262112 0.79453311 -0.00000085
0.22870457 0.47840350 0.03062962
-0.39165426 0.60628682 -0.00000051
0.52525464 -0.76485340 -0.00000002
0.21921955 -0.24165341 -0.00000035
0.18710735 0.17592287 -0.00000061
-0.13100832 0.18305963 -0.00000061
-0.09318849 -0.17558636 -0.00000039
0.31625345 0.21983112 0.08702431
0.17276742 -0.26572248 -0.00000033
0.16707864 -0.38790024 -0.00000026
-0.28591644 0.13337336 -0.00000057
0.67295152 -0.18144961 -0.00000067
0.10478840 0.05627148 -0.00000054
-0.76905061 0.17151940 -0.00000004
-0.11709235 -0.08249234 -0.00000045
0.08093608 0.18926312 0.17469871
-0.43806492 -0.56401871 -0.00000015
-0.20990662 -0.71922121 -0.00000005
0.16663061 -0.10018388 -0.00000044
-0.12610732 0.05237009 -0.00000053
0.37107568 -0.36966687 -0.00000027
0.65034421 -0.24473899 -0.00000058
0.54498520 0.22867402 0.00868450
0.15619187 0.16796984 -0.00000060
-0.47902921 0.03537193 -0.00000035
-0.47338633 0.53709386 -0.00000041
0.79202977 -0.76821094 -0.00000004
-0.17679896 0.40110562 -0.00000074
0.19528809 0.09355611 0.16855085
-0.76233703 0.62821506 -0.00000005
-0.25156473 0.46008902 -0.00000067
-0.30803478 -0.52776683 -0.00000017
-0.42783502 0.37173539 -0.00000047
0.47164180 0.12710233 0.06636244
-0.20857813 -0.16453546 -0.00000040
0.29663985 0.44717258 -0.00000094
-0.17947340 0.75383058 -0.00000078
-0.35004660 -0.10099665 -0.00000044
-0.45576289 -0.30400233 -0.00000031
0.29605698 0.15263247 0.11584270
-0.77443641 0.49073502 -0.00000003
-0.77087873 -0.43040339 0.00000000
-0.34511948 -0.68885416 -0.00000007
0.66229720 -0.44992933 -0.00000037
-0.32798236 0.21770075 -0.00000054
0.15002297 0.53966594 0.03637356
-0.13611934 0.04115487 -0.00000053
-0.49139764 -0.27359318 -0.00000028
-0.47487201 -0.49045970 -0.00000019
-0.70248898 0.56526650 -0.00000012
-0.46111293 -0.21772424 -0.00000032
-0.77222123 0.56271040 -0.00000003
0.07334558 -0.14438931 -0.00000041
-0.08067730 0.15452730 -0.00000060
-0.41857430 -0.59692141 -0.00000013
0.22378654 0.04564944 -0.00000053
-0.06217998 -0.26588950 -0.00000033
-0.61009751 0.62275204 -0.00000024
0.16365558 -0.73007549 -0.00000004
0.48202611 -0.33532177 -0.00000030
-0.25601432 0.01032901 -0.00000051
0.25977282 0.00745622 -0.00000050
-0.15958517 0.47210299 -0.00000077
0.04403623 -0.10849566 -0.00000043
-0.70856271 0.29416620 -0.00000011
0.70897765 -0.41518458 -0.00000046
0.04526577 0.51207323 0.08001534
-0.72778926 -0.38971633 -0.00000001
0.45692798 -0.22703735 -0.00000039
-0.28072825 0.11101045 -0.00000057
-0.54505597 0.62785154 -0.00000032
-0.49038389 0.19555032 -0.00000037
0.63910937 -0.11074326 -0.00000071
0.10508925 0.07649476 -0.00000055
-0.48753935 0.09862948 -0.00000035
-0.38317493 0.27245944 -0.00000049
-0.24812621 -0.73222019 -0.00000004
-0.58232503 -0.47098421 -0.00000015
-0.66393987 0.33740322 -0.00000017
0.07906911 -0.15278276 -0.00000040
0.12281070 -0.15392675 -0.00000040
0.74062463 -0.26240089 -0.00000066
0.04739018 0.29437641 0.15109954
-0.45500898 0.70894957 -0.00000043
0.12931638 0.26536595 0.13365097
0.48157251 -0.36518046 -0.00000027
0.27420508 0.26865072 0.08479151
0.67698156 0.05463315 0.02254860
-0.11558008 0.62027190 -0.00000084
-0.65019489 0.22994415 -0.00000019
-0.38585463 -0.71054128 -0.00000006
-0.29177596 -0.00676547 -0.00000050
0.35391615 0.05272269 -0.00000058
0.52613890 0.17635923 -0.00000090
0.14578879 0.04359227 0.20134833
-0.52699727 0.56985209 -0.00000034
-0.77381799 0.35929476 -0.00000003
0.47855318 0.23558507 -0.00000091
0.28339008 -0.61142903 -0.00000012
-0.41768154 0.31148957 -0.00000046
-0.13126351 -0.62747976 -0.00000011
0.42885655 0.22732606 0.04742220
-0.42440873 -0.00473938 -0.00000040
0.36484318 -0.43250650 -0.00000023
0.09939453 -0.71679404 -0.00000005
0.09909020 0.43836360 0.08657254
-0.62417151 -0.15967677 -0.00000016
0.37153226 -0.44821365 -0.00000022
-0.60290236 -0.07315560 -0.00000020
0.05389533 -0.77306454 -0.00000002
0.47028965 0.14826541 0.05982982
0.21865209 0.28494476 0.09773702
0.35448480 0.05334373 -0.00000058
0.20168302 -0.19086893 -0.00000038
-0.37866221 0.56114070 -0.00000053
-0.68742972 -0.72828923 0.00000000
0.30863589 -0.12113520 -0.00000042
-0.04838395 -0.77492799 -0.00000002
0.54601732 -0.30383777 -0.00000040
0.39644956 -0.15039416 -0.00000041
0.78271421 -0.11500788 -0.00000086
0.14400123 -0.37709014 -0.00000026
-0.61159955 0.41667808 -0.00000024
0.58355066 -0.17484605 -0.00000058
0.55626385 -0.06884577 -0.00000067
-0.78275397 -0.74351097 0.00000000
0.16114325 -0.02054259 -0.00000049
-0.48390563 0.38955854 -0.00000040
0.16134160 0.43218637 0.06808243
0.22267955 0.53809727 0.01293245
-0.77763059 0.77667172 -0.00000003
0.79025022 -0.01273713 -0.00000098
0.03118568 0.75353215 0.00503794
0.46873467 -0.47991064 -0.00000020
0.24311826 0.32513789 -0.00000075
-0.32737528 0.01554378 -0.00000051
-0.02822271 0.11402045 -0.00000057
0.10546445 0.31026010 0.12671232
-0.37727478 0.02216333 -0.00000046
0.57536721 -0.33412886 -0.00000040
0.07103876 0.26062743 -0.00000066
0.06500709 0.07103668 0.21893592
-0.29216020 -0.73772432 -0.00000004
0.37662697 0.22285037 -0.00000079
-0.11334408 0.63204650 -0.00000085
0.48957400 -0.76391383 -0.00000002
0.19174860 0.57024306 0.01253186
0.16347217 -0.06786558 -0.00000046
0.43307010 -0.73378128 -0.00000004
0.73586178 -0.59328042 -0.00000026
0.46730037 0.04161850 -0.00000069
0.61101033 -0.39558696 -0.00000038
0.04780567 0.51104158 0.07951801
-0.28755011 0.17621017 -0.00000058
-0.72776618 -0.34594473 -0.00000001
-0.30087756 0.47900991 -0.00000062
0.46907298 -0.13716354 -0.00000050
0.08484968 0.19194957 0.17252237
-0.73524802 0.09148948 -0.00000008
0.60608331 0.14897707 0.01481743
0.28230101 0.14051177 0.12437541
-0.11717907 0.22497802 -0.00000064
-0.66759221 -0.26319868 -0.00000009
0.44656344 -0.46467160 -0.00000021
-0.78657780 -0.61448667 0.00000000
0.31720988 -0.72043447 -0.00000005
0.34822969 -0.29589110 -0.00000032
-0.14374124 0.34844528 -0.00000072
0.25678951 -0.47525659 -0.00000020
-0.21876699 0.46594524 -0.00000071
0.17806822 0.26812860 -0.00000067
0.04481572 -0.11416384 -0.00000043
-0.79478052 -0.14958874 0.00000000
0.03541225 -0.39386870 -0.00000025
0.00041612 0.10927611 -0.00000057
0.54684561 -0.79514178 -0.00000000
-0.08612931 0.29367749 -0.00000068
-0.42250129 -0.35200763 -0.00000028
0.11666596 0.21814018 -0.00000064
0.59634844 -0.32312556 -0.00000044
0.39467755 -0.29039000 -0.00000032
-0.15517883 -0.77056906 -0.00000002
-0.63444048 -0.23257262 -0.00000013
-0.54743546 0.58449747 -0.00000032
-0.23708209 0.76164691 -0.00000070
-0.53593787 0.05898859 -0.00000029
-0.26569423 -0.33423697 -0.00000029
-0.62658993 -0.75317386 -0.00000003
0.20514923 0.56189003 0.01086742
-0.37809592 -0.67927823 -0.00000008
0.58206280 0.10537713 -0.00000088
-0.11339152 -0.36319586 -0.00000027
-0.08809884 0.34999142 -0.00000072
0.26111480 0.44373395 0.03137463
0.20927038 0.42064001 -0.00000082
-0.40230992 -0.23573275 -0.00000035
0.10117543 0.13025303 -0.00000058
0.22304484 0.18308400 -0.00000061
-0.22489367 0.63011368 -0.00000072
-0.19787203 -0.22224334 -0.00000036
0.11975544 0.08842432 -0.00000056
-0.22630346 0.35038140 -0.00000068
-0.56900408 0.04189681 -0.00000025
-0.65169621 -0.57457083 -0.00000005
-0.75349498 -0.62365597 0.00000000
0.63535280 -0.66372953 -0.00000012
-0.74651624 -0.09923830 -0.00000004
-0.41622134 -0.03918526 -0.00000040
0.54116302 0.03582332 0.07353703
-0.48063081 0.14542426 -0.00000037
-0.30811034 0.57814042 -0.00000061
-0.48627898 -0.04682655 -0.00000033
-0.38066523 -0.13568357 -0.00000042
-0.76006617 0.20247753 -0.00000005
0.01602038 0.08856644 -0.00000056
-0.39314726 0.55390964 -0.00000051
0.44737561 0.16551373 -0.00000080
0.42837926 -0.75016743 -0.00000003
0.17962309 0.47198809 0.04892962
-0.45615639 -0.69970680 -0.00000006
-0.43352437 -0.43580855 -0.00000023
0.24069820 0.45901316 0.03306867
0.62156659 -0.76570076 -0.00000002
-0.29751220 -0.24629978 -0.00000035
0.17346874 0.47405817 0.05027640
-0.14382141 -0.49196228 -0.00000019
0.53629819 -0.42586546 -0.00000026
-0.71225000 0.32623232 -0.00000011
0.38102001 -0.69740888 -0.00000006
-0.20783292 -0.42944464 -0.00000023
0.42478289 0.05163123 0.10670054
0.73464668 -0.34743675 -0.00000056
-0.07158239 -0.44686899 -0.00000022
-0.41798823 0.00265249 -0.00000041
-0.07097915 -0.49451343 -0.00000019
-0.48222920 -0.56275412 -0.00000015
0.11775171 0.03625596 -0.00000052
0.04597018 -0.00688534 -0.00000050
0.42999089 0.12509639 -0.00000074
-0.30727208 -0.38718926 -0.00000026
0.29143470 0.38836772 0.03963361
-0.15313460 0.51767925 -0.00000078
0.24381191 0.06976781 -0.00000054
-0.25873505 0.05369932 -0.00000053
0.19033869 0.08654665 0.17249423
-0.74952414 -0.19763288 -0.00000002
-0.15777128 0.38734146 -0.00000074
0.16373540 0.22218710 -0.00000064
0.46740314 0.08985705 -0.00000074
-0.76344714 0.71677827 -0.00000005
-0.00013826 -0.61012603 -0.00000012
-0.26526906 0.09041082 -0.00000056
-0.12884564 0.56413061 -0.00000082
-0.61651869 -0.45384845 -0.00000011
-0.56082830 -0.71173548 -0.00000006
-0.71012939 0.05972212 -0.00000011
-0.70170279 -0.34306882 -0.00000004
-0.56853818 0.30418470 -0.00000029
-0.57638550 -0.26599530 -0.00000019
0.08631487 -0.10345577 -0.00000044
-0.52431292 0.02664140 -0.00000030
0.19948779 0.26922517 -0.00000067
0.20894892 0.14276876 0.14781858
-0.60050631 0.65614582 -0.00000025
0.17454574 0.15434610 0.15534524
0.41216735 0.38204862 0.00190595
-0.52434870 0.72092837 -0.00000034
-0.07251879 0.16023625 -0.00000060
0.08654001 0.03554211 -0.00000052
0.28249961 0.15480788 -0.00000061
-0.68756467 0.30109990 -0.00000014
-0.61942641 -0.75060977 -0.00000003
0.21450035 -0.17823745 -0.00000039
-0.55609740 0.72053896 -0.00000030
-0.04180395 0.54998783 -0.00000084
0.48556720 0.13806752 -0.00000081
0.39383584 -0.64592365 -0.00000010
-0.45765276 -0.30741942 -0.00000031
-0.52316353 -0.51141139 -0.00000018
-0.21199847 0.05469310 -0.00000053
-0.08022664 -0.01119972 -0.00000049
0.39734850 -0.60372329 -0.00000012
0.50118395 0.09885860 -0.00000079
0.41319050 0.17927740 0.06843201
0.17874310 0.26745143 -0.00000067
-0.62159344 0.15469274 -0.00000022
0.52339702 -0.31721316 -0.00000037
0.19125323 0.54413608 -0.00000093
-0.64006652 0.76431088 -0.00000020
0.35859591 0.22275200 0.07209881
-0.26433676 -0.75520572 -0.00000003
-0.03314540 -0.36470603 -0.00000027
0.53082763 -0.28400446 -0.00000041
-0.31376183 -0.38055863 -0.00000026
-0.66815785 -0.44167849 -0.00000006
0.04270860 -0.25829641 -0.00000034
0.16696118 -0.46392840 -0.00000021
-0.03052475 -0.63591085 -0.00000010
-0.21836333 0.00362314 -0.00000050
-0.79078606 -0.05217777 -0.00000000
0.32293919 0.05971697 -0.00000055
0.72864269 -0.24747341 -0.00000066
0.05030256 0.66695555 -0.00000092
0.46895501 0.02457464 0.10105672
0.02039895 -0.06374142 -0.00000046
-0.77318847 0.30036928 -0.00000003
-0.71295459 -0.25226259 -0.00000005
-0.10158181 -0.74898170 -0.00000003
-0.64946140 0.65928948 -0.00000019
-0.78127287 0.59045883 -0.00000002
0.12323592 -0.55383779 -0.00000015
-0.59588859 -0.01225306 -0.00000022
-0.30292443 -0.21855511 -0.00000036
0.36535068 0.25176930 -0.00000080
0.20326983 -0.50064243 -0.00000019
-0.41218090 -0.62382828 -0.00000011
0.13401420 0.13960948 0.17356961
0.67054380 -0.22795626 -0.00000062
0.02413359 -0.77368930 -0.00000002
-0.73985810 -0.22696016 -0.00000002
-0.63377164 0.47611054 -0.00000021
0.05103714 -0.70375539 -0.00000006
0.40920986 0.15317150 0.07835299
-0.57685272 0.70359536 -0.00000028
0.45648996 0.02463506 0.10514713
0.16680455 0.54104067 0.03038655
0.00077561 0.17082095 -0.00000061
0.01124259 -0.51260994 -0.00000018
0.36876932 0.04835002 0.12625289
0.11577643 0.21145259 0.15589341
-0.54760171 -0.12711840 -0.00000025
-0.34965395 0.08769490 -0.00000050
-0.14918787 -0.10068528 -0.00000044
0.43832653 -0.65712636 -0.00000009
0.52209713 0.07593786 -0.00000078
-0.38836667 -0.73775749 -0.00000004
0.71843545 -0.29766161 -0.00000060
-0.40574036 0.33940956 -0.00000048
-0.40954800 0.04417197 -0.00000042
-0.69788974 -0.58139691 -0.00000000
-0.71220026 -0.10554662 -0.00000007
-0.40452764 0.75392742 -0.00000049
-0.45086238 0.12997507 -0.00000040
0.28157905 -0.30035009 -0.00000031
-0.77533212 0.77919269 -0.00000003
0.06666338 0.20319400 0.17481138
0.78107389 -0.75099735 -0.00000006
0.51122076 -0.12238875 -0.00000056
0.14891270 0.03218064 -0.00000052
-0.11733636 -0.06545174 -0.00000046
-0.68604161 0.13300029 -0.00000014
-0.07398488 0.47241092 -0.00000080
-0.26665778 0.18670825 -0.00000060
-0.09180329 -0.05202200 -0.00000047
-0.33604252 -0.68296147 -0.00000007
0.26053039 0.49818832 0.01361111
-0.74439862 -0.04370478 -0.00000005
-0.17658542 -0.54770302 -0.00000016
-0.57095753 -0.19697179 -0.00000021
0.27785957 -0.55092543 -0.00000016
0.60224089 -0.21699450 -0.00000056
-0.18176346 0.62370729 -0.00000077
-0.10983510 -0.24868547 -0.00000034
0.76415577 -0.30410618 -0.00000062
-0.48333173 -0.17125551 -0.00000031
-0.33851269 -0.15511907 -0.00000040
0.22698216 -0.07809118 -0.00000045
-0.08742989 0.74780555 -0.00000089
-0.52496160 0.04438418 -0.00000030
-0.31717073 0.00708120 -0.00000050
-0.70647686 -0.20317854 -0.00000006
-0.71141880 -0.48584787 -0.00000001
-0.07369628 0.57766045 -0.00000086
-0.78445078 -0.13324837 0.00000000
0.46040289 -0.51715856 -0.00000018
-0.74659584 -0.79535338 0.00000000
-0.65292102 0.35000304 -0.00000018
-0.03867091 -0.59011386 -0.00000013
-0.58027207 -0.33640510 -0.00000017
0.31823899 0.12999772 -0.00000062
0.09155666 0.16449789 0.17936287
0.65483318 -0.64103710 -0.00000016
-0.23049705 -0.05387162 -0.00000047
0.34957254 0.38659698 0.02104666
