ply
format ascii 1.0
element vertex 1381
property float x
property float y
property float z
end_header
-0.12212575 0.20119280 0.00000000
-0.50545273 -0.58172096 0.00000000
-0.03026974 0.05617262 0.43287654
-0.01966787 -0.46164410 0.28130280
-0.01965577 0.47789809 0.00000000
-0.73263495 -0.59411491 -0.00000051
-0.03657532 0.16021322 0.00000904
-0.35591474 0.25262881 0.00000231
-0.01941812 0.35120839 0.27773438
-0.00547888 0.47339613 0.07830922
-0.03404614 0.67105396 0.00000000
-0.02239490 0.16309535 0.32030895
-0.30793489 0.29587564 -0.00000042
-0.04730963 0.11562329 0.67666810
-0.03701717 -0.50824757 0.52944393
-0.14150446 0.09132298 0.00000849
-0.00326995 0.65205759 0.04674727
-0.02161220 0.22114295 0.30905726
-0.01084328 -0.43925898 0.15508765
-0.03853430 0.09434279 0.55115331
-0.01641474 -0.19330350 0.23477440
-0.28213284 0.11689065 0.00000599
-0.02007114 -0.11046548 0.28707069
-0.01121564 0.00959336 0.16027798
-0.03975406 0.09519227 0.56857114
-0.11419079 0.22940474 0.00000000
-0.01261921 -0.30601677 0.18048820
-0.24715770 0.43858288 -0.00000042
-0.39511402 -0.24567856 0.00000000
-0.00037512 0.32722989 0.00536524
-0.79415404 -0.32352109 -0.00000119
-0.02612123 0.43402976 0.00000000
-0.02503407 0.67820396 0.00000000
-0.00536095 -0.77330893 0.07667586
-0.29965457 -0.66905247 0.00000000
-0.75364984 -0.72757862 -0.00000018
-0.02258817 -0.32700782 0.32307089
-0.01219529 0.00424311 0.17442511
-0.01137761 -0.21197537 0.16273000
-0.46856653 -0.54703318 0.00000000
-0.03910658 -0.60733816 0.55932796
-0.00163119 0.32250410 0.02323245
-0.00742429 0.05003850 0.10618702
-0.05133714 -0.31697645 0.73426856
-0.29863467 0.42649746 0.00000050
-0.26323629 0.19294154 0.00000509
-0.03120689 -0.27309703 0.44634157
-0.04494732 -0.25406852 0.64287450
-0.09226688 0.13006113 0.00000000
-0.03608449 0.07570515 0.51611281
-0.08554193 0.23635815 0.00000000
-0.24332359 -0.78600730 0.00000000
-0.14788023 -0.36872329 0.00000000
-0.32408253 0.40551026 0.00000037
-0.05780543 -0.60300601 0.00000000
-0.02088013 0.24949287 0.29859053
-0.09132894 0.60197778 -0.00000004
-0.03269303 -0.58449078 0.46759712
-0.00966546 0.23326878 0.13814979
-0.00690314 -0.54288382 0.09873322
-0.76259648 -0.79999930 -0.00000000
-0.32565157 -0.51532131 0.00000000
-0.02160673 -0.26370776 0.30903361
-0.56675472 -0.16997450 -0.00000070
-0.01672615 -0.57810917 0.23922838
-0.24396038 0.45820279 -0.00000044
-0.03726444 -0.51539286 0.53298055
-0.01756515 0.51073613 0.25122568
-0.41815982 0.26995722 0.00000082
-0.02736396 0.11732154 0.39131966
-0.02012560 0.23442430 0.28785178
-0.75318996 0.04243655 -0.00000181
-0.02025920 -0.54998427 0.28976044
-0.00704351 -0.20525068 0.10074094
-0.55480378 -0.27966733 -0.00000046
-0.01206721 0.07004768 0.00001077
-0.00588958 -0.03689168 0.08423662
-0.43958867 -0.00038536 -0.00000046
-0.02701733 0.11117683 0.38635927
-0.04369023 -0.78165366 0.62488630
-0.26304661 -0.18820012 0.00000000
-0.00850284 0.17761282 0.12161314
-0.00275827 -0.28486661 0.03945055
-0.35923728 -0.67389471 0.00000000
-0.04187829 0.18134497 0.59898476
-0.03181084 -0.35255329 0.45497950
-0.00834903 0.51845368 0.11937884
-0.58162275 0.03730456 0.00000157
-0.02209744 0.40184835 0.31604091
-0.68149058 -0.04301117 -0.00000142
-0.36631222 0.19358527 -0.00000049
-0.00911995 0.45215944 0.13039311
-0.19878249 0.21762309 0.00000000
-0.00315659 0.02253503 0.04498969
-0.01236139 -0.51140642 0.17680073
-0.01505820 -0.69191006 0.00000000
-0.04674497 -0.49935200 0.66858262
-0.58309221 -0.75179320 0.00000000
-0.33792353 0.44469337 -0.00000081
-0.03968708 0.07403012 0.56764150
-0.40034947 -0.12830840 -0.00000007
-0.01259853 0.22349125 0.18010754
-0.60086930 0.01862373 0.00000151
-0.01226517 0.51165725 0.17540275
-0.73084554 -0.50053869 -0.00000075
-0.05005131 -0.36804613 0.71587617
-0.25757138 0.51205554 -0.00000014
-0.48232256 -0.42751971 0.00000000
-0.09319683 -0.15498857 0.00000000
-0.16547402 0.31564273 0.00000000
-0.02052561 0.05051152 0.29357080
-0.43118920 0.18277688 0.00000203
-0.26185150 -0.49606030 0.00000000
-0.04789336 -0.34328030 0.68501088
-0.15965617 0.03365926 0.00000000
-0.62176572 0.01227336 -0.00000126
-0.03705916 0.43902375 0.00000000
-0.03166393 -0.42464486 0.45287825
-0.38556761 0.38987817 -0.00000092
-0.04836432 -0.06557241 0.69175183
-0.15859736 -0.69712577 0.00000000
-0.04752876 0.27197325 0.00000000
-0.10377556 0.15559532 0.00000810
-0.05564275 -0.51062614 0.79584894
-0.56038210 0.00676611 0.00000249
-0.00202494 -0.58955629 0.02896204
-0.01527241 0.17662167 0.21834948
-0.21565259 0.40852957 0.00000240
-0.22941501 0.32561397 -0.00000014
-0.31714214 0.07236412 0.00000606
-0.44316148 -0.60487706 0.00000000
-0.00307910 0.74344871 0.04404012
-0.02808213 0.10014036 0.40165359
-0.31216875 -0.73659372 0.00000000
-0.31144024 0.32023109 -0.00000048
-0.36799728 0.39986363 -0.00000038
-0.16715396 -0.47923608 0.00000000
-0.56564949 -0.06012780 -0.00000089
-0.25423320 0.13827243 0.00000000
-0.03073188 -0.30564348 0.43954753
-0.01181816 0.54673344 0.16903370
-0.10053795 0.52964336 0.00000000
-0.00676107 0.17198237 0.09670131
-0.09350452 -0.03993615 0.00000000
-0.00671486 0.43171357 0.09598198
-0.47881624 -0.20073456 -0.00000027
-0.05391475 -0.79269837 0.77112808
-0.00240086 0.19764633 0.03433874
-0.03194718 0.04641172 0.45687223
-0.09946539 0.54305318 0.00000000
-0.05033047 -0.01363588 0.71987498
-0.54540826 0.02483582 0.00000247
-0.04424466 0.02927656 0.63282897
-0.00770374 0.63863606 0.11018574
-0.65122437 -0.62903345 -0.00000025
-0.01131350 -0.01374102 0.16181306
-0.04061760 -0.20457673 0.58094630
-0.00555291 -0.53653963 0.07942137
-0.56438857 -0.60127585 0.00000000
-0.37469494 0.21097941 -0.00000056
-0.03855723 0.16219501 0.55148244
-0.02000189 0.51253280 0.28608679
-0.01577268 0.38979988 0.22555422
-0.02798118 0.68921734 0.00000000
-0.05213317 -0.41864015 0.00000000
-0.02059942 0.32156315 0.00000000
-0.03430813 0.72170079 -0.00000001
-0.22811775 0.32123792 0.00000362
-0.01797174 -0.29534280 0.25704357
-0.63585087 0.02107877 -0.00000134
-0.02276938 -0.71175221 0.32566257
-0.38199623 0.16746437 -0.00000051
-0.61866060 0.10018889 -0.00000019
-0.36190385 -0.52586661 0.00000000
-0.00708469 -0.38936668 0.10132989
-0.00969016 0.21564611 0.13849932
-0.17517039 -0.67024054 0.00000000
-0.76456734 -0.29333109 -0.00000127
-0.07212600 -0.33595486 0.00000000
-0.00844741 -0.21119995 0.12082042
-0.60042481 -0.17133225 -0.00000085
-0.40337973 0.35391211 -0.00000093
-0.00670747 -0.51890230 0.09593458
-0.03559356 -0.61685571 0.50908250
-0.01416654 -0.68271406 0.20261922
-0.17563323 0.28197631 0.00000512
-0.00684486 0.36794985 0.09782788
-0.27897117 -0.12276863 0.00000000
-0.02701812 -0.66061040 0.38643091
-0.01183853 -0.67899257 0.16932237
-0.00205524 0.32882559 0.02930014
-0.01134658 0.16141182 0.16218396
-0.02095930 0.09736707 0.29977405
-0.41186156 -0.16899309 -0.00000004
-0.00311345 0.55155896 0.04448681
-0.00058510 -0.35030210 0.00836850
-0.00978391 0.44020527 0.13988889
-0.58485718 -0.37516950 -0.00000042
-0.00338267 0.08575076 0.04823762
-0.60454028 -0.07010909 -0.00000104
-0.03541484 -0.04217151 0.50653268
-0.03149562 0.05358650 0.45047680
-0.02893003 -0.31038934 0.41377621
-0.53369036 -0.53649309 0.00000000
-0.19246397 0.57850302 0.00000000
-0.01285500 0.00591400 0.18386071
-0.30060378 -0.61023908 0.00000000
-0.00005712 0.29925333 0.00000000
-0.00945081 -0.70125406 0.00000000
-0.04687889 -0.27893373 0.67050180
-0.37267112 -0.52738942 0.00000000
-0.02110824 0.40007559 0.30190943
-0.58379481 0.00793919 -0.00000109
-0.01723192 0.38372651 0.24646531
-0.01521818 -0.79825514 0.21766044
-0.49083813 -0.35102341 -0.00000006
-0.00369766 -0.53645294 0.05288635
-0.54783614 -0.33902567 -0.00000032
-0.32168905 -0.28060315 0.00000000
-0.04532888 -0.10678443 0.00000000
-0.37747098 -0.73266397 0.00000000
-0.03669018 -0.65007711 0.52476700
-0.04135565 -0.51362823 0.00000000
-0.33909485 0.29260148 0.00000196
-0.01475928 0.57916125 0.21110179
-0.04304003 0.15372563 0.61559467
-0.02293327 0.32254302 0.00000000
-0.01645463 -0.05926725 0.23534495
-0.00799654 0.04508438 0.11423386
-0.03444348 -0.49147584 0.49263322
-0.00055340 0.37333047 0.00791510
-0.25556623 -0.15328949 0.00000000
-0.04016220 -0.35896563 0.57443002
-0.34034294 0.26838990 -0.00000051
-0.00968687 0.08789254 0.13842464
-0.01926492 -0.13168993 0.27553957
-0.03316369 -0.57564114 0.47432887
-0.01658086 0.42478397 0.23712428
-0.01146141 -0.14648142 0.16392864
-0.08588556 0.62582485 0.00000126
-0.00296215 -0.48967924 0.04236663
-0.05005130 0.06836165 0.00000000
-0.33131433 -0.27001754 0.00000000
-0.01062851 -0.31210393 0.15201596
-0.02401955 -0.03571240 0.34354341
-0.03018999 0.33497859 0.43180680
-0.02580576 0.37671133 0.36909884
-0.00423557 -0.47560306 0.06057992
-0.42889744 -0.30514072 0.00000000
-0.00551561 -0.47426465 0.07888783
-0.06243454 0.06739475 0.00001005
-0.01659517 -0.32195922 0.23735496
-0.08090621 -0.72695581 0.00000000
-0.21333034 0.48703737 -0.00000036
-0.03762385 0.25416677 0.53813371
-0.00730252 0.56777499 0.10444581
-0.20865588 -0.27020657 0.00000000
-0.37328528 0.12058800 -0.00000039
-0.00508744 -0.06650508 0.07276394
-0.23156783 0.10942733 0.00000000
-0.17507679 -0.30578044 0.00000000
-0.03318352 0.09830538 0.47457169
-0.04251941 -0.25930786 0.60814736
-0.01245944 -0.03534685 0.17820308
-0.06573740 0.28554414 0.00000000
-0.16912856 0.30671764 0.00000485
-0.19582954 -0.72322669 0.00000000
-0.01943169 -0.08000949 0.27792480
-0.01068078 0.51754746 0.15276494
-0.05376062 -0.58254120 0.76892719
-0.42677721 0.07855780 -0.00000055
-0.02387920 -0.16939010 0.34153606
-0.75153107 -0.03375785 -0.00000173
-0.01074623 0.50085187 0.15366989
-0.24036840 0.34603495 0.00000297
-0.00378177 -0.71244977 0.05408932
-0.26161795 0.24401218 -0.00000013
-0.05137914 0.45292319 0.00000443
-0.18896833 -0.66667963 0.00000000
-0.02963417 -0.32130786 0.42384731
-0.04030827 0.07029082 0.57649409
-0.00378913 0.50881536 0.05419469
-0.35892085 0.17445202 0.00000356
-0.01457030 -0.72792194 0.20839405
-0.01559007 -0.39697150 0.22297945
-0.04183244 0.10993210 0.59830848
-0.06391278 0.14694659 0.00000883
-0.02111582 0.24412629 0.30196122
-0.02420912 -0.22050418 0.34625475
-0.06909800 0.14774727 0.00000000
-0.02272580 -0.73895879 0.32503931
-0.31771536 -0.53397279 0.00000000
-0.07643194 0.70721234 -0.00000016
-0.09420842 -0.73806999 0.00000000
-0.01325484 0.41703902 0.18953945
-0.02881060 -0.35162890 0.41206816
-0.29481433 0.05494021 0.00000000
-0.39846867 -0.70740514 0.00000000
-0.04853578 -0.05768748 0.69420435
-0.02658323 0.03814720 0.38021351
-0.29087364 0.30685580 0.00000265
-0.02089643 -0.38783242 0.29887444
-0.39954513 0.22601061 0.00000192
-0.00200847 -0.20943122 0.00000000
-0.07036671 -0.67212057 0.00000000
-0.02140770 -0.64212861 0.30618695
-0.65625389 0.03353731 -0.00000145
-0.03805968 -0.68408718 0.54435453
-0.22455238 -0.20898313 0.00000000
-0.00447495 0.12813479 0.06387269
-0.06785579 0.23266281 0.00000000
-0.05056544 0.51116607 0.00000357
-0.03644582 0.17821443 0.52126156
-0.44709734 -0.29593723 0.00000000
-0.26475842 -0.61913800 0.00000000
-0.48803291 0.30288231 -0.00000107
-0.04847950 -0.42500958 0.69339325
-0.00590543 -0.54859984 0.08446334
-0.72384897 -0.39219120 -0.00000098
-0.02913873 -0.67813834 0.41676121
-0.20291129 0.43654910 0.00000217
-0.04534524 0.04235696 0.64854802
-0.04778143 -0.42113896 0.68340867
-0.02888141 -0.22141436 0.41308094
-0.01699690 -0.33720669 0.24310077
-0.03414360 -0.62281397 0.48834421
-0.67479110 -0.63928030 -0.00000034
-0.01570733 0.45993172 0.22463536
-0.45876572 0.06978213 0.00000339
-0.04410738 0.02917112 0.63083575
-0.04959657 -0.51308030 0.70936944
-0.03224880 0.25360196 0.46125309
-0.01381498 0.02941618 0.19746792
-0.03990445 -0.48234302 0.57074124
-0.01577904 0.17194517 0.22568219
-0.02863083 0.00461234 0.40941790
-0.02707710 -0.07861266 0.38727550
-0.04042972 0.15664000 0.57825146
-0.01792652 -0.42045770 0.25639688
-0.00063158 0.66044052 0.00900512
-0.01758012 -0.50761008 0.25144249
-0.12682996 -0.17068314 0.00000000
-0.20221431 0.15585611 0.00000000
-0.00369005 0.39976425 0.05270269
-0.03198517 -0.70243113 0.45747283
-0.00819642 -0.04830894 0.11723051
-0.75433046 -0.52840322 -0.00000068
-0.53735411 -0.17394834 -0.00000057
-0.04912690 -0.06974605 0.70265903
-0.09367243 0.68872299 -0.00000020
-0.01285854 0.13740012 0.18391130
-0.19994757 0.36965095 -0.00000009
-0.51150132 -0.33067459 -0.00000018
-0.58738890 -0.65353157 0.00000000
-0.04406366 -0.00050938 0.63023952
-0.13015846 0.28876104 0.00000570
-0.02190878 0.30648286 0.31331982
-0.13929527 0.35034191 0.00000000
-0.03251767 0.17698150 0.46506396
-0.06420049 -0.63343774 0.00000000
-0.62727045 -0.42381980 -0.00000051
-0.28306985 -0.69074678 0.00000000
-0.01414360 -0.65522101 0.20229101
-0.02858551 -0.54880465 0.40884866
-0.06257665 0.01928471 0.00000000
-0.36224607 -0.39606862 0.00000000
-0.13485948 -0.43375092 0.00000000
-0.56794233 -0.12430302 -0.00000079
-0.03363895 0.09607178 0.48113412
-0.03181589 0.32170981 0.45505744
-0.12719923 0.07890721 0.00000000
-0.10597255 0.02736072 0.00000000
-0.36443785 0.29602000 0.00000142
-0.46830289 -0.66330764 0.00000000
-0.01757700 -0.24497655 0.25139784
-0.02627124 0.32605420 0.37575575
-0.04149232 -0.68507388 0.59345041
-0.38071037 -0.23174843 0.00000000
-0.28744514 -0.09481022 0.00000000
-0.00488758 -0.54758761 0.06990543
-0.00444237 -0.29197509 0.06353766
-0.04590601 -0.60907582 0.65658090
-0.05403251 0.01424932 0.77282420
-0.01890306 -0.10543480 0.27036401
-0.00415603 0.03636299 0.05944234
-0.00412353 0.65201415 0.05897740
-0.00749258 -0.14766159 0.10716376
-0.00375532 0.19135025 0.05359154
-0.59447900 -0.42254831 -0.00000038
-0.02915247 -0.52723549 0.41695771
-0.01671176 -0.54285903 0.23902255
-0.65390004 0.05479861 -0.00000147
-0.64638308 0.12190597 -0.00000156
-0.03310145 0.01660501 0.47344468
-0.05386706 -0.66312272 0.77044818
-0.02993371 0.36940998 0.42814175
-0.05010787 -0.74738709 0.71667842
-0.19649977 0.47198909 -0.00000026
-0.02909663 0.43559352 0.00000503
-0.33868918 -0.68827479 0.00000000
-0.05190209 -0.68494036 0.74234252
-0.78160327 0.00683497 -0.00000176
-0.00036451 0.00761732 0.00521352
-0.03006649 0.21699946 0.00000829
-0.03903539 -0.47509945 0.55831103
-0.08026979 -0.29321029 0.00000000
-0.18884416 -0.18843342 0.00000000
-0.02106792 0.25159051 0.30127761
-0.12394670 -0.04920147 0.00000000
-0.03842569 0.17300081 0.54960126
-0.12480323 -0.50566408 0.00000000
-0.02621284 -0.38861565 0.37491332
-0.00453945 0.41045804 0.06485633
-0.03464933 -0.39323411 0.49557761
-0.02899147 -0.63210197 0.41465508
-0.13729661 -0.66637920 0.00000000
-0.05491567 -0.77564204 0.78544465
-0.04058878 -0.62465064 0.58052735
-0.44075813 -0.38762635 0.00000000
-0.17057868 -0.33754539 0.00000000
-0.02425775 0.30890194 0.34692547
-0.02259859 -0.30247153 0.32321982
-0.29547237 -0.20089141 0.00000000
-0.37393769 -0.43900675 0.00000000
-0.49823255 -0.59357377 0.00000000
-0.27680079 0.43529806 -0.00000054
-0.00866734 0.13698287 0.12396604
-0.00189831 0.71679757 0.02713885
-0.62949622 0.09381789 -0.00000029
-0.01044802 -0.33240792 0.14943438
-0.00708765 0.21677946 0.10137216
-0.00451863 0.63981424 0.06460806
-0.28432942 0.13677065 0.00000562
-0.03287997 -0.01123842 0.47027639
-0.00986734 -0.45415830 0.00000000
-0.23934198 -0.77717299 0.00000000
-0.37151452 -0.16970484 0.00000000
-0.05758547 -0.37386866 0.00000000
-0.06625664 0.27732261 0.00000000
-0.30696571 -0.44978787 0.00000000
-0.00176171 0.64838763 0.02516994
-0.04423285 0.59373173 0.00000243
-0.31512502 0.43554167 -0.00000070
-0.68298559 0.05266438 -0.00000159
-0.15393240 0.25946929 0.00000579
-0.19759717 -0.02366377 0.00000000
-0.02375938 -0.47104390 0.33982226
-0.24862565 0.35535349 0.00000265
-0.00682321 -0.60921414 0.09759000
-0.09049915 -0.30794358 0.00000000
-0.02436029 0.05515205 0.34841851
-0.17185061 -0.06494934 0.00000000
-0.00028202 -0.36681831 0.00403368
-0.01912451 -0.28205886 0.27353129
-0.14284107 0.01636036 0.00000960
-0.67181170 -0.08863000 -0.00000130
-0.02101911 0.45592080 0.30062648
-0.04783140 -0.70335910 0.68411856
-0.44806331 0.33754357 -0.00000088
-0.04849842 -0.60394545 0.69366091
-0.22070293 0.13537407 0.00000000
-0.33595837 -0.02415563 0.00000000
-0.02118611 -0.41742309 0.00000000
-0.01999113 -0.58117448 0.28592628
-0.53276543 0.18967173 -0.00000004
-0.00438707 0.09468881 0.06274680
-0.15496964 -0.09363216 0.00000000
-0.03335528 0.04377901 0.47707585
-0.72911686 0.06921077 -0.00000179
-0.05413217 -0.18502469 0.77424867
-0.04975177 0.03772823 0.71158817
-0.00229656 0.72584186 0.03283823
-0.18134723 0.49080426 0.00000168
-0.02958155 0.35185169 0.42309931
-0.00413033 0.65578645 0.05907472
-0.05504530 -0.22442499 0.78730855
-0.43556909 0.23498493 -0.00000086
-0.46334326 -0.13464150 -0.00000033
-0.46541428 -0.52357986 0.00000000
-0.51690972 0.11938677 -0.00000100
-0.53088508 -0.23673102 -0.00000043
-0.60959972 0.08586527 -0.00000134
-0.02254599 0.01014787 0.00000000
-0.53219223 -0.19507134 -0.00000051
-0.28835558 -0.33728631 0.00000000
-0.61235157 -0.46600605 -0.00000038
-0.09867591 0.62836552 -0.00000012
-0.00734203 -0.75439022 0.10501056
-0.21944391 -0.52755705 0.00000000
-0.36303572 -0.20025692 0.00000000
-0.00822393 0.08812199 0.11762403
-0.51927144 -0.55239798 0.00000000
-0.00205347 -0.55541935 0.02937014
-0.03098913 0.29139945 0.00000000
-0.07356953 0.44788741 0.00000000
-0.03844010 -0.31766023 0.54979909
-0.09402031 0.47577598 0.00000000
-0.16804291 -0.29990976 0.00000000
-0.00873281 0.25192877 0.12490237
-0.18802005 0.08030245 0.00000000
-0.28174853 -0.69159427 0.00000000
-0.00387597 -0.56774441 0.05543662
-0.02396105 0.21177697 0.34265835
-0.00079264 0.05885886 0.01117935
-0.00608741 0.43367770 0.08706613
-0.13735884 0.00114909 0.00000991
-0.57211148 0.05693896 -0.00000113
-0.04905821 -0.63806146 0.70166704
-0.41498469 -0.52485696 0.00000000
-0.00500811 -0.49884388 0.07162931
-0.00394340 0.08555917 0.00001066
-0.47746238 -0.34088915 -0.00000002
-0.01701505 -0.14728234 0.24336045
-0.12460720 -0.59918594 0.00000000
-0.03393762 0.09611069 0.48540595
-0.00809967 0.08110351 0.11571705
-0.38049346 -0.60652348 0.00000000
-0.01369447 0.05174551 0.19574879
-0.03974844 -0.55937841 0.56850850
-0.30598538 0.42448222 -0.00000064
-0.02650283 0.11763419 0.37906477
-0.77513648 -0.27693157 -0.00000131
-0.30271356 0.09270711 0.00000600
-0.70928471 0.08004057 -0.00000159
-0.01646972 -0.71609349 0.23556069
-0.44368320 0.19912317 -0.00000083
-0.56614082 0.06808705 -0.00000112
-0.04181925 -0.37555220 0.59813089
-0.03076330 -0.61490799 0.43999686
-0.05473651 -0.49176418 0.00000000
-0.04341036 0.11700770 0.62089714
-0.47228105 -0.13722982 -0.00000036
-0.18472050 -0.76679974 0.00000000
-0.00087959 0.28853590 0.01247290
-0.04374110 -0.63857158 0.62561514
-0.45092361 -0.29594686 0.00000000
-0.01518696 -0.60259000 0.21721389
-0.34383474 0.40375920 -0.00000077
-0.06922572 -0.15617358 0.00000000
-0.03536297 0.28907671 0.50579641
-0.17106503 0.43892897 -0.00000009
-0.64356360 -0.67341357 -0.00000014
-0.04694994 0.03077910 0.67150264
-0.41423801 0.35531205 -0.00000053
-0.00720401 0.65084913 0.10303823
-0.00516095 -0.03942662 0.07381533
-0.00846509 -0.55535064 0.12107321
-0.01040750 0.56091263 0.00000343
-0.47402683 0.18848317 -0.00000094
-0.72647428 -0.26876098 -0.00000121
-0.00531842 0.23538149 0.07596231
-0.22770954 0.11602113 0.00000000
-0.35444563 -0.66664654 0.00000000
-0.00500851 -0.68250423 0.07163500
-0.00008461 0.32695295 0.00000000
-0.57790085 -0.16306429 -0.00000076
-0.06829073 -0.35480909 0.00000000
-0.70735443 -0.77335289 -0.00000007
-0.02226108 0.11217022 0.31839398
-0.25492939 0.20182402 0.00000510
-0.70884930 -0.68889600 -0.00000028
-0.01395934 0.05395066 0.00000000
-0.24263970 -0.68424009 0.00000000
-0.54676642 -0.15498632 -0.00000065
-0.45114921 0.31372803 -0.00000107
-0.00696401 0.35026180 0.09960378
-0.02789665 -0.42527338 0.39899616
-0.00623181 0.62322417 0.08911338
-0.04182832 0.18701845 0.59827012
-0.02971666 0.33601433 0.42503664
-0.16767890 -0.21322075 0.00000000
-0.78587626 -0.34324635 -0.00000114
-0.11652124 0.55553182 0.00000185
-0.02614927 -0.63984968 0.37400399
-0.01238203 -0.77040255 0.17709591
-0.25917540 0.04693124 0.00000739
-0.00990079 -0.37999361 0.14160759
-0.00559372 -0.48684072 0.08000502
-0.00584120 0.41329868 0.08354469
-0.00485170 0.08598583 0.00000000
-0.02392890 0.08355866 0.34216897
-0.01547878 0.41220240 0.22139011
-0.31936070 -0.24401984 0.00000000
-0.00195087 0.53327692 0.02790266
-0.17779861 -0.78149715 0.00000000
-0.58369611 0.06574275 0.00000106
-0.01281796 -0.56703286 0.18333089
-0.00653538 -0.74714372 0.09347324
-0.16429323 0.32649202 0.00000462
-0.03747603 -0.77459253 0.53600678
-0.00989446 0.19419402 0.14151704
-0.35720906 -0.40173948 0.00000000
-0.16419821 0.21317505 0.00000632
-0.00010773 -0.74907078 0.00154076
-0.59045743 0.10924602 0.00000020
-0.00945714 -0.38193733 0.13526218
-0.02315083 0.14271130 0.33105130
-0.35266743 0.03794968 0.00000596
-0.03057077 -0.59035191 0.43724327
-0.71179044 -0.33052241 -0.00000104
-0.03944355 -0.57652124 0.56414759
-0.04032665 -0.53864121 0.57677924
-0.05005686 -0.40917015 0.71595480
-0.01764495 -0.20400031 0.25236966
-0.37307709 -0.52334087 0.00000000
-0.04504341 0.09766080 0.64424268
-0.01032090 0.31732065 0.14761627
-0.03780305 -0.10331750 0.54069081
-0.49122713 -0.43960081 0.00000000
-0.68092135 -0.38945922 -0.00000080
-0.51943249 -0.00208660 -0.00000080
-0.03537606 -0.61183272 0.50597170
-0.01585846 -0.09521606 0.22681805
-0.21671844 0.31926489 -0.00000008
-0.09095983 0.17616548 0.00000799
-0.03040701 -0.37454763 0.43490106
-0.03567518 -0.35781721 0.51025111
-0.38622248 0.31695530 0.00000065
-0.03881341 0.17818916 0.55514693
-0.23881907 0.07979328 0.00000720
-0.03321771 0.16111302 0.47511008
-0.01196753 -0.20150962 0.17116748
-0.51123507 -0.70956002 0.00000000
-0.05369136 -0.41190845 0.76793967
-0.03368810 0.04090128 0.48183614
-0.03246877 0.10500563 0.46434774
-0.01846297 0.15321330 0.26406949
-0.04873604 -0.11840584 0.69706777
-0.69511705 -0.16116522 -0.00000127
-0.10011454 0.17952965 0.00000780
-0.11397577 0.40369101 0.00000000
-0.00418201 -0.75452648 0.05981385
-0.59249015 -0.50834524 -0.00000022
-0.00807829 0.00503538 0.11554106
-0.03825527 0.15718246 0.00000907
-0.01357984 -0.22114705 0.19422782
-0.02883441 -0.10581610 0.41241020
-0.12201050 0.32683580 0.00000526
-0.45154427 0.12971267 -0.00000074
-0.55598561 0.03676835 0.00000207
-0.62666637 -0.08042219 -0.00000112
-0.66233559 -0.69839508 -0.00000018
-0.01678685 -0.20440238 0.24009649
-0.03548899 0.15538496 0.50756761
-0.51529153 0.05959884 -0.00000089
-0.42565324 0.31056470 0.00000000
-0.01107910 0.38619920 0.15840597
-0.00602060 0.01089838 0.08595918
-0.21084404 -0.77488443 0.00000000
-0.02594948 0.17630721 0.37115108
-0.00867413 0.21862645 0.12406309
-0.02374020 0.14762486 0.33948416
-0.00785749 0.52507371 0.11238303
-0.04435800 -0.01813656 0.63444924
-0.00608988 0.57755559 0.08710141
-0.43965991 -0.59951596 0.00000000
-0.00231193 0.28615865 0.03306675
-0.14604219 0.02239081 0.00000000
-0.13018015 0.14456890 0.00000787
-0.05144352 0.24738792 0.00000000
-0.04899894 0.17071134 0.00000000
-0.00831890 0.18448041 0.11887566
-0.38791415 -0.02254835 -0.00000020
-0.01123164 0.36057859 0.16058270
-0.36709138 0.25889854 -0.00000061
-0.03923210 -0.33677002 0.56112690
-0.00098188 -0.49721899 0.01404347
-0.02146985 0.03680568 0.30697850
-0.00605758 0.02994212 0.08663956
-0.01377893 -0.61617389 0.19707528
-0.18127561 -0.13302286 0.00000000
-0.52012240 -0.24479175 -0.00000037
-0.02821832 0.03512838 0.40360054
-0.35083097 -0.68775098 0.00000000
-0.04574133 -0.30621714 0.65423057
-0.05031563 0.34133179 0.00000612
-0.03091575 -0.79322904 0.44217738
-0.03670214 0.27280443 0.52495061
-0.60447734 -0.69032049 0.00000000
-0.60441966 0.15968104 -0.00000145
-0.43289772 -0.32991410 0.00000000
-0.01849092 -0.79981518 0.00000000
-0.03685799 0.06379932 0.52717623
-0.17514161 0.51110468 -0.00000024
-0.02363779 0.28100744 0.33808825
-0.03016727 0.34678021 0.00000000
-0.01208905 0.12407896 0.17279757
-0.36783454 0.03920576 0.00000564
-0.24549763 0.52114552 -0.00000006
-0.04775921 -0.79420464 0.68308447
-0.01484767 0.43413346 0.21233095
-0.01736095 -0.78297944 0.24830768
-0.75813412 0.02944632 -0.00000169
-0.01065888 0.64698403 0.15245391
-0.30869820 0.35960762 0.00000143
-0.11435840 -0.67894014 0.00000000
-0.38814995 0.38817727 -0.00000057
-0.01110452 0.47444552 0.15882512
-0.02228958 0.28238936 0.31876219
-0.61159125 -0.40316563 -0.00000048
-0.00864981 -0.50171904 0.12371533
-0.06881942 0.24053003 0.00000735
-0.02007067 0.37436393 0.28703897
-0.60396131 0.04662927 -0.00000125
-0.03962097 -0.10964340 0.56669291
-0.17229427 -0.66944093 0.00000000
-0.77188674 -0.42371297 -0.00000094
-0.01155420 0.04464976 0.16525572
-0.00086614 0.76821585 0.01238396
-0.01788235 -0.45018685 0.25576508
-0.02249666 0.34065357 0.32176729
-0.00699446 -0.71273217 0.10003939
-0.68923266 -0.36671214 -0.00000088
-0.01074721 -0.33835395 0.15371369
-0.01415120 0.13090997 0.20229973
-0.04270086 -0.32059869 0.61074170
-0.78938948 -0.72867408 -0.00000018
-0.00715635 0.40555933 0.10229210
-0.04288069 -0.10415678 0.61331754
-0.03774333 -0.49374292 0.53983013
-0.01991275 0.18122066 0.28480638
-0.58205450 -0.47850775 -0.00000022
-0.40859607 0.06900242 -0.00000045
-0.00371550 0.25642765 0.05314156
-0.41598198 -0.71285713 0.00000000
-0.49138270 0.30541722 -0.00000118
-0.52596824 0.15972917 -0.00000111
-0.26529785 -0.37024577 0.00000000
-0.39553976 -0.40242188 0.00000000
-0.01598914 0.13144830 0.22859301
-0.18699292 0.21076348 0.00000602
-0.42276638 -0.35650084 0.00000000
-0.26296471 -0.57180365 0.00000000
-0.02240489 0.00936872 0.32044950
-0.00912892 0.08009279 0.00001066
-0.48495533 -0.58147784 0.00000000
-0.00244090 0.75763642 0.03491202
-0.01608214 0.11649758 0.23001739
-0.00771214 0.58089348 0.11028176
-0.53360702 -0.13323241 -0.00000063
-0.52361213 -0.37591144 -0.00000016
-0.01316849 0.46727241 0.00000000
-0.44251675 0.19360108 0.00000163
-0.14179369 0.21768038 0.00000660
-0.31206252 0.23489584 0.00000345
-0.07766529 -0.17859021 0.00000000
-0.58248680 -0.54436286 -0.00000011
-0.02641956 -0.31713322 0.37786985
-0.00193259 0.72544783 0.02764119
-0.01591697 0.46473957 0.22763574
-0.04394130 0.13267903 0.62849157
-0.50494432 -0.51475190 0.00000000
-0.01387643 -0.09127119 0.19846984
-0.04767504 -0.63069925 0.68188344
-0.02897005 -0.29903031 0.41434872
-0.00462836 0.58656347 0.06616626
-0.01774694 -0.19698923 0.25382833
-0.05036541 -0.51837680 0.72036615
-0.01689220 0.06698234 0.24149811
-0.01321502 -0.10560735 0.18900994
-0.01226447 -0.50292575 0.17541445
-0.78800387 -0.66371158 -0.00000034
-0.02955685 -0.03176220 0.42274461
-0.01257051 -0.20149290 0.17979175
-0.05150384 0.00477416 0.73664608
-0.47771717 0.20719557 0.00000073
-0.37695484 0.11730434 0.00000416
-0.18215818 0.06965018 0.00000821
-0.03387772 -0.75369309 0.48454142
-0.38370611 -0.32695107 0.00000000
-0.01884864 0.12988984 0.26950011
-0.00053025 0.70044645 0.00758394
-0.00262143 0.18814436 0.03749338
-0.01441839 -0.45628150 0.20622132
-0.01536469 -0.47408963 0.21975592
-0.04494612 0.14663003 0.64286217
-0.64548683 0.10477511 -0.00000153
-0.00228886 0.34992233 0.03264678
-0.02290014 0.37047807 0.32753895
-0.02318554 0.05215821 0.33152692
-0.02793408 -0.79683093 0.39953149
-0.04126330 0.12015802 0.59018736
-0.15066208 0.00722419 0.00000000
-0.05575931 -0.46585934 0.00000000
-0.04261510 0.47415001 0.00000000
-0.03084215 -0.41005954 0.44112462
-0.50259343 -0.23035167 -0.00000032
-0.01645126 0.43273563 0.23530008
-0.02346593 -0.58429055 0.33562517
-0.00839697 0.49130952 0.00000450
-0.03102482 -0.61133599 0.44373732
-0.71586058 -0.18485725 -0.00000131
-0.37984082 -0.53306447 0.00000000
-0.04638619 -0.76720004 0.66344644
-0.05244550 -0.65897506 0.75011546
-0.00687732 0.54581880 0.09833065
-0.43187717 0.17568228 -0.00000074
-0.27415576 0.01308245 0.00000000
-0.05413556 -0.45428280 0.77429232
-0.18765792 -0.71013143 0.00000000
-0.03550710 0.53379059 0.00000346
-0.19176894 0.58838437 -0.00000044
-0.07161661 0.42392741 0.00000456
-0.03825020 0.19466318 0.54707934
-0.01611116 0.29115879 0.23043326
-0.01267672 0.04180912 0.18118687
-0.40630330 -0.11456738 -0.00000012
-0.44351638 -0.23303915 -0.00000007
-0.00888890 0.11299019 0.12701450
-0.28299974 -0.73122762 0.00000000
-0.01216222 -0.61318629 0.17395200
-0.19776847 -0.26254865 0.00000000
-0.01780661 0.50090135 0.25468708
-0.01138020 -0.03636466 0.16276712
-0.09353892 -0.19439908 0.00000000
-0.39863181 -0.16506262 0.00000000
-0.18546754 -0.55486943 0.00000000
-0.00546218 0.60328699 0.00000287
-0.03322780 0.02290811 0.47518783
-0.01392202 0.43784944 0.19908909
-0.02489658 -0.22202682 0.00000000
-0.03011218 -0.76934258 0.00000000
-0.31842263 0.10460473 0.00000550
-0.26683560 -0.06910106 0.00000000
-0.00775630 0.39736584 0.11093575
-0.00049715 -0.70587209 0.00711060
-0.16289053 0.23253375 0.00000000
-0.01664347 -0.56597144 0.23804580
-0.01499686 -0.02269348 0.21449498
-0.42004476 0.05942605 -0.00000048
-0.46015177 0.14911563 0.00000204
-0.03073472 -0.76674672 0.43958820
-0.01153752 0.17030108 0.16501722
-0.03153166 -0.74728637 0.45098646
-0.54323202 -0.62568620 0.00000000
-0.00814526 0.39760956 0.11649890
-0.39747713 -0.57953370 0.00000000
-0.19845923 -0.34583831 0.00000000
-0.03263167 -0.12516545 0.46672295
-0.04550678 -0.11982031 0.65087885
-0.04703294 -0.68376923 0.67269839
-0.23727415 0.44513253 0.00000137
-0.03011929 -0.68332923 0.43078587
-0.01956223 -0.69869742 0.27979189
-0.01002648 0.23604644 0.14340524
-0.04293956 -0.51435757 0.61415269
-0.03734630 -0.67085150 0.53415123
-0.22385509 -0.48318665 0.00000000
-0.38639816 -0.22940085 0.00000000
-0.31041382 0.32844699 0.00000192
-0.47687084 0.23343519 0.00000031
-0.32182901 0.22970667 0.00000335
-0.54405459 0.01807302 -0.00000094
-0.27025788 0.45718267 -0.00000055
-0.02230027 -0.51694752 0.31895316
-0.06738965 -0.14943761 0.00000000
-0.03516281 0.10564520 0.50288967
-0.20121735 -0.67221478 0.00000000
-0.02732044 0.23690301 0.39072461
-0.00577305 0.31060705 0.08256988
-0.02097851 0.44396644 0.30005462
-0.61711387 -0.49365899 -0.00000035
-0.75015989 -0.23495188 -0.00000137
-0.20793352 -0.69428877 0.00000000
-0.00310377 0.39087509 0.04431356
-0.15699195 -0.51334509 0.00000000
-0.03881495 0.07113865 0.55513040
-0.00581614 -0.74883251 0.08318626
-0.01056832 -0.44932150 0.15115501
-0.40733047 -0.34979192 0.00000000
-0.46829646 0.20362699 0.00000097
-0.00175283 0.73758018 0.02506218
-0.02000938 -0.35512681 0.28618726
-0.24083423 0.22602144 -0.00000001
-0.69984912 -0.62954810 -0.00000043
-0.32785576 -0.12156387 0.00000000
-0.00894242 0.07468886 0.12790042
-0.01095178 0.10162888 0.00001031
-0.40031497 0.15128569 -0.00000056
-0.03472269 -0.68820144 0.49662675
-0.27229808 0.19534208 -0.00000009
-0.01095855 -0.55313912 0.15673634
-0.07088495 0.38143966 0.00000000
-0.07454547 0.01029063 0.00001072
-0.70421471 -0.71920582 -0.00000020
-0.02396232 0.13181393 0.34265810
-0.00280899 0.36055688 0.04017600
-0.04326054 -0.01060130 0.61875220
-0.04070975 -0.10378456 0.58226602
-0.05682838 -0.64739680 0.00000000
-0.24310854 0.46660442 0.00000090
-0.21378914 -0.47488833 0.00000000
-0.07485487 0.27225544 0.00000679
-0.06913130 -0.30061512 0.00000000
-0.01669505 0.10613499 0.23878362
-0.04082009 0.07442809 0.58384723
-0.05980133 -0.09597511 0.00000000
-0.02455191 -0.77995766 0.35115756
-0.04313287 -0.61212071 0.61691592
-0.43829174 0.18598259 0.00000184
-0.02925445 0.13998629 0.41842231
-0.00260543 0.44951799 0.03719711
-0.51821539 0.20263986 0.00000003
-0.02592026 -0.72900477 0.37072851
-0.26307205 -0.62454606 0.00000000
-0.00331378 0.07216047 0.04739592
-0.04192614 -0.63496443 0.59965545
-0.00008124 -0.63340224 0.00116198
-0.04845685 -0.11145886 0.69307444
-0.02383242 -0.13677439 0.34086693
-0.02635311 0.36001833 0.37691411
-0.62109772 -0.06059714 -0.00000113
-0.02396909 0.18048076 0.34282512
-0.00949474 -0.70178428 0.00000000
-0.00087110 0.36081370 0.01236693
-0.05085851 -0.13147786 0.72742561
-0.01265700 0.30739433 0.18102879
-0.26861153 0.27844726 -0.00000022
-0.26363922 0.25874267 -0.00000017
-0.08998326 0.29850156 0.00000000
-0.03822193 0.19224927 0.54667436
-0.22142229 0.42509412 0.00000201
-0.20494916 0.05917333 0.00000000
-0.12996680 0.49788061 0.00000255
-0.00745783 0.02856889 0.10666674
-0.01797306 0.06895364 0.25706253
-0.04356913 -0.01361736 0.62316593
-0.02384514 -0.14869455 0.34104879
-0.74130847 -0.13062373 -0.00000152
-0.04019404 0.00554677 0.57489158
-0.00927046 -0.79447216 0.13259224
-0.00925144 0.65640126 0.13232307
-0.03233835 -0.05881495 0.00000000
-0.28977845 -0.26372789 0.00000000
-0.19178393 -0.56811792 0.00000000
-0.04276374 -0.04512614 0.61164566
-0.04060738 -0.26670745 0.58079904
-0.01928171 -0.02557513 0.27577972
-0.51161652 0.28171004 -0.00000127
-0.49149505 0.04645013 -0.00000077
-0.00151975 0.50318133 0.02173644
-0.48792455 -0.66141170 0.00000000
-0.02535199 0.08979996 0.36252952
-0.63730554 -0.73572639 -0.00000001
-0.23776831 -0.77914227 0.00000000
-0.00423527 -0.22073872 0.06057561
-0.51789444 -0.00100769 -0.00000079
-0.22079783 0.17102960 0.00000610
-0.52142242 -0.10295093 -0.00000063
-0.12108454 0.42090190 0.00000000
-0.04481507 -0.69732761 0.64097549
-0.35303602 0.30984052 0.00000141
-0.17279787 0.42894622 0.00000288
-0.04459072 -0.33172043 0.63777260
-0.10719495 0.49165808 0.00000000
-0.72980384 -0.78341111 -0.00000004
-0.00486668 0.55897011 0.06956967
-0.03692081 -0.39905030 0.52806693
-0.01327129 0.10052683 0.18970544
-0.42642604 -0.41493198 0.00000000
-0.02072797 -0.35355274 0.29646503
-0.62297560 0.03798314 -0.00000131
-0.32393076 -0.71038398 0.00000000
-0.03355114 -0.20276992 0.47987314
-0.02515140 -0.27422966 0.35973177
-0.02506013 -0.59959435 0.00000000
-0.01255279 -0.54766942 0.17953827
-0.02515491 0.12778081 0.35978537
-0.59927223 -0.27482983 -0.00000066
-0.52916915 0.25272923 -0.00000129
-0.42750483 0.22906797 0.00000133
-0.00034645 0.53389847 0.00489887
-0.17165126 0.50663507 0.00000160
-0.33987397 -0.10420250 0.00000000
-0.02111867 -0.48570161 0.30205313
-0.00582720 0.08771036 0.08334438
-0.02019648 -0.16964520 0.28886335
-0.02870364 0.22698056 0.41054536
-0.28079852 -0.67355639 0.00000000
-0.02148267 0.37791344 0.30726463
-0.00382668 0.60770645 0.05473169
-0.09843007 0.62291833 0.00000107
-0.02015238 0.45330507 0.28822607
-0.48585847 -0.45886841 0.00000000
-0.10203881 -0.09364789 0.00000000
-0.31687667 0.04892578 -0.00000002
-0.09172627 0.40079879 0.00000000
-0.02286702 -0.34430143 0.32705912
-0.00454533 0.24845452 0.06490548
-0.64357797 -0.07867639 -0.00000119
-0.02206105 -0.33483688 0.31553159
-0.00980129 0.54020507 0.14018580
-0.44134126 -0.63777397 0.00000000
-0.15073369 -0.00515044 0.00000000
-0.00390935 0.41674274 0.05591412
-0.01703116 -0.68621691 0.24359076
-0.67374216 0.04056133 -0.00000025
-0.00972637 0.08717172 0.00000000
-0.03133459 -0.22566388 0.44816890
-0.03135415 0.20686685 0.00000842
-0.48632316 -0.14748518 -0.00000040
-0.18126980 -0.69475719 0.00000000
-0.04448513 -0.24435232 0.00000000
-0.06208795 0.37976487 0.00000537
-0.49661514 -0.16379741 -0.00000042
-0.03970531 -0.59965081 0.56789140
-0.67533920 -0.36475441 -0.00000082
-0.03043048 -0.40232144 0.43523668
-0.00102964 0.66397923 0.01472660
-0.00378865 0.67493608 0.05418785
-0.53768392 -0.57621722 0.00000000
-0.00176645 -0.31605591 0.02526489
-0.18363582 0.05710257 0.00000000
-0.08610197 0.57600781 0.00000000
-0.18347825 0.56301855 0.00000044
-0.00577396 0.20149939 0.08247194
-0.05366200 -0.68899131 0.76751483
-0.30874839 0.25600462 0.00000316
-0.01076360 -0.15677083 0.15394807
-0.04006131 -0.12929353 0.57299078
-0.26626815 -0.02533543 0.00000000
-0.02585428 -0.56778571 0.36978489
-0.00578608 0.36376426 0.08275631
-0.01580684 0.02441563 0.22607980
-0.00193704 -0.34537850 0.02770481
-0.15663777 0.26604649 0.00000000
-0.36146118 -0.19095970 0.00000000
-0.04952769 -0.59207724 0.70838293
-0.03616129 0.19684305 0.51719532
-0.22234661 0.33563013 0.00000349
-0.00429014 -0.66374350 0.06136033
-0.01262148 -0.55459999 0.18052062
-0.01316423 0.50844492 0.18828622
-0.63598305 0.08873241 -0.00000146
-0.00819787 -0.60991966 0.00000000
-0.07195405 -0.71071656 0.00000000
-0.33446014 0.43113113 -0.00000078
-0.04261541 0.63111933 0.00000189
-0.01366967 -0.23889818 0.19551258
-0.00433280 -0.02961914 0.06197054
-0.01647976 0.30753611 0.23565092
-0.01576966 0.31455825 0.22549368
-0.22188779 0.02575548 0.00000000
-0.02263887 0.06097044 0.32370813
-0.11358188 0.39655429 0.00000000
-0.03617873 -0.52742991 0.51745197
-0.01069238 0.54305344 0.15293129
-0.00035337 0.26189058 0.00505408
-0.34258670 -0.76453759 0.00000000
-0.04308305 -0.44033723 0.61620621
-0.40641302 0.12550760 -0.00000054
-0.01326914 -0.45807434 0.18978402
-0.18273181 0.40922255 0.00000302
-0.03293190 0.02574727 0.47101974
-0.03235343 -0.69515273 0.46274002
-0.33583578 0.37856564 0.00000059
-0.04265445 -0.45195147 0.61007574
-0.00690912 0.42043731 0.09875858
-0.02400002 0.40840383 0.34327135
-0.03010087 -0.60293816 0.00000000
-0.04741814 -0.36277799 0.67821335
-0.28049523 -0.29889420 0.00000000
-0.01648283 0.41328268 0.23571925
-0.01815262 0.02257663 0.25963067
-0.01591804 -0.77371685 0.22767022
-0.16913379 -0.08208989 0.00000000
-0.29659108 -0.75843583 0.00000000
-0.01528890 0.30283102 0.21861302
-0.75370268 -0.11741485 -0.00000159
-0.16068150 -0.63080216 0.00000000
-0.13105056 0.05073478 0.00000926
-0.03298605 -0.32792849 0.47178839
-0.02390079 -0.54628182 0.34184474
-0.02190907 0.29207681 0.31336212
-0.03554526 0.12045979 0.50840085
-0.47110554 0.20208802 -0.00000095
-0.40676674 -0.16265003 -0.00000003
-0.01033716 -0.35840134 0.14784887
-0.04393538 -0.33550803 0.62839907
-0.00082733 0.34847138 0.01173820
-0.52599515 0.25077466 -0.00000127
-0.08017030 -0.33965606 0.00000000
-0.02718453 -0.07463632 0.38881216
-0.42554223 0.34168455 -0.00000101
-0.46927648 0.12901782 0.00000220
-0.50525468 -0.15909013 -0.00000046
-0.11521496 -0.25938366 0.00000000
-0.04232941 -0.79372939 0.60542294
-0.01569667 -0.64449413 0.22450411
-0.01764844 0.30083827 0.25242143
-0.00053133 -0.70400528 0.00759944
-0.00875083 -0.69204232 0.12516017
-0.01797451 0.26893755 0.25708480
-0.25483689 0.52685809 -0.00000060
-0.00988018 0.01921290 0.14131283
-0.03817734 0.02419918 0.54604651
-0.05185883 -0.44315281 0.74172820
-0.01346801 0.16214123 0.19253294
-0.01408698 -0.51630164 0.20148130
-0.01015117 -0.62825335 0.14518866
-0.58240623 -0.72785606 0.00000000
-0.04385648 -0.37513285 0.62726985
-0.00379470 -0.20190154 0.05427436
-0.01399197 0.24106774 0.20012234
-0.44680725 0.28147921 -0.00000099
-0.00123239 0.14640801 0.01748927
-0.03648312 0.05229025 0.52181422
-0.04527849 0.04795036 0.64759441
-0.68539858 -0.72186108 -0.00000020
-0.05297668 -0.51917197 0.75771562
-0.61765609 -0.75542394 0.00000000
-0.00857672 -0.18931593 0.12266991
-0.67103082 -0.62920455 -0.00000034
-0.00403634 0.14033403 0.05773044
-0.00661303 0.67858320 0.09457995
-0.37161775 0.07906358 -0.00000031
-0.03497300 -0.40113492 0.50020701
-0.06850012 -0.54289363 0.00000000
-0.43436025 0.07437776 0.00000378
-0.01647548 0.31706616 0.23564464
-0.01194898 0.30381229 0.17090216
-0.01274322 -0.77547399 0.18226183
-0.00806579 0.32898808 0.11536222
-0.56977359 -0.75458299 0.00000000
-0.02762019 0.11671979 0.39504669
-0.09651420 -0.76692239 0.00000000
-0.04988516 -0.30209037 0.71350081
-0.41534901 -0.05317788 -0.00000026
-0.31267637 0.00074362 0.00000727
-0.22333391 0.37260270 0.00000285
-0.00051687 -0.52849951 0.00739262
-0.02646060 0.45104903 0.00000484
-0.03195604 -0.74482971 0.45705622
-0.02438427 -0.40416174 0.34875991
-0.01241803 -0.14433493 0.17761087
-0.23776988 0.18366833 0.00000000
-0.38441790 0.00860819 0.00000584
-0.01380084 -0.41240550 0.19738861
-0.60975421 -0.31124169 -0.00000064
-0.04408984 0.66999107 0.00000128
-0.04920870 -0.39524623 0.70382366
-0.01693139 0.35545964 0.24212306
-0.01195349 0.57241475 0.17095780
-0.02763135 -0.28352073 0.39520167
-0.00835273 0.47867282 0.11946618
-0.53092261 -0.57964494 0.00000000
-0.02232693 -0.40028885 0.31933435
-0.34422316 0.06208061 0.00000572
-0.02458558 -0.59519423 0.35163912
-0.00667579 -0.51771924 0.09548149
-0.00231100 0.15219214 0.00000968
-0.71536433 -0.54430339 -0.00000064
-0.59782646 0.05346443 0.00000099
-0.00632733 0.59200036 0.09049784
-0.03165993 -0.03267990 0.45282545
-0.02037353 -0.31355300 0.29139560
-0.05389939 -0.26790078 0.00000000
-0.23054147 0.46901007 -0.00000040
-0.05572177 -0.10469977 0.79698636
-0.03286814 0.01627221 0.47004087
-0.02874705 -0.05442938 0.41116156
-0.02350891 0.26604323 0.33620245
-0.41965732 0.18371826 -0.00000070
-0.18005357 0.34942408 0.00000000
-0.02708617 0.24662495 0.38741062
-0.23963826 -0.78260467 0.00000000
-0.13978231 0.56642729 -0.00000018
-0.33916788 0.30422220 -0.00000057
-0.59461721 -0.72105925 0.00000000
-0.03731628 -0.30226826 0.53372513
-0.17179145 0.45919955 0.00000239
-0.07649740 0.05288886 0.00001005
-0.00173508 0.31546373 0.02481623
-0.44344081 -0.66278013 0.00000000
-0.02600706 -0.35110815 0.37197004
-0.02319950 -0.49550729 0.33181448
-0.00966859 -0.08702276 0.13828654
-0.02983034 0.34794820 0.42665767
-0.01643641 -0.45485574 0.23508433
-0.49200002 -0.73151479 0.00000000
-0.29691198 0.31191554 -0.00000040
-0.04360614 -0.33913764 0.62368982
-0.08255409 -0.34025065 0.00000000
-0.00574521 0.51182155 0.08217180
-0.72825466 -0.04587583 -0.00000161
-0.02504437 0.21401765 0.35820579
-0.07439952 0.00089197 0.00000000
-0.02413051 -0.17599023 0.34513044
-0.26767952 0.12029056 0.00000616
-0.72033232 0.02048586 -0.00000081
-0.39310081 0.15089056 0.00000329
-0.00259888 0.62788067 0.03714184
-0.31503462 0.38744272 0.00000084
-0.14502280 -0.15785123 0.00000000
-0.06952619 -0.46725246 0.00000000
-0.05996620 0.30619131 0.00000000
-0.49597702 0.19834210 -0.00000105
-0.02551177 0.29788122 0.36489250
-0.10139326 -0.31267227 0.00000000
-0.02907345 -0.32684939 0.41582763
-0.01582443 -0.60064661 0.22633133
-0.15246754 -0.33749786 0.00000000
-0.03103167 0.11859230 0.44384184
-0.05189906 -0.39967924 0.74230427
-0.42549088 -0.34450549 0.00000000
-0.03713706 -0.25657352 0.53116245
-0.04667687 0.06492746 0.66761799
-0.00897188 -0.01357652 0.12832172
-0.00533289 0.43029561 0.07627456
-0.31296988 0.39403920 -0.00000062
-0.04920743 -0.71126746 0.00000000
-0.04149119 -0.44726351 0.59343744
-0.01565275 -0.29098818 0.00000000
-0.03105063 -0.38237971 0.00000000
-0.59047827 0.18529067 -0.00000143
-0.00815018 -0.43845560 0.11656917
-0.05306772 -0.69812462 0.75901454
-0.00162649 -0.26286420 0.02326316
-0.00883635 -0.41936889 0.12638324
-0.20963798 -0.14954504 0.00000000
-0.01580619 -0.47039803 0.22607055
-0.77093132 -0.09767465 -0.00000170
-0.54720880 0.00322713 0.00000280
-0.03633927 0.18090443 0.51975878
-0.04616916 -0.43630727 0.66034776
-0.00336149 -0.04380387 0.04807823
-0.76264601 0.00532254 -0.00000137
-0.00222928 0.55679944 0.03183916
-0.43998610 0.05503319 0.00000399
-0.66881402 -0.71464486 -0.00000018
-0.22264841 0.17950247 0.00000595
-0.02277642 0.26552201 0.32576750
-0.78007371 -0.14883994 -0.00000163
-0.15714863 -0.35451813 0.00000000
-0.00588255 0.58069456 0.08413606
-0.20885418 -0.23058052 0.00000000
-0.46493813 0.19313307 -0.00000091
-0.77791998 -0.43707705 -0.00000091
-0.03566538 -0.45281754 0.51010962
-0.03201958 -0.35038048 0.45796498
-0.00477973 -0.52433174 0.06836284
-0.04111902 -0.33287483 0.58811604
-0.20126655 -0.48948709 0.00000000
-0.02602605 0.32992741 0.37224890
-0.16114703 -0.36144248 0.00000000
-0.00487602 -0.73836140 0.06974005
-0.43631872 0.17807616 -0.00000076
-0.02765081 -0.15753282 0.39547999
-0.05231414 -0.33299378 0.74824249
-0.50415577 -0.29570117 -0.00000021
-0.02232490 0.47494322 0.31931292
-0.00611764 0.45017439 0.08744219
-0.35423028 -0.30194599 0.00000000
-0.02040056 -0.13155033 0.29178216
-0.04579196 0.02315006 0.65496022
-0.02791881 -0.66125626 0.39931310
-0.25334701 0.37180819 0.00000229
-0.04218841 -0.50559565 0.60340899
-0.02125563 -0.15426278 0.30401201
-0.38248389 -0.12888684 0.00000000
-0.01476892 -0.13551964 0.00000000
-0.37494659 -0.55751486 0.00000000
-0.46896276 0.26527490 -0.00000106
-0.16889890 0.53742844 0.00000114
-0.00819202 0.67055877 0.11717025
-0.46645167 -0.56417208 0.00000000
-0.39571923 -0.42243868 0.00000000
-0.40073112 0.15861685 0.00000302
-0.00845250 -0.27601367 0.12089315
-0.00561888 -0.20227723 0.08036496
-0.00895657 -0.11538433 0.12810279
-0.01689873 -0.35395502 0.24169674
-0.00062129 0.61232224 0.00000281
-0.12333006 -0.35959631 0.00000000
-0.49734937 -0.19076155 -0.00000037
-0.55585024 0.21478386 -0.00000090
-0.01736336 -0.57185772 0.24834212
-0.26648527 0.51585756 -0.00000037
-0.05304753 -0.69067342 0.75872582
-0.06658901 0.13704431 0.00000894
-0.54052509 -0.60886169 0.00000000
-0.03741012 -0.30539820 0.53506730
-0.49858515 0.27734983 -0.00000120
-0.01769151 -0.64543782 0.25303562
-0.71067230 -0.79859953 -0.00000000
-0.26391407 -0.61544188 0.00000000
-0.41988245 -0.77479327 0.00000000
-0.05009336 0.06024632 0.71648024
-0.02251909 -0.12361386 0.32208288
-0.52267813 0.10889841 0.00000151
-0.08656608 0.31738911 0.00000593
-0.05022110 -0.13484932 0.71830861
-0.09978175 0.18627725 0.00000770
-0.37621335 -0.35416161 0.00000000
-0.02879578 0.14650853 0.41186191
-0.09375767 0.52902546 0.00000000
-0.02841514 0.34183242 0.40640990
-0.00233180 -0.74655489 0.03335087
-0.02832086 -0.10525701 0.40506472
-0.04719449 -0.26364507 0.67501611
-0.38994854 0.22266960 -0.00000064
-0.15691196 0.20277997 0.00000659
-0.04975500 -0.71941860 0.71163188
-0.27755280 -0.54655687 0.00000000
-0.02456702 0.17801560 0.35131980
-0.01741619 0.70635517 0.00000000
-0.02970976 0.03835476 0.42486126
-0.04724118 -0.44638616 0.67568090
-0.04877624 -0.64526937 0.69763380
-0.58516012 -0.34187830 -0.00000048
-0.20666975 0.37658719 0.00000310
-0.00369659 -0.03033919 0.05287102
-0.15538876 -0.48947716 0.00000000
-0.01993882 -0.17615595 0.28517813
-0.08213870 0.44850855 0.00000403
-0.05356904 -0.35997547 0.76619097
-0.02321229 0.15661384 0.33193369
-0.62571151 -0.11653349 -0.00000105
-0.01200216 0.20955128 0.17166276
-0.00031199 0.24132338 0.00434264
-0.01023649 0.47871165 0.14637224
-0.64696825 -0.64744053 -0.00000020
-0.07294292 0.47140039 0.00000383
-0.19285736 0.34283832 0.00000393
-0.02898288 -0.02656436 0.41453508
-0.06526459 0.16200611 0.00000859
-0.18864826 -0.27249862 0.00000000
-0.00431704 -0.14216930 0.06174521
-0.02196160 0.17491412 0.31404513
-0.02855351 0.12445469 0.40839634
-0.00247573 0.04847352 0.03540958
-0.02827520 -0.45934454 0.40441043
-0.01432477 -0.47292051 0.20488221
-0.32200376 -0.65833111 0.00000000
-0.01621015 0.29928683 0.23184925
-0.01921732 -0.51937025 0.27485867
-0.02584922 0.36691523 0.36972029
-0.52181833 -0.22226734 -0.00000042
-0.38106600 0.40469259 -0.00000071
-0.29137506 -0.38783390 0.00000000
-0.01782035 0.24860502 0.25487946
-0.14045643 0.56665980 -0.00000019
-0.51169442 -0.23058161 -0.00000036
-0.32607156 -0.00402212 0.00000000
-0.29908632 0.34276102 0.00000189
-0.05102167 -0.43576344 0.72975426
-0.51629879 -0.11446553 -0.00000059
-0.26112550 -0.48662317 0.00000000
-0.01107892 -0.63994863 0.15845800
-0.30249360 -0.22977707 0.00000000
-0.39362737 -0.44319678 0.00000000
-0.03751458 -0.15535051 0.53656384
-0.33402830 -0.37008685 0.00000000
-0.14645121 0.35898745 0.00000000
-0.00732779 -0.34264159 0.10480689
-0.06561610 -0.70052597 0.00000000
-0.25057703 0.00627145 0.00000812
-0.01880362 -0.56500484 0.26894178
-0.01637608 0.06153609 0.23411349
-0.07792671 0.46172267 0.00000390
-0.77993337 -0.55805963 -0.00000060
-0.04088276 0.17761253 0.58474531
-0.51167919 0.27477051 -0.00000105
-0.01195667 -0.10747081 0.17101219
-0.30910851 -0.53093895 0.00000000
-0.09279248 -0.40854558 0.00000000
-0.00551736 -0.54579385 0.07891292
-0.01414331 0.55128097 0.00000352
-0.04766950 -0.40777428 0.68180789
-0.03475296 0.07907866 0.49706769
-0.48772289 -0.62419537 0.00000000
-0.01439789 0.23045225 0.20592808
-0.01120576 0.06509762 0.16014866
-0.50092589 -0.38109970 -0.00000005
-0.06051709 0.31039931 0.00000643
-0.00867211 0.60603844 0.12402115
-0.17736377 0.38951316 -0.00000003
-0.08253511 0.11621970 0.00000901
-0.55011300 -0.39457023 -0.00000024
-0.03417737 -0.39567045 0.48882713
-0.01754120 0.31201894 0.25088778
