ply
format ascii 1.0
element vertex 1368
property float x
property float y
property float z
end_header
-0.19337453 0.33314153 0.19225836
-0.17115668 0.33853172 -0.00000032
-0.61512655 -0.68505831 0.09490027
-0.21664018 0.27216684 -0.00000104
-0.18476025 0.35394182 0.11466264
-0.08401525 -0.21507825 -0.00000014
-0.25765704 -0.76333722 -0.00000153
-0.38871944 -0.11158050 -0.14696535
-0.25965751 0.07217162 0.00000211
-0.37170420 -0.09576107 -0.00872278
-0.37710426 -0.42405425 -0.00000204
-0.31616895 0.06509008 -0.15528483
-0.05425116 0.02752662 -0.00000992
-0.02838734 0.24477309 -0.00000717
-0.45038241 -0.24134006 -0.25153030
-0.04109796 -0.59278915 0.00000038
-0.38641457 -0.11966654 -0.07225435
-0.51837379 -0.45148090 0.20562784
-0.32704461 0.05490195 -0.24323467
-0.14541281 -0.31981709 0.00000118
-0.44504929 -0.21233139 -0.33983271
-0.41613813 -0.37415832 -0.00000225
-0.39882210 -0.46264404 0.00000262
-0.42997904 -0.23807217 0.12092228
-0.38493479 -0.08281097 -0.25441908
-0.19726512 -0.66094478 -0.00000110
-0.28233396 0.12371022 -0.02906582
-0.56768198 -0.66453216 -0.00000334
-0.14003971 -0.13803263 -0.00000043
-0.09407407 0.52925070 0.00000188
-0.18602706 0.35088883 0.08394647
-0.11762605 0.51602334 0.01674137
-0.57045648 -0.53437313 -0.23427177
-0.31514211 -0.56547342 -0.00000176
-0.04678248 0.67837759 0.00000126
-0.18420970 0.00771989 0.00000633
-0.58873543 -0.59807225 -0.12715086
-0.37795451 -0.07819774 -0.18743652
-0.54489887 -0.51551489 0.12587075
-0.19321688 -0.37948591 0.00000143
-0.49242839 -0.77998442 0.00000298
-0.00631278 -0.02184829 0.00000045
-0.07043953 0.06154945 0.00000096
-0.42800029 -0.22858315 -0.02561270
-0.51030504 -0.39244705 -0.21626165
-0.07371781 -0.13765215 -0.00000003
-0.19648537 -0.06258299 -0.00000073
-0.63537364 -0.73393792 0.15373019
-0.06856402 0.45903105 0.00000120
-0.51435732 -0.78038275 0.00000312
-0.15355013 -0.56467561 -0.00000078
-0.31903207 -0.07394017 0.00000238
-0.62736370 -0.71460070 0.18630923
-0.33533302 -0.00957662 0.15176096
-0.16362419 0.00233104 -0.00000049
-0.28332658 0.15191526 -0.19655276
-0.00550064 0.39642081 0.00000078
-0.31619341 0.03663610 0.03152449
-0.23558922 -0.49861632 0.00000161
-0.55057203 -0.52921191 0.14207643
-0.32271333 -0.52151702 -0.00000177
-0.09111904 0.45561169 0.00000133
-0.13964337 0.46286692 0.05328371
-0.46333805 -0.31860927 0.14115866
-0.31744344 -0.78195279 0.00000193
-0.39532203 -0.15440389 0.15703522
-0.08202016 0.11010809 0.00000106
-0.28287888 -0.07092602 0.00000216
-0.32161687 0.02431530 -0.00409234
-0.26417815 0.16791676 -0.03112068
-0.59714231 -0.78511410 -0.00000359
-0.25713231 0.04338277 0.00000208
-0.13759729 0.41854795 0.00000209
-0.55046777 -0.66830857 0.00000340
-0.45449715 -0.24857311 -0.26631125
-0.38686280 -0.06764766 -0.36288569
-0.14079365 -0.39597020 0.00000110
-0.08923814 0.00400846 -0.00000004
-0.16804264 -0.73995353 0.00000105
-0.01238325 0.67380410 0.00000100
-0.37666092 -0.09269983 -0.09097150
-0.22907793 0.24694928 0.10573918
-0.32483000 0.05350491 -0.20631939
-0.13632623 0.09011478 -0.00000642
-0.41090601 -0.17439580 -0.09632049
-0.03159836 -0.54482822 -0.00000003
-0.27264938 0.16546132 -0.12960489
-0.28963919 0.10074935 0.08628944
-0.30396988 -0.59364448 -0.00000171
-0.14442786 0.45131657 0.09171675
-0.04661906 0.60535187 -0.00000076
-0.06727548 0.12512772 0.00000825
-0.66626487 -0.80296443 -0.03015132
-0.54326762 -0.49623429 -0.08375496
-0.26127260 -0.59749185 0.00000170
-0.32489306 0.01562915 0.12170754
-0.62119426 -0.71567486 -0.00000370
-0.15341571 0.20720138 0.00000156
-0.20130945 -0.00023270 -0.00000072
-0.11195915 0.52970004 0.11699877
-0.07678747 0.14069750 0.00000775
-0.62152615 -0.70050791 0.08768434
-0.23848048 0.15784032 0.00000263
-0.26106894 0.16971026 0.22863019
-0.37928412 -0.11568890 0.25011216
-0.41771781 -0.13468649 -0.40366219
-0.50805024 -0.42655973 0.31279771
-0.21985142 0.28112926 -0.06504798
-0.35928165 -0.00752081 -0.32753479
-0.30864153 -0.37957205 0.00000213
-0.09424325 0.03890723 -0.00000004
-0.08113785 0.17679519 -0.00000668
-0.49238936 -0.38874053 0.02519477
-0.25496158 0.22483605 -0.22086820
-0.01220392 0.43475142 0.00000070
-0.56284748 -0.63796592 -0.00000330
-0.33036694 0.02767537 -0.13811709
-0.02795146 0.39508037 0.00000092
-0.22038686 -0.28380803 0.00000165
-0.25814230 -0.30695270 0.00000187
-0.44640887 -0.47334882 0.00000290
-0.05208802 0.36771792 0.00000042
-0.24319167 0.21286855 0.26234059
-0.34527347 -0.03218799 -0.00743642
-0.15503781 0.42570014 0.07810016
-0.36992193 -0.09307931 0.08940599
-0.37926427 -0.22547218 -0.00000193
-0.10655261 0.55471404 -0.06539851
-0.11845863 0.40878717 0.00000004
-0.03498847 0.65295559 0.00000197
-0.36726124 -0.14501945 0.00000263
-0.40427073 -0.10820101 -0.37094358
-0.02326561 -0.14639165 0.00000055
-0.57054310 -0.69875540 0.00000351
-0.04465686 -0.06531707 0.00000019
-0.12018359 0.32338243 -0.00000312
-0.03895626 -0.51621769 0.00000041
-0.58616506 -0.61513714 0.04323473
-0.33500777 -0.69810260 0.00000209
-0.47481522 -0.74266400 0.00000290
-0.01656975 -0.64716434 0.00000020
-0.40575259 -0.11647441 -0.34524178
-0.30447500 0.06491717 0.28564729
-0.30134338 0.12332882 -0.27815286
-0.37978223 -0.37355925 0.00000256
-0.42555717 -0.56757344 -0.00000242
-0.06125082 -0.29384954 0.00000069
-0.22371800 0.25988489 0.22183912
-0.17368401 0.13543738 -0.00000046
-0.32237410 -0.55291990 0.00000210
-0.43329019 -0.23792132 -0.04439944
-0.05348666 0.06548173 0.00000086
-0.32158645 0.02361262 0.21281932
-0.19728423 -0.06306480 0.00000165
-0.55506873 -0.52783327 -0.06673801
-0.06246653 0.65532597 -0.03355193
-0.16132398 0.07470992 -0.00000043
-0.04502626 0.15419147 0.00000087
-0.06349521 -0.59673128 0.00000051
-0.63203059 -0.72586727 0.14004854
-0.18358594 0.25694400 0.00000177
-0.57218853 -0.75822632 -0.00000343
-0.14215150 0.22925377 -0.00000021
-0.28248507 0.16394755 -0.25128680
-0.46621728 -0.31799421 -0.04121686
-0.30694153 0.08834127 -0.16062036
-0.26616096 -0.14282490 -0.00000120
-0.25266923 0.19000654 0.02672506
-0.16856972 0.39303048 0.09104301
-0.01315274 0.06741839 0.00000062
-0.00732644 -0.20913422 0.00000041
-0.14360879 -0.52672991 -0.00000070
-0.20165139 0.31316804 0.09286998
-0.27309795 0.13992266 -0.00000106
-0.65559520 -0.76294750 -0.10819748
-0.48292900 -0.36558281 -0.00157041
-0.43363951 -0.20116252 -0.25020278
-0.47816902 -0.76212382 -0.00000286
-0.29523962 0.08721750 0.16160939
-0.27100151 -0.12651874 -0.00000121
-0.52010967 -0.45567303 0.27992799
-0.02217899 0.48231728 0.00000067
-0.47616026 -0.34956041 0.03838668
-0.21871628 -0.02498808 -0.00000084
-0.40591564 -0.29397157 -0.00000213
-0.29949091 0.00376838 0.00000231
-0.01584207 -0.50549270 0.00000028
-0.33982882 -0.02042043 0.11803389
-0.13126314 0.49411176 -0.06021794
-0.37012801 -0.09358722 0.32268881
-0.26713766 -0.63071300 0.00000172
-0.36400800 -0.01396032 -0.35474142
-0.20910633 0.29516728 0.06010514
-0.43627203 -0.25327545 0.35791368
-0.03295423 0.57351565 0.00000312
-0.41958715 -0.50047430 -0.00000235
-0.00895924 0.43712469 -0.00000463
-0.06143297 -0.65107818 -0.00000028
-0.25017560 0.19600983 0.21581757
-0.18067748 0.36410915 -0.00159911
-0.19554976 0.15928110 -0.00000058
-0.11371640 0.40875807 0.00000007
-0.38161470 -0.12130653 0.05000195
-0.46520876 -0.30720167 -0.08696071
-0.42485367 -0.37202269 0.00000283
-0.55008067 -0.62483427 -0.00000321
-0.21992072 0.13314157 0.00000191
-0.51107323 -0.42494863 -0.04852474
-0.40213371 -0.35126672 0.00000271
-0.11733595 0.41277806 0.00000147
-0.30269455 -0.64629540 -0.00000173
-0.43301471 -0.30639729 0.00000292
-0.02517285 0.00180460 -0.00001121
-0.53786156 -0.49852574 0.13744485
-0.06874095 0.63603876 -0.01089443
-0.30755857 -0.66100576 0.00000194
-0.29637878 0.08447147 0.17783038
-0.55723395 -0.51298231 -0.17662945
-0.54511803 -0.51603980 0.03185971
-0.27040787 -0.03806840 -0.00000116
-0.07884490 0.30948668 0.00000537
-0.49536657 -0.53446713 0.00000316
-0.18693675 0.34868976 0.12083268
-0.20751711 0.33609215 -0.20290338
-0.19102178 -0.30021042 0.00000147
-0.38837548 -0.07121327 -0.36335613
-0.47660938 -0.33513403 -0.08472003
-0.09152044 -0.64632844 0.00000065
-0.20739028 0.29930387 0.20260864
-0.16378465 -0.60693715 0.00000111
-0.18301168 0.34002819 0.00000182
-0.37788854 -0.11232389 0.37273899
-0.51198755 -0.46199728 0.00000330
-0.06068926 0.58106757 0.00000218
-0.49670931 -0.35484545 -0.24241946
-0.32274779 0.02079999 0.32620771
-0.22301656 0.03304024 -0.00000083
-0.61095324 -0.67498220 0.06120829
-0.26939008 0.17526868 -0.14022506
-0.12296589 0.50312994 0.09038378
-0.56049813 -0.52983903 -0.12749956
-0.01355690 0.08313480 0.00001045
-0.22531152 0.29235951 -0.19866743
-0.24415094 0.20401977 0.00000210
-0.18158418 0.22204388 -0.00000291
-0.47846968 -0.35514771 0.32896213
-0.07147738 0.62944799 -0.01097529
-0.45310311 -0.54075986 0.00000290
-0.12912323 -0.59188094 -0.00000065
-0.15149857 0.22191802 0.00000438
-0.56521137 -0.71397115 -0.00000336
-0.47093800 -0.26760978 -0.37935852
-0.08396152 -0.64699346 0.00000060
-0.12476619 -0.75891695 -0.00000073
-0.39102085 -0.12435462 -0.10745915
-0.28877848 0.14432638 -0.22705059
-0.07097844 0.30659286 -0.00000488
-0.05596718 0.48636784 0.00000114
-0.42446233 -0.25698297 -0.00000222
-0.28085310 0.02153599 -0.00000118
-0.57861092 -0.55817358 -0.21175268
-0.24688171 0.20397150 0.11811429
-0.31876200 0.03042606 0.23093999
-0.30639740 0.06027826 0.20230343
-0.41135960 -0.11767969 -0.41273129
-0.34208425 -0.31185299 -0.00000176
-0.13986323 0.47308658 -0.05877761
-0.13977790 -0.55090105 0.00000100
-0.09673412 0.54237295 -0.00000027
-0.53902705 -0.45620461 -0.24681551
-0.16572152 0.39035092 -0.00000066
-0.32593502 0.01311641 0.05954985
-0.02530751 -0.57339432 0.00000029
-0.61325171 -0.68053219 0.14367125
-0.08691984 0.60479296 -0.08008066
-0.17065932 0.39593698 -0.04343740
-0.09334808 -0.37588543 0.00000083
-0.07018030 0.18434951 0.00000019
-0.10216030 0.42556720 -0.00000200
-0.64761525 -0.75374553 -0.05311373
-0.12232302 0.50468448 0.00151458
-0.36744963 -0.02373229 -0.34673326
-0.47535917 -0.34762591 0.02735993
-0.37166458 -0.64836440 -0.00000215
-0.32434396 0.06465607 -0.26093285
-0.16758803 0.39540804 0.03455925
-0.54595653 -0.51035947 -0.04197435
-0.32423411 -0.01834021 0.00000245
-0.09352721 0.45542872 0.00000135
-0.36536717 -0.35246889 -0.00000193
-0.06906421 0.53412323 0.00000125
-0.02080868 0.58493652 0.00000074
-0.27938081 0.12550586 0.12572647
-0.28382224 0.16418358 -0.27024789
-0.41040050 -0.19081756 0.39956129
-0.34186975 -0.60373767 -0.00000194
-0.32152207 -0.68587073 -0.00000187
-0.12978577 -0.68838992 0.00000085
-0.31102733 0.10430227 -0.30197196
-0.15944286 0.41506470 0.09263828
-0.13371045 0.47718741 0.12994188
-0.17097618 0.38721935 0.12160852
-0.18133112 -0.50817058 0.00000128
-0.02452232 0.41669814 0.00000553
-0.22489440 0.25706145 0.01112750
-0.32235210 0.00056156 -0.00000226
-0.55360934 -0.64195985 0.00000344
-0.26603354 -0.11124595 0.00000204
-0.08731896 0.00010918 -0.00000936
-0.21786731 -0.48218075 -0.00000112
-0.25421040 0.21365007 -0.14972193
-0.55077392 -0.68389788 0.00000340
-0.39211883 -0.14179342 -0.02652116
-0.42881792 -0.22356442 -0.06388458
-0.05706633 -0.71332853 -0.00000029
-0.53644821 -0.47635209 -0.10246788
-0.23201101 0.23986545 0.16701010
-0.38689976 -0.60400186 -0.00000221
-0.31118012 -0.59947556 -0.00000175
-0.11394377 -0.67788709 0.00000076
-0.22358029 0.26022476 0.04044889
-0.18490768 -0.55667990 0.00000127
-0.21328885 0.31407565 -0.15866632
-0.55378104 -0.52694410 -0.05459013
-0.17657794 0.37369603 0.10880311
-0.00824322 0.47639401 -0.00000401
-0.07346652 0.26419310 0.00000111
-0.21962558 0.28182086 -0.06584935
-0.10432411 0.34835772 0.00000406
-0.06698301 0.59288260 0.00000047
-0.31900310 0.06675871 -0.20186822
-0.41333626 -0.14943458 -0.26504909
-0.35216007 -0.01785710 -0.17686572
-0.19970175 -0.73720421 -0.00000117
-0.49977839 -0.39188579 -0.08024313
-0.19898535 -0.64479154 -0.00000110
-0.10887957 0.35057616 0.00000006
-0.38499613 -0.12948394 0.36085946
-0.26229147 0.20410724 -0.20426523
-0.66990057 -0.80689278 -0.05669347
-0.17168792 0.38549919 0.16349638
-0.45937029 -0.30478698 -0.02303207
-0.20280464 0.30772022 0.00000192
-0.04445911 -0.30547561 0.00000058
-0.24753402 0.12546022 -0.00000092
-0.61281340 -0.64689972 -0.17806431
-0.33974988 -0.02023684 0.08258264
-0.27505401 0.04753465 -0.00000113
-0.14226010 0.47254603 -0.08748930
-0.28417402 0.11392942 0.22741499
-0.35703932 -0.06197644 0.20172209
-0.40394130 -0.55570587 -0.00000229
-0.31307425 0.06010017 -0.08709286
-0.00831258 0.39920922 -0.00000526
-0.00218935 0.50154969 0.00000080
-0.23319516 0.23700821 0.13176624
-0.20718013 0.03016761 -0.00000526
-0.17370235 0.23124622 0.00000169
-0.47639890 -0.78586156 -0.00000287
-0.33593959 0.03049449 -0.22717255
-0.10436889 0.55064912 -0.01429388
-0.57176332 -0.75022846 0.00000348
-0.27235579 -0.77613386 0.00000166
-0.48090733 -0.30852886 -0.28712451
-0.25182754 0.11721256 0.00000209
-0.23950478 -0.07626897 0.00000190
-0.26189879 0.16771788 0.11238248
-0.56814267 -0.53717015 -0.18838509
-0.42489249 -0.63633849 0.00000267
-0.03225473 0.09290805 0.00000975
-0.24654412 0.20478993 0.07466236
-0.03644525 0.53045318 0.00000361
-0.31530426 0.04704932 -0.04511297
-0.48833693 -0.33091881 -0.26274865
-0.44949624 -0.28519164 0.13260144
-0.18826054 0.37106799 -0.13988977
-0.09504253 0.22808209 0.00000600
-0.60579403 -0.66252817 0.12715033
-0.10556460 0.10125992 0.00000742
-0.30941580 0.06705846 -0.07682359
-0.56412228 -0.56192087 0.04353020
-0.55133435 -0.68700116 -0.00000326
-0.34048845 -0.00599147 -0.08757471
-0.61798232 -0.69195260 0.14509778
-0.15387196 -0.70169413 -0.00000087
-0.33491755 -0.18401959 -0.00000164
-0.09933415 0.12977224 -0.00000002
-0.42957500 -0.19732551 -0.21749829
-0.30053907 0.11641096 -0.22965854
-0.37305612 -0.10065885 0.37876594
-0.42918473 -0.16728131 -0.37677913
-0.10663652 0.41767228 0.00000304
-0.08685763 0.59030576 0.00621220
-0.33145627 0.05954353 -0.32693046
-0.24463651 0.06297358 -0.00000359
-0.05399176 0.01515202 -0.00001012
-0.42547009 -0.22719785 0.37465855
-0.28631227 0.10659411 -0.00000163
-0.24260926 0.22651994 -0.06686306
-0.30212927 0.00624152 -0.00000278
-0.40623639 -0.15929595 -0.11726427
-0.35741636 -0.06288864 0.10330232
-0.30915282 0.05362458 0.27854467
-0.03092884 0.65575985 0.00000072
-0.37166781 -0.14767285 0.00000265
-0.31500784 0.05729606 -0.09729424
-0.51158308 -0.42861981 -0.03516848
-0.05896485 0.65079713 0.00000035
-0.05179842 0.24836878 0.00000097
-0.63198091 -0.76207399 -0.00000379
-0.48671352 -0.37504510 0.18922945
-0.00388311 0.36072806 0.00000075
-0.18301780 0.36916837 -0.06021549
-0.56713985 -0.56921110 0.21899524
-0.16032643 -0.07381514 -0.00000051
-0.18967379 -0.13102248 0.00000156
-0.13169057 0.31032771 -0.00000010
-0.15107198 -0.52807161 -0.00000074
-0.26546735 0.17288649 -0.07534422
-0.28612056 0.05556338 0.00000226
-0.31469268 0.01131768 0.00000235
-0.30074775 -0.76534302 0.00000184
-0.00152009 0.10043547 0.00001057
-0.50625497 -0.38851253 -0.18428181
-0.05331431 0.29327815 0.00000036
-0.09868502 -0.36463686 -0.00000032
-0.07330120 0.21205516 0.00000687
-0.27570550 -0.49523431 0.00000185
-0.34143576 -0.02430349 0.00584103
-0.35360048 -0.05367780 0.13839511
-0.07608275 0.25253767 0.00000623
-0.38539315 -0.07009052 -0.33009329
-0.31326290 0.04372193 0.02684070
-0.07525513 0.00337640 0.00000096
-0.37156684 -0.08163718 -0.08421044
-0.38202738 -0.12231520 0.36458362
-0.09223790 0.27442877 -0.00000476
-0.34518583 -0.03335766 0.02032650
-0.08706423 0.58980840 0.02617485
-0.40937938 -0.18833903 0.10127458
-0.53296998 -0.48671979 0.27234829
-0.04653153 0.23165486 0.00000036
-0.42264046 -0.22035476 0.11134323
-0.15257033 0.38124561 0.00000215
-0.18845043 0.14855774 -0.00000054
-0.60110543 -0.63438631 -0.09184416
-0.31674334 0.05463926 -0.10567221
-0.33671535 -0.73589426 -0.00000199
-0.42749422 -0.32571565 -0.00000228
-0.01884996 0.47875566 -0.00000365
-0.51264982 -0.76459017 -0.00000307
-0.33830924 -0.01677031 0.35179137
-0.14893976 0.44042549 0.07267122
-0.08931018 0.59274772 -0.04573668
-0.21775477 0.24316781 -0.00000066
-0.44268296 -0.54883038 0.00000283
-0.53077269 -0.74863198 0.00000324
-0.09240844 0.57690470 0.00916855
-0.10086068 0.24922688 -0.00000491
-0.40915371 -0.18779350 0.08512883
-0.06702039 0.64360554 -0.02957476
-0.37237503 -0.05093554 -0.26291846
-0.19985903 -0.07111012 0.00000166
-0.29589127 0.11718309 -0.17247656
-0.44666899 -0.40408533 0.00000294
-0.20716199 0.29986526 0.08210965
-0.08002007 0.48152692 -0.00000176
-0.40717973 -0.21067841 0.00000283
-0.36328351 -0.07705888 0.30047663
-0.00762747 -0.10661309 0.00000048
-0.20043024 0.31611801 0.06909293
-0.42513656 -0.29115972 0.00000288
-0.35901248 -0.00455711 -0.34020097
-0.50040290 -0.35814406 -0.27316952
-0.15598433 0.23321697 0.00000409
-0.21718669 0.30089751 -0.13804278
-0.59711206 -0.79478051 -0.00000360
-0.38359294 -0.12609629 0.36037636
-0.26045077 -0.61623463 0.00000169
-0.30446427 0.09967014 -0.18989465
-0.40219454 -0.13952573 -0.17206466
-0.14942285 0.43926493 0.00035854
-0.27791863 0.12903128 0.22899019
-0.49338803 -0.39115048 0.00080858
-0.23984899 0.22094529 0.11102145
-0.38901837 -0.13919094 0.28006300
-0.64314236 -0.75100280 -0.00902153
-0.09991768 0.19934007 0.00000123
-0.24211329 -0.70233892 -0.00000140
-0.10535103 0.36519549 -0.00000289
-0.55393525 -0.73082172 -0.00000330
-0.39899446 -0.44145684 -0.00000218
-0.13522311 0.47354066 0.00327907
-0.12286922 0.50336108 0.10763686
-0.44501202 -0.27436705 0.16252600
-0.10676470 -0.74325331 0.00000068
-0.20953024 -0.31776422 -0.00000096
-0.25415247 -0.00298779 -0.00000104
-0.19850606 0.10204622 0.00000461
-0.05924234 -0.70763408 -0.00000030
-0.30473696 0.09366945 -0.16066162
-0.29006928 -0.60490440 -0.00000163
-0.20279409 0.34567071 -0.19292232
-0.61838659 -0.67004355 -0.12502888
-0.29683605 -0.23052873 -0.00000144
-0.34697037 -0.00789682 -0.16279700
-0.17016476 0.38918211 0.10065597
-0.04279778 0.21976982 -0.00000714
-0.34091210 -0.70448270 -0.00000200
-0.32948716 0.00455517 0.00549603
-0.10853865 -0.28898179 -0.00000034
-0.05168278 -0.11359284 0.00000012
-0.47887789 -0.33770448 -0.10062567
-0.07036761 -0.40428670 0.00000067
-0.32164810 0.05412529 -0.16766991
-0.04760233 0.39496258 -0.00000415
-0.16250412 0.09717126 -0.00000042
-0.65392200 -0.77871652 0.14116329
-0.32806045 0.00797548 0.27579584
-0.42458748 -0.25829955 -0.00000222
-0.58713811 -0.64290086 0.00000364
-0.17670557 -0.36632791 0.00000134
-0.08371187 0.60084332 -0.01607659
-0.24801196 -0.60076997 -0.00000137
-0.16493534 0.30834864 0.00000169
-0.05917548 -0.64696990 -0.00000026
-0.23760261 0.05705122 0.00000405
-0.49409448 -0.39285820 0.05033110
-0.23792690 -0.02341559 -0.00000095
-0.48010095 -0.35907462 0.04949329
-0.30312639 0.06818282 0.16088837
-0.18551983 0.06851670 -0.00000529
-0.62283768 -0.70367416 0.11199844
-0.28122883 -0.38370869 -0.00000144
-0.24005452 0.22044872 0.11904680
-0.04864604 0.62121063 0.00000199
-0.25275563 -0.18589692 0.00000191
-0.19095752 -0.12840682 -0.00000073
-0.65076535 -0.74898638 -0.12079210
-0.15118936 0.43499607 0.05309633
-0.32740949 0.06209257 -0.28740895
-0.01164302 0.73855309 0.00000035
-0.55097026 -0.52246693 -0.04195522
-0.18458708 0.38619943 -0.17417107
-0.50374154 -0.41576208 -0.00192960
-0.38211895 -0.52245758 0.00000248
-0.25696071 -0.24897893 0.00000190
-0.09458682 -0.59762754 0.00000070
-0.12408789 0.50042729 0.01339503
-0.16598613 0.39927045 0.03244120
-0.50379013 -0.41501510 -0.00665997
-0.57359799 -0.76461100 0.00000348
-0.08651443 0.24704901 0.00000599
-0.26284406 0.16543543 0.11718452
-0.23023805 -0.14552428 -0.00000098
-0.11299111 -0.10423431 -0.00000025
-0.68191018 -0.82150679 -0.13540392
-0.51338755 -0.41645097 -0.12561343
-0.15675262 0.42182344 -0.00136728
-0.39384435 -0.75950809 0.00000240
-0.00190781 0.60273152 0.00000087
-0.40699572 -0.14450947 -0.20822652
-0.28897469 -0.41257071 -0.00000150
-0.60214015 -0.65370515 0.05557169
-0.04003325 -0.58051325 0.00000038
-0.38185988 -0.12190857 0.27681872
-0.29122130 -0.70333179 -0.00000170
-0.32677992 0.01108634 0.06425558
-0.29122977 0.09690372 0.15806522
-0.55095478 -0.66803077 -0.00000324
-0.07554757 0.53493667 0.00000038
-0.31181553 -0.21009260 -0.00000151
-0.12887217 -0.74896850 -0.00000075
-0.29252309 0.06240614 0.00000230
-0.21945536 -0.49159548 -0.00000113
-0.07832724 0.57840001 0.00000168
-0.27583793 0.10798195 0.00000223
-0.36560339 -0.08266073 0.31597036
-0.18683950 0.03276611 -0.00000061
-0.03846555 0.45798087 0.00000454
-0.40619895 -0.76275243 0.00000247
-0.22520719 -0.23686070 -0.00000101
-0.48853752 -0.37945166 0.25660217
-0.24719105 0.21157725 -0.04561747
-0.18043722 0.32727351 0.00000205
-0.62217462 -0.72475864 -0.00000371
-0.07197017 0.62624449 0.07211883
-0.08255012 0.60495976 -0.02325622
-0.32955617 -0.50474171 -0.00000180
-0.31237061 -0.05489526 0.00000235
-0.46868667 -0.29737091 -0.18672047
-0.26048845 0.18504709 -0.07612538
-0.02303888 0.65331921 -0.00000069
-0.29637188 0.08945897 -0.02708782
-0.35286884 -0.71370533 0.00000218
-0.16773127 -0.11635708 -0.00000059
-0.26733693 -0.71614404 0.00000167
-0.43145698 -0.23045923 -0.06101840
-0.08637989 0.59145675 0.05916350
-0.41480734 -0.20144683 0.17875873
-0.45029204 -0.48931700 0.00000291
-0.43540764 -0.79847431 0.00000263
-0.24760132 0.21022232 -0.04362255
-0.29257677 -0.26354763 0.00000210
-0.20981816 0.31159621 -0.09923061
-0.02742507 -0.34184016 0.00000012
-0.19505186 -0.63829336 -0.00000108
-0.48311641 -0.36636213 0.21771920
-0.17792939 -0.59840833 -0.00000095
-0.08614756 -0.25656169 0.00000086
-0.07872391 -0.10963225 -0.00000004
-0.44820457 -0.28207945 0.27179842
-0.21327839 0.28664043 -0.00835835
-0.19785972 -0.66177140 0.00000128
-0.31583774 0.06017136 -0.12399693
-0.32975330 0.00389974 0.02509074
-0.39960441 -0.16473599 0.01054974
-0.57654764 -0.56081682 -0.17001851
-0.20189129 0.15436748 -0.00000062
-0.51541615 -0.44434016 0.19854100
-0.58353727 -0.59467895 -0.07703875
-0.00890653 0.25050925 0.00000829
-0.11535981 0.53694842 -0.08453560
-0.30626250 -0.14820890 -0.00000144
-0.52321363 -0.46316521 0.20203445
-0.04746385 0.22687108 0.00000036
-0.40207590 -0.16692579 -0.02053154
-0.09839062 -0.11739468 -0.00000017
-0.48247575 -0.54275299 0.00000307
-0.00547856 0.75809839 0.00000141
-0.01829614 0.13715685 0.00000956
-0.44000340 -0.26227979 0.26748056
-0.01021913 0.16755110 0.00000067
-0.40729709 -0.18331359 0.13876570
-0.21214801 -0.39434357 -0.00000103
-0.07549503 0.01093917 0.00000096
-0.60590773 -0.65212683 -0.05820061
-0.29166841 -0.79564888 -0.00000176
-0.35132500 -0.04817969 0.03579586
-0.33358416 -0.00535709 0.21070612
-0.23315470 0.09129238 0.00000196
-0.46715692 -0.32783226 0.21645982
-0.25703702 -0.54304711 -0.00000139
-0.53483058 -0.44167357 -0.27089965
-0.28677080 0.05420597 0.00000226
-0.58786066 -0.60608334 -0.07174622
-0.01017024 0.21691543 0.00000057
-0.60391417 -0.62880608 -0.15950354
-0.42494497 -0.22374932 -0.01169863
-0.47895973 -0.35632628 0.20255674
-0.27929010 0.14055008 -0.08101442
-0.20390628 -0.23359145 -0.00000088
-0.59292863 -0.61057776 -0.11411122
-0.37231625 -0.09886901 0.29753361
-0.25777686 0.10541085 0.00000212
-0.10993123 0.53459981 0.06833637
-0.01548972 0.28333403 -0.00000693
-0.22533731 0.10605385 0.00000374
-0.00942888 0.75918024 0.00000103
-0.17519138 0.12894479 0.00000164
-0.30778871 0.05691892 0.21154378
-0.43395458 -0.17294636 -0.40879794
-0.63705837 -0.73800514 0.16707827
-0.33846727 -0.01713785 0.02720220
-0.17277741 0.38287156 0.14016449
-0.39185209 -0.14602313 0.07724766
-0.32761447 0.01079392 -0.00935304
-0.31211495 -0.40819005 -0.00000164
-0.06686362 -0.07954867 0.00000085
-0.00552981 0.39129979 -0.00000547
-0.16912937 0.39167711 0.15923600
-0.24902293 -0.10289810 0.00000194
-0.10642215 0.54307259 0.05304827
-0.28949067 0.13563055 -0.18886482
-0.27909929 -0.19070135 0.00000207
-0.08478070 0.59969376 -0.02390385
-0.06765263 0.18689561 -0.00000692
-0.07003003 -0.05000956 0.00000005
-0.25116642 -0.50015475 -0.00000133
-0.16237475 -0.16962740 -0.00000059
-0.15383684 0.38696930 -0.00000019
-0.31473722 -0.02608255 -0.00000142
-0.41286977 -0.17899818 -0.09707824
-0.09199667 0.00272848 0.00000919
-0.26762674 -0.70770258 -0.00000156
-0.44445193 -0.73008418 -0.00000264
-0.12241801 0.50674064 -0.01245947
-0.35954278 -0.56242652 0.00000232
-0.06728661 0.64615410 -0.04703984
-0.23567514 0.25484881 -0.13029452
-0.17911524 0.07541760 0.00000163
-0.27816178 -0.59807771 0.00000181
-0.23528550 -0.76647307 -0.00000140
-0.42809946 -0.23354049 0.25647217
-0.42394363 -0.22349681 0.01968984
-0.54347469 -0.50022379 -0.06465578
-0.67610769 -0.80744263 -0.13570925
-0.10580733 0.05064563 0.00000811
-0.06621718 0.20177528 0.00000723
-0.08695986 0.47646805 0.00000132
-0.65540161 -0.78054173 -0.00933296
-0.16712190 0.03436571 0.00000648
-0.43987500 -0.22316187 -0.21218685
-0.45698323 -0.30327613 0.34896333
-0.11593885 0.36177433 0.00000003
-0.12481464 0.40976613 0.00000260
-0.01901954 -0.64552803 0.00000021
-0.16394099 0.05021647 0.00000152
-0.34301716 -0.02811429 0.07517276
-0.13353988 0.25554707 0.00000147
-0.03269858 0.53545779 0.00000064
-0.47800939 -0.35403154 0.19326501
-0.00179158 -0.34460882 0.00000030
-0.18210511 0.29856660 -0.00000041
-0.48991623 -0.62083065 -0.00000284
-0.00703344 0.27292940 0.00000071
-0.05398440 0.08628618 0.00000088
-0.24973165 -0.01710420 -0.00000102
-0.08777815 0.60291530 -0.08114489
-0.68145449 -0.84518416 0.12139141
-0.19527050 0.04792593 -0.00000065
-0.24095041 -0.15301254 -0.00000105
-0.51806592 -0.45073154 0.06924833
-0.35440729 -0.65772832 -0.00000205
-0.51095549 -0.43356487 0.05827214
-0.61209370 -0.66538948 -0.06734790
-0.30701741 0.05877934 0.24918660
-0.40159336 -0.16954900 0.26189126
-0.42838473 -0.23422994 0.27354293
-0.20903711 -0.51785720 -0.00000109
-0.42541881 -0.39967560 -0.00000232
-0.10393192 0.34827968 0.00000407
-0.09434600 0.57222430 0.08361095
-0.31719412 0.06303652 -0.15759111
-0.17259507 -0.29652627 -0.00000073
-0.21191603 0.27608176 0.00000181
-0.26365126 0.16348134 0.10774649
-0.03122736 0.04502694 0.00001044
-0.21247653 0.15609726 -0.00000068
-0.58236304 -0.60596218 0.17889937
-0.22588508 -0.32848190 -0.00000107
-0.59988828 -0.61718872 -0.16989306
-0.38730590 -0.22925871 -0.00000198
-0.54794658 -0.56194026 0.00000346
-0.01840959 0.36928048 0.00000062
-0.33398627 -0.00631847 0.15680257
-0.37619644 -0.10823523 0.26522179
-0.25787489 -0.33434796 0.00000185
-0.04869165 0.37237123 -0.00000448
-0.23606014 -0.67520990 -0.00000135
-0.19147624 -0.67532992 -0.00000108
-0.03364167 0.34700589 0.00000051
-0.20216058 -0.21837493 -0.00000086
-0.34195702 0.02403818 -0.27134749
-0.15758813 0.44568672 -0.14301426
-0.33742200 -0.01461580 0.19269095
-0.13342274 0.14380105 -0.00000564
-0.00177524 -0.00052390 0.00000049
-0.63812703 -0.76420035 0.00000387
-0.07880511 0.41079563 -0.00000295
-0.20514970 0.02951344 0.00000176
-0.22673960 0.28095805 -0.15513461
-0.46105787 -0.38897312 -0.00000253
-0.22399921 -0.44876872 -0.00000113
-0.32793225 -0.07116454 -0.00000152
-0.60248349 -0.61781181 -0.20077743
-0.00216026 -0.67028503 0.00000007
-0.21935546 0.03964007 -0.00000474
-0.06288417 0.44692278 0.00000116
-0.58521444 -0.60803752 -0.02608562
-0.20572156 -0.54400566 -0.00000108
-0.21332231 0.32226909 -0.20395201
-0.20654763 0.07068145 -0.00000462
-0.17444374 0.37885416 0.07137778
-0.14335898 -0.66348513 0.00000095
-0.10498814 0.39414158 -0.00000243
-0.14570182 0.44824318 0.06403427
-0.40466475 -0.14918151 -0.15185612
-0.27963017 0.16864524 -0.23927530
-0.22182646 0.28990172 -0.13916201
-0.34295943 -0.02798412 0.19169386
-0.26692128 0.16565176 -0.05496925
-0.34683567 -0.03735470 0.33316533
-0.58691530 -0.59956622 -0.09492442
-0.28220112 0.11869893 0.17912322
-0.51332201 -0.46932377 -0.00000289
-0.05850279 0.61186612 0.00000053
-0.04678697 0.29530854 0.00000097
-0.16241028 -0.70251336 -0.00000092
-0.24612190 0.20580176 0.09493316
-0.62077527 -0.67205792 -0.14556860
-0.33463027 -0.70972224 0.00000208
-0.19088072 -0.36308115 0.00000143
-0.43684610 -0.43729037 0.00000286
-0.00005386 0.00416792 0.00000050
-0.32336164 0.01932032 0.25686787
-0.12266482 0.14181028 0.00000133
-0.41236517 -0.77295497 0.00000251
-0.17986342 -0.41950805 0.00000132
-0.36683938 -0.62988232 0.00000232
-0.55404955 -0.78797237 0.00000335
-0.07580711 0.42124076 0.00000031
-0.19888688 0.33525944 -0.08430687
-0.00471500 -0.00501642 0.00000047
-0.05235348 0.64899699 0.00000059
-0.10197251 -0.76943805 0.00000063
-0.08568052 -0.30039372 0.00000083
-0.11147676 -0.49948962 0.00000086
-0.20385459 0.31258586 -0.02584567
-0.10761474 0.06527517 0.00000119
-0.20716863 -0.70452806 -0.00000119
-0.09307796 0.12134264 0.00000001
-0.29068984 0.09942212 -0.00654017
-0.34710172 -0.00005863 -0.20744326
-0.35600380 -0.22723026 -0.00000179
-0.02524734 -0.23366395 0.00000051
-0.11585228 0.52030629 0.05540158
-0.30292773 -0.25740767 0.00000217
-0.31496719 0.00908818 -0.00000140
-0.17810717 0.40145205 -0.17203160
-0.48723932 -0.32788705 -0.26483922
-0.16864932 0.38735341 -0.00000028
-0.31937741 0.02894080 0.27462265
-0.11253732 -0.07591881 0.00000113
-0.37100360 -0.04753266 -0.26342853
-0.28951787 -0.25716158 0.00000209
-0.46817477 -0.34528122 0.00000311
-0.27984565 0.12439406 0.07049458
-0.49363341 -0.38091320 -0.05910352
-0.28884132 0.10266940 0.16439541
-0.28088779 0.12186440 0.24470308
-0.44471404 -0.28078769 -0.00000236
-0.22715776 -0.68586002 -0.00000130
-0.18871355 0.36170625 -0.09463988
-0.18137795 0.36251294 -0.00211825
-0.23732748 0.24484904 -0.09739467
-0.25855845 0.17577966 0.03792418
-0.49913437 -0.50823200 -0.00000283
-0.30541399 0.09178291 -0.15927346
-0.67708149 -0.81360743 -0.11483313
-0.06177588 0.37611065 0.00000111
-0.16894542 0.21837797 0.00000390
-0.36185737 -0.04311058 -0.16676948
-0.14613673 0.46103695 -0.07571641
-0.08456621 0.44144736 0.00000129
-0.37733645 -0.10508055 -0.03213547
-0.43413939 -0.24811214 0.02994866
-0.23537491 -0.06045823 -0.00000096
-0.59112723 -0.62712028 0.15403055
-0.23317043 -0.18950334 -0.00000103
-0.41453387 -0.20078115 0.05632689
-0.23090470 0.24253367 0.23662617
-0.45715815 -0.32723330 -0.00000246
-0.03134461 0.38872075 0.00000093
-0.46425719 -0.28675258 -0.18630913
-0.04384988 -0.07060104 0.00000019
-0.15390464 0.16512854 0.00000153
-0.15740600 0.42037522 -0.00206523
-0.27937565 0.12892246 -0.01848966
-0.04573699 -0.25429235 0.00000007
-0.05843690 -0.44588519 0.00000057
-0.07596721 0.01295868 -0.00000950
-0.55829860 -0.52906875 -0.10265272
-0.21009582 0.33108547 -0.20957415
-0.50177287 -0.41140274 0.21062866
-0.04374868 0.59211623 0.00000254
-0.36871508 -0.09017839 0.37448019
-0.14228089 -0.34851861 -0.00000058
-0.19228177 -0.57001873 -0.00000102
-0.28701950 0.11510984 -0.04389111
-0.40462757 -0.18321685 0.00000283
-0.24924989 -0.66398662 -0.00000142
-0.01411066 -0.39680548 0.00000017
-0.16627854 0.35552874 -0.00000120
-0.09906325 0.09938903 0.00000116
-0.13375540 -0.77463065 0.00000082
-0.24071315 0.21886666 0.07874940
-0.37841630 -0.69918156 -0.00000222
-0.13920401 -0.52853751 0.00000101
-0.28411384 0.11407657 0.23867532
-0.42571639 -0.22778846 0.28431900
-0.28607607 0.13681527 -0.15022936
-0.39484741 -0.15325666 0.12587277
-0.28021257 0.15673520 -0.18178143
-0.06199359 0.03957200 0.00000090
-0.12830508 0.16544776 -0.00000544
-0.28278203 -0.79374112 0.00000171
-0.09497217 -0.22181556 0.00000093
-0.22301225 0.26938274 -0.04253070
-0.05298754 0.36672224 -0.00000444
-0.20302763 -0.68008781 0.00000130
-0.34246878 -0.65199024 0.00000216
-0.47529574 -0.31170863 -0.19557418
-0.14718447 0.27858064 0.00000156
-0.16093074 0.41560584 -0.02253542
-0.36939878 -0.03218836 -0.32620604
-0.24381210 -0.65968632 0.00000156
-0.28389752 0.14951351 -0.19095150
-0.44494932 -0.26298024 -0.06130142
-0.36249785 -0.28963398 0.00000251
-0.32524509 -0.67319332 -0.00000188
-0.38731150 -0.07669451 -0.31929534
-0.31985769 0.07913757 -0.28091635
-0.44930526 -0.55133767 0.00000287
-0.47499066 -0.28653009 -0.32934992
-0.16272467 0.40714017 0.12637498
-0.24011178 0.10372311 0.00000333
-0.33173780 0.00669401 -0.04137880
-0.48864511 -0.31371056 -0.36100902
-0.28113321 0.12127921 0.15209063
-0.18646825 0.34981527 0.18247312
-0.41890479 -0.13967289 -0.39205268
-0.42414387 -0.16503364 -0.32247529
-0.21342534 0.28473885 0.15193315
-0.29180861 0.12558112 -0.16448816
-0.25692499 0.08217967 -0.00000291
-0.34329332 -0.02879835 0.23632027
-0.35885493 -0.43119877 -0.00000194
-0.32897664 0.02422430 -0.10084525
-0.29470445 0.12246719 -0.18571577
-0.36073079 -0.07037815 -0.00265473
-0.22239225 0.26308974 0.11252346
-0.11142967 0.41017904 -0.00000197
-0.18074445 -0.65563469 -0.00000100
-0.19169007 0.36683967 -0.16206532
-0.59278007 -0.60470354 -0.14430061
-0.28178557 0.11835269 0.00000227
-0.44035387 -0.33216892 0.00000295
-0.15504213 0.43408701 -0.04588079
-0.44813219 -0.55186809 0.00000286
-0.06678516 -0.02538515 0.00000089
-0.11036659 -0.58847835 -0.00000053
-0.16376475 0.43459391 -0.16391473
-0.56744638 -0.56994917 0.11430615
-0.16831993 0.42117206 -0.15064189
-0.44200975 -0.25419382 -0.07055007
-0.17583942 0.27523602 -0.00000039
-0.06400753 0.06482431 0.00000015
-0.05296247 0.28052517 0.00000654
-0.21884571 -0.20999848 0.00000169
-0.24241025 0.24708644 -0.17680409
-0.10214777 -0.40556688 -0.00000037
-0.35371560 -0.00598365 -0.26240472
-0.08205477 -0.69234411 -0.00000043
-0.07777444 0.61932288 -0.03876629
-0.39667881 -0.22661597 -0.00000204
-0.26593561 0.11314907 -0.00000103
-0.00974915 -0.67215051 0.00000002
-0.29260268 0.09357813 0.28554160
-0.00413692 0.26492935 0.00000064
-0.09129083 0.34199146 -0.00000369
-0.19263673 0.33821364 -0.01788805
-0.48988063 -0.32242287 -0.32964703
-0.32674315 0.01115725 0.24231566
-0.35109130 -0.04761563 0.03865361
-0.21172890 -0.33809282 -0.00000099
-0.11374015 -0.03460940 0.00000116
-0.04557399 -0.13767197 0.00000069
-0.62734864 -0.71456434 0.15958788
-0.25407150 0.20641078 -0.10825618
-0.30017330 0.07530035 0.29884939
-0.28944500 -0.03928461 0.00000222
-0.07291630 -0.77992454 0.00000045
-0.28592884 0.10969932 0.08320904
-0.36856125 -0.04393105 -0.25086269
-0.34219735 -0.02614477 0.06476957
-0.01866762 0.02660334 0.00000063
-0.53359522 -0.50758337 -0.00000304
-0.32449059 0.02692455 -0.05634701
-0.03483341 0.24252764 0.00000044
-0.34159381 -0.02469106 0.23993653
-0.14868364 0.32513991 0.00000304
-0.07213423 0.09189471 0.00000012
-0.49505831 -0.39518607 0.07197382
-0.33832651 0.03099199 -0.26144068
-0.11633041 0.34020160 0.00000141
-0.61791555 -0.68680676 -0.02705229
-0.16871847 -0.56560901 -0.00000087
-0.27617400 0.10439001 -0.00000197
-0.14473526 -0.67524245 -0.00000080
-0.02091318 -0.25364088 0.00000022
-0.39666596 -0.75405278 -0.00000237
-0.16206318 0.21534967 0.00000161
-0.14118253 0.44143547 -0.00000057
-0.21988780 -0.78500397 -0.00000132
-0.27706729 0.14288290 -0.06441199
-0.29724868 0.08237082 0.07982044
-0.29783482 0.09967851 -0.10235120
-0.23340385 0.23651241 0.08263442
-0.58231713 -0.60585137 0.19972321
-0.35567420 -0.05869246 0.32301443
-0.28756710 -0.31177724 -0.00000143
-0.27065114 0.14658178 0.11394645
-0.29029119 0.03134285 -0.00000273
-0.60494243 -0.62007443 -0.22088671
-0.24877928 0.22086760 -0.11745485
-0.13471836 0.48863532 -0.07589873
-0.45173983 -0.25812028 -0.17762493
-0.40168070 -0.14810332 -0.11832846
-0.34572764 -0.03467803 0.33019480
-0.35120583 -0.39401587 0.00000237
-0.37714833 -0.06705584 -0.23775777
-0.22916346 -0.69081849 -0.00000131
-0.20498546 0.31677940 -0.06374222
-0.61350809 -0.64402863 -0.20296025
-0.59765806 -0.63882431 -0.02200348
-0.40630040 -0.16971730 -0.06107209
-0.15962003 0.41464324 0.04789596
-0.05112577 0.30573548 0.00000625
-0.40918346 -0.76394561 0.00000249
-0.33348045 0.04168182 -0.25591162
-0.48111622 -0.35178954 -0.05311098
-0.05362645 0.43243568 0.00000109
-0.10822763 0.53871731 0.00911511
-0.05333616 0.48894365 0.00000367
-0.58569417 -0.60730037 -0.03645900
-0.41284719 -0.19671013 0.07895194
-0.07675483 0.58527291 -0.00000017
-0.36575272 -0.08301975 0.22109433
-0.14149049 -0.11647875 0.00000128
-0.01053522 0.24198629 0.00000071
-0.43405614 -0.24791966 0.22066388
-0.40793883 -0.65424954 0.00000255
-0.50594419 -0.38576785 -0.19519751
-0.27811364 -0.04382726 -0.00000121
-0.19360352 -0.78663685 -0.00000116
-0.41772306 -0.47775562 0.00000272
-0.17959196 -0.41636093 -0.00000084
-0.00809340 0.30919058 0.00000750
-0.11731363 0.49382677 -0.00000044
-0.49931387 -0.38460915 -0.11393180
-0.08868115 -0.34569763 -0.00000025
-0.26914628 -0.55576965 0.00000178
-0.05160096 0.67542251 0.03815178
-0.47888738 -0.35615610 0.32719687
-0.15318075 0.44555301 -0.08404392
-0.32012604 0.02740768 -0.00133728
-0.54653461 -0.67689803 0.00000338
-0.46995892 -0.33458824 0.02191910
-0.02684557 0.45236995 0.00000094
-0.04463741 0.64423762 -0.00000018
-0.03001947 0.10264601 0.00000075
-0.42412595 -0.39262355 0.00000281
-0.48897851 -0.65505364 0.00000304
-0.36526001 -0.08183529 0.36093907
-0.43312070 -0.24565199 0.01221280
-0.36345693 -0.02214715 -0.30264905
-0.07238940 0.62015257 0.00000026
-0.14945159 0.13473450 0.00000564
-0.55897578 -0.54949457 0.01020709
-0.58916861 -0.61812753 -0.02310832
-0.00786614 0.43722233 0.00000575
-0.14461660 0.21847553 -0.00000409
-0.15012672 0.43756079 0.06189682
-0.36610804 -0.08388253 0.35992245
-0.06513015 0.48510658 0.00000041
-0.34833860 -0.04097904 0.24148573
-0.33056387 -0.63936757 -0.00000189
-0.31589114 0.03736707 0.00439283
-0.17770154 0.37099144 0.04316562
-0.07288708 0.63175478 -0.04222920
-0.15007276 0.44364775 -0.03254687
-0.25093639 0.19890886 -0.02578060
-0.47945354 -0.35512979 -0.01285996
-0.67150747 -0.82117053 0.11987587
-0.36570326 -0.06153825 -0.11673911
-0.01198537 -0.74977606 -0.00000004
-0.37554247 -0.10194956 -0.02556772
-0.34777933 -0.40852827 0.00000234
-0.46785586 -0.63267248 0.00000293
-0.14413634 -0.13375847 0.00000129
-0.08959691 -0.44272894 -0.00000032
-0.21201975 -0.35544499 -0.00000100
-0.19317038 -0.33806838 0.00000145
-0.14753772 0.05425483 -0.00000036
-0.16616802 0.39883658 0.02993919
-0.13383193 0.38380935 -0.00000007
-0.33181164 -0.05347322 0.00000247
-0.14536550 0.46379831 -0.08063980
-0.48523632 -0.34300639 -0.15562229
-0.34476318 -0.03233671 0.00757127
-0.21137270 0.28968931 0.21517128
-0.05287916 -0.72431930 0.00000037
-0.38999192 -0.22458304 -0.00000199
-0.47706577 -0.35174736 0.05719469
-0.24664243 0.11170304 0.00000206
-0.03938029 -0.31933298 0.00000054
-0.03544743 0.19578432 0.00000084
-0.37333497 -0.03384283 -0.36915985
-0.16462431 -0.00215542 0.00000149
-0.59350623 -0.77722443 0.00000360
-0.23706263 0.21644659 -0.00000133
-0.21142829 0.30020856 -0.05817647
-0.19458363 0.36001388 -0.16293762
-0.32593722 0.01311859 0.09196601
-0.06352103 0.31371604 0.00000108
-0.31993617 -0.18493960 -0.00000155
-0.20830155 0.32006052 -0.12552467
-0.10944194 0.47457870 0.00000146
-0.57547326 -0.58932918 0.15604828
-0.01919543 0.48435950 0.00000476
-0.39664375 -0.69989478 0.00000246
-0.21119271 0.29012820 0.16000753
-0.38065262 -0.05517143 -0.34911426
-0.11366610 0.34351619 0.00000140
-0.28543007 -0.00948443 -0.00000123
-0.30503223 0.06356858 0.32597352
-0.21428595 0.30809719 -0.13911552
-0.41811776 -0.20944132 0.23253670
-0.49438595 -0.35642286 -0.20308707
-0.16148666 -0.35269830 -0.00000070
-0.57949770 -0.55324245 -0.25046316
-0.52737696 -0.42597816 -0.25831471
-0.44425427 -0.22659876 -0.25124002
-0.05923658 0.41037314 0.00000457
-0.07993217 -0.16156591 0.00000088
-0.37909978 -0.11524806 0.34416405
-0.44017917 -0.26269416 0.04397048
-0.39937503 -0.09421814 -0.38278560
-0.41333498 -0.20197542 0.00000287
-0.29231452 0.09427619 0.23272520
-0.54645812 -0.51927490 0.02771730
-0.04164216 0.03967649 0.00000078
-0.07057583 0.38730947 -0.00000358
-0.39389426 -0.21231742 0.00000274
-0.01427361 -0.04067365 0.00000039
-0.37780926 -0.11212852 0.25601628
-0.34566335 -0.03451370 0.09163092
-0.29916129 -0.45921440 0.00000202
-0.05236843 -0.02612019 0.00000080
-0.21445538 0.28225390 0.12938119
-0.23210156 0.05456107 -0.00000411
-0.01791605 0.71729341 0.00000084
-0.00857307 -0.57381810 0.00000009
-0.31735041 0.03384286 0.03117605
-0.17652841 -0.63834157 -0.00000096
-0.08722092 0.23617612 0.00000012
-0.06606988 -0.71836378 -0.00000035
-0.40899349 -0.39738182 0.00000272
-0.40793337 -0.18485167 0.18235577
-0.29333596 0.10620104 -0.07859359
-0.12520015 0.42351599 0.00000001
-0.15404943 0.17705418 0.00000154
-0.28963806 -0.56635075 0.00000189
-0.43205188 -0.43191590 0.00000284
-0.14986517 0.43818552 0.13520887
-0.23850643 -0.42470938 -0.00000120
-0.27881057 0.12688249 0.12659352
-0.53371983 -0.44502088 -0.23789892
-0.14041107 -0.73074755 0.00000089
-0.17634605 -0.16232700 -0.00000067
-0.02948340 0.08806683 0.00000073
-0.17128442 0.38647349 0.17106160
-0.06537428 0.08290785 0.00000095
-0.35462954 -0.62267613 -0.00000203
-0.48581495 -0.33904030 -0.18497506
-0.03979400 0.27710828 -0.00000630
-0.21479351 -0.63886165 0.00000140
-0.53966451 -0.50287286 0.01150908
-0.31715402 -0.19609623 0.00000229
-0.38155642 -0.46571195 0.00000251
-0.23772471 -0.20939803 0.00000180
-0.53695971 -0.47772325 -0.10172193
-0.37740323 -0.11114917 0.27573648
-0.01747010 0.31967286 -0.00000628
-0.35494210 -0.03949691 -0.09518653
-0.50165615 -0.41112340 0.29439759
-0.30504008 0.06355150 0.28433065
-0.49088855 -0.38511925 0.06983017
-0.33886419 -0.11725571 0.00000247
-0.25309212 0.20406428 -0.08248100
-0.23683206 0.26314306 -0.19098044
-0.16851296 0.33985139 -0.00000139
-0.03582050 -0.59424251 0.00000034
-0.25246036 0.19049791 0.18973963
-0.16522073 0.40111714 0.05863862
-0.45879963 -0.31983686 -0.00000247
-0.28060598 0.12254287 0.26839828
-0.24031802 -0.53566305 -0.00000129
-0.13184437 -0.59523664 -0.00000067
-0.10874157 0.29514890 -0.00000392
-0.25983985 0.19286314 -0.11032532
-0.08425680 -0.55036831 -0.00000035
-0.49757407 -0.44959775 -0.00000278
-0.11528181 0.54293119 -0.11625158
-0.14940208 0.46404620 -0.13533542
-0.59537734 -0.62233475 -0.08211828
-0.30846499 0.05530176 0.06795172
-0.57234415 -0.68254918 0.00000353
-0.55217464 -0.53308276 0.21254664
-0.21673486 0.29295759 -0.08860859
-0.45136818 -0.24358363 -0.25227606
-0.26993867 -0.59171432 -0.00000150
-0.38098850 -0.11979818 0.12694757
-0.31261233 0.07268251 -0.14984531
-0.17772382 0.37092915 0.11910455
-0.11855999 0.51376530 0.09076120
-0.19412801 0.33132822 0.12705598
-0.37081665 -0.02856958 -0.36474626
-0.07943760 0.61610855 -0.04314722
-0.59035405 -0.67488424 0.00000364
-0.07304621 0.28812598 -0.00000511
-0.49119497 -0.68762671 0.00000303
-0.41256443 -0.19603099 0.15748014
-0.13850435 -0.32267861 -0.00000054
-0.18075507 -0.73536311 -0.00000105
-0.40032070 -0.44282399 -0.00000219
-0.08410752 -0.27530545 0.00000084
-0.31837566 -0.57154599 -0.00000178
-0.15404302 0.10931465 -0.00000036
-0.19934238 0.11997790 -0.00000063
-0.30456804 0.08195000 -0.09428706
-0.45354321 -0.23540030 -0.32580388
-0.48359571 -0.30364765 -0.34936433
-0.21346784 0.28463650 0.14867087
-0.28449086 0.11317216 0.05549316
-0.26759995 0.18284465 -0.15803011
-0.61569319 -0.74528760 0.00000375
-0.23535116 0.23519730 -0.01846361
-0.33463744 -0.00790348 0.32117766
-0.33002931 0.00322900 0.22512707
-0.22426681 -0.71709323 0.00000141
-0.37009549 -0.06963296 -0.13047052
-0.30475550 0.09255773 -0.15482196
-0.25545732 -0.44730249 0.00000176
-0.12186715 -0.19907788 0.00000111
-0.51154782 -0.42244625 -0.06849152
-0.36133717 -0.04764983 -0.13505009
-0.24635036 0.06048869 0.00000373
-0.01736825 0.45283420 0.00000525
-0.40546946 -0.15224513 -0.14572113
-0.06184038 0.33007610 0.00000560
-0.03977249 0.70397842 0.03999604
-0.02807720 0.32483836 0.00000087
-0.30011252 0.07545117 0.20733748
-0.21451231 0.28211263 0.13665754
-0.00024149 -0.07422336 0.00000045
-0.36918830 -0.44084137 0.00000245
-0.13072488 0.22093751 -0.00000015
-0.16177718 0.40290803 0.00000173
-0.28348959 0.11559660 0.07437388
-0.40053573 -0.76649279 -0.00000240
-0.34312426 -0.37150743 -0.00000180
-0.15672125 0.43958076 -0.09814186
-0.31187147 0.07349495 -0.14451233
-0.20960375 0.29720652 -0.01763561
-0.07944303 0.60717148 0.00000040
-0.15962873 0.06052141 0.00000635
-0.31562682 0.06168912 -0.12950610
-0.15228225 0.42676665 -0.00000047
-0.05461824 0.00146403 0.00000017
-0.25382488 0.00904640 0.00000204
-0.22308482 0.26141302 0.22811358
-0.09933013 0.02720741 0.00000112
-0.54587103 -0.48373838 -0.18654665
-0.11682255 0.51795946 0.10023438
-0.12839722 -0.77166687 -0.00000076
-0.19942535 0.31853561 0.14446456
-0.33462502 -0.07716042 0.00000247
-0.24153060 0.25687575 -0.21876368
-0.53409223 -0.48942795 0.18756656
-0.32566062 0.01377220 0.27137535
-0.30102151 0.07326993 0.09061141
-0.49824531 -0.44072339 -0.00000278
-0.04947160 0.20818938 -0.00000712
-0.07732640 0.61331383 0.06120539
-0.53295570 -0.43929869 -0.25912297
-0.07593832 0.38316177 0.00000444
-0.21450502 0.28212952 0.15246067
-0.35030259 -0.18446273 0.00000250
-0.30073682 -0.23140105 0.00000217
-0.09996329 -0.22278172 -0.00000024
-0.30691641 0.10200069 -0.23505320
-0.15851771 -0.34031711 -0.00000067
-0.02229693 0.25844644 0.00000053
-0.40632024 -0.17596036 -0.02716486
-0.03120381 0.02428553 0.00000070
-0.33505416 -0.00890509 0.19007067
-0.48637627 -0.37423512 0.28384621
-0.38636384 -0.13278078 0.24576964
-0.03492131 0.54944960 0.00000063
-0.02420700 0.16184499 0.00000075
-0.05804865 0.64934209 0.00000132
-0.55869583 -0.72331938 0.00000342
-0.48332475 -0.46726427 -0.00000271
-0.50837080 -0.42733155 0.20860024
-0.18973916 0.33849379 -0.00000043
-0.29287336 0.12183525 -0.15806254
-0.21685812 -0.16082863 0.00000171
-0.43448789 -0.70661029 0.00000268
-0.16931593 -0.46067578 -0.00000081
-0.64231188 -0.72832921 -0.12215397
-0.51631913 -0.45115267 0.00000333
-0.06194253 -0.67219404 0.00000045
-0.11967763 0.52049114 -0.05151580
-0.04004752 0.03253961 0.00000076
-0.26567461 0.16686421 -0.04513285
-0.34693779 -0.03759160 0.11698380
-0.32988210 0.01730630 -0.07495894
-0.11940767 0.51172224 0.01402367
-0.10960778 0.07120333 -0.00000012
-0.40491584 -0.73700916 0.00000248
-0.32253504 -0.44531207 0.00000217
-0.34016826 -0.65159253 0.00000215
-0.45013784 -0.28674061 0.13291656
-0.00537728 0.07631204 0.00001079
-0.10381737 0.43452840 -0.00000181
-0.19484540 -0.49010322 -0.00000098
-0.40891002 -0.18721267 0.25284401
-0.23240544 0.01790231 -0.00000089
-0.26703974 0.16212295 -0.03720731
-0.00202520 0.51254723 0.00000489
-0.32060338 0.02597856 0.27506037
-0.22000191 0.26886406 0.03402958
-0.32017650 0.04744885 -0.11169299
-0.23421847 0.23453689 0.14969966
-0.30334895 -0.11222890 -0.00000140
-0.16529022 0.06216740 0.00000616
-0.27073618 0.14637126 0.25796152
-0.24141564 0.21716781 0.11572612
-0.47159168 -0.33854063 0.25802848
-0.28563291 0.12944242 -0.10401820
-0.00329381 0.63935259 0.00000311
-0.17008065 -0.56187403 0.00000118
-0.55991295 -0.79468247 0.00000338
-0.19768891 0.26399184 0.00000240
-0.58319513 -0.60797097 0.13859014
-0.32645118 0.03280556 -0.11445595
-0.16676688 0.05153350 0.00000626
-0.42442513 -0.27338272 -0.00000223
-0.30728690 0.07731551 -0.10484633
-0.25723091 0.17897445 0.26659745
-0.08725491 0.60292393 -0.07427882
-0.22151747 -0.02435622 -0.00000085
-0.36981737 -0.04438672 -0.26497300
-0.41891901 -0.21138208 0.37502291
-0.24219479 -0.76657384 0.00000148
-0.21523518 0.28037308 0.01038119
-0.36244619 -0.07504255 0.34469002
-0.01240723 0.28797364 0.00000767
-0.14988331 0.44141949 -0.01785476
-0.17126637 0.13225736 0.00000501
-0.16104642 0.41119357 0.12523647
-0.44688416 -0.67408265 0.00000278
-0.29537076 0.08690349 0.19728822
-0.16317592 0.37652848 -0.00000025
-0.35448920 -0.05582571 0.19060658
-0.15140048 0.46039456 -0.14175541
-0.39295003 -0.14269589 -0.03256457
-0.22325242 0.27663230 -0.08537435
-0.48015286 -0.78779529 0.00000291
-0.06843539 0.44302771 0.00000036
-0.61217073 -0.67792252 0.15205295
-0.18548434 0.35219474 0.13894336
-0.58586896 -0.79087891 0.00000354
-0.52365693 -0.49734732 0.00000335
-0.16060114 0.06138198 0.00000631
-0.44427124 -0.27258450 0.29435300
-0.33617820 -0.09231080 -0.00000159
-0.40281793 -0.17249372 0.00061764
-0.27178863 0.14382898 0.26259838
-0.54313836 -0.68682862 0.00000335
-0.12352374 -0.41322873 -0.00000050
-0.36900666 -0.05473207 -0.19763899
-0.38609710 -0.13213580 0.22330923
-0.00566700 -0.32986941 0.00000033
-0.00329110 -0.71723052 0.00000007
-0.35894583 -0.33596322 0.00000246
