ply
format ascii 1.0
element vertex 1367
property float x
property float y
property float z
end_header
-0.18002937 0.05394464 -0.00000569
-0.23063374 0.24319599 0.04362475
-0.53681075 -0.62770551 0.00000335
-0.20984168 0.29339080 0.08677410
-0.08358976 -0.44262597 -0.00000028
-0.29424986 0.07402257 0.00000232
-0.04222615 0.23455060 0.00000750
-0.16678972 0.41911842 -0.09525390
-0.02082276 0.14138128 0.00000943
-0.16824957 0.39380014 0.16378147
-0.59515440 -0.58708801 -0.21747274
-0.22232546 -0.40071864 0.00000159
-0.31477914 0.04005193 0.14721828
-0.57177647 -0.53581418 -0.19487374
-0.51409133 -0.42297462 -0.07929065
-0.00549019 0.70933991 0.00000098
-0.10310213 0.55108413 0.09925675
-0.36848021 -0.13134576 0.00000264
-0.58515973 -0.65634762 0.00000362
-0.47436480 -0.33042389 -0.06461171
-0.48249689 -0.36485690 0.00332917
-0.33100785 -0.20666057 0.00000237
-0.26567649 -0.23088248 -0.00000125
-0.07200043 0.50138712 0.00000293
-0.01451855 0.00749795 0.00000059
-0.34740660 -0.78460543 -0.00000209
-0.32488267 0.08893547 -0.32044988
-0.07595720 -0.09811128 -0.00000002
-0.16101972 0.20232103 0.00000436
-0.04434607 0.56054298 0.00000295
-0.42609759 -0.29648033 0.00000289
-0.25452443 0.11176501 0.00000211
-0.02733510 -0.32805441 0.00000046
-0.28868494 0.10304924 0.13489613
-0.61621656 -0.68768670 0.00848141
-0.43330595 -0.59936502 0.00000274
-0.26235008 0.21551428 -0.21377686
-0.02549844 0.13140487 0.00000074
-0.05650412 -0.55792710 0.00000049
-0.27822149 0.10042315 0.00000222
-0.12368952 0.50138371 0.03995795
-0.35308957 -0.05244801 0.22044865
-0.14277505 -0.61803837 0.00000098
-0.27414905 -0.48648616 0.00000185
-0.17762092 -0.22488110 0.00000143
-0.22626111 -0.40594921 -0.00000112
-0.29428235 0.09342842 -0.01693404
-0.53770338 -0.48569333 -0.05428928
-0.27556272 0.05792451 0.00000220
-0.11842038 0.51410660 0.05304005
-0.54763681 -0.68350363 0.00000338
-0.40426265 -0.10141161 -0.32608595
-0.11427829 0.51191345 0.00000013
-0.10814340 0.40910101 0.00000141
-0.45236947 -0.29130284 -0.00346033
-0.12401797 0.50059472 0.03083651
-0.44669825 -0.27844632 0.34948841
-0.00693202 0.74108076 0.00000025
-0.14407518 0.04814119 0.00000699
-0.16641710 0.39822601 0.14725444
-0.05337750 0.52892629 0.00000312
-0.43717753 -0.18310519 -0.31632717
-0.03150953 0.26605579 0.00000086
-0.59965263 -0.60755788 -0.17542871
-0.16707631 0.39663931 0.01439690
-0.26092010 -0.34948600 0.00000186
-0.36147708 -0.07269789 0.30128311
-0.60757423 -0.62789135 -0.17013930
-0.30104017 0.09799926 -0.10829923
-0.26773226 -0.31748376 -0.00000131
-0.15503045 -0.33532827 0.00000123
-0.29798731 0.01556578 0.00000279
-0.38501759 -0.13228475 0.00000274
-0.11308644 0.52697895 0.11394698
-0.50909447 -0.44150910 0.00000330
-0.33842319 -0.01704467 0.32390726
-0.04022940 -0.70792739 -0.00000019
-0.10529191 -0.01070917 0.00000113
-0.04456441 0.29901389 -0.00000580
-0.17628757 0.37439668 0.11701013
-0.34278494 -0.02757690 0.36965701
-0.04409582 -0.15489947 0.00000067
-0.48747291 -0.36638251 -0.04574259
-0.48458921 -0.62753041 0.00000303
-0.15619720 -0.42500686 0.00000118
-0.61007235 -0.67285481 0.04486529
-0.25463617 0.15289043 -0.00000183
-0.50883410 -0.42845011 0.21009062
-0.45128598 -0.53389637 -0.00000256
-0.09924551 0.50493456 0.00000141
-0.40292192 -0.53589932 -0.00000227
-0.43468668 -0.24944886 0.38456245
-0.27179719 0.14381493 0.19259323
-0.32426661 0.07643749 -0.25927238
-0.35236416 -0.27528465 0.00000245
-0.33448808 -0.03254425 0.00000250
-0.66841458 -0.81370377 0.04647500
-0.63392798 -0.72614757 -0.01862779
-0.15407273 0.44394484 -0.06955971
-0.03092605 0.18882352 -0.00000800
-0.08233739 -0.20708083 -0.00000013
-0.55610026 -0.50253234 -0.17491007
-0.53492958 -0.47679945 -0.06390200
-0.56799058 -0.75027969 -0.00000340
-0.41727704 -0.36244566 0.00000279
-0.27112476 0.07370058 0.00000218
-0.22325660 -0.63106509 -0.00000124
-0.37484383 -0.36326836 0.00000254
-0.16750027 -0.45576600 -0.00000080
-0.11615509 -0.29704780 0.00000102
-0.12335198 -0.77455392 -0.00000073
-0.03461986 0.66858857 0.00000071
-0.27515442 -0.18314880 0.00000205
-0.03787115 0.41234278 0.00000099
-0.28246138 0.11807370 0.13996682
-0.32583606 0.01334967 0.18613317
-0.59903692 -0.60522396 -0.17913632
-0.00395473 -0.78996510 0.00000003
-0.14803074 -0.78562093 -0.00000088
-0.08669052 0.47888084 0.00000132
-0.57973317 -0.71877839 0.00000355
-0.08167569 0.60281532 0.02393322
-0.53073305 -0.45708842 -0.10580861
-0.04462668 -0.41607113 -0.00000003
-0.22769036 0.12671874 -0.00000307
-0.14245574 0.22097258 0.00000466
-0.57672082 -0.59234102 0.18922459
-0.07289464 0.02921540 0.00000096
-0.53505534 -0.49174692 0.04830580
-0.20655361 -0.57933140 -0.00000111
-0.02042904 0.23556334 0.00000077
-0.40568314 -0.35700400 0.00000273
-0.39895076 -0.11940071 -0.19130083
-0.21384966 0.00190506 -0.00000552
-0.33886704 0.03605621 -0.23681658
-0.18934908 0.34287459 0.01137612
-0.23857729 0.23461005 -0.04625752
-0.10714562 -0.27772986 -0.00000032
-0.08518563 -0.02796899 0.00000100
-0.21147017 0.28945558 0.19519795
-0.05796291 -0.15952380 0.00000075
-0.05213172 0.67414119 0.03777831
-0.12118769 0.52687979 -0.08506570
-0.29919461 -0.53665652 -0.00000164
-0.07845657 0.06048354 -0.00000865
-0.09851846 0.26070191 0.00000544
-0.41383502 -0.18867462 -0.04545363
-0.16942820 0.16539342 0.00000163
-0.16537265 0.00144271 0.00000699
-0.16292360 -0.53096248 0.00000115
-0.46920272 -0.38645810 -0.00000257
-0.36985135 -0.02528293 -0.29570533
-0.57170555 -0.52684054 -0.23338390
-0.16881122 0.01869492 -0.00000660
-0.12595765 -0.02755370 -0.00000028
-0.29694371 -0.05831098 -0.00000133
-0.54926594 -0.52606075 0.25601067
-0.22324819 0.26102829 0.00094298
-0.04331707 0.08388283 0.00000029
-0.13532522 -0.17776586 -0.00000043
-0.53016710 -0.41100640 -0.30142033
-0.28681733 0.11432132 -0.02949442
-0.58200489 -0.69775329 -0.00000345
-0.32022253 0.02691353 0.10977003
-0.21455950 0.06953792 0.00000457
-0.04476860 0.19544548 0.00000035
-0.16074917 -0.00203453 -0.00000047
-0.60297649 -0.65572458 0.06243823
-0.01928926 0.26336846 0.00000055
-0.12608596 0.27955272 0.00000435
-0.14564317 0.45649355 -0.03543210
-0.36634678 -0.01679659 -0.29581790
-0.08743174 0.11293981 0.00000110
-0.23336467 -0.12265268 0.00000183
-0.37240623 -0.09907833 0.12027428
-0.52430789 -0.57288174 -0.00000302
-0.59287156 -0.73146725 -0.00000354
-0.21641390 0.32121882 -0.19106176
-0.21416471 0.28295933 0.08261466
-0.04840541 0.68313749 0.02029730
-0.19887146 0.33971628 -0.08671511
-0.13623494 0.47575920 -0.02035179
-0.42641898 -0.22947949 0.16841735
-0.14952122 -0.42007058 -0.00000066
-0.58100723 -0.54372887 -0.25774327
-0.40311120 -0.40377465 -0.00000219
-0.10335642 0.04389312 0.00000828
-0.57547309 -0.58486485 -0.01934090
-0.00968849 0.21038201 0.00000881
-0.43034307 -0.23895027 0.10421816
-0.17466263 -0.15924678 0.00000145
-0.49272259 -0.38954834 0.09922377
-0.30799790 0.05642060 0.06133238
-0.12218875 -0.72815050 0.00000078
-0.00265286 0.33781120 -0.00000643
-0.01359684 -0.78998877 -0.00000008
-0.20925335 0.29481355 0.03333338
-0.20880505 0.32919938 -0.14561655
-0.09610904 0.56796767 0.08757152
-0.03232639 -0.00421606 0.00000030
-0.03062699 0.50047914 0.00000419
-0.50078874 -0.35468477 -0.23753639
-0.21769238 0.29127678 -0.07358506
-0.05581447 0.13759558 0.00000842
-0.57033803 -0.57692703 0.04189312
-0.35208990 -0.54069385 0.00000229
-0.40754167 -0.28572105 0.00000278
-0.27077096 -0.21981646 0.00000200
-0.46888712 -0.33201152 0.26526199
-0.34838611 -0.04108967 0.15026981
-0.37232066 -0.09888054 0.35453873
-0.18257417 0.14064972 -0.00000051
-0.14147967 0.45843491 0.08092583
-0.41683177 -0.35240223 0.00000280
-0.08829903 -0.60119936 -0.00000041
-0.17688467 0.37296387 0.03866380
-0.24469649 -0.43198253 0.00000171
-0.11781683 0.17635452 0.00000602
-0.60805346 -0.66798280 0.15734920
-0.27598284 0.14573241 -0.05249318
-0.23976535 0.07379114 0.00000199
-0.15068735 -0.71308892 0.00000096
-0.02402232 0.07651783 0.00000069
-0.18244240 0.36292103 -0.01471953
-0.28220134 0.07785406 -0.00000222
-0.14670709 0.09108056 -0.00000033
-0.13963021 0.35655492 0.00000288
-0.60118821 -0.63288704 -0.08083808
-0.04832053 -0.19913075 0.00000067
-0.29900418 0.12713202 -0.21424212
-0.32783714 -0.46378782 0.00000219
-0.35124712 -0.68245716 0.00000219
-0.15388743 0.20089069 -0.00000409
-0.01481095 0.68947375 -0.00000035
-0.43278000 -0.24483610 0.16078705
-0.36174358 -0.04413108 -0.12762200
-0.47697952 -0.31634090 -0.15382963
-0.08150628 -0.37524997 -0.00000023
-0.47925490 -0.32747740 -0.12914321
-0.39338685 -0.08636209 -0.27706767
-0.28930913 -0.31290539 -0.00000144
-0.00299073 0.70925039 0.00000093
-0.08020868 0.45247697 0.00000030
-0.38855685 -0.06499230 -0.31954064
-0.65008840 -0.76946158 0.06378183
-0.36878050 -0.49771449 0.00000241
-0.52376110 -0.46448813 0.24474011
-0.55641684 -0.72929656 -0.00000331
-0.06918684 0.31170094 0.00000028
-0.40648937 -0.60578872 -0.00000233
-0.25813394 -0.25225305 -0.00000122
-0.36691110 -0.08581795 0.25718304
-0.13948217 0.31480404 -0.00000268
-0.31213479 0.09897046 -0.22971841
-0.15603656 -0.54680704 0.00000110
-0.06882268 -0.56202060 0.00000056
-0.08095652 -0.02632946 -0.00000001
-0.32755230 0.00920508 0.27436156
-0.23184280 0.24275359 -0.01075055
-0.35826137 -0.06493030 0.13922450
-0.37364699 -0.02944294 -0.31758941
-0.40058655 -0.35677450 -0.00000214
-0.27510226 -0.46022767 -0.00000145
-0.22446049 0.27170761 -0.05945643
-0.24863420 -0.11361175 0.00000193
-0.00878578 0.24802802 0.00000060
-0.02701623 0.12422331 -0.00000917
-0.34560788 0.00893103 -0.18933954
-0.35703430 -0.06196902 0.26137768
-0.48045267 -0.28088881 -0.34559074
-0.42186368 -0.20562035 -0.05611313
-0.14666188 0.13158566 -0.00000030
-0.31208190 0.06761745 -0.09200215
-0.27546778 0.14671112 -0.05133516
-0.17835373 -0.04968579 0.00000155
-0.07192960 0.50702241 0.00000286
-0.46883360 -0.29118986 -0.17782530
-0.13135064 0.31683335 -0.00000289
-0.12098116 -0.65201858 -0.00000064
-0.34280748 -0.02762621 0.25383579
-0.00768964 0.07608610 0.00000059
-0.10662447 0.54258069 0.08305589
-0.04107725 0.32304518 0.00000045
-0.11917782 0.51560393 -0.01451658
-0.11557796 0.52096676 0.04194409
-0.20861808 -0.64679073 -0.00000116
-0.26063532 0.17076055 0.20836530
-0.32460612 0.04951517 -0.14507994
-0.45576117 -0.30031527 0.10294738
-0.02884273 0.41893428 -0.00000432
-0.28653300 0.10825437 0.00916218
-0.19140423 0.03288799 -0.00000063
-0.27906687 0.12625854 0.26860132
-0.38303666 -0.12474570 0.18955020
-0.46927967 -0.26409645 -0.30105421
-0.39893776 -0.08769206 -0.32986761
-0.33546954 -0.56706157 -0.00000188
-0.05819079 0.49970261 -0.00000212
-0.29783471 0.14742371 -0.29066016
-0.51009608 -0.41130475 -0.08814744
-0.06821700 -0.47336811 0.00000062
-0.66496738 -0.79143191 -0.06084823
-0.29176815 0.15718678 -0.26930064
-0.14319628 0.48170887 -0.11989302
-0.33690328 -0.01336260 0.04021922
-0.23387654 -0.05592086 0.00000188
-0.32739053 0.00959818 0.15584953
-0.29808919 -0.41098924 0.00000204
-0.18926902 0.34305283 0.19928495
-0.38659537 -0.05298750 -0.35133892
-0.23915223 0.22743779 -0.02094464
-0.04009381 0.70944873 -0.02730255
-0.37677358 -0.10962608 0.20925382
-0.01307403 0.04449076 0.00001099
-0.31649061 0.05475240 -0.08228274
-0.32598055 0.04172818 -0.12553018
-0.25823645 0.21223217 -0.15597460
-0.55909286 -0.50590677 -0.19175247
-0.22452539 0.25794265 0.04966358
-0.25336262 0.18832739 0.09206844
-0.13513279 -0.42819202 -0.00000058
-0.32921383 -0.74453544 0.00000202
-0.37860200 -0.11575872 0.00000271
-0.00191155 0.41103239 0.00000629
-0.42376095 -0.22306099 0.13679798
-0.43824225 -0.52096088 0.00000282
-0.58776197 -0.61899604 0.18155688
-0.39452071 -0.13650124 -0.06971192
-0.21707853 0.28967588 -0.06009229
-0.37295123 -0.10039672 0.17928336
-0.27760025 0.12980081 0.24894702
-0.10282383 0.53299509 0.00000157
-0.54001720 -0.50372419 0.00833251
-0.23805177 -0.56602249 -0.00000129
-0.30761848 -0.55113390 -0.00000170
-0.48524863 -0.28719218 -0.36866912
-0.23338879 0.27918526 -0.18645485
-0.09142140 -0.50813067 -0.00000037
-0.31816422 0.03187143 0.18142499
-0.02540053 0.43633298 0.00000062
-0.39742192 -0.42907717 0.00000263
-0.41344239 -0.77916282 0.00000251
-0.26240060 -0.10892921 0.00000202
-0.15670607 -0.55132805 0.00000110
-0.28283234 -0.35059549 -0.00000143
-0.52192530 -0.46005623 0.25932235
-0.22853634 -0.31755057 -0.00000108
-0.13625799 0.19836513 -0.00000020
-0.24301947 0.21329877 0.07876127
-0.07954004 0.57251502 0.00000038
-0.49729656 -0.39482986 -0.02504529
-0.23568638 0.25478881 -0.10399229
-0.49096718 -0.34923200 -0.15766776
-0.31629823 0.03638826 0.10054978
-0.00515860 -0.43956276 0.00000026
-0.49290441 -0.35214185 -0.16539713
-0.11536173 0.12945840 0.00000128
-0.29287189 0.09293711 0.08597846
-0.24322606 0.23280941 -0.08746737
-0.34648689 -0.03650967 0.26597624
-0.62726074 -0.69909974 -0.06653656
-0.07501351 0.60137005 0.00000133
-0.13608485 0.47146338 0.02567628
-0.25614247 0.15171495 0.00000214
-0.56859592 -0.57088470 -0.00786919
-0.26608627 0.01773349 -0.00000109
-0.02730842 -0.05639402 0.00000030
-0.18491136 0.35357824 0.13605588
-0.39075866 -0.14339810 0.40813849
-0.21385673 0.27689099 0.00000196
-0.44657770 -0.27247369 -0.02466265
-0.30488706 0.06753106 -0.01565261
-0.50207010 -0.43361006 -0.00000280
-0.00098537 0.45763978 0.00000078
-0.23237110 -0.28045961 0.00000173
-0.01809629 0.17058397 -0.00000868
-0.33916769 0.03231917 -0.22364419
-0.24034791 0.08883617 -0.00000330
-0.04432879 0.07969745 0.00000028
-0.22413544 -0.23893269 -0.00000100
-0.16710793 0.21062007 -0.00000353
-0.07569309 -0.37797820 -0.00000019
-0.03661214 0.01948766 0.00000073
-0.32611693 0.04646566 -0.14770329
-0.39330801 -0.08181476 -0.29612706
-0.10810922 -0.73402692 -0.00000061
-0.04290047 -0.76589976 -0.00000024
-0.10549359 -0.77970067 -0.00000062
-0.17420774 0.38233968 -0.01270249
-0.06405177 -0.74702478 -0.00000035
-0.07811422 0.30916037 0.00000539
-0.13121806 0.07335122 -0.00000025
-0.26885148 -0.71476361 -0.00000157
-0.34987562 -0.23523002 -0.00000176
-0.37168507 -0.09733501 0.06892869
-0.50053360 -0.37258244 -0.15654996
-0.02712022 0.51284741 0.00000098
-0.28075027 0.12219201 0.29710649
-0.02095667 -0.28892026 0.00000019
-0.23800326 0.22539842 0.17516001
-0.27228565 0.09900082 0.00000242
-0.07639308 0.61193715 0.00000025
-0.38907041 -0.08914488 -0.21931052
-0.41651189 -0.20557029 0.36460061
-0.59740198 -0.64226849 0.13308992
-0.11123485 -0.10308167 -0.00000024
-0.35117632 -0.03587796 -0.05213902
-0.33278522 0.01314178 -0.07235150
-0.22252470 0.05412235 -0.00000441
-0.06438596 0.17774217 0.00000761
-0.18281252 0.38613977 -0.12020181
-0.27431094 0.13774498 0.14138698
-0.20896233 0.29550905 0.20695539
-0.10683292 0.54207643 0.10588854
-0.00929603 0.44023515 0.00000567
-0.28296633 0.11684270 0.28036300
-0.64517721 -0.73003670 -0.12042395
-0.17221385 0.39100631 -0.02955832
-0.04730298 0.33178575 0.00000601
-0.43756674 -0.23466465 -0.09489453
-0.21718501 0.13050511 -0.00000333
-0.33117174 0.00107881 -0.00252860
-0.12936144 0.50206383 -0.06282830
-0.02946830 0.43136740 0.00000095
-0.42888513 -0.61422317 0.00000270
-0.17079959 0.38765644 0.01288873
-0.00766209 -0.74609243 -0.00000001
-0.04037943 0.70970451 -0.03143788
-0.13218631 0.48086948 0.06374553
-0.00549073 0.07682192 0.00000058
-0.66627954 -0.80854950 0.08585608
-0.33681069 0.06026523 -0.32100028
-0.27083896 0.14613025 0.07125021
-0.31289516 0.07235608 -0.12132941
-0.54744428 -0.61663470 0.00000342
-0.26413682 -0.18116341 -0.00000121
-0.56100034 -0.77092606 -0.00000337
-0.53782757 -0.49844187 0.09675805
-0.09383883 0.56927320 0.00000008
-0.22198830 0.26405975 0.23409220
-0.36336867 -0.77645971 0.00000221
-0.12417412 0.16494297 -0.00000015
-0.22796060 -0.18416708 -0.00000099
-0.05988173 0.34617011 0.00000035
-0.27186077 -0.67652324 -0.00000156
-0.36877012 -0.02530082 -0.28420493
-0.00063948 -0.14820414 0.00000040
-0.46909869 -0.41277439 -0.00000259
-0.35088350 0.01295427 -0.26265569
-0.20760857 0.02671568 0.00000177
-0.05995272 -0.69124415 0.00000043
-0.03357745 0.34497401 0.00000051
-0.02396344 0.35453418 0.00000640
-0.42494977 -0.47972084 -0.00000236
-0.23014992 -0.57508508 0.00000153
-0.52479248 -0.53291656 0.00000333
-0.19306793 0.10229782 0.00000477
-0.37442173 -0.10394993 0.24842369
-0.51566632 -0.39850261 -0.20297447
-0.46688280 -0.39397800 0.00000307
-0.56469575 -0.51279084 -0.22081262
-0.45730412 -0.28970268 -0.06257288
-0.56891993 -0.71217354 0.00000349
-0.04134203 -0.06449660 0.00000021
-0.00987815 0.77615179 0.00643755
-0.36882342 -0.02593584 -0.28198977
-0.39842582 -0.09535923 -0.29092483
-0.01155885 -0.73796653 0.00000011
-0.17625702 0.11616929 -0.00000479
-0.09266566 -0.62402273 -0.00000045
-0.39019951 -0.14203829 0.18610188
-0.42116326 -0.72658439 0.00000259
-0.56880755 -0.57323714 0.16411815
-0.36600753 -0.03590457 -0.20864881
-0.26326755 0.17612870 -0.05117864
-0.44203395 -0.76947991 -0.00000265
-0.07441956 0.43849788 0.00000122
-0.24848036 0.19887484 -0.00000127
-0.07893064 0.60944175 0.04100675
-0.49401956 -0.33038838 -0.27233276
-0.20297017 0.30998214 0.11978505
-0.37698619 -0.57209289 0.00000242
-0.12384295 0.26466991 0.00000141
-0.43885977 -0.73526289 -0.00000261
-0.28069033 0.16598076 -0.19077789
-0.23521147 -0.56764318 0.00000156
-0.16771101 0.39510008 0.16962753
-0.47640575 -0.28242931 -0.29611406
-0.01926987 0.57140353 0.00000356
-0.57189897 -0.56318976 -0.07641224
-0.28997640 -0.39033086 -0.00000149
-0.40448378 -0.10382543 -0.31786171
-0.20726433 0.29961186 0.11458648
-0.28606512 0.13361354 -0.10595486
-0.43495959 -0.16023184 -0.39296225
-0.58603054 -0.58528008 -0.12901738
-0.23307255 0.24576754 -0.03693187
-0.15965570 0.43649276 -0.09591763
-0.17523021 -0.49026217 0.00000125
-0.00765546 -0.31555874 0.00000026
-0.17432209 0.37914172 0.14904327
-0.41195577 -0.47736199 -0.00000228
-0.14147463 -0.62093066 0.00000097
-0.32526988 0.05329768 -0.16864418
-0.04676045 -0.48050258 -0.00000008
-0.07720949 0.47076049 -0.00000202
-0.25362320 -0.37998398 -0.00000127
-0.52837980 -0.47563534 0.15356301
-0.41323820 -0.13009188 -0.29541672
-0.16952169 -0.35379456 -0.00000074
-0.33142122 0.07191115 -0.31502849
-0.16871115 -0.36267066 -0.00000074
-0.32885139 0.02144487 -0.06712922
-0.07369802 0.01786095 0.00000096
-0.26322370 -0.40963055 0.00000183
-0.64505653 -0.75731386 0.05121500
-0.13043442 -0.22803723 -0.00000043
-0.29690226 -0.10465364 0.00000223
-0.64000590 -0.73578140 -0.04067170
-0.43426680 -0.16752943 -0.35372318
-0.58687279 -0.59633217 -0.08956548
-0.39240007 -0.11068040 -0.16026801
-0.03591579 0.05059710 -0.00001009
-0.04625177 0.57646114 -0.00000124
-0.19107406 0.19972209 -0.00000299
-0.56877517 -0.71399221 0.00000349
-0.01739667 0.64846746 -0.00000094
-0.05505662 0.25801883 0.00000099
-0.20529083 0.32556817 -0.09261748
-0.40689698 -0.18235630 0.33259352
-0.37369494 -0.01996589 -0.35955433
-0.10249170 0.04125988 -0.00000009
-0.18538637 -0.67823485 0.00000119
-0.21424763 0.31184277 -0.12716694
-0.19402249 0.33158525 0.01181375
-0.20976737 0.03890793 -0.00000504
-0.10862550 -0.07488018 -0.00000020
-0.01625109 0.01072395 0.00000041
-0.00632460 0.09870153 0.00001045
-0.11769026 0.32830844 -0.00000001
-0.31339326 0.04940404 -0.02617453
-0.15787729 0.36059810 -0.00000138
-0.37661118 -0.49342554 0.00000246
-0.44901734 -0.28403861 0.20312777
-0.09406758 -0.10220487 -0.00000013
-0.04875795 0.44413449 0.00000048
-0.12352089 0.28520773 0.00000142
-0.45618542 -0.28524130 -0.07027479
-0.12488675 -0.42721093 0.00000099
-0.23848098 0.22424909 0.16057614
-0.55932609 -0.77148249 0.00000339
-0.34017200 0.04202522 -0.27670870
-0.12375582 0.19113730 0.00000564
-0.07498708 -0.69988552 0.00000052
-0.23245238 0.23880099 0.14177402
-0.37337146 -0.14498489 -0.00000184
-0.56770621 -0.57057407 0.06117398
-0.46318771 -0.24010039 -0.34168856
-0.32428091 0.03127117 -0.06184670
-0.20129664 0.31402224 0.04675097
-0.59910725 -0.63139142 -0.06540435
-0.13562333 -0.47916937 0.00000102
-0.14129224 0.47974628 -0.09120101
-0.40759923 -0.33219450 -0.00000217
-0.54357187 -0.50242938 -0.04305333
-0.00354021 0.73921948 0.00000173
-0.09784178 -0.18985749 0.00000097
-0.42131672 -0.21716419 0.22901693
-0.48887233 -0.31207161 -0.29810034
-0.24295112 0.21344957 0.25578140
-0.32675654 -0.72411157 -0.00000192
-0.39063781 -0.14308935 0.02748004
-0.48143575 -0.36230118 0.14031107
-0.15602387 -0.18957742 -0.00000056
-0.05660886 -0.16149443 0.00000074
-0.60194567 -0.65323765 0.13409864
-0.37378236 -0.10240498 0.29890141
-0.32084268 0.02629472 -0.00376792
-0.10382725 -0.42753409 -0.00000039
-0.00381294 0.49737679 -0.00000380
-0.43713966 -0.53118090 -0.00000247
-0.02738844 -0.34717293 0.00000045
-0.29448320 0.08905686 0.06249777
-0.21757040 0.27472559 0.23167881
-0.44517623 -0.27476515 0.20011823
-0.00834094 0.40341425 0.00000080
-0.57842789 -0.57881913 -0.07699193
-0.02821994 -0.28569007 0.00000015
-0.00200868 -0.43483398 0.00000024
-0.37082043 -0.03437977 -0.26614599
-0.14805064 -0.08028337 -0.00000044
-0.14553123 0.09621668 0.00000144
-0.33607515 -0.42976817 -0.00000180
-0.31831528 0.05053065 -0.08308455
-0.00476257 0.54216890 0.00000087
-0.06973556 0.63164138 0.02691398
-0.26573281 -0.62925724 -0.00000150
-0.61675609 -0.68899229 0.15804928
-0.10894263 -0.01293517 0.00000115
-0.16529365 0.40094174 0.04415321
-0.29355432 0.10443086 -0.05737682
-0.31822496 0.08271855 -0.22294089
-0.18581601 -0.79125788 0.00000113
-0.31324735 0.11348263 -0.30495381
-0.08876559 0.27379096 0.00000014
-0.28109231 -0.00014462 0.00000220
-0.62395861 -0.67508540 -0.13672073
-0.34157982 -0.76407004 0.00000208
-0.10908000 0.55445545 -0.07783076
-0.05185939 -0.08196146 0.00000076
-0.00460992 0.67090977 0.00000095
-0.03059351 0.71637482 0.00000056
-0.24647901 0.24364309 -0.16921508
-0.55022862 -0.48694618 -0.18108263
-0.25066664 -0.29680233 -0.00000120
-0.60862340 -0.64431789 -0.10935544
-0.11403893 -0.47803744 0.00000089
-0.57486434 -0.54087004 -0.20536891
-0.29403328 -0.39483263 0.00000203
-0.41941253 -0.21257410 0.38710638
-0.40227333 -0.13026491 -0.17886445
-0.52716508 -0.47269835 0.05514121
-0.18103423 0.13442961 0.00000168
-0.42075498 -0.21581448 0.37393639
-0.01450408 -0.67631946 0.00000016
-0.05982420 0.48468064 0.00000044
-0.22134393 0.28584525 -0.08838775
-0.51097439 -0.41354500 -0.08762308
-0.46508608 -0.24713247 -0.33097511
-0.53157604 -0.44648448 -0.16109720
-0.35683827 0.01558524 -0.33705369
-0.30848965 -0.25938749 0.00000220
-0.25553973 0.02343467 -0.00000103
-0.19004056 0.35855600 -0.07586852
-0.23639401 0.22929355 0.08313088
-0.05171623 -0.58977250 0.00000044
-0.58925299 -0.56603941 -0.24722820
-0.05538021 -0.11010550 0.00000010
-0.24576453 -0.34345703 -0.00000120
-0.40925990 -0.65561813 -0.00000238
-0.43146148 -0.53635266 -0.00000244
-0.14926940 -0.46499650 0.00000111
-0.35734255 -0.05034737 -0.05396263
-0.15054817 -0.63805138 -0.00000081
-0.18716638 0.35303990 -0.02138343
-0.18030079 -0.70759095 0.00000115
-0.06683021 0.63865633 0.00954720
-0.16102493 0.33033496 0.00000168
-0.25896058 0.17480436 0.13824332
-0.46138334 -0.31389404 0.22834757
-0.02202722 0.13724178 -0.00000911
-0.29091950 -0.10880423 -0.00000132
-0.30200418 -0.08240318 -0.00000137
-0.16734903 0.39598012 0.03232376
-0.00005905 -0.28625435 0.00000032
-0.27305285 0.14077796 0.26303815
-0.42639786 -0.25437774 0.00000291
-0.33880291 -0.01793861 0.05375071
-0.34994919 -0.00557103 -0.17175526
-0.23002838 0.24465576 0.08196512
-0.21348119 0.28460202 0.17714867
-0.12690160 -0.60379874 -0.00000064
-0.11200883 -0.22031727 -0.00000031
-0.43185442 -0.24260457 0.22865633
-0.34994440 -0.04485275 0.17311837
-0.24935711 0.19798670 0.19638081
-0.47083253 -0.35187048 0.00000312
-0.36291163 -0.07615439 0.07931170
-0.23006783 -0.07072380 0.00000184
-0.44430445 -0.22953673 -0.18848026
-0.35186158 -0.01981549 -0.12963985
-0.03136313 0.63525002 0.00000232
-0.12386945 -0.15951278 -0.00000035
-0.50518710 -0.41963952 0.07748283
-0.40357738 -0.17434016 0.29077373
-0.09533153 0.40895548 0.00000350
-0.30989526 0.08066931 -0.12601439
-0.35617870 -0.02815089 -0.13876851
-0.21429066 -0.18534521 0.00000168
-0.48135984 -0.36211488 0.07219262
-0.25849107 0.17593379 0.25117460
-0.30803823 0.06648688 -0.04436307
-0.62663605 -0.71284400 0.08490092
-0.15875347 -0.70843432 0.00000102
-0.00615806 -0.24688616 0.00000038
-0.47656474 -0.34686224 -0.01593595
-0.44126917 -0.16897437 -0.42135178
-0.32268883 -0.28080464 0.00000227
-0.44828252 -0.28226595 0.23411111
-0.20988220 0.33170976 -0.16797618
-0.45096898 -0.57065992 0.00000287
-0.11851100 -0.51335068 0.00000089
-0.30543204 -0.24022410 0.00000219
-0.37136966 -0.09658321 0.28591285
-0.28738205 0.02405599 0.00000225
-0.37885907 -0.50010495 0.00000247
-0.04456468 0.17276750 0.00000034
-0.35848571 -0.76818051 -0.00000214
-0.32942772 -0.78677098 -0.00000198
-0.31167252 0.09878076 -0.22401046
-0.10035926 -0.79089154 0.00000061
-0.00637192 0.53033608 0.00000087
-0.34686279 0.02789233 -0.28554137
-0.15001079 0.25352385 -0.00000025
-0.20200073 0.00297010 -0.00000072
-0.02437249 -0.77211520 -0.00000013
-0.63394746 -0.73049378 0.02338420
-0.39006254 -0.05734077 -0.36891265
-0.37970236 -0.71606958 -0.00000224
-0.36048861 -0.07031040 0.28699543
-0.19596274 -0.78223641 0.00000119
-0.15025755 -0.47461678 -0.00000070
-0.16429592 0.19030360 0.00000443
-0.58365156 -0.60907122 0.09378113
-0.22604391 0.25428407 0.03976045
-0.09490127 -0.78697652 0.00000058
-0.41286660 -0.19676488 0.25566705
-0.16000333 0.44499779 -0.13679529
-0.18981579 -0.66464746 0.00000123
-0.29427963 0.13586448 -0.20255147
-0.53545197 -0.57977447 0.00000337
-0.32829179 -0.01853806 0.00000247
-0.26859932 0.08073016 0.00000217
-0.13923986 -0.05101925 -0.00000037
-0.22432570 0.26107341 -0.01151441
-0.29745134 0.08187873 0.14317669
-0.24149478 -0.59033350 -0.00000133
-0.28756957 -0.21066364 0.00000210
-0.55240309 -0.53362649 0.00729040
-0.55823296 -0.52547856 -0.09705601
-0.09292351 -0.12777950 0.00000098
-0.25737809 0.17863005 0.02148463
-0.34204464 -0.31381778 0.00000237
-0.41900367 -0.21158396 0.31898539
-0.33457723 -0.00773816 0.06819646
-0.30480590 -0.49254540 -0.00000165
-0.38583313 -0.09889532 -0.14247038
-0.16732431 -0.35457387 -0.00000073
-0.20493952 -0.15237841 -0.00000083
-0.32412495 0.01748540 0.08008810
-0.06600985 -0.25090662 -0.00000006
-0.35113020 -0.01247815 -0.15401265
-0.08279603 -0.56071517 0.00000065
-0.65846863 -0.75987468 -0.13026927
-0.02179447 0.72215203 0.00000039
-0.21681945 0.15416264 -0.00000071
-0.29666948 -0.00722329 0.00000229
-0.18259816 -0.04045473 0.00000158
-0.31604597 0.03699193 0.03460514
-0.22056250 -0.27382152 -0.00000100
-0.37361118 -0.03864206 -0.27696853
-0.06191462 0.34559996 0.00000538
-0.08590915 0.59339969 -0.00349182
-0.34398993 -0.42679325 -0.00000184
-0.20106170 0.31459540 0.04564640
-0.45226572 -0.27618409 -0.06850054
-0.52212291 -0.43175876 -0.12568327
-0.08322298 0.05726303 -0.00000856
-0.25147729 0.22799732 -0.15356213
-0.10766142 0.12515453 0.00000123
-0.22432969 0.09919595 0.00000192
-0.15865160 0.41697750 0.03632195
-0.21482146 -0.47018496 -0.00000109
-0.01436515 0.40185915 0.00000604
-0.50072191 -0.39182009 -0.07438503
-0.29856662 0.07918380 0.19672773
-0.29880538 0.07861262 0.07923963
-0.07761435 -0.46538642 -0.00000026
-0.16868865 0.38483349 -0.00000066
-0.47383665 -0.28328375 -0.26524511
-0.54318259 -0.51137288 0.15938825
-0.35767620 0.00916034 -0.31779655
-0.15478127 0.15135840 0.00000525
-0.28512636 -0.72373291 0.00000177
-0.43735795 -0.24548009 -0.04537822
-0.33657239 -0.01256302 0.17171367
-0.34129427 -0.02395727 0.10492035
-0.61497351 -0.68468886 0.12126630
-0.36304016 -0.06866785 -0.03399109
-0.26366149 -0.51269411 0.00000177
-0.11804620 0.51500510 0.11456840
-0.10940402 -0.74237460 0.00000070
-0.29832884 0.05324029 -0.00000213
-0.48564777 -0.31809410 -0.23770217
-0.20051508 0.34380521 -0.12196101
-0.07894083 0.52873663 0.00000235
-0.45331669 -0.25944757 -0.15281208
-0.32532705 0.01457727 0.27435745
-0.04730728 0.26487658 0.00000095
-0.24608687 -0.48592937 0.00000168
-0.46265300 -0.31695671 0.17037335
-0.54761834 -0.48390466 -0.16682141
-0.24213130 0.21543395 0.14069833
-0.13768517 0.35280964 0.00000299
-0.05333363 -0.14884448 0.00000073
-0.39543595 -0.07402699 -0.35266638
-0.28462982 0.11282629 0.28847479
-0.02438740 0.55232241 0.00000367
-0.56546310 -0.53285725 -0.14113303
-0.05756269 0.29560326 -0.00000546
-0.21763369 0.10974958 0.00000392
-0.22111928 0.26616549 0.05599479
-0.02350577 0.64759291 0.00000076
-0.62704538 -0.67665113 -0.16247342
-0.00697055 -0.56444003 0.00000011
-0.09833379 -0.49857669 -0.00000041
-0.10436556 -0.79908209 0.00000063
-0.36681630 -0.06904638 -0.07221353
-0.00094903 -0.65085651 0.00000010
-0.02096902 0.25685556 0.00000079
-0.48911708 -0.38084348 0.09149333
-0.63427346 -0.69798946 -0.14546283
-0.01341144 -0.39445377 0.00000033
-0.18208889 0.13959213 -0.00000424
-0.21478487 -0.28567305 -0.00000097
-0.34420276 -0.01727266 -0.05988172
-0.02429291 0.02589403 0.00000037
-0.12133755 0.50706656 0.02049188
-0.37384127 -0.07664976 -0.11314086
-0.25679450 0.14852455 -0.00000184
-0.26612321 0.02189282 -0.00000361
-0.37331972 -0.01885523 -0.36045087
-0.21118164 -0.51807762 -0.00000110
-0.19627142 0.32853555 -0.01035308
-0.15284366 -0.63599547 -0.00000082
-0.42221192 -0.56272952 -0.00000240
-0.22905099 0.06706884 -0.00000400
-0.18978792 0.32526686 0.00000185
-0.23851275 0.22417435 0.04200912
-0.00834992 0.06434898 0.00000059
-0.32075382 0.07380685 -0.21066284
-0.28061194 0.13422486 -0.05102979
-0.13040669 0.50334753 -0.07948292
-0.63991285 -0.74489623 0.09173810
-0.09812140 0.15141872 0.00000119
-0.04041491 0.22819145 0.00000089
-0.33349083 -0.00512295 0.01266937
-0.49679964 -0.39939905 0.31389783
-0.60472264 -0.65993923 0.04096333
-0.24636419 0.23267685 -0.12003505
-0.42457176 -0.22502420 0.26496054
-0.54846672 -0.52412928 0.14371995
-0.48289191 -0.32211902 -0.19099196
-0.36745410 -0.08712155 0.09282935
-0.15863604 0.41701619 0.01105509
-0.48698847 -0.37570836 0.17756361
-0.29974508 -0.44399514 -0.00000159
-0.41482729 -0.54198512 -0.00000234
-0.13765068 -0.58000970 0.00000097
-0.02072705 0.75322196 -0.01426131
-0.15243329 0.07983544 0.00000630
-0.14073171 -0.70531582 0.00000091
-0.26389440 0.21342993 -0.22096818
-0.32978149 0.00834530 -0.01963422
-0.53921651 -0.65142877 0.00000335
-0.04552171 -0.74877109 -0.00000024
-0.67474166 -0.80037542 -0.12495751
-0.29718057 0.08253913 0.13568698
-0.06877497 0.20744630 -0.00000655
-0.29724874 0.09453262 -0.05309256
-0.35790886 -0.06407612 0.06898420
-0.07615437 0.00012631 0.00000096
-0.11858966 -0.46773411 0.00000092
-0.30408755 0.10408887 -0.16712871
-0.38748710 -0.08753672 -0.20962452
-0.24689534 0.20392762 0.25701905
-0.16552945 0.17462109 -0.00000039
-0.54381211 -0.76551633 0.00000330
-0.13037214 -0.08384613 -0.00000034
-0.03436016 0.71704765 0.00529823
-0.66690834 -0.77949883 -0.13355546
-0.28748100 -0.16032362 0.00000213
-0.31207342 0.07316639 -0.11619605
-0.33200573 -0.56683172 0.00000215
-0.28143542 -0.65491166 -0.00000161
-0.36285294 -0.42496743 0.00000242
-0.15928616 -0.34807632 -0.00000068
-0.13661200 -0.57437118 0.00000097
-0.15867794 0.41690952 0.13463987
-0.33344140 0.03889608 -0.19193494
-0.00595680 0.01709592 0.00000047
-0.41107648 -0.13906692 -0.23332704
-0.57840924 -0.53737236 -0.25811255
-0.07750523 0.40093636 0.00000028
-0.10070032 0.11388168 -0.00000711
-0.16124034 0.41173482 -0.00434624
-0.06608478 -0.00097955 0.00000010
-0.31869730 0.03058986 0.06008030
-0.04828469 0.43478882 0.00000106
-0.15728486 0.43829144 -0.07874768
-0.52873785 -0.62479160 0.00000330
-0.21304484 0.29534339 -0.04229343
-0.42629942 -0.29723626 -0.00000226
-0.08514802 0.48495442 0.00000029
-0.43061689 -0.18612353 -0.23383951
-0.56065052 -0.55354486 0.24375894
-0.63832921 -0.74050982 -0.00228081
-0.18115032 0.36266746 0.01727567
-0.02275914 0.09250313 0.00000042
-0.17797531 -0.42396304 -0.00000084
-0.16726938 0.39955376 -0.01473148
-0.02687044 0.10173953 0.00000073
-0.01755583 0.66658040 0.00000102
-0.25502729 -0.27207667 -0.00000121
-0.24039926 0.21961844 0.15499121
-0.05985723 0.43429550 0.00000422
-0.42672772 -0.17472441 -0.24263222
-0.29150835 -0.07250983 0.00000221
-0.45695278 -0.30157476 -0.00692905
-0.22716200 -0.05256135 0.00000184
-0.45641306 -0.30189049 0.13463992
-0.65999062 -0.78012800 -0.05773734
-0.08682087 0.17833668 -0.00000648
-0.18369394 0.26461962 -0.00000216
-0.64432452 -0.71910803 -0.15923017
-0.38775443 -0.37882779 -0.00000208
-0.46994194 -0.50066295 0.00000302
-0.18417908 -0.03843810 0.00000159
-0.43407795 -0.24797592 0.30145700
-0.00069755 0.56886414 -0.00000273
-0.38136375 -0.12071001 0.25931324
-0.30014070 0.07538275 0.26321499
-0.32488633 0.01564767 0.07111591
-0.17178182 0.24637154 0.00000343
-0.17322145 0.05803134 0.00000597
-0.35737219 -0.05209013 -0.04665207
-0.39577340 -0.10423674 -0.22407975
-0.20995258 0.07075355 0.00000469
-0.28337250 -0.52778760 -0.00000154
-0.07701581 0.04114336 0.00000006
-0.02451570 0.26030493 0.00000051
-0.00381441 0.14506582 0.00000989
-0.18959058 -0.62163686 0.00000126
-0.19776193 0.08755120 -0.00000461
-0.40986592 -0.18951536 0.13928682
-0.01085433 0.42345090 0.00000585
-0.24539962 0.20753814 0.26006903
-0.31647357 0.05866249 -0.09921801
-0.36548143 -0.08236578 0.24322158
-0.04989842 0.55448203 -0.00000148
-0.22170908 -0.58236236 0.00000147
-0.31064137 0.00974907 0.00000238
-0.08542123 0.59488280 -0.00482314
-0.06898339 0.14953257 0.00000018
-0.26448749 0.15990006 -0.00000100
-0.08956846 0.57806047 0.00000135
-0.32974027 0.06558808 -0.26961488
-0.07844991 0.61758660 -0.03051959
-0.00203427 0.07631656 -0.00001070
-0.13432065 0.06920680 0.00000700
-0.23246885 -0.03373562 0.00000188
-0.09500498 -0.07242090 -0.00000012
-0.40985882 -0.18252585 -0.03036003
-0.57477769 -0.54448844 -0.18862342
-0.21223461 0.04708466 -0.00000075
-0.22900478 0.24713013 0.11375403
-0.23454533 0.23281555 -0.00000114
-0.49393445 -0.67943653 0.00000306
-0.06630873 -0.46694581 -0.00000019
-0.12505072 -0.64869418 -0.00000066
-0.02430555 0.34736855 0.00000057
-0.44568556 -0.21996770 -0.24492469
-0.02060058 0.02187331 0.00000039
-0.27659565 -0.23167794 -0.00000131
-0.32110623 0.05645869 -0.13850124
-0.52662761 -0.47140831 0.23755001
-0.13773074 0.47969159 -0.05334644
-0.23389847 0.09699772 0.00000361
-0.41374969 -0.16536141 -0.14653448
-0.19034241 0.18277834 0.00000176
-0.34052235 -0.02211264 0.32673253
-0.22994157 0.25511933 -0.04476715
-0.00489504 -0.48722749 0.00000023
-0.01381900 0.41278617 0.00000591
-0.04010205 -0.76545989 0.00000026
-0.27273530 -0.76630936 -0.00000163
-0.19579589 0.36516413 -0.16555883
-0.11996075 0.52285100 -0.05448655
-0.42560041 -0.72722109 0.00000261
-0.17661395 0.23244562 -0.00000289
-0.01706130 -0.64509618 0.00000020
-0.34550063 0.01858494 -0.23044437
-0.37066564 -0.79527983 -0.00000223
-0.31973213 -0.44481542 0.00000215
-0.03152033 0.02288090 0.00000032
-0.38347561 -0.12581279 0.38109339
-0.31113978 0.04884614 0.04460603
-0.23871785 0.22367108 0.22388908
-0.06846720 0.33701100 0.00000030
-0.32999794 -0.74164481 -0.00000196
-0.30947736 0.06345765 -0.04630996
-0.19671279 0.31196711 0.00000177
-0.18188818 0.36087898 0.10807874
-0.15345657 -0.74948022 -0.00000089
-0.25280223 0.18966665 0.25844096
-0.23338215 0.12595246 -0.00000083
-0.53209714 -0.68653521 -0.00000314
-0.32803054 -0.58814428 -0.00000185
-0.54376263 -0.65085861 -0.00000319
-0.08703056 0.21430783 0.00000643
-0.63965388 -0.78235734 -0.00000385
-0.22139954 -0.67839641 -0.00000126
-0.00924996 0.24270075 -0.00000778
-0.32708908 0.01034174 0.04155341
-0.01814348 -0.62131538 0.00000022
-0.23548912 0.23146821 0.17338965
-0.17069782 0.15819140 -0.00000428
-0.12240859 0.43649443 0.00000151
-0.36358051 -0.03836278 -0.17225606
-0.50056928 -0.33876839 -0.30484388
-0.38878321 -0.29515335 -0.00000203
-0.18728483 -0.16050606 0.00000153
-0.42290823 -0.58775760 0.00000269
-0.54372320 -0.51267933 0.18840383
-0.04398010 0.69382008 0.04484611
-0.34174422 -0.68808201 -0.00000199
-0.15611691 0.42309427 0.12609299
-0.11725279 0.51692465 0.01299658
-0.36253520 -0.04065697 -0.15118992
-0.09983281 0.08160231 0.00000787
-0.33689985 -0.01336074 0.18406724
-0.04294113 -0.57275308 0.00000040
-0.12707900 0.49320015 0.05310430
-0.56122334 -0.55492597 0.12849733
-0.12227116 0.37050287 -0.00000001
-0.34732545 -0.03853362 0.25425725
-0.20606640 -0.48111839 -0.00000104
-0.09965692 -0.21632120 -0.00000024
-0.10258572 -0.02344760 0.00000110
-0.11187973 0.06712385 -0.00000753
-0.34590232 -0.24027696 -0.00000174
-0.35269992 -0.05150291 0.12220429
-0.07376746 0.46130717 0.00000123
-0.26953338 -0.66000891 0.00000171
-0.16513997 0.43606461 -0.15196421
-0.12992279 0.24407348 0.00000472
-0.28868407 -0.14956456 -0.00000134
-0.44674574 -0.52185336 -0.00000252
-0.20644211 -0.07449945 0.00000170
-0.36325376 -0.37053160 -0.00000192
-0.54922212 -0.48674419 -0.17133694
-0.37454511 -0.02378923 -0.35180730
-0.53445746 -0.48885726 -0.00617011
-0.44941488 -0.63940806 0.00000281
-0.21044082 0.14487338 0.00000186
-0.17331008 -0.46262523 -0.00000084
-0.54293557 -0.51077667 0.16229299
-0.18031271 -0.00826918 0.00000158
-0.30358570 0.06748839 -0.00170891
-0.16381860 0.42973809 -0.11033542
-0.32023388 0.02686833 0.32666088
-0.21699272 0.31438972 -0.16730215
-0.31426475 0.06748761 -0.11448727
-0.14794243 0.07483691 0.00000144
-0.57403661 -0.58585664 0.05058849
-0.20870655 0.29612946 0.17008911
-0.09133894 0.03128066 0.00000881
-0.04638915 0.27086522 0.00000039
-0.34539806 0.01527734 -0.21488632
-0.12173528 0.10142571 0.00000130
-0.01072915 -0.29230012 0.00000025
-0.01368167 0.41965604 -0.00000477
-0.31636846 -0.64530017 -0.00000181
-0.31763186 0.03326376 -0.00034537
-0.40634400 -0.18101208 0.12654982
-0.43460263 -0.72044226 0.00000267
-0.00169850 -0.06853765 0.00000045
-0.03894046 -0.09343582 0.00000021
-0.49574452 -0.58716556 0.00000313
-0.56407756 -0.59045301 0.00000354
-0.26425443 0.17346989 -0.04996999
-0.39417513 -0.10342480 -0.21075280
-0.43154310 -0.15616214 -0.37468476
-0.24117314 0.21775249 0.02105618
-0.26537021 0.21456521 -0.24152061
-0.03589173 0.44043559 0.00000099
-0.09923894 -0.58596518 0.00000073
-0.16596427 0.39932340 0.02856461
-0.05762473 -0.26764619 -0.00000002
-0.30041006 0.08835167 -0.05945106
-0.42925580 -0.65159120 0.00000268
-0.39675985 -0.41325113 -0.00000215
-0.55084913 -0.56793213 -0.00000318
-0.30270145 0.06920302 0.23274247
-0.15392436 0.42838475 0.16097826
-0.39889950 -0.16304813 0.32296327
-0.37969768 -0.11669420 0.40410888
-0.31195770 0.04686756 0.09484213
-0.14576542 0.44809385 0.01049610
-0.12309461 -0.70331336 0.00000080
-0.43730576 -0.19309840 -0.27396687
-0.40562486 -0.14543162 -0.14791290
-0.10119568 -0.13431356 0.00000103
-0.27180699 0.18390449 -0.17537035
-0.14624870 -0.72968195 -0.00000084
-0.08776732 -0.30605412 -0.00000022
-0.04218753 -0.60783166 -0.00000013
-0.27709224 0.18951359 -0.25572663
-0.27767217 -0.14818045 0.00000208
-0.15211020 0.43284847 -0.00028699
-0.21261204 0.05837394 -0.00000075
-0.13917790 0.47709811 -0.05728812
-0.57349054 -0.58454261 0.19327074
-0.24352501 0.08537655 0.00000348
-0.12428259 -0.10092682 -0.00000031
-0.01186037 0.77371818 -0.01028346
-0.63992704 -0.74493053 0.15934357
-0.47220676 -0.34002758 0.30327820
-0.19665087 0.20246307 0.00000181
-0.26588907 -0.44238396 -0.00000138
-0.41460582 -0.28846880 0.00000282
-0.11960068 0.52082537 -0.04181945
-0.13805302 0.22703395 0.00000148
-0.24929414 0.16233232 0.00000224
-0.20422064 0.34630306 -0.17202403
-0.38685012 -0.11125422 -0.09914724
-0.29922286 0.07759409 0.31773661
-0.19843668 -0.22735857 -0.00000084
-0.30622259 -0.12145516 -0.00000142
-0.22780602 0.25003041 0.03454546
-0.41083896 -0.56553057 -0.00000233
-0.56568604 -0.52644215 -0.17154982
-0.05428856 0.11277969 0.00000090
-0.52088581 -0.43652692 -0.09176075
-0.00961010 -0.06792379 0.00000040
-0.32763456 0.06169895 -0.23036294
-0.44049632 -0.26347420 0.38043113
-0.21844845 -0.79472317 0.00000132
-0.21404529 0.14923760 -0.00000312
-0.45147452 -0.27331625 -0.07269010
-0.29656698 -0.25240994 -0.00000145
-0.01640527 0.76039358 0.01281161
-0.36687969 -0.33865181 -0.00000193
-0.08662909 0.40179566 0.00000023
-0.37116032 -0.03010305 -0.28843985
-0.35300405 -0.26026987 0.00000247
-0.14973303 0.34343493 -0.00000019
-0.13472567 -0.45524202 -0.00000060
-0.00655478 0.32451014 0.00000066
-0.22625925 -0.71666114 0.00000142
-0.32485230 0.01572038 0.28227683
-0.20373673 -0.25098628 -0.00000089
-0.33909955 0.02515212 -0.19156620
-0.39583497 -0.15563748 0.04973109
-0.27172320 0.14400281 0.07542626
-0.26181306 0.17887643 -0.04783812
-0.07715060 0.61373753 0.08006694
-0.14974615 0.44058715 -0.00917405
-0.10471673 0.36694538 0.00000136
-0.27979452 0.12451555 0.09518744
-0.04276788 0.31102101 0.00000095
-0.05911843 0.41276086 0.00000111
-0.25785500 0.22704727 -0.21675669
-0.16866574 0.39280240 0.00708921
-0.05542053 0.66620172 0.01333692
-0.02602788 -0.08514235 0.00000060
-0.06423538 -0.42133409 -0.00000015
-0.11911433 0.27505005 0.00000462
-0.29623691 0.14414814 -0.25945609
-0.03365398 -0.11252088 0.00000023
-0.03025023 -0.60316016 -0.00000006
-0.46798816 -0.75682510 -0.00000280
-0.40896311 -0.61049304 0.00000259
-0.02560335 0.16557012 0.00000045
-0.46596038 -0.32494805 0.31760995
-0.16396226 0.41497186 -0.04725345
-0.54714002 -0.47058479 -0.22003699
-0.10895726 0.10189760 0.00000731
-0.46618449 -0.24164823 -0.36656544
-0.26294266 0.08136881 -0.00000274
-0.07964291 -0.09533992 -0.00000004
-0.45038887 -0.28735554 0.33224544
-0.50071856 -0.73190324 -0.00000298
-0.13212883 0.48101137 0.05865614
-0.36976960 -0.02520580 -0.29517940
-0.08081192 0.05655636 0.00000102
-0.05138696 -0.01540440 0.00000080
-0.17520201 -0.16812290 0.00000145
-0.08304741 -0.63568715 -0.00000040
-0.15221320 0.31697701 -0.00000022
-0.47964728 -0.35798758 0.23371069
-0.11993938 0.18739951 -0.00000534
-0.26087350 -0.36049847 0.00000185
-0.41151784 -0.18882257 -0.02033575
-0.61421397 -0.68285521 0.14858149
-0.58104670 -0.59430718 -0.03689669
-0.40701996 -0.15548668 -0.11866089
-0.15518804 -0.48478017 -0.00000074
-0.19029623 0.00680357 0.00000616
-0.32787654 0.07162497 -0.27634109
-0.12728110 -0.13991589 -0.00000036
-0.65616615 -0.78413423 0.13530838
-0.50261057 -0.37660189 -0.16090126
-0.03808056 0.06519477 -0.00000979
-0.08953056 0.58933700 -0.02396110
-0.53879900 -0.50078560 0.06269063
-0.26296188 0.06455335 0.00000213
-0.64546336 -0.72736306 -0.13514334
-0.41024178 -0.19043374 0.38503920
-0.33856609 -0.30029316 -0.00000173
-0.58139190 -0.66821081 0.00000359
-0.30095169 0.13989876 -0.29065990
-0.28475768 -0.59137457 0.00000185
-0.39258777 -0.27495125 0.00000270
-0.07032094 0.48212873 0.00000325
-0.18620900 0.04508051 -0.00000060
-0.38157464 -0.05684307 -0.28144816
-0.18802801 0.10940784 -0.00000455
-0.24727455 -0.57007151 0.00000164
-0.36717034 -0.27506670 -0.00000189
-0.21019647 0.31986920 -0.11949520
-0.43038636 -0.23480231 -0.01846325
-0.43315986 -0.29040119 -0.00000230
-0.36706520 -0.08374592 -0.01053999
-0.23810807 0.19449377 -0.00000082
-0.23604615 0.23012903 0.04737262
-0.33045262 0.03896414 -0.16067592
-0.27512317 -0.07322308 -0.00000121
-0.36985873 -0.09165430 -0.00544664
-0.43210062 -0.24320572 0.39023448
-0.34015867 0.01575774 -0.16165457
-0.11323104 -0.23417053 -0.00000033
-0.09172985 0.13978591 0.00000731
-0.46501512 -0.55277131 -0.00000265
-0.24256831 0.23030908 -0.06958277
-0.14250060 0.48698182 -0.13561304
-0.66213567 -0.78743575 -0.04842254
-0.00957984 0.75814841 0.00000061
-0.38311114 -0.12493226 0.34095847
-0.02878812 0.30973992 -0.00000610
-0.34126673 -0.18472757 0.00000244
-0.19085465 -0.34314935 -0.00000087
-0.33771961 0.05683286 -0.31558400
-0.42636789 -0.20563862 -0.10360033
-0.05356531 0.37386281 0.00000106
-0.13450261 -0.04750858 -0.00000034
-0.19401209 0.36765354 -0.15761191
-0.25213140 -0.40367238 0.00000177
-0.12239451 0.42882908 -0.00000134
-0.40255984 -0.15163414 -0.08841205
-0.15726941 -0.44048250 -0.00000072
-0.57088290 -0.56628872 -0.05212578
-0.26989852 0.17921464 -0.13470485
-0.25375881 0.19150564 -0.01802617
-0.41737378 -0.61680427 -0.00000240
-0.02337960 0.68630056 0.00000107
-0.32866501 -0.03272164 -0.00000150
-0.01457398 -0.05855214 0.00000055
-0.21237289 -0.04745432 0.00000175
-0.06900058 0.50922223 0.00000292
-0.26697959 -0.32540291 0.00000191
-0.05019413 0.67881961 0.02880017
-0.23031798 -0.56321550 -0.00000124
-0.16819098 0.39394568 0.07190369
-0.06176208 0.29822729 -0.00000529
-0.22396726 -0.76609717 0.00000137
-0.07190956 0.08905998 0.00000012
-0.29573002 0.08604944 0.02923334
-0.33309053 -0.00415067 0.08955039
-0.54026838 -0.62688345 0.00000337
-0.00537244 0.44049837 0.00000081
-0.38463993 -0.09830329 -0.13245925
-0.24521590 0.20800035 0.02596643
-0.13047501 0.14019308 -0.00000578
-0.23933713 0.20212012 -0.00000149
-0.36739838 -0.08698719 0.09651551
-0.27961729 -0.03406355 -0.00000121
-0.43794160 -0.76876208 0.00000266
-0.18890213 0.35426665 -0.04508125
-0.31386339 0.04225929 0.07687050
-0.07342898 -0.73978942 -0.00000041
-0.44185080 -0.21010928 -0.24755231
-0.42782225 -0.23287706 0.40165542
-0.48006071 -0.27709257 -0.35805919
-0.12277717 -0.26291712 -0.00000041
-0.02747400 0.36790347 0.00000090
-0.26245892 0.16635659 0.22662452
-0.26863482 -0.34992003 -0.00000134
-0.28273145 0.09924028 -0.00000114
-0.24648092 0.20492758 0.26150559
-0.15600453 0.44471949 -0.09334928
-0.05371874 0.14373525 -0.00000804
-0.17143773 0.38611591 0.01196884
-0.29720066 -0.34534433 -0.00000151
-0.32047253 -0.52185735 0.00000211
-0.14099393 0.47281075 -0.05771173
-0.65969673 -0.79265756 0.08361260
-0.61355077 -0.67085469 -0.04530721
-0.08266814 0.60041723 0.07897939
-0.42686339 -0.23055891 0.31415564
-0.32865323 -0.71347881 0.00000204
-0.34829307 0.02736455 -0.29833774
-0.33360455 0.05064746 -0.24506592
-0.17646401 -0.63866430 0.00000117
-0.30755809 0.10007658 -0.18622817
-0.11125510 -0.22704356 0.00000103
-0.19378168 0.04804876 0.00000170
-0.38528918 -0.13019131 0.38369919
-0.21047036 0.09891801 0.00000183
-0.20726241 -0.24392071 0.00000160
-0.34344475 0.01264161 -0.18272705
-0.24496160 0.25232673 -0.19117747
-0.10193957 0.14652319 -0.00000654
-0.47281978 -0.25982331 -0.35713236
-0.06528400 -0.31413594 0.00000070
-0.38883524 -0.13874072 0.09857303
-0.07468847 0.62373060 -0.01767265
-0.03221204 0.00370199 0.00000070
-0.35344487 -0.03068373 -0.09881803
-0.35207573 -0.05000053 0.22412625
-0.28821744 -0.65817370 -0.00000165
-0.32051575 0.09048900 -0.28112672
-0.15788001 0.42840346 -0.04178218
-0.60929221 -0.67097331 0.11664041
-0.64242025 -0.71915521 -0.13891072
-0.64607973 -0.75978407 0.15489238
-0.03493400 0.07111228 0.00000997
-0.20862859 0.31004505 -0.05996667
-0.25881341 0.19766465 -0.09834042
-0.39820727 -0.16136528 0.06174682
-0.28067889 -0.71754659 0.00000175
-0.21922322 0.28975300 -0.08307974
-0.42324344 -0.21783594 -0.01724808
-0.30629349 0.08105644 -0.08966113
-0.01636867 0.02075827 0.00000061
-0.14424742 -0.48250612 0.00000107
-0.36275214 -0.06169828 -0.06143735
-0.01040355 0.33579573 0.00000077
-0.20465158 -0.47240688 -0.00000103
-0.38726717 -0.61581095 0.00000245
-0.12512929 0.00891840 -0.00000808
-0.30510935 0.06339237 0.10212693
-0.08996026 0.58046652 0.00000015
-0.06597477 0.64105979 -0.00145581
-0.44126829 -0.22936790 -0.15715523
-0.13743481 0.43265777 -0.00000006
-0.20308502 0.30581970 0.00000167
-0.38475451 -0.12888809 0.07991104
-0.65205599 -0.77421165 0.06882612
-0.22376420 -0.05969809 0.00000181
-0.24958750 0.20073657 -0.01434391
-0.08730192 0.33945851 -0.00000385
-0.02438539 -0.00131383 0.00000035
-0.57737676 -0.64158710 0.00000358
-0.27825222 0.04807264 0.00000221
-0.09727041 0.13896007 -0.00000681
-0.11422485 -0.31740544 0.00000099
-0.34917861 -0.04300226 0.13529600
-0.40296271 -0.09381566 -0.34558926
-0.05130808 0.67612914 0.04381530
-0.20555683 -0.33796689 -0.00000095
-0.65042203 -0.77026699 0.02220448
-0.14168156 -0.59475497 0.00000098
-0.03149349 0.19865086 0.00000081
-0.20593631 -0.10404822 0.00000168
-0.29265266 0.06536194 0.00000231
-0.21369527 0.30583794 -0.09506462
-0.57550466 -0.55800844 -0.13715570
-0.35192189 -0.04963154 0.27813972
-0.27285129 -0.36285939 0.00000192
-0.44852619 -0.25903402 -0.10403065
-0.33136559 0.03059725 -0.13370805
-0.40795059 -0.18028037 -0.02003070
-0.21720239 -0.40673165 0.00000156
-0.27150926 0.19919759 -0.23912904
-0.25455476 0.07149700 0.00000208
-0.41264486 -0.49716374 0.00000268
