ply
format ascii 1.0
element vertex 1394
property float x
property float y
property float z
end_header
0.24266664 -0.52002788 0.00000000
0.69097504 -0.55631985 -0.00000055
-0.45824741 0.28397170 0.00321531
0.13305519 -0.73121570 0.00000000
0.47926661 -0.28812306 -0.00000012
-0.67842105 0.04917056 0.00402901
0.19987196 0.48653734 -0.00000030
-0.05740239 0.68542761 0.00318233
-0.61216240 -0.29864021 -0.00000067
-0.26260063 -0.67059211 0.00000000
-0.27910550 -0.65483541 0.00000000
-0.37987827 0.11150479 -0.00000040
-0.07255226 -0.51987358 0.00000000
0.42282145 -0.07101918 -0.00000026
-0.59743948 -0.67404897 0.00000000
0.33692216 -0.28555835 0.00000000
-0.22811995 0.10460631 0.02601089
-0.45239837 0.17189662 0.00977979
-0.42118922 -0.76295428 0.00000000
0.53368629 0.20645378 -0.00000123
0.07822837 0.63773215 -0.00000005
0.05059029 0.41632415 0.00000000
0.49253070 -0.47261305 0.00000000
0.10252541 -0.77500479 0.00000000
0.13841013 -0.26921880 0.00000000
-0.22900216 -0.22870592 0.00000000
0.29543092 -0.75395569 0.00000000
0.40703041 -0.79917856 0.00000000
0.27192693 -0.03086924 0.00000000
0.33156670 -0.63750254 0.00000000
-0.12830165 0.12317540 0.03053372
0.51814490 0.01277099 -0.00000082
-0.66836731 -0.47044736 -0.00000061
-0.05540070 0.20007976 0.00000000
0.09876620 -0.40367652 0.00000000
-0.02259090 -0.53696735 0.00000000
-0.40707909 0.37108754 0.00121435
0.69086677 -0.52759809 -0.00000060
-0.39365701 -0.72720883 0.00000000
0.06085055 0.26801625 0.00000706
0.57153459 -0.69242599 0.00000000
-0.03989412 0.61529854 0.00806075
-0.07034232 0.53546834 0.01080960
-0.64604176 -0.64802927 -0.00000020
0.14835946 -0.14403559 0.00000000
-0.17766649 0.50452453 0.00655761
-0.46787710 0.31421977 -0.00000114
-0.07104172 0.55856960 0.00948473
0.38123940 -0.39545653 0.00000000
0.30892672 -0.13900881 0.00000000
0.24684867 -0.72807488 0.00000000
0.04088244 -0.55561632 0.00000000
0.13178426 -0.61939458 0.00000000
-0.26086102 -0.49135131 0.00000000
-0.60034380 -0.79590552 0.00000000
0.27511932 -0.36880927 0.00000000
-0.03202397 0.22951051 0.00000000
-0.00774456 -0.56096162 0.00000000
-0.45201434 -0.79019855 0.00000000
0.03668549 -0.51354830 0.00000000
0.46905371 -0.21918268 -0.00000020
-0.07471065 0.52853272 0.01095251
-0.02881485 0.60604896 0.00919237
-0.14353069 -0.09500953 0.00000000
0.44787800 -0.78348841 0.00000000
0.52437730 -0.67221355 0.00000000
-0.03973132 0.17366980 0.00000000
0.47633555 0.21137267 0.00000068
-0.50605185 0.28632741 0.00042292
0.29231948 0.19551079 0.00000448
0.53529840 0.06882335 0.00000193
0.35673880 -0.78262757 0.00000000
-0.20481801 0.44997979 -0.00000026
-0.23030432 -0.27714740 0.00000000
-0.43635490 -0.05558048 -0.00000035
0.77557870 -0.41341855 -0.00000097
0.39390758 -0.49426742 0.00000000
-0.17342665 0.31897247 0.01712265
-0.48941165 -0.76927678 0.00000000
0.37614976 0.08047946 0.00000480
-0.56899726 0.19636317 0.00192682
0.40921504 -0.71238092 0.00000000
-0.06509407 0.52185825 0.01185937
0.02754186 0.25319591 0.00000779
-0.18104400 0.42186723 0.01097086
-0.51763868 -0.34616947 -0.00000018
0.10062480 0.25302240 0.00000669
-0.07324738 0.37728077 0.01945348
0.26352338 -0.75400523 0.00000000
0.42575757 0.10112702 0.00000350
0.13028361 0.38221947 0.00000430
-0.13309495 -0.41240423 0.00000000
-0.11354510 0.65788297 0.00159022
0.60410864 -0.71023807 0.00000000
-0.41613146 -0.79375270 0.00000000
0.67774928 -0.48357314 -0.00000062
0.45722008 0.18627170 0.00000147
-0.05583911 0.71892048 0.00140491
0.16150508 -0.63318162 0.00000000
0.69382821 0.08663606 -0.00000170
0.01995931 0.22582812 0.00000000
0.01917590 -0.44837788 0.00000000
0.70903671 -0.34355396 -0.00000100
-0.26587156 0.05555457 0.02663989
0.19465172 0.42315387 0.00000256
0.36935559 0.39600403 -0.00000086
-0.12298612 0.38307728 0.01636205
0.31439357 0.12757501 -0.00000015
-0.16501530 -0.54073682 0.00000000
0.55904880 -0.20368964 -0.00000061
-0.60523727 -0.65642787 -0.00000001
-0.39973058 0.24627372 0.00857144
-0.42633959 0.31517961 -0.00000096
-0.20586048 -0.01467433 0.00000000
0.23181262 0.05958426 0.00000761
-0.14986314 0.59605081 0.00301042
0.07784901 0.38086880 0.00000000
0.17414609 0.33201391 0.00000439
0.65762942 -0.52813976 -0.00000046
-0.41982425 -0.43450685 0.00000000
-0.02253749 -0.59618352 0.00000000
-0.61297577 0.07457644 -0.00000133
0.23592337 -0.73985906 0.00000000
-0.42032206 0.34191464 -0.00000098
-0.12423250 -0.40808507 0.00000000
-0.32347612 0.45230223 0.00134751
0.14879344 0.15561245 0.00000000
0.61780912 -0.59122029 -0.00000018
-0.49953879 -0.65188072 0.00000000
-0.70516117 -0.20325055 -0.00000124
-0.21108798 -0.44956093 0.00000000
-0.08713837 0.64607769 -0.00000010
-0.04082376 0.07813856 0.00000000
0.46002622 -0.30523961 -0.00000001
0.26619567 0.24682508 0.00000413
0.26450052 0.38240474 0.00000190
0.55608233 -0.71238929 0.00000000
-0.03074568 0.24809966 0.02901031
-0.32650309 -0.67950110 0.00000000
-0.07942512 0.08889305 0.03516283
-0.05510669 0.65189237 0.00517691
0.56170286 0.15922219 -0.00000008
-0.29534733 0.14598308 -0.00000010
-0.02756328 0.51465260 0.00000000
-0.13265731 -0.29750110 0.00000000
-0.14817856 0.59594474 0.00311010
-0.11199611 0.51062942 0.00987357
-0.64185904 -0.05090044 -0.00000124
0.58991304 -0.64946138 0.00000000
0.23882045 0.27667665 0.00000416
-0.29133676 -0.16915684 0.00000000
0.27615121 0.01787743 0.00000000
-0.02799217 -0.01833743 0.00000000
-0.52992957 -0.64730650 0.00000000
-0.28939962 -0.77383543 0.00000000
0.29997734 -0.34760189 0.00000000
0.54154627 -0.55032368 0.00000000
-0.35246027 0.00315931 0.02473638
0.03834568 -0.11390341 0.00000000
-0.03428385 -0.71515253 0.00000000
0.41092202 -0.53670878 0.00000000
0.08423102 0.48707645 0.00000342
-0.35616276 -0.33423516 0.00000000
-0.56090307 -0.48715999 -0.00000012
-0.11810816 0.55537810 0.00704233
-0.32461900 0.14527058 0.01837539
-0.01698427 0.75694768 0.00000000
-0.69045257 -0.19094768 -0.00000119
0.03802591 -0.54136977 0.00000000
-0.20984227 -0.62452653 0.00000000
0.21000401 -0.12505971 0.00000000
-0.40368383 0.39541455 0.00004915
0.15735599 -0.49037946 0.00000000
-0.40439016 -0.73057621 0.00000000
0.14587948 0.29430887 0.00000000
-0.25875432 0.49617480 -0.00000057
0.08538332 -0.41703650 0.00000000
-0.73576130 -0.79250018 -0.00000002
0.31279652 0.16679992 0.00000457
0.46785982 0.07460428 0.00000313
0.37704035 0.40641180 -0.00000091
-0.51243941 -0.56290573 0.00000000
0.57658234 -0.21966548 -0.00000066
-0.79484545 -0.70764098 -0.00000023
-0.07589255 -0.32122930 0.00000000
0.35486744 -0.18337671 0.00000000
0.37457459 -0.44770227 0.00000000
-0.00867680 0.43788951 0.00000000
-0.01399259 0.70433269 0.00000000
0.00949442 0.03580823 0.00000000
-0.15062707 -0.61945102 0.00000000
-0.19666088 0.12140420 0.02682703
0.56162579 -0.00666428 -0.00000097
0.30393717 -0.68993195 0.00000000
-0.25990247 0.38007748 0.00890715
0.75847639 0.03258588 -0.00000188
0.47583514 0.18005628 -0.00000093
0.12990467 0.50676555 0.00000240
0.17293323 -0.11688814 0.00000000
0.40030171 -0.65130855 0.00000000
-0.32503041 0.38274661 -0.00000065
-0.16073116 0.47863766 0.00894143
-0.53935381 0.09680866 -0.00000106
0.22918723 0.04739913 0.00000000
-0.14817002 -0.14928799 0.00000000
0.10436792 0.01080677 0.00001026
0.10436266 0.00462969 0.00001036
0.36626219 0.03131543 0.00000581
-0.79762865 -0.19876664 -0.00000150
0.08330801 0.39564352 0.00000000
0.24408089 0.38805025 0.00000219
-0.12738580 -0.61115732 0.00000000
0.11048709 -0.17919169 0.00000000
0.71114909 -0.12625057 -0.00000140
0.14305021 0.35604089 0.00000000
0.48824132 -0.59521414 0.00000000
0.21219693 0.22861379 0.00000537
0.68380875 -0.50572231 -0.00000061
0.61339762 -0.13953317 -0.00000096
-0.52025417 -0.22108242 -0.00000042
0.33483355 0.25396276 -0.00000046
0.18819415 -0.37621756 0.00000000
0.48481526 -0.55769404 0.00000000
-0.16835838 -0.39476219 0.00000000
-0.56905843 -0.47402992 -0.00000018
0.22529704 -0.18144151 0.00000000
-0.07684185 -0.47233143 0.00000000
-0.24034705 -0.11165652 0.00000000
0.15716728 0.25408288 0.00000582
0.64443689 0.09235714 -0.00000150
0.46537961 -0.69164437 0.00000000
0.06725756 0.63545332 0.00000000
-0.70652541 -0.66115371 -0.00000035
0.18946636 -0.21276479 0.00000000
0.58611966 -0.14709110 -0.00000083
0.53774340 0.00386894 -0.00000089
-0.70654764 -0.44776822 -0.00000081
0.02819666 -0.50151720 0.00000000
-0.71017281 -0.06902748 -0.00000149
-0.40595028 -0.11503672 -0.00000011
-0.34423605 -0.38459072 0.00000000
-0.14570530 0.29032645 0.00000000
-0.05857384 0.16564897 0.03205088
-0.19138926 0.30352474 0.01698265
-0.11340704 -0.69077305 0.00000000
0.02340725 -0.13687647 0.00000000
-0.36670245 -0.49535382 0.00000000
-0.06044621 0.17764771 0.00000000
-0.36901514 0.11608321 0.01752865
-0.12890260 0.46881080 0.00000000
0.43614278 0.07854365 -0.00000059
-0.15906620 0.06123651 0.03226904
-0.03886482 0.33387104 0.00000000
-0.06025579 -0.13754080 0.00000000
0.07698708 -0.06338192 0.00000000
0.04670798 0.68276859 0.00000105
-0.19635895 0.02558195 0.00000000
0.12835788 0.43804142 0.00000349
0.09143506 0.56807241 0.00000000
0.74854357 -0.43294533 -0.00000092
0.32622955 0.13883009 -0.00000022
-0.03207450 0.34144328 0.02374032
-0.48657490 -0.40178845 0.00000000
-0.33212291 -0.51419905 0.00000000
-0.47608602 0.29214934 0.00176702
-0.11758627 0.34842226 0.01859173
0.56871395 -0.04402150 -0.00000094
-0.23903256 -0.20014525 0.00000000
0.74610313 -0.74539937 -0.00000014
0.05409569 0.08035589 0.00000998
-0.18155147 -0.43033609 0.00000000
0.24117355 0.50938525 0.00000022
-0.08991871 0.35352589 0.00000000
-0.04122422 -0.16183639 0.00000000
0.50522079 0.24452660 -0.00000042
-0.25690021 0.47579534 -0.00000052
-0.06163704 0.26607076 0.00000000
-0.17483932 -0.18658766 0.00000000
-0.34877790 0.39131248 -0.00000077
0.35857162 0.23468985 -0.00000053
0.01245900 0.66378545 0.00000186
-0.19409158 -0.32974249 0.00000000
0.31393424 0.15584234 -0.00000020
-0.38942121 0.32949709 0.00451257
0.61337193 -0.64062478 -0.00000007
0.22109300 0.11338331 0.00000696
0.31091299 0.35926396 -0.00000055
-0.20967950 0.38958427 -0.00000017
0.21372680 0.04930975 0.00000804
-0.44015191 -0.13335809 -0.00000023
-0.40054177 0.09084356 -0.00000046
-0.72593410 -0.04451876 -0.00000161
-0.19219109 0.28251180 0.01810771
0.30266018 0.34604350 0.00000177
-0.00945701 -0.40265662 0.00000000
-0.10829731 -0.73171072 0.00000000
0.47811535 -0.30405284 -0.00000009
-0.04777301 0.39632358 0.01981151
0.01125210 0.28685562 0.00000000
-0.02970016 0.06145768 0.03945802
0.42014149 0.06790490 0.00000416
-0.76427511 -0.09001594 -0.00000169
0.10794637 0.49074459 0.00000000
0.53409531 -0.50775811 0.00000000
0.57415703 -0.48579698 -0.00000018
-0.32217009 0.37723415 -0.00000063
-0.26704149 0.15080610 0.02127255
-0.46065563 -0.09909796 -0.00000038
0.51984330 -0.60735959 0.00000000
0.71896825 -0.18174533 -0.00000133
-0.01051846 0.54321363 0.01370862
0.24049437 -0.62712705 0.00000000
-0.41783555 -0.03251220 -0.00000031
0.55732307 0.16666256 -0.00000012
-0.40178395 -0.26659557 0.00000000
0.38382748 -0.78102801 0.00000000
-0.78559607 -0.47796903 -0.00000081
-0.34279381 0.23157861 0.01255911
0.00209113 0.76748269 0.00000046
0.65574989 -0.68396718 -0.00000018
0.53272656 -0.14492811 -0.00000060
-0.48478652 -0.29010141 -0.00000014
0.11853472 -0.04686913 0.00000000
0.72323003 -0.76147440 -0.00000010
0.13777576 0.42832053 0.00000350
-0.53642750 -0.73636364 0.00000000
0.03756900 -0.30859315 0.00000000
0.79712465 -0.50929370 -0.00000073
-0.39165256 0.35894541 0.00274905
0.04903127 -0.15953874 0.00000000
0.79280574 -0.39350564 -0.00000102
0.56783196 -0.73532482 0.00000000
0.65834982 0.07325815 -0.00000152
0.05355404 -0.72294796 0.00000000
0.47897547 -0.09066019 -0.00000047
-0.18926789 -0.14730578 0.00000000
0.26881896 0.30102492 -0.00000027
-0.49272617 -0.18737997 -0.00000036
-0.08414811 0.40165521 0.01748986
0.01362605 0.76443375 0.00000033
0.52215786 -0.25986391 -0.00000035
-0.03873373 0.46454069 0.00000000
-0.46059604 -0.27848015 -0.00000006
0.11326568 0.54187054 0.00000214
0.48112997 -0.53334987 0.00000000
0.54528047 -0.66343670 0.00000000
0.16179527 0.06839898 0.00000853
-0.35404514 0.16191996 0.01581043
0.00252725 0.11039971 0.00001031
-0.38366249 0.39963334 0.00092888
-0.61343306 0.09706702 -0.00000138
0.34089098 0.07132796 0.00000563
-0.35863713 -0.19990746 0.00000000
-0.40481019 -0.42731231 0.00000000
0.70247003 -0.79585518 -0.00000001
0.45900749 0.00293452 0.00000450
0.20859960 0.40962834 -0.00000020
0.05109154 0.29574267 0.00000679
0.29715027 -0.48564980 0.00000000
0.26051422 -0.63062848 0.00000000
0.55782889 -0.16931403 -0.00000067
-0.23421251 -0.71861176 0.00000000
0.21967936 0.44433755 0.00000172
0.79855986 -0.64740421 -0.00000038
-0.56500165 0.13738348 -0.00000124
-0.14780552 -0.09674497 0.00000000
-0.10842996 -0.19261865 0.00000000
-0.51096206 -0.05897143 -0.00000066
0.48135157 -0.47768814 0.00000000
-0.08329292 -0.26392547 0.00000000
0.33614534 -0.29887398 0.00000000
0.08322370 -0.65260667 0.00000000
-0.04153199 0.16304652 0.03314440
0.03537722 0.33412974 0.00000645
0.45326438 -0.32175335 0.00000000
-0.03603013 0.21708143 0.00000000
-0.57775700 0.09815808 0.00690594
-0.13284521 0.16080514 0.02818612
0.16314291 -0.21848134 0.00000000
-0.08711692 0.69148691 -0.00000018
-0.25258760 -0.47537952 0.00000000
-0.71090472 -0.10617707 -0.00000143
0.42014015 0.36552709 -0.00000081
0.32941124 -0.57443397 0.00000000
0.33787538 -0.19565131 0.00000000
0.34222875 -0.02789659 0.00000000
-0.49633460 -0.53767246 0.00000000
-0.25723282 -0.27252798 0.00000000
-0.17365712 0.55860585 0.00377027
0.32160398 -0.79421395 0.00000000
0.19693526 0.40024743 0.00000290
0.65853430 0.06547202 -0.00000151
-0.75364083 -0.48455730 -0.00000079
0.06181551 0.56749844 0.00000255
0.08437987 -0.49126299 0.00000000
-0.05659050 0.31275876 0.02397235
-0.24561941 -0.19439722 0.00000000
0.39540082 -0.34211562 0.00000000
0.39720905 -0.44858126 0.00000000
-0.33923688 -0.05306886 0.00000000
-0.49785540 -0.32119382 -0.00000014
-0.31383686 0.06077539 -0.00000003
0.73979257 -0.06946496 -0.00000162
0.05889501 0.52276380 0.00000327
0.57669726 -0.35127444 -0.00000043
-0.76820393 -0.44333854 -0.00000089
0.18769256 0.60229988 -0.00000045
-0.68585162 0.07977294 0.00191181
0.34426451 0.11496353 0.00000483
-0.17836671 -0.18064796 0.00000000
-0.36410244 0.03383911 0.02238041
-0.63165377 0.14931883 -0.00000155
0.25805360 0.27964172 0.00000374
-0.08491132 0.44456488 0.00000000
-0.11687258 0.47419695 0.00000000
-0.55754126 -0.08135465 -0.00000082
-0.40824455 -0.41414417 0.00000000
0.57142519 -0.50515121 -0.00000013
0.03590869 -0.76821990 0.00000000
0.25280500 0.12320815 0.00000000
0.58080452 -0.22340128 -0.00000067
-0.77167161 -0.02428845 -0.00000184
-0.39764296 -0.08908020 -0.00000013
-0.28796302 0.13462030 0.02100888
0.42438850 -0.46391025 0.00000000
-0.58019568 -0.04193047 -0.00000099
-0.05460651 0.61095612 0.00748349
-0.32446178 0.42783524 -0.00000073
-0.35648128 -0.22253302 0.00000000
-0.68900010 -0.21443481 -0.00000115
0.32128787 -0.74004354 0.00000000
0.36701653 -0.26010921 0.00000000
-0.23411261 0.04777671 0.00000000
-0.11011282 0.08230848 0.03382110
-0.10521240 -0.65149306 0.00000000
-0.46899250 -0.63730862 0.00000000
-0.39476637 -0.53897302 0.00000000
-0.18172948 0.00963674 0.03387979
0.69844825 -0.56255362 -0.00000057
-0.21828823 0.41323091 0.00937825
-0.15666460 0.20160642 0.00000000
-0.19169572 0.30395982 0.00000000
0.24221842 0.22406724 -0.00000002
0.30962751 0.16073626 -0.00000019
-0.16050054 0.40636672 0.00000000
-0.60130526 -0.14952562 -0.00000089
0.13920918 0.28223733 0.00000000
-0.24138999 0.25106124 -0.00000006
-0.55812896 -0.78809499 0.00000000
0.71562213 -0.55142778 -0.00000062
0.38213993 0.28202212 0.00000131
-0.03314904 0.52311997 0.01356738
-0.24900510 -0.18331107 0.00000000
-0.38762476 0.24072600 -0.00000067
0.27479204 -0.28750919 0.00000000
0.24739102 0.08398145 0.00000000
0.00563502 0.27115154 0.00000785
0.60338231 -0.18597192 -0.00000083
0.05693401 0.58183574 0.00000241
-0.28045880 -0.23807013 0.00000000
-0.12377733 -0.75208036 0.00000000
-0.51162438 -0.55410844 0.00000000
-0.22442754 -0.78541162 0.00000000
0.34796279 0.17362766 -0.00000038
0.73052327 -0.31741014 -0.00000114
0.59510478 0.13534956 -0.00000033
0.29874515 0.08901853 0.00000614
-0.13658545 0.65080107 0.00070180
0.52016956 0.20907202 -0.00000012
-0.52142206 -0.35230780 -0.00000019
-0.73120357 -0.28043087 -0.00000121
-0.04989262 -0.57413977 0.00000000
-0.54549108 0.10161897 -0.00000109
0.01212903 0.05273867 0.00001103
0.61378786 -0.79925080 0.00000000
0.29709285 -0.52327112 0.00000000
-0.22542134 0.52166114 0.00294518
0.30007575 -0.05863351 0.00000000
-0.48251366 0.29619925 0.00118375
-0.74494660 -0.74925738 -0.00000013
0.73121503 -0.52022959 -0.00000070
-0.75741394 -0.30881344 -0.00000123
0.26405513 0.41705277 -0.00000045
-0.17476091 0.23022436 0.02198859
-0.65444679 -0.48035358 -0.00000053
0.34548175 0.04230919 -0.00000014
0.10678581 -0.76634601 0.00000000
0.74096550 -0.62212417 -0.00000044
-0.08978579 0.35868673 0.00000000
0.49622225 -0.16199842 -0.00000042
-0.26551485 0.47376745 0.00337928
-0.32256774 0.11168822 -0.00000016
-0.28161761 -0.25084688 0.00000000
0.33205679 0.11597407 0.00000505
0.22007442 -0.20328330 0.00000000
0.29245886 0.28474523 0.00000299
-0.30232558 -0.30962410 0.00000000
-0.78282760 -0.72153299 -0.00000020
-0.06996786 0.17332685 0.03098923
0.28279549 0.26745057 0.00000347
-0.23887397 0.22654311 -0.00000001
-0.61883123 0.07122514 0.00611863
0.54150800 -0.22425272 -0.00000050
-0.26564495 0.11976127 0.00000000
0.13377115 0.51876401 0.00000213
0.10916042 0.28481076 0.00000608
-0.62844765 0.09122933 -0.00000143
-0.57900458 -0.56193360 -0.00000006
0.41430179 0.27694890 0.00000078
0.33696600 0.24219273 -0.00000045
-0.49287324 -0.21173130 -0.00000031
-0.40274265 -0.62939020 0.00000000
-0.28335745 0.03215606 0.00000000
0.24880304 -0.73516026 0.00000000
-0.33925640 -0.58945844 0.00000000
0.31768019 -0.06760071 0.00000000
0.15899677 -0.48176670 0.00000000
0.77871516 -0.53084428 -0.00000067
0.14844482 -0.70830662 0.00000000
0.14524691 -0.19687572 0.00000000
-0.45693800 0.25636004 0.00482526
0.23100621 0.47735509 0.00000095
0.17888782 0.18190922 0.00000000
0.78988143 -0.36875754 -0.00000108
0.52321014 -0.46975145 0.00000000
-0.79643078 -0.10766621 -0.00000173
0.03158914 0.33213729 0.00000000
0.29783087 0.13808744 0.00000534
-0.10799045 -0.51606995 0.00000000
0.51911355 -0.60377643 0.00000000
0.23988451 0.36759495 -0.00000026
-0.07031576 0.13395892 0.00000000
-0.05464777 -0.68992164 0.00000000
-0.52229345 0.00641222 0.01510077
-0.25603844 -0.66404581 0.00000000
-0.27852473 0.18000593 -0.00000009
-0.29312975 0.34105220 0.00922982
0.63372597 -0.52557582 -0.00000036
-0.10758634 0.20179684 0.02731036
0.69990442 -0.04261054 -0.00000150
-0.14455882 0.28465037 0.00000000
0.52856273 -0.34955596 -0.00000022
-0.49061848 -0.03945418 -0.00000061
-0.37477618 -0.39856841 0.00000000
-0.79560316 -0.45103360 -0.00000087
0.08652218 0.25857056 0.00000000
-0.79653824 -0.20893742 -0.00000148
-0.46940738 -0.25570878 -0.00000014
-0.46136136 0.12953075 0.01163920
-0.62889755 -0.04453566 -0.00000119
-0.33380572 -0.23897063 0.00000000
-0.06878220 0.31264718 0.02329990
0.70153614 -0.77183407 -0.00000007
-0.05217869 0.01478070 0.04080503
-0.25260697 0.26057397 0.01596568
-0.33503736 0.41283274 -0.00000075
-0.21326389 -0.06325880 0.00000000
-0.41136050 -0.23695345 0.00000000
0.26429255 0.06808431 0.00000699
-0.09697244 0.60979300 -0.00000008
-0.33258195 -0.26120536 0.00000000
0.52131058 -0.58757777 0.00000000
0.05936812 0.06051136 0.00001020
0.14198296 -0.11734510 0.00000000
-0.38379852 -0.06705709 -0.00000011
-0.55303121 -0.63625463 0.00000000
0.76059782 -0.60878574 -0.00000048
-0.57320656 -0.15322829 -0.00000076
0.55565402 0.11185469 -0.00000115
-0.03874768 -0.61614468 0.00000000
-0.25470363 0.01360634 0.02959664
0.02898968 0.44021276 0.00000000
0.20473026 0.31144537 0.00000423
0.24934935 -0.51271273 0.00000000
-0.26708071 -0.40908522 0.00000000
0.53746070 0.18648938 -0.00000121
0.04692875 -0.10771986 0.00000000
-0.60856370 0.18881303 -0.00000152
-0.08315808 -0.31868349 0.00000000
0.16007526 0.59238616 -0.00000032
0.53772727 -0.48541577 -0.00000002
-0.17566339 0.54849536 -0.00000031
-0.44775994 -0.55346415 0.00000000
0.19864110 0.42669629 0.00000242
0.55095935 -0.31208485 -0.00000039
0.65235934 -0.51055151 -0.00000047
0.69245233 -0.62605263 -0.00000043
0.08724286 0.15634643 0.00000834
-0.43025710 -0.43270164 0.00000000
0.24927099 -0.10463288 0.00000000
0.00752905 -0.39274142 0.00000000
-0.08281683 0.29688490 0.00000000
-0.03178197 0.59502358 0.00000000
-0.03658238 0.19105154 0.00000000
-0.59624003 0.18544832 0.00101782
-0.30860450 0.03553375 0.00000000
0.76990432 -0.67153685 -0.00000032
-0.65190386 -0.37794669 -0.00000070
-0.07235642 0.70248047 -0.00000014
-0.17807554 -0.75049912 0.00000000
0.08181581 0.60554152 -0.00000001
0.64221387 0.04980225 0.00000020
0.55473729 0.20710089 -0.00000075
0.01801010 -0.33819381 0.00000000
-0.52642537 -0.65831080 0.00000000
-0.00860092 -0.77614714 0.00000000
-0.14611432 0.26737683 0.00000000
-0.75225096 -0.60681702 -0.00000048
-0.53074722 0.24548852 -0.00000128
-0.64111000 -0.06291255 -0.00000121
-0.11712882 0.14846428 0.00000000
0.76826655 -0.25257631 -0.00000137
-0.71381994 -0.63851561 -0.00000040
-0.24413448 -0.05244668 0.00000000
-0.04582778 0.21426367 0.00000000
-0.05492198 0.22979045 0.02868370
-0.43268212 0.10224342 -0.00000061
0.49007064 -0.72602612 0.00000000
-0.60982878 -0.07737205 -0.00000105
-0.21967763 -0.36852528 0.00000000
-0.44564175 0.31372566 -0.00000104
0.32101310 0.12015705 -0.00000017
0.32079137 0.05454126 -0.00000005
0.14523422 0.58029454 0.00000088
0.32632991 -0.14520698 0.00000000
-0.30553796 0.32674411 -0.00000047
-0.64785830 0.01244018 0.00777509
-0.69149011 -0.31829148 -0.00000097
0.65184534 -0.44660140 -0.00000058
-0.01441164 0.76611645 -0.00000000
-0.75651581 -0.15829274 -0.00000153
-0.44000866 0.05208214 -0.00000056
-0.51576341 0.04879785 0.01310482
-0.16384754 0.14696216 0.02723092
0.33733582 0.21375402 0.00000331
0.58487969 0.14382613 -0.00000027
0.33642932 0.45438731 -0.00000069
-0.34805778 -0.13988642 0.00000000
0.00977462 0.62435825 0.00000249
0.51356626 -0.73602438 0.00000000
0.30118156 0.39912635 0.00000091
0.71969977 -0.12578634 -0.00000143
0.05105671 0.64930226 0.00000000
0.43117988 0.24722442 -0.00000086
-0.03954076 0.71098394 -0.00000001
0.07896830 -0.01732707 0.00000000
-0.68867439 -0.61858334 -0.00000043
0.22249879 0.36139688 -0.00000017
0.42744329 -0.12300061 -0.00000019
0.78885909 -0.38427909 -0.00000104
0.06255388 -0.23291766 0.00000000
-0.04137419 0.23462722 0.00000000
0.62480411 -0.03562331 -0.00000119
0.63713140 -0.68058495 -0.00000010
-0.02009535 -0.06260918 0.00000000
0.07957018 0.29353618 0.00000640
-0.25169153 -0.74144433 0.00000000
0.36159305 -0.57954847 0.00000000
-0.22503325 0.52506147 -0.00000047
0.22009701 0.52712773 0.00000033
0.31672937 0.18677329 -0.00000027
-0.24338070 -0.50035495 0.00000000
0.54760785 0.23961030 -0.00000135
0.25875035 0.28820820 0.00000358
0.01321805 -0.52222610 0.00000000
0.27715853 0.04106027 0.00000000
0.24605486 -0.31883561 0.00000000
0.19168855 0.29942295 0.00000000
0.74133824 -0.72760871 -0.00000018
0.29036712 0.30153636 0.00000275
-0.19359308 -0.41005150 0.00000000
-0.18959059 -0.76010819 0.00000000
-0.40309774 0.16640992 0.01282976
0.09405842 -0.20761370 0.00000000
0.24879363 0.16718510 0.00000574
0.71423047 0.04421456 -0.00000171
0.05661851 -0.22864804 0.00000000
0.02427600 0.19716147 0.00000000
-0.45056598 0.31372168 -0.00000106
0.38948662 -0.72016386 0.00000000
-0.43953885 -0.31702832 0.00000000
0.12980769 -0.65359709 0.00000000
-0.20360240 0.48282604 0.00632165
-0.64875107 0.06769679 -0.00000147
0.39404015 -0.24780903 0.00000000
-0.49018920 0.07045508 0.01332293
0.33768938 0.12733017 0.00000475
0.04491681 0.32501049 0.00000645
0.22573065 0.15232104 0.00000000
0.73029479 -0.01222250 -0.00000168
0.17747129 -0.14953335 0.00000000
-0.11974674 -0.77914454 0.00000000
-0.09528975 -0.21450792 0.00000000
-0.78337800 -0.51283649 -0.00000072
0.16216858 0.09021110 0.00000820
0.29955063 -0.14751673 0.00000000
-0.44098997 0.14087089 -0.00000072
0.28349010 0.10459364 0.00000615
-0.64799113 -0.69500329 -0.00000012
0.13048162 0.16667275 0.00000753
-0.53416027 0.09895813 0.00928841
-0.76233141 -0.33524941 -0.00000116
0.32788413 0.28029616 0.00000238
0.18362841 0.51981635 0.00000115
-0.27909515 -0.70567702 0.00000000
0.07102383 0.14153972 0.00000881
-0.19286279 0.27577316 0.00000000
-0.57543021 0.09031320 -0.00000120
0.31404653 0.03054985 0.00000000
0.07373273 0.02189989 0.00001056
0.60824296 -0.68693419 0.00000000
0.53134621 -0.16377657 -0.00000056
0.43062874 0.30301894 0.00000003
-0.61448029 -0.14302833 -0.00000096
0.02410825 0.48527491 0.00000000
-0.01292875 -0.02200623 0.00000000
0.21997013 0.30976663 0.00000396
0.41875064 0.36165859 -0.00000072
-0.49521810 -0.17568530 -0.00000039
0.02428441 0.51220966 0.00000395
0.56860540 0.02362945 -0.00000105
-0.30472033 -0.50253610 0.00000000
0.20839645 0.32780319 -0.00000005
0.36411807 -0.35201751 0.00000000
0.01748666 0.22394387 0.00000838
-0.65947425 -0.14614778 -0.00000114
0.06100191 -0.26417641 0.00000000
0.73659891 -0.18806127 -0.00000140
0.21603206 -0.39309611 0.00000000
-0.19426291 -0.78215653 0.00000000
0.57746994 -0.72579821 0.00000000
-0.09229818 0.64297352 -0.00000012
0.52389328 0.27473193 -0.00000129
0.38654896 0.05384450 0.00000504
0.37574888 0.33694462 -0.00000079
-0.44354694 -0.65899947 0.00000000
0.32010688 -0.38082215 0.00000000
0.65155486 -0.16429967 -0.00000108
-0.63816943 0.03873482 -0.00000138
-0.76590769 -0.24371497 -0.00000139
-0.30110884 -0.12001325 0.00000000
0.01687259 0.42301414 0.00000000
0.16363843 -0.00272032 0.00000000
0.27189745 -0.11478548 0.00000000
0.25381557 -0.60056163 0.00000000
-0.35826824 -0.29937507 0.00000000
-0.45302088 0.05961815 -0.00000062
0.29623203 0.28359753 -0.00000035
-0.27209096 0.39171370 0.00758087
-0.23520978 -0.42938715 0.00000000
0.09270405 -0.43239636 0.00000000
0.07542168 0.60886552 0.00000173
0.16488452 0.29191866 0.00000000
-0.30883653 -0.08375528 0.00000000
0.56882452 -0.54202890 -0.00000006
-0.77342302 -0.07267078 -0.00000176
0.01547155 -0.70907042 0.00000000
-0.40250328 -0.48457720 0.00000000
-0.42075450 0.07634226 -0.00000052
-0.04375383 0.47221766 0.00000000
0.52016034 0.14948663 0.00000088
0.35318599 0.31262751 0.00000136
-0.70681430 -0.66081303 -0.00000035
0.49538565 0.26244351 -0.00000116
-0.21003535 -0.07334608 0.00000000
0.44699118 -0.70168614 0.00000000
-0.74253740 -0.04930539 -0.00000167
-0.09119583 0.37070572 0.00000000
-0.31052649 -0.10774491 0.00000000
0.63734358 -0.65608223 -0.00000015
0.07786269 0.56399268 0.00000000
-0.11586787 0.44637906 0.00000000
0.70890894 -0.74361860 -0.00000014
0.38372781 0.09352455 0.00000443
0.10196533 0.36648163 0.00000496
0.06413979 0.10922684 0.00000939
0.10105478 0.20751408 0.00000736
-0.38452543 -0.36751612 0.00000000
0.56838384 0.00407871 0.00000238
0.49415818 0.23025774 -0.00000110
-0.75942101 -0.47136177 -0.00000082
-0.26941286 0.27108269 0.01444512
0.26412991 -0.56099462 0.00000000
0.23959626 0.00290541 0.00000834
-0.24940565 -0.00161988 0.00000000
0.09229984 0.29758912 0.00000000
-0.06708813 0.15669024 0.03207562
-0.08134327 -0.03089131 0.00000000
-0.09054442 0.22144291 0.02716541
-0.29925496 0.43889012 0.00344250
-0.14995871 -0.29945953 0.00000000
-0.31054662 0.05023175 0.02444931
-0.71293671 -0.63678087 -0.00000041
0.17638044 0.10737989 0.00000773
0.25440133 -0.07755943 0.00000000
0.77340554 -0.33719210 -0.00000116
0.76024459 0.03863448 -0.00000190
0.69587984 0.05082287 -0.00000085
-0.00137706 0.68605054 0.00000000
-0.31922682 0.46379598 0.00094425
0.12303218 0.50142409 0.00000262
-0.14897282 0.00387777 0.00000000
0.79329082 -0.17179656 -0.00000157
-0.09177643 -0.00823339 0.00000000
0.54795804 -0.26539721 -0.00000046
0.42429041 -0.44022478 0.00000000
0.03815544 0.15977689 0.00000000
0.14119347 0.48763610 0.00000251
-0.61091140 -0.41512659 -0.00000046
-0.70996343 -0.65871892 -0.00000035
0.09046688 0.05201440 0.00000000
-0.00981984 0.34556259 0.00000000
-0.19519258 0.12051657 0.00000000
-0.60650452 -0.79837235 0.00000000
-0.04635697 -0.41997626 0.00000000
0.73844994 -0.20772363 -0.00000137
-0.02492319 0.67941896 0.00000000
-0.37014733 0.23169556 0.01102984
-0.54337105 -0.31383597 -0.00000035
-0.20363618 -0.46007181 0.00000000
0.43145340 -0.68723393 0.00000000
-0.01832804 0.64359944 0.00768586
-0.00867593 0.22964507 0.03126613
-0.23148811 0.26509606 0.01688963
-0.22140289 -0.16352641 0.00000000
-0.39173928 0.40688949 0.00007533
0.39467529 -0.64940617 0.00000000
-0.31587807 0.42900406 -0.00000069
0.14098103 -0.56020110 0.00000000
0.03972200 -0.01300075 0.00000000
0.17990327 -0.56826674 0.00000000
-0.54074367 -0.19627218 -0.00000055
0.56927096 0.16318564 -0.00000130
0.49735774 -0.43584199 0.00000000
0.45654245 0.25189501 -0.00000098
0.01875998 -0.01821042 0.00000000
-0.79784669 -0.39830646 -0.00000100
-0.75445513 -0.13752623 -0.00000156
-0.38236259 -0.59614777 0.00000000
0.03600844 0.68196521 0.00000123
-0.24215012 0.35864625 0.01108843
0.52780175 -0.52092312 0.00000000
0.50543972 0.02106615 0.00000331
-0.64910699 -0.62140137 -0.00000026
0.54180879 -0.48974671 -0.00000003
0.33283460 0.18658013 -0.00000034
-0.23162967 0.56702531 -0.00000058
-0.40609765 -0.30847399 0.00000000
0.29399364 0.01255908 0.00000000
0.11738673 0.38099283 0.00000451
-0.11322402 0.62093306 0.00366498
0.51338314 0.12154890 0.00000147
0.00092145 -0.34636328 0.00000000
0.02515087 -0.14809248 0.00000000
-0.25129802 -0.70031099 0.00000000
-0.72807698 -0.71774267 -0.00000021
-0.10713178 0.17502419 0.00000000
0.09102505 0.70213808 -0.00000022
0.00746451 -0.48686120 0.00000000
0.77683045 0.01136214 -0.00000174
0.04874839 0.34950477 0.00000000
-0.46580609 -0.48282157 0.00000000
-0.16373498 0.20300925 0.02411730
-0.73786549 -0.62112030 -0.00000045
0.55158993 0.21046949 -0.00000131
0.33228641 0.35324266 0.00000108
-0.64400506 -0.74429995 -0.00000002
-0.32512528 0.27754387 -0.00000046
0.12167413 0.64545881 -0.00000025
-0.52241366 0.13182626 -0.00000105
-0.69173930 -0.62742828 -0.00000043
0.04962538 0.42908021 0.00000481
0.71633865 -0.24332776 -0.00000121
-0.17262912 0.05515099 0.03185280
-0.01223020 -0.21512129 0.00000000
-0.72500208 -0.05327656 -0.00000159
-0.03748033 0.50799185 0.00000000
0.15280134 0.49465606 0.00000217
0.49396461 -0.23186979 -0.00000028
-0.43744824 -0.77482813 0.00000000
0.14000588 0.40984067 0.00000000
-0.35983208 0.17405758 -0.00000043
0.24742703 0.21495145 0.00000502
0.29758616 -0.16563633 0.00000000
-0.62400442 -0.57188660 -0.00000024
-0.29777730 0.03204952 0.02617225
-0.31066003 -0.48584893 0.00000000
-0.10302147 0.38510189 0.00000000
-0.04078309 0.68709011 0.00000000
-0.69493012 -0.48394842 -0.00000070
0.40208458 -0.78441622 0.00000000
0.46007629 -0.09926445 -0.00000037
-0.29636486 0.21656058 0.01597979
-0.41725022 -0.55514168 0.00000000
-0.73286470 -0.03793582 -0.00000165
0.51649770 0.02163290 0.00000308
0.23716391 -0.68509482 0.00000000
0.01522090 -0.32213813 0.00000000
-0.56357386 -0.52212704 -0.00000007
-0.10542175 0.59092589 -0.00000008
-0.43968412 -0.41526812 0.00000000
0.18672061 -0.29946640 0.00000000
-0.58729132 -0.40219402 -0.00000038
0.26418069 0.16660927 0.00000551
0.16727933 0.59318644 0.00000024
-0.68729901 -0.16061104 -0.00000124
0.14219246 -0.75254198 0.00000000
-0.38664799 0.12700397 0.01593912
-0.02302882 0.33932480 0.02436178
0.31698387 0.32662162 -0.00000052
-0.68213460 -0.62231183 -0.00000040
-0.30235241 -0.77712285 0.00000000
-0.51719308 -0.73277062 0.00000000
-0.23192982 0.53929761 0.00160108
-0.20126649 0.55056830 -0.00000042
-0.01250602 0.42789444 0.00000000
-0.56549374 0.05531554 -0.00000110
0.21580437 0.27606615 0.00000000
0.10682810 -0.24246385 0.00000000
0.22753724 -0.09948892 0.00000000
0.33399761 0.19721949 0.00000365
-0.28845025 0.19260338 -0.00000016
-0.37023608 -0.41842132 0.00000000
0.17882305 0.34259990 0.00000416
-0.60954715 -0.05416613 -0.00000109
-0.11331100 -0.56595230 0.00000000
-0.49355344 -0.74369249 0.00000000
0.26142030 0.07412477 0.00000000
-0.00818025 -0.27899764 0.00000000
-0.06211133 -0.08796762 0.00000000
0.64291794 0.02067326 0.00000067
-0.03934259 0.75136970 -0.00000008
-0.06752320 -0.51454545 0.00000000
-0.04658145 0.70602457 -0.00000003
-0.11024453 0.27233139 0.02323605
-0.35255929 0.19860649 0.01385092
-0.15776603 0.18811989 0.02527839
-0.68010340 -0.30569731 -0.00000095
0.51941171 -0.42637024 -0.00000005
0.17747409 0.17490396 0.00000000
0.79467603 -0.29129478 -0.00000127
-0.57458383 -0.28772207 -0.00000053
-0.67867100 -0.30066730 -0.00000095
0.41095478 -0.37487125 0.00000000
0.23258365 0.39878924 -0.00000028
-0.73585602 -0.74707992 -0.00000013
-0.45233652 0.19116606 0.00871056
-0.13173267 0.51968819 0.00827060
-0.11551658 0.08413879 0.03341841
-0.32802718 -0.20729352 0.00000000
0.00640201 0.51834006 0.00000000
-0.73359999 -0.29853198 -0.00000119
-0.52011813 -0.74167312 0.00000000
0.46493287 -0.15169862 -0.00000030
0.59393278 -0.68932663 0.00000000
-0.53488008 0.10183224 0.00908835
0.70857050 -0.23245368 -0.00000120
-0.06203376 0.12681208 0.00000000
-0.15297861 -0.74188553 0.00000000
-0.46049386 -0.67719539 0.00000000
0.37775148 -0.39514401 0.00000000
-0.32267060 0.26256655 -0.00000043
-0.22915018 -0.67661321 0.00000000
-0.00385002 0.11261269 0.00000000
-0.01237962 -0.04575739 0.00000000
0.51261838 0.27940896 -0.00000115
0.57730659 -0.50405965 -0.00000016
-0.09323097 -0.29188817 0.00000000
0.13643890 -0.52360550 0.00000000
0.02771117 0.48531692 0.00000430
-0.14573740 -0.75717872 0.00000000
-0.09448983 0.47629064 0.00000000
-0.02882461 -0.08004081 0.00000000
0.26262653 -0.35005888 0.00000000
0.61651517 -0.18340222 -0.00000089
0.73284001 -0.63654715 -0.00000041
0.71225608 -0.36723979 -0.00000098
-0.02844724 -0.09414356 0.00000000
-0.16101645 0.54253002 -0.00000023
-0.20166982 0.08932201 0.02833407
-0.00757131 0.15034383 0.00000000
-0.23800547 0.19878585 0.02021805
0.01110850 -0.70686826 0.00000000
-0.50297350 -0.67651270 0.00000000
0.20188378 0.28210234 0.00000472
0.19559840 -0.73609251 0.00000000
-0.18963424 0.20167761 0.00000000
0.17555165 -0.11228444 0.00000000
0.18491918 -0.25922930 0.00000000
-0.36112904 0.10891839 0.01836651
0.11302072 0.64350192 0.00000044
-0.30438469 -0.59662212 0.00000000
-0.05835241 0.49977581 0.00000000
0.63036886 -0.77027076 0.00000000
0.00656257 0.00646259 0.00000000
-0.16929715 -0.32065752 0.00000000
0.24075899 0.00344890 0.00000832
0.37549123 0.10865877 -0.00000038
0.37703873 -0.03521218 -0.00000013
0.67401904 -0.31647596 -0.00000090
0.39775090 0.28739838 -0.00000079
0.68787682 -0.15342928 -0.00000125
-0.00983377 0.41127295 0.02109127
-0.20433894 -0.18792706 0.00000000
0.23133738 0.46039972 0.00000123
-0.49599923 -0.66962883 0.00000000
0.31097787 -0.37734642 0.00000000
-0.57051510 -0.51004034 -0.00000012
0.17930312 0.46463742 0.00000216
-0.11285992 -0.03050598 0.00000000
-0.30860556 0.05546877 -0.00000000
-0.47444313 -0.26442856 -0.00000014
-0.07706549 -0.60169189 0.00000000
-0.35342861 0.16283508 0.01579381
0.68535289 -0.78709530 -0.00000003
-0.56130287 -0.75192790 0.00000000
0.74404741 -0.79129685 -0.00000002
-0.45756209 0.32191814 -0.00000111
-0.20607096 0.55772416 0.00201488
-0.15784688 0.15155031 0.00000000
-0.45625927 0.15597461 -0.00000081
-0.42467294 -0.09903417 -0.00000022
-0.19165726 0.27224604 0.00000000
-0.68093698 -0.63178681 -0.00000038
-0.10347784 0.47456094 0.01235552
-0.07340664 0.10377291 0.03466956
-0.12620437 0.63020665 -0.00000024
0.47007929 0.28847607 -0.00000110
-0.79980111 -0.03090735 -0.00000192
0.45692130 0.28525918 -0.00000104
0.18665676 0.06426078 0.00000822
-0.35011639 0.12974106 -0.00000031
0.09741199 -0.13064709 0.00000000
-0.25074661 0.54285583 0.00035549
0.47785135 -0.09154449 -0.00000046
0.58331094 -0.55161087 -0.00000010
0.04708996 0.31501575 0.00000656
-0.31015755 0.38211151 0.00599625
0.28851868 0.28778237 0.00000302
0.02385687 0.54138338 0.00000000
-0.09259767 -0.45887412 0.00000000
-0.57172110 -0.30992845 -0.00000048
-0.24123771 -0.40520839 0.00000000
0.41237955 0.31003598 0.00000027
-0.73059846 -0.37100772 -0.00000105
0.66567985 -0.05387930 -0.00000133
-0.09579728 0.13806603 0.00000000
0.19287340 -0.64521234 0.00000000
-0.21115161 -0.61596128 0.00000000
-0.58530995 0.09372168 0.00673243
0.28872624 0.48274392 -0.00000025
-0.14710909 0.32557840 0.01821993
-0.23794781 -0.46479764 0.00000000
-0.14361358 0.17540381 0.00000000
0.41026473 -0.69160036 0.00000000
0.43487651 -0.40269421 0.00000000
0.60716399 -0.02212045 -0.00000114
-0.35634893 -0.16828108 0.00000000
-0.32621478 -0.69811313 0.00000000
-0.12640473 -0.07563086 0.00000000
0.35213004 -0.51488192 0.00000000
0.23295346 0.46513909 -0.00000040
-0.02429090 0.69897965 0.00000000
0.12833615 0.23949668 0.00000647
-0.04559882 0.26360206 0.02732054
-0.60556103 -0.09839085 -0.00000100
-0.46976414 -0.36788111 0.00000000
0.29787389 -0.45510368 0.00000000
0.32295495 0.41437044 -0.00000070
0.65944772 0.12514745 -0.00000139
0.05056627 -0.00549907 0.00000000
0.13999520 0.32568987 0.00000500
0.51972792 0.26588614 -0.00000106
-0.48740453 -0.31964566 -0.00000010
-0.58468586 -0.26327691 -0.00000062
0.12668194 -0.06989041 0.00000000
0.61161243 -0.08225393 -0.00000105
-0.68875885 -0.12308027 -0.00000131
0.17081623 0.20065769 0.00000641
-0.51492919 0.06768939 0.01209963
-0.35835285 0.09826224 0.01911425
0.66287980 -0.43163427 -0.00000065
-0.54509665 0.25194500 0.00016328
0.35985692 0.36473224 0.00000036
0.22818453 0.28917739 0.00000415
-0.07914032 -0.76272740 0.00000000
0.67568337 0.02300675 0.00000000
0.27175756 -0.04214029 0.00000000
-0.15179458 0.54240379 -0.00000019
0.06365512 0.44411736 0.00000438
-0.11544201 0.19728597 0.02712417
-0.64497859 -0.66402358 -0.00000016
-0.00399491 -0.68981989 0.00000000
-0.13270707 0.24515990 0.02349816
-0.16001190 -0.38943935 0.00000000
0.41156334 0.18527392 0.00000236
-0.30848662 0.19596895 0.01645125
-0.08968051 0.31268425 0.02213451
-0.29539913 0.23899013 0.01478497
0.06732244 0.22287935 0.00000000
0.01948095 0.77256883 0.00000008
-0.33333750 0.46036775 -0.00000082
0.23155982 -0.79341800 0.00000000
0.32418099 -0.77523963 0.00000000
-0.67215251 -0.05166248 -0.00000136
-0.55898330 -0.38883690 -0.00000028
-0.23196167 -0.72237936 0.00000000
-0.05098825 0.46967633 0.00000000
-0.24115708 0.52955655 -0.00000055
-0.11368272 0.65777899 0.00158835
-0.38584309 0.08698046 -0.00000039
-0.08905444 -0.43574847 0.00000000
0.45200677 -0.75789927 0.00000000
0.22738212 0.41741978 -0.00000029
0.41245961 -0.08351674 -0.00000020
0.32881305 0.30242028 0.00000200
0.48492168 -0.57701919 0.00000000
0.41712299 0.06278030 -0.00000048
0.07461259 -0.15258639 0.00000000
0.40795104 -0.15256798 -0.00000006
0.05346685 -0.27662821 0.00000000
-0.07933893 -0.16229715 0.00000000
-0.37602344 0.21526592 -0.00000057
-0.15265556 0.53502669 -0.00000018
0.03105071 0.41918132 0.00000000
0.79145788 -0.67041001 -0.00000032
0.79151086 0.00773819 -0.00000197
0.06922770 0.08421409 0.00000969
0.18522470 0.55459308 -0.00000036
0.15258702 -0.16067057 0.00000000
-0.11088160 -0.65702855 0.00000000
-0.05682306 0.68249752 -0.00000003
-0.36983373 -0.59409947 0.00000000
-0.37054545 -0.10591263 0.00000000
0.06510942 -0.23009355 0.00000000
-0.69240584 -0.15877773 -0.00000126
-0.38245102 0.18802131 -0.00000055
0.49991956 -0.34967655 -0.00000010
0.55605602 -0.66810347 0.00000000
0.11775030 -0.48308841 0.00000000
0.20254472 -0.11898593 0.00000000
-0.15993786 -0.13394597 0.00000000
0.15600131 -0.76439316 0.00000000
-0.03655181 -0.14655647 0.00000000
-0.43146908 -0.59050310 0.00000000
-0.19172546 -0.09121418 0.00000000
-0.53472075 0.23934195 -0.00000129
0.32064888 -0.67043083 0.00000000
0.31351366 0.37745565 -0.00000059
0.07659252 0.45885204 0.00000000
-0.12969486 0.60293159 0.00375014
-0.08818403 -0.33726093 0.00000000
-0.06108531 0.37577038 0.00000000
-0.31047222 0.38397079 -0.00000059
-0.14559300 -0.55338910 0.00000000
-0.15068263 -0.01567400 0.00000000
-0.36921235 -0.48849279 0.00000000
0.01923103 0.29100152 0.00000734
0.33477028 0.17589852 0.00000400
0.59400262 0.05119647 0.00000110
0.05227360 -0.12312765 0.00000000
-0.15775087 0.02945608 0.03411133
-0.60637740 0.05720073 -0.00000127
0.78770968 -0.43398897 -0.00000092
0.15100860 0.18662719 0.00000692
0.20983348 0.58776954 -0.00000048
0.16061068 -0.14162775 0.00000000
0.72675912 -0.06164001 -0.00000158
-0.78368003 -0.68202142 -0.00000029
-0.72358258 -0.73282998 -0.00000017
-0.18520323 0.54172610 0.00406714
-0.32195280 -0.12443131 0.00000000
-0.02548916 0.58190846 0.00000000
0.29609975 -0.13663102 0.00000000
0.18793439 0.22355715 0.00000581
0.28244150 0.15617254 -0.00000007
-0.04283617 -0.49781743 0.00000000
0.06642166 0.12559379 0.00000911
0.23325381 -0.79438570 0.00000000
0.37631001 -0.38121235 0.00000000
0.03797445 0.00297191 0.00001138
0.58793446 -0.13922472 -0.00000085
0.64495187 -0.39469997 -0.00000064
-0.07432392 0.18789482 0.02993581
-0.10306068 0.68856720 0.00046579
0.02180343 -0.04022870 0.00000000
0.53596061 -0.05646715 -0.00000077
0.46711216 0.08344148 -0.00000073
0.19230769 0.46358458 0.00000193
-0.02604845 0.32858894 0.00000000
0.21685064 -0.50824035 0.00000000
0.24586007 0.22753111 -0.00000004
0.12158947 0.12759527 0.00000825
0.60585145 -0.18416468 -0.00000085
0.13486213 0.03270380 0.00000947
-0.21918180 -0.34894262 0.00000000
-0.58130114 0.08250109 0.00758022
0.44969927 -0.73711944 0.00000000
0.18153492 0.01706613 0.00000900
-0.43255084 0.22794258 -0.00000083
0.41501078 0.30161429 -0.00000089
-0.22332795 -0.00531228 0.00000000
0.45792430 -0.70688290 0.00000000
0.24876717 0.24007140 0.00000458
0.10309886 0.01557143 0.00000000
0.39083366 0.06294789 -0.00000037
-0.04923102 -0.40177906 0.00000000
-0.37508127 0.13822939 -0.00000043
0.09976422 0.41033698 0.00000434
0.08209094 0.08363421 0.00000951
0.56617685 -0.74930576 0.00000000
-0.21573907 -0.16487102 0.00000000
-0.64424748 -0.15288296 -0.00000107
-0.43470093 -0.77039016 0.00000000
-0.15841231 0.23387078 0.02269567
0.06527730 0.40637264 0.00000000
0.25190973 -0.05404609 0.00000000
0.57732039 0.08843298 0.00000080
0.20397433 0.33426039 0.00000386
-0.08693000 0.06184722 0.00000000
-0.14825209 0.28809728 0.02024270
0.12907037 0.04185075 0.00000942
0.28531786 0.47243649 -0.00000064
-0.13229191 -0.37295384 0.00000000
-0.06135124 -0.27416904 0.00000000
0.61954318 0.04813282 0.00000066
0.73967231 -0.06881398 -0.00000162
0.37363353 -0.49558947 0.00000000
-0.52268135 0.09968198 -0.00000099
0.05793309 0.27974828 0.00000693
-0.55108021 0.17760032 0.00396872
0.11563963 0.19598289 0.00000732
-0.52558322 0.10324410 -0.00000101
0.63268340 -0.09924908 -0.00000111
0.48318156 0.19075003 -0.00000099
-0.36803685 -0.19405566 0.00000000
0.11055602 -0.63952674 0.00000000
-0.43644953 0.24034960 0.00685709
-0.14807292 -0.78702048 0.00000000
0.49050009 -0.22760394 -0.00000028
0.24328457 0.29953943 0.00000369
0.62461985 -0.29089724 -0.00000074
-0.68763035 -0.74485303 -0.00000014
0.00712353 0.11625408 0.00001015
-0.78597415 -0.75382814 -0.00000012
-0.49743716 0.13415605 -0.00000095
-0.15629160 -0.27941372 0.00000000
0.39922381 0.38529416 -0.00000097
0.63472544 0.12976585 -0.00000099
-0.08549534 0.16987618 0.00000000
0.27109404 -0.31091714 0.00000000
-0.20608142 0.15026259 0.00000000
-0.68823156 -0.22754477 -0.00000112
0.41722066 -0.22167048 0.00000000
-0.67251797 -0.43837936 -0.00000068
0.05978285 0.29871716 0.00000000
-0.47892982 0.17232782 -0.00000093
-0.29747210 0.48368742 0.00104803
0.02088656 -0.44311059 0.00000000
0.04703250 0.49894474 0.00000381
0.08949379 -0.03283726 0.00000000
0.06342904 0.37502550 0.00000000
-0.18947176 0.17421579 0.02428743
0.61845780 -0.24459237 -0.00000079
-0.16402550 -0.00432991 0.00000000
-0.29609918 -0.11604554 0.00000000
0.43403420 -0.28599328 0.00000000
0.02459550 0.69516634 0.00000000
-0.43134674 0.30215470 0.00370066
-0.38950972 0.29510918 -0.00000077
0.39662223 -0.17950597 0.00000000
0.75237910 -0.39940894 -0.00000100
-0.51209615 -0.30890337 -0.00000023
0.67917818 0.04485188 -0.00000043
0.53777323 -0.34549527 -0.00000027
0.02524569 -0.26826306 0.00000000
0.26029482 0.39857735 0.00000171
0.38621017 0.08152268 -0.00000038
0.68300465 -0.50557838 -0.00000061
0.04427773 0.50499548 0.00000000
0.00755155 0.39586658 0.00000000
-0.02538755 -0.46163698 0.00000000
-0.11220998 0.52943307 0.00881495
-0.38796551 -0.50387501 0.00000000
-0.33286204 0.39115492 0.00422889
0.02402945 0.54304344 0.00000349
-0.22211194 0.26411507 0.01746620
-0.06885337 -0.61673884 0.00000000
0.02203509 0.61428593 0.00000245
0.18369076 0.10177041 0.00000000
-0.12927363 -0.68191894 0.00000000
-0.44979615 -0.56948883 0.00000000
0.34869108 0.13845679 0.00000435
-0.10137680 0.67123515 -0.00000021
-0.38118540 -0.37450924 0.00000000
-0.18110554 0.18060581 0.00000000
-0.52114111 -0.59716777 0.00000000
-0.48939668 -0.77550568 0.00000000
-0.59807577 -0.22808223 -0.00000074
-0.20816440 0.10162713 0.02728757
0.05869621 0.09983001 0.00000962
-0.40507241 0.29843869 -0.00000084
-0.03758786 0.34339514 0.00000000
-0.08234698 0.24841475 0.02612033
0.20415453 0.10035223 0.00000741
0.20455913 0.55466785 0.00000017
-0.02770429 0.18107621 0.00000000
-0.65348560 -0.61063264 -0.00000030
0.33403572 -0.52936613 0.00000000
-0.26648068 0.38984565 -0.00000041
0.73156247 -0.50767656 -0.00000073
-0.04705151 -0.71006932 0.00000000
-0.22038708 0.16592466 0.02302803
-0.59051399 0.14343223 -0.00000136
0.63437248 -0.47057681 -0.00000046
-0.31401095 0.10176856 -0.00000011
0.01323387 -0.28572740 0.00000000
0.18178754 0.46404838 -0.00000018
0.73128942 -0.57680334 -0.00000056
0.69707470 -0.14566598 -0.00000130
0.44286534 0.00275736 -0.00000048
-0.61158861 -0.38733357 -0.00000051
0.14216759 -0.57789889 0.00000000
0.14875419 0.23490943 0.00000623
0.65466819 -0.35871743 -0.00000075
-0.25906853 -0.15168978 0.00000000
-0.70004717 0.01432598 -0.00000160
0.50201939 -0.00255364 -0.00000072
-0.17532786 0.43796363 -0.00000011
0.37653744 0.02240485 0.00000576
-0.54967591 -0.24772720 -0.00000049
-0.41551505 -0.01896906 -0.00000033
0.17768994 -0.47962598 0.00000000
-0.58212241 0.19229557 -0.00000141
0.02578878 0.53987849 0.00000351
-0.48699711 0.20305612 0.00611915
0.08496557 -0.23905846 0.00000000
-0.24937085 0.28149249 0.01498136
0.76955557 -0.74305899 -0.00000014
-0.01708235 0.07872488 0.00000000
0.39182592 0.22942253 0.00000201
0.42490998 -0.09513424 -0.00000023
-0.40228507 -0.52459274 0.00000000
0.24392931 -0.54405009 0.00000000
0.20323025 0.58588856 -0.00000033
0.01223038 0.52695709 0.00000000
0.19822578 -0.39830240 0.00000000
-0.09569267 0.66715970 0.00206765
-0.27554487 -0.79892942 0.00000000
0.25412860 -0.09347059 0.00000000
-0.50977172 0.19581585 -0.00000111
0.11955971 0.46500452 0.00000322
0.17564751 -0.37384094 0.00000000
0.17114735 -0.50237142 0.00000000
-0.35691896 0.30036961 -0.00000064
0.73254846 -0.66826324 -0.00000033
0.05500855 0.56279248 0.00000000
-0.07974850 0.61212457 -0.00000001
-0.01185820 -0.49003114 0.00000000
0.26620401 0.42973134 -0.00000048
0.13282649 0.28825749 0.00000000
0.53783979 -0.65553997 0.00000000
-0.47189458 0.15547727 0.00960846
-0.06959049 0.67412989 -0.00000007
0.72350964 -0.04426494 -0.00000160
-0.26666977 0.46114497 0.00401765
0.39572562 -0.05285783 -0.00000018
-0.25053340 0.28502060 0.01472025
-0.46509877 -0.66046956 0.00000000
-0.56321917 -0.18491281 -0.00000066
-0.49202591 0.09612247 0.01179186
0.57760167 0.19322680 -0.00000139
-0.45257743 -0.61722279 0.00000000
-0.00211428 -0.09511292 0.00000000
-0.27123395 -0.59489732 0.00000000
0.07572408 -0.78638700 0.00000000
-0.45368574 0.18923890 0.00874273
0.44968325 0.11818932 0.00000275
-0.13594093 -0.34200828 0.00000000
-0.27640346 0.38354362 0.00779560
0.26137803 -0.06272306 0.00000000
-0.27347822 0.03864533 0.02715772
0.01676428 -0.29213310 0.00000000
-0.22944718 0.06213869 0.02830099
-0.24977945 -0.64079009 0.00000000
-0.14511528 0.03609133 0.00000000
0.71169311 -0.78096001 -0.00000005
0.56007663 0.19990008 -0.00000133
0.14522752 0.11380526 0.00000000
0.09624196 0.07955761 0.00000000
0.53010747 0.00320550 -0.00000085
-0.66141377 -0.36079748 -0.00000077
0.06697606 0.72862972 -0.00000009
0.66739261 -0.78337077 -0.00000004
