ply
format ascii 1.0
element vertex 1408
property float x
property float y
property float z
end_header
0.69866336 0.15475961 0.05496405
0.66882364 0.35513364 0.23041445
-0.47249379 0.37836657 0.00000000
0.03801807 0.66840492 0.00000000
0.66807887 -0.64270462 0.00000000
0.24878269 -0.29180456 0.00000000
-0.39725056 0.62473887 0.00000000
-0.15188212 -0.08226952 0.00000000
0.05553243 0.62231727 0.00000000
-0.58219956 0.25978793 0.00000000
0.34344027 0.68368080 0.23367051
-0.51082288 0.15317328 0.00000000
0.68368683 0.34216561 0.23236423
-0.02061851 -0.19976439 0.00000000
-0.69425051 -0.01174473 0.00000000
-0.69638209 -0.26249473 0.00000000
0.77676346 -0.13246998 0.00000000
-0.21668341 0.55738880 0.00000000
-0.30941513 0.29126860 0.00000000
0.25880629 0.58648048 0.04659330
-0.32278957 -0.46783762 0.00000000
-0.23098048 -0.42254167 0.00000000
-0.74625573 0.47890215 0.00000000
0.58029871 -0.71856484 0.00000000
0.43868096 -0.30203931 0.00000000
0.05484649 -0.58218074 0.00000000
0.07538171 -0.00569904 0.00000000
-0.49390948 -0.52441507 0.00000000
0.57755122 0.48422752 0.26932668
-0.34625056 -0.28615925 0.00000000
0.79954948 -0.52486794 0.00000000
-0.55357851 -0.45571416 0.00000000
-0.56394094 0.32658601 0.00000000
0.64779124 0.52017254 0.37857365
-0.69124616 -0.14510693 0.00000000
0.51983934 -0.53833811 0.00000000
0.15445493 0.63718446 0.00000000
-0.67423265 -0.74350816 0.00000000
-0.72057770 -0.46945810 0.00000000
-0.15242246 -0.79768828 0.00000000
-0.26487797 0.08532974 0.00000000
0.47658073 -0.65861087 0.00000000
-0.13902767 -0.38234379 0.00000000
0.56632711 -0.47697984 0.00000000
0.20111918 -0.70764025 0.00000000
0.31068337 0.15006805 0.00000000
0.73062113 -0.17591072 0.00000000
0.75581768 -0.04434880 0.00000000
-0.35801245 -0.46521884 0.00000000
-0.44464461 0.15731511 0.00000000
-0.22845681 0.34872976 0.00000000
0.29976577 0.15461855 0.00000000
-0.44724509 0.54015004 0.00000000
-0.43285310 0.16947738 0.00000000
-0.69136673 -0.28713607 0.00000000
-0.72174079 -0.46175880 0.00000000
-0.32113013 -0.10665216 0.00000000
-0.40339747 0.69885631 0.00000000
-0.37850818 -0.14375745 0.00000000
-0.37508125 -0.38511281 0.00000000
0.12138471 0.75831786 0.08200159
0.09990623 -0.27758412 0.00000000
0.37612900 0.60300471 0.18429912
0.58750883 -0.62860410 0.00000000
-0.52388177 0.78604508 0.00000000
-0.47939502 0.50386937 0.00000000
-0.26045710 -0.32869912 0.00000000
0.66381141 0.36146401 0.23177058
-0.43607513 0.00759880 0.00000000
0.25380476 -0.73010269 0.00000000
0.72405649 -0.79553654 0.00000000
-0.69465176 0.06728101 0.00000000
-0.42239150 -0.50589818 0.00000000
0.21794017 0.41830800 0.00000000
0.06788365 -0.24841555 0.00000000
0.32876215 -0.48955112 0.00000000
0.20697926 0.58469456 0.00000000
0.22016168 0.46128537 0.00000000
0.74613396 0.18159895 0.13141616
-0.64601138 -0.20859790 0.00000000
0.06690513 -0.15500142 0.00000000
0.21539217 -0.45208124 0.00000000
0.02391941 0.57285065 0.00000000
0.51703635 0.12049805 0.00000000
0.25298565 -0.19944107 0.00000000
-0.48509550 0.45726261 0.00000000
-0.61433535 0.16448948 0.00000000
-0.14006432 -0.22670858 0.00000000
-0.55029561 0.32425600 0.00000000
0.00126867 -0.04266214 0.00000000
0.36078400 -0.22944026 0.00000000
0.57808668 -0.41517395 0.00000000
-0.00203682 -0.74584493 0.00000000
-0.28606891 -0.08918098 0.00000000
0.21138594 0.69575818 0.11023414
-0.45511806 0.77274308 0.00000000
0.06809177 -0.68055253 0.00000000
-0.57701587 -0.55120946 0.00000000
-0.66037288 0.68114412 0.00000000
-0.05055139 -0.29200441 0.00000000
0.35504281 0.59810284 0.15756168
-0.05286986 -0.02446724 0.00000000
0.07612110 -0.19874907 0.00000000
-0.22395739 0.51725900 0.00000000
-0.13127304 -0.13111953 0.00000000
-0.59060030 0.00622112 0.00000000
-0.50867241 0.22177447 0.00000000
-0.31714262 0.10553807 0.00000000
-0.57436013 -0.34101674 0.00000000
0.21831728 -0.78011866 0.00000000
0.09729075 -0.07353704 0.00000000
0.17178204 -0.53198607 0.00000000
0.67470405 -0.08427646 0.00000000
-0.10380654 -0.01940381 0.00000000
-0.44633208 -0.60635243 0.00000000
0.29127189 -0.48663539 0.00000000
0.18106937 0.39839082 0.00000000
0.10772843 -0.10765856 0.00000000
-0.69459365 0.37495663 0.00000000
-0.27612596 0.33365732 0.00000000
-0.14297208 -0.72314771 0.00000000
-0.76483351 -0.65316329 0.00000000
-0.29629509 0.36784146 0.00000000
-0.10668408 0.68131868 0.00000000
0.70221219 -0.25322127 0.00000000
-0.52070404 0.60115018 0.00000000
-0.39910969 0.50748995 0.00000000
-0.13590845 0.30770597 0.00000000
-0.20111853 -0.46508282 0.00000000
-0.56065098 0.57903961 0.00000000
-0.33835540 -0.76493050 0.00000000
0.10852549 0.75463781 0.06498540
0.58771062 0.24851497 0.03727090
-0.57791686 -0.69526663 0.00000000
0.33011946 0.01138729 0.00000000
0.27161212 -0.35080289 0.00000000
0.20818280 -0.53140921 0.00000000
-0.76676975 -0.19160117 0.00000000
0.72683221 -0.13907765 0.00000000
0.17495400 -0.34491789 0.00000000
0.79643999 -0.62943811 0.00000000
-0.39799167 0.39576874 0.00000000
0.43213260 0.32571224 0.00000000
-0.61672367 0.22850982 0.00000000
-0.69180592 -0.54312658 0.00000000
0.07896417 -0.56377677 0.00000000
0.67609318 0.16783282 0.04519329
-0.30410693 -0.61448047 0.00000000
0.19232763 -0.17914174 0.00000000
0.34016921 0.68567465 0.23235648
-0.44822176 -0.21585113 0.00000000
-0.16191052 -0.14835079 0.00000000
-0.02462785 -0.62071259 0.00000000
-0.34821566 -0.36589955 0.00000000
-0.26803043 0.65925311 0.00000000
0.46192466 0.67060386 0.34211727
0.59531807 0.61748163 0.42470280
-0.09181570 0.14617045 0.00000000
0.25204636 -0.71907503 0.00000000
-0.48677509 0.15671874 0.00000000
0.43233085 -0.51037434 0.00000000
-0.69695434 -0.01853601 0.00000000
0.60081973 -0.34528223 0.00000000
0.06767923 -0.36639346 0.00000000
0.26882862 -0.23353347 0.00000000
-0.34961676 0.50043269 0.00000000
-0.51125748 -0.37103795 0.00000000
-0.37410590 0.08309900 0.00000000
0.03882821 -0.16017444 0.00000000
-0.02564373 -0.12383181 0.00000000
0.28713987 0.15015464 0.00000000
-0.51109952 -0.73739859 0.00000000
-0.29070413 0.00969298 0.00000000
-0.67129111 0.37270706 0.00000000
-0.78219842 0.54415970 0.00000000
0.60760986 0.41826623 0.23238857
0.38034894 -0.01269808 0.00000000
0.76873534 0.09380888 0.06434824
0.33173577 0.58830170 0.12349888
0.31024508 0.57807197 0.09086404
-0.15118101 -0.69420466 0.00000000
0.32931356 0.10450847 0.00000000
0.31619879 -0.24675801 0.00000000
-0.71684377 -0.08464687 0.00000000
-0.06070784 -0.77194578 0.00000000
0.23507649 0.61054251 0.04693511
-0.29930216 0.54915024 0.00000000
0.11317038 0.63085103 0.00000000
-0.17051217 -0.70751274 0.00000000
-0.29658162 -0.04056111 0.00000000
0.29036661 -0.33380985 0.00000000
0.00104640 0.16665401 0.00000000
-0.59535581 0.46589281 0.00000000
0.13380757 0.75366880 0.08999952
-0.00886564 -0.44635511 0.00000000
-0.46241544 -0.71580998 0.00000000
-0.12539564 0.60500380 0.00000000
0.44573729 -0.45942482 0.00000000
0.28515249 -0.57903488 0.00000000
-0.03458769 0.58122246 0.00000000
0.15354581 0.34615715 0.00000000
0.57941656 -0.62530801 0.00000000
-0.46034920 -0.61930975 0.00000000
-0.04911477 0.52763405 0.00000000
0.36770366 -0.26207136 0.00000000
-0.07326322 -0.04658735 0.00000000
-0.26202985 0.14573384 0.00000000
-0.58999462 0.35269266 0.00000000
-0.08168481 0.23983091 0.00000000
-0.01454134 -0.57367730 0.00000000
-0.10374323 0.52133348 0.00000000
0.34832944 0.63213391 0.18566723
0.46318905 0.45393841 0.12050498
0.04075222 0.74575865 0.00000000
0.51204586 -0.79561403 0.00000000
0.57529351 -0.48077452 0.00000000
-0.54245656 -0.68226172 0.00000000
-0.40621688 -0.06914431 0.00000000
-0.12528355 0.75041334 0.00000000
0.41042614 0.53109016 0.14559689
-0.26072176 0.67142957 0.00000000
0.66346584 0.26717729 0.13441028
0.08319150 -0.65624142 0.00000000
0.64792741 0.02598547 0.00000000
0.65722465 0.39148475 0.25588011
0.38978583 0.52163341 0.11463221
-0.73026691 -0.63534050 0.00000000
0.37312184 0.53189616 0.10804643
-0.17715936 -0.66736711 0.00000000
-0.27378050 0.50740119 0.00000000
-0.50391123 -0.30011467 0.00000000
-0.47645323 -0.10577437 0.00000000
0.24711133 -0.22584966 0.00000000
0.77652097 -0.72649217 0.00000000
0.14232201 0.73500616 0.07955863
0.36532040 0.22399446 0.00000000
0.11655930 0.18520703 0.00000000
0.46445732 -0.36770177 0.00000000
-0.53057474 -0.25536936 0.00000000
0.67582428 -0.07873349 0.00000000
0.51645451 -0.66811228 0.00000000
-0.71264922 0.15067708 0.00000000
0.23917481 0.50141039 0.00000000
0.32913530 0.27437225 0.00000000
-0.63289197 -0.46797833 0.00000000
0.36923754 0.05697243 0.00000000
-0.10264160 0.44946419 0.00000000
-0.07727692 0.79695438 0.00000000
-0.65304565 0.71539838 0.00000000
-0.69654545 -0.66505575 0.00000000
0.07213675 -0.29089725 0.00000000
-0.24099681 -0.47742441 0.00000000
-0.07540062 -0.52892096 0.00000000
-0.42760174 -0.59931818 0.00000000
0.26626072 -0.72588076 0.00000000
0.09732707 0.23039755 0.00000000
-0.25802211 0.43811135 0.00000000
-0.59332151 0.68763473 0.00000000
0.23673245 -0.73451716 0.00000000
0.66814060 -0.05502997 0.00000000
0.23813763 0.09277705 0.00000000
0.55285542 -0.76293859 0.00000000
-0.36996168 -0.19662470 0.00000000
0.38424360 0.54328532 0.13120629
-0.55360061 -0.20381457 0.00000000
-0.65582930 -0.68891450 0.00000000
-0.74821772 0.36314053 0.00000000
-0.32742620 0.20536429 0.00000000
0.74440012 -0.24970858 0.00000000
0.46698513 -0.64631927 0.00000000
-0.64020077 -0.28428454 0.00000000
-0.38970433 0.57212466 0.00000000
-0.28403258 -0.23913107 0.00000000
0.33786191 0.61979458 0.16220268
0.05580631 0.37628324 0.00000000
-0.03303734 -0.68496158 0.00000000
-0.21607253 0.62490678 0.00000000
0.07436702 0.58537480 0.00000000
-0.57584349 0.15255982 0.00000000
-0.56060261 0.36404646 0.00000000
-0.57839688 -0.08036390 0.00000000
0.20682265 -0.60525225 0.00000000
-0.18182185 -0.56642662 0.00000000
-0.77427394 -0.15363364 0.00000000
0.00068468 0.55264987 0.00000000
0.71210160 -0.36648476 0.00000000
0.09304499 0.46569595 0.00000000
0.21636302 0.57845264 0.00000000
-0.45195556 -0.25384257 0.00000000
-0.11511931 0.18778178 0.00000000
-0.56638593 0.35018368 0.00000000
-0.30683053 0.04346718 0.00000000
-0.71894736 -0.42419933 0.00000000
-0.15231356 0.41482819 0.00000000
0.40715982 0.51816005 0.12893355
0.09169089 0.65314453 0.00000000
-0.28009743 -0.49397059 0.00000000
-0.16628989 0.79009629 0.00000000
0.48866820 0.59884843 0.29580719
-0.73638660 0.27921928 0.00000000
-0.41559447 -0.79144806 0.00000000
-0.75440674 0.43713383 0.00000000
-0.66122609 -0.60089312 0.00000000
-0.70618896 -0.31168469 0.00000000
-0.57854739 0.32441657 0.00000000
-0.64915163 -0.16321851 0.00000000
0.20766337 0.19939697 0.00000000
-0.62203449 0.30286147 0.00000000
-0.10987827 -0.63630831 0.00000000
-0.45592152 0.46692873 0.00000000
0.62351063 0.43056014 0.26139623
-0.29387450 -0.39876262 0.00000000
0.33116623 0.10941087 0.00000000
-0.17722454 0.11475941 0.00000000
-0.04054404 0.24397495 0.00000000
-0.14083899 -0.25373988 0.00000000
-0.10385197 -0.30374319 0.00000000
-0.27871115 0.07896815 0.00000000
0.50379910 0.07124201 0.00000000
0.23174513 0.30319727 0.00000000
0.34511763 0.50030712 0.04673525
-0.33531972 0.25534233 0.00000000
-0.01956378 -0.64692091 0.00000000
-0.12798094 0.77325197 0.00000000
-0.48399289 -0.43129995 0.00000000
-0.35278493 0.25276185 0.00000000
0.22324722 -0.32673610 0.00000000
0.04617948 -0.13588071 0.00000000
-0.61340497 0.02742583 0.00000000
-0.03260613 0.12971446 0.00000000
0.39318014 0.23911123 0.00000000
-0.72983019 0.63733017 0.00000000
-0.22513711 0.05227976 0.00000000
-0.13691098 0.30896483 0.00000000
0.02723838 0.55240343 0.00000000
0.63163802 0.06246985 0.00000000
-0.40688260 -0.30364626 0.00000000
-0.50503522 -0.51806476 0.00000000
0.00370696 -0.73453507 0.00000000
0.30681288 -0.14695288 0.00000000
0.62967616 0.35693104 0.19198765
0.70779824 0.22933019 0.14108253
-0.19865305 -0.46102335 0.00000000
0.05119438 0.70136435 0.00000000
0.25270950 -0.43637614 0.00000000
0.46417260 0.43341523 0.10040207
0.70842317 0.32529058 0.24045216
0.79306217 -0.20995731 0.00000000
-0.10595391 -0.24851764 0.00000000
-0.37869408 -0.74228148 0.00000000
0.27638251 -0.23692493 0.00000000
0.59670513 -0.09950063 0.00000000
-0.30459039 -0.72016567 0.00000000
-0.15231593 0.65941029 0.00000000
-0.49552840 0.48732978 0.00000000
-0.15423602 -0.51455165 0.00000000
-0.13631779 0.40781674 0.00000000
0.23753007 0.64436752 0.08425952
0.13100872 0.13285863 0.00000000
-0.18440243 -0.61599347 0.00000000
-0.32788251 -0.79503341 0.00000000
-0.16142389 -0.76489903 0.00000000
0.06468022 0.40659604 0.00000000
0.33825844 0.01487915 0.00000000
-0.42909365 -0.52638612 0.00000000
-0.21815304 0.35355142 0.00000000
-0.08826516 -0.59491190 0.00000000
0.35727361 -0.25772857 0.00000000
-0.48566372 -0.27898544 0.00000000
0.20746452 -0.00515622 0.00000000
0.25365977 -0.38070674 0.00000000
-0.69108501 0.10515453 0.00000000
0.13501027 0.65737817 0.00000000
-0.56985700 0.74502831 0.00000000
0.70376002 -0.72602598 0.00000000
0.73367835 0.00583978 0.00000000
0.02240137 -0.25769105 0.00000000
-0.14112437 0.79486202 0.00000000
0.63079143 0.34082023 0.17655983
0.06530691 -0.44526302 0.00000000
-0.51609303 0.56187613 0.00000000
-0.26448367 0.64376739 0.00000000
-0.53414429 -0.55557356 0.00000000
0.46360608 0.45941757 0.12657114
-0.33403315 0.62999116 0.00000000
0.12298177 0.76234319 0.08778612
-0.73806603 0.69420347 0.00000000
0.76742124 -0.12529141 0.00000000
-0.48889988 0.07179260 0.00000000
0.68822871 -0.04684367 0.00000000
-0.45176718 -0.05102106 0.00000000
0.43841125 -0.13156053 0.00000000
0.49583304 -0.12197054 0.00000000
0.56018832 -0.59199750 0.00000000
0.61660971 0.07445875 0.00000000
0.50400348 -0.72729351 0.00000000
0.55878571 0.23020773 0.00000000
0.17021974 0.67859553 0.05022352
-0.65751344 -0.40069703 0.00000000
-0.76751069 -0.27199787 0.00000000
0.11721784 0.54966777 0.00000000
0.58059954 0.56700559 0.35762817
0.66336474 0.47502527 0.34814695
0.76964158 -0.36606658 0.00000000
-0.55732535 0.56854431 0.00000000
-0.78809589 -0.77599516 0.00000000
-0.07189313 0.17342732 0.00000000
-0.78146630 0.67388386 0.00000000
0.35205473 0.16994822 0.00000000
-0.06313806 0.02882378 0.00000000
0.35410550 -0.47872238 0.00000000
-0.38185661 0.05997734 0.00000000
-0.01858134 -0.30338932 0.00000000
-0.58443615 -0.66070133 0.00000000
-0.07170894 -0.52417968 0.00000000
-0.60839785 -0.52669086 0.00000000
0.20295042 0.70425841 0.11030076
0.48423146 -0.24627626 0.00000000
0.23386841 0.71441187 0.15255651
-0.16965925 0.29340243 0.00000000
-0.13765810 -0.79731126 0.00000000
-0.05911093 -0.33837514 0.00000000
0.44941385 -0.39069008 0.00000000
0.10356970 0.75853128 0.06389247
0.52087209 -0.73855847 0.00000000
0.11290410 0.58019852 0.00000000
0.54792307 -0.74163210 0.00000000
-0.31602013 -0.26008205 0.00000000
0.12602234 0.70307787 0.02994011
0.03080443 0.66972704 0.00000000
-0.14031161 -0.06592061 0.00000000
-0.38187232 0.62756684 0.00000000
0.71242968 0.05395567 0.00000000
-0.13867642 0.52866082 0.00000000
-0.20868263 -0.37522422 0.00000000
-0.04145651 0.67979178 0.00000000
-0.66337873 -0.73333921 0.00000000
0.08280285 0.22679957 0.00000000
-0.26058853 -0.65315908 0.00000000
0.66996211 -0.34432565 0.00000000
-0.02167506 0.40234442 0.00000000
-0.05952688 -0.75174630 0.00000000
0.35039627 0.04459310 0.00000000
-0.05068421 0.69209212 0.00000000
0.00511572 -0.47952323 0.00000000
-0.01382827 -0.35019931 0.00000000
-0.24282577 0.37027969 0.00000000
0.72605064 0.10958039 0.03665920
0.63524035 0.07330657 0.00000000
-0.10119804 0.58154338 0.00000000
-0.03015901 -0.11358498 0.00000000
0.77405259 -0.39473138 0.00000000
0.07133056 -0.55307628 0.00000000
0.27061575 -0.51535876 0.00000000
0.61891116 0.58696148 0.41757588
0.56419102 -0.28333440 0.00000000
0.08836276 0.48213695 0.00000000
-0.56141728 0.33036115 0.00000000
-0.68838591 -0.63657419 0.00000000
-0.63804986 0.60088333 0.00000000
0.53805042 -0.43789397 0.00000000
0.69797784 -0.59912301 0.00000000
-0.22241265 -0.20702327 0.00000000
0.59437610 0.56601416 0.37078195
-0.44851265 0.08150188 0.00000000
0.55414780 0.35899680 0.11640731
0.44688913 0.61895764 0.27351257
-0.31870590 -0.73369165 0.00000000
0.49228312 0.48342161 0.18077089
-0.72576346 -0.05770696 0.00000000
0.53491284 -0.09522240 0.00000000
-0.62082782 0.23880773 0.00000000
0.64430000 -0.56956783 0.00000000
-0.25479936 -0.75950550 0.00000000
0.62152245 -0.17343477 0.00000000
-0.42703923 -0.15766753 0.00000000
0.19544099 0.65181536 0.04861966
-0.18846988 -0.77798622 0.00000000
-0.17926960 -0.79411390 0.00000000
0.23322711 0.08952694 0.00000000
0.65541861 0.18487303 0.04145417
-0.67955302 -0.73650907 0.00000000
0.66924742 -0.57563639 0.00000000
-0.08786615 0.23415727 0.00000000
-0.71570574 -0.11192861 0.00000000
-0.17599938 -0.07180510 0.00000000
-0.49003252 -0.32340571 0.00000000
-0.21737676 0.10419198 0.00000000
0.10950498 0.14921006 0.00000000
-0.01291777 -0.02525983 0.00000000
0.41172418 -0.19329277 0.00000000
-0.64212740 -0.62309501 0.00000000
0.48980578 0.18578431 0.00000000
-0.04053111 -0.28983317 0.00000000
0.58043707 0.38796664 0.17325940
0.66058799 0.47262590 0.34282157
0.34324925 0.56459381 0.11095294
0.01886371 -0.51003243 0.00000000
-0.22611934 0.62014866 0.00000000
0.14014302 -0.18483265 0.00000000
0.76308799 0.04882788 0.01226039
-0.39232466 0.39125282 0.00000000
-0.12175198 0.73070106 0.00000000
-0.59896360 0.12850063 0.00000000
-0.11458702 -0.09262709 0.00000000
-0.31468370 -0.39632174 0.00000000
0.22963280 0.00027769 0.00000000
-0.65365224 -0.37234263 0.00000000
0.27939508 0.54120814 0.02119818
-0.44796369 -0.42812554 0.00000000
0.74456531 -0.19889128 0.00000000
0.38331926 -0.29468795 0.00000000
-0.41727384 -0.53943817 0.00000000
0.25537327 0.72835758 0.18902934
-0.49513238 0.12359902 0.00000000
0.01505470 0.31225627 0.00000000
0.14842219 -0.23914052 0.00000000
0.41014119 -0.43714753 0.00000000
0.03525650 0.73602642 0.00000000
-0.15851849 -0.77875264 0.00000000
0.74519136 -0.62897776 0.00000000
0.15376988 0.41059760 0.00000000
-0.23108136 -0.75120156 0.00000000
0.68951357 -0.42685037 0.00000000
-0.28858284 -0.66220206 0.00000000
0.46449369 0.61744836 0.29007195
-0.58555001 0.69658065 0.00000000
-0.02768624 -0.56526416 0.00000000
-0.69994349 0.39469022 0.00000000
0.23141087 -0.00049950 0.00000000
0.61364059 0.62825649 0.45463924
-0.18659237 0.60005628 0.00000000
0.12595346 -0.69513500 0.00000000
0.17316534 -0.74394634 0.00000000
0.45946252 0.62308697 0.29069692
-0.47360584 0.67944021 0.00000000
-0.78161560 -0.03629530 0.00000000
-0.50368578 -0.54270864 0.00000000
0.71039973 0.17616586 0.08906209
-0.67582616 -0.42845463 0.00000000
-0.46038290 -0.51730011 0.00000000
0.64877912 -0.13325778 0.00000000
-0.33823988 0.39296921 0.00000000
0.59834769 0.27484868 0.07530746
0.58902222 -0.47533710 0.00000000
-0.05086948 0.30070389 0.00000000
-0.50433214 -0.05983102 0.00000000
0.41043033 0.01565194 0.00000000
0.76574928 -0.27408655 0.00000000
-0.49308981 0.29995016 0.00000000
0.73673241 0.13823083 0.07712527
0.64479391 -0.73162218 0.00000000
-0.10471391 0.74052118 0.00000000
0.62543083 0.24495281 0.07241365
0.42848129 -0.04689006 0.00000000
0.02809225 0.52687872 0.00000000
-0.44619871 0.25431737 0.00000000
0.16800541 -0.06685320 0.00000000
-0.15016490 -0.59469686 0.00000000
-0.45148335 -0.16108582 0.00000000
-0.62534989 -0.34551102 0.00000000
0.59691432 -0.05727092 0.00000000
-0.18060269 0.43530249 0.00000000
0.57484579 -0.03531600 0.00000000
0.57707652 0.58283582 0.37029032
-0.28891686 0.16030689 0.00000000
0.60117459 0.56145995 0.37309092
0.14366443 -0.11201192 0.00000000
-0.53713411 -0.02135062 0.00000000
-0.26392434 0.02503150 0.00000000
0.39015900 -0.02220832 0.00000000
0.38549455 0.25368533 0.00000000
0.24463525 0.66052307 0.10819093
-0.79437503 0.08389558 0.00000000
0.06193748 -0.10557479 0.00000000
-0.24852515 0.09883775 0.00000000
0.02845983 -0.28686093 0.00000000
0.61704223 0.52250344 0.34933614
-0.19944697 0.60552385 0.00000000
0.50255440 0.27803745 0.00000000
0.32901571 -0.52997606 0.00000000
-0.61421497 0.74586969 0.00000000
-0.48848645 0.28056300 0.00000000
-0.30947478 0.65875506 0.00000000
-0.25172985 -0.07899269 0.00000000
-0.19131158 -0.72965252 0.00000000
0.44579930 0.49482001 0.14467404
0.13123195 -0.57070753 0.00000000
-0.78247328 -0.78263928 0.00000000
0.30782123 -0.43615995 0.00000000
0.52819869 0.30476678 0.03391680
0.69224410 0.17318826 0.06731963
0.29811782 0.20344984 0.00000000
-0.48147669 0.09532476 0.00000000
-0.04941866 0.14223837 0.00000000
-0.77949322 -0.53596800 0.00000000
-0.02215033 0.62138369 0.00000000
0.15797700 0.26010767 0.00000000
-0.25940393 -0.27048858 0.00000000
-0.59681780 -0.56611064 0.00000000
0.43115453 0.12153481 0.00000000
-0.05250507 -0.29710325 0.00000000
0.19007613 0.20019818 0.00000000
0.42829160 -0.33690408 0.00000000
0.04461407 0.73277410 0.00000000
0.29348775 -0.70393629 0.00000000
0.71991107 -0.19125722 0.00000000
-0.14451669 -0.71008799 0.00000000
-0.32176112 -0.15002076 0.00000000
0.21231302 -0.65699998 0.00000000
-0.05168192 0.32231334 0.00000000
-0.32095750 -0.61115581 0.00000000
0.64971842 -0.78891307 0.00000000
-0.50087202 -0.79518277 0.00000000
-0.54104752 0.47372723 0.00000000
-0.06209865 0.17008900 0.00000000
-0.72110830 0.50700066 0.00000000
-0.21597308 0.77927122 0.00000000
0.31638701 -0.69615895 0.00000000
0.64857194 0.47422132 0.33210047
-0.66452115 -0.39603701 0.00000000
0.63458308 -0.06309236 0.00000000
-0.45508991 0.18936056 0.00000000
0.33540539 -0.48769791 0.00000000
-0.70599511 -0.39466193 0.00000000
-0.79071649 -0.76584138 0.00000000
-0.25145436 -0.53538843 0.00000000
0.53470208 0.01354284 0.00000000
0.48709149 0.61207918 0.30779731
-0.38083115 0.01105706 0.00000000
-0.04293914 -0.45093057 0.00000000
-0.23829608 -0.39497102 0.00000000
-0.02826767 -0.50417529 0.00000000
0.05954161 0.73784092 0.00000000
0.29213366 0.15837880 0.00000000
0.48789686 0.12299475 0.00000000
-0.54574555 0.61613688 0.00000000
0.25989907 0.49065299 0.00000000
-0.33826221 -0.23891958 0.00000000
0.50285164 0.50013469 0.20883909
0.57509876 -0.21407904 0.00000000
-0.02722640 0.04821528 0.00000000
-0.38845629 0.73239420 0.00000000
0.52633011 -0.22930087 0.00000000
-0.15756702 -0.77777122 0.00000000
-0.37832304 -0.13254613 0.00000000
0.53728086 -0.03546904 0.00000000
0.51124966 0.56683548 0.28610361
0.71523582 -0.21705351 0.00000000
0.28633812 0.12787733 0.00000000
0.43115142 -0.67818598 0.00000000
0.18257859 -0.02485375 0.00000000
0.53425678 -0.77221799 0.00000000
-0.56078358 -0.20492719 0.00000000
-0.46946898 -0.16933465 0.00000000
0.49997047 -0.07674127 0.00000000
-0.35287105 0.25653259 0.00000000
0.17749227 0.07415131 0.00000000
-0.60001690 -0.11550786 0.00000000
0.37109713 -0.02875048 0.00000000
-0.02521832 -0.33632496 0.00000000
-0.28653382 0.52564598 0.00000000
-0.50813947 -0.02226980 0.00000000
0.34102858 0.51127287 0.05381019
0.62136172 0.30419405 0.12917625
0.52027847 0.30858862 0.02970027
-0.16322363 0.08398371 0.00000000
-0.59683343 -0.03259042 0.00000000
0.49038812 0.43565601 0.12967869
0.46186712 -0.68539446 0.00000000
-0.52624584 0.38316601 0.00000000
-0.75175082 -0.41694244 0.00000000
0.77395290 -0.31453409 0.00000000
-0.34058934 -0.13380404 0.00000000
0.56444250 0.27936605 0.04507246
0.21812487 -0.33980798 0.00000000
-0.57068334 -0.18324575 0.00000000
-0.20700509 0.01087880 0.00000000
0.49802789 0.30853300 0.00675104
-0.14143800 0.36966613 0.00000000
-0.31635383 0.41464517 0.00000000
-0.37710996 -0.77969382 0.00000000
-0.73114274 -0.46857731 0.00000000
-0.48527982 0.25820738 0.00000000
0.55487999 -0.57901057 0.00000000
0.09996801 0.29554491 0.00000000
-0.66864364 0.25932058 0.00000000
-0.23584503 0.11170440 0.00000000
-0.06841107 -0.02139682 0.00000000
0.58466727 0.45102418 0.24248703
-0.40473242 -0.68751328 0.00000000
0.23727716 -0.08126004 0.00000000
-0.35526397 0.73370453 0.00000000
0.75846353 -0.59147573 0.00000000
0.66444069 0.32862314 0.19863042
0.29073135 -0.72152441 0.00000000
0.22299970 0.64597751 0.07096666
0.04827857 0.62729234 0.00000000
0.15064182 -0.60492701 0.00000000
0.75715074 -0.77156450 0.00000000
-0.42542428 0.56268740 0.00000000
-0.65386324 -0.55101017 0.00000000
-0.00748692 -0.53957091 0.00000000
0.43227352 0.62329325 0.26293617
-0.36121333 -0.30884293 0.00000000
0.59998387 0.03820308 0.00000000
-0.32674212 -0.40500210 0.00000000
-0.41913755 0.61532935 0.00000000
0.14440803 -0.75937676 0.00000000
0.56824708 0.23239633 0.00066298
-0.73639345 -0.75364326 0.00000000
-0.25740287 0.53903250 0.00000000
0.25502999 0.22500036 0.00000000
-0.57903923 -0.36992698 0.00000000
0.36634538 0.47605953 0.04362836
0.67716283 -0.78066283 0.00000000
-0.06744065 0.27263615 0.00000000
0.62441037 -0.27344944 0.00000000
-0.68191363 0.13339762 0.00000000
0.19306639 0.51165151 0.00000000
-0.47239471 0.27903572 0.00000000
0.04165052 -0.25929325 0.00000000
0.12494025 0.03484943 0.00000000
-0.78905058 0.71190887 0.00000000
-0.51797942 -0.53554441 0.00000000
0.57642725 0.22299298 0.00000000
0.30585569 -0.32824842 0.00000000
0.45275032 0.37776342 0.03139440
0.50413469 0.04988190 0.00000000
0.20985232 0.32739066 0.00000000
-0.76975836 -0.34174518 0.00000000
-0.24475561 -0.36371477 0.00000000
-0.03705208 -0.10497389 0.00000000
-0.15791476 -0.68325463 0.00000000
-0.13209203 0.28996548 0.00000000
0.58785361 -0.05300686 0.00000000
0.52811760 0.56990097 0.30661182
-0.09795608 -0.68044320 0.00000000
0.43180324 0.16999963 0.00000000
0.67189208 0.02506593 0.00000000
-0.31475453 -0.64377386 0.00000000
0.18456138 -0.11509025 0.00000000
-0.07768051 0.20039463 0.00000000
-0.41755775 -0.76323702 0.00000000
-0.16806425 0.07707461 0.00000000
0.56378120 0.40101472 0.16954760
0.52115968 0.02872745 0.00000000
0.21444339 0.12880341 0.00000000
-0.67382755 0.38808222 0.00000000
-0.69994510 0.05946403 0.00000000
0.53060802 0.24647895 0.00000000
-0.23139086 0.42712294 0.00000000
0.48294055 -0.12758189 0.00000000
0.57060740 0.64131276 0.42379801
0.56041769 -0.33773200 0.00000000
-0.45521811 -0.43456619 0.00000000
-0.01107457 0.62562315 0.00000000
-0.00794036 -0.23113830 0.00000000
-0.18661421 -0.26168167 0.00000000
0.21307561 -0.46751413 0.00000000
-0.72772780 0.01824721 0.00000000
-0.63491323 0.03804086 0.00000000
-0.48979078 -0.42697539 0.00000000
-0.19152922 -0.32152794 0.00000000
0.71203886 -0.71820900 0.00000000
-0.64128086 -0.53035598 0.00000000
0.24596564 -0.10356484 0.00000000
-0.52770914 0.17310379 0.00000000
0.15102118 -0.14585537 0.00000000
-0.44351243 -0.01494960 0.00000000
-0.48490489 0.60173014 0.00000000
-0.73088915 -0.48986569 0.00000000
-0.59195010 0.41617701 0.00000000
0.44134261 0.58382221 0.23165743
-0.17611030 0.73589573 0.00000000
0.62377038 0.43992713 0.27130058
-0.77922792 0.13318902 0.00000000
-0.69830838 0.33508206 0.00000000
-0.12757594 0.71442191 0.00000000
-0.09008936 0.75211405 0.00000000
-0.16372679 0.71872558 0.00000000
-0.18531252 -0.70198921 0.00000000
-0.71439606 0.79333747 0.00000000
-0.44192481 -0.75241205 0.00000000
0.03089262 0.34702320 0.00000000
0.08179217 -0.14927801 0.00000000
-0.10837082 -0.75745576 0.00000000
-0.55209264 -0.43885920 0.00000000
-0.15081917 0.20827038 0.00000000
-0.15267182 -0.34394824 0.00000000
0.25828185 -0.49285401 0.00000000
-0.78588288 -0.55003881 0.00000000
0.77148921 -0.76189327 0.00000000
-0.40232843 0.34808932 0.00000000
-0.70349589 0.41342585 0.00000000
-0.69949054 -0.18267110 0.00000000
0.17212982 0.44072663 0.00000000
-0.27345150 -0.43930074 0.00000000
0.63050145 0.42305849 0.26087063
-0.74455105 0.25521920 0.00000000
-0.36360592 0.65651540 0.00000000
0.54893658 0.03002717 0.00000000
-0.78825570 0.24473305 0.00000000
0.35028945 -0.11713244 0.00000000
0.64768835 -0.30084666 0.00000000
0.64864226 -0.67435467 0.00000000
0.46082053 -0.16250879 0.00000000
0.26740873 -0.11872341 0.00000000
-0.52929924 -0.59118972 0.00000000
-0.06916796 0.31906620 0.00000000
-0.33705624 -0.36373017 0.00000000
-0.63616681 -0.71025695 0.00000000
0.05539224 0.29509518 0.00000000
-0.41423669 0.72014468 0.00000000
-0.51851000 0.42074244 0.00000000
0.35076497 -0.54881964 0.00000000
-0.38278295 -0.35156587 0.00000000
0.74594984 0.06112190 0.00727662
-0.41442188 -0.25313998 0.00000000
-0.56427600 -0.34741802 0.00000000
-0.68014276 -0.36993820 0.00000000
-0.48816849 -0.01595302 0.00000000
-0.53589304 0.78024066 0.00000000
0.78276721 0.03407247 0.01732614
0.06973969 -0.72525958 0.00000000
-0.09009385 0.28644203 0.00000000
-0.34517776 -0.27638260 0.00000000
0.22443825 -0.69354375 0.00000000
-0.07751835 0.50730783 0.00000000
-0.75680377 0.60285769 0.00000000
0.69546215 0.36847717 0.27154907
0.66095577 -0.09649670 0.00000000
0.63038841 -0.03053783 0.00000000
0.12774790 -0.37037030 0.00000000
0.27281580 0.10794441 0.00000000
-0.18545761 0.79586464 0.00000000
-0.40284406 0.79515924 0.00000000
0.41341357 -0.56314630 0.00000000
0.30132616 0.50731315 0.00888938
-0.51142400 0.59709944 0.00000000
0.54656063 -0.35628418 0.00000000
-0.59963015 -0.27151579 0.00000000
-0.06343887 -0.11259194 0.00000000
-0.55416441 -0.42571132 0.00000000
-0.02580562 0.28655409 0.00000000
-0.28749018 -0.58739375 0.00000000
0.50666234 0.50831810 0.22117908
0.09449004 0.47558199 0.00000000
-0.07637437 0.35688878 0.00000000
0.06418762 0.60264597 0.00000000
0.02124590 -0.69441055 0.00000000
0.12905504 0.06557229 0.00000000
0.79304174 -0.12842536 0.00000000
0.44466786 -0.46030292 0.00000000
0.21910145 -0.44169100 0.00000000
-0.06769779 0.53902121 0.00000000
0.27360152 -0.16486028 0.00000000
-0.18991070 -0.76358229 0.00000000
-0.18288517 0.38885922 0.00000000
0.55174901 0.63166051 0.39446522
-0.11378798 0.33114566 0.00000000
-0.35953169 -0.24431972 0.00000000
0.38901950 -0.18273985 0.00000000
-0.68624893 0.27263901 0.00000000
0.59433077 0.44335593 0.24453978
0.71891470 0.13125970 0.05162182
-0.68487479 0.76012371 0.00000000
0.16537173 -0.25994713 0.00000000
-0.36804960 -0.68489509 0.00000000
0.48362641 -0.63028563 0.00000000
-0.28910773 0.24339983 0.00000000
0.43405944 -0.11457242 0.00000000
0.28332157 -0.67117692 0.00000000
-0.15649903 -0.23468941 0.00000000
0.51723478 -0.42749681 0.00000000
0.03705788 0.24285205 0.00000000
0.28519111 0.33114513 0.00000000
0.77167690 -0.60374898 0.00000000
-0.22232710 0.43895697 0.00000000
0.30128370 -0.48787922 0.00000000
0.77810029 -0.67774119 0.00000000
0.30134750 -0.04494350 0.00000000
0.76173617 0.00291616 0.00000000
0.71102590 -0.50855082 0.00000000
-0.38876017 -0.41064812 0.00000000
0.29889089 0.60801775 0.10999157
0.41467807 -0.19561630 0.00000000
-0.01953330 0.54863140 0.00000000
-0.20705408 -0.60366750 0.00000000
0.59387524 0.12621745 0.00000000
0.20234991 0.60144375 0.00390403
-0.03996151 -0.77868062 0.00000000
0.42687594 0.09827987 0.00000000
0.20043009 -0.79047108 0.00000000
0.13292767 -0.65416905 0.00000000
-0.55202558 -0.25489526 0.00000000
-0.14085601 0.07251568 0.00000000
0.06183905 -0.34889935 0.00000000
0.06504168 0.01886064 0.00000000
-0.03796311 0.07622652 0.00000000
0.57917207 0.20970235 0.00000000
-0.06299984 -0.12435797 0.00000000
-0.21448299 -0.64455830 0.00000000
0.76603142 -0.60983005 0.00000000
0.78699809 -0.77106362 0.00000000
0.36837627 -0.24495995 0.00000000
0.50957541 0.37213753 0.08406954
-0.04834346 0.43428781 0.00000000
0.53645560 -0.10552618 0.00000000
0.27802231 -0.14293970 0.00000000
-0.06233157 -0.66808574 0.00000000
-0.20776529 -0.25765193 0.00000000
0.01559715 0.50725360 0.00000000
-0.49615803 -0.61549642 0.00000000
-0.16171379 0.51680804 0.00000000
-0.68992267 0.20622839 0.00000000
-0.54768072 -0.73527202 0.00000000
0.48852162 0.32630072 0.01525064
0.21332211 -0.71705940 0.00000000
-0.36824791 0.31660557 0.00000000
-0.44400624 -0.37496448 0.00000000
0.54471478 0.01488389 0.00000000
-0.05446349 -0.28435963 0.00000000
-0.23643268 -0.39185416 0.00000000
0.67683818 0.15851730 0.03637571
0.02776349 -0.70892083 0.00000000
-0.63442297 -0.69817205 0.00000000
-0.39686634 -0.26375456 0.00000000
-0.75613982 0.04401468 0.00000000
-0.73203106 0.09666592 0.00000000
-0.44969235 -0.42662923 0.00000000
0.15469876 -0.48600815 0.00000000
0.32266703 0.20865171 0.00000000
-0.05414894 0.61608971 0.00000000
0.07807397 -0.21259333 0.00000000
0.59076410 0.32673265 0.12088491
-0.01030721 -0.62198966 0.00000000
-0.27140556 -0.77468003 0.00000000
0.44472778 0.32622221 0.00000000
-0.50140963 -0.74630083 0.00000000
0.68788185 -0.44084240 0.00000000
0.33213752 -0.33614452 0.00000000
-0.68501753 0.78195424 0.00000000
-0.25266937 0.20994685 0.00000000
-0.40060172 0.48092040 0.00000000
-0.16064673 -0.72124302 0.00000000
0.48604237 -0.77534189 0.00000000
-0.30625561 -0.50449521 0.00000000
0.22044808 0.39365175 0.00000000
0.30063745 0.23392662 0.00000000
-0.04628125 0.13110285 0.00000000
0.57378724 -0.48178649 0.00000000
0.01162777 -0.73989352 0.00000000
0.00895524 -0.66824934 0.00000000
0.66582142 0.04019746 0.00000000
0.69791820 -0.56906346 0.00000000
0.20317462 -0.56890961 0.00000000
-0.20222884 -0.30457287 0.00000000
-0.68208286 0.41602203 0.00000000
-0.25876589 -0.20779295 0.00000000
-0.14549822 0.02111848 0.00000000
0.06651519 -0.21994653 0.00000000
0.34719779 -0.75054538 0.00000000
0.64946362 -0.57321890 0.00000000
0.46719371 0.33677837 0.00408761
0.16896384 0.09262984 0.00000000
0.25396388 0.66498998 0.12238428
-0.70928181 -0.37925674 0.00000000
-0.35785263 0.68716613 0.00000000
-0.51715161 0.42167400 0.00000000
0.65117393 -0.55058744 0.00000000
0.07535796 0.05153641 0.00000000
-0.33548523 -0.48568720 0.00000000
-0.36678947 0.39792767 0.00000000
-0.48296453 0.73439103 0.00000000
-0.22233441 0.21763936 0.00000000
-0.66250801 -0.49057159 0.00000000
-0.61600209 -0.34781723 0.00000000
0.23229760 0.67791381 0.11338980
-0.74611883 -0.17890770 0.00000000
0.11091512 0.52894152 0.00000000
0.31544394 -0.13161419 0.00000000
-0.26434526 -0.13995904 0.00000000
-0.02901594 0.49835067 0.00000000
-0.58584911 0.23651591 0.00000000
0.54176704 0.07168862 0.00000000
0.21231596 -0.57541546 0.00000000
0.46469227 -0.14775553 0.00000000
0.20853343 -0.46168729 0.00000000
-0.42056180 0.79433007 0.00000000
0.68768698 -0.36542742 0.00000000
0.48656852 0.58427022 0.27864834
-0.19763216 -0.59252355 0.00000000
-0.53941338 -0.10571433 0.00000000
0.45616101 0.48056416 0.14066765
-0.76201871 0.67218515 0.00000000
0.63503489 -0.11160420 0.00000000
-0.52939093 0.60499535 0.00000000
0.19846922 -0.38695650 0.00000000
-0.17503028 -0.36167093 0.00000000
0.32783676 0.36172320 0.00000000
0.63431151 0.48041438 0.32380051
0.67625902 -0.30533097 0.00000000
-0.68344463 -0.60452597 0.00000000
0.47788793 0.57004182 0.25507872
0.59823164 0.00856873 0.00000000
0.43114881 0.29474799 0.00000000
0.50632284 0.56034305 0.27435506
0.06232453 0.66178836 0.00000000
0.55302010 -0.53223332 0.00000000
-0.47079079 -0.35729693 0.00000000
0.20156290 -0.69476333 0.00000000
0.56880242 0.36376115 0.13638608
0.13294744 -0.24357398 0.00000000
-0.12512681 0.73431977 0.00000000
-0.57856231 0.08724729 0.00000000
-0.04835178 -0.36042476 0.00000000
0.15502050 -0.27030880 0.00000000
0.37899222 -0.49111782 0.00000000
0.34975104 -0.16255760 0.00000000
0.29002862 0.06755489 0.00000000
0.08979444 -0.38400771 0.00000000
-0.01986170 0.48243667 0.00000000
0.26501766 0.62504605 0.09266105
-0.61908752 0.30523787 0.00000000
0.08464527 0.50544603 0.00000000
0.44820371 -0.17771115 0.00000000
-0.42380074 0.22252694 0.00000000
-0.21862044 0.26604142 0.00000000
0.61170431 -0.62347428 0.00000000
0.54065668 0.52530932 0.27363484
-0.52660990 0.22253853 0.00000000
-0.66713270 -0.17119458 0.00000000
0.11180951 -0.18404283 0.00000000
-0.57785455 -0.67231000 0.00000000
-0.53599283 -0.64582474 0.00000000
-0.77815851 -0.37743294 0.00000000
0.71283831 0.12614123 0.04010425
-0.09793051 0.68663337 0.00000000
-0.79214423 0.35483309 0.00000000
-0.04332235 0.35860675 0.00000000
-0.63101145 0.12355772 0.00000000
-0.08857999 -0.03876880 0.00000000
0.16966304 0.47103351 0.00000000
0.27473276 0.02584818 0.00000000
0.61592301 0.57287775 0.40001167
0.08792659 0.29346905 0.00000000
0.05993382 0.71073978 0.00000000
0.48244556 0.12514932 0.00000000
0.26990825 0.68197276 0.15626094
0.08523566 0.46212081 0.00000000
-0.72683971 -0.50125553 0.00000000
-0.34304948 -0.69405069 0.00000000
0.46501435 -0.08108579 0.00000000
-0.52580537 0.25700738 0.00000000
-0.26635745 0.53713286 0.00000000
-0.04470817 0.59554809 0.00000000
-0.43122139 0.64573603 0.00000000
0.43656268 -0.58077246 0.00000000
-0.67764815 0.44460526 0.00000000
0.69489156 0.31966641 0.22074418
-0.44869242 -0.33012281 0.00000000
0.47859984 0.42440888 0.10597923
-0.45834783 0.61895041 0.00000000
0.18292961 -0.75642998 0.00000000
0.46294177 0.32333034 0.00000000
-0.59927592 0.59624325 0.00000000
-0.60117949 -0.18269067 0.00000000
0.34351733 -0.07001460 0.00000000
0.19556059 -0.16394574 0.00000000
-0.53978622 0.02630395 0.00000000
0.58987744 -0.10908311 0.00000000
0.53017028 0.25430358 0.00000000
-0.02860938 -0.34860942 0.00000000
0.35066904 0.43069316 0.00000000
0.57907446 0.47256733 0.25889739
-0.61323446 -0.14053447 0.00000000
0.44044248 -0.08838963 0.00000000
0.46676224 0.12244263 0.00000000
0.26491538 -0.34457496 0.00000000
-0.41857196 0.74298501 0.00000000
0.13913029 0.76127072 0.10329688
-0.48672856 0.62045314 0.00000000
-0.27775799 0.36565318 0.00000000
0.51827994 0.21468490 0.00000000
0.39798329 0.10656673 0.00000000
0.40327975 -0.46401865 0.00000000
0.41037576 0.28839309 0.00000000
-0.49303426 -0.26995189 0.00000000
0.63882466 0.53224502 0.38176916
-0.64687130 0.10776891 0.00000000
0.28859265 -0.61367481 0.00000000
-0.06540617 -0.68551823 0.00000000
0.51509722 0.15091717 0.00000000
-0.16622788 0.50553885 0.00000000
-0.07412861 0.38424957 0.00000000
0.37098955 -0.24283028 0.00000000
0.69606402 -0.07083305 0.00000000
-0.32926273 0.26759007 0.00000000
-0.14628359 -0.22344501 0.00000000
-0.32027342 0.37639825 0.00000000
0.41238358 -0.22186167 0.00000000
0.42459705 0.44109504 0.06758686
0.64773613 -0.35266984 0.00000000
0.41179840 0.39868511 0.01078674
-0.35766727 -0.13821458 0.00000000
0.41851072 0.33728295 0.00000000
0.04689114 0.14394452 0.00000000
0.27773373 0.28261380 0.00000000
0.58642156 0.11652133 0.00000000
-0.36514036 -0.28231078 0.00000000
-0.54882486 0.21894163 0.00000000
-0.38510629 -0.78962112 0.00000000
0.51834622 -0.14642748 0.00000000
0.27767815 0.66500915 0.14680205
0.32421696 0.47692606 0.00117699
0.65699896 0.40476945 0.26931571
0.54106784 -0.24443227 0.00000000
0.70835269 -0.72294527 0.00000000
-0.75898730 -0.50391436 0.00000000
-0.21081721 0.53323651 0.00000000
-0.16987372 0.13002119 0.00000000
0.45706115 -0.07986535 0.00000000
-0.06396676 -0.50353891 0.00000000
0.36114474 -0.75596420 0.00000000
-0.37803216 -0.76444392 0.00000000
-0.46816926 0.50980926 0.00000000
0.00334740 0.49111990 0.00000000
-0.10517987 0.30611035 0.00000000
-0.58959817 0.41617660 0.00000000
-0.68918498 0.59801168 0.00000000
-0.19247475 0.56901855 0.00000000
0.48302334 0.62321672 0.31507059
0.04935679 0.49292245 0.00000000
-0.03500953 -0.00001655 0.00000000
0.34695990 -0.17507949 0.00000000
-0.74341172 -0.00594928 0.00000000
0.53357160 0.31382369 0.04876260
0.77754850 0.04778460 0.02606441
0.06881084 0.75903354 0.02864810
-0.72801368 -0.41431533 0.00000000
0.30531981 0.00826520 0.00000000
0.26843344 -0.14703296 0.00000000
-0.05787293 0.22646459 0.00000000
-0.14866948 0.24011543 0.00000000
-0.75659007 0.46040085 0.00000000
0.53314429 0.44290401 0.18112436
-0.25198733 -0.46638468 0.00000000
-0.68971496 -0.33628672 0.00000000
0.51663340 0.02641663 0.00000000
0.02737378 -0.27931126 0.00000000
-0.07887653 0.49277554 0.00000000
0.33556037 0.39073306 0.00000000
0.37729127 0.16165747 0.00000000
-0.26846213 -0.13294015 0.00000000
-0.35908813 -0.32439300 0.00000000
0.66759563 0.17467944 0.04349478
-0.04494140 0.76408627 0.00000000
0.25675019 -0.14549388 0.00000000
0.17299245 0.19840977 0.00000000
0.03607833 -0.14798156 0.00000000
-0.15866858 0.55707265 0.00000000
-0.27818442 -0.34948458 0.00000000
-0.70732968 -0.08211812 0.00000000
0.39540977 -0.42689234 0.00000000
0.60440882 0.27291459 0.07955347
0.55204975 -0.59765756 0.00000000
-0.06174073 -0.71726539 0.00000000
-0.18660761 -0.69902232 0.00000000
-0.40014177 -0.57843069 0.00000000
0.44052614 0.36676028 0.00749748
0.56320727 0.54690707 0.31905627
0.62250770 0.47521341 0.30630538
0.66867051 -0.47211571 0.00000000
-0.13509694 -0.06168154 0.00000000
0.57766295 0.07019424 0.00000000
0.54671962 0.59138166 0.34785038
-0.56924750 0.53514088 0.00000000
0.66284647 0.10784666 0.00000000
0.41323419 0.52542643 0.14265889
0.07745186 -0.60450097 0.00000000
0.07986569 -0.26449093 0.00000000
-0.16406646 -0.17586283 0.00000000
-0.45235170 -0.50265501 0.00000000
0.02966225 0.32422438 0.00000000
0.50717276 -0.70929654 0.00000000
-0.78937887 -0.39002583 0.00000000
0.23096210 -0.78357756 0.00000000
0.26031573 -0.39374397 0.00000000
-0.22353471 -0.51366349 0.00000000
-0.31679839 -0.20082347 0.00000000
0.42132533 -0.28317314 0.00000000
0.49893131 -0.17237263 0.00000000
-0.32590163 0.04546702 0.00000000
0.54867786 -0.52142278 0.00000000
-0.42132091 0.47906155 0.00000000
-0.43504061 0.61070742 0.00000000
0.56221091 -0.07184091 0.00000000
0.65216232 0.48211932 0.34392014
0.52173677 0.28874407 0.01078400
-0.78651139 -0.10574657 0.00000000
-0.49906843 0.41423801 0.00000000
0.37196104 0.67521630 0.25430505
0.22335216 0.16729613 0.00000000
0.25424817 0.22546709 0.00000000
0.51132989 -0.01112994 0.00000000
-0.06588063 0.66587849 0.00000000
-0.35225412 0.52014910 0.00000000
0.25777957 0.66709233 0.12847297
0.22180289 -0.55528095 0.00000000
0.03210355 0.23068905 0.00000000
0.70937217 0.31420626 0.23002468
0.44651419 0.05533788 0.00000000
-0.75340434 0.08888681 0.00000000
0.72635000 -0.73565124 0.00000000
-0.10016087 -0.47265803 0.00000000
0.56746775 0.26454887 0.03294059
0.48275102 0.24090552 0.00000000
-0.25889224 -0.45304102 0.00000000
-0.56085738 -0.60374847 0.00000000
0.08036063 -0.47441455 0.00000000
-0.55336031 0.70777108 0.00000000
0.49842401 0.42536856 0.12736223
-0.28680450 -0.05386685 0.00000000
0.67279447 0.34682027 0.22594672
0.09748692 -0.56702744 0.00000000
-0.29105898 0.57271946 0.00000000
-0.34970987 -0.27931798 0.00000000
0.40728203 0.08744710 0.00000000
0.31745378 0.63599923 0.15787807
-0.61247712 0.14713182 0.00000000
0.37856612 0.49514680 0.07583890
0.40688734 -0.25875272 0.00000000
-0.77050142 -0.25301685 0.00000000
0.36397460 -0.52618245 0.00000000
0.29818415 0.37770377 0.00000000
-0.08149145 0.54368989 0.00000000
-0.49649926 -0.72569205 0.00000000
0.52055056 -0.45975545 0.00000000
0.38318179 0.66067938 0.25089320
-0.28291813 -0.19525073 0.00000000
-0.17138755 -0.44368013 0.00000000
0.70533913 -0.78833094 0.00000000
0.53516738 -0.65456027 0.00000000
0.75091817 0.11751077 0.07040260
-0.35866061 -0.61344803 0.00000000
0.40685637 -0.45463339 0.00000000
0.27640807 -0.21038300 0.00000000
-0.69779395 -0.10989376 0.00000000
-0.70942683 0.02852125 0.00000000
-0.22251777 0.21506640 0.00000000
0.42450103 0.56577095 0.19575840
0.65795348 -0.74108330 0.00000000
-0.08162711 -0.23339478 0.00000000
-0.77971266 0.04307937 0.00000000
0.78879343 -0.18807541 0.00000000
0.68003140 -0.65791474 0.00000000
0.45908315 0.50843915 0.17235258
-0.09284743 0.63862581 0.00000000
-0.39747671 0.01484770 0.00000000
0.41469484 -0.20594707 0.00000000
0.49208418 -0.04213744 0.00000000
-0.33402821 0.72066058 0.00000000
-0.66454411 -0.40615600 0.00000000
0.71464396 -0.49392756 0.00000000
-0.69779468 -0.67289448 0.00000000
0.64061128 0.18108182 0.02231947
0.66193139 -0.62388269 0.00000000
-0.31116153 -0.08230709 0.00000000
-0.35421672 0.07112441 0.00000000
0.38222615 -0.42942749 0.00000000
0.18909556 -0.02658276 0.00000000
-0.39027145 0.50590169 0.00000000
-0.00225122 -0.75643026 0.00000000
0.29521163 -0.67936838 0.00000000
0.09863795 -0.20319882 0.00000000
0.70499836 -0.24526187 0.00000000
0.02657712 0.60885328 0.00000000
-0.16370285 -0.74454896 0.00000000
-0.14570738 0.16436543 0.00000000
-0.45712707 -0.57993076 0.00000000
0.05716129 0.68242852 0.00000000
-0.43517336 -0.03656394 0.00000000
0.52298010 0.64532853 0.37892897
-0.77995717 0.77907926 0.00000000
-0.36073396 -0.70061508 0.00000000
-0.03608099 -0.66939746 0.00000000
-0.23698221 0.30259441 0.00000000
0.64085760 -0.55421958 0.00000000
0.32105746 -0.11270622 0.00000000
-0.28290137 0.49341267 0.00000000
0.42348031 0.08951973 0.00000000
0.23643689 0.28321826 0.00000000
-0.46502566 0.59044684 0.00000000
-0.22593304 -0.62306708 0.00000000
-0.39809139 -0.63299415 0.00000000
-0.47960294 0.41037069 0.00000000
-0.30539310 -0.62003746 0.00000000
-0.57331767 -0.20747916 0.00000000
0.52713249 0.59327417 0.32964555
-0.40010718 -0.34770300 0.00000000
-0.13043928 -0.08202715 0.00000000
-0.36142427 0.16297762 0.00000000
-0.38880078 -0.77247152 0.00000000
-0.16698606 0.21995044 0.00000000
-0.37452913 0.14454338 0.00000000
-0.75253865 -0.57354927 0.00000000
0.40243640 -0.60671807 0.00000000
-0.32360129 0.16415069 0.00000000
-0.44090090 0.76404872 0.00000000
-0.09304318 0.24784482 0.00000000
-0.43151268 0.09287803 0.00000000
-0.08033700 0.34482414 0.00000000
-0.38670983 -0.05010924 0.00000000
0.22732996 -0.62936728 0.00000000
-0.76447269 0.13517589 0.00000000
0.13550296 0.24485888 0.00000000
-0.53996527 0.75439592 0.00000000
0.25884668 -0.77817944 0.00000000
0.75874270 -0.26066970 0.00000000
-0.22674690 0.45047474 0.00000000
-0.22278936 0.01080565 0.00000000
-0.02313779 0.20814475 0.00000000
0.55731341 -0.50601418 0.00000000
-0.68275415 0.45118813 0.00000000
-0.71304353 0.47291650 0.00000000
0.60421055 0.09340416 0.00000000
-0.24685575 0.44912255 0.00000000
-0.01986257 -0.55279605 0.00000000
-0.09919505 -0.19292545 0.00000000
0.52297422 0.27329367 0.00000000
0.47915612 0.33719316 0.01682160
-0.42807414 -0.51776966 0.00000000
0.13641311 0.49186090 0.00000000
0.29789991 -0.44584611 0.00000000
0.40257445 -0.28276769 0.00000000
0.25122091 0.05961171 0.00000000
0.13302156 0.54890642 0.00000000
-0.32651989 -0.68237269 0.00000000
0.55596634 0.21888436 0.00000000
0.27673241 0.59605261 0.07488426
-0.52126984 0.55025504 0.00000000
0.25031960 0.62955821 0.08218151
-0.48945240 0.70503488 0.00000000
-0.53739797 0.63111747 0.00000000
-0.58328518 0.06849499 0.00000000
-0.22194207 -0.17883902 0.00000000
0.22097300 -0.35101048 0.00000000
-0.31877846 -0.00704093 0.00000000
0.38540314 -0.33225773 0.00000000
-0.18369224 0.08941093 0.00000000
-0.49054941 -0.28331301 0.00000000
-0.60477593 -0.74521328 0.00000000
0.04437247 0.06401688 0.00000000
0.34951341 0.33521889 0.00000000
-0.25514443 0.51660748 0.00000000
-0.23541972 0.69372449 0.00000000
-0.18488812 0.66986468 0.00000000
-0.24379088 0.58177566 0.00000000
-0.21031474 0.56307441 0.00000000
-0.63968966 0.25137059 0.00000000
-0.31972369 -0.29664214 0.00000000
0.30954513 0.07049473 0.00000000
-0.41091881 -0.30990326 0.00000000
-0.42965749 -0.34093877 0.00000000
0.02344656 -0.61735983 0.00000000
-0.14354350 0.23364127 0.00000000
-0.26167116 0.63331147 0.00000000
0.17514555 0.52220736 0.00000000
-0.79774736 0.76737754 0.00000000
-0.71553822 -0.36809527 0.00000000
0.27356192 -0.60667243 0.00000000
-0.45063930 0.27624477 0.00000000
0.43456940 -0.15280953 0.00000000
-0.51097083 -0.41783368 0.00000000
0.19490037 0.43414202 0.00000000
0.39805443 -0.11760751 0.00000000
0.18530047 -0.56213926 0.00000000
-0.67973050 0.60961206 0.00000000
-0.01525888 -0.25803669 0.00000000
-0.23155496 -0.30942610 0.00000000
0.45707704 0.38557545 0.04388308
-0.44944333 0.70071968 0.00000000
0.40144129 -0.63129268 0.00000000
-0.32998229 -0.16703125 0.00000000
0.38661557 0.38734964 0.00000000
0.10772482 -0.00596028 0.00000000
-0.67361199 -0.68562042 0.00000000
0.28304405 0.72164927 0.21059623
-0.16404305 0.61877786 0.00000000
-0.10498301 -0.25142180 0.00000000
-0.50684724 0.41687312 0.00000000
-0.19873385 -0.09640306 0.00000000
-0.61665356 0.51570039 0.00000000
0.37845009 0.54407873 0.12606205
0.46108687 0.09708709 0.00000000
0.03037875 -0.54499211 0.00000000
-0.76656509 0.26269606 0.00000000
-0.26827951 -0.66987094 0.00000000
-0.18631120 -0.79393210 0.00000000
-0.58221287 -0.69935874 0.00000000
0.45630152 0.14423054 0.00000000
0.69314963 -0.52978747 0.00000000
-0.42741195 0.75998465 0.00000000
0.40927244 0.57641163 0.19103824
-0.35045348 -0.21488372 0.00000000
0.10764771 -0.04344442 0.00000000
-0.56323453 -0.55100450 0.00000000
