ply
format ascii 1.0
element vertex 1370
property float x
property float y
property float z
end_header
-0.15799832 0.32509454 0.00000116
-0.30999109 0.05160411 0.23189981
-0.49271946 -0.38954887 0.32416534
-0.54464378 -0.51490162 0.18315296
-0.65159403 -0.77309644 0.14571837
-0.24530010 0.26335492 -0.03757510
-0.10825688 -0.05155659 0.00000075
-0.28632040 0.10876490 0.03882588
-0.20652264 0.02538610 -0.00000529
-0.47682699 -0.35117881 0.23084154
-0.21186958 0.12310146 0.00000045
-0.04655549 0.34946402 -0.00000404
-0.10680849 0.37487218 -0.00000175
-0.17944068 -0.74086911 -0.00000097
-0.01442011 -0.58279116 0.00000052
-0.20119490 0.28079536 0.00000081
-0.24879373 0.19935306 0.02421299
-0.66447129 -0.72954209 -0.05046545
-0.44306678 -0.18580605 -0.05670597
-0.15041130 -0.31222800 0.00000205
-0.03811967 0.70796718 0.03255362
-0.29104999 0.15263603 -0.03738733
-0.03459477 -0.16096335 0.00000099
-0.03139999 -0.30400804 0.00000117
-0.16116945 0.41089665 0.04668565
-0.70591883 -0.68826337 -0.14606842
-0.62842651 -0.32307567 -0.26654142
-0.59254415 -0.73245589 -0.00000345
-0.30588390 0.06151459 0.29462598
-0.45027804 -0.67569651 -0.00000248
-0.29051843 -0.34105008 0.00000305
-0.05254486 0.65683711 0.00000350
-0.32971846 -0.24471616 -0.00000095
-0.53989884 -0.37304255 -0.08818138
-0.54898779 -0.20158210 -0.21899992
-0.15821335 -0.28047080 0.00000217
-0.16106812 0.41113769 0.15171986
-0.24068279 0.30131563 -0.05571201
-0.29239315 0.02530320 -0.00000022
-0.38541418 -0.13048435 0.14698401
-0.53772467 -0.49819833 0.23441631
-0.05030285 0.00021816 0.00000188
-0.38147876 -0.12099036 0.31202692
-0.06751024 0.28905438 0.00000732
-0.46305252 -0.14576594 -0.11642522
-0.01814545 -0.78421549 -0.00000008
-0.69020212 -0.64597646 -0.14900680
-0.01104435 0.57360342 0.00000251
-0.27920675 0.12592043 0.23223123
-0.24647572 0.20494494 0.12586861
-0.42132231 -0.21717063 0.05375390
-0.65871510 -0.79028775 0.06247825
-0.12673656 -0.33084227 0.00000011
-0.24091441 0.20047639 -0.00000097
-0.55596121 -0.54222411 0.19380194
-0.14226696 0.05126191 0.00000074
-0.37926765 -0.40278379 0.00000361
-0.10131449 0.02779077 0.00000094
-0.43239256 -0.57342564 -0.00000218
-0.45752454 -0.30457215 0.08359959
-0.30991890 0.28029522 -0.15455225
-0.37814990 -0.11295508 0.34292158
-0.10137015 -0.07982146 0.00000074
-0.41765101 -0.20831194 0.16367742
-0.16897281 0.00582066 0.00000279
-0.08955288 0.26500741 0.00000146
-0.47997482 -0.35877433 0.13579667
-0.33821145 0.06826651 -0.05733194
-0.22319351 -0.32184690 -0.00000045
-0.49590185 -0.09169424 -0.20664127
-0.11219808 -0.36475546 0.00000166
-0.25757447 -0.64898436 0.00000223
-0.52237521 -0.04349930 -0.28246896
-0.54908108 -0.29865697 -0.15349036
-0.29199821 -0.02315369 -0.00000031
-0.05765234 0.33724652 0.00000699
-0.00765580 -0.39981793 0.00000081
-0.53179512 -0.48388223 0.18637126
-0.39942568 -0.16432185 0.39766861
-0.18428475 -0.72722196 -0.00000098
-0.28642029 -0.71149002 -0.00000156
-0.33383055 -0.05255890 0.00000392
-0.02678015 0.38771986 0.00000207
-0.54040961 -0.49712907 -0.00508277
-0.48406675 -0.11022772 -0.17477887
-0.30610763 -0.38894351 -0.00000108
-0.10961295 -0.25486518 0.00000036
-0.08511876 -0.41869467 0.00000020
-0.62678877 -0.77356339 0.00000478
-0.58085569 -0.14808943 -0.30722165
-0.32208993 0.02239565 0.22761905
-0.05014515 0.58815077 0.00000230
-0.06419540 -0.34268181 0.00000134
-0.01881657 -0.28993535 0.00000084
-0.48742489 -0.37676695 0.28995417
-0.06794275 0.63834170 -0.00160012
-0.65675926 -0.78556603 0.02453012
-0.36019541 -0.06960425 0.23271189
-0.12736177 0.18807132 0.00000108
-0.31642230 0.10763345 -0.04838421
-0.16208800 -0.24537145 0.00000226
-0.03596608 0.61261094 0.00000435
-0.01198579 0.26067752 0.00000881
-0.42208688 -0.47083759 -0.00000193
-0.40719807 -0.62439853 -0.00000213
-0.29490702 -0.39226343 0.00000299
-0.61047269 -0.67382317 0.10154580
-0.43958907 -0.57722852 -0.00000224
-0.51914068 -0.56909330 -0.00000270
-0.55215915 -0.24213273 -0.19674999
-0.38908877 0.12049986 -0.17574637
-0.09590282 0.53521316 0.00000093
-0.18185677 0.14774500 0.00000315
-0.34920080 -0.04306522 0.35624966
-0.33172516 -0.44433563 0.00000317
-0.38103366 -0.61902588 -0.00000196
-0.68116821 -0.60831212 -0.15973115
-0.04928487 0.03107120 0.00000193
-0.47075662 -0.33651594 0.05103683
-0.01658970 0.23393398 0.00000184
-0.65434905 -0.68506040 -0.06402388
-0.14311293 0.27072715 0.00000593
-0.51407725 -0.01799685 -0.28616898
-0.50594393 -0.69574680 -0.00000286
-0.29975351 0.25607808 -0.12157111
-0.07168180 -0.11326039 0.00000183
-0.59817168 -0.64412589 0.08866105
-0.26052342 -0.79978254 -0.00000157
-0.20366506 0.25150300 -0.00000114
-0.41299131 0.16397726 -0.24418890
-0.29997531 0.07578187 0.25851749
-0.56000567 -0.78372977 -0.00000335
-0.10284994 -0.23734138 0.00000183
-0.32150744 0.02379866 0.19658218
-0.11891800 0.05046420 0.00000892
-0.17056573 0.38821316 0.01817400
-0.21031471 0.29224860 0.13730003
-0.38715150 -0.54714241 0.00000339
-0.42527333 -0.75527176 0.00000329
-0.30234153 0.07006602 0.27693745
-0.32859896 -0.52521415 -0.00000147
-0.52230323 -0.32669219 -0.09080001
-0.29153218 0.21688385 -0.08163707
-0.30942120 0.05298059 0.22352046
-0.09682112 0.47575840 0.00000312
-0.06541730 -0.36655743 0.00000042
-0.19616757 -0.71184165 0.00000165
-0.28872556 -0.01087771 0.00000366
-0.23721191 0.31389331 -0.05855178
-0.33050094 0.00210331 0.06044786
-0.59619349 -0.63839706 -0.00062139
-0.62725152 -0.58994981 -0.08410790
-0.52636999 -0.47078088 0.09525239
-0.01132318 0.53700273 -0.00000159
-0.06093902 0.42801164 -0.00000214
-0.59052761 -0.62567273 0.17923463
-0.32647746 -0.06521519 0.00000384
-0.02154239 0.67129195 0.00000292
-0.24551097 0.20727379 0.13269528
-0.66332672 -0.71386732 -0.05919889
-0.27354803 -0.46690384 -0.00000103
-0.06623651 0.64008722 0.04227280
-0.35652622 -0.42509559 0.00000339
-0.46735847 0.03263444 -0.24412583
-0.23623175 -0.36629297 -0.00000061
-0.53428382 -0.48988678 0.09823426
-0.21894521 0.27142114 0.03546518
-0.38905740 -0.36543662 -0.00000153
-0.06853238 -0.27047362 0.00000151
-0.09827662 -0.36596822 0.00000022
-0.54086452 -0.00282189 -0.34017721
-0.48343628 -0.02243620 -0.23313191
-0.56030995 -0.55271762 0.05016788
-0.64878435 -0.47709217 -0.19560749
-0.19158810 -0.46738771 -0.00000053
-0.01997532 0.19541029 0.00000938
-0.29528551 -0.43756230 -0.00000110
-0.34998939 -0.63055044 -0.00000179
-0.33849347 0.03299844 -0.03393621
-0.35671415 -0.06119137 0.03599251
-0.39683108 0.04223166 -0.13545059
-0.13742667 0.10647606 0.00000790
-0.18966096 0.34211309 0.10515515
-0.05240559 0.00996954 -0.00001023
-0.57288761 -0.58308325 0.05912528
-0.28149696 -0.10754907 -0.00000040
-0.29220649 0.34870122 -0.17189964
-0.17720242 0.38920398 -0.01149578
-0.58847731 -0.62072118 0.08056617
-0.15945314 -0.51073184 -0.00000042
-0.07954771 0.34711009 0.00000275
-0.14154858 0.55869385 -0.06792145
-0.31457218 -0.14058106 0.00000361
-0.05986161 0.57161019 0.00000221
-0.16927879 0.39131878 0.11245742
-0.57275167 -0.11432234 -0.31682832
-0.45302102 -0.31571760 -0.00000183
-0.14460561 -0.42352297 0.00000180
-0.00497492 0.25228372 0.00000201
-0.36927413 -0.09152074 0.19587324
-0.63276540 -0.75608319 -0.00000374
-0.39545594 -0.15472652 0.12619011
-0.28906244 0.10214300 0.06528177
-0.22953667 0.24583570 0.21778620
-0.08656800 0.28823845 -0.00000398
-0.51367620 -0.44014041 0.21692508
-0.05900024 0.11220350 -0.00000812
-0.01830452 0.53927876 0.00000265
-0.36431544 -0.07955117 0.23831196
-0.32220596 0.30532407 -0.19154715
-0.18181797 -0.02826866 0.00000035
-0.01559150 -0.06377113 0.00000150
-0.47596286 -0.35593098 -0.00000204
-0.33326175 0.14367566 -0.10025787
-0.00544691 0.22117024 0.00000188
-0.08200490 0.60232995 -0.00020455
-0.35976483 -0.06856089 0.14234068
-0.10104801 0.30970515 0.00000638
-0.31510486 0.11562259 -0.05163193
-0.34186701 0.17528710 -0.13569305
-0.28142134 0.12057984 0.09281012
-0.06976244 -0.68440398 -0.00000020
-0.62802425 -0.71619531 0.06020851
-0.55331400 -0.49026380 -0.03079884
-0.32080980 0.02548246 0.20738404
-0.58991088 -0.76665580 -0.00000350
-0.56299283 -0.55919953 0.21392728
-0.35416032 0.09541243 -0.10173858
-0.03191270 0.39099417 0.00000247
-0.63249201 -0.72698122 0.15005793
-0.43488827 -0.04404027 -0.13924180
-0.15595854 0.42347560 0.07865455
-0.13416020 0.25892113 0.00000625
-0.32633661 0.19554760 -0.12403943
-0.08826652 0.52127223 0.00000427
-0.08339925 -0.69970774 -0.00000032
-0.34195989 -0.09045891 -0.00000073
-0.43197029 -0.72423145 -0.00000247
-0.09533602 0.05121680 0.00000941
-0.42935124 0.16393742 -0.27087710
-0.33353733 -0.02510061 0.00000397
-0.57621268 -0.59111294 0.11157584
-0.35552978 -0.52216773 0.00000320
-0.37263527 -0.09964088 0.36336607
-0.53211771 -0.73841334 -0.00000310
-0.02409421 0.53990107 0.00000542
-0.55194259 -0.13419727 -0.26940439
-0.36585823 -0.53214659 0.00000326
-0.59343061 -0.63268017 0.09533628
-0.37434767 -0.66343326 0.00000308
-0.53475964 -0.72216587 0.00000418
-0.23105009 0.24218771 0.08221952
-0.00502476 -0.39635779 0.00000073
-0.09324214 0.26048667 0.00000143
-0.43942116 -0.13417857 -0.08567388
-0.12591336 -0.58001190 0.00000136
-0.14495774 0.45003922 0.04996682
-0.40989982 -0.38987539 -0.00000170
-0.43107684 -0.34127258 0.00000411
-0.16935932 -0.53551479 0.00000177
-0.09634386 -0.49424460 -0.00000001
-0.18736867 -0.02740878 0.00000032
-0.26120782 0.12532645 -0.00000177
-0.40450410 -0.17657687 0.26942880
-0.16417640 -0.71975371 -0.00000084
-0.45423738 -0.29664464 0.28284498
-0.43814020 0.06254780 -0.21664675
-0.06197941 0.05099892 0.00001012
-0.23740846 0.34977891 -0.08314373
-0.01716375 -0.37242930 0.00000093
-0.19459272 0.26334207 0.00000082
-0.01848367 -0.23990747 0.00000119
-0.00526551 0.49644060 -0.00000253
-0.21401082 0.46084047 -0.12006103
-0.30989448 0.19725839 -0.09834725
-0.45939470 -0.30909388 0.24311923
-0.56237990 -0.45647512 -0.06845793
-0.55628585 -0.54300060 0.00456725
-0.20472166 -0.77200186 -0.00000118
-0.44151983 -0.26593121 0.03665803
-0.43904123 -0.25994765 0.04424518
-0.30036502 0.12956660 -0.03699394
-0.54233848 -0.44817763 -0.04134351
-0.00574642 0.42889631 0.00000705
-0.14211114 -0.07956656 0.00000049
-0.34973763 -0.51687297 -0.00000158
-0.12798599 -0.68713678 0.00000118
-0.53104370 -0.44636909 -0.02412288
-0.54886915 -0.34375067 -0.12264271
-0.21971988 0.26954423 0.01466026
-0.52432508 -0.28034567 -0.12545062
-0.38039775 -0.11838088 0.31957164
-0.30640639 0.28018662 -0.14874435
-0.24832528 -0.32166283 -0.00000060
-0.02676010 0.54672904 0.00000528
-0.18616922 0.35054052 0.13342343
-0.24887488 -0.34553195 -0.00000065
-0.04988701 0.59829540 0.00000300
-0.14206990 0.57795705 -0.08180219
-0.29443776 -0.69313140 0.00000242
-0.53378768 -0.48868661 0.04255004
-0.06741904 0.24391000 -0.00000539
-0.34082647 -0.02283774 0.10135355
-0.61506183 -0.68490211 0.19731203
-0.28456837 0.11298376 0.17459162
-0.33685751 -0.44199805 0.00000321
-0.36465585 -0.18508864 -0.00000105
-0.32565511 -0.20023890 0.00000358
-0.00264692 0.71238015 0.00000393
-0.38689247 -0.57000957 0.00000335
-0.36605604 -0.78558170 -0.00000218
-0.49776027 -0.40171765 0.26054405
-0.09730452 0.30356483 -0.00000337
-0.63676050 -0.34024139 -0.26853947
-0.51762185 -0.69109282 0.00000411
-0.37031511 -0.09403733 0.33505329
-0.54888036 -0.21482208 -0.20986891
-0.37750888 0.01804803 -0.08753530
-0.51997873 -0.20437235 -0.16974190
-0.32110521 0.02476676 0.26673289
-0.11445047 0.34519066 0.00000570
-0.10013744 -0.58183763 -0.00000020
-0.06571073 0.60627598 0.00000379
-0.45234176 0.05128258 -0.23221772
-0.06905632 0.17399920 -0.00000665
-0.30068150 -0.17147114 0.00000345
-0.52215063 -0.33397786 -0.08562277
-0.45506279 -0.12832713 -0.11517400
-0.38866694 -0.13833240 0.03297970
-0.22439822 0.41273253 -0.10448160
-0.28866526 0.20353773 -0.06792812
-0.16295199 0.53593193 -0.08747561
-0.61678263 -0.68905637 0.17037257
-0.16252295 0.55113794 -0.09706075
-0.08391131 0.32107929 0.00000160
-0.34418640 -0.63365566 0.00000291
-0.04669493 0.66381359 0.00000310
-0.32509183 0.26651534 -0.17000848
-0.56253425 -0.49871407 -0.04013934
-0.59720629 -0.48422339 -0.10655903
-0.40847898 -0.51774277 -0.00000194
-0.09951283 0.55974891 0.05982269
-0.32557196 -0.71611277 0.00000261
-0.14100307 -0.58473598 -0.00000045
-0.22363928 -0.21534638 0.00000278
-0.23068936 0.21268571 0.00000473
-0.09464070 -0.74018999 -0.00000046
-0.41393860 0.17233723 -0.25139051
-0.32148863 0.02384247 0.23422034
-0.52654788 -0.64559517 -0.00000289
-0.23195727 0.19151409 -0.00000141
-0.25500366 0.41871972 -0.15851001
-0.01676094 0.07307096 -0.00001012
-0.13036354 0.21836201 0.00000679
-0.41754502 -0.58111452 0.00000356
-0.33998653 0.27877665 -0.20262572
-0.37273431 -0.09986648 0.00924708
-0.44499652 -0.34236012 -0.00000183
-0.30373345 -0.56422838 0.00000273
-0.06617711 0.60371665 0.00000381
-0.72296058 -0.80213898 -0.09687092
-0.12064473 -0.79130828 0.00000093
-0.22337049 0.26073401 0.08189247
-0.05932292 0.65677876 0.00183761
-0.38660305 0.16536430 -0.20203609
-0.54373433 -0.55589501 0.00000456
-0.12338290 0.39615797 -0.00000085
-0.41849303 -0.21034692 0.21449010
-0.31665371 -0.33575621 -0.00000104
-0.05758834 0.29315991 -0.00000477
-0.66396587 -0.69930140 -0.07009502
-0.46153026 -0.31425276 0.31757547
-0.47569375 -0.78772201 -0.00000285
-0.30368369 0.00539067 -0.00000032
-0.02106684 0.16114912 0.00000168
-0.01107594 0.40861265 -0.00000400
-0.48208779 0.00279303 -0.24799506
-0.34749094 -0.03892888 0.13960042
-0.20578987 -0.64618836 0.00000184
-0.15995445 0.41383091 0.09400994
-0.37383921 -0.64985095 0.00000310
-0.28415930 -0.50817236 0.00000269
-0.29433207 0.18191090 -0.06254926
-0.46610712 -0.35809859 -0.00000198
-0.33185603 -0.00117952 0.06395982
-0.14993538 -0.35862019 -0.00000008
-0.48613352 -0.47218309 0.00000428
-0.40843599 -0.18606373 0.13782665
-0.23087240 0.36074912 -0.07989093
-0.51846947 -0.54479950 -0.00000265
-0.44396274 -0.44086506 0.00000402
-0.32448954 0.01660890 0.14827377
-0.15660272 -0.41004234 0.00000191
-0.37784841 -0.14484906 -0.00000105
-0.24567171 -0.40970115 -0.00000075
-0.42212597 -0.21912080 0.28865241
-0.44961210 0.07076696 -0.24093995
-0.24117155 -0.43347371 -0.00000077
-0.46489625 -0.32236859 0.07167071
-0.28624681 0.09392814 -0.00000005
-0.02486427 -0.05870105 0.00000124
-0.15361585 0.31912215 0.00000326
-0.28969967 0.20394094 -0.06989001
-0.22449698 -0.15900860 0.00000290
-0.31549054 0.16572138 -0.08615362
-0.03983544 0.52910264 0.00000279
-0.38757087 -0.13568825 0.08014193
-0.44670664 -0.27846285 0.26099598
-0.03119350 -0.72633206 0.00000037
-0.02837115 -0.05404332 0.00000161
-0.36900585 -0.09086843 0.08651354
-0.33368932 -0.25186987 0.00000355
-0.24818003 0.30191504 -0.06836015
-0.24612939 0.07382619 0.00000597
-0.24158259 -0.56903879 -0.00000103
-0.25480230 0.17368888 0.00000466
-0.34400798 -0.65895589 0.00000286
-0.26530397 0.25180180 -0.06242606
-0.53944544 -0.31607771 -0.12597228
-0.32260828 0.02114324 0.14342871
-0.26565010 -0.53342040 0.00000250
-0.27650598 0.04860974 -0.00000274
-0.44211930 -0.29121496 -0.00000171
-0.13095594 -0.75515826 0.00000107
-0.29541793 0.10869329 -0.01479612
-0.13051006 -0.15228302 0.00000043
-0.27105848 -0.06433629 0.00000342
-0.52280344 -0.48043581 -0.00000256
-0.08684629 -0.50590962 0.00000121
-0.15933945 0.07282337 -0.00000583
-0.25712032 0.11902508 0.00000523
-0.07134975 0.22590885 0.00000246
-0.17451831 0.25432574 -0.00000196
-0.43713496 -0.00357657 -0.17028038
-0.19377910 0.14621315 0.00000626
-0.48701338 -0.37576795 0.15868018
-0.21982778 -0.42689059 -0.00000063
-0.32000149 0.02745390 0.02296513
-0.34161423 0.04906671 -0.04990685
-0.22590171 -0.08481917 0.00000305
-0.09977469 0.18871977 0.00000261
-0.17748403 0.26001272 0.00000092
-0.25943484 -0.46071135 -0.00000093
-0.19392122 0.33182620 0.12825509
-0.48321907 -0.15901264 -0.14039630
-0.25892999 0.35415201 -0.12124637
-0.31644679 0.32054987 -0.19244183
-0.41170866 -0.02283727 -0.11572744
-0.45847809 -0.17388944 -0.08993249
-0.52229992 -0.01217277 -0.30353612
-0.04147092 -0.53632615 0.00000024
-0.65073094 -0.77101278 0.11180456
-0.36656052 0.21153275 -0.20053596
-0.34653243 -0.03661518 0.25491602
-0.23500028 -0.37516837 -0.00000062
-0.73073805 -0.79532877 -0.11417762
-0.02723226 -0.35798443 0.00000103
-0.26161596 -0.53193023 0.00000248
-0.35916708 -0.34404050 -0.00000131
-0.36867561 -0.16685750 -0.00000104
-0.27232180 -0.51613694 -0.00000111
-0.14387923 0.45850922 -0.00396197
-0.49044992 -0.08776899 -0.20039353
-0.55544785 -0.54097835 0.02546517
-0.27557551 -0.15826700 -0.00000046
-0.34123077 -0.02381863 0.28758707
-0.34284913 0.00713031 -0.02355108
-0.06451708 -0.19682955 0.00000162
-0.32845779 -0.65673450 -0.00000171
-0.17697331 0.40722987 -0.02331774
-0.00183899 0.41331012 0.00000229
-0.04964530 -0.57954126 0.00000011
-0.09326651 0.57483087 0.01389843
-0.37268600 -0.23536974 -0.00000119
-0.63379173 -0.33236525 -0.26901907
-0.08104541 0.60433256 0.07903725
-0.06836739 0.58786632 0.00000219
-0.23450451 0.28944973 -0.03759697
-0.23456667 0.23369708 0.17326742
-0.14424041 0.45176482 0.12701521
-0.41554521 -0.20323781 0.39355215
-0.21875177 0.27188704 0.04934306
-0.37111556 0.18846463 -0.19237078
-0.42207966 -0.14153903 -0.05237722
-0.09630633 -0.63196817 0.00000104
-0.39179458 -0.25764053 -0.00000135
-0.58904670 -0.69215005 -0.00000335
-0.57419678 -0.66244600 0.00000459
-0.04575404 0.68953691 0.02626935
-0.39187287 -0.65643635 -0.00000210
-0.06658213 0.40843967 0.00000277
-0.28336029 0.08738133 0.00000380
-0.41078216 0.07933862 -0.18332898
-0.14303660 -0.13510428 0.00000038
-0.35521527 0.03770247 -0.06443001
-0.10984177 0.49632732 0.00000062
-0.03094256 0.61657329 0.00000049
-0.44130106 0.05983767 -0.21997714
-0.26583007 -0.48913692 0.00000259
-0.21372590 0.10236629 -0.00000363
-0.10409420 0.02896970 0.00000948
-0.25313146 0.23947534 -0.03420702
-0.25624186 0.02346866 0.00000348
-0.39605087 -0.15616240 0.11637139
-0.33176225 0.30157283 -0.20461523
-0.16834890 0.36866355 0.00000430
-0.12371768 -0.68737647 0.00000114
-0.34182412 -0.02524487 0.06786711
-0.05783662 -0.45645302 0.00000030
-0.28525086 0.04343907 0.00000549
-0.19482424 0.34611089 -0.01112647
-0.47404143 -0.34445539 0.26733519
-0.15896223 0.28818044 -0.00000180
-0.25176784 0.21015357 -0.01214622
-0.19514324 0.36298982 -0.02306107
-0.04850061 0.08292281 0.00001004
-0.17665407 0.50463334 -0.08868058
-0.24172119 0.00767102 0.00000006
-0.06025104 0.69794725 -0.02935704
-0.20293932 0.17646744 0.00000061
-0.11929452 0.24047204 0.00000677
-0.65497866 -0.78126744 0.11798248
-0.24152210 0.42349653 -0.13972627
-0.46916690 -0.79998031 -0.00000283
-0.04857153 0.20216054 -0.00000674
-0.50562373 -0.42069484 0.09646356
-0.39258409 -0.26349784 -0.00000136
-0.23155226 0.25219294 -0.00757539
-0.44522218 -0.27487962 0.27527368
-0.20257037 -0.17569434 -0.00000005
-0.07722408 0.21570101 0.00000794
-0.03119294 -0.45696687 0.00000045
-0.47524237 -0.23258630 -0.07760509
-0.53700702 -0.49646148 0.10524363
-0.12486625 0.37109674 0.00000144
-0.24981515 -0.54343786 -0.00000103
-0.43980298 -0.26178952 0.11133639
-0.01511547 -0.17453799 0.00000129
-0.44038845 -0.31222498 0.00000424
-0.53301636 -0.48682605 0.07993373
-0.48319510 -0.48152511 0.00000424
-0.53361495 -0.36736986 -0.08175706
-0.72482453 -0.80207201 -0.09995997
-0.40684567 -0.58080273 -0.00000204
-0.15346531 0.41420341 0.00000040
-0.37697520 -0.11011732 0.30130915
-0.06951003 0.25434839 0.00000156
-0.07381491 -0.51666580 0.00000109
-0.11097359 -0.57188676 0.00000126
-0.17790396 -0.48167148 0.00000194
-0.01639152 0.72372828 0.00000206
-0.19659410 0.36441766 -0.02639614
-0.63186438 -0.72546605 0.16940703
-0.26062706 -0.78415574 0.00000200
-0.18069525 -0.41069080 -0.00000036
-0.38726058 -0.13494739 0.27490345
-0.18225862 0.30917521 0.00000098
-0.22527757 0.29936861 -0.02923890
-0.21115041 0.29023026 0.14752406
-0.09667827 -0.55526940 -0.00000012
-0.35874071 -0.06609848 0.37896055
-0.53769267 -0.14036835 -0.24196068
-0.29838257 -0.66120430 -0.00000154
-0.48378261 -0.36796293 0.03516593
-0.12459901 -0.44163203 -0.00000008
-0.47789403 0.08851772 -0.29913129
-0.55848710 -0.54831727 0.06033262
-0.47647212 -0.41647777 -0.00000216
-0.05550589 -0.12100691 0.00000094
-0.06112491 0.07864256 0.00000211
-0.18404504 0.35566806 0.08928230
-0.16193822 -0.76147271 0.00000129
-0.11695665 0.61778055 -0.06773027
-0.32707685 0.30521405 -0.19942709
-0.18433701 0.42892274 -0.05001335
-0.41675901 -0.67838619 0.00000337
-0.23026004 0.05504522 0.00000021
-0.41596956 -0.20424808 0.05804221
-0.67550454 -0.55280583 -0.18802730
-0.06264760 0.13326463 0.00000137
-0.42320088 -0.22170701 0.07987651
-0.25300965 0.18916578 0.25549555
-0.18650136 -0.50964111 -0.00000058
-0.33941608 -0.01943557 0.26179621
-0.28708462 0.18718670 -0.05428291
-0.04200841 0.51298730 0.00000221
-0.03915363 0.32561837 0.00000751
-0.32547762 0.01421729 0.22589548
-0.15379813 -0.68492261 0.00000138
-0.60044003 -0.64960282 0.17909502
-0.32434320 0.01694967 0.30455256
-0.14960877 0.23586813 -0.00000306
-0.03504625 0.22987922 0.00000867
-0.52124223 -0.31258547 -0.09860930
-0.10836053 0.24181240 0.00000277
-0.06708410 0.14715211 0.00000137
-0.25548658 -0.59028946 0.00000232
-0.50986047 -0.05104455 -0.25692866
-0.14114915 0.50693269 -0.03225584
-0.51317697 -0.67378807 0.00000411
-0.04988973 -0.31209053 0.00000061
-0.52720670 -0.21294969 -0.17574315
-0.19149433 -0.74616071 0.00000155
-0.02610072 -0.53195305 0.00000070
-0.06750154 0.24769802 -0.00000532
-0.11676499 0.62396511 -0.07160050
-0.10097541 0.46661566 0.00000462
-0.55803399 -0.34050003 -0.13980730
-0.30478471 -0.10695560 -0.00000054
-0.12259827 0.50401757 0.01157237
-0.08797510 0.46283076 0.00000303
-0.51710251 -0.50338387 -0.00000256
-0.35878989 -0.06621313 0.33238112
-0.59715635 -0.64167468 0.08899934
-0.00452957 0.51766180 0.00000608
-0.03149031 0.15027161 0.00000202
-0.04274204 0.00204219 0.00000183
-0.51138177 -0.44079622 0.00000453
-0.36958069 0.01299472 -0.07117041
-0.45191470 -0.59166067 0.00000380
-0.17703930 0.05741862 0.00000054
-0.19490395 0.32945546 0.01324507
-0.12281108 0.50350839 0.01123599
-0.21080479 0.37098755 -0.05404619
-0.58857768 -0.07451865 -0.36959492
-0.50516414 -0.41959223 0.27728278
-0.26450437 0.30069356 -0.09418856
-0.00948809 0.53346949 0.00000580
-0.37821400 -0.47615535 -0.00000168
-0.29170742 -0.58917513 -0.00000137
-0.47590793 -0.38513665 0.00000437
-0.24098243 0.21820946 0.06757524
-0.34156384 -0.02461260 0.16121782
-0.30597579 -0.06667078 -0.00000047
-0.64666013 -0.45363117 -0.20800783
-0.18969114 -0.29186867 -0.00000019
-0.36318398 -0.05277985 -0.01623995
-0.32123849 0.02446025 0.11402371
-0.20220120 0.35521773 -0.02933267
-0.55885998 -0.15186552 -0.26874934
-0.43317016 -0.24578682 0.35686816
-0.20249073 -0.25821980 -0.00000021
-0.01075217 0.07012450 -0.00001036
-0.42072122 -0.24308780 0.00000422
-0.35711640 -0.47230050 -0.00000154
-0.32980675 0.28455160 -0.18990874
-0.60917448 -0.44076659 -0.15549700
-0.16243329 -0.17879426 0.00000239
-0.17316847 -0.13029014 0.00000021
-0.27896642 0.04404835 -0.00000276
-0.26085504 0.10627630 0.00000367
-0.03665918 -0.19173568 0.00000142
-0.25007502 0.13141582 0.00000524
-0.32298587 -0.70413940 0.00000262
-0.29100334 0.28947684 -0.12987394
-0.10458692 0.61760896 -0.04741492
-0.24960302 0.19741000 0.00570718
-0.50515041 -0.53941936 0.00000430
-0.44670343 0.07661881 -0.24014847
-0.06187987 -0.27794255 0.00000145
-0.01992775 0.39538134 -0.00000399
-0.30381602 0.07517205 -0.00584161
-0.59700269 -0.64130000 0.00170162
-0.35628759 -0.06016755 0.17740397
-0.34199470 -0.02565868 0.23473178
-0.00126511 0.03394799 0.00000156
-0.14186559 -0.28545387 0.00000204
-0.09896807 0.08616600 0.00000106
-0.17264910 0.53382375 -0.10188491
-0.14926509 0.43963432 0.09661493
-0.46641620 -0.67152956 0.00000376
-0.09685255 0.38554094 0.00000562
-0.12716218 -0.63954903 0.00000126
-0.17325816 0.31121818 0.00000339
-0.10267467 0.17378098 -0.00000564
-0.01991972 0.18509314 0.00000173
-0.30080297 0.07378627 0.13949291
-0.10086838 -0.22788400 0.00000046
-0.12230716 0.50471766 0.07558427
-0.43124157 -0.47139842 0.00000387
-0.18533738 0.14899823 0.00000066
-0.20312070 -0.61013597 0.00000189
-0.37320500 0.20782893 -0.20888085
-0.43223892 0.14060380 -0.25980917
-0.24624379 0.20551324 0.08757245
-0.59270508 -0.78649209 0.00000450
-0.52564058 -0.46902549 0.27038768
-0.57802439 -0.59548497 0.06785164
-0.01009040 -0.46109955 0.00000071
-0.63589491 -0.29923762 -0.29486112
-0.57960098 -0.59929414 0.16506476
-0.18204030 -0.69178214 0.00000158
-0.05111901 0.48398032 0.00000210
-0.10817240 -0.23474568 0.00000188
-0.48089827 -0.51502589 -0.00000237
-0.15706822 -0.08515332 0.00000039
-0.12836528 0.59963673 -0.07408735
-0.55510317 -0.49764033 -0.02873097
-0.40018948 -0.14594421 -0.01365171
-0.33219798 0.12535482 -0.08612803
-0.48839584 0.03569157 -0.28054857
-0.12094276 0.03185683 0.00000083
-0.12715678 -0.30432231 0.00000016
-0.10242547 0.34974559 0.00000590
-0.36643937 -0.24968412 0.00000380
-0.09393093 0.48080590 0.00000183
-0.34159717 -0.26824897 -0.00000106
-0.18896157 0.49254601 -0.10060172
-0.08580726 -0.49731869 0.00000005
-0.09707596 -0.35390008 0.00000025
-0.54052379 -0.79258812 -0.00000325
-0.29386893 0.09052779 0.11136313
-0.51122689 -0.74788231 -0.00000299
-0.41668893 -0.64458905 -0.00000222
-0.13211053 0.52752270 -0.03142346
-0.20237380 0.42688990 -0.07809390
-0.41927678 -0.21224343 0.31721600
-0.04124963 -0.59989246 0.00000069
-0.62265992 -0.50088800 -0.13685180
-0.41241454 -0.19568001 0.40102405
-0.62762955 -0.43116036 -0.19213112
-0.17097716 -0.63610130 0.00000160
-0.31004337 0.22054145 -0.11433914
-0.13683663 0.56426945 -0.06399764
-0.12986262 0.24581294 0.00000118
-0.10557764 -0.78940574 0.00000082
-0.21143160 0.37159414 -0.05548264
-0.26626153 0.15717988 0.17378024
-0.49050293 -0.65548989 -0.00000269
-0.05748668 0.17636253 0.00000148
-0.14304493 0.58510254 -0.08822788
-0.12094553 0.45042680 0.00000010
-0.42190733 -0.06973754 -0.10066266
-0.30034320 -0.48527607 0.00000286
-0.11565792 0.57821176 -0.03884499
-0.08204704 -0.05353257 0.00000202
-0.19949052 -0.04188403 0.00000022
-0.00042111 0.30822639 -0.00000621
-0.05783310 -0.66643551 0.00000069
-0.62462995 -0.48597101 -0.15015872
-0.08512598 -0.19853191 0.00000061
-0.17413576 0.22375823 0.00000087
-0.33925669 -0.25596105 0.00000358
-0.36988453 -0.09298834 0.05314172
-0.12465017 0.03236361 -0.00000763
-0.27486430 -0.28463242 0.00000304
-0.11874748 0.40414344 0.00000154
-0.12887580 0.50989689 -0.01421858
-0.01797660 0.00978425 0.00000141
-0.56247673 -0.55795361 0.21467401
-0.21274417 -0.78423781 0.00000163
-0.19701893 0.32304778 0.00000092
-0.49490696 0.05340388 -0.30316137
-0.44179415 -0.48703358 0.00000392
-0.13992627 0.35982922 0.00000133
-0.47424713 -0.34494211 0.03420718
-0.07094212 0.06655060 -0.00000861
-0.13574973 -0.19480265 0.00000216
-0.39429004 -0.15191781 0.26843039
-0.07908710 -0.25705632 0.00000161
-0.15191831 0.57003188 -0.09252391
-0.27881024 0.12687768 0.26532803
-0.42397180 -0.22356845 0.08574086
-0.22386590 -0.61660462 0.00000203
-0.07531572 0.47937641 0.00000297
-0.02966167 -0.06010011 0.00000121
-0.33659412 -0.01261954 0.22044611
-0.58001372 -0.68968249 0.00000458
-0.57549566 -0.17291989 -0.28167350
-0.06938873 0.20545894 -0.00000605
-0.32902890 0.00566048 0.01787683
-0.28610861 0.36118878 -0.17038909
-0.13978270 0.40096913 0.00000141
-0.11261490 0.32633210 0.00000143
-0.11147196 -0.41285320 0.00000157
-0.12667844 0.38991461 0.00000319
-0.13771128 -0.33830299 0.00000190
-0.42351135 -0.22246584 0.29899268
-0.36059408 0.04402451 -0.07748966
-0.46847271 -0.33100936 0.22283625
-0.49664108 -0.69245739 0.00000395
-0.54825242 -0.63125708 -0.00000299
-0.12940412 0.12975832 -0.00000566
-0.26128203 -0.74566676 0.00000207
-0.39866789 -0.16248464 0.21525325
-0.56796332 -0.67230711 -0.00000319
-0.47620350 -0.69467986 -0.00000268
-0.49483200 -0.14778301 -0.16695554
-0.32811103 -0.79852765 0.00000248
-0.54712996 -0.52090245 0.15114721
-0.11202644 0.27762778 0.00000134
-0.26029055 0.17159304 0.12199571
-0.42979669 -0.08706490 -0.10182538
-0.42527956 0.12783633 -0.23980926
-0.28660164 0.10807053 0.23139090
-0.34732197 -0.03851991 0.11508614
-0.55336328 -0.67714806 0.00000441
-0.14178802 0.49486495 -0.02513617
-0.03864504 0.55520771 0.00000494
-0.38923059 -0.58725183 -0.00000195
-0.16165822 0.40971734 0.09851443
-0.51482478 -0.44291086 0.15878138
-0.51079523 -0.08424350 -0.23600130
-0.69243353 -0.80904443 -0.04235079
-0.59100679 -0.66346374 -0.00000331
-0.02741684 -0.19389887 0.00000097
-0.41534159 -0.20273402 0.10521891
-0.38453424 -0.54900344 0.00000337
-0.15909914 -0.70493931 -0.00000078
-0.31517441 0.03910238 0.08493304
-0.59160759 -0.28275211 -0.23369265
-0.14098498 0.45962542 0.07141588
-0.31270187 -0.79312726 -0.00000187
-0.11630914 0.58241256 -0.04274885
-0.42003838 -0.21408386 0.35847921
-0.54953625 -0.52671257 0.16979257
-0.19395509 -0.71788785 0.00000162
-0.65368610 -0.62561115 -0.10315301
-0.07736253 -0.36930619 0.00000139
-0.40685870 0.05565757 -0.16090665
-0.24881167 0.14913719 0.00000366
-0.32741634 0.00953108 0.29790537
-0.55306500 -0.53523005 0.12944167
-0.06292906 0.58190080 0.00000221
-0.26236852 0.12318469 0.00000507
-0.33032802 0.00252522 0.00490295
-0.46118520 -0.31341575 0.22392010
-0.07282897 0.58940289 0.00000383
-0.31383861 0.04232504 0.11242548
-0.35212499 -0.05011905 0.19953572
-0.19816686 0.49064592 -0.11434898
-0.19571190 0.21550503 -0.00000205
-0.14889960 0.48299379 -0.02872152
-0.33411976 -0.00665475 0.32982621
-0.29932096 -0.41652848 0.00000298
-0.32715818 0.27608342 -0.17985493
-0.29908489 -0.25672313 0.00000328
-0.03366096 -0.31080818 0.00000071
-0.61531442 -0.17932796 -0.34236148
-0.26874732 0.15124670 -0.00002742
-0.04590879 -0.02954032 0.00000179
-0.07364880 0.02059995 -0.00000939
-0.17957235 -0.10200116 0.00000266
-0.13438739 0.15622050 0.00000098
-0.52028651 -0.02362565 -0.29250119
-0.14506445 -0.18827488 0.00000224
-0.67820026 -0.72242501 -0.07769823
-0.16521103 0.40113442 0.16359074
-0.56621609 -0.22004243 -0.23464641
-0.20831641 -0.03665630 0.00000017
-0.24598910 0.20611611 0.21200068
-0.32271373 0.02088291 0.27905237
-0.58064987 -0.64044177 -0.00000321
-0.18612335 -0.20166605 0.00000253
-0.22306586 0.43936453 -0.12032114
-0.15276432 0.25626071 0.00000589
-0.32401348 0.01774927 0.25952876
-0.31394145 0.04206282 0.23955163
-0.26357509 0.02474472 0.00000353
-0.16436973 0.40317407 0.06326936
-0.58177661 -0.69847738 -0.00000332
-0.19448498 -0.29014422 0.00000242
-0.44879116 0.03793919 -0.21739379
-0.09609804 -0.43902507 0.00000140
-0.38081513 -0.11937961 0.10908464
-0.20533137 -0.21077880 -0.00000013
-0.03746852 0.33134734 0.00000748
-0.64539961 -0.75814145 0.01350128
-0.00291972 0.39906156 0.00000223
-0.28903458 0.30760801 -0.13892338
-0.28647699 0.29281902 -0.12474318
-0.24055749 0.16186505 0.00000510
-0.16654691 0.22785884 0.00000092
-0.13453890 -0.14835636 0.00000041
-0.14210223 0.56623645 -0.07392739
-0.14959720 0.13213656 -0.00000501
-0.32228874 0.02191977 0.02373559
-0.42649108 -0.22965379 0.16226374
-0.61822600 -0.69254089 0.14954448
-0.27921065 0.12591417 0.15832968
-0.51976552 -0.62798875 -0.00000281
-0.24339396 0.11819782 0.00000025
-0.00316921 -0.34528348 0.00000088
-0.37206133 -0.62003136 -0.00000191
-0.04914856 0.68134091 0.02601130
-0.63465715 -0.68475058 -0.03207734
-0.21053042 0.29172288 0.17392460
-0.02114983 0.58991515 0.00000492
-0.44457049 0.05469630 -0.22183836
-0.05676980 0.17358690 0.00000225
-0.47972314 -0.06492863 -0.19832643
-0.19654765 0.32679127 -0.00086881
-0.03402569 -0.31593603 0.00000070
-0.00850770 0.09979591 -0.00000987
-0.37848254 0.06844753 -0.12321685
-0.45692258 0.08190701 -0.26041337
-0.03939649 0.03013225 0.00000185
-0.21455570 -0.68802095 -0.00000109
-0.44696194 -0.27907792 0.23132754
-0.30777095 -0.18311634 -0.00000070
-0.11021244 0.17983294 -0.00000530
-0.01404270 0.24131761 0.00000187
-0.02299411 0.52801798 0.00000235
-0.02084856 0.75097109 -0.00087974
-0.56936937 -0.57458903 0.04919295
-0.57385774 -0.58542424 0.03239176
-0.34005268 0.23426952 -0.17262754
-0.44040303 -0.37741774 0.00000411
-0.31475718 0.04010128 0.05569901
-0.44352084 0.00114988 -0.18390527
-0.35764231 -0.67607288 0.00000293
-0.59088411 -0.74947428 -0.00000347
-0.19118036 0.42058068 -0.05554787
-0.41379728 0.07849185 -0.18768230
-0.13068390 -0.22265649 0.00000029
-0.29170393 0.17151674 -0.05122664
-0.53173698 -0.47051338 -0.00892367
-0.18385087 0.35613575 0.11503355
-0.33427183 -0.00701360 0.10670369
-0.09393317 0.03752391 -0.00000846
-0.13569254 0.41011109 0.00000145
-0.05123043 0.22172652 0.00000842
-0.39345599 -0.24891185 -0.00000134
-0.18391862 -0.21310072 0.00000249
-0.09024171 0.50871728 0.00000313
-0.32818024 0.00768250 0.35088213
-0.23296084 0.22991406 0.00000369
-0.45543937 -0.03147987 -0.18129336
-0.38684047 0.20263181 -0.22763115
-0.20787372 0.11117791 0.00000328
-0.25015880 0.19605980 0.11126636
-0.04666849 0.58053090 0.00000029
-0.29304477 0.35090709 -0.17476099
-0.02058806 0.75029256 0.02076740
-0.34438512 -0.49576171 0.00000317
-0.34995535 -0.04488021 0.17940836
-0.23682168 0.06088699 -0.00000371
-0.59246913 -0.23302368 -0.26873604
-0.60673184 -0.29401787 -0.25076977
-0.04391457 0.06329656 0.00001036
-0.29148851 0.09627279 0.23064009
-0.45101521 -0.28886331 0.22855804
-0.55429383 -0.17086518 -0.24844154
-0.19266716 0.33486124 0.03420662
-0.30368042 0.24471987 -0.12030073
-0.25939751 0.34552854 -0.11617667
-0.20386668 0.20326385 0.00000541
-0.17177978 0.39217321 -0.00465251
-0.25656896 0.18059242 0.01230205
-0.31400278 -0.38205474 0.00000315
-0.29615766 0.33805915 -0.17115383
-0.29366101 0.09103544 0.13758361
-0.03811497 -0.76541440 -0.00000017
-0.45735436 -0.33148380 0.00000433
-0.26292669 0.16522862 0.12649931
-0.04092398 -0.05923136 0.00000170
-0.05211346 0.59506356 0.00000420
-0.36300894 0.11829790 -0.13166867
-0.52560809 -0.46894704 0.22742383
-0.09058102 0.57619289 0.00000360
-0.51043750 -0.35658659 -0.05120303
-0.08245632 -0.67964373 0.00000085
-0.55343447 -0.53330574 -0.00188180
-0.00009617 -0.01489013 0.00000147
-0.18514936 0.35300926 0.05078886
-0.08088718 -0.39787617 0.00000136
-0.40555454 0.15147255 -0.22358670
-0.19744017 0.32332697 0.17627136
-0.47985705 0.07741979 -0.29483021
-0.69023388 -0.76407438 -0.06917678
-0.25165745 0.06490977 -0.00000319
-0.07212329 0.03652093 0.00000113
-0.51540434 -0.24960379 -0.13167735
-0.50351454 -0.67429842 -0.00000280
-0.24710598 0.20342698 0.04039773
-0.10704968 -0.18040647 0.00000052
-0.66502553 -0.80552210 0.03512129
-0.53027936 -0.48952379 0.00000458
-0.50963129 -0.43037236 0.15229471
-0.15801174 0.26743538 -0.00000222
-0.05610915 0.04813108 -0.00000940
-0.60974169 -0.32152114 -0.23708139
-0.09846551 -0.73251184 0.00000087
-0.12352084 0.50179342 0.02981800
-0.03206986 0.19993085 -0.00000728
-0.18611075 0.07741084 0.00000052
-0.32120227 0.02454186 0.04448594
-0.12358937 -0.36498963 0.00000007
-0.08565834 0.63246096 -0.02655123
-0.48475268 -0.73400903 -0.00000280
-0.41523180 -0.20246782 0.07809463
-0.31378243 -0.48876101 0.00000295
-0.10540972 -0.12289696 0.00000206
-0.12572051 -0.14574033 0.00000047
-0.19983511 -0.74539344 0.00000161
-0.41301285 -0.30133400 0.00000405
-0.18174515 0.41755504 -0.03809144
-0.30056699 -0.14069791 0.00000350
-0.24803559 -0.37474862 0.00000267
-0.35852521 -0.29808195 -0.00000122
-0.32569502 0.01369294 0.10127567
-0.22968278 0.24548655 0.13325204
-0.25470855 0.00388978 0.00000343
-0.37316205 -0.52784918 0.00000333
-0.34980142 -0.70930801 -0.00000194
-0.39542795 -0.15466082 0.17032736
-0.19574571 0.32742858 0.04046028
-0.23480876 0.23311055 0.15030311
-0.17694754 0.28185535 0.00000336
-0.01962984 -0.53732978 0.00000037
-0.12467664 0.01091853 0.00000077
-0.31230952 0.04601526 0.12839221
-0.12110927 0.14988051 -0.00000553
-0.60949890 -0.68362135 0.00000482
-0.48153777 -0.75629083 0.00000371
-0.54786414 -0.29059741 -0.15695468
-0.18086737 0.22652951 0.00000083
-0.23715422 -0.27959768 -0.00000046
-0.03779067 -0.21550282 0.00000087
-0.35379523 0.10463570 -0.10738507
-0.11546285 -0.49021921 0.00000145
-0.04769787 -0.26181556 0.00000072
-0.15146437 0.34801911 -0.00000090
-0.37194743 -0.04004679 -0.03916304
-0.17708372 0.49225930 -0.08101133
-0.03015549 -0.12362641 0.00000109
-0.38264005 -0.12378174 0.02377106
-0.10718341 0.54122901 0.09349089
-0.03410079 -0.37992121 0.00000104
-0.45123775 -0.37489309 0.00000420
-0.05221505 0.36507958 0.00000258
-0.34524747 -0.12436606 -0.00000082
-0.10500344 0.09013862 0.00000246
-0.17397315 -0.17477131 0.00000248
-0.32746549 0.00941610 0.16138777
-0.22861920 0.24805250 0.17444652
-0.11109241 0.32503499 0.00000144
-0.26779814 0.15346945 0.08846882
-0.07123220 0.57110909 0.00000086
-0.00693613 0.50988596 0.00000612
-0.62781085 -0.71568015 0.07823142
-0.42816214 0.06028103 -0.19882168
-0.45471931 -0.29780550 0.22086079
-0.49933824 -0.03417504 -0.25115689
-0.12219990 0.25659147 0.00000653
-0.45459140 0.11453812 -0.27867939
-0.23792839 0.33559676 -0.07440208
-0.61921394 -0.59806954 -0.06549061
-0.30327553 0.06782607 0.11450062
-0.00683717 -0.19584804 0.00000109
-0.06482945 0.46498673 0.00000286
-0.39681618 -0.67954436 -0.00000217
-0.26385147 0.40183322 -0.16153613
-0.08507694 0.07913852 -0.00000795
-0.41842507 -0.60516326 0.00000352
-0.48345213 -0.36716851 0.11602740
-0.57690213 -0.43743387 -0.10505176
-0.35825817 0.17923118 -0.16512760
-0.39076938 -0.14342306 0.40266565
-0.22900044 -0.49710166 0.00000230
-0.69183373 -0.70263724 -0.11334557
-0.16719990 -0.40903490 -0.00000028
-0.26320745 0.18130403 -0.01131243
-0.07684522 -0.62754585 0.00000090
-0.33205426 -0.12446197 0.00000377
-0.41854775 -0.21047656 0.15627273
-0.31525951 0.03887816 0.30009196
-0.19561972 0.32413805 -0.00000002
-0.31933981 0.02902566 0.34340426
-0.03439166 0.10307645 0.00001011
-0.70286521 -0.79009896 -0.07220004
-0.15929572 -0.02944474 0.00000265
-0.25574181 -0.66043584 0.00000219
-0.04761923 0.02643094 0.00000191
-0.04659908 0.68671670 0.00000329
-0.30923391 -0.14121679 -0.00000063
-0.31604021 0.03700381 0.18945155
-0.03459820 0.09080726 -0.00000925
-0.26494235 0.16036093 0.21965655
-0.30495484 -0.41587137 -0.00000112
-0.41894844 0.01331924 -0.15200720
-0.63288275 -0.72792448 0.05546702
-0.05431885 0.52481902 -0.00000052
-0.27473545 0.13671260 0.29477744
-0.58359553 -0.35612733 -0.17097793
-0.32486794 -0.18321861 -0.00000080
-0.62561554 -0.71038032 0.08310848
-0.20416265 -0.11857923 0.00000282
-0.00301272 0.76068892 0.00000291
-0.18406330 0.35562973 0.06924952
-0.65040176 -0.51418519 -0.17315878
-0.48366230 -0.03220951 -0.22688771
-0.37127832 -0.11584594 0.00000408
-0.42685985 -0.46409985 0.00000385
-0.33962823 -0.01995311 0.29459707
-0.36550548 -0.08242972 0.38155917
-0.39668396 -0.16885762 0.00000418
-0.08398702 0.59723137 0.07839234
-0.31437643 -0.39642511 0.00000313
-0.41909499 0.11009480 -0.21770964
-0.26192700 0.01994231 0.00000624
-0.06265537 0.13293215 0.00000222
-0.54793027 -0.04447317 -0.32354149
-0.13174396 -0.21938194 0.00000208
-0.25267831 0.21098666 -0.01419653
-0.17014943 0.38921851 0.01043192
-0.07545898 -0.19349501 0.00000068
-0.00558381 0.23484348 -0.00000743
-0.26703596 0.15530814 0.20009412
-0.58493385 -0.61216854 0.22557538
-0.13953733 -0.32318180 0.00000005
-0.09936794 0.01869903 -0.00000865
-0.02351291 0.03525036 -0.00001063
-0.45981563 0.05987321 -0.25023344
-0.09203880 -0.27191041 0.00000168
-0.05365949 0.60924237 0.00000401
-0.32472484 0.01604793 0.05957342
-0.31550772 -0.33378946 0.00000325
-0.50481538 -0.44491653 -0.00000238
-0.11264266 0.36911748 0.00000304
-0.14552936 0.03303094 0.00000068
-0.27680095 0.13173555 0.06792197
-0.49551901 0.03894370 -0.29438020
-0.28985514 -0.60282823 0.00000256
-0.26033270 0.33284769 -0.10912798
-0.44174707 0.08147612 -0.23534037
-0.50723196 -0.63380911 -0.00000275
-0.20193881 -0.12636740 0.00000004
-0.02733743 0.41409830 -0.00000341
-0.16224503 -0.68851804 -0.00000077
-0.50294176 -0.41421772 0.04334448
-0.60581484 -0.22235428 -0.29774591
-0.06335669 -0.66360782 0.00000073
-0.25299294 0.23028209 -0.02776225
-0.03946980 0.12550039 0.00000203
-0.34225151 -0.02626897 0.11364434
-0.27742280 0.13022855 0.24834935
-0.13922448 -0.52056225 0.00000157
-0.20192127 0.31250939 0.12441696
-0.51531806 -0.44410516 0.23896865
-0.03289083 0.65156243 0.00000297
-0.54730513 -0.52132702 0.19761809
-0.20109386 0.48146519 -0.11291832
-0.48784232 -0.51408395 0.00000422
-0.13376352 0.07534315 0.00000083
-0.09654545 -0.33387075 0.00000160
-0.36816249 -0.70750499 -0.00000205
-0.29455218 0.23186672 -0.09670309
-0.07006338 0.39981806 0.00000602
-0.48890666 -0.41577812 -0.00000223
-0.30969914 0.05230578 0.27101720
-0.18272175 -0.71655097 -0.00000095
-0.21024677 0.02355926 0.00000729
-0.29810574 0.08029644 0.17630037
-0.36886945 -0.09054131 0.26113321
-0.34930884 -0.04331007 0.15630922
-0.47233330 -0.71035037 0.00000373
-0.49726070 -0.77267149 0.00000380
-0.56872995 -0.51452795 -0.03956010
-0.37910267 -0.11525454 0.32586941
-0.02563850 0.52838982 0.00000268
-0.02713510 -0.04823171 0.00000161
-0.31820111 -0.47517409 -0.00000131
-0.02402046 0.18797911 0.00000203
-0.08770644 0.37526585 0.00000593
-0.28454091 0.16242988 -0.03338287
-0.40147817 0.07132089 -0.16271519
-0.31564449 -0.12089829 -0.00000063
-0.27301647 0.37982883 -0.16161836
-0.41149336 -0.19345341 0.33819943
-0.13262624 -0.24533884 0.00000024
-0.29318342 0.09217470 0.30909001
-0.15852883 0.14495789 0.00000081
-0.01141152 0.13919986 -0.00000905
-0.08238369 0.43543619 0.00000536
-0.30115541 0.16906103 -0.06500386
-0.55963206 -0.68668124 0.00000443
-0.24225822 0.42200151 -0.13991709
-0.60450599 -0.33736297 -0.21781620
-0.33799261 0.10167772 -0.07957921
-0.10677334 -0.73784004 0.00000092
-0.07771353 0.45469162 0.00000294
-0.10883568 0.29185170 0.00000642
-0.01354050 0.54444790 0.00000262
-0.43528252 -0.25087277 0.03246393
-0.05630442 -0.31978306 0.00000056
-0.08040377 0.17706262 0.00000135
-0.45892999 -0.52851735 0.00000397
-0.02015069 0.37946500 0.00000236
-0.26863588 -0.63613368 0.00000233
-0.22296904 -0.11612516 0.00000296
-0.41251930 -0.53362550 0.00000361
-0.24833108 0.31694806 -0.07877265
-0.22486681 0.10213337 0.00000610
-0.04282105 -0.06005431 0.00000171
-0.11994895 0.17415102 -0.00000511
-0.27891350 -0.12663217 -0.00000042
-0.56426898 -0.21990172 -0.23156204
-0.12791181 -0.30133677 0.00000016
-0.53127400 -0.48261663 0.00944242
-0.13520236 0.58491765 -0.07529620
-0.15765305 -0.67726541 0.00000142
-0.37855607 -0.32200544 -0.00000139
-0.53716396 -0.78811443 0.00000407
-0.17847632 0.47467177 -0.07138875
-0.41238061 -0.43260175 -0.00000180
-0.19208978 0.05144447 0.00000736
-0.16358830 0.01969878 0.00000832
-0.07783984 0.61207221 0.07291765
-0.10408199 0.20247440 0.00000752
-0.33706071 -0.01374620 0.09768476
-0.07882635 -0.00875140 0.00000208
-0.26581230 0.19961439 -0.02795635
-0.51519240 -0.65226436 0.00000416
-0.30972390 0.13798494 -0.05797134
-0.30295979 0.06857901 0.14480284
-0.47579010 -0.71313629 -0.00000271
-0.47125094 -0.38718763 -0.00000207
-0.24171116 -0.77798860 0.00000186
-0.08050245 -0.40476434 0.00000135
-0.41173729 0.16979716 -0.24607774
-0.01790074 0.58388218 -0.00000051
-0.19204565 -0.46935389 -0.00000054
-0.07603652 0.61642872 0.03603118
-0.13393928 -0.04812435 0.00000242
-0.37235995 0.16093276 -0.17577818
-0.49484267 -0.39466583 0.06954271
-0.01337428 0.20326644 -0.00000779
-0.06627464 0.58332058 0.00000309
-0.09983876 0.36490782 0.00000579
-0.14228321 0.30162043 0.00000314
-0.08875648 -0.16431542 0.00000186
-0.16636004 0.05556087 0.00000060
-0.16414818 0.40370798 0.07531933
-0.49722269 0.03635995 -0.29541397
-0.47110193 -0.13035855 -0.13999124
-0.43359598 -0.60523887 -0.00000225
-0.39371655 -0.15053849 0.40784224
-0.63425251 -0.74316655 -0.00000372
-0.49258662 -0.38922816 0.31523398
-0.50197137 0.02056879 -0.29248778
-0.14427121 -0.37657856 -0.00000008
-0.45400017 -0.29607016 0.23972455
-0.34225359 0.25817819 -0.19239486
-0.36753009 0.01345993 -0.06814187
-0.41245630 -0.73088001 0.00000324
-0.42879168 -0.53233968 -0.00000209
-0.31397233 0.04198546 0.30581871
-0.51913086 -0.05159028 -0.27169985
-0.30989450 0.24493405 -0.13059531
-0.00786159 0.33113696 0.00000811
-0.39997630 -0.52043821 0.00000354
-0.19704823 0.02951165 0.00000751
-0.06718743 0.43102889 0.00000190
-0.34321505 -0.02859423 0.10240798
-0.55802754 -0.54720806 0.06650386
-0.60746650 -0.66656576 0.10078212
-0.10909088 0.37849027 0.00000155
-0.40548709 -0.17894999 0.26892144
-0.06509672 0.06010808 -0.00000891
-0.62075097 -0.44627565 -0.17067461
-0.44244197 -0.26036094 -0.00525642
-0.01299839 0.57519602 0.00000250
-0.52949516 -0.50308001 -0.00000264
-0.07740607 0.34762462 0.00000168
-0.12178207 -0.68178562 0.00000114
-0.18025802 0.52147981 -0.10596047
-0.03870306 -0.50933362 0.00000031
-0.13193305 0.30157915 0.00000127
-0.17103608 0.38707837 0.08744705
-0.02107427 0.19156969 0.00000940
-0.37698655 0.17333067 -0.19171967
-0.27967009 0.12479951 0.29441322
-0.22285643 0.34222532 -0.05427374
-0.36156731 0.03772892 -0.07481549
-0.47138656 -0.33803721 0.06144858
-0.31483863 0.10347936 -0.04298830
-0.03879879 -0.48540670 0.00000036
-0.00071181 -0.65201487 0.00000027
-0.13131745 0.24247651 -0.00000349
-0.39914180 -0.04916879 -0.07740022
-0.52348836 0.01539458 -0.32412413
-0.31303297 -0.74253295 -0.00000178
-0.32481997 0.01582189 0.01427380
-0.54609460 -0.27938973 -0.16164601
-0.29074942 -0.39144346 -0.00000099
-0.19995458 -0.22572757 0.00000259
-0.37671323 -0.00439352 -0.07106143
-0.24455855 -0.68550595 -0.00000126
-0.57344607 -0.58443314 0.09772389
-0.25980916 0.27448328 -0.06879510
-0.03647105 0.63533742 0.00000408
-0.19671479 0.34394162 -0.01274270
-0.12377315 -0.28107351 0.00000191
-0.25363121 0.19256321 -0.00329049
-0.24751616 0.17671807 0.00000034
-0.04969879 0.28329489 0.00000173
-0.11305044 0.39761756 0.00000156
-0.11145419 -0.21316847 0.00000043
-0.20372538 -0.76023196 0.00000161
-0.21251940 0.28692265 0.17998120
-0.07270121 0.42841351 0.00000564
-0.61408798 -0.68255104 0.08314048
-0.49726030 0.00155978 -0.27193701
-0.30538942 -0.15042609 0.00000352
-0.24308179 -0.24980881 0.00000287
-0.23674236 0.11148796 -0.00000277
-0.13088229 -0.18220028 0.00000215
-0.47254551 -0.34083587 0.07808193
-0.00474356 0.70804569 0.00000393
-0.24566314 0.04364929 0.00000010
-0.18298002 0.47257543 -0.07732525
-0.64559440 -0.75861237 0.05924369
-0.08626116 -0.28929015 0.00000044
-0.30104979 -0.08570288 -0.00000048
-0.23713812 0.22750072 0.02846460
-0.17317534 -0.05881984 0.00000270
-0.63426610 -0.64451226 -0.05865616
-0.51570343 -0.51290475 -0.00000257
-0.03286073 -0.36887613 0.00000106
-0.11028403 0.45306033 0.00000168
-0.12211949 0.47022288 0.00000413
-0.53777888 -0.35390264 -0.09766589
-0.19220715 -0.00943290 0.00000032
-0.10292994 -0.42155110 0.00000009
-0.03234836 -0.55724386 0.00000070
-0.27113545 0.07713152 0.00000001
-0.40571344 0.04781609 -0.15372910
-0.60174127 -0.70605166 -0.00000346
-0.41480954 -0.67158734 -0.00000226
-0.16010158 0.43795097 -0.01654397
-0.49781476 -0.35391385 -0.03239844
-0.13484192 0.47445381 0.12618892
-0.45143125 0.08094338 -0.25079423
-0.21911687 -0.35937692 0.00000248
-0.44920967 -0.56757836 0.00000382
-0.17844245 -0.53370555 0.00000185
-0.35585567 -0.05911988 0.06139729
-0.17975388 0.29939459 0.00000098
-0.60829862 -0.66857439 0.08403327
-0.63203552 -0.63608836 -0.06071166
-0.22430879 0.22517900 0.00000473
-0.22242508 0.26300670 0.16959946
-0.02773234 0.54645238 0.00000527
-0.23537962 0.10480180 0.00000585
-0.39435166 -0.15206498 0.23120592
-0.39458913 -0.15262996 0.03490373
-0.14916483 -0.47407460 -0.00000029
-0.27975557 -0.48856538 -0.00000110
-0.50240067 -0.41291756 0.18845160
-0.09139857 -0.46317406 0.00000008
-0.38417897 -0.59894012 0.00000328
-0.07140987 0.61990969 0.00000320
-0.22303232 0.26154357 0.10140679
-0.07732276 -0.05750393 0.00000093
-0.55080854 -0.68761462 -0.00000311
-0.01549159 0.04508476 0.00000149
-0.08121526 -0.17707274 0.00000068
-0.57377955 -0.28585676 -0.20248015
-0.11637413 -0.38630426 0.00000007
-0.17965516 0.39190191 -0.01732604
-0.30403462 0.06597921 0.29282397
-0.27271191 0.14160411 0.14544470
-0.24042258 0.21955989 0.17256385
-0.05455953 0.54675478 0.00000294
-0.62944739 -0.41805491 -0.20396415
-0.41974037 0.14930646 -0.24528581
-0.34806017 -0.03302561 -0.00490521
-0.15026984 0.12876553 0.00000083
-0.02460964 -0.50543748 0.00000040
