ply
format ascii 1.0
element vertex 1380
property float x
property float y
property float z
end_header
-0.16091830 -0.40556266 0.75710397
-0.18213362 0.19667504 0.00000000
-0.01723003 0.39299489 0.00000000
-0.11433243 0.02132096 0.53792356
-0.36204104 -0.21208960 0.00000000
-0.10965695 0.08598804 0.00000906
-0.05738857 0.46449175 0.27000384
-0.22154981 0.02446748 0.00000829
-0.08713391 -0.76669747 0.40995275
-0.73889800 -0.32972591 -0.00000116
-0.66649171 -0.05046561 -0.00000134
-0.43890360 -0.31494683 0.00000000
-0.34695584 -0.33037055 0.00000000
-0.07355311 -0.63639666 0.00000000
-0.26549378 0.07282727 0.00000000
-0.36976516 -0.20519039 0.00000000
-0.53208736 0.08527356 -0.00000101
-0.17850478 0.49173964 0.00000172
-0.15226296 0.37111998 0.00000000
-0.41470845 -0.76691248 0.00000000
-0.03285618 0.36274067 0.15458371
-0.12699399 0.12813666 0.59749222
-0.03566902 0.24740498 0.16778935
-0.16488943 -0.07739510 0.00000000
-0.07322134 -0.41414930 0.34449609
-0.54796727 -0.02195853 -0.00000089
-0.14102775 0.59513239 -0.00000024
-0.21352167 0.14312802 0.00000663
-0.11720982 0.14341959 0.55146286
-0.12987239 0.15263585 0.61104008
-0.68868966 -0.41728838 -0.00000079
-0.06196318 -0.63968883 0.00000000
-0.11221493 0.00318569 0.00001026
-0.47995253 0.11866362 -0.00000084
-0.18454337 -0.32877829 0.00000000
-0.17453726 0.49136093 -0.00000020
-0.67481896 -0.62165645 -0.00000037
-0.03418098 0.65378307 0.00000000
-0.11644346 -0.79936152 0.54785004
-0.00834999 -0.32223976 0.03928552
-0.06814500 -0.20649145 0.32061263
-0.04375586 0.53066213 0.00000338
-0.34296075 0.27906635 -0.00000054
-0.14289074 -0.00469679 0.67228950
-0.01131693 -0.66957143 0.00000000
-0.15782415 -0.78001043 0.74254145
-0.14076297 -0.09201338 0.66227750
-0.70790657 -0.59659914 -0.00000051
-0.09948389 -0.72166815 0.46805768
-0.04850955 0.14622230 0.22819863
-0.08390646 0.30125886 0.39477290
-0.05704211 0.33536022 0.26837710
-0.16132961 -0.48494390 0.75903813
-0.02904598 0.30243664 0.13665725
-0.06270856 0.10305218 0.29500424
-0.02721221 -0.00110747 0.12802960
-0.01817643 0.56490230 0.08551752
-0.38262327 0.34861859 0.00000019
-0.12546900 -0.33355024 0.59031722
-0.58797254 -0.42982301 -0.00000034
-0.56004655 -0.19079914 -0.00000064
-0.16133713 0.41665092 0.00000331
-0.09288363 -0.22008807 0.43700498
-0.63006772 0.03283760 0.00000071
-0.06995282 -0.41338126 0.32911816
-0.08202268 -0.14194196 0.38590522
-0.14810812 0.29562223 0.00000533
-0.24068288 -0.51945119 0.00000000
-0.49408526 -0.57774328 0.00000000
-0.03104639 -0.07177565 0.14606886
-0.00192005 0.06399368 0.00903356
-0.02849813 -0.35453969 0.13407967
-0.11315575 0.02130080 0.53238729
-0.13538708 0.27075418 0.00000590
-0.14740909 -0.17823196 0.69354648
-0.06555212 0.21536307 0.30839413
-0.05228807 0.35800681 0.24599472
-0.18517698 -0.46464577 0.00000000
-0.13402168 -0.14165576 0.63055938
-0.01216210 0.42020752 0.05719843
-0.40819030 0.12930359 0.00000336
-0.00725269 0.04945868 0.03412287
-0.19209639 -0.64035356 0.00000000
-0.52416601 -0.45497505 -0.00000002
-0.53991397 -0.00287543 -0.00000088
-0.19645221 0.46729984 0.00000178
-0.10445486 -0.39301755 0.49144559
-0.08367499 -0.33759831 0.39367903
-0.04619171 0.33221417 0.00000000
-0.11889296 0.20934155 0.55938265
-0.29223745 -0.70423385 0.00000000
-0.14248611 -0.25422627 0.67038318
-0.10468150 0.65389848 -0.00000019
-0.08795390 -0.36978438 0.41381068
-0.04801897 0.36412577 0.22590766
-0.10058361 -0.01789986 0.47323529
-0.05854443 -0.12019157 0.27544327
-0.03917754 0.44883635 0.18432586
-0.12774522 0.55825522 -0.00000012
-0.46869865 0.08432624 0.00000295
-0.70829242 -0.05244550 -0.00000152
-0.11811404 -0.78673006 0.00000000
-0.01991296 -0.14147122 0.00000000
-0.11465857 0.20521708 0.53945653
-0.02136205 -0.36639417 0.10050543
-0.12388441 -0.26738499 0.58286243
-0.10966776 0.23632633 0.51597861
-0.13746255 -0.09632822 0.64674906
-0.02738685 0.58114350 0.12885228
-0.00275016 0.19476163 0.01289913
-0.25635324 0.21010086 0.00000493
-0.06980148 0.28202796 0.32840910
-0.18877507 0.23167512 0.00000568
-0.02581618 0.60073634 0.00000000
-0.03097405 0.43932978 0.14572854
-0.07585018 0.38859520 0.00000000
-0.11216680 -0.09521831 0.52773311
-0.07548460 0.62918959 -0.00000002
-0.60886036 0.04363554 0.00000094
-0.12752342 0.36701106 0.00000000
-0.01446917 0.52534570 0.06807541
-0.36018091 -0.01029651 -0.00000010
-0.15435553 0.09297852 0.00000828
-0.51422484 0.28565927 -0.00000128
-0.04546210 0.05807996 0.21385415
-0.43106511 0.31057779 -0.00000010
-0.58416228 0.21338567 -0.00000146
-0.01449964 -0.65534503 0.06821874
-0.31536890 -0.45604206 0.00000000
-0.50366247 -0.71573968 0.00000000
-0.09658492 -0.54104684 0.45441840
-0.08886986 -0.60649495 0.41812016
-0.13162261 -0.62936795 0.61926683
-0.02332952 0.61727344 0.10976299
-0.66284489 -0.39266522 -0.00000072
-0.28709921 0.19008737 -0.00000015
-0.08916762 -0.29589310 0.41952105
-0.70047289 -0.63712177 -0.00000041
-0.11847374 0.43958189 0.00000362
-0.42864392 0.06881921 0.00000398
-0.79447476 -0.14216085 -0.00000164
-0.29421999 -0.54209721 0.00000000
-0.25300285 0.08356032 0.00000693
-0.07846766 0.41748661 0.36918426
-0.73268895 -0.40876553 -0.00000098
-0.07574289 -0.52247033 0.35635963
-0.52319426 0.01680569 -0.00000085
-0.10210878 -0.35070378 0.48040775
-0.38635027 -0.03960423 -0.00000016
-0.34312282 0.08121650 -0.00000019
-0.03108188 0.64928164 0.14623791
-0.00009766 -0.15248061 0.00045947
-0.37533464 -0.17543784 0.00000000
-0.27134401 -0.67126094 0.00000000
-0.02320403 0.51556530 0.10915828
-0.21274188 0.18705869 0.00000598
-0.06908333 0.32341957 0.00000000
-0.65149008 -0.39112220 -0.00000067
-0.11461129 -0.71555857 0.00000000
-0.13239491 0.08089693 0.62290128
-0.53502801 0.12833804 -0.00000110
-0.10955503 -0.20805509 0.51544364
-0.08878582 -0.17511360 0.41772533
-0.59887359 -0.73820792 0.00000000
-0.44225750 0.22207790 0.00000116
-0.05070989 0.20224225 0.23855522
-0.20028369 0.37532131 -0.00000010
-0.61224995 -0.15182299 -0.00000093
-0.12432515 0.05234126 0.58492766
-0.18614531 0.27179921 0.00000511
-0.03336813 -0.33444067 0.15699234
-0.01975819 0.19152240 0.09292349
-0.04637120 -0.34763035 0.21816995
-0.03518152 -0.71558515 0.16552410
-0.65968159 -0.67266433 -0.00000021
-0.06249163 -0.06064306 0.29401429
-0.65597333 -0.06044089 -0.00000128
-0.78585105 -0.28673409 -0.00000128
-0.10538971 0.14929757 0.49583828
-0.57586392 -0.23940305 -0.00000062
-0.25694113 0.00357857 0.00000000
-0.15217531 -0.63635880 0.71596606
-0.49007574 -0.01811754 -0.00000065
-0.02241302 0.42189275 0.00000533
-0.00037046 -0.68880844 0.00174298
-0.09573566 0.61227988 -0.00000008
-0.02883775 -0.24397390 0.13567753
-0.01656368 0.01034855 0.07792976
-0.59962982 0.03163887 0.00000132
-0.49553591 -0.49142547 0.00000000
-0.01113591 0.17096450 0.05235338
-0.08426661 -0.13035770 0.39646301
-0.22225489 -0.15175828 0.00000000
-0.10541365 0.19641507 0.49595512
-0.59364726 0.17189818 -0.00000142
-0.20398042 0.17053232 0.00000636
-0.09669284 0.13863549 0.45493087
-0.58021638 -0.15479104 -0.00000079
-0.31586832 0.47695877 -0.00000078
-0.00876458 0.11780707 0.04119241
-0.02889785 -0.52161663 0.13596031
-0.05091346 -0.58513179 0.23954066
-0.10985135 -0.05162757 0.00000000
-0.63138347 -0.13988329 -0.00000103
-0.38527747 0.23240567 -0.00000064
-0.09418311 -0.20662367 0.44311912
-0.15239930 -0.48030133 0.71702195
-0.15746851 -0.68510701 0.74086947
-0.22462739 0.23319536 0.00000000
-0.78794706 -0.12173002 -0.00000170
-0.37222992 -0.36512466 0.00000000
-0.02581201 0.35188292 0.12141811
-0.00563982 0.33443544 0.02653457
-0.56483469 -0.53783205 -0.00000005
-0.07528245 0.39919978 0.35419814
-0.12979998 -0.59769170 0.61069169
-0.37428038 0.11231898 0.00000430
-0.11550283 0.62714968 -0.00000019
-0.05871506 -0.40558818 0.27624608
-0.07585194 -0.18554854 0.35687268
-0.39426981 -0.46777404 0.00000000
-0.10887339 0.20208457 0.51223492
-0.02345889 0.02407007 0.11032442
-0.07373738 0.19314069 0.00000799
-0.14007897 -0.15315383 0.65905868
-0.14657963 -0.37944973 0.68964182
-0.07467288 -0.60133072 0.00000000
-0.44675017 0.11027057 0.00000294
-0.34877284 -0.54051420 0.00000000
-0.12859631 -0.66309612 0.60502780
-0.11647340 0.17180929 0.54799833
-0.16072567 0.11826085 0.00000000
-0.06107671 0.14951966 0.00000884
-0.52744573 -0.74215602 0.00000000
-0.00537182 0.05713574 0.02522508
-0.21641704 0.50898216 0.00000071
-0.10059123 -0.33708349 0.47326785
-0.15881776 -0.41091975 0.74722106
-0.50822636 0.16196855 0.00000090
-0.05866476 0.03656636 0.27600944
-0.09829744 -0.25735821 0.46247645
-0.67990466 -0.00381056 -0.00000148
-0.66814886 -0.67103443 -0.00000025
-0.59972589 0.01927339 -0.00000118
-0.09328872 -0.42180842 0.00000000
-0.44463693 0.11316967 -0.00000068
-0.20178601 0.51064555 -0.00000035
-0.37907275 -0.41808467 0.00000000
-0.32594890 0.10484428 -0.00000016
-0.00793761 -0.48593792 0.03734535
-0.24957791 -0.62863099 0.00000000
-0.54650696 0.18564227 -0.00000125
-0.00410769 0.53920272 0.01932611
-0.00921878 0.16797046 0.04337307
-0.24255274 0.53655972 -0.00000026
-0.26163263 0.35384087 -0.00000033
-0.08508101 0.11415889 0.40027554
-0.02644700 0.31225340 0.12440315
-0.11432807 -0.33374317 0.53789940
-0.04691000 0.26102033 0.22070501
-0.11197975 -0.69541708 0.52684890
-0.10091564 0.66075075 -0.00000018
-0.13343789 -0.34829364 0.62781056
-0.12209929 -0.23931589 0.57446378
-0.15569980 -0.67756167 0.73254794
-0.08840694 -0.25430775 0.41594216
-0.55439489 -0.00330800 -0.00000095
-0.70425970 0.00811222 -0.00000030
-0.00367321 0.43299103 0.01728196
-0.01335518 -0.56205797 0.06283425
-0.56111003 -0.12432561 -0.00000076
-0.36988639 0.28001595 0.00000158
-0.52127710 -0.06503185 -0.00000070
-0.70941169 0.06244355 -0.00000130
-0.57073666 0.04776763 0.00000161
-0.02327417 -0.75967920 0.10950171
-0.42915217 0.12345108 0.00000306
-0.66278877 -0.35726988 -0.00000078
-0.21891954 -0.06687181 0.00000000
-0.76298515 -0.45597112 -0.00000086
-0.16401013 -0.51975562 0.77164924
-0.21032402 0.13105478 0.00000686
-0.35667560 0.00292709 -0.00000011
-0.07630895 0.29898424 0.00000636
-0.01939968 0.44195177 0.09127275
-0.05148065 -0.10871464 0.24220921
-0.10285814 0.00143153 0.48393707
-0.14438449 0.02647444 0.67931168
-0.40356329 0.27929816 -0.00000080
-0.25775620 0.28625611 -0.00000019
-0.76112165 0.01425028 -0.00000186
-0.34340980 0.01068303 0.00000659
-0.00192955 0.01293426 0.00907826
-0.77224004 -0.52197641 -0.00000070
-0.04665751 -0.18002058 0.00000000
-0.02184440 -0.30215494 0.10277483
-0.08282901 0.03628288 0.38967218
-0.67847165 -0.76036388 -0.00000010
-0.21758766 -0.44528641 0.00000000
-0.16163080 -0.59796077 0.76045373
-0.05796499 -0.21080381 0.27271709
-0.01275804 0.30685043 0.05999477
-0.14348303 0.01780609 0.67507647
-0.38376811 0.24454245 -0.00000066
-0.00601738 0.43883606 0.02831093
-0.03737732 -0.16210613 0.17585502
-0.11148336 -0.08725501 0.00000000
-0.04698915 0.39396897 0.22106462
-0.07911783 0.04001546 0.37223986
-0.00331674 0.48471731 0.01560479
-0.39991553 -0.00410655 -0.00000029
-0.02060627 0.22341883 0.09691595
-0.15015501 -0.00125462 0.70646775
-0.36286433 -0.65715505 0.00000000
-0.43844652 0.10962783 -0.00000065
-0.07519798 -0.62950718 0.35379586
-0.19161449 -0.24055486 0.00000000
-0.27800453 0.40670119 -0.00000049
-0.59296415 -0.59877219 -0.00000006
-0.16919808 -0.52257697 0.00000000
-0.68024340 -0.61843895 -0.00000040
-0.03099525 0.32662900 0.14580412
-0.02678280 0.19067043 0.12600930
-0.14652928 -0.09526905 0.00000000
-0.03342384 0.31228280 0.15725446
-0.25337004 -0.40693498 0.00000000
-0.20550241 0.32348201 -0.00000003
-0.01444967 0.37380264 0.00000000
-0.04297769 -0.52035951 0.20220394
-0.05994465 -0.54881240 0.28203110
-0.50660676 0.07242912 -0.00000088
-0.30081179 0.49222286 -0.00000074
-0.02795338 0.57622031 0.13151774
-0.06806458 0.18032306 0.00000000
-0.02497034 -0.54841637 0.11748194
-0.16220436 0.00337604 0.76315844
-0.40436822 -0.45205709 0.00000000
-0.23704578 0.48143850 -0.00000045
-0.08114634 0.07121477 0.38175770
-0.16481591 -0.59236407 0.77543945
-0.13798376 -0.04074676 0.00000000
-0.05292705 0.33087333 0.24901580
-0.01920619 0.12033062 0.09036243
-0.12199639 -0.47675582 0.57397724
-0.02775591 0.70595069 0.00000099
-0.56518621 -0.19143565 -0.00000066
-0.02221125 0.39701700 0.10447919
-0.12605797 -0.59559832 0.59308566
-0.01714779 -0.11478518 0.08067792
-0.03975181 0.46205796 0.18701641
-0.01216909 0.69513913 0.05725057
-0.07758426 0.36404170 0.36502774
-0.01688016 -0.16870250 0.07941878
-0.04244179 -0.68060180 0.19968264
-0.07677052 0.30720817 0.00000000
-0.33142862 0.36562098 0.00000089
-0.00689684 -0.53279705 0.03244866
-0.02471168 -0.64591720 0.11626498
-0.11398196 -0.03519327 0.53627401
-0.03331025 -0.25984872 0.15672000
-0.12498626 -0.07843851 0.58804855
-0.14654912 -0.74482742 0.68949402
-0.06985775 -0.21034207 0.32867084
-0.39480088 0.25798564 0.00000147
-0.30632335 0.29644871 0.00000253
-0.04725076 0.03304776 0.22226828
-0.08164455 0.31652902 0.38413083
-0.73053083 0.00868331 -0.00000172
-0.03670261 0.06751739 0.17264046
-0.32412925 0.08626562 0.00000570
-0.00414949 0.04015225 0.01952277
-0.27635518 -0.32158906 0.00000000
-0.15648856 -0.01098016 0.00000000
-0.66552923 -0.65756522 -0.00000026
-0.31828012 -0.67674327 0.00000000
-0.63827122 0.12586908 -0.00000100
-0.10833274 -0.74452302 0.00000000
-0.08399746 0.25356475 0.39520059
-0.02168134 -0.63111315 0.10200765
-0.11985287 0.19157623 0.56389636
-0.37179143 0.29910585 -0.00000070
-0.16485877 -0.01119699 0.77564853
-0.53219867 0.07429132 0.00000190
-0.14056958 -0.36305323 0.66136482
-0.64841594 -0.03653392 -0.00000129
-0.50248760 -0.45034030 0.00000000
-0.09940993 0.15379938 0.00000819
-0.43362724 -0.37276120 0.00000000
-0.03862422 0.55495760 0.18171894
-0.40921308 0.17517781 -0.00000064
-0.62772388 -0.03039425 -0.00000121
-0.13538681 0.00042273 0.63697210
-0.06829465 0.08355218 0.32131749
-0.28649246 -0.74681491 0.00000000
-0.31845717 -0.16064039 0.00000000
-0.11273766 0.09122052 0.53042094
-0.44094182 0.31654032 -0.00000039
-0.11914938 -0.51755056 0.56058169
-0.02755725 0.33846777 0.12965298
-0.23470729 -0.00638932 0.00000000
-0.06352236 -0.10548708 0.29886373
-0.40252604 0.34989435 -0.00000092
-0.02202073 0.13639945 0.10356528
-0.03736433 0.46421241 0.17578266
-0.28192919 0.44679225 0.00000049
-0.10525311 -0.67612403 0.49520100
-0.28536557 0.30745305 -0.00000035
-0.02027110 0.11730167 0.09537265
-0.68811255 -0.10576319 -0.00000134
-0.01917284 0.64878984 0.09020624
-0.41553857 0.09152752 -0.00000052
-0.00073439 0.62723790 0.00345520
-0.08614562 0.35053552 0.40530588
-0.43000841 0.17109633 -0.00000072
-0.15407014 -0.71321902 0.72488008
-0.02034985 0.50586434 0.09574316
-0.14793742 -0.19017930 0.69603211
-0.07762146 -0.37452570 0.00000000
-0.08976193 0.14297104 0.42232114
-0.08445909 -0.69733602 0.39736811
-0.10326777 0.13667169 0.00000839
-0.05288680 0.40634750 0.24882718
-0.19597329 -0.24361366 0.00000000
-0.20032140 -0.31797573 0.00000000
-0.08650315 -0.22789718 0.40698513
-0.03695516 0.53371420 0.00000344
-0.65479576 -0.25592322 -0.00000093
-0.29278031 -0.43666492 0.00000000
-0.14588274 0.00485077 0.68635958
-0.58438086 -0.54368375 -0.00000012
-0.11906539 0.16081015 0.56019347
-0.05234151 -0.71713925 0.00000000
-0.40575343 0.30226422 0.00000052
-0.08099943 0.04660249 0.00001008
-0.30320941 -0.56927018 0.00000000
-0.12250844 0.11250506 0.00000000
-0.34959058 0.17571141 0.00000371
-0.15499834 0.11387300 0.00000795
-0.31217239 0.27551541 -0.00000041
-0.55805637 -0.54569601 -0.00000000
-0.59479453 -0.10933998 -0.00000093
-0.08981880 -0.62749574 0.42258479
-0.40200319 0.33409169 -0.00000089
-0.11749460 -0.02444060 0.55280105
-0.05478973 0.22263316 0.25775395
-0.02794949 0.15919584 0.00000919
-0.06210089 -0.01669988 0.29217593
-0.21700192 0.04779970 0.00000000
-0.53473132 -0.14909851 -0.00000060
-0.10253298 0.25437532 0.48240568
-0.29849341 -0.66400043 0.00000000
-0.09230266 0.30123240 0.43427683
-0.10584458 -0.63063534 0.49798379
-0.11196193 0.10406932 0.00000000
-0.15717880 -0.76371536 0.73950537
-0.10873165 -0.45247732 0.51156716
-0.30935386 0.38397080 -0.00000058
-0.72710263 0.00666462 -0.00000170
-0.48257976 0.00894812 -0.00000066
-0.13761856 0.06030653 0.00000902
-0.07618634 -0.78121472 0.35844598
-0.05530619 -0.14253200 0.26020783
-0.53861345 0.16893203 -0.00000118
-0.01683710 0.49726030 0.07921619
-0.29306983 -0.03278183 0.00000000
-0.27914861 -0.23437842 0.00000000
-0.13719794 0.28194244 0.00000000
-0.33044616 0.23218911 0.00000314
-0.09951248 0.02966549 0.46819612
-0.61212821 -0.32164029 -0.00000063
-0.15524962 -0.29509275 0.00000000
-0.00839815 0.23163711 0.03947601
-0.13211805 0.21811952 0.00000000
-0.03750106 0.03542570 0.17643720
-0.05809503 -0.67307819 0.27332892
-0.13711264 -0.32774187 0.00000000
-0.20930882 0.57441506 -0.00000025
-0.44915475 -0.06166783 -0.00000039
-0.03971528 0.09165194 0.18681697
-0.40886576 -0.40414182 0.00000000
-0.42597598 0.26627903 -0.00000087
-0.14238044 0.18499506 0.00000000
-0.05978251 -0.64522736 0.28126828
-0.03686648 -0.05216514 0.00000000
-0.66167189 -0.24008954 -0.00000099
-0.15591244 -0.42128228 0.73355169
-0.04557997 -0.46084005 0.00000000
-0.22521803 0.54423571 -0.00000005
-0.67627583 -0.17716474 -0.00000116
-0.68511941 0.06948979 -0.00000163
-0.14914731 0.41129849 0.00000000
-0.40136421 0.39045978 -0.00000099
-0.19662027 -0.17121611 0.00000000
-0.68251403 0.10651535 -0.00000152
-0.09699008 -0.12234064 0.45632673
-0.30419868 0.20051246 -0.00000024
-0.10137835 0.39234525 0.00000000
-0.06281402 0.15730955 0.00000000
-0.55542435 -0.36889390 -0.00000030
-0.42912592 0.02106342 -0.00000045
-0.31026321 0.38601111 0.00000096
-0.45914383 -0.58200453 0.00000000
-0.05321648 -0.25227890 0.25037605
-0.00321952 0.19217073 0.00000000
-0.00113378 -0.71379857 0.00533430
-0.51778047 -0.55785450 0.00000000
-0.65015430 -0.22847460 -0.00000096
-0.45115627 0.23765002 -0.00000093
-0.19183331 0.25836818 0.00000000
-0.10774806 0.41840299 0.00000410
-0.10187098 -0.09617385 0.47929152
-0.04188368 -0.05265791 0.19705679
-0.76604075 -0.06499835 -0.00000174
-0.44502242 -0.30153836 0.00000000
-0.52863732 -0.38422373 -0.00000016
-0.13181620 0.21359374 0.00000000
-0.13002834 0.11064478 0.61176837
-0.18810740 0.56586691 -0.00000039
-0.01448905 -0.03888102 0.06816893
-0.07558122 0.03314658 0.35556847
-0.48039441 -0.01719074 -0.00000061
-0.02711217 -0.38268807 0.12755892
-0.59229218 0.10861043 0.00000017
-0.06023297 0.45651800 0.28338704
-0.11136368 -0.30634356 0.52395228
-0.09089705 0.06055473 0.42763730
-0.21455432 0.58043293 -0.00000045
-0.13389440 -0.44781927 0.62995740
-0.36327953 -0.68783340 0.00000000
-0.00361288 0.51501373 0.01699809
-0.17982600 0.35722512 0.00000000
-0.09128993 0.18196240 0.42951074
-0.39678066 0.03367872 -0.00000034
-0.03534827 -0.23151833 0.16630861
-0.01168530 0.36606706 0.00000633
-0.09411932 0.42127546 0.00000000
-0.52535288 -0.23491857 -0.00000041
-0.13108823 -0.46027478 0.00000000
-0.65750749 -0.59890534 -0.00000033
-0.02765201 -0.56999442 0.13009881
-0.05020024 0.43520805 0.00000000
-0.10372323 0.47177768 0.00000336
-0.11523745 0.08601046 0.54218232
-0.64936934 -0.55854687 -0.00000037
-0.15418621 -0.08680124 0.72543359
-0.17626833 -0.28527199 0.00000000
-0.70214018 0.07408121 -0.00000136
-0.01315062 0.18005184 0.06187179
-0.16335103 -0.09389185 0.76855377
-0.01782502 -0.57333017 0.08386419
-0.01018775 0.22018391 0.04789549
-0.11966226 -0.50175008 0.56299495
-0.13441531 -0.57634624 0.63240696
-0.43282786 -0.63833478 0.00000000
-0.07529593 -0.67400186 0.35425674
-0.07372994 -0.16041131 0.00000000
-0.06215232 0.41436542 0.29242135
-0.00388585 0.46603481 0.01826088
-0.39801211 -0.32691137 0.00000000
-0.06034895 0.24619758 0.28393481
-0.30387332 -0.19541812 0.00000000
-0.54415154 -0.47310240 -0.00000007
-0.30000142 -0.72033709 0.00000000
-0.42452093 0.08711071 -0.00000055
-0.04799919 0.47760681 0.22582465
-0.02733789 0.03996762 0.00001099
-0.44371239 0.32663918 -0.00000061
-0.03647730 0.14180868 0.17162053
-0.22079244 -0.27720887 0.00000000
-0.14637559 -0.71823037 0.68867792
-0.59195826 -0.32492702 -0.00000054
-0.00542082 -0.59282129 0.02550417
-0.00753386 -0.03953688 0.03544573
-0.13318441 -0.75931951 0.62661386
-0.36811914 -0.26527896 0.00000000
-0.08482579 0.24262332 0.39908603
-0.02112019 -0.39731970 0.09936749
-0.26822481 0.50140711 -0.00000062
-0.14951798 0.07609467 0.00000860
-0.55753218 -0.70047822 0.00000000
-0.31090676 -0.39710182 0.00000000
-0.01440472 0.51454969 0.00000406
-0.09594793 -0.71835092 0.45142149
-0.05019951 -0.19505483 0.23618159
-0.16185238 -0.35479994 0.76149938
-0.34347410 -0.34505326 0.00000000
-0.06819464 0.35016388 0.32084010
-0.60514039 -0.46264604 -0.00000035
-0.26627946 0.21765308 -0.00000011
-0.56606815 0.15782257 -0.00000014
-0.05777100 0.42561245 0.27180743
-0.10244330 0.57430928 0.00000180
-0.65391898 -0.74699636 -0.00000006
-0.45713856 -0.72236356 0.00000000
-0.72529608 -0.70782142 -0.00000023
-0.02250550 0.34033014 0.10588522
-0.00971744 -0.11287634 0.04571917
-0.00099183 0.44374528 0.00466640
-0.08303049 -0.17458564 0.39064673
-0.20317821 0.07400120 0.00000000
-0.04037128 0.51450033 0.18994306
-0.11439204 0.03071723 0.53820413
-0.04750186 0.32679941 0.22349036
-0.04180188 -0.62844782 0.19667197
-0.06777730 0.14912247 0.31885853
-0.10983960 -0.01887928 0.00000000
-0.57693863 0.05142280 -0.00000114
-0.20339401 0.43451101 0.00000220
-0.01441563 0.09687880 0.06777982
-0.10596211 -0.44748952 0.49853676
-0.79923391 -0.52596894 -0.00000069
-0.55064939 -0.59630339 0.00000000
-0.19255445 -0.13809563 0.00000000
-0.09848024 -0.00451046 0.46333910
-0.01657657 -0.38444015 0.07799040
-0.20244029 0.56054290 -0.00000044
-0.01333247 -0.40992893 0.06272737
-0.55574985 -0.40018509 -0.00000025
-0.05805833 0.03056911 0.27315623
-0.00300341 0.02936204 0.01413061
-0.10150680 0.20186535 0.47758112
-0.13131625 -0.75877923 0.61782439
-0.40217326 0.00119282 -0.00000030
-0.14310624 0.45245892 0.00000305
-0.01559818 0.18431390 0.07334972
-0.10843428 -0.56815756 0.51016797
-0.04249974 0.22706799 0.19995527
-0.61975788 -0.10990709 -0.00000104
-0.42915513 0.36536574 -0.00000106
-0.54138481 0.16063656 -0.00000118
-0.00451425 0.63356154 0.00000000
-0.14020867 0.04024655 0.00000928
-0.23308024 0.51046069 -0.00000048
-0.00377461 0.24822388 0.01775900
-0.36583869 0.37870009 -0.00000082
-0.38007924 0.35387097 0.00000015
-0.73098818 -0.59695884 -0.00000051
-0.15837878 -0.48747286 0.74515475
-0.10332542 0.11478608 0.48613679
-0.14860980 -0.69787706 0.69918994
-0.39435818 -0.52295352 0.00000000
-0.04279925 0.47187666 0.20135658
-0.10692129 -0.27339153 0.50305132
-0.35911662 0.01239723 -0.00000014
-0.08119936 0.29623139 0.38202715
-0.26515562 0.43593771 -0.00000049
-0.13464881 -0.57580031 0.63350554
-0.00297687 -0.64162011 0.01400573
-0.16948748 -0.41728725 0.00000000
-0.24515342 0.10911563 0.00000666
-0.30303554 0.17267298 0.00000466
-0.10247067 0.44865242 0.00000372
-0.03121803 0.16070086 0.14684118
-0.08796225 0.20866397 0.00000000
-0.03744406 -0.23499178 0.17616903
-0.00172224 0.42261914 0.00807797
-0.00231544 -0.65608134 0.01089380
-0.04343919 0.37339303 0.20437607
-0.05701189 -0.54648887 0.26823290
-0.49151145 -0.36891633 -0.00000003
-0.02277786 -0.37647929 0.10716660
-0.71201996 -0.46392342 -0.00000080
-0.03483494 0.36721580 0.16387298
-0.02033764 -0.69409079 0.09568575
-0.07048530 -0.22264545 0.33162337
-0.05568235 -0.53067628 0.26197759
-0.36851538 -0.43007839 0.00000000
-0.16018359 -0.06247438 0.75365139
-0.04609412 -0.66429785 0.21686635
-0.56377509 -0.65711654 0.00000000
-0.13683764 0.57140793 0.00000119
-0.08868804 -0.51625505 0.41726470
-0.01063395 0.65883377 0.00000000
-0.63562121 -0.32789175 -0.00000072
-0.13060379 0.55431530 -0.00000012
-0.02530648 0.40704621 0.11906340
-0.02436508 -0.17152772 0.00000000
-0.63634300 -0.57692438 -0.00000028
-0.03324129 0.48549132 0.15638418
-0.16332223 -0.19289290 0.00000000
-0.07206868 0.21664979 0.33905698
-0.62952363 -0.22088324 -0.00000088
-0.41544804 -0.07690888 -0.00000022
-0.13351984 0.11948621 0.62819790
-0.59891862 0.19487931 -0.00000139
-0.04735201 0.05136781 0.22274588
-0.02541889 -0.56753499 0.11959231
-0.02338284 0.60056011 0.11001368
-0.01087886 0.28324758 0.05118352
-0.01345786 -0.49558473 0.00000000
-0.50409377 -0.77463528 0.00000000
-0.14794805 -0.64852676 0.00000000
-0.00059785 0.60822380 0.00281278
-0.08826507 -0.23590908 0.00000000
-0.02117536 -0.73268001 0.09962706
-0.24537523 0.35404296 -0.00000026
-0.09338528 -0.60473529 0.43936456
-0.20980165 -0.28545041 0.00000000
-0.25227912 -0.10203365 0.00000000
-0.77238968 -0.67277894 -0.00000032
-0.00307450 0.68463243 0.00000168
-0.15915710 -0.34124529 0.74881856
-0.02293084 0.55780709 0.10787626
-0.07737131 0.11901310 0.36402331
-0.55522975 0.08390923 -0.00000110
-0.42862338 -0.49617058 0.00000000
-0.08009116 -0.78985033 0.37681761
-0.30033432 0.00195210 0.00000000
-0.14714064 -0.44841600 0.69228064
-0.21711839 0.58011305 -0.00000054
-0.04027153 -0.38643063 0.18947185
-0.00492568 -0.71506090 0.02317461
-0.01690461 -0.44904815 0.07953379
-0.29205242 -0.44638044 0.00000000
-0.13096094 -0.17657696 0.61615828
-0.07510914 0.20745136 0.35338078
-0.46186501 0.29462152 -0.00000108
-0.07256328 0.29410945 0.34140342
-0.06646852 0.31805301 0.31271524
-0.01453209 -0.35210751 0.06837141
-0.02113850 0.09426366 0.09941147
-0.43460099 0.06006963 -0.00000055
-0.04339511 0.13080649 0.20413361
-0.55215192 -0.43543402 -0.00000017
-0.05109859 -0.67980555 0.24041166
-0.09052573 0.16108566 0.42591499
-0.18128076 0.59298567 -0.00000041
-0.51672370 -0.72225639 0.00000000
-0.13461168 -0.39134281 0.63333274
-0.42194832 -0.42740052 0.00000000
-0.11351527 0.20349538 0.53407676
-0.00564661 0.00184191 0.02656652
-0.14902269 0.03540334 0.70113685
-0.62397588 -0.05823369 -0.00000115
-0.42181697 0.25872271 0.00000094
-0.67801218 -0.28706609 -0.00000097
-0.09968244 0.08731903 0.46899637
-0.09930500 -0.48281063 0.46721599
-0.08401467 -0.27475332 0.39527716
-0.06571281 -0.70428759 0.30916951
-0.09781329 0.56075735 0.00000000
-0.06143731 0.34397323 0.28905651
-0.75127451 -0.48721066 -0.00000078
-0.10317502 0.28253092 0.48543086
-0.15548135 0.00858396 0.73152816
-0.07969825 0.30109650 0.37496431
-0.46806491 -0.08870204 -0.00000043
-0.08471667 -0.01280569 0.39858173
-0.17609118 0.05392283 0.00000000
-0.16376397 -0.61285922 0.77048992
-0.21008997 0.19673209 0.00000000
-0.01873825 -0.71069233 0.08816082
-0.28700163 -0.04482352 0.00000000
-0.01213436 0.73400809 0.05709060
-0.03956435 0.41061693 0.00000000
-0.05595080 0.01847526 0.26324060
-0.07203933 -0.03089374 0.33893492
-0.03617776 0.64305510 0.00000000
-0.09259172 0.00436709 0.43560638
-0.25337292 -0.61981963 0.00000000
-0.59780528 0.04260012 -0.00000121
-0.13370508 0.64834147 -0.00000003
-0.06226162 0.46375875 0.29293609
-0.01614966 0.45225382 0.07598185
-0.22593013 0.13203540 0.00000000
-0.37582266 -0.32124347 0.00000000
-0.08427714 0.33943059 0.39651300
-0.45716121 -0.22524560 -0.00000014
-0.02086616 0.31093214 0.09814460
-0.62784851 0.07335365 -0.00000139
-0.70282862 -0.04654810 -0.00000150
-0.15025418 -0.56280143 0.70692832
-0.53112552 0.16451312 -0.00000114
-0.00165104 -0.08001325 0.00000000
-0.17778600 -0.25319723 0.00000000
-0.53967946 0.14565066 0.00000057
-0.49764775 0.12304557 -0.00000093
-0.09006046 0.17290954 0.00000805
-0.11763382 -0.25187763 0.55345372
-0.07809348 -0.35872837 0.36741882
-0.75899297 0.03042635 -0.00000188
-0.00649488 -0.16085027 0.03055748
-0.03443301 0.03267531 0.16195940
-0.10628599 0.07030448 0.50004859
-0.08487591 0.32203504 0.39932891
-0.67654152 -0.41292171 -0.00000074
-0.38960521 -0.52467150 0.00000000
-0.50843792 -0.66961079 0.00000000
-0.04253122 0.29011666 0.20010339
-0.77893883 -0.66345943 -0.00000034
-0.11207235 -0.58123265 0.00000000
-0.12190969 -0.61974480 0.00000000
-0.11429394 0.01194377 0.53772369
-0.21236161 -0.07402079 0.00000000
-0.55818947 0.03463888 -0.00000103
-0.13343372 -0.38978626 0.62779048
-0.06201195 -0.05685950 0.29175745
-0.10646287 0.21077760 0.50089335
-0.18321798 -0.61331842 0.00000000
-0.10993793 -0.52477521 0.51724244
-0.26953259 0.21748418 -0.00000012
-0.50883352 0.06698680 0.00000247
-0.05003319 0.10556344 0.23536478
-0.25606547 0.14606576 0.00000000
-0.12030207 -0.22257250 0.56600810
-0.07257300 -0.03051908 0.34144583
-0.17755287 0.58638581 -0.00000038
-0.10972489 -0.07000400 0.51624425
-0.10027486 -0.42697439 0.47177907
-0.13258792 -0.15138779 0.62381347
-0.06165520 -0.53856901 0.29007900
-0.00696628 0.65886251 0.03277538
-0.13649959 0.07151451 0.64222007
-0.00079061 -0.76432466 0.00371971
-0.09585066 -0.33679193 0.00000000
-0.07141542 -0.74864657 0.33599946
-0.72770599 -0.20336324 -0.00000133
-0.02401163 -0.73849705 0.11297133
-0.21345843 0.34866300 -0.00000011
-0.18651272 0.40688298 0.00000299
-0.11142037 0.21067472 0.52422434
-0.02957285 0.31866463 0.13911103
-0.00086246 -0.60345129 0.00000000
-0.09598443 0.41017487 0.00000440
-0.56553018 -0.63888872 0.00000000
-0.51407648 0.22198265 -0.00000022
-0.09636477 0.46165629 0.00000362
-0.04503759 0.37754460 0.21189652
-0.08260169 0.66611903 -0.00000012
-0.00411913 -0.02761543 0.01937993
-0.10707046 0.08332272 0.50374096
-0.53595136 0.06991661 0.00000190
-0.00542775 -0.08603383 0.02553681
-0.05290085 0.52705578 0.24889452
-0.04183562 0.33826106 0.19681052
-0.75034747 -0.04930479 -0.00000170
-0.02711201 -0.04729058 0.12755818
-0.06591616 0.47724329 0.00000385
-0.13554571 0.03135607 0.63772253
-0.33123156 0.29100561 0.00000214
-0.54011218 0.02659146 0.00000255
-0.05065865 -0.52420791 0.23834181
-0.44298869 0.11300202 0.00000297
-0.07963223 0.29729073 0.37466271
-0.67439694 -0.46214263 -0.00000065
-0.08353728 0.35891547 0.39303652
-0.02915878 -0.50382319 0.13718796
-0.02995649 0.61964113 0.14093992
-0.15949685 0.07287474 0.00000000
-0.04100089 0.22945761 0.19290341
-0.01044426 -0.58953587 0.04913875
-0.01409030 0.56344902 0.06629289
-0.06205015 -0.42224468 0.00000000
-0.40868659 0.17387391 -0.00000064
-0.02290084 0.77162800 0.00000003
-0.41102238 0.04767694 -0.00000042
-0.79222400 -0.15700739 -0.00000161
-0.00324984 0.64537084 0.01529004
-0.74538976 -0.74594857 -0.00000014
-0.15171274 0.11563135 0.00000000
-0.08341380 -0.26547771 0.39245014
-0.08612966 0.02151153 0.40523015
-0.10615824 0.01022562 0.49944217
-0.43600305 0.35810557 -0.00000099
-0.16699641 0.32243508 0.00000000
-0.08710537 0.60707908 0.00000155
-0.05615324 -0.37981563 0.26419308
-0.38218087 0.17630136 0.00000308
-0.22630373 0.06233215 0.00000000
-0.19601128 0.47206804 0.00000171
-0.69233432 -0.30315674 -0.00000100
-0.14994832 0.35186861 0.00000000
-0.05970655 0.39150212 0.28090429
-0.14776656 -0.59430207 0.69522389
-0.79853350 -0.66884457 -0.00000033
-0.50267482 0.15543925 -0.00000101
-0.19393842 -0.39769832 0.00000000
-0.15913113 -0.71292407 0.74869154
-0.79190071 -0.04520577 -0.00000189
-0.06509237 -0.29421908 0.00000000
-0.13763095 -0.62203964 0.64753599
-0.08150432 -0.28231452 0.38346630
-0.35195257 -0.64874633 0.00000000
-0.04739722 0.19954251 0.22296860
-0.13105111 -0.18438319 0.61658248
-0.12908259 0.07383558 0.60731503
-0.11069428 0.07732621 0.52080671
-0.00947921 -0.32747591 0.04459832
-0.03530562 0.55864366 0.16610409
-0.03007336 0.33680240 0.14149091
-0.00273734 -0.41323956 0.01287881
-0.01907345 -0.66329325 0.00000000
-0.09605107 0.56941727 0.00000201
-0.74040684 -0.61815545 -0.00000045
-0.44748375 0.22124569 0.00000107
-0.05653022 -0.41434836 0.26596668
-0.00108727 0.09803353 0.00506855
-0.28096610 -0.63087000 0.00000000
-0.43307121 0.06925937 -0.00000056
-0.02710952 0.19687988 0.12754647
-0.12544973 0.48794008 0.00000000
-0.13458436 0.03626602 0.63320859
-0.47139061 0.04740548 -0.00000068
-0.02889130 0.27869212 0.00000738
-0.06085906 -0.18700431 0.00000000
-0.34840382 -0.32727076 0.00000000
-0.76484367 -0.31393155 -0.00000122
-0.08966707 0.04860962 0.42187388
-0.17555654 -0.52976753 0.00000000
-0.71337409 0.04697434 -0.00000112
-0.50509828 0.22059604 -0.00000113
-0.13845123 -0.02664191 0.65140150
-0.04483629 0.44622691 0.21093929
-0.11204975 -0.29048422 0.52718040
-0.09942213 -0.72874768 0.00000000
-0.03350332 0.60014991 0.00000249
-0.15084158 0.19758328 0.00000676
-0.01474806 0.09797466 0.06938754
-0.03217487 -0.65071018 0.15137821
-0.01835507 -0.57614711 0.00000000
-0.01835245 0.01978832 0.08629779
-0.13651677 0.13525036 0.64230154
-0.04803616 -0.20854009 0.22600333
-0.45169138 0.06013960 -0.00000062
-0.00436627 0.30693082 0.02054270
-0.06487677 0.73322881 -0.00000013
-0.14868762 0.07980204 0.69956415
-0.12671806 -0.21180032 0.59619528
-0.09480333 -0.03067545 0.44603906
-0.31912948 0.41048961 -0.00000067
-0.18025257 -0.72939946 0.00000000
-0.33452032 0.09680864 0.00000532
-0.44399203 -0.10260521 -0.00000030
-0.08136705 -0.77077242 0.38282050
-0.05458162 0.32244224 0.25678355
-0.09648242 0.19801399 0.45393064
-0.01544057 0.07074646 0.07260050
-0.01478058 -0.60305420 0.06954055
-0.03147639 -0.01932994 0.14809198
-0.07765601 0.21715472 0.00000000
-0.00449723 0.19195125 0.02111911
-0.77789514 -0.46438506 -0.00000084
-0.11356802 -0.00513777 0.53432675
-0.67764388 -0.63188081 -0.00000036
-0.33116542 -0.65149735 0.00000000
-0.38209664 -0.58742952 0.00000000
-0.37837576 0.36206471 -0.00000084
-0.03476808 -0.04400611 0.00000000
-0.63942940 -0.23009685 -0.00000091
-0.65935051 -0.62632858 -0.00000029
-0.06022806 -0.01048475 0.00000000
-0.24684508 -0.74645077 0.00000000
-0.42474856 -0.38372260 0.00000000
-0.56279811 -0.40401029 -0.00000027
-0.61778913 -0.60464921 -0.00000015
-0.22593213 -0.37909259 0.00000000
-0.00873306 0.48474797 0.04108783
-0.17093972 0.54218662 0.00000102
-0.03632508 0.27254593 0.17090439
-0.06667046 0.22206914 0.31367710
-0.54886800 -0.11276352 -0.00000073
-0.38287764 0.14265060 -0.00000047
-0.59941391 0.17446394 -0.00000106
-0.46549654 -0.58350416 0.00000000
-0.29047579 -0.17461796 0.00000000
-0.05792228 0.39939748 0.27251896
-0.10340082 0.39580718 0.00000450
-0.05644307 -0.76415973 0.26555668
-0.11247641 -0.59533081 0.52918565
-0.02336261 -0.34404055 0.10991779
-0.33604680 -0.36821282 0.00000000
-0.05103976 0.37025607 0.24012207
-0.33097047 0.33164792 0.00000147
-0.01681085 -0.14233720 0.07909265
-0.03976578 0.15338642 0.00000000
-0.10476591 0.02378606 0.49291332
-0.01933679 0.36115193 0.09095215
-0.17526990 -0.31364674 0.00000000
-0.68166830 -0.11105561 -0.00000130
-0.00819607 0.11350801 0.03856137
-0.00358048 0.01061116 0.01684566
-0.42238417 -0.22492074 0.00000000
-0.78745823 -0.26996732 -0.00000133
-0.77189271 -0.64906452 -0.00000038
-0.35275462 0.16028960 0.00000391
-0.06253842 0.30868413 0.29422188
-0.13467323 0.11896614 0.00000818
-0.36320861 0.14329688 -0.00000039
-0.03225662 -0.49074281 0.15176283
-0.00067613 0.12980967 0.00313622
-0.32869003 0.11979310 -0.00000020
-0.13738559 -0.15844308 0.64638631
-0.01464946 0.66429258 0.06891888
-0.63870561 -0.45138795 -0.00000051
-0.09908333 0.64495731 -0.00000015
-0.08538920 0.35890291 0.40174737
-0.28676264 0.28562694 0.00000309
-0.48259405 0.31107794 -0.00000120
-0.00151332 -0.25043332 0.00711995
-0.11832488 -0.37164912 0.55670394
-0.11338305 -0.75360821 0.53345125
-0.06364693 0.04996738 0.00001029
-0.11643201 0.03496367 0.54778611
-0.18311843 -0.06286249 0.00000000
-0.09628153 0.23113297 0.45298831
-0.03519378 -0.75441504 0.16558179
-0.21415933 -0.00177203 0.00000000
-0.20402588 0.08671944 0.00000000
-0.08174254 -0.39554091 0.38458711
-0.01115003 0.69251600 0.05245952
-0.02220219 0.30443603 0.10445819
-0.21170753 -0.31762640 0.00000000
-0.08823369 0.21570065 0.00000000
-0.03478861 0.01644377 0.00000000
-0.76576553 -0.38328931 -0.00000104
-0.17141341 -0.58686090 0.00000000
-0.24521866 0.08924703 0.00000000
-0.10277026 0.31619074 0.00000571
-0.50194007 0.13336818 -0.00000096
-0.05043759 0.59131910 0.00000000
-0.15789455 -0.14288110 0.74288068
-0.52620868 -0.21937708 -0.00000044
-0.08932552 0.47827888 0.00000348
-0.13426591 -0.18149957 0.63170808
-0.42831719 0.23403519 0.00000123
-0.02985801 0.62705219 0.14047951
-0.07404522 0.13515010 0.34835007
-0.06809074 -0.26067179 0.32035731
-0.12469297 -0.09237485 0.58666850
-0.06119207 0.09449427 0.28786783
-0.48411909 -0.58231491 0.00000000
-0.18480327 -0.05443974 0.00000000
-0.04532020 0.56007072 0.21322808
-0.12480875 0.05457825 0.58720338
-0.12576199 -0.70879598 0.59169243
-0.00771843 0.25854823 0.03627965
-0.09948586 0.48253766 0.00000326
-0.17144398 0.21206668 0.00000000
-0.07599693 0.68052341 0.00000054
-0.00492991 0.24591812 0.02319452
-0.04427759 -0.26506166 0.20831982
-0.14131718 -0.54415225 0.66488040
-0.08537111 -0.72344186 0.00000000
-0.08312250 -0.20159420 0.39107963
-0.16280459 -0.29737565 0.76598018
-0.78834262 -0.75312559 -0.00000012
-0.70962988 -0.20114847 -0.00000126
-0.09600595 -0.57525465 0.00000000
-0.54620133 0.14288060 -0.00000117
-0.13374635 0.09617540 0.62926163
-0.06789740 -0.72204594 0.31944769
-0.05467809 -0.52778783 0.25725271
-0.18590820 -0.09368343 0.00000000
-0.18946880 -0.18366934 0.00000000
-0.02769672 0.06365185 0.13026650
-0.04793994 0.22441074 0.22552381
-0.40812687 0.25441257 0.00000128
-0.07915165 -0.25830004 0.37239736
-0.13734527 -0.62256399 0.64619187
-0.01738692 -0.41833067 0.08180301
-0.58101651 0.20826873 -0.00000143
-0.25337390 0.37941537 0.00000216
-0.07939445 0.16882017 0.00000000
-0.47499620 0.12831058 -0.00000084
-0.04228358 0.66271992 0.00000000
-0.47117128 -0.37280147 0.00000000
-0.07055487 0.18196321 0.00000821
-0.79808177 -0.59874937 -0.00000050
-0.03148015 -0.77675967 0.14810966
-0.09615805 0.68734478 0.00000004
-0.14975941 -0.77734357 0.70459768
-0.01735847 0.24040674 0.08163583
-0.41309544 -0.61807954 0.00000000
-0.32960544 -0.69257577 0.00000000
-0.06374001 -0.41694333 0.29988775
-0.02500219 -0.10000169 0.11763177
-0.53321083 0.11492118 0.00000120
-0.58117938 -0.09142358 -0.00000090
-0.11956246 -0.10524775 0.56252944
-0.14520506 -0.64372827 0.68317164
-0.38738827 0.13313335 0.00000370
-0.16116324 -0.04932087 0.00000000
-0.10584862 -0.33774914 0.49800377
-0.09234670 -0.02157993 0.43448076
-0.73065605 -0.51820970 -0.00000070
-0.10863838 -0.76495866 0.00000000
-0.05823612 -0.59746555 0.00000000
-0.09964203 0.30650957 0.46880846
-0.01724990 -0.29665383 0.08115833
-0.37418687 0.14093578 -0.00000043
-0.13300756 0.11021606 0.62579054
-0.46019294 -0.17664830 -0.00000024
-0.03195141 0.59800171 0.15032861
-0.07723806 0.39553356 0.36339661
-0.11507396 0.45748425 0.00000000
-0.08148762 0.14462650 0.38339071
-0.00886226 0.29624759 0.04166403
-0.07536222 0.63833453 0.00000125
-0.05873919 0.48208079 0.27636054
-0.01806412 0.19806931 0.08498912
-0.15656047 -0.57276565 0.00000000
-0.13667581 -0.18589763 0.64304654
-0.02404199 -0.30607665 0.11311417
-0.30010397 -0.54481601 0.00000000
-0.12423201 0.20085165 0.00000000
-0.04909744 0.52158096 0.23099618
-0.05694329 -0.69314576 0.26791013
-0.05501666 -0.48888412 0.25884564
-0.07202998 -0.09097299 0.33889087
-0.00075243 0.52926981 0.00352208
-0.02751183 0.39823702 0.12941908
-0.42558658 0.07614118 0.00000392
-0.03311565 0.62460040 0.15580660
-0.02324295 0.23506847 0.10935478
-0.03780671 -0.08919045 0.17787525
-0.04911794 -0.55096739 0.23109298
-0.78529368 -0.48405686 -0.00000079
-0.40056181 -0.62685677 0.00000000
-0.05670669 0.15907717 0.26679713
-0.07481107 0.39263010 0.00000498
-0.11335582 0.11383067 0.00000858
-0.11623657 -0.29792546 0.54687924
-0.02689611 0.35159080 0.12651889
-0.67707256 -0.33498377 -0.00000088
-0.05401059 0.13794851 0.25411219
-0.31957365 0.26995396 0.00000272
-0.67277078 -0.28368735 -0.00000096
-0.20805728 0.56884037 -0.00000013
-0.08727053 -0.20883942 0.41059557
-0.08744244 -0.46821022 0.41140435
-0.01766645 -0.16015451 0.08311816
-0.36167158 -0.28205050 0.00000000
-0.08634290 -0.79901986 0.40623116
-0.12723705 -0.77587525 0.59863238
-0.11177405 -0.54390633 0.00000000
-0.64752945 -0.55568902 -0.00000037
-0.53311020 0.13597597 -0.00000110
-0.08141638 -0.77164132 0.38305256
-0.12702357 0.04370220 0.00000000
-0.05302624 0.34125062 0.00000000
-0.33004849 0.38422840 0.00000061
-0.01085315 0.16973433 0.05106253
-0.10645098 -0.13256651 0.50083992
-0.28231747 0.13270839 0.00000573
-0.12098318 -0.34827406 0.00000000
-0.60477470 -0.65216414 -0.00000001
-0.16641289 0.18010111 0.00000679
-0.10070570 0.14197955 0.47381133
-0.06515519 -0.15453599 0.30654597
-0.45825089 0.12049038 -0.00000075
-0.12479196 0.33034799 0.00000516
-0.05035845 -0.06535481 0.23692939
-0.71874337 -0.71494768 -0.00000021
-0.05134298 0.37448099 0.24154919
-0.08117899 -0.48562139 0.38193570
-0.64468828 -0.66391488 -0.00000016
-0.06037722 -0.78427091 0.28406630
-0.08388054 0.29832718 0.39464325
-0.64132893 -0.59210286 -0.00000028
-0.11456304 -0.01012934 0.00000000
-0.76438467 -0.56218120 -0.00000059
-0.07432768 0.08615583 0.34970275
-0.04486100 -0.47819073 0.00000000
-0.68734726 0.10983059 -0.00000167
-0.03682798 0.61233446 0.00000000
-0.56664969 -0.26935169 -0.00000053
-0.04178968 0.62584099 0.00000198
-0.64380969 -0.25542153 -0.00000088
-0.12347989 0.05419122 0.58095057
-0.55460430 0.07336778 -0.00000108
-0.71862106 -0.77017303 -0.00000007
-0.06351419 -0.24005223 0.29882530
-0.23085677 -0.35118692 0.00000000
-0.27459580 0.10147365 0.00000000
-0.27212166 -0.16237079 0.00000000
-0.22711249 -0.04190929 0.00000000
-0.02671060 -0.72108575 0.12566962
-0.28742138 0.27926078 0.00000318
-0.22901722 0.15407048 0.00000623
-0.13545510 0.11187902 0.63730619
-0.01609029 -0.23482795 0.07570254
-0.47308152 -0.62623829 0.00000000
-0.27248456 -0.52223675 0.00000000
-0.45951133 -0.65109738 0.00000000
-0.11743754 -0.42450836 0.00000000
-0.78801411 -0.37639217 -0.00000106
-0.44565478 -0.45748850 0.00000000
-0.07140288 -0.41471828 0.33594045
-0.11600972 -0.08013301 0.54581415
-0.78847731 -0.21637777 -0.00000146
-0.20960705 0.17719044 0.00000618
-0.11452348 0.64375308 0.00000041
-0.07309009 0.42494879 0.34388341
-0.00064348 0.68408562 0.00301987
-0.53020286 -0.65107535 0.00000000
-0.02385965 0.25600407 0.11225629
-0.13475977 0.09441789 0.00000855
-0.10924225 0.18698806 0.51397607
-0.00382624 0.72925989 0.01800193
-0.04240601 0.27805175 0.19948967
-0.45610074 -0.66783261 0.00000000
-0.56242897 -0.37991180 -0.00000031
-0.73316162 -0.46345959 -0.00000084
-0.01685814 0.03599795 0.07926797
-0.14803496 0.45242029 -0.00000002
-0.07560965 0.18870294 0.00000803
-0.13631782 0.08482968 0.64136030
-0.16968176 0.10901903 0.00000000
-0.67744124 -0.63201880 -0.00000036
-0.08930839 0.02746869 0.42015918
-0.19916374 0.32920750 0.00000404
-0.35417865 -0.04372771 -0.00000002
-0.09153227 0.14702986 0.43065062
-0.67785973 -0.03230200 -0.00000142
-0.05592095 -0.16656347 0.00000000
-0.02857882 -0.21999933 0.13445930
-0.09180412 0.28940869 0.00000627
-0.13218528 -0.24077671 0.62191814
-0.12290559 0.37338251 0.00000000
-0.36753403 0.14845359 -0.00000042
-0.14363159 0.09718428 0.67577622
-0.17822484 0.55366787 -0.00000033
-0.34583146 0.17781458 0.00000375
-0.12789009 0.05324428 0.60171237
-0.04913061 0.55116771 0.23115590
-0.16281813 0.44754916 -0.00000007
-0.01749313 -0.26187635 0.08230273
-0.02094474 0.56825957 0.09853190
-0.12970317 -0.33025742 0.61023895
-0.13831043 0.31301778 0.00000522
-0.07672045 0.09226474 0.36093419
-0.00327458 0.16379685 0.00000000
-0.13516003 -0.72967780 0.00000000
-0.13469375 -0.40372943 0.63371875
-0.04325462 0.05638311 0.00000000
-0.46856506 0.27083083 -0.00000016
-0.26490599 -0.12318781 0.00000000
-0.02928239 0.60756806 0.13776699
-0.00406383 0.29007601 0.00000000
-0.06275115 0.09182410 0.29523552
-0.05268380 -0.32576270 0.24786984
-0.14387837 0.08944046 0.67693727
-0.10383326 -0.31125738 0.48852180
-0.29485770 0.00739632 0.00000744
-0.00447462 -0.21747502 0.02105247
-0.16327795 -0.56011674 0.76820390
-0.08883669 0.07931789 0.41796726
-0.27622156 0.23270093 0.00000417
-0.03208625 0.41757465 0.15094349
-0.06575512 0.40426053 0.00000494
-0.09362068 -0.35469782 0.44047206
-0.16175663 -0.09777224 0.76105213
-0.28573063 0.29308387 0.00000298
-0.25208986 0.43595357 -0.00000043
-0.02702991 0.38202720 0.12715050
-0.05623012 -0.63295823 0.26455477
-0.15011867 -0.71988123 0.70628871
-0.12602458 -0.41037163 0.59293045
-0.04251648 -0.59425960 0.00000000
-0.16723889 0.16071344 0.00000000
-0.18534640 0.24221602 0.00000000
-0.05125985 -0.59957686 0.24117035
-0.14745203 -0.02074140 0.00000000
-0.25474596 -0.03529877 0.00000000
-0.00091559 0.51123043 0.00428855
-0.59896417 -0.41154183 -0.00000041
-0.11054574 0.03244617 0.52008890
-0.15611996 0.29934645 0.00000000
-0.14150855 -0.60012330 0.66578022
-0.09984813 -0.69362806 0.46977136
-0.64098770 0.09825973 -0.00000150
-0.39558818 0.01146353 0.00000558
-0.60134117 0.10552129 -0.00000134
-0.02910221 -0.18379497 0.13692181
-0.14634857 -0.20560961 0.00000000
-0.40983944 -0.27671676 0.00000000
-0.11368888 -0.67181053 0.53489014
-0.02478606 0.47361975 0.11661491
-0.42510723 0.22645914 0.00000142
-0.33925200 0.30106561 -0.00000057
-0.66946573 -0.52382905 -0.00000052
-0.01809201 -0.44242918 0.08512037
-0.43043789 0.25813828 -0.00000088
-0.09548234 -0.39438185 0.00000000
-0.12359169 -0.68906450 0.58148143
-0.45612289 -0.37357151 0.00000000
-0.16915053 -0.08214493 0.00000000
-0.11002731 0.02214237 0.51766807
-0.71906360 -0.77867873 -0.00000005
-0.18403968 0.09768101 0.00000776
-0.22589442 0.28975444 0.00000419
-0.41460619 0.35016030 -0.00000097
-0.06894724 0.16656059 0.32438872
-0.09773923 0.17147942 0.45985448
-0.05639513 0.31204165 0.26533285
-0.41104188 -0.23047442 0.00000000
-0.17376695 0.49867846 -0.00000021
-0.03996627 -0.51890196 0.18803565
-0.00218446 -0.66053521 0.01027756
-0.19657823 -0.52812839 0.00000000
-0.12959585 -0.41930197 0.00000000
-0.15392660 -0.27795945 0.72421018
-0.01757480 0.34711963 0.08266088
-0.13624678 -0.39967727 0.64102576
-0.07163880 -0.61571393 0.33705045
-0.31278037 0.34765487 0.00000155
-0.14209859 0.25455755 0.00000000
-0.10422130 0.22788594 0.49035303
-0.09393997 -0.05841968 0.00000000
-0.32963620 -0.44741370 0.00000000
-0.24002720 0.51146009 0.00000021
-0.09262958 -0.27315351 0.43580911
-0.10337092 0.24477492 0.48634765
-0.73351594 -0.79384467 -0.00000002
-0.04949434 0.01937891 0.00000000
-0.37093323 0.01322583 0.00000602
-0.09233397 -0.68223118 0.43441830
-0.26179752 0.20302178 -0.00000006
-0.09802736 -0.12788160 0.46120704
-0.13675749 0.51384143 0.00000215
-0.26223503 0.05726034 0.00000718
-0.02106379 -0.33516039 0.09910214
-0.41842594 0.17806478 -0.00000069
-0.00713379 -0.25010888 0.03356349
-0.63074020 -0.24607131 -0.00000084
-0.04078018 0.51416312 0.19185988
-0.14965451 -0.34968192 0.70410937
-0.38245328 -0.22563999 0.00000000
-0.22294367 0.24068188 0.00000503
-0.55283373 -0.18875837 -0.00000061
-0.05588597 0.46820566 0.26293884
-0.01700292 -0.65826977 0.07999634
-0.04464679 0.17012027 0.21005686
-0.54535314 0.13956281 0.00000056
-0.16417829 -0.59234720 0.77243952
-0.42500547 0.08403066 0.00000380
-0.15426592 -0.13007685 0.72580821
-0.03344030 0.22652427 0.15733188
-0.03036560 -0.64612134 0.14286588
-0.29169980 -0.00950404 0.00000000
-0.28260630 0.12990761 0.00000577
-0.13000820 -0.25031658 0.61167493
-0.00669537 0.55545727 0.03148599
-0.17679994 0.25822198 0.00000546
-0.13847577 -0.22805136 0.65151486
-0.16209189 -0.21473627 0.76262806
-0.50373729 0.07949811 0.00000236
-0.04599379 -0.31577547 0.21639429
-0.14859107 0.18022765 0.00000705
-0.10629486 -0.32427977 0.50010346
-0.06475782 -0.02393366 0.30467641
-0.01242734 0.23988306 0.05846890
-0.07130338 0.34158166 0.33547610
-0.03145362 -0.39577748 0.14798484
-0.55961280 -0.50399476 -0.00000008
-0.12668538 0.05952961 0.00000920
-0.26961929 0.25394892 -0.00000019
-0.43153296 0.19713265 -0.00000078
-0.64939300 -0.43282805 -0.00000059
-0.19800857 0.15069008 0.00000000
-0.09876749 -0.74273095 0.00000000
-0.21028342 0.47506013 -0.00000032
-0.09854490 -0.68808491 0.46363986
-0.04541971 -0.35742002 0.21369330
-0.01834678 -0.68355155 0.08631903
-0.03056023 0.50657317 0.14377070
-0.13846548 -0.70578566 0.65146159
-0.47257916 0.05728914 0.00000333
-0.14126498 -0.36901205 0.66463663
-0.17802132 0.01837897 0.00000904
-0.24431828 0.38832930 0.00000218
-0.32535974 -0.65993757 0.00000000
-0.13957455 -0.74715011 0.65667931
-0.01113773 -0.44082436 0.05240146
-0.31154408 0.45801235 -0.00000027
-0.31213052 0.18195919 -0.00000024
-0.11745914 0.21122478 0.55263662
-0.13108615 0.15660228 0.00000767
-0.11914132 -0.74666387 0.56054307
-0.01516517 0.25064776 0.07131680
