ply
format ascii 1.0
element vertex 1394
property float x
property float y
property float z
end_header
0.23507977 0.38626200 0.00000240
-0.23956541 0.55339240 0.08143906
-0.24055271 -0.26779927 0.00000000
0.24561433 0.42493179 -0.00000039
0.65878984 -0.04015713 -0.00000133
0.49242399 0.01677373 0.00000363
-0.21281636 0.19820173 0.00000000
0.32038440 -0.69550824 0.00000000
0.06719464 0.05000888 0.00001024
0.68245528 -0.06730573 -0.00000138
-0.23657389 0.02101134 0.00000000
0.21692365 0.15440560 0.00000641
0.44096140 -0.11015783 -0.00000027
0.44990879 0.12988417 0.00000255
0.35894159 0.00583959 -0.00000013
0.59708651 -0.50245460 -0.00000025
0.06062135 0.41127074 0.00000492
0.11666570 0.05262455 0.00000945
-0.28602024 -0.06686657 0.00000000
-0.48921185 -0.24470274 -0.00000012
-0.32689649 0.46119809 0.13767395
0.73850271 -0.28386108 -0.00000124
-0.63051001 0.15173781 0.20527559
-0.59826676 0.16243459 -0.00000071
-0.35921580 -0.72802135 0.00000000
0.19980103 0.50206167 -0.00000033
-0.51437360 0.28427963 0.01557004
0.37220230 0.28379109 0.00000148
-0.71501923 -0.65027210 -0.00000019
0.62927286 -0.07620578 -0.00000114
-0.44680262 0.32316392 0.34729234
-0.50397556 -0.39314250 -0.00000002
-0.29719724 -0.23887725 0.00000000
0.00753032 -0.61653944 0.00000000
-0.63170431 0.15427935 0.16207491
0.62082650 -0.03650241 -0.00000117
-0.69850317 -0.39844527 -0.00000043
0.43680258 -0.36651278 0.00000000
-0.30650801 -0.28634768 0.00000000
-0.66151399 -0.24038848 -0.00000049
-0.18848591 -0.69875410 0.00000000
-0.44636877 -0.69342555 0.00000000
0.02008631 -0.52967081 0.00000000
0.26746584 -0.40470993 0.00000000
0.67868694 0.05389226 -0.00000158
-0.01464514 0.52834258 0.00000000
-0.74271448 -0.44042545 -0.00000045
-0.45601128 0.33810457 0.06804119
0.19930082 0.02369620 0.00000864
-0.47122031 0.32565645 0.03611404
0.74332289 -0.36846104 -0.00000108
0.17994258 0.08911292 0.00000795
-0.07918308 -0.22455367 0.00000000
-0.54505751 0.24985202 0.05886052
-0.70658018 -0.55262753 -0.00000031
-0.32054141 0.27439687 -0.00000022
0.77059227 -0.37151782 -0.00000107
-0.65531435 0.14319652 0.01721196
0.43082553 -0.29891593 0.00000000
-0.30622960 0.48042138 0.15436802
0.33668922 -0.71758672 0.00000000
-0.69362026 -0.04796276 -0.00000073
0.67482626 -0.62086290 -0.00000037
-0.36366265 -0.24490276 0.00000000
-0.06559171 -0.19907378 0.00000000
0.30729592 0.47258811 -0.00000043
0.77890941 -0.64367908 -0.00000039
-0.65760328 -0.25690701 -0.00000047
0.22509534 0.22466836 0.00000523
0.38476345 0.02455456 0.00000556
0.40125745 -0.00829520 -0.00000028
0.12057931 0.52427825 -0.00000003
-0.29953852 0.48005404 0.23598534
0.10324405 0.25900457 0.00000656
0.68208246 -0.37776028 -0.00000083
0.14668731 -0.42729827 0.00000000
-0.57467674 0.22083163 0.05193480
0.26256902 0.25603789 -0.00000016
-0.12241831 -0.43207151 0.00000000
0.63766293 -0.50880742 -0.00000041
-0.25281600 -0.20797388 0.00000000
-0.66870897 -0.06034547 -0.00000067
-0.50957980 0.26803211 0.25888800
-0.22551423 0.55790109 0.19178196
0.53582122 0.04328729 0.00000235
-0.65665409 -0.18472461 -0.00000053
0.02109927 -0.43753790 0.00000000
-0.65635942 -0.57009347 -0.00000019
-0.41441237 -0.57149968 0.00000000
-0.27200012 0.27438486 -0.00000012
0.03332261 0.03314403 0.00001100
0.79816309 -0.30995345 -0.00000123
0.32664314 -0.50682007 0.00000000
0.10411631 0.46850128 0.00000000
0.42589299 0.06561174 0.00000409
0.66283453 -0.12699517 -0.00000119
0.12185735 -0.62272081 0.00000000
0.21711581 0.49239543 0.00000097
-0.44425446 -0.66986558 0.00000000
0.14901876 0.01540451 0.00000952
-0.00163999 0.39775728 0.00000000
0.05530222 -0.04206815 0.00000000
0.62939222 -0.53544508 -0.00000033
-0.32602530 0.07615009 -0.00000006
-0.46137589 0.29988671 0.44793443
0.17166266 0.11935089 0.00000762
0.15882683 0.22947821 0.00000616
-0.60200104 -0.56428133 -0.00000008
0.08651561 0.15762198 0.00000000
0.50913092 0.18397301 -0.00000108
0.59135436 0.05914495 0.00000102
0.66433245 -0.27086391 -0.00000094
-0.42606360 0.37322015 0.00828139
-0.27386651 -0.33735227 0.00000000
0.43707772 -0.58697928 0.00000000
0.11675800 -0.42455847 0.00000000
-0.17889002 0.08344094 0.00000000
0.50090994 -0.51826082 0.00000000
0.64266195 0.10408420 -0.00000151
-0.54689313 0.24156215 0.13349618
0.76519024 -0.52687157 -0.00000068
-0.58765115 0.18215928 -0.00000071
-0.52324884 0.25486296 0.25310682
-0.11245271 0.40899258 0.00000000
0.15738363 0.10231722 0.00000809
0.10645903 -0.18650499 0.00000000
-0.45594671 0.29651281 -0.00000053
-0.60434802 0.17623497 0.22452821
0.44245505 0.16065567 -0.00000076
-0.22788498 0.55676892 0.17746058
0.69909869 -0.48926596 -0.00000070
0.61171777 0.07736477 0.00000032
0.06246220 0.65005151 -0.00000000
0.56810194 -0.21698763 -0.00000063
0.12074857 0.62861152 -0.00000021
-0.36293601 -0.59794480 0.00000000
0.02025286 0.49739747 0.00000423
-0.74775270 -0.12121865 -0.00000078
-0.41357290 -0.62068650 0.00000000
0.04525827 -0.51373332 0.00000000
0.12072071 -0.45577484 0.00000000
0.18006988 0.13154294 0.00000000
-0.36594271 0.37241656 -0.00000040
-0.04433622 0.24030924 0.00000000
0.00289509 0.59742817 0.00000299
0.60608262 0.16948267 -0.00000147
0.23305797 0.51894228 -0.00000050
-0.15196572 0.07597866 0.00000000
-0.40394479 -0.10212795 -0.00000006
0.27379084 0.32045712 0.00000275
-0.42028074 0.36722676 0.14445984
-0.43270057 0.03728923 -0.00000025
0.34333828 -0.28042305 0.00000000
-0.27351792 0.51006032 0.18989927
0.55553692 0.02923375 -0.00000101
0.25392352 -0.07995969 0.00000000
0.24356666 0.46168118 -0.00000044
-0.20064000 -0.70033259 0.00000000
-0.08025237 0.69616551 -0.00000008
-0.43306706 0.36604790 0.01023310
-0.33877965 -0.75004893 0.00000000
0.23458855 0.06791988 0.00000000
0.03379553 0.70831179 0.00000000
-0.47927445 -0.25345570 -0.00000009
-0.32935429 -0.33870153 0.00000000
0.32140856 -0.76551698 0.00000000
0.66486648 -0.14296403 -0.00000117
-0.08313942 0.07430727 0.00000000
-0.33925138 -0.65367309 0.00000000
0.40497050 -0.59920468 0.00000000
-0.22328768 -0.70290227 0.00000000
0.74878898 -0.09468630 -0.00000161
-0.37679099 -0.27134753 0.00000000
-0.14972911 0.63114627 0.22114890
-0.40690075 0.37532474 0.20554048
-0.21152189 0.56216519 0.30426710
0.02104993 -0.63697370 0.00000000
-0.54835166 -0.39856436 -0.00000011
-0.51236295 0.26900168 0.21549210
-0.43266050 0.33341884 0.39223876
0.16731269 -0.35036079 0.00000000
0.04107604 -0.78432018 0.00000000
0.79571196 0.00388269 -0.00000199
0.57623286 -0.42491064 -0.00000029
-0.11497015 -0.14278433 0.00000000
0.46588568 -0.42158603 0.00000000
0.52163094 -0.41973847 -0.00000007
-0.30914639 0.16603224 -0.00000010
0.11084417 -0.30104684 0.00000000
0.53813267 0.23026728 -0.00000082
0.29172357 -0.23657989 0.00000000
-0.61534235 -0.42206132 -0.00000023
-0.52881329 0.24450368 0.30855316
0.06005333 -0.60350849 0.00000000
-0.12428169 -0.61547230 0.00000000
-0.54715378 -0.38200616 -0.00000012
0.04097316 0.31962012 0.00000000
0.33570179 -0.10556067 0.00000000
0.28930787 0.13803787 0.00000550
0.00893269 0.55498569 0.00000354
0.19673640 -0.72320801 0.00000000
0.54349365 0.19300986 -0.00000125
0.11208579 -0.56179262 0.00000000
0.41500391 0.06092927 -0.00000046
0.05631994 0.41709574 0.00000000
-0.59184112 0.18664766 0.24874547
-0.29106076 0.18063031 -0.00000007
0.68336603 -0.61028585 -0.00000042
0.75296829 -0.11327141 -0.00000160
0.02197000 0.73129695 0.00000000
-0.24841107 0.14706876 0.00000000
0.07724614 -0.64865104 0.00000000
-0.06979196 -0.07216316 0.00000000
0.38897395 -0.67414703 0.00000000
0.17642655 -0.37854372 0.00000000
0.27674906 -0.51928188 0.00000000
0.66767354 -0.70083904 -0.00000020
-0.15682766 -0.78739674 0.00000000
-0.39572923 0.38999090 0.16512956
0.56999445 -0.25099115 -0.00000057
0.50193098 -0.31630375 -0.00000017
-0.76411871 -0.35780738 -0.00000055
-0.23949487 0.54043857 0.23204234
0.27654115 -0.50098374 0.00000000
-0.58764431 0.20638348 0.06905540
-0.38005499 0.20494316 -0.00000029
0.67279833 -0.12582892 -0.00000123
-0.42253080 0.27541053 -0.00000044
0.63082697 -0.11464167 -0.00000108
0.09508969 -0.57123297 0.00000000
0.06968810 0.17572116 0.00000831
-0.25747921 -0.35459571 0.00000000
-0.18562966 -0.66248573 0.00000000
0.25435731 0.47896598 -0.00000052
0.45833880 0.27971144 -0.00000011
-0.27771993 0.37855557 -0.00000022
-0.25610991 0.53618135 0.08914635
0.12067491 0.23016910 0.00000000
-0.23457387 0.15690978 0.00000000
0.64090836 0.08888382 -0.00000148
0.18020081 -0.12613493 0.00000000
-0.20644666 -0.20421081 0.00000000
-0.16768205 0.62290322 0.10887604
0.34252533 0.22846249 0.00000297
-0.52972684 -0.33353720 -0.00000013
0.54430348 -0.37673562 -0.00000024
0.50900528 -0.01599317 -0.00000073
-0.11866075 0.35619811 0.00000000
-0.60842061 -0.00095955 -0.00000059
-0.01173493 -0.66555372 0.00000000
0.72839747 -0.72741167 -0.00000018
0.59148477 -0.55098047 -0.00000014
-0.37016953 0.40944454 0.23573838
-0.51160364 -0.18918532 -0.00000022
0.35755576 0.21405750 -0.00000049
0.10151134 -0.08349940 0.00000000
-0.43032185 0.33526200 0.39796802
0.02428874 0.64201195 0.00000000
-0.12869069 -0.74883474 0.00000000
0.46383307 0.33576402 -0.00000116
0.01853827 -0.02791230 0.00000000
0.40239433 0.24240186 0.00000159
-0.35141620 0.43191044 0.19280875
-0.13697701 -0.63193259 0.00000000
0.01482011 0.63822813 0.00000220
-0.21551965 -0.09783901 0.00000000
0.72420285 -0.65784516 -0.00000036
-0.02770287 -0.24554218 0.00000000
0.50183266 0.26705857 -0.00000073
-0.33374540 0.46603846 0.00250099
-0.38750118 0.39467311 0.20613321
0.26396351 -0.38688110 0.00000000
-0.19503873 -0.00237208 0.00000000
-0.18232113 0.03746755 0.00000000
0.07781640 0.18474661 0.00000805
-0.48276768 0.28004682 -0.00000057
-0.01142500 0.45089695 0.00000000
-0.16233644 0.62751122 0.11740481
0.04709757 0.51091492 0.00000363
-0.30101557 -0.74644550 0.00000000
0.37289302 -0.50288140 0.00000000
0.60404940 -0.02973610 -0.00000111
-0.50240647 0.28997722 0.08807008
0.14946177 -0.30322511 0.00000000
-0.56497432 0.22306730 0.13827905
0.76588218 -0.26082330 -0.00000135
0.45741924 -0.78146757 0.00000000
-0.53602606 -0.51377974 0.00000000
0.53336818 -0.14953358 -0.00000060
-0.21301173 -0.31115719 0.00000000
-0.61803680 0.09045631 -0.00000069
-0.23373114 -0.21474733 0.00000000
-0.12341497 -0.23123191 0.00000000
-0.76407552 -0.33776994 -0.00000058
-0.78830675 -0.42621621 -0.00000047
0.44749046 -0.65898012 0.00000000
-0.01442104 -0.36917365 0.00000000
-0.37117157 0.26835193 -0.00000032
0.03210064 0.19297804 0.00000862
0.71337416 0.04912869 -0.00000172
0.68892610 -0.06353286 -0.00000141
-0.67326853 -0.52887198 -0.00000026
-0.00307915 -0.21724290 0.00000000
-0.13742993 0.12910895 0.00000000
0.30909621 -0.70921575 0.00000000
0.49576669 -0.42408477 0.00000000
0.34224132 -0.16457714 0.00000000
-0.49315705 -0.77560158 0.00000000
0.13265301 0.01516637 0.00000000
-0.21190022 0.39524655 -0.00000009
-0.02095559 -0.12066483 0.00000000
-0.46647012 -0.14263961 -0.00000016
0.49785213 -0.31662101 -0.00000015
0.06619077 0.00108727 0.00000000
0.13469819 0.16756585 0.00000000
-0.74002352 -0.07721799 -0.00000080
-0.58810299 0.12284906 -0.00000066
0.15364773 0.50647344 0.00000195
0.51885929 -0.41993963 -0.00000006
-0.12147382 0.12085505 0.00000000
-0.52349917 -0.00801542 -0.00000040
-0.38117983 0.38326073 0.41118648
-0.43026059 0.35300852 0.19347155
0.41199055 0.25860564 -0.00000080
-0.36866312 -0.47874517 0.00000000
-0.79540207 -0.29330135 -0.00000063
-0.08763323 -0.11524521 0.00000000
0.51202228 -0.77068706 0.00000000
-0.41461625 -0.13231320 -0.00000006
0.47762744 -0.38303089 0.00000000
-0.59722626 -0.63528773 -0.00000001
-0.28075038 -0.28722603 0.00000000
-0.60486846 0.07337644 -0.00000065
-0.32244926 0.44761422 0.34616852
0.79903783 -0.36804179 -0.00000108
-0.19185655 0.58612938 0.25455992
-0.30960964 0.45942828 0.35802652
-0.18684738 -0.08283061 0.00000000
-0.42609277 0.36098304 0.14945172
0.25746815 0.29728570 -0.00000021
-0.15745419 -0.61662375 0.00000000
0.02370852 -0.28059682 0.00000000
0.34887066 0.16107792 -0.00000036
0.50689268 -0.13617213 -0.00000051
0.50635432 -0.55519264 0.00000000
0.77871187 -0.24899418 -0.00000138
0.33722911 0.17386369 0.00000398
-0.45545902 0.19713787 -0.00000044
-0.12065524 -0.52643563 0.00000000
-0.26513399 0.52505254 0.11348482
-0.59670416 -0.16044029 -0.00000042
-0.52311126 -0.72948707 0.00000000
0.13719764 0.66046190 -0.00000034
-0.59902965 0.19317094 0.09018461
-0.12867755 -0.09196731 0.00000000
0.02705524 0.33297569 0.00000660
0.51240478 0.02870185 0.00000304
-0.34035115 0.45016130 0.10971366
0.38511923 -0.44377885 0.00000000
0.51190359 -0.11577037 -0.00000057
0.45991445 0.23508994 -0.00000096
0.21712567 0.42659701 0.00000207
0.06678190 0.38984314 0.00000514
0.07756137 0.62995533 0.00000135
0.33016170 0.37574529 -0.00000066
0.51556459 -0.29337154 -0.00000027
-0.27895235 0.34977349 -0.00000020
-0.39903414 -0.51526079 0.00000000
0.19152725 0.12762234 0.00000720
0.71474896 -0.67703131 -0.00000031
-0.36836854 0.24149936 -0.00000029
-0.37651121 0.41772907 0.06660469
-0.38623483 -0.12281902 -0.00000001
-0.20675097 -0.66424238 0.00000000
0.31947641 0.47593309 -0.00000079
0.37840686 0.34507348 -0.00000081
0.07707574 0.43171842 0.00000436
-0.00027857 0.30140368 0.00000000
-0.40021968 0.38782074 0.13829792
0.75180011 -0.25212184 -0.00000135
0.57190660 0.18954045 -0.00000136
0.39039670 0.31120127 0.00000067
-0.49812767 -0.45151414 0.00000000
0.44844228 0.02758891 0.00000429
0.60064664 0.13159100 -0.00000138
-0.22327729 0.52967460 -0.00000024
0.23623874 -0.43556377 0.00000000
-0.52651659 0.15840068 -0.00000056
-0.59548868 0.00174761 -0.00000057
0.17089709 0.40848944 0.00000326
0.48293555 -0.27289931 -0.00000016
-0.23526051 0.56151343 0.03731015
0.17631975 0.40531525 -0.00000005
-0.40284273 0.28243536 -0.00000040
-0.32354185 -0.65735454 0.00000000
-0.12046994 0.60030534 -0.00000008
-0.67022809 -0.59784100 -0.00000019
-0.22634808 -0.54987353 0.00000000
-0.26400295 0.52120640 0.17103896
0.28154910 0.50542722 -0.00000049
0.09493657 0.12489213 0.00000000
0.03236007 0.04206100 0.00000000
0.78114190 -0.29789700 -0.00000126
0.06462243 0.23815067 0.00000000
0.30403737 -0.12945006 0.00000000
0.31762608 -0.17111292 0.00000000
0.24712992 0.38926107 -0.00000033
-0.41935790 -0.78446456 0.00000000
0.22995016 0.48543699 0.00000084
-0.26581416 0.50210680 0.37094063
-0.58929455 -0.47096144 -0.00000013
-0.38688648 0.37671466 0.42089259
0.16776077 0.44366532 -0.00000009
0.36316582 -0.54509149 0.00000000
-0.26791961 0.24129650 -0.00000008
-0.50937067 0.17557181 -0.00000054
-0.53205743 -0.62951607 0.00000000
0.57846804 -0.43270291 -0.00000029
-0.39825937 0.36207807 0.45863029
-0.39868164 0.38050580 0.24067207
-0.71491956 -0.27302803 -0.00000058
0.17196313 0.44307208 0.00000266
0.38542478 -0.75469490 0.00000000
-0.51246967 0.25705997 0.35234571
-0.37715388 0.40942788 0.15516637
-0.71788163 -0.50053868 -0.00000037
-0.16629452 -0.63732269 0.00000000
0.15332265 -0.37070196 0.00000000
-0.36747595 0.16227757 -0.00000022
-0.15157549 -0.13025301 0.00000000
0.01009005 -0.10594371 0.00000000
0.18537440 -0.77168262 0.00000000
0.12481776 0.55430725 0.00000171
0.21258891 0.11534759 0.00000000
-0.77799501 -0.67440328 -0.00000016
-0.75418263 0.04289503 0.03378235
0.34142266 -0.02491158 0.00000000
-0.32390344 -0.07303089 0.00000000
0.37861233 -0.60203623 0.00000000
0.00255294 -0.28988242 0.00000000
0.65012074 0.01074969 0.00000070
0.20778254 -0.29992033 0.00000000
0.46738982 -0.75628179 0.00000000
-0.07094842 -0.06155307 0.00000000
0.73523301 -0.69643854 -0.00000026
0.05774292 -0.66531165 0.00000000
0.25892957 -0.72453305 0.00000000
0.38564589 -0.06763111 -0.00000011
-0.45801153 -0.32633877 0.00000000
0.42224364 -0.45318762 0.00000000
0.03772669 0.08442802 0.00001016
0.73464537 0.05707662 -0.00000170
0.03140180 0.55576010 0.00000319
0.15662471 0.57604149 -0.00000027
0.08264804 0.14432727 0.00000859
-0.68343903 0.00015121 -0.00000075
-0.10187446 0.62979232 -0.00000007
-0.51453380 -0.40513560 -0.00000003
-0.54045359 -0.43410432 -0.00000006
0.12916890 0.34517152 0.00000000
0.03332570 0.32784418 0.00000658
0.56639086 -0.43411304 -0.00000024
0.62001251 -0.10269315 -0.00000105
-0.20794304 -0.38392025 0.00000000
0.08623580 0.22487022 0.00000000
-0.11247968 -0.60069647 0.00000000
0.01083778 0.03651869 0.00000000
0.42795450 -0.40102510 0.00000000
0.00738556 0.24652884 0.00000000
-0.17283495 0.19246139 0.00000000
0.14891110 0.45223676 0.00000295
0.59636435 -0.34901560 -0.00000051
0.40687046 0.25029827 -0.00000076
0.71098892 -0.40360214 -0.00000091
0.71534916 -0.16836894 -0.00000134
0.42136072 -0.62795063 0.00000000
0.00504457 0.33757989 0.00000686
0.14323000 -0.13541450 0.00000000
-0.24902085 0.04598857 0.00000000
0.26872249 0.27852117 0.00000355
0.14920088 0.16638656 0.00000000
-0.40024385 0.22315879 -0.00000034
-0.67890283 -0.68966644 -0.00000013
0.28411134 0.40099959 -0.00000051
0.69696089 -0.25163084 -0.00000112
0.39141217 0.01696416 0.00000556
0.51030115 -0.20613922 -0.00000040
-0.39606686 -0.27614651 0.00000000
-0.46846407 0.31329069 0.21098208
-0.26340511 0.50325847 0.38547935
-0.42489252 0.35949644 0.18052202
0.23797990 -0.11846328 0.00000000
0.46452351 -0.17493382 -0.00000026
0.06940419 0.33961753 0.00000586
-0.35892830 -0.06838965 0.00000000
0.75910075 -0.18317195 -0.00000150
-0.46533060 -0.48590176 0.00000000
0.34913903 -0.78848165 0.00000000
0.79035526 -0.03012702 -0.00000191
-0.27310615 0.15913546 -0.00000002
0.49664694 0.03334840 -0.00000076
-0.13642540 -0.07502748 0.00000000
0.70848088 0.07432117 -0.00000148
-0.12202443 -0.75901996 0.00000000
-0.33909224 0.42056282 0.46651907
0.60811832 -0.26806378 -0.00000071
0.37438092 -0.48891417 0.00000000
0.20303461 -0.50229949 0.00000000
0.01887755 0.60891140 0.00000258
0.24666332 0.51727573 -0.00000001
-0.18267894 0.61294851 -0.00000022
-0.79381040 -0.12318690 -0.00000085
-0.27311915 -0.60757396 0.00000000
-0.32148999 -0.72491382 0.00000000
-0.21584925 0.37130282 -0.00000008
0.05273041 -0.04353132 0.00000000
-0.52396658 0.06840807 -0.00000047
-0.72176064 0.06075276 -0.00000089
0.22332701 -0.74171907 0.00000000
-0.04796450 0.48885337 0.00000000
-0.50128545 -0.70200269 0.00000000
0.60778736 -0.71207508 0.00000000
-0.58133896 -0.79941334 0.00000000
-0.62384103 -0.09798175 -0.00000054
-0.53417945 -0.64639030 0.00000000
0.06955450 0.50838875 0.00000000
-0.12497113 -0.12302016 0.00000000
0.64443290 -0.56508146 -0.00000034
0.29999780 0.15544900 0.00000501
-0.51823771 -0.58573712 0.00000000
0.28057159 -0.75801262 0.00000000
-0.33670921 0.39364717 -0.00000036
0.63693044 -0.73048105 -0.00000001
-0.67224684 -0.57522303 -0.00000022
-0.34551612 0.24680101 -0.00000025
-0.48329021 0.30816372 -0.00000060
0.35110341 -0.57927259 0.00000000
-0.09541306 0.40861560 0.00000000
-0.49322944 -0.77549231 0.00000000
-0.27622884 -0.55602438 0.00000000
0.12562677 0.26629468 0.00000000
0.38748251 0.29354134 -0.00000076
-0.49897718 0.29387374 0.08266726
0.20077270 0.11751142 0.00000721
0.70151828 -0.55929786 -0.00000059
-0.62154804 0.17461183 0.04439957
-0.16087706 -0.79643848 0.00000000
-0.29288640 -0.78327467 0.00000000
0.59872975 -0.05194307 -0.00000105
-0.46165416 -0.65225634 0.00000000
0.64950181 -0.33534169 -0.00000076
-0.69435255 -0.76925508 -0.00000004
0.26928407 -0.15007963 0.00000000
-0.49390059 -0.75891572 0.00000000
-0.13788689 -0.24427765 0.00000000
0.46500511 0.25318663 0.00000020
-0.45132089 0.31687391 0.36777875
-0.01518358 -0.20044196 0.00000000
0.37044998 0.22176773 -0.00000056
0.69380559 -0.19068702 -0.00000121
-0.25146302 -0.59920019 0.00000000
0.38360469 -0.70242089 0.00000000
-0.52198670 0.26582402 0.14095048
0.27711531 0.05285880 0.00000703
0.38064579 0.40340614 -0.00000092
0.28000938 0.00660538 0.00000768
-0.22209117 -0.06423109 0.00000000
-0.48814329 0.27935376 0.37584757
-0.34381676 0.11442398 -0.00000013
0.54457450 0.12308649 0.00000085
0.06275081 0.12458621 0.00000918
0.57201585 0.07348636 0.00000115
0.21686304 0.42862176 0.00000204
-0.65521810 0.13077445 0.16197145
-0.58589193 -0.00387865 -0.00000054
0.34404205 -0.19717042 0.00000000
-0.75508339 -0.47091543 -0.00000041
-0.56758227 -0.69686312 0.00000000
-0.47749044 -0.02116023 -0.00000029
0.14214878 0.25490975 0.00000603
-0.17226657 -0.46938976 0.00000000
-0.76677765 -0.25379682 -0.00000068
-0.25798420 0.22378613 -0.00000004
0.23245859 0.20046657 0.00000549
-0.32261273 0.44548811 0.36886196
-0.04878167 0.55712912 0.00000000
-0.04881794 -0.14376611 0.00000000
-0.51673829 0.25369681 0.34187626
0.28735012 0.37648782 0.00000156
0.15629858 -0.64933163 0.00000000
0.32212438 -0.65063250 0.00000000
-0.71548445 -0.32895607 -0.00000053
0.18359956 0.32446247 0.00000000
-0.20717815 0.57364611 0.22174124
0.39733754 -0.64260304 0.00000000
-0.08966993 0.06926246 0.00000000
-0.73199735 0.06271519 0.06113276
-0.46755709 -0.46306626 0.00000000
0.66437530 0.06090844 -0.00000153
0.52884355 -0.75048022 0.00000000
-0.14340383 -0.14822262 0.00000000
-0.20238923 -0.16511482 0.00000000
0.18586212 0.46189281 -0.00000020
-0.18378990 0.59735239 0.21806343
0.32225863 -0.06073427 0.00000000
0.02893875 0.34384471 0.00000641
-0.35094487 0.27768091 -0.00000029
-0.00569311 0.39565305 0.00000000
0.31707856 -0.36509144 0.00000000
-0.37793783 0.39736496 0.28558885
0.44735050 -0.07793228 -0.00000036
-0.28529415 -0.25151425 0.00000000
-0.23623503 -0.63877030 0.00000000
-0.75227804 -0.19386501 -0.00000073
0.01251110 0.57703131 0.00000316
0.52063281 -0.48598312 0.00000000
-0.55186785 -0.03980597 -0.00000044
0.50646556 -0.51883923 0.00000000
-0.78561145 -0.08854409 -0.00000089
-0.56938062 0.22077344 0.11385109
-0.12709717 -0.55463778 0.00000000
-0.39285981 -0.78668417 0.00000000
-0.47828599 -0.46980687 0.00000000
0.00830177 0.42801992 0.00000000
0.40344354 -0.07221705 -0.00000018
-0.57186867 -0.09645414 -0.00000043
0.66884641 -0.17840157 -0.00000112
-0.06667015 -0.43386244 0.00000000
-0.40878436 -0.13235073 -0.00000005
-0.61313137 -0.51096963 -0.00000015
-0.24990213 -0.71227657 0.00000000
-0.65878998 -0.10563461 -0.00000061
0.32103068 0.20354634 0.00000380
0.34682032 -0.41954328 0.00000000
0.46891940 0.15832204 0.00000171
-0.47643434 -0.46906471 0.00000000
0.51690966 0.07818047 0.00000213
-0.50499316 -0.37588814 -0.00000004
0.74513608 0.02453580 -0.00000136
0.32540567 -0.59804778 0.00000000
0.70083416 -0.25467664 -0.00000113
0.10976066 0.37827576 0.00000000
-0.40870149 0.34947315 0.48363858
0.05782988 -0.40554164 0.00000000
0.16091367 0.62695742 -0.00000020
0.16504955 0.30551825 0.00000493
-0.43558639 0.16427704 -0.00000037
0.11475879 0.63121674 0.00000062
-0.26114802 -0.60698266 0.00000000
-0.14428210 -0.41375703 0.00000000
0.12464913 0.62052078 0.00000060
0.33138187 0.40823326 0.00000018
-0.10186046 -0.22232983 0.00000000
0.45539382 0.33328923 -0.00000095
-0.52560013 -0.59724197 0.00000000
-0.38474472 -0.25277180 0.00000000
-0.61054932 -0.65177795 -0.00000002
0.67222276 -0.23082561 -0.00000105
-0.71252070 -0.27561658 -0.00000057
0.44150613 0.18203201 0.00000184
-0.28355986 -0.40125520 0.00000000
0.28016703 0.18474849 -0.00000011
0.34311889 0.19661882 -0.00000040
-0.31802182 -0.72880361 0.00000000
-0.31762445 0.45135192 0.35873842
0.08737312 0.23568148 0.00000715
-0.08237157 -0.40328193 0.00000000
-0.06588102 -0.63396371 0.00000000
0.11586369 0.45282023 0.00000346
-0.32121818 0.45259665 -0.00000038
0.60969835 -0.63052829 -0.00000007
0.30448798 0.06395350 0.00000645
-0.64874037 0.14839819 0.03308121
-0.27587394 0.50682451 0.20007218
0.16565497 -0.42650977 0.00000000
-0.36748195 0.18180267 -0.00000024
-0.56800480 -0.12726108 -0.00000039
0.31105229 0.40125188 -0.00000062
-0.35939338 0.41250519 0.32495068
0.28100721 0.25906257 0.00000364
0.09053083 0.30428945 0.00000607
-0.72387056 -0.55598395 -0.00000031
-0.30884590 0.45245011 0.44754444
-0.78583075 -0.75272126 -0.00000006
0.05414332 0.55778393 0.00000282
0.44343008 0.19059293 0.00000166
-0.73264795 0.01771303 -0.00000087
-0.10539861 0.08495784 0.00000000
0.29696351 0.10538496 0.00000590
-0.25205890 -0.14936686 0.00000000
-0.76423891 -0.71788406 -0.00000010
-0.27579393 -0.14158331 0.00000000
-0.42585382 0.07762640 -0.00000027
-0.27095287 -0.49397318 0.00000000
0.15761104 0.56715735 -0.00000026
0.29305046 0.08546654 0.00000630
0.24704486 0.19067375 0.00000000
0.40387491 0.39101875 -0.00000092
-0.69601303 -0.45618973 -0.00000037
0.33670668 0.18109343 -0.00000034
0.13873488 0.60297336 0.00000063
-0.57690633 0.21081945 0.14193111
0.42278591 -0.34237778 0.00000000
0.72796805 -0.26932560 -0.00000122
0.60939557 -0.22087265 -0.00000080
0.22159417 -0.63648243 0.00000000
0.47036473 0.12618193 -0.00000082
-0.46780875 -0.06688800 -0.00000023
-0.28430517 0.51467485 0.01179800
-0.71846373 -0.02038106 -0.00000081
0.27971595 0.12011360 0.00000598
0.03373052 0.02855870 0.00001106
0.14103144 0.34263561 0.00000473
0.26551627 0.25731862 0.00000397
0.35973359 -0.31733266 0.00000000
0.15596719 0.53964764 -0.00000021
0.01636265 0.03760694 0.00001119
0.01401280 -0.36971814 0.00000000
-0.47531453 -0.53064831 0.00000000
-0.51531319 -0.59892060 0.00000000
-0.70065070 0.09504875 0.04972128
-0.35536102 -0.21995144 0.00000000
0.72596341 -0.21024702 -0.00000131
0.60561708 -0.65592228 -0.00000001
-0.41322096 0.37872069 0.09318448
0.39915270 0.31757483 -0.00000085
0.76336534 -0.49892023 -0.00000075
-0.10908855 0.21939791 0.00000000
-0.45567163 -0.76686963 0.00000000
-0.14562511 -0.55599172 0.00000000
-0.38158097 -0.40435585 0.00000000
-0.14557381 0.64450539 0.11472714
-0.54047532 0.25760495 0.02219478
-0.12418169 -0.40753678 0.00000000
-0.34224842 -0.57617030 0.00000000
-0.21923116 -0.45891101 0.00000000
-0.68850046 0.10282960 0.10024853
0.33929673 -0.50147149 0.00000000
0.28978591 -0.78265157 0.00000000
-0.13943350 0.19346495 0.00000000
-0.60033926 -0.04325691 -0.00000054
0.41033265 0.07449875 -0.00000047
0.15336265 0.30561500 0.00000000
-0.64010788 0.15008561 0.11339303
0.10639457 0.08309065 0.00000000
0.08666504 -0.76034803 0.00000000
-0.53250119 -0.46754873 -0.00000002
-0.57571211 0.13360146 -0.00000064
-0.21700167 0.57953825 0.04001685
0.06952000 0.36745180 0.00000000
-0.48741043 0.14118934 -0.00000046
0.69193571 -0.47370884 -0.00000070
0.27449575 -0.49618365 0.00000000
0.57809670 0.06478324 -0.00000117
-0.49466619 0.27679409 0.33002179
-0.46018908 -0.05524053 -0.00000023
-0.31125197 -0.10093141 0.00000000
-0.59348751 -0.27153715 -0.00000032
-0.59998367 -0.29612633 -0.00000031
0.00966408 0.77407637 0.00000024
-0.45260152 0.33307982 0.16557636
-0.33113649 -0.71640640 0.00000000
0.53340433 -0.00205472 -0.00000086
-0.73688355 -0.73985639 -0.00000008
0.62193535 0.12797306 -0.00000147
0.38038245 0.14573813 0.00000362
0.29759783 -0.69862752 0.00000000
-0.25107512 -0.23988566 0.00000000
-0.02996764 0.30979603 0.00000000
0.51747065 0.00577781 -0.00000080
-0.49614033 0.29491016 0.10348711
-0.59708329 0.11484413 -0.00000067
-0.33220492 0.44898203 0.21755053
-0.16256278 -0.20665858 0.00000000
0.00009947 0.53152899 0.00000403
-0.13442621 0.05135722 0.00000000
0.30815271 -0.73412562 0.00000000
0.26498189 -0.74753753 0.00000000
-0.14398887 0.19401093 0.00000000
-0.23218964 -0.79504423 0.00000000
-0.10177353 -0.47257619 0.00000000
0.30430790 0.31993752 0.00000218
0.19776082 0.08949337 0.00000000
-0.23381273 0.55928907 0.07977414
0.74458096 0.02162510 -0.00000180
0.13550447 0.37813496 0.00000000
0.15321667 0.38615946 0.00000390
0.07994608 0.41933957 0.00000450
0.63660197 -0.51507252 -0.00000039
0.35392634 0.27222511 0.00000202
-0.26951394 0.10375848 0.00000000
-0.19361513 0.35323183 -0.00000002
-0.02234966 0.55533381 0.00000000
0.05149701 0.34271014 0.00000608
0.46865578 -0.22570193 -0.00000019
-0.43616274 0.34784680 -0.00000053
-0.00336178 0.32827257 0.00000000
0.67110338 0.03532459 -0.00000011
0.45076647 0.08404248 0.00000330
-0.14455256 -0.23624045 0.00000000
-0.68039346 -0.41019283 -0.00000038
0.68345251 -0.26790583 -0.00000103
0.22489284 -0.66832990 0.00000000
-0.56771614 0.20913246 0.26771300
0.48991303 -0.73013377 0.00000000
-0.11299228 0.06742696 0.00000000
0.29898055 -0.06080459 0.00000000
0.04871441 0.18101225 0.00000855
0.43472853 -0.53576132 0.00000000
0.37447229 -0.27649975 0.00000000
0.22139464 -0.31758532 0.00000000
0.38676340 0.29565448 -0.00000076
0.35788063 -0.75695998 0.00000000
-0.51499716 0.26628537 0.21644145
0.29022966 0.42577470 -0.00000058
0.61377440 0.00606104 0.00000148
0.51356740 0.09683156 0.00000188
-0.55633617 -0.23232046 -0.00000027
-0.21942235 -0.58128597 0.00000000
-0.38827762 0.10656167 -0.00000022
0.71702910 -0.62753840 -0.00000043
-0.45257828 0.33514847 0.14192365
0.09792087 0.14271337 0.00000838
0.72538348 -0.12431376 -0.00000146
-0.09383534 -0.30402203 0.00000000
0.08983688 0.06056748 0.00000000
-0.06252539 0.40095674 0.00000000
-0.64881993 -0.33862670 -0.00000038
-0.40879671 -0.27138743 0.00000000
-0.32162048 -0.52992900 0.00000000
0.12260074 0.67462884 -0.00000030
-0.61339753 -0.12797239 -0.00000049
-0.64835238 -0.66333372 -0.00000009
-0.53949956 -0.31599138 -0.00000016
0.64223766 -0.75265183 0.00000000
-0.38086503 0.26757776 -0.00000034
-0.48123399 -0.00306307 -0.00000032
-0.56329876 0.23064928 0.06997838
0.11234807 0.23112827 0.00000684
-0.64916633 0.14188223 -0.00000080
0.24685059 -0.34066590 0.00000000
-0.55070803 0.22993971 0.22378091
0.56435566 -0.37666597 -0.00000033
-0.37409298 -0.19050164 0.00000000
0.11619882 -0.77644062 0.00000000
-0.45368426 0.33536261 0.12665793
-0.79760476 -0.79855751 -0.00000000
-0.06459135 -0.46789518 0.00000000
0.66878783 -0.12642530 -0.00000122
0.36329681 -0.48010469 0.00000000
-0.09890595 -0.02045341 0.00000000
-0.61229924 -0.79849854 0.00000000
-0.46598382 -0.79809832 0.00000000
-0.37152589 0.20267477 -0.00000026
0.37271615 -0.55731021 0.00000000
0.43047597 -0.26746581 0.00000000
0.13220007 0.25441317 0.00000619
0.15690456 0.52789046 0.00000153
-0.73545643 -0.38833660 -0.00000051
-0.46586687 -0.36269254 0.00000000
0.32035466 0.38762938 0.00000074
0.06804547 0.66693728 -0.00000006
-0.55110676 0.24859170 0.00348210
0.17794814 0.18513037 0.00000654
-0.25257938 -0.67585715 0.00000000
0.56746039 -0.54492204 -0.00000004
0.10068955 0.43803093 0.00000000
0.08476180 0.55340828 0.00000000
-0.11739062 -0.19246792 0.00000000
0.20370889 0.28397180 0.00000467
0.00781507 0.53726691 0.00000000
0.20270910 0.56468158 -0.00000045
0.62309275 -0.20744479 -0.00000088
-0.06183026 -0.15845748 0.00000000
-0.49942714 -0.24964662 -0.00000014
-0.06254634 -0.13966381 0.00000000
0.01141686 -0.10308520 0.00000000
0.10066798 -0.67171986 0.00000000
-0.68037525 0.11889223 -0.00000085
0.08808127 0.70467516 -0.00000010
0.49403462 -0.11572776 -0.00000049
-0.00563845 0.58670030 0.00000000
0.20681049 0.26154925 0.00000000
-0.20772768 0.57945210 0.14825391
-0.47241592 -0.44492827 0.00000000
-0.23507397 0.55777874 0.08265458
-0.38775725 0.08843887 -0.00000020
0.75282906 -0.65955692 -0.00000035
-0.17099610 0.62699607 0.02322475
0.26291072 -0.38133426 0.00000000
0.74824300 -0.05504410 -0.00000168
0.27365511 -0.19819224 0.00000000
0.79589710 -0.26245211 -0.00000134
-0.24036225 0.03265821 0.00000000
0.00615562 -0.42015709 0.00000000
0.74585535 -0.56154077 -0.00000060
0.24342780 0.23055650 0.00000484
-0.53902243 -0.22756162 -0.00000024
0.32604915 0.14617858 -0.00000024
-0.19708741 0.15487203 0.00000000
0.12800911 -0.27084579 0.00000000
0.21668424 0.00020452 0.00000000
0.09622888 -0.69515709 0.00000000
-0.55803346 0.22328923 0.21597580
0.19939616 0.32953078 0.00000403
0.65882542 -0.73394927 -0.00000010
0.20096191 0.49590669 0.00000122
-0.08980545 -0.30795788 0.00000000
-0.07274360 0.38080008 0.00000000
0.64407551 -0.24458117 -0.00000090
-0.25649767 -0.09621805 0.00000000
0.03261704 0.60094757 0.00000249
-0.15787844 0.63111484 0.12728369
-0.09289765 0.55802032 0.00000000
0.25561213 -0.25578136 0.00000000
-0.34913456 0.43013213 0.23975445
0.51914324 0.01651367 -0.00000083
0.70319369 -0.30032171 -0.00000106
0.03578664 -0.13865095 0.00000000
0.54366809 0.13310041 -0.00000114
-0.55827420 -0.45544081 -0.00000008
0.21024432 0.49587885 -0.00000036
-0.09785663 0.09689146 0.00000000
0.25622658 -0.06953454 0.00000000
-0.14988828 0.60073810 -0.00000014
0.05453147 0.56158495 0.00000000
-0.60638961 -0.19152946 -0.00000042
0.21518439 -0.57484919 0.00000000
0.07205648 -0.00592243 0.00000000
-0.47099112 0.01074428 -0.00000031
-0.01917934 -0.39528761 0.00000000
0.29172040 0.01048981 0.00000744
-0.03363140 0.32139061 0.00000000
0.08071180 0.70882559 -0.00000003
0.35341859 -0.76714093 0.00000000
0.34768298 -0.28462044 0.00000000
-0.47839351 0.28564135 0.41587974
-0.21229899 -0.16314657 0.00000000
0.40357624 -0.17920298 0.00000000
-0.16032360 -0.49906204 0.00000000
-0.36209873 -0.40393477 0.00000000
-0.04930026 -0.33437930 0.00000000
-0.35041313 0.44603520 0.04107200
0.53957744 0.15134303 0.00000047
-0.01233424 -0.29515654 0.00000000
0.51306762 -0.72576226 0.00000000
0.29226671 -0.19870425 0.00000000
0.35118405 -0.08143913 0.00000000
0.14769394 0.13785777 0.00000000
-0.07939052 0.23568136 0.00000000
-0.70896017 0.00272856 -0.00000081
-0.39306947 0.37092167 0.41638327
0.48300219 0.18702026 0.00000096
-0.72931563 -0.34902190 -0.00000054
0.01041178 0.32303674 0.00000700
0.52188184 0.06401072 -0.00000093
-0.11538029 0.67241306 0.14115712
0.50663515 -0.57354211 0.00000000
0.08887826 0.47610510 0.00000352
0.08538407 -0.66230279 0.00000000
-0.01125236 0.42310592 0.00000000
0.11126862 -0.04016141 0.00000000
0.55073756 0.07185771 0.00000159
0.19496616 0.04102950 0.00000000
0.22621419 0.15054739 0.00000000
-0.70606201 -0.17170174 -0.00000065
0.42211278 0.33004090 -0.00000026
-0.18400879 -0.15167902 0.00000000
0.28509453 0.07039075 0.00000000
-0.62643090 0.04630164 -0.00000067
-0.09056843 -0.05395635 0.00000000
0.77555711 -0.33056243 -0.00000117
-0.18602210 0.59067753 0.26943302
-0.34351187 0.25245795 -0.00000025
0.67949317 0.02751414 -0.00000153
-0.49684698 0.29947545 0.04252350
-0.21426144 0.56776343 0.20785907
0.06445965 0.44628791 0.00000000
0.42970261 0.29023112 0.00000026
0.54540775 -0.54971314 0.00000000
-0.79018499 -0.45500756 -0.00000043
0.06054517 0.23868076 0.00000000
0.44009348 -0.18384191 -0.00000014
0.42076084 -0.77775836 0.00000000
-0.75979028 -0.19269641 -0.00000074
-0.30691895 0.49136884 0.01980217
0.28307645 0.44690899 0.00000046
-0.37017570 0.40806141 0.25165981
-0.18473678 0.59462575 0.23864241
-0.49876331 -0.10025635 -0.00000027
0.72902924 -0.07918368 -0.00000156
-0.46910792 -0.46740969 0.00000000
0.26490477 0.11199016 0.00000000
0.11065858 0.14411213 0.00000817
0.14129636 0.16516535 0.00000739
0.32577725 0.46927475 -0.00000081
0.48483485 -0.24175921 -0.00000023
-0.17951507 -0.26828080 0.00000000
0.12474634 0.09002308 0.00000877
0.27914981 -0.16544259 0.00000000
0.69539849 -0.18538380 -0.00000123
0.46903048 -0.45909727 0.00000000
-0.37351068 -0.24949691 0.00000000
-0.41415986 0.35288991 0.38101752
0.04489682 0.27565277 0.00000719
0.25961843 -0.43876677 0.00000000
-0.26732463 0.50390617 0.33266973
0.58010306 -0.33374820 -0.00000047
0.11851370 -0.14196024 0.00000000
0.02316518 0.38369534 0.00000000
0.08408096 -0.74618679 0.00000000
-0.59520638 0.19211852 0.14656624
0.04855481 0.67393990 0.00000000
-0.14393090 -0.76360409 0.00000000
0.06306941 -0.20048676 0.00000000
-0.19087557 -0.12935807 0.00000000
0.62924896 -0.47012943 -0.00000044
0.03768953 -0.24463271 0.00000000
0.45923945 -0.72383080 0.00000000
0.51934354 0.26260081 -0.00000127
-0.36192167 0.40741285 0.35459827
0.70446591 -0.15721665 -0.00000131
0.20194884 -0.11529910 0.00000000
-0.63419288 -0.49519625 -0.00000021
-0.19222159 -0.24985358 0.00000000
-0.14921959 0.64913796 0.01900024
0.56400018 -0.61424117 0.00000000
-0.45002913 0.33543007 0.16814511
-0.62727219 -0.55943697 -0.00000014
-0.13471802 -0.18392979 0.00000000
-0.64962891 0.02792117 -0.00000070
-0.03819187 -0.36378210 0.00000000
-0.69939708 -0.30659126 -0.00000051
-0.58205727 -0.73234303 0.00000000
0.21598890 0.36107601 -0.00000015
0.06415876 0.01743634 0.00001077
0.69947818 -0.78382540 -0.00000004
0.09591416 0.30120779 0.00000603
0.53778265 0.18208695 -0.00000120
-0.64214226 -0.21871371 -0.00000047
-0.48857284 -0.17852846 -0.00000018
-0.71801453 -0.31737968 -0.00000054
-0.07703119 -0.00986617 0.00000000
0.59435909 0.05946272 0.00000096
-0.26137133 -0.14861143 0.00000000
-0.36690608 0.33268701 -0.00000037
-0.46725136 -0.36542419 0.00000000
0.24949270 0.12752855 0.00000632
-0.03626999 0.29079762 0.00000000
0.31219426 -0.03117156 0.00000000
0.75633975 -0.05419062 -0.00000172
-0.31504831 0.46800920 0.19592125
0.57453709 0.13165554 -0.00000127
0.18249905 0.54054571 0.00000083
0.34115681 -0.36260762 0.00000000
-0.15552622 0.49278936 -0.00000006
-0.49513602 0.27956337 0.29256834
0.39905224 0.17274523 0.00000281
-0.29993277 -0.14064944 0.00000000
-0.52201054 0.26896156 -0.00000064
-0.25583114 -0.36695705 0.00000000
0.05213828 0.25203654 0.00000000
0.26249872 0.43390284 0.00000107
0.58931139 -0.51121122 -0.00000020
0.57529997 0.15285368 -0.00000024
0.23572127 0.31138461 -0.00000014
-0.57758897 0.15620714 -0.00000066
-0.33063172 -0.69625500 0.00000000
-0.19261788 -0.47107842 0.00000000
0.17292324 -0.79374293 0.00000000
0.10708944 -0.41729459 0.00000000
0.77863916 -0.66368449 -0.00000034
-0.43087241 0.33339927 0.41314033
-0.04530034 0.51227529 0.00000000
-0.17910184 0.61268956 0.09492889
-0.50136445 -0.74740730 0.00000000
0.49039649 -0.05571454 -0.00000058
0.07658267 0.16389563 0.00000000
0.27112137 -0.69801549 0.00000000
0.79385361 -0.39647599 -0.00000101
0.26781111 0.00263653 0.00000000
0.31009979 -0.70329615 0.00000000
-0.25611657 -0.58324331 0.00000000
0.27602633 -0.66194957 0.00000000
0.26454651 0.15168175 0.00000000
-0.25131485 0.54382035 0.05625974
-0.75635266 -0.58326371 -0.00000027
0.19747430 -0.19803802 0.00000000
0.00896200 0.13638949 0.00000982
0.24998765 -0.71845941 0.00000000
0.64994593 0.07444315 -0.00000149
-0.02883728 -0.74335290 0.00000000
0.24379198 0.44561807 -0.00000041
-0.36534125 0.39235438 0.48917612
0.57612778 -0.04636680 -0.00000096
0.15718900 -0.39786088 0.00000000
-0.54797432 0.22392570 0.32493801
0.02007318 0.27387481 0.00000000
0.49171616 -0.71904061 0.00000000
-0.76175248 0.03436520 0.04488316
0.15657195 0.30366869 0.00000000
0.33394163 0.25956347 0.00000261
0.06141348 -0.50454890 0.00000000
0.62108737 -0.16149193 -0.00000095
0.37379843 0.14128880 0.00000382
0.47980927 -0.76017658 0.00000000
0.01127823 0.00543876 0.00001175
0.22268116 0.15589970 0.00000000
0.41852453 0.08108074 0.00000397
-0.37269912 -0.59185032 0.00000000
0.35987196 0.32211842 -0.00000069
0.65293245 -0.64070519 -0.00000024
0.28888553 0.34459863 -0.00000043
-0.32374110 0.47170129 0.05270521
-0.57097313 0.20574813 0.26918551
0.07597987 0.22192463 0.00000752
0.17100940 0.21509027 0.00000000
0.03864374 0.58752947 0.00000260
-0.31839370 0.45430087 0.31574567
-0.08626735 0.23101428 0.00000000
0.00495972 0.58076417 0.00000321
0.22648467 -0.02613363 0.00000000
0.22541657 0.32165509 -0.00000012
0.19833714 -0.55362503 0.00000000
-0.60395761 -0.73166539 0.00000000
-0.35117642 0.44475410 0.04705978
-0.03352620 -0.37091100 0.00000000
-0.63928394 0.14892689 0.13632016
-0.70845418 -0.05913009 -0.00000075
0.11259128 0.38223302 0.00000000
-0.26481302 -0.01480677 0.00000000
0.46450751 -0.77706618 0.00000000
-0.63082773 -0.28145606 -0.00000039
0.60652934 0.15900974 -0.00000146
0.05085369 0.27212002 0.00000000
-0.44889328 -0.06291307 -0.00000020
-0.00427610 0.20545611 0.00000000
-0.24623289 -0.05464860 0.00000000
0.09811711 0.25770769 0.00000665
-0.01965911 -0.58677733 0.00000000
-0.13597104 -0.25910970 0.00000000
-0.09783639 0.69959906 0.02966469
0.01348321 0.59379379 0.00000289
-0.42011007 0.36631097 0.15702352
-0.45971101 -0.65308325 0.00000000
0.13576876 -0.16985693 0.00000000
-0.22801218 -0.22529915 0.00000000
-0.57561148 -0.19945852 -0.00000034
0.46122663 -0.22205630 -0.00000016
-0.42796121 0.33798158 0.39381755
0.59304883 -0.72434529 0.00000000
0.12512214 0.60398756 -0.00000019
-0.62651957 -0.49856500 -0.00000019
0.59013028 0.12923949 -0.00000133
0.13004378 0.05262005 0.00000000
0.51738105 0.23218422 -0.00000120
-0.16516712 0.40790889 -0.00000001
-0.70418542 -0.23644655 -0.00000059
-0.51917609 -0.56644324 0.00000000
-0.34430339 -0.27237748 0.00000000
-0.50087976 0.29255831 0.07587747
-0.66760112 -0.58412996 -0.00000020
0.43117349 -0.31411587 0.00000000
0.73504598 -0.04185633 -0.00000165
-0.48536583 -0.47723550 0.00000000
-0.48991988 -0.31613297 -0.00000006
-0.14010513 -0.01516440 0.00000000
-0.03231377 -0.16351224 0.00000000
0.29674276 0.01332502 0.00000732
0.47517052 -0.59011143 0.00000000
0.75670940 -0.19500091 -0.00000147
-0.11494465 -0.51847586 0.00000000
-0.10120346 -0.54003626 0.00000000
-0.76287655 0.03631725 0.00931149
0.42437263 -0.63756050 0.00000000
0.12274061 0.39526033 0.00000422
-0.07816189 -0.38856677 0.00000000
-0.35837889 0.40478038 0.42600106
-0.39053521 0.39252006 0.19594566
-0.47814228 -0.18178319 -0.00000015
0.71799842 -0.60222415 -0.00000049
-0.65888998 -0.70446412 -0.00000008
-0.73431123 -0.38720093 -0.00000052
-0.36811966 -0.56100729 0.00000000
-0.78748226 -0.51694217 -0.00000035
-0.64070720 0.14329310 0.18500984
0.72501728 -0.20512672 -0.00000132
0.06540774 0.33672401 0.00000000
-0.35173590 0.42143604 0.31022674
-0.49222951 -0.20174155 -0.00000016
-0.09755129 0.69442896 0.09274454
0.24697011 0.46934544 -0.00000047
0.10186181 0.35435117 0.00000515
0.11397764 0.53449184 0.00000225
0.61082592 -0.21710040 -0.00000081
-0.54693493 0.03216005 -0.00000049
0.45695112 -0.25700266 -0.00000008
-0.21175389 -0.08174133 0.00000000
0.75101791 0.01575792 -0.00000132
-0.48833328 0.20032514 -0.00000051
0.15503559 -0.63559802 0.00000000
0.33539948 -0.37712806 0.00000000
-0.31305059 0.46320990 0.27451368
0.68756299 0.08969333 -0.00000168
0.34125066 0.42247327 -0.00000079
-0.37661798 -0.22978355 0.00000000
0.18428467 0.23066002 0.00000576
-0.58003455 -0.14020178 -0.00000041
0.37361363 0.19183390 0.00000298
0.30276307 0.06944778 -0.00000000
0.09333296 0.60129713 0.00000153
-0.45760237 -0.26553750 -0.00000003
0.02532942 0.58043729 0.00000291
-0.59120960 0.20142841 0.08512650
0.54972064 -0.13475456 -0.00000069
-0.55883438 -0.54172604 -0.00000001
0.39244692 -0.70573475 0.00000000
0.13066771 -0.37313905 0.00000000
0.34178929 0.28945597 0.00000196
-0.34361242 -0.70893444 0.00000000
0.21944786 0.28427746 -0.00000002
0.08707102 -0.75407543 0.00000000
0.05541832 0.55183929 0.00000000
-0.40025343 0.37386550 0.29927813
0.50491050 0.12166342 -0.00000096
0.30214590 0.35952267 -0.00000051
-0.58264259 -0.18338972 -0.00000037
0.43656916 0.07119175 0.00000379
-0.78873395 -0.45583728 -0.00000043
-0.49182271 -0.28894192 -0.00000009
-0.76331438 -0.16579084 -0.00000078
-0.45665103 0.30720947 0.41789537
-0.04094846 0.17529343 0.00000000
0.48737839 -0.28687658 -0.00000016
-0.22583423 -0.78681724 0.00000000
0.24910971 0.35148538 -0.00000027
-0.55102204 -0.61376101 0.00000000
-0.45896608 0.22134029 -0.00000047
-0.21634059 0.56245598 0.24518724
0.40930059 0.24758007 0.00000137
-0.45999381 -0.00740381 -0.00000027
-0.67574920 -0.16951652 -0.00000059
-0.10331667 -0.28032939 0.00000000
-0.31579197 -0.40325160 0.00000000
-0.38164011 0.41161123 0.07804037
0.20063249 -0.35989021 0.00000000
-0.07307116 -0.50955795 0.00000000
-0.02713770 -0.32660385 0.00000000
-0.01340149 -0.51013934 0.00000000
-0.40433705 -0.73385025 0.00000000
-0.65687102 -0.69176803 -0.00000008
-0.27268995 0.49729358 0.34709168
0.12169017 -0.39883592 0.00000000
-0.07218839 0.71859067 0.10663303
0.22532603 0.42856273 0.00000188
-0.78081226 -0.22809563 -0.00000071
0.40350100 -0.49156601 0.00000000
-0.03550525 0.20483490 0.00000000
0.50646181 -0.30782005 -0.00000020
0.26685173 0.28594167 -0.00000023
-0.23543473 0.24547043 -0.00000001
0.30125607 -0.17427148 0.00000000
-0.20738176 0.58387040 0.10116386
-0.28652891 0.17076185 -0.00000006
-0.47811675 -0.21013040 -0.00000013
0.09517354 0.61931718 -0.00000009
-0.10191502 -0.75853744 0.00000000
-0.34878338 0.28348024 -0.00000029
0.71299558 -0.39864858 -0.00000092
-0.12677007 0.63320334 -0.00000012
-0.59604846 0.19053388 0.15515301
-0.03460493 0.22375147 0.00000000
-0.51719304 0.09330620 -0.00000048
0.09202557 0.44226129 0.00000398
-0.58448964 -0.05863731 -0.00000049
0.12661607 0.12662771 0.00000819
0.07939240 0.06457914 0.00000000
0.43712281 -0.15788575 -0.00000017
0.36489956 0.04018757 0.00000568
-0.45506696 0.31236437 0.37660661
-0.04342731 -0.21467978 0.00000000
0.55879833 -0.22421246 -0.00000057
-0.07903639 -0.64411119 0.00000000
0.06196168 0.05467817 0.00000000
-0.74829206 -0.16291351 -0.00000075
-0.50601164 -0.03959844 -0.00000034
0.69554541 -0.06993820 -0.00000143
0.33515155 0.43991050 -0.00000042
-0.43354770 0.33637233 0.34782977
0.76812734 -0.35772574 -0.00000111
-0.21129765 0.58163411 0.08174116
0.47449887 0.27195690 -0.00000029
-0.47583302 0.30614739 0.20837240
-0.67696369 0.11302297 -0.00000084
-0.32276745 0.43788364 0.45500182
-0.67006413 -0.42613981 -0.00000035
0.53265622 0.19794112 -0.00000121
0.11930168 -0.11945650 0.00000000
-0.19432644 0.59427222 0.13184749
-0.45569524 -0.48977145 0.00000000
-0.39008952 0.36894359 0.47371181
-0.12060234 -0.17220583 0.00000000
0.19598586 -0.02356385 0.00000000
-0.42238682 0.33758184 0.46289495
0.31197974 -0.15488317 0.00000000
0.16402142 0.52970850 -0.00000022
0.18350089 0.12613798 0.00000000
0.31217226 0.11677869 -0.00000012
-0.21228962 0.54188050 -0.00000022
-0.11717464 0.02200009 0.00000000
0.22594973 -0.69271476 0.00000000
-0.49891856 -0.55478856 0.00000000
-0.11046108 0.62520544 -0.00000008
0.15240634 -0.16104714 0.00000000
-0.58319454 0.21323561 0.04127521
0.06090942 0.09021331 0.00000000
0.37433411 0.39086131 -0.00000035
0.08511811 0.65260622 0.00000083
-0.53610500 -0.68930476 0.00000000
0.19870844 0.49139114 0.00000134
-0.19580600 -0.63276855 0.00000000
-0.29297957 -0.23964017 0.00000000
0.19169291 0.54606941 0.00000056
0.63150018 -0.27842101 -0.00000079
0.66162844 -0.28884770 -0.00000090
0.31262558 -0.03796040 0.00000000
-0.50062187 0.28631744 0.15102788
0.15066117 0.30817425 0.00000510
-0.68146510 0.02266366 -0.00000077
-0.58642954 -0.38128966 -0.00000021
0.20270194 -0.01075865 0.00000000
0.54485812 0.06545693 -0.00000103
-0.10364841 -0.01741764 0.00000000
-0.35137242 0.43998314 0.09996383
-0.00513145 -0.40720824 0.00000000
0.33682894 0.07173431 0.00000570
0.56887676 -0.20495659 -0.00000065
0.73243296 -0.54889281 -0.00000063
-0.59424885 0.19805043 0.08904336
0.00007541 0.38428367 0.00000623
0.53377535 -0.18419295 -0.00000054
0.27401702 -0.30293760 0.00000000
0.37572058 0.07917036 -0.00000033
0.58543032 0.14924706 -0.00000135
-0.61815424 -0.19637640 -0.00000044
-0.15863027 0.58658443 -0.00000015
-0.61191533 0.16811489 0.23092000
0.27361644 0.04178894 0.00000000
0.02141300 -0.46175154 0.00000000
0.02099957 0.11038404 0.00000000
-0.36233577 -0.53413778 0.00000000
-0.13510646 -0.27695728 0.00000000
-0.00907721 -0.76578311 0.00000000
0.26383882 0.26921522 0.00000380
-0.41796542 0.36594839 0.18601681
-0.71779802 -0.11148586 -0.00000073
0.67721283 -0.53409476 -0.00000053
0.40645860 0.05136822 -0.00000041
0.31035004 -0.29748187 0.00000000
0.26869989 -0.22877671 0.00000000
0.71561040 -0.74369549 -0.00000014
-0.73843471 0.06141729 0.00170089
-0.15348717 -0.14332980 0.00000000
0.23470598 0.07283427 0.00000000
-0.26432650 -0.62771931 0.00000000
-0.12622960 0.04630799 0.00000000
-0.32738189 0.35925093 -0.00000031
-0.43381593 -0.13040516 -0.00000010
0.18953167 -0.15271790 0.00000000
0.17340606 -0.37380445 0.00000000
-0.37994729 0.40510448 0.17285879
0.66225941 -0.26669268 -0.00000094
-0.40053775 -0.68060303 0.00000000
0.12195797 0.07730189 0.00000000
0.67983703 -0.18341772 -0.00000116
0.55484101 0.23539523 -0.00000122
0.32242073 -0.27470838 0.00000000
0.05577171 -0.66928069 0.00000000
0.10861268 0.68690073 -0.00000026
0.02460797 -0.67046569 0.00000000
0.33062513 0.31866913 0.00000169
-0.47018015 0.30600362 0.27540391
0.02190020 0.22773674 0.00000825
0.35663977 0.09332876 -0.00000027
-0.39223873 0.39957698 0.09464143
0.02695666 -0.49949218 0.00000000
0.04198507 -0.19317468 0.00000000
0.02062002 -0.46866787 0.00000000
-0.47989415 -0.30906586 -0.00000004
0.39888483 0.11640249 0.00000376
0.20458710 0.45294671 0.00000187
-0.30021709 -0.31622708 0.00000000
-0.22823118 -0.12018737 0.00000000
0.68329939 0.06553997 -0.00000085
