ply
format ascii 1.0
element vertex 1373
property float x
property float y
property float z
end_header
0.38155984 -0.60784832 -0.00000012
0.70886056 0.02379138 -0.00000175
0.22680944 0.13854510 0.03230926
-0.65866485 0.34867784 -0.00000018
-0.31614997 -0.73764823 -0.00000004
0.75750086 -0.75185457 -0.00000012
-0.26171040 -0.27418683 -0.00000033
0.18216340 -0.24544386 -0.00000035
0.00999021 0.18873317 0.04469557
0.39813020 -0.52692222 -0.00000017
0.08731613 -0.79284383 -0.00000000
0.03117877 -0.75718488 -0.00000003
-0.30452848 0.00118116 -0.00000050
-0.58519288 0.75004099 -0.00000027
0.12902149 -0.63967584 -0.00000010
-0.07053940 0.57016322 -0.00000086
0.27730474 0.20348316 -0.00000072
-0.53627401 -0.67195112 -0.00000008
0.00806594 -0.35652056 -0.00000028
-0.42978593 -0.75104439 -0.00000003
0.32225126 -0.44829358 -0.00000022
0.41171094 0.10252610 -0.00000096
-0.47222182 0.70230618 -0.00000041
-0.66742382 0.79770296 -0.00000017
0.68237600 -0.79583266 -0.00000001
0.46880793 0.24490794 -0.00000142
0.53285820 0.21832276 0.00362739
-0.17149886 0.66597307 -0.00000079
0.54904752 0.13159415 -0.00000145
-0.21183856 0.62408411 -0.00000074
-0.69233128 -0.44673263 -0.00000003
-0.37729227 0.13429506 -0.00000048
0.06996028 0.15364754 -0.00000060
-0.47791179 0.39333762 -0.00000040
0.34141509 0.38132409 0.00574195
-0.39850102 -0.06927850 -0.00000042
-0.24753163 0.24960092 -0.00000064
0.70284563 -0.73548456 -0.00000016
0.62033112 -0.49955716 -0.00000045
-0.20129566 -0.60997981 -0.00000012
0.28286150 -0.44818257 -0.00000022
0.03132597 0.50024906 0.01995268
0.36743581 0.27078673 -0.00000114
-0.45344555 -0.64205885 -0.00000010
-0.50543725 0.25416608 -0.00000036
-0.09940624 0.35163042 -0.00000072
0.17740838 0.22413210 -0.00000064
-0.50999321 0.02556358 -0.00000031
0.02316674 0.40191857 0.02786871
0.02027595 -0.00058434 -0.00000050
-0.20599774 -0.52046121 -0.00000017
0.79664744 -0.15160309 -0.00000162
-0.68420097 0.76242231 -0.00000014
-0.34375932 -0.02668366 -0.00000048
-0.52477899 0.69965279 -0.00000034
0.19906994 0.48087123 -0.00000101
-0.15466252 0.50261017 -0.00000078
0.47105235 -0.31803097 -0.00000033
-0.37603066 -0.61407283 -0.00000012
-0.65003521 0.58382453 -0.00000019
0.03585285 -0.49784004 -0.00000019
-0.76129243 0.65826568 -0.00000005
0.48802117 0.06646851 0.01824918
-0.35771149 -0.32953680 -0.00000029
-0.27625520 0.61553755 -0.00000065
-0.16609027 -0.66520394 -0.00000008
-0.18359449 0.73221209 -0.00000077
0.04725773 -0.53337263 -0.00000017
0.31625819 0.28445074 0.01481353
-0.30793283 -0.41876228 -0.00000024
0.36580589 0.06299316 0.02759298
-0.21972116 -0.15197938 -0.00000041
-0.16068923 0.03329532 -0.00000052
-0.17647129 0.59922914 -0.00000077
-0.26986460 -0.51549690 -0.00000018
-0.52325581 -0.61166764 -0.00000012
-0.31526402 0.13112532 -0.00000054
0.14698415 0.18736245 -0.00000062
-0.77628897 -0.17466336 0.00000000
0.22861589 0.51471232 0.00421153
0.47269742 0.00929631 -0.00000097
-0.05126350 0.16976978 -0.00000061
-0.14568566 0.50673759 -0.00000079
-0.57255987 0.09301711 -0.00000026
0.20174678 -0.54374096 -0.00000016
-0.50066288 -0.19930385 -0.00000028
-0.27071021 0.63133673 -0.00000066
-0.26902446 0.52116060 -0.00000066
-0.28042586 -0.24072884 -0.00000035
-0.77728761 0.22158468 -0.00000003
0.24111071 -0.41294478 -0.00000024
0.20697736 0.37076823 0.01652072
-0.65206852 -0.43093038 -0.00000008
-0.03878130 -0.69692203 -0.00000006
0.29678104 -0.23471977 -0.00000035
0.44510406 -0.54595478 -0.00000016
0.30439370 -0.46311102 -0.00000021
0.02884931 -0.07174977 -0.00000046
0.59523598 -0.51677285 -0.00000034
-0.39155146 -0.21781386 -0.00000036
0.19528223 -0.42243736 -0.00000024
0.05218374 -0.60075306 -0.00000012
-0.76548817 0.61985210 -0.00000004
-0.25369587 -0.38095561 -0.00000026
0.28365786 0.00218085 -0.00000050
0.55284429 0.10606287 -0.00000142
0.08297263 0.69921809 0.00132274
-0.55795510 -0.41513270 -0.00000018
-0.52487033 -0.25875985 -0.00000025
0.39975680 0.23027451 -0.00000117
-0.59834228 -0.73952319 -0.00000004
-0.19974781 0.53814373 -0.00000074
0.36680813 0.05627643 0.02801779
0.00120221 -0.57959579 -0.00000014
-0.35623712 -0.74266971 -0.00000004
-0.68478665 -0.70051634 0.00000000
-0.60318145 -0.41387816 -0.00000013
-0.07675418 0.74076866 -0.00000090
-0.04190568 -0.29369884 -0.00000032
-0.72670619 -0.37270388 -0.00000001
0.66875269 0.11056347 0.00153570
0.32768361 0.24070316 0.01721629
-0.63351266 -0.54406204 -0.00000008
-0.44405674 -0.30095166 -0.00000031
0.36337337 0.16383928 0.02027707
-0.56164190 0.77750625 -0.00000030
0.41771649 -0.47597767 -0.00000020
-0.50064204 -0.22811418 -0.00000028
-0.07631552 0.63788918 -0.00000089
0.15927375 -0.40409893 -0.00000025
0.65734831 0.13867325 0.00029386
0.05220977 0.06554336 0.05071467
-0.73376874 -0.53395693 0.00000000
0.79646974 -0.78497142 -0.00000004
-0.06003086 0.77294677 -0.00000092
0.16482953 0.59982328 -0.00000114
0.76302808 -0.42472094 -0.00000094
0.24122500 0.40198647 0.01165405
-0.14194565 0.08208377 -0.00000055
0.55528154 -0.53764932 -0.00000017
-0.59404556 0.74918015 -0.00000026
-0.54083428 -0.57106716 -0.00000014
-0.08675143 0.68783344 -0.00000089
0.73619792 -0.69144371 -0.00000027
-0.21685608 0.12715743 -0.00000058
0.01097569 -0.23767704 -0.00000035
0.19299517 -0.28189519 -0.00000032
0.01326662 -0.36774753 -0.00000027
-0.11592663 -0.35516926 -0.00000028
0.33299140 -0.50371180 -0.00000019
-0.06208278 -0.36088730 -0.00000027
0.73504536 -0.52291073 -0.00000069
0.27762159 0.17041910 -0.00000066
-0.21872174 0.36759972 -0.00000069
0.19863000 0.47311895 -0.00000100
-0.14280738 0.59275785 -0.00000081
-0.21880243 0.18856772 -0.00000062
0.53040014 0.04192667 -0.00000122
0.24024506 0.07535410 0.03600791
-0.54431940 -0.40927065 -0.00000020
-0.22673315 0.62508303 -0.00000072
-0.15353395 0.06403688 -0.00000054
-0.53828734 -0.36060218 -0.00000021
0.68159150 -0.51612995 -0.00000061
0.31791216 0.16580577 0.02351046
-0.71148023 -0.34115348 -0.00000003
-0.45493582 0.30166015 -0.00000042
0.07385962 -0.39112588 -0.00000026
-0.66256301 -0.70638579 -0.00000002
0.51301723 0.28379553 0.00023522
-0.48885991 -0.45010409 -0.00000022
-0.49350474 -0.44902049 -0.00000022
0.55147781 -0.20406232 -0.00000081
-0.42990586 0.66967929 -0.00000046
-0.68835926 -0.15233973 -0.00000009
-0.74117049 -0.70061270 0.00000000
-0.42233080 0.43917412 -0.00000047
-0.54773757 -0.17651266 -0.00000024
-0.26742797 -0.64625864 -0.00000010
0.31696840 0.19845483 -0.00000084
0.20292350 0.58842193 0.00064204
0.36190764 0.21037688 0.01692650
0.30949041 -0.27329318 -0.00000033
-0.31353968 0.20949767 -0.00000056
0.21214538 -0.05812763 -0.00000046
0.61681210 0.15581496 -0.00000172
0.38681237 0.13475515 0.02069669
0.25081987 -0.66432269 -0.00000008
0.26274108 -0.16530181 -0.00000040
0.16916882 -0.41955703 -0.00000024
0.47442711 0.25455485 -0.00000145
0.70053057 -0.35171113 -0.00000100
0.19063565 0.11910822 -0.00000057
0.52848370 -0.04685623 -0.00000104
-0.59993323 0.64120154 -0.00000025
-0.08500459 -0.41961153 -0.00000024
-0.41667553 -0.74714489 -0.00000003
-0.79051731 0.06858081 -0.00000001
-0.72078462 0.02516683 -0.00000009
-0.78717535 -0.06445852 -0.00000000
0.15989836 -0.64382126 -0.00000010
-0.02114529 -0.55993737 -0.00000015
0.45423183 -0.72451094 -0.00000005
0.13274381 0.64582014 0.00159228
-0.77214686 -0.08692146 -0.00000001
-0.03843586 -0.21295160 -0.00000037
0.37290782 -0.30912387 -0.00000031
-0.75266375 -0.30156932 0.00000000
-0.62267698 -0.78044019 -0.00000001
-0.75909090 0.22017767 -0.00000005
0.10790644 -0.09661880 -0.00000044
0.17508642 0.37977376 0.01822203
-0.18791728 0.52356529 -0.00000075
0.46490782 -0.21476280 -0.00000051
0.24376157 0.54085843 0.00114195
-0.44356953 0.51406649 -0.00000045
-0.75886093 -0.71356861 0.00000000
-0.38417371 0.08789299 -0.00000046
0.65239702 -0.00951807 -0.00000151
0.39027634 0.18822272 0.01646448
-0.32660890 -0.47324848 -0.00000020
-0.76236654 0.20403159 -0.00000005
0.59406549 -0.56185658 -0.00000024
-0.50946076 -0.19222075 -0.00000027
0.63909365 -0.69430197 -0.00000013
0.11356145 0.32462741 0.02689481
-0.59875652 0.23996804 -0.00000025
0.18155945 0.42951414 -0.00000086
0.04089243 0.29945397 -0.00000069
-0.72611046 0.69697170 -0.00000009
-0.09604046 0.28885003 -0.00000068
-0.21130664 -0.39912507 -0.00000025
-0.71798213 -0.49663926 0.00000000
-0.75925088 -0.21378483 -0.00000000
-0.17696431 -0.74237652 -0.00000004
-0.43115133 0.63371150 -0.00000046
0.40140071 -0.30828732 -0.00000031
-0.77792823 0.79692365 -0.00000003
-0.21118325 0.22726698 -0.00000064
-0.39940934 -0.46400619 -0.00000021
-0.18619062 0.53123914 -0.00000075
-0.78837637 -0.09316824 0.00000000
-0.36334732 -0.08073704 -0.00000045
-0.08717148 0.68414654 -0.00000089
-0.06518640 0.72075051 -0.00000092
-0.78488902 0.66897509 -0.00000002
0.08520216 -0.66685358 -0.00000008
-0.21341716 0.49653720 -0.00000072
0.17052465 0.50156470 0.00950740
-0.23458604 -0.43951225 -0.00000023
0.00434512 0.59297376 -0.00000087
-0.29588341 0.30949279 -0.00000059
-0.09109025 0.31300363 -0.00000070
-0.78544872 -0.38939037 0.00000000
0.17910368 0.33785918 -0.00000071
-0.41970549 0.09314870 -0.00000042
0.12218302 0.26168681 -0.00000066
0.11256991 0.02871950 -0.00000052
0.44292799 0.09351962 -0.00000104
0.30666472 0.05554068 0.03254351
0.32803853 0.02789706 0.03300959
0.73149319 -0.65647392 -0.00000036
0.68706381 0.07305620 -0.00000178
0.21303736 -0.53696032 -0.00000016
-0.75529256 0.09128025 -0.00000006
-0.42529977 -0.58693294 -0.00000013
-0.49082887 -0.19450937 -0.00000029
-0.35919014 -0.06566115 -0.00000046
0.68742860 0.02020008 -0.00000168
-0.43394737 -0.51961705 -0.00000018
-0.75011222 0.07405174 -0.00000006
-0.50383116 0.45483501 -0.00000037
-0.15353362 0.44896093 -0.00000077
0.02845211 0.36654209 0.03010557
0.16266439 -0.70430818 -0.00000006
-0.58942217 0.45879652 -0.00000026
-0.76188387 -0.38067869 0.00000000
0.15099751 0.36902024 -0.00000073
0.35128873 -0.79491589 -0.00000000
-0.75682192 0.02098365 -0.00000005
0.25962636 -0.08178418 -0.00000045
0.54898888 -0.07699823 -0.00000105
0.26023029 0.41012270 -0.00000107
0.35653460 -0.55910814 -0.00000015
-0.46956526 -0.47196392 -0.00000021
-0.53508759 -0.33895050 -0.00000022
0.47790365 0.20930029 -0.00000138
-0.43728226 -0.49280273 -0.00000019
0.42688033 0.27763926 -0.00000135
-0.10553870 -0.00944920 -0.00000049
-0.45377118 -0.32039297 -0.00000030
-0.59723407 -0.42905713 -0.00000014
0.78682914 -0.78598789 -0.00000004
0.29330146 -0.60495868 -0.00000012
-0.54202397 0.70399548 -0.00000032
0.68739543 -0.10688830 -0.00000143
-0.78863327 0.20541624 -0.00000001
0.78103589 -0.39442641 -0.00000101
0.05358109 0.14859566 0.04443894
-0.14328876 -0.45653693 -0.00000021
-0.35130069 -0.11258989 -0.00000043
0.22442502 0.56045028 -0.00000125
0.36199923 -0.35894567 -0.00000028
-0.40178897 0.36478177 -0.00000049
-0.29571754 0.18755396 -0.00000057
-0.34825889 0.03741368 -0.00000049
-0.38190395 0.73231933 -0.00000052
0.27237752 0.26075328 0.01983724
0.00107861 -0.39075521 -0.00000026
0.42851803 -0.11474784 -0.00000059
-0.00726368 -0.37364814 -0.00000027
0.19565209 0.11278403 0.03654030
0.07367550 0.22478480 -0.00000064
0.29864388 -0.66062858 -0.00000009
0.25541255 0.03135027 -0.00000052
0.73507231 -0.22813912 -0.00000135
-0.22688629 0.54606763 -0.00000071
-0.37324808 0.09215384 -0.00000047
0.41684205 0.34135662 -0.00000144
-0.53499073 -0.48304632 -0.00000019
0.49763952 -0.07899180 -0.00000088
0.25673631 -0.53121097 -0.00000017
0.27588582 0.18221997 0.02541448
0.66883445 -0.19462098 -0.00000120
-0.70883706 -0.17574169 -0.00000007
0.24411119 0.09082237 -0.00000056
0.70742482 -0.53246033 -0.00000066
0.21350752 0.43943301 0.01093084
-0.18134987 -0.37130892 -0.00000027
0.73657526 -0.43538473 -0.00000091
-0.10732386 0.63743467 -0.00000086
-0.33884095 -0.68553028 -0.00000007
-0.22269101 0.75450756 -0.00000072
-0.01027930 0.61429990 -0.00000088
-0.32702826 -0.46909897 -0.00000021
-0.64374151 -0.39682834 -0.00000009
0.51576620 -0.49452581 -0.00000019
0.55090691 -0.72118721 -0.00000005
0.39178858 0.22466853 0.01364274
-0.14495945 -0.63408775 -0.00000010
0.07547070 -0.77648084 -0.00000001
-0.31842805 0.44437682 -0.00000060
0.05796119 0.56749300 0.01297411
-0.77434702 -0.18133290 0.00000000
-0.75382168 -0.18789344 -0.00000001
0.31140969 -0.38550723 -0.00000026
0.17259938 0.11794289 -0.00000057
-0.65756541 0.49174039 -0.00000018
-0.30337553 -0.65856761 -0.00000009
0.15976542 -0.57938436 -0.00000014
0.05570932 0.65645528 -0.00000091
-0.34446884 -0.70886578 -0.00000006
0.50250774 -0.37831082 -0.00000031
-0.48644105 -0.24118354 -0.00000029
0.10745801 -0.22515123 -0.00000036
-0.47934602 -0.63349565 -0.00000010
0.00208848 0.72927045 -0.00000096
-0.63869762 0.47980508 -0.00000020
0.64335845 0.01710881 0.01037077
-0.76250870 -0.18475684 -0.00000001
0.03884823 0.67209947 0.00661881
-0.29391765 -0.03504793 -0.00000048
0.41900365 0.35565031 -0.00000147
0.04846220 0.54829304 0.01510746
0.73942717 -0.17224011 -0.00000147
0.15116254 0.58778679 0.00453715
0.22469875 0.03351096 -0.00000052
0.66603946 0.05641687 -0.00000168
-0.36092154 -0.05654554 -0.00000046
-0.65130884 -0.67527837 -0.00000004
-0.72875733 -0.01949831 -0.00000007
0.08609634 0.62984188 0.00624784
0.45384680 0.05716449 -0.00000100
0.58416440 -0.29136805 -0.00000074
0.50358512 0.15787830 -0.00000136
-0.12346156 -0.50165579 -0.00000019
0.42435383 -0.48744024 -0.00000020
0.11833410 -0.54024544 -0.00000016
0.45223466 0.01535618 0.02470915
0.44585119 -0.60026340 -0.00000012
-0.47629709 0.32935215 -0.00000040
0.54522592 -0.52540026 -0.00000017
-0.08798401 -0.31819228 -0.00000030
0.66301115 -0.55095220 -0.00000049
-0.35641931 -0.41064658 -0.00000024
-0.15044658 0.03435580 -0.00000052
0.22115022 -0.75521473 -0.00000003
-0.41790232 -0.01157863 -0.00000041
0.40286651 -0.01484232 -0.00000070
-0.69762795 0.24261088 -0.00000013
0.12965848 0.48896482 -0.00000081
0.29577565 0.32863687 0.01305146
0.52500845 -0.31680184 -0.00000050
0.18578048 0.54151834 0.00540319
-0.45745970 0.65105096 -0.00000043
0.59226291 0.17829774 0.00218666
-0.50028067 -0.74565064 -0.00000003
-0.74313995 -0.04380864 -0.00000005
0.30896427 -0.21756351 -0.00000036
0.70932604 -0.31071856 -0.00000110
0.08012691 0.65765798 -0.00000098
0.22044410 0.06749424 -0.00000054
-0.74018449 0.26529369 -0.00000007
0.27286708 0.11591804 -0.00000057
-0.70441228 -0.79642159 0.00000000
0.07936086 0.66068397 0.00445580
-0.69996006 0.53239799 -0.00000013
0.11465538 0.68277803 -0.00000114
-0.09395944 0.17311058 -0.00000061
0.37054520 0.30685178 -0.00000122
-0.01951103 -0.56419899 -0.00000015
-0.04380707 0.44386809 -0.00000078
0.20067237 -0.26179505 -0.00000034
0.36821741 0.35830994 0.00546031
0.60475319 -0.77365043 -0.00000002
0.11168931 -0.03646421 -0.00000048
-0.17476004 -0.71939930 -0.00000005
-0.22262247 0.16016821 -0.00000060
0.39823696 -0.31730018 -0.00000030
-0.51776963 -0.17866761 -0.00000027
-0.09148269 0.23680559 -0.00000065
0.43749972 -0.63493215 -0.00000010
-0.55555145 0.08760184 -0.00000028
-0.38979944 0.20415299 -0.00000048
-0.03026176 0.46682456 -0.00000079
0.14868107 0.49335626 0.01174145
0.77352689 -0.76931021 -0.00000008
-0.40458579 0.53853412 -0.00000049
0.52739997 0.03733012 -0.00000120
-0.16156327 -0.30557476 -0.00000031
0.03801591 0.01145396 -0.00000051
-0.61098621 0.50905478 -0.00000024
0.19295085 0.49603445 -0.00000102
0.26725204 0.16968224 0.02698835
0.07084478 0.32020211 0.03039908
-0.16136348 0.47758345 -0.00000077
-0.66070106 -0.24801821 -0.00000010
-0.42295297 0.18282660 -0.00000044
-0.70145121 0.22551969 -0.00000012
-0.18454120 0.72629595 -0.00000077
0.01814794 -0.63604959 -0.00000010
0.39088318 -0.21664848 -0.00000036
-0.03912974 -0.75773353 -0.00000003
-0.15565708 0.41658671 -0.00000076
-0.59077428 -0.33134348 -0.00000016
-0.76159952 -0.06193091 -0.00000003
0.21924333 0.14428947 0.03244467
0.53349073 -0.39240526 -0.00000038
-0.16123064 -0.43461988 -0.00000023
0.41473077 -0.69468814 -0.00000007
-0.64435208 0.70594160 -0.00000019
-0.68329715 0.40676999 -0.00000015
0.54049260 -0.09910248 -0.00000098
-0.31675903 -0.11353601 -0.00000043
0.26429788 -0.61640784 -0.00000011
-0.28235372 0.32652174 -0.00000061
-0.07314959 -0.38552075 -0.00000026
-0.59296625 0.69758348 -0.00000026
0.71633312 -0.15161395 -0.00000144
0.63902845 0.01504500 0.01084609
0.58118730 -0.21932535 -0.00000087
0.57030603 -0.32193131 -0.00000064
0.41123750 0.36091799 -0.00000146
-0.60220098 0.47850444 -0.00000025
0.45037281 -0.41649949 -0.00000024
-0.33304799 0.35235111 -0.00000056
0.13107234 -0.41892936 -0.00000024
-0.53414184 0.07631971 -0.00000030
-0.03154354 0.74802689 -0.00000096
0.66868750 -0.43365043 -0.00000073
0.18621990 0.39908348 0.01595891
-0.54781093 0.19901897 -0.00000031
-0.08859591 -0.36664572 -0.00000027
0.76063513 -0.44596819 -0.00000089
-0.52764459 0.60031886 -0.00000034
-0.19058929 0.09501465 -0.00000056
-0.49891491 -0.74595982 -0.00000003
-0.19608405 -0.21577229 -0.00000037
-0.51335665 -0.42769196 -0.00000023
-0.54929049 -0.45613630 -0.00000018
-0.00460234 0.27693321 -0.00000067
0.69399308 -0.20131425 -0.00000127
0.05495308 0.46888215 -0.00000079
-0.46862360 -0.69198754 -0.00000007
0.04161427 0.36842808 -0.00000073
-0.12861289 -0.53389050 -0.00000017
-0.03770923 -0.63392570 -0.00000010
0.50242024 0.10760164 0.01412098
0.16909274 0.40050168 -0.00000076
0.53222866 0.22248133 0.00336505
0.53248112 -0.06391083 -0.00000102
-0.03376217 -0.53249179 -0.00000017
0.61536740 -0.17217256 -0.00000107
-0.75460007 0.62611004 -0.00000006
-0.44840009 -0.12709680 -0.00000035
0.58390686 -0.59263151 -0.00000015
0.26594542 0.48986036 -0.00000125
0.52361596 0.13091218 0.01081243
-0.76185022 -0.34919323 0.00000000
0.30762834 -0.44234472 -0.00000022
-0.61195789 0.18460165 -0.00000023
0.26631259 -0.77787686 -0.00000001
0.05647298 0.13680367 0.04510054
-0.76691282 0.74677668 -0.00000004
0.50749734 -0.35233485 -0.00000038
0.61947251 -0.56620868 -0.00000032
0.46186679 0.21027628 0.00950304
0.01395848 0.49792014 -0.00000081
0.79367206 -0.78842544 -0.00000003
0.52832351 -0.50404955 -0.00000018
-0.67998048 0.77051111 -0.00000015
-0.78350866 -0.72534083 0.00000000
0.07028120 0.59409351 0.01008093
0.75930464 -0.15197045 -0.00000157
0.15165386 -0.46404755 -0.00000021
0.09706841 -0.29703904 -0.00000031
0.16313959 -0.77588043 -0.00000002
-0.52785162 0.22770938 -0.00000033
0.18897085 0.10440545 -0.00000057
-0.64122769 -0.65812255 -0.00000005
0.41600111 0.22782780 -0.00000122
0.21764797 0.56795151 0.00106917
0.53678474 -0.04011418 -0.00000108
0.17689878 0.05649847 0.04211837
0.19899229 -0.01330228 -0.00000049
0.02548122 0.02832299 0.05546834
0.21295931 0.04480050 -0.00000053
-0.63977193 0.64459850 -0.00000020
0.46983756 -0.42630301 -0.00000023
-0.43124481 0.38999918 -0.00000046
0.20202712 0.41298077 -0.00000089
0.14171091 -0.00233585 -0.00000050
-0.75329954 -0.16203622 -0.00000002
-0.13720009 -0.42564599 -0.00000023
-0.10960993 -0.54545696 -0.00000016
0.70862894 -0.42743634 -0.00000087
-0.24674338 -0.24292279 -0.00000035
0.36573884 0.23562616 -0.00000107
-0.70671670 -0.30525016 -0.00000004
-0.32758081 -0.28214829 -0.00000032
0.07954484 -0.04107005 -0.00000047
0.42724494 -0.19777847 -0.00000042
0.53817086 0.10609695 0.01157515
0.17390470 0.40719798 -0.00000079
0.00089827 -0.65767617 -0.00000009
0.00840526 0.47416637 0.02359536
0.13938459 0.20948944 0.03353419
0.48859553 0.08398588 0.01690427
0.23806475 0.12756890 -0.00000058
0.16760937 -0.03288937 -0.00000048
-0.49858225 -0.31091965 -0.00000026
0.30146034 0.23294521 -0.00000086
0.21716700 -0.05528062 -0.00000047
-0.00986289 -0.35776863 -0.00000028
0.29154363 -0.07824756 -0.00000045
-0.52895994 0.43813160 -0.00000034
-0.17456924 0.72594947 -0.00000078
-0.50559743 -0.70205578 -0.00000006
-0.51680447 0.13412870 -0.00000033
-0.27090208 0.40405014 -0.00000064
-0.78091550 0.67089473 -0.00000002
0.21305477 -0.65498426 -0.00000009
-0.71141230 0.45154381 -0.00000011
0.44906344 -0.60038139 -0.00000012
0.63743177 -0.05383386 -0.00000137
-0.25689947 -0.47663383 -0.00000020
-0.72635473 0.43601527 -0.00000009
-0.57671768 -0.54819997 -0.00000014
-0.33709731 0.59537319 -0.00000058
0.15853555 -0.50340830 -0.00000019
0.51303107 0.01838845 -0.00000112
-0.17050112 0.12571249 -0.00000058
-0.70012446 -0.08224868 -0.00000009
0.27673361 0.35949130 0.01217337
0.61758129 -0.64492100 -0.00000016
0.62660006 -0.03468145 -0.00000138
0.56497058 -0.01269595 -0.00000122
0.19716842 0.29798522 0.02266043
0.07674147 0.03114486 0.05144818
0.21369658 0.37142155 -0.00000085
-0.32932427 -0.05288435 -0.00000047
0.17947757 -0.14215861 -0.00000041
0.01467020 -0.26470513 -0.00000033
-0.78925664 -0.34320246 0.00000000
0.61982850 -0.53622747 -0.00000038
0.02975107 0.76804635 0.00016263
0.55516556 -0.52445136 -0.00000019
0.27435076 0.38667677 -0.00000107
0.51953397 0.11823590 -0.00000133
-0.74914580 0.04421619 -0.00000006
0.69134996 -0.46081412 -0.00000075
-0.13277297 -0.13247455 -0.00000042
0.57455682 -0.55597605 -0.00000019
0.76692708 0.00907030 0.00178229
0.17902980 0.21026614 0.03052945
0.24649134 -0.62301832 -0.00000011
-0.79664698 0.20155728 -0.00000000
-0.23771583 -0.00658846 -0.00000050
0.60126569 -0.18039807 -0.00000101
0.35123361 -0.49483233 -0.00000019
-0.08791639 -0.66439918 -0.00000008
0.71335513 0.05770282 0.00214954
0.52020272 0.27035903 -0.00000163
0.58737006 -0.18212036 -0.00000096
-0.07752908 -0.67895313 -0.00000008
-0.76258532 -0.72789954 0.00000000
-0.60440691 0.33846119 -0.00000024
-0.45486033 0.49832925 -0.00000043
-0.66063192 -0.67658617 -0.00000002
-0.45247017 0.19656642 -0.00000041
0.10316850 -0.41127930 -0.00000024
0.39898721 0.27828546 0.00912179
-0.03957308 0.09156165 -0.00000056
0.16885301 0.19887150 0.03213297
-0.13258367 -0.53927518 -0.00000016
-0.52676376 -0.23478657 -0.00000025
0.14978492 -0.15770643 -0.00000040
0.24276019 0.09471342 0.03438185
-0.69393230 -0.40924700 -0.00000004
0.22068269 0.08340349 -0.00000055
-0.57150554 0.76488959 -0.00000029
0.35073117 -0.36270143 -0.00000027
0.43535778 0.09992436 0.01967711
0.22655016 -0.24060052 -0.00000035
0.65757006 -0.54456800 -0.00000048
0.11578040 0.66775982 0.00122238
-0.00567497 0.32792363 -0.00000070
-0.42132091 -0.10156255 -0.00000039
-0.30176646 0.68133928 -0.00000062
-0.49459572 0.75215667 -0.00000038
0.14825308 0.47276969 -0.00000084
0.06578072 0.02722599 -0.00000052
0.55052563 -0.32482163 -0.00000057
0.19667645 0.21294322 -0.00000063
0.09848061 0.21423747 0.03622180
0.13651907 0.35918544 -0.00000072
0.44157665 -0.01393227 -0.00000083
0.21480608 -0.52101083 -0.00000017
0.05532114 0.61526378 -0.00000088
-0.53161630 -0.60615725 -0.00000012
0.50995937 0.21504724 -0.00000149
0.16290306 0.38125911 0.01901725
0.19850130 0.33822902 0.01956975
0.07282014 0.39845794 -0.00000075
0.63843554 -0.19233038 -0.00000111
0.76802869 -0.21448634 -0.00000146
-0.76646085 -0.76301060 0.00000000
-0.05918271 0.66821213 -0.00000091
-0.67197354 -0.71181729 -0.00000001
0.08492952 0.13468516 -0.00000058
0.49962967 -0.05438309 -0.00000093
-0.41632823 0.13336741 -0.00000043
0.05032231 0.21027376 0.04009626
-0.46568875 0.09090719 -0.00000037
-0.28402030 -0.21636685 -0.00000036
-0.06486243 0.13686107 -0.00000059
0.67093098 -0.75596954 -0.00000011
0.40968364 0.17537023 -0.00000109
0.77845580 -0.78391545 -0.00000004
-0.40638793 0.31898825 -0.00000048
0.47106709 0.04493883 0.02111003
-0.11260943 -0.46533967 -0.00000021
0.00175863 -0.17302669 -0.00000039
-0.69021967 -0.78770461 0.00000000
0.53449898 -0.55959676 -0.00000015
-0.67309569 -0.12948187 -0.00000011
-0.51662849 0.41803559 -0.00000035
-0.00352662 -0.18589013 -0.00000038
0.27555438 -0.08951676 -0.00000044
0.50512168 -0.51737230 -0.00000018
-0.02579372 -0.45501653 -0.00000022
0.20881637 -0.42070760 -0.00000024
-0.20714679 -0.03368489 -0.00000048
-0.68479167 0.22766794 -0.00000014
-0.49781287 -0.03806480 -0.00000032
-0.26350001 0.33810817 -0.00000063
-0.62048678 -0.25144227 -0.00000015
0.14642803 0.43157793 0.01650140
0.12057609 0.52591142 -0.00000085
-0.76928048 0.28223500 -0.00000004
-0.37559934 0.67389797 -0.00000053
-0.00959893 0.51050616 -0.00000082
0.11164103 -0.27478202 -0.00000033
0.13273146 0.02114823 0.04802931
-0.32571928 -0.15190748 -0.00000041
0.04538095 0.72427181 0.00225484
0.11078107 -0.63091334 -0.00000011
0.10372623 0.20319558 0.03665269
0.27090613 0.07703074 0.03360411
-0.08469476 0.09939260 -0.00000056
-0.08635311 -0.18026373 -0.00000039
-0.44988271 -0.01076119 -0.00000037
0.55228867 -0.60325492 -0.00000012
-0.32430642 0.72299692 -0.00000059
0.09739290 -0.42529627 -0.00000023
0.26514906 0.05757988 0.03547796
-0.59126520 -0.15754497 -0.00000019
-0.29881034 -0.46199000 -0.00000021
-0.22676216 0.10028067 -0.00000056
-0.05736125 -0.72408572 -0.00000005
-0.08434183 0.46867204 -0.00000079
0.65098673 -0.22651634 -0.00000108
-0.52531047 0.41264451 -0.00000034
-0.37375774 -0.56724569 -0.00000015
-0.62015510 -0.74475835 -0.00000003
-0.52188873 0.63214166 -0.00000035
-0.18816736 -0.26475801 -0.00000033
0.44504359 -0.40479489 -0.00000025
0.47486464 -0.63848767 -0.00000010
0.66300592 -0.30693364 -0.00000096
-0.28757377 0.73904987 -0.00000064
-0.10745367 0.37785346 -0.00000074
0.10269850 -0.32222676 -0.00000030
-0.28754150 -0.60286023 -0.00000012
0.55697359 0.07209902 0.01270471
-0.16240967 -0.25374411 -0.00000034
-0.30519603 0.05168564 -0.00000053
-0.50411430 0.25341942 -0.00000036
-0.37742116 -0.11905633 -0.00000043
-0.64467966 0.14940661 -0.00000019
-0.75945343 0.07930804 -0.00000005
-0.47915787 -0.72533656 -0.00000005
0.04389164 0.25258552 0.03742899
0.46496211 0.12677676 -0.00000117
-0.50130903 -0.63953763 -0.00000010
-0.67820136 -0.41445129 -0.00000005
-0.00780766 0.75677967 -0.00000097
-0.75845197 0.25964483 -0.00000005
-0.14911355 -0.11737232 -0.00000043
0.29447544 0.09010273 -0.00000056
-0.09717767 -0.39249836 -0.00000025
-0.66475075 -0.68967569 -0.00000002
0.61072358 0.13735879 -0.00000166
0.19453315 0.08850985 0.03842792
0.03739656 0.24127940 0.03875225
0.63697987 -0.39719244 -0.00000070
0.73589619 -0.51011344 -0.00000072
0.12524783 0.44045622 -0.00000078
0.61978865 -0.65413932 -0.00000015
0.02787740 0.57701817 0.01450230
0.10839133 0.53928762 0.01132211
-0.48426400 -0.20709773 -0.00000030
0.10610258 -0.65230677 -0.00000009
-0.19734536 0.06419157 -0.00000054
-0.42215141 -0.07977766 -0.00000039
-0.17579811 -0.55108861 -0.00000016
-0.64152769 -0.25486332 -0.00000012
-0.54526848 -0.41707078 -0.00000020
-0.18705404 -0.21847218 -0.00000036
0.39599267 0.32672900 -0.00000134
0.71139759 -0.68493497 -0.00000029
0.30581690 0.46948901 0.00183427
0.06497128 0.20499156 0.03940000
0.57552353 -0.26807411 -0.00000076
-0.74480724 -0.33562911 0.00000000
-0.30420199 0.64591597 -0.00000062
-0.45722082 -0.01036063 -0.00000036
0.40455758 0.19439855 0.01494372
-0.24999761 0.63614296 -0.00000069
-0.05568161 0.08021059 -0.00000055
0.20520385 -0.01619550 -0.00000049
-0.44842604 -0.40864787 -0.00000024
0.55017763 0.08034443 0.01259697
-0.62237884 0.18403968 -0.00000022
-0.45032298 -0.32504517 -0.00000030
0.07211636 0.16417780 -0.00000060
-0.77567538 0.38281153 -0.00000003
-0.26896137 -0.48717624 -0.00000020
0.01477884 0.69424610 -0.00000093
-0.52843059 -0.03932864 -0.00000028
0.40945549 -0.12819162 -0.00000050
-0.00240771 0.50284882 -0.00000081
0.29393160 0.32748350 -0.00000102
0.01221116 -0.20879206 -0.00000037
-0.61514444 -0.24712992 -0.00000015
-0.77542204 -0.34825764 0.00000000
0.28372800 -0.79173481 -0.00000001
0.25168852 0.37092670 -0.00000097
-0.72390088 -0.38456219 -0.00000001
-0.24519769 -0.79305210 -0.00000000
-0.57543883 -0.09519068 -0.00000022
0.73905722 -0.16144583 -0.00000149
-0.45813376 -0.48776902 -0.00000020
-0.49910710 -0.11279030 -0.00000030
-0.74085079 0.25826014 -0.00000007
0.17703219 -0.51156917 -0.00000018
-0.60054891 -0.75564943 -0.00000003
-0.22896669 -0.50871064 -0.00000018
0.31351280 -0.02035376 -0.00000049
-0.56541165 -0.24231564 -0.00000021
-0.45259091 -0.69803058 -0.00000006
0.41803483 -0.74725943 -0.00000003
0.03448166 0.05790324 0.05260041
-0.60059479 0.05277948 -0.00000022
0.16450417 0.51789012 -0.00000098
-0.19591076 0.75660342 -0.00000076
0.24921005 0.53393854 0.00125132
0.38450054 0.37822290 0.00276953
0.46113902 0.05212059 -0.00000102
-0.07384105 -0.70050459 -0.00000006
0.16199751 0.23750782 0.02977049
0.57860492 0.17644197 0.00333995
-0.71087677 0.47081881 -0.00000011
-0.40944086 -0.13915907 -0.00000039
-0.25493167 0.75096879 -0.00000068
-0.69955200 -0.11667308 -0.00000009
-0.18844416 0.07539448 -0.00000055
-0.66331274 0.58667736 -0.00000017
-0.73849855 0.45427301 -0.00000008
-0.78713089 0.42605428 -0.00000002
-0.00024060 -0.37729005 -0.00000026
-0.58837326 0.00749659 -0.00000023
-0.29932339 -0.62875048 -0.00000011
0.56670955 -0.38850330 -0.00000050
-0.34007358 -0.01575910 -0.00000049
0.57615591 -0.21425336 -0.00000087
-0.56928856 0.53781731 -0.00000029
-0.62913744 -0.75254856 -0.00000003
0.48891141 0.06405406 -0.00000113
0.37275198 -0.51848648 -0.00000018
-0.09840704 0.14265700 -0.00000059
0.43561588 0.11346119 -0.00000106
-0.45455487 -0.76990514 -0.00000002
-0.08835193 -0.24170097 -0.00000035
-0.58394240 -0.02272163 -0.00000023
0.41285797 -0.76611266 -0.00000002
0.11458476 0.67914870 0.00046463
-0.37446555 -0.11546931 -0.00000043
0.25319087 0.53254057 0.00105931
-0.24510686 0.10909538 -0.00000057
0.12741073 -0.55292138 -0.00000015
-0.42113904 -0.55399986 -0.00000015
0.10705162 0.59729664 -0.00000095
0.00818934 0.45929900 -0.00000079
-0.31576718 0.34264140 -0.00000058
0.04256248 0.56342877 -0.00000085
-0.27655292 -0.32631157 -0.00000030
0.68813965 -0.17193823 -0.00000131
-0.07666289 0.04187626 -0.00000053
0.49212935 0.17664819 0.00975319
-0.75777913 -0.44969185 0.00000000
-0.43290233 -0.51819291 -0.00000018
-0.11961891 0.38356939 -0.00000074
-0.78788925 0.61048231 -0.00000002
-0.55415930 0.54882553 -0.00000031
-0.45941370 -0.65707468 -0.00000009
0.05431323 -0.32014110 -0.00000030
0.79520594 -0.10719114 -0.00000173
0.05496010 0.23192240 0.03814224
-0.46994908 0.73454188 -0.00000041
0.62294718 -0.23977374 -0.00000097
-0.37461050 0.11662102 -0.00000048
0.42615340 -0.77646216 -0.00000001
0.35346589 -0.41859496 -0.00000024
-0.65948910 0.51690474 -0.00000018
-0.08270932 -0.02870945 -0.00000048
0.29379113 0.21909386 -0.00000081
0.38721581 -0.47703844 -0.00000020
0.20340856 0.21987553 0.02800295
-0.57910966 0.56765746 -0.00000028
0.29717033 0.44282718 0.00445905
0.01722713 -0.30461538 -0.00000031
-0.62758415 -0.65177890 -0.00000006
0.54092576 -0.26355345 -0.00000066
0.17315500 -0.46529845 -0.00000021
-0.01711093 -0.28479833 -0.00000032
0.26684385 0.30892547 0.01666756
0.39463694 0.28237366 0.00914128
-0.22275197 -0.68963100 -0.00000007
0.32904864 -0.55796068 -0.00000015
-0.71690199 0.73097337 -0.00000010
-0.59227758 0.01744673 -0.00000022
-0.34806477 0.26247241 -0.00000053
-0.67231139 0.08920812 -0.00000015
0.15665469 -0.75477381 -0.00000003
0.56584074 -0.71814000 -0.00000005
0.41679451 0.08125050 -0.00000093
0.25231141 -0.58015883 -0.00000014
0.11150913 0.44519580 0.01808477
0.45834344 0.12935420 -0.00000116
-0.38514013 0.12102123 -0.00000046
0.57826596 0.14073637 0.00601945
-0.04282601 -0.45764169 -0.00000021
-0.58859117 -0.61138411 -0.00000011
-0.70684471 0.71413521 -0.00000012
-0.67352401 -0.60055778 -0.00000003
0.63837026 -0.77975636 -0.00000001
0.52955315 0.07679717 0.01439389
-0.03377187 0.50061011 -0.00000081
-0.60675911 0.39769713 -0.00000024
-0.61199861 -0.57454519 -0.00000010
0.75328855 -0.35894548 -0.00000110
0.32236823 0.34285122 0.01001790
-0.22229489 0.77740719 -0.00000072
-0.69219950 -0.34587901 -0.00000005
-0.21062670 0.22531618 -0.00000064
0.54832952 0.03255759 0.01628676
0.10406877 -0.02342593 -0.00000049
0.36459925 0.29746901 -0.00000119
-0.62403625 -0.58174209 -0.00000008
0.23105332 -0.42936686 -0.00000023
-0.24460895 -0.60112538 -0.00000012
0.02093334 -0.63712454 -0.00000010
-0.56144865 -0.63728833 -0.00000010
-0.13299805 0.63839883 -0.00000083
-0.51297944 0.03475447 -0.00000031
0.38206738 -0.17716157 -0.00000039
-0.51219236 0.08878179 -0.00000032
0.30412625 -0.00131664 -0.00000050
-0.43836079 0.64832926 -0.00000045
-0.20897120 0.13239224 -0.00000058
0.04236690 0.14930426 0.04521986
-0.01006185 -0.19318241 -0.00000038
0.39988952 0.11995569 -0.00000095
-0.76289364 -0.68475097 0.00000000
-0.52464508 0.23704045 -0.00000034
-0.62207231 0.71435773 -0.00000022
0.58666391 -0.53668768 -0.00000027
-0.06323552 -0.14463855 -0.00000041
0.00688651 0.75335271 0.00295461
-0.74815597 -0.73303961 0.00000000
-0.29764392 0.40836475 -0.00000061
0.79871155 -0.59228938 -0.00000052
0.14226006 -0.67413158 -0.00000008
0.02767092 0.47715866 0.02194083
-0.78022547 0.78545727 -0.00000002
-0.51119595 0.35038224 -0.00000036
-0.79663907 -0.70586925 0.00000000
0.09796658 0.30149648 -0.00000069
-0.15585452 -0.72759541 -0.00000005
0.11856854 0.64135239 -0.00000107
0.08811800 0.10790319 0.04489659
-0.63744013 -0.01836520 -0.00000017
0.12549406 0.34431990 0.02454395
0.64463793 0.11953434 -0.00000174
0.04781622 0.13275788 0.04604479
0.75962016 -0.07373935 -0.00000173
-0.56377948 0.12636514 -0.00000028
-0.41029240 -0.00553170 -0.00000041
-0.02242765 0.11690179 -0.00000057
-0.52202966 0.62390041 -0.00000035
-0.42824230 -0.51766343 -0.00000018
-0.54747345 -0.55349741 -0.00000015
0.38480899 0.07773458 -0.00000082
-0.62434096 -0.66579709 -0.00000007
0.16546886 -0.42902615 -0.00000023
0.67841046 -0.63937891 -0.00000036
0.41677865 -0.58363581 -0.00000014
-0.23302447 0.36002389 -0.00000067
-0.62916875 0.00116547 -0.00000018
-0.41266799 0.01827801 -0.00000042
-0.29186143 -0.07145689 -0.00000046
-0.34742147 0.69070285 -0.00000057
-0.49885710 -0.42344668 -0.00000024
0.06561311 0.09417839 -0.00000056
0.58845599 -0.49509633 -0.00000036
0.01470467 -0.05248791 -0.00000047
-0.49914174 0.16761819 -0.00000035
-0.22415655 -0.37306808 -0.00000027
0.21466812 -0.24835409 -0.00000034
0.09391863 0.48306088 0.01657760
-0.01971713 0.78416367 -0.00000098
0.50711309 0.21675894 0.00565753
0.14708886 -0.26805010 -0.00000033
-0.53813199 -0.13836985 -0.00000025
-0.31128618 -0.11203924 -0.00000043
0.13574973 0.23248865 -0.00000065
-0.62632819 -0.67163493 -0.00000006
0.72201380 -0.78893751 -0.00000003
0.29237797 -0.21927290 -0.00000036
0.67291181 -0.13768386 -0.00000132
-0.24603378 0.77367114 -0.00000069
-0.66308586 -0.63716956 -0.00000003
-0.45531335 0.53016500 -0.00000043
0.00443595 0.79116849 -0.00000100
0.25949741 0.32603103 -0.00000091
-0.49396728 0.56228323 -0.00000038
0.06580394 0.71711183 0.00126886
0.25872113 -0.17371421 -0.00000039
-0.77531599 0.23320077 -0.00000003
-0.13691499 0.58222114 -0.00000081
-0.36025131 0.36625296 -0.00000054
-0.68343231 -0.45927706 -0.00000004
-0.51562373 -0.37970240 -0.00000023
-0.66690339 -0.02759371 -0.00000014
0.10378847 -0.08101608 -0.00000045
0.16231493 -0.62656450 -0.00000011
0.22934415 0.28108446 -0.00000072
0.12870023 0.66974319 0.00011448
0.29308111 -0.09464256 -0.00000044
0.49129142 -0.05317196 -0.00000091
0.43658574 -0.36682425 -0.00000027
-0.35628618 0.04060974 -0.00000048
-0.14096284 0.02385664 -0.00000051
-0.72279098 -0.56353812 0.00000000
-0.56671630 -0.68382781 -0.00000007
-0.01577218 0.11669551 -0.00000057
-0.37009870 -0.55506156 -0.00000015
0.61779044 0.02149193 -0.00000146
0.18409364 0.23339067 -0.00000065
0.66711225 -0.79747604 -0.00000001
-0.14246799 0.18093841 -0.00000061
0.15473695 0.35972824 -0.00000072
-0.33796173 -0.72630363 -0.00000005
-0.77364775 0.30616282 -0.00000003
0.55201449 -0.70596872 -0.00000006
0.36285114 0.22020067 0.01612607
-0.37036868 -0.23130183 -0.00000036
0.01544167 0.44917849 0.02492982
0.17298552 0.42289123 0.01517292
-0.07873465 -0.37917512 -0.00000026
-0.41389685 0.13663598 -0.00000044
0.41798279 0.15345190 0.01698960
-0.19857579 0.08659996 -0.00000055
-0.10105318 0.03767700 -0.00000052
-0.72227890 0.68004904 -0.00000010
-0.65970699 0.13020393 -0.00000017
-0.71751585 0.02458134 -0.00000009
-0.49571108 -0.11609008 -0.00000030
-0.65906848 -0.06234159 -0.00000014
0.00660559 0.70067414 0.00689141
0.49192796 0.00406222 0.02259794
0.07650311 0.53117739 -0.00000083
0.50490245 0.16003337 0.01003876
-0.61297206 -0.11014603 -0.00000018
0.48254406 0.18989283 -0.00000135
0.32161635 -0.74593672 -0.00000003
-0.01933583 -0.64388463 -0.00000010
-0.32478942 -0.30914651 -0.00000031
0.63761700 -0.59810177 -0.00000031
-0.18706675 0.05894750 -0.00000054
-0.51803119 -0.66728101 -0.00000008
0.15030105 -0.21104869 -0.00000037
0.14802878 0.33937752 0.02323624
-0.65228579 -0.26386745 -0.00000011
-0.15703975 -0.54041885 -0.00000016
0.21927708 -0.25547471 -0.00000034
0.19219953 0.34978438 0.01917921
0.25392465 -0.53031842 -0.00000017
-0.22027708 -0.17614144 -0.00000039
0.50918186 0.15900099 0.00979738
-0.58067883 -0.37869757 -0.00000016
-0.19165970 0.36729282 -0.00000072
-0.70485571 -0.16667716 -0.00000007
0.12585553 -0.23027484 -0.00000036
-0.61736857 0.51150825 -0.00000023
-0.36775640 -0.66593646 -0.00000008
0.20753985 -0.33760546 -0.00000029
-0.31332625 0.13192775 -0.00000054
-0.38937249 0.66797549 -0.00000051
0.40677361 0.28503530 -0.00000130
0.10406315 -0.31758940 -0.00000030
0.15830961 0.14038498 0.03726437
0.48828932 -0.67697756 -0.00000008
-0.64381169 0.40771463 -0.00000020
-0.76575310 0.16041109 -0.00000004
0.64893174 0.03557299 0.00858386
-0.25407010 0.64423826 -0.00000068
0.12262229 -0.66163335 -0.00000009
-0.79128799 -0.64536950 0.00000000
-0.22829016 -0.17589294 -0.00000039
-0.04093345 0.17501491 -0.00000061
0.36657825 0.08261082 0.02607722
-0.77745468 0.41812477 -0.00000003
-0.21378589 0.42270855 -0.00000070
0.20176273 -0.41932660 -0.00000024
-0.22854837 -0.10596325 -0.00000043
-0.27579439 -0.78083920 -0.00000001
0.37094342 0.31205094 -0.00000124
-0.73057396 0.55685539 -0.00000009
-0.47558424 0.50801134 -0.00000041
-0.67493435 0.50182665 -0.00000016
-0.49200435 -0.10031536 -0.00000031
-0.69425555 0.34155849 -0.00000013
0.48440333 -0.10711338 -0.00000078
-0.38906752 -0.17082849 -0.00000039
0.59399393 -0.09290706 -0.00000116
0.57115625 -0.01246686 -0.00000124
0.00634120 -0.28236256 -0.00000032
-0.36588182 -0.46843208 -0.00000021
0.27846807 -0.39115108 -0.00000026
-0.62027511 0.71082738 -0.00000022
0.60671326 0.02411861 -0.00000143
0.62513348 -0.27329474 -0.00000091
-0.41199167 0.01491309 -0.00000042
-0.57274747 -0.40012955 -0.00000017
-0.67580683 -0.71193952 -0.00000000
0.29146476 0.36728733 -0.00000109
0.19056468 0.40041197 -0.00000083
0.70577235 -0.29475324 -0.00000112
-0.00727927 0.54073228 -0.00000084
0.27715054 -0.74596207 -0.00000003
0.27995291 -0.32262480 -0.00000030
-0.14569159 0.52664018 -0.00000079
0.62693946 -0.16335639 -0.00000113
-0.53739724 -0.23039512 -0.00000024
-0.38161033 -0.59021529 -0.00000013
0.05213247 -0.45790701 -0.00000021
0.11404562 -0.39558909 -0.00000025
-0.61407213 -0.58878807 -0.00000009
0.37585070 0.19100535 0.01733002
-0.31371190 -0.79305782 -0.00000000
0.46727263 0.26576591 -0.00000145
-0.70343392 0.30982231 -0.00000012
0.41342376 0.30367443 -0.00000136
0.69134684 -0.44036320 -0.00000079
0.14364783 -0.15744244 -0.00000040
-0.19594215 -0.57261504 -0.00000014
0.02166716 0.39828608 0.02825020
0.45326118 -0.54662708 -0.00000016
0.00284551 0.24932933 0.04072217
-0.26266844 0.31751483 -0.00000063
-0.75055648 -0.57777777 0.00000000
0.02627133 0.21124050 -0.00000063
-0.15886296 0.37988520 -0.00000074
-0.42531128 -0.64574341 -0.00000010
-0.19157160 -0.19661785 -0.00000038
-0.38763716 -0.47444178 -0.00000020
-0.55461245 0.72589980 -0.00000031
0.66073909 -0.45900028 -0.00000066
-0.60047429 -0.23840627 -0.00000017
0.68332410 -0.45458619 -0.00000074
-0.31059416 0.22988649 -0.00000056
-0.11171208 -0.41055733 -0.00000024
0.37192755 -0.20049000 -0.00000037
-0.03079948 0.14982558 -0.00000059
-0.16223303 -0.47523525 -0.00000020
-0.59080479 0.10047319 -0.00000024
-0.11461172 0.12305420 -0.00000058
0.65776632 0.12060478 -0.00000178
0.21509169 0.02392981 0.04170035
0.39019858 -0.13486831 -0.00000043
-0.79425600 0.14772827 -0.00000001
-0.06651926 -0.11445658 -0.00000043
-0.06651796 -0.46449694 -0.00000021
0.31683781 0.10843935 -0.00000067
-0.43556184 -0.60021936 -0.00000012
-0.68448052 -0.46732031 -0.00000004
-0.18141464 -0.19151858 -0.00000038
-0.55989538 0.41345885 -0.00000030
-0.72363259 -0.31446496 -0.00000002
0.52974494 0.06718345 -0.00000127
0.45576247 -0.78703653 -0.00000001
-0.20981258 0.45444081 -0.00000071
0.17330065 0.59671908 0.00222740
-0.75593766 -0.10396051 -0.00000003
-0.07847581 0.24115241 -0.00000065
0.46780134 -0.01286354 -0.00000091
0.26709902 0.24743679 -0.00000078
0.15304605 0.48945213 -0.00000088
-0.69045089 -0.42286883 -0.00000004
0.37239629 0.15682538 0.02012771
-0.59045967 0.76749091 -0.00000026
-0.20631460 -0.18376935 -0.00000039
-0.77836654 -0.17009598 0.00000000
-0.34271530 0.53881400 -0.00000057
-0.45790993 0.03842002 -0.00000037
0.11129944 0.53207218 -0.00000083
0.70507557 -0.30001208 -0.00000111
0.66932919 -0.73834533 -0.00000014
-0.14568016 0.76958618 -0.00000082
-0.10319352 0.37043315 -0.00000073
-0.47628780 -0.28632810 -0.00000029
-0.48548153 0.35853159 -0.00000039
-0.06252280 0.18536618 -0.00000062
0.36392810 0.24954448 -0.00000109
-0.20661586 -0.07115462 -0.00000046
0.77649759 -0.20422024 -0.00000149
0.59269847 0.01267910 -0.00000136
0.55816392 0.22156571 0.00150510
0.24686756 -0.06996891 -0.00000046
-0.54996422 -0.12837790 -0.00000024
-0.54448208 -0.14091562 -0.00000025
0.17086491 -0.06189602 -0.00000046
-0.20699649 -0.21544700 -0.00000037
0.47405317 -0.23986296 -0.00000049
-0.07899067 0.26975621 -0.00000067
0.73269967 0.05905483 -0.00000190
0.75030042 -0.30912613 -0.00000123
0.59219564 0.18738956 -0.00000170
-0.66806287 -0.39853196 -0.00000007
-0.37710836 0.39641082 -0.00000052
-0.05907686 -0.14067485 -0.00000041
-0.26078222 -0.53610088 -0.00000016
-0.45115164 0.67405101 -0.00000044
0.33055781 -0.64265402 -0.00000010
-0.59518507 -0.63445473 -0.00000010
-0.05059815 -0.21272492 -0.00000037
-0.48686795 -0.18896664 -0.00000030
-0.07167180 -0.18620930 -0.00000038
-0.36305978 -0.10907445 -0.00000043
-0.24608304 -0.75699343 -0.00000003
-0.03080802 -0.58231626 -0.00000014
-0.00647064 0.40862532 -0.00000076
-0.26531720 0.30063467 -0.00000063
-0.22403849 0.73125365 -0.00000072
0.52727382 -0.54668587 -0.00000016
0.26019359 0.17941451 0.02678959
-0.35083033 -0.67446396 -0.00000008
-0.39429820 -0.70847950 -0.00000006
-0.69433175 -0.18546711 -0.00000008
-0.59898710 0.50041828 -0.00000025
-0.57742205 0.46489514 -0.00000028
-0.59244074 0.03860933 -0.00000023
-0.78226258 0.29022389 -0.00000002
-0.23390410 0.26252557 -0.00000065
-0.31989374 0.50844441 -0.00000060
0.23333154 0.47043526 -0.00000110
-0.53266690 0.25102196 -0.00000033
0.00414476 0.48858822 0.02284000
-0.77097928 0.74858829 -0.00000004
-0.22401878 -0.35156696 -0.00000028
0.24671485 -0.35388132 -0.00000028
-0.64276704 0.10918347 -0.00000019
0.31261323 -0.60985892 -0.00000012
-0.71199866 -0.69004854 0.00000000
0.42940084 -0.28082463 -0.00000032
-0.65296943 -0.03970967 -0.00000015
0.15617821 0.39575689 -0.00000075
-0.22885330 -0.17810896 -0.00000039
-0.77805049 -0.54835483 0.00000000
-0.03997005 0.53204289 -0.00000083
0.04652655 0.33667926 0.03098191
0.23992200 -0.10341305 -0.00000044
-0.03601394 -0.02042884 -0.00000049
0.28230988 -0.44807785 -0.00000022
-0.59838822 0.72397970 -0.00000025
-0.36691885 0.24320512 -0.00000051
-0.18062093 -0.73167283 -0.00000004
0.25612614 0.28353626 -0.00000081
-0.44232498 0.60492709 -0.00000045
0.27145653 0.06165321 0.03470630
0.50608190 0.04513376 0.01849254
-0.26809618 -0.52316322 -0.00000017
-0.29473406 -0.11461133 -0.00000043
-0.76869583 -0.32397106 0.00000000
-0.27345397 0.39305981 -0.00000063
0.11806866 0.42734915 0.01892383
-0.35306175 0.65177162 -0.00000056
-0.60461816 -0.66593545 -0.00000008
-0.23422247 -0.34023843 -0.00000029
0.30300645 0.22060051 -0.00000084
-0.67666645 0.38272547 -0.00000015
0.55033770 -0.50666553 -0.00000021
-0.03132218 0.78954750 -0.00000096
-0.09548372 0.13604922 -0.00000059
0.04899407 0.71039634 0.00301772
0.05048686 0.51866379 -0.00000082
0.58815733 -0.45563201 -0.00000043
-0.00034013 -0.13532588 -0.00000042
-0.40872101 0.56065952 -0.00000049
0.25066478 -0.57001768 -0.00000014
0.25166318 0.11970846 -0.00000057
-0.35094994 0.72544882 -0.00000056
0.40074544 0.21550692 0.01365795
-0.27680848 -0.24389215 -0.00000035
0.01641987 -0.78121874 -0.00000001
-0.50708040 -0.35401926 -0.00000025
-0.05558929 -0.33936487 -0.00000029
0.09295653 -0.60240275 -0.00000012
0.46716637 -0.46816072 -0.00000021
0.42504950 0.32521817 0.00369542
-0.19696980 -0.12783908 -0.00000042
-0.72248955 0.17540079 -0.00000010
0.34541195 -0.26432783 -0.00000033
0.21261017 0.35503658 -0.00000081
-0.43436046 0.13441120 -0.00000041
0.73589658 -0.43565809 -0.00000091
-0.16801840 -0.76032266 -0.00000002
0.23471730 -0.03246402 -0.00000048
0.17127296 -0.45946456 -0.00000021
0.68873178 -0.20495414 -0.00000124
0.40508716 -0.67386372 -0.00000008
0.29341743 -0.68905924 -0.00000007
0.56824215 -0.30387212 -0.00000067
0.29714025 -0.38454721 -0.00000026
0.62306294 -0.02073493 -0.00000139
0.47215589 -0.68266901 -0.00000007
0.06420082 0.12577001 0.04534630
0.66426363 -0.47600315 -0.00000064
0.16318760 -0.47057839 -0.00000021
-0.08207451 0.35117924 -0.00000072
-0.69521284 -0.17832262 -0.00000008
0.16207495 0.54739933 -0.00000103
-0.43524338 -0.45564128 -0.00000022
0.09509758 0.11897978 -0.00000057
-0.50761747 -0.12968167 -0.00000029
-0.06514614 -0.77752473 -0.00000001
0.45157686 -0.28370161 -0.00000033
-0.04476328 0.26104880 -0.00000066
0.65426019 -0.54472329 -0.00000047
0.35511248 -0.67235279 -0.00000008
0.14356254 -0.23205908 -0.00000035
0.14325238 -0.27551901 -0.00000033
-0.46725788 -0.18117512 -0.00000032
-0.17622988 -0.10955467 -0.00000043
-0.49799545 0.27978899 -0.00000037
0.05138787 0.51139154 -0.00000082
-0.16400022 -0.56691793 -0.00000015
-0.40197001 0.29154159 -0.00000048
-0.67206651 -0.25516986 -0.00000009
-0.01996382 0.23121927 -0.00000064
0.61807013 -0.35278209 -0.00000073
0.08902884 0.24855984 -0.00000066
0.19620478 -0.24857457 -0.00000034
0.03732737 0.41609446 0.02576230
0.08839332 -0.13190189 -0.00000042
0.34697492 -0.71423424 -0.00000005
0.24445784 -0.17803733 -0.00000039
0.46259837 0.11821808 0.01629212
0.27723178 0.04312395 0.03565440
0.17412994 0.17996848 0.03314589
-0.56359591 0.12356806 -0.00000027
0.41083557 0.34600906 0.00320652
0.42660733 -0.60026102 -0.00000012
0.29248300 0.47231636 -0.00000130
0.15017714 0.07030033 0.04307872
-0.44066060 -0.69317907 -0.00000007
0.08778759 -0.60857369 -0.00000012
0.00051183 0.73924311 -0.00000096
0.63756609 -0.20290971 -0.00000108
-0.03659154 0.24491800 -0.00000065
-0.20149772 -0.44879765 -0.00000022
-0.26619379 -0.78715120 -0.00000001
0.65760570 -0.55560147 -0.00000046
-0.22355915 0.73809718 -0.00000072
-0.20980018 0.60876671 -0.00000074
0.22329989 0.23946004 -0.00000065
-0.12631854 -0.78537771 -0.00000001
-0.79906931 -0.14138252 0.00000000
0.51869814 0.25231092 0.00215342
0.05319116 0.68042810 0.00493350
-0.24086536 0.18571725 -0.00000062
-0.72318410 -0.15666948 -0.00000005
-0.78017052 -0.62609244 0.00000000
-0.76069770 0.14493387 -0.00000005
0.44940897 -0.27101007 -0.00000035
-0.52452474 -0.12500533 -0.00000027
0.12494167 0.03951054 -0.00000052
0.69521506 0.01223474 -0.00000169
0.27897534 0.06549211 -0.00000054
-0.08443833 0.10602683 -0.00000057
-0.50842150 -0.29789294 -0.00000026
-0.46697467 0.19574461 -0.00000039
0.19438156 -0.49285519 -0.00000019
0.12125862 0.15646384 -0.00000060
-0.52355374 -0.48952500 -0.00000019
0.57521190 0.12944641 0.00708576
0.20953771 0.04586913 -0.00000053
0.53435734 -0.04742563 -0.00000106
0.63774192 0.13573286 -0.00000175
-0.06231421 0.30182699 -0.00000069
-0.46747184 0.22241396 -0.00000040
-0.23815198 -0.09715489 -0.00000044
0.31992677 0.04601962 0.03226541
0.40527852 -0.43365774 -0.00000023
-0.15485344 -0.19793068 -0.00000038
0.66977410 -0.44620023 -0.00000071
-0.22668135 0.58507185 -0.00000072
-0.72047537 0.02516062 -0.00000009
0.33640057 -0.15324427 -0.00000040
0.01593679 -0.42872868 -0.00000023
-0.74693545 0.58031822 -0.00000007
-0.49796336 -0.09257673 -0.00000031
-0.01443715 0.16308400 -0.00000060
0.47570740 0.24639003 -0.00000144
0.12759058 0.43088890 -0.00000077
-0.47888326 0.23048729 -0.00000038
0.05135511 0.22280401 -0.00000064
0.30957492 -0.71657093 -0.00000005
0.38685347 -0.53734179 -0.00000016
0.59817716 0.06911740 -0.00000149
-0.46883307 -0.65594195 -0.00000009
