ply
format ascii 1.0
element vertex 1396
property float x
property float y
property float z
end_header
0.06148069 -0.10590918 0.00000000
0.32779117 0.36439368 0.00000098
-0.23491774 0.05636314 0.00000000
0.52713042 0.22838312 -0.00000057
-0.33544119 -0.76428950 0.00000000
0.03042310 -0.77455502 0.00000000
-0.42072079 0.31912033 -0.00000047
0.31973401 0.16333938 0.00000449
0.42250476 -0.24221429 0.00000000
-0.24678508 -0.38762955 0.00000000
-0.21501780 -0.76553176 0.00000000
-0.31935813 -0.35748102 0.00000000
-0.36825689 -0.06961764 -0.00000002
0.30494365 0.47129473 -0.00000037
0.38180172 -0.49186884 0.00000000
-0.00316530 -0.61634261 0.00000000
0.19096102 0.05340944 0.00000832
-0.46020332 0.04691170 -0.00000032
0.31824396 0.00969117 0.00000000
0.41807665 -0.00254427 -0.00000037
-0.40373468 -0.01053015 -0.00000015
0.19344524 0.39400708 -0.00000011
0.45173889 0.04064693 -0.00000059
0.29878901 0.38447428 0.00000120
-0.14407538 -0.15608954 0.00000000
0.52730356 0.07176788 0.00000204
0.05714802 -0.13850810 0.00000000
-0.15164071 -0.32422304 0.00000000
-0.16404670 0.44374247 -0.00000004
-0.41744013 -0.64018233 0.00000000
-0.63259846 -0.34265460 -0.00000034
-0.76607320 -0.75549389 -0.00000006
-0.13933841 0.57284015 0.21657765
0.08791120 0.60402746 0.00000159
0.25780029 0.38714782 0.00000195
-0.58878245 0.01465264 -0.00000056
-0.37083342 0.07425753 -0.00000015
-0.16345098 0.56913813 0.16624371
-0.25407413 0.18225547 0.00000000
-0.22534806 0.41813440 -0.00000014
0.26002485 0.48335581 0.00000030
0.60702322 0.11298021 -0.00000138
-0.38958493 -0.37492559 0.00000000
0.25286305 -0.45429354 0.00000000
-0.52685724 0.19705612 0.18763760
0.53667796 -0.24334279 -0.00000045
-0.25942720 0.05136965 0.00000000
0.19640177 -0.02453295 0.00000000
0.03000650 0.31329158 0.00000685
0.02721445 0.50629807 0.00000000
0.64724479 0.01362058 -0.00000137
0.71631310 -0.06285782 -0.00000153
-0.09143103 -0.48665616 0.00000000
-0.40799978 -0.11386296 -0.00000006
-0.47753162 -0.10201977 -0.00000022
0.61561410 0.07234472 0.00000033
0.50013905 -0.74855170 0.00000000
-0.47936848 0.26574867 0.13534678
0.16976148 -0.72982228 0.00000000
0.11331530 0.06945860 0.00000000
-0.25777599 -0.47088815 0.00000000
-0.02441721 0.49373262 0.00000000
0.14253556 0.07409281 0.00000000
0.70871434 -0.20378370 -0.00000125
-0.12487281 0.58256724 0.22826314
0.01146842 -0.00265613 0.00000000
-0.15604206 0.53679493 -0.00000010
-0.45397949 0.28436362 -0.00000051
-0.47415012 0.23242479 0.23039672
-0.41559094 0.30812467 0.18812606
0.42917539 -0.13081653 -0.00000019
0.73472557 -0.16597623 -0.00000143
-0.05556446 -0.54625342 0.00000000
0.40007134 0.09299147 0.00000413
-0.02564006 -0.27807231 0.00000000
0.19133690 -0.26042721 0.00000000
0.14010776 0.22944869 0.00000000
0.36246095 0.19927357 0.00000307
0.02484360 -0.23297142 0.00000000
0.12427389 0.03426935 0.00000000
0.25825164 0.38695587 0.00000194
0.00242227 0.47389095 0.00000486
-0.04726139 0.67806971 0.00000000
-0.53720539 0.15169358 0.27398730
0.02243967 0.47066213 0.00000000
-0.48165121 0.30623107 0.02988270
0.11375329 0.51203684 0.00000000
0.17638815 -0.70718988 0.00000000
-0.11382495 -0.33317617 0.00000000
-0.56653007 -0.31445208 -0.00000022
0.33672725 0.33975741 0.00000122
-0.19837979 0.20182095 0.00000000
0.20636206 0.37004290 -0.00000012
-0.15557267 0.53933716 0.25916377
0.13194368 0.28624412 0.00000000
-0.46067358 0.25123111 -0.00000050
0.72892951 -0.09937202 -0.00000152
-0.02829834 0.65180856 0.00000000
-0.27923190 -0.76947060 0.00000000
-0.39624778 0.23983805 0.40422932
-0.56135441 -0.41625547 -0.00000012
0.05373748 0.49249547 0.00000380
-0.54619609 -0.72421176 0.00000000
-0.62908313 0.03638583 -0.00000067
-0.52856214 0.01353195 -0.00000043
-0.62764102 0.12599446 0.11433844
-0.67171931 -0.23217501 -0.00000052
-0.18187059 -0.32768760 0.00000000
-0.32274425 -0.41895966 0.00000000
0.68022376 -0.12301701 -0.00000127
0.32423445 -0.64702273 0.00000000
-0.38958848 0.33376973 0.18900767
0.15941658 -0.54831970 0.00000000
-0.74394582 -0.13851106 -0.00000076
0.59289490 0.03608775 -0.00000118
0.48182897 -0.09977802 -0.00000047
0.18389049 -0.41701661 0.00000000
-0.54756383 0.13976452 -0.00000058
-0.16817674 -0.66772092 0.00000000
0.21530694 0.39631349 0.00000261
-0.79843197 -0.47816186 -0.00000040
-0.29428697 0.38626749 0.29456579
-0.23811780 0.05795063 0.00000000
-0.57356713 -0.18314122 -0.00000035
0.40482265 -0.71076732 0.00000000
0.30861581 0.23275985 -0.00000031
-0.53320796 -0.29017671 -0.00000017
0.06571841 0.35404940 0.00000000
-0.42527504 0.27495884 0.24603484
-0.22472732 0.43141480 -0.00000015
0.30735776 0.13354936 -0.00000013
-0.54596621 0.03067102 -0.00000049
-0.45304809 0.31808509 -0.00000054
0.00246258 -0.47772855 0.00000000
0.37694962 0.24620959 0.00000201
0.57349065 -0.42107596 -0.00000029
0.75744517 -0.63600232 -0.00000041
-0.50070560 -0.02257017 -0.00000034
0.12043483 0.35371295 0.00000000
-0.01058779 0.56753751 0.00000000
0.39100673 0.13530896 0.00000359
0.43833600 0.23330615 0.00000105
0.38765184 -0.01176132 -0.00000022
0.24320720 0.00370165 0.00000000
-0.06620937 -0.01760444 0.00000000
0.34333059 0.35295879 0.00000087
0.10172586 0.57716571 0.00000177
0.12773214 0.50235915 0.00000252
0.55210696 0.10552163 0.00000100
0.46799595 0.15112865 0.00000185
0.41418475 -0.09144642 -0.00000019
0.12608880 0.48272822 0.00000286
-0.65751846 -0.54603313 -0.00000021
-0.27951342 0.47351810 -0.00000031
-0.23302161 -0.72558938 0.00000000
0.18400342 -0.17338477 0.00000000
0.77554913 -0.31469444 -0.00000121
0.68066103 -0.60961940 -0.00000041
-0.16277410 0.42403249 -0.00000002
0.31645107 -0.04827265 0.00000000
0.64147879 -0.31436755 -0.00000077
0.37092304 0.07514580 0.00000499
-0.32335916 -0.18036872 0.00000000
0.40090303 0.03543067 0.00000507
0.21077323 0.09091398 0.00000746
0.59225601 0.00423366 0.00000192
-0.29815658 -0.65661439 0.00000000
-0.29544872 0.14823352 -0.00000005
-0.20806610 0.38031710 -0.00000007
0.28239556 0.41157517 -0.00000052
-0.38796042 -0.29174066 0.00000000
0.31933118 0.23486016 -0.00000036
0.00626858 0.57184813 0.00000000
-0.56071848 -0.40013866 -0.00000014
-0.13919286 0.10031613 0.00000000
-0.17010623 -0.02252576 0.00000000
0.02035938 0.67697295 0.00000000
0.32124501 0.39690300 0.00000056
-0.15797025 0.13136477 0.00000000
0.18543894 0.45812625 0.00000215
-0.43614698 0.24919057 0.28277082
0.10321185 -0.09297768 0.00000000
0.33156652 -0.54824616 0.00000000
0.30490577 0.02893891 0.00000000
-0.36865368 0.24609778 0.45684145
-0.28484486 0.06633953 0.00000000
-0.26913178 0.28397447 -0.00000012
-0.19037796 -0.23852404 0.00000000
-0.14397547 0.36597160 0.00000000
-0.30088846 0.45513788 0.10844472
0.66734735 0.05533111 -0.00000153
-0.45932861 0.25854131 0.20254195
0.37272900 -0.06739878 -0.00000006
0.11148860 0.54328573 -0.00000002
0.31858882 0.22299080 0.00000352
-0.76222408 -0.75417462 -0.00000006
-0.29108172 0.47424902 0.08549899
-0.53621790 -0.53827290 0.00000000
0.06686267 0.22754787 0.00000000
-0.54440174 0.19855743 0.14066813
-0.53079795 -0.71989669 0.00000000
-0.59613104 0.18680559 -0.00000073
-0.37521505 0.10410292 -0.00000019
0.54020190 -0.20447838 -0.00000053
-0.48384444 -0.70627862 0.00000000
-0.64154882 0.11232867 0.11374151
-0.60046953 -0.76164649 0.00000000
-0.57239862 -0.66642343 0.00000000
-0.55696981 -0.74468398 0.00000000
-0.13011195 0.05721648 0.00000000
-0.53635776 0.18057120 0.20486189
-0.18458356 0.36873496 -0.00000001
-0.44761216 0.26483321 0.21591963
0.48330746 -0.74681930 0.00000000
-0.68817544 0.08179320 -0.00000083
-0.53390279 0.19279368 0.18077404
-0.39988916 -0.54829866 0.00000000
-0.11209787 0.64578463 0.10386800
-0.52035664 -0.36168915 -0.00000008
0.63674491 -0.17909996 -0.00000099
0.26786348 0.42440254 0.00000113
0.36476923 0.22273969 -0.00000054
-0.29825739 0.16636559 -0.00000008
-0.10735920 -0.47035638 0.00000000
-0.29102854 0.48162906 0.06743006
0.70203258 -0.02174194 -0.00000154
-0.63981301 -0.72401775 -0.00000002
0.04001970 0.55159486 0.00000312
-0.47561004 0.32193589 -0.00000059
-0.04150837 0.21277229 0.00000000
-0.60108492 -0.09549328 -0.00000049
-0.05967809 0.73349869 0.01682895
-0.24147515 -0.45431661 0.00000000
0.45043748 0.17667112 -0.00000082
-0.04158977 0.16090384 0.00000000
0.06544332 0.34930535 0.00000000
-0.41071981 -0.41083010 0.00000000
-0.61762634 0.11750227 -0.00000071
-0.03230707 -0.76787368 0.00000000
-0.17886980 0.55095369 0.17306401
-0.41709382 0.31162047 0.17579872
0.09005909 0.67750231 -0.00000017
-0.50994520 -0.24946111 -0.00000016
-0.49858424 0.23910256 0.15367080
0.04723621 -0.51312397 0.00000000
-0.41229837 -0.35220547 0.00000000
0.64790325 -0.67090431 -0.00000016
0.52187064 -0.53453651 0.00000000
0.01389452 0.52088131 0.00000000
0.69230340 -0.55817902 -0.00000055
0.54873560 -0.26676133 -0.00000046
0.24919922 0.18985735 0.00000000
-0.65637037 0.10487161 0.09557966
0.30058103 0.19099601 -0.00000021
-0.36692393 0.36824005 0.15989336
0.42967429 0.25003516 0.00000094
-0.23940258 0.19087934 0.00000000
0.38752561 0.22629527 -0.00000064
-0.50484568 0.17369612 0.29952957
0.07864577 0.17971441 0.00000000
-0.37932736 0.24925956 0.42272217
0.51878482 -0.66374054 0.00000000
0.72484733 -0.11695084 -0.00000147
-0.00643459 -0.06012750 0.00000000
-0.58975391 -0.79536386 0.00000000
0.74005964 -0.45240374 -0.00000087
0.69828825 -0.35678967 -0.00000094
0.33183415 -0.66847684 0.00000000
0.09077134 0.32695012 0.00000000
-0.28635609 -0.52809961 0.00000000
0.26386585 0.45406878 0.00000071
0.05983983 0.70628376 -0.00000009
-0.28418473 -0.74261776 0.00000000
-0.06733466 0.10858189 0.00000000
0.28490740 -0.40393237 0.00000000
0.46269556 0.09432538 -0.00000073
0.34245210 -0.55816106 0.00000000
0.12942612 -0.42824033 0.00000000
-0.44030093 -0.07749410 -0.00000016
-0.22649395 -0.57452262 0.00000000
0.55745427 -0.68726125 0.00000000
0.24034424 -0.25521707 0.00000000
0.04253790 0.01380692 0.00001115
0.40594421 0.05405704 -0.00000041
0.58349780 -0.49595312 -0.00000020
-0.34168474 0.35095631 0.26475946
0.76714658 -0.71224555 -0.00000022
-0.41393672 0.07273859 -0.00000024
0.65843656 -0.62588257 -0.00000029
0.33565872 0.19994033 0.00000358
-0.29851600 0.35408048 -0.00000024
0.36006698 -0.11159788 0.00000000
-0.15792378 0.04577310 0.00000000
0.69127738 -0.73174196 -0.00000017
-0.05403836 -0.77464484 0.00000000
-0.21155760 0.22244119 0.00000000
0.06228743 0.63712372 0.00000150
-0.51918798 -0.54333984 0.00000000
-0.24658213 -0.08482933 0.00000000
-0.10363642 -0.51565981 0.00000000
-0.18977932 -0.42766751 0.00000000
0.28963076 -0.15279800 0.00000000
-0.32470380 0.47230194 0.00738431
0.09494828 -0.53373109 0.00000000
-0.45266419 -0.57905210 0.00000000
0.51517700 0.18338783 0.00000041
-0.61649746 -0.66949807 -0.00000002
0.76224832 -0.78324323 -0.00000004
0.24930982 0.26862771 -0.00000012
0.01348926 0.54323233 0.00000365
-0.07402938 0.70977198 -0.00000008
0.46579503 -0.04786276 -0.00000049
0.00325018 0.15020590 0.00000970
0.73885948 -0.13177568 -0.00000151
0.71558161 -0.36309895 -0.00000100
-0.13582730 0.18614591 0.00000000
-0.77248788 -0.63633364 -0.00000020
-0.54463768 -0.17410391 -0.00000030
-0.47762473 0.30157868 -0.00000058
0.39582092 0.02056576 -0.00000031
-0.61670029 -0.56366020 -0.00000011
-0.15829308 0.60023641 0.10227264
0.16373395 0.41200164 -0.00000001
-0.58567472 0.14457809 -0.00000067
0.11720951 -0.60725791 0.00000000
-0.63047485 -0.54030102 -0.00000016
-0.24942465 -0.35824935 0.00000000
-0.49673227 0.27986476 -0.00000060
-0.09663890 0.22918706 0.00000000
0.15717332 0.56689725 0.00000088
0.49089093 -0.10736473 -0.00000049
-0.13926833 0.61860908 0.10388067
-0.70085163 -0.71157407 -0.00000011
0.02172604 0.37433643 0.00000606
0.31978207 0.43648916 -0.00000072
0.44911966 -0.36225686 0.00000000
0.58682224 0.08365866 -0.00000124
-0.59744513 0.15094346 0.12727814
0.62734165 -0.54160270 -0.00000031
-0.56768466 0.19149403 0.10066865
-0.20412116 -0.73126682 0.00000000
-0.50393404 0.29407319 0.00491317
-0.59232812 0.16698392 -0.00000070
0.48951269 -0.70795185 0.00000000
0.61439178 0.15970064 -0.00000110
-0.45890623 0.30176040 -0.00000054
0.34174933 0.20262008 -0.00000040
-0.62188719 0.15024780 0.06871640
-0.33431429 0.44057452 -0.00000040
0.15405941 0.00665157 0.00000958
0.36860259 0.07250339 0.00000507
-0.17148921 -0.25287609 0.00000000
-0.18014029 0.50027773 0.29490180
0.38472434 0.17974609 -0.00000055
0.03982637 -0.15244084 0.00000000
0.40881865 -0.45765282 0.00000000
-0.29740889 -0.05280761 0.00000000
-0.37561170 0.37880099 0.11242359
0.54516597 -0.36945287 -0.00000026
0.26172963 -0.23295090 0.00000000
-0.13287840 0.59152139 0.18643911
-0.27018858 0.49175429 0.09385405
0.32714261 0.17925734 -0.00000030
0.54671938 0.22076614 -0.00000131
0.29944066 -0.19562261 0.00000000
-0.12094051 0.44768662 0.00000000
0.55739516 0.00712852 0.00000254
0.72956036 -0.23933434 -0.00000128
0.04470267 -0.01222117 0.00000000
-0.02634621 0.34540843 0.00000000
0.40133635 -0.15543482 -0.00000002
0.44345557 -0.57773561 0.00000000
0.61626118 -0.68056043 -0.00000001
0.66880376 0.01866139 0.00000021
-0.21284592 0.03503923 0.00000000
0.41845977 -0.77138558 0.00000000
-0.29550197 -0.58979856 0.00000000
0.17596681 0.45815227 0.00000233
0.34072795 0.30381826 -0.00000058
0.66264913 -0.46100003 -0.00000060
-0.34672201 0.29952764 0.37916435
0.02738143 0.60669228 0.00000000
0.36386066 0.06599659 0.00000527
-0.43663406 0.27225808 0.22468243
0.32677692 0.15303365 -0.00000025
-0.54547496 0.17082664 0.20640895
0.33452258 0.11164835 -0.00000021
-0.11487932 0.65568209 -0.00000012
-0.04620590 0.75337576 0.00103383
0.24032988 0.19341115 0.00000000
-0.09097998 0.41372365 0.00000000
-0.61237949 -0.60648510 -0.00000006
0.35634187 0.14540367 -0.00000036
0.43104249 0.06403912 0.00000402
-0.27326385 0.39688636 0.32022338
-0.27397971 -0.17955972 0.00000000
0.38921681 0.30792927 0.00000075
0.05437684 0.05068966 0.00001042
-0.41594655 0.05691051 -0.00000023
-0.10707424 -0.50930913 0.00000000
0.33548765 0.26879128 0.00000243
-0.13110441 0.58743397 0.20089381
0.65997513 -0.72422078 -0.00000012
0.28609686 0.12614006 0.00000576
0.03146707 0.51851891 0.00000000
0.06917039 -0.27042858 0.00000000
0.08533531 -0.75146617 0.00000000
-0.60185794 0.10896412 -0.00000067
0.06975242 0.72865816 -0.00000015
0.15351476 0.61221923 -0.00000032
0.77095396 -0.04598318 -0.00000179
0.79129172 -0.29502313 -0.00000126
0.49742807 0.12298820 -0.00000093
-0.64082768 -0.55204848 -0.00000017
-0.44690944 -0.43871592 0.00000000
0.06058500 0.16053252 0.00000000
0.54182215 0.11053879 0.00000111
-0.12384327 0.11173484 0.00000000
-0.02388978 0.14798581 0.00000000
-0.42337286 -0.45540660 0.00000000
-0.02259308 0.59882583 0.00000000
-0.10307168 0.38517335 0.00000000
-0.28145825 0.07017764 0.00000000
-0.73347391 -0.09259689 -0.00000078
0.00280941 0.14316824 0.00000000
0.22479051 0.15079878 0.00000000
-0.43605558 -0.54146397 0.00000000
-0.27374494 -0.61745952 0.00000000
-0.18748223 -0.19274990 0.00000000
0.32776965 -0.12685211 0.00000000
-0.37141698 0.25705510 0.42300535
-0.11889828 0.62755869 0.13204432
0.41492874 0.16882235 -0.00000066
0.51477091 0.22687938 -0.00000118
0.55315364 -0.19535424 -0.00000060
0.55001254 0.16275498 0.00000008
-0.30817944 0.32634765 -0.00000024
-0.27878337 -0.11513954 0.00000000
-0.44346358 -0.21463175 -0.00000005
-0.62664573 0.05823905 -0.00000068
0.50491336 0.26390010 -0.00000074
-0.61556866 -0.19017068 -0.00000044
0.28348661 -0.48851812 0.00000000
-0.37354729 -0.74952954 0.00000000
-0.21162517 0.10253248 0.00000000
-0.63659730 -0.44037189 -0.00000026
-0.67986604 -0.75630580 -0.00000005
0.69588741 -0.39973415 -0.00000085
-0.63291115 -0.64853732 -0.00000007
-0.09699627 0.20535123 0.00000000
0.67427681 -0.23062818 -0.00000106
0.43818476 0.17572633 -0.00000077
0.28523639 -0.42910354 0.00000000
-0.40778239 -0.78972698 0.00000000
0.79741844 -0.00323054 -0.00000198
-0.01934154 0.52441297 0.00000000
-0.48950288 0.26693100 -0.00000057
-0.01679286 0.72792415 0.00000000
0.03656537 -0.66505301 0.00000000
-0.64909548 -0.48127641 -0.00000025
0.35836317 -0.14866869 0.00000000
0.13853718 -0.65999629 0.00000000
-0.29629977 -0.49949328 0.00000000
-0.25833716 0.08221159 0.00000000
0.47817923 -0.39068237 0.00000000
0.44457249 -0.53751614 0.00000000
0.48336051 -0.39525866 0.00000000
0.20744043 0.26445518 0.00000000
-0.43733918 -0.78904220 0.00000000
0.07138737 -0.58521270 0.00000000
0.32732634 0.06728910 -0.00000010
0.05108279 0.41243984 0.00000504
-0.38217204 0.31239670 0.26000577
0.76628518 0.03261702 -0.00000191
0.06276892 0.11467734 0.00000933
-0.06354201 -0.35435305 0.00000000
0.08969662 0.36426772 0.00000518
-0.19504641 -0.08991063 0.00000000
0.18750524 0.45171010 -0.00000018
-0.73277355 -0.77511266 -0.00000003
0.75747122 -0.78582827 -0.00000004
-0.19548781 -0.13253300 0.00000000
-0.78130677 -0.54423598 -0.00000032
0.19415225 0.32627383 0.00000000
-0.37324111 0.34496158 -0.00000039
0.59798773 -0.57301389 -0.00000012
0.75572970 -0.37393577 -0.00000107
-0.56354393 0.19130731 -0.00000066
0.03941227 -0.06658921 0.00000000
0.12422708 0.43812879 0.00000000
0.28596340 0.08784511 0.00000000
-0.00216970 -0.46880997 0.00000000
0.09074219 0.29517464 0.00000620
0.33883740 -0.36524544 0.00000000
0.41492687 0.31831466 -0.00000092
-0.73477082 -0.27342072 -0.00000062
0.13009531 0.11815880 0.00000000
0.29175272 -0.37383162 0.00000000
-0.06275230 -0.62024177 0.00000000
0.20212293 0.57326152 -0.00000009
-0.16922380 0.57123102 0.14684627
0.68297396 0.00317014 -0.00000151
-0.24484362 0.13911900 0.00000000
0.59560843 0.05787985 -0.00000123
0.47554713 -0.61370924 0.00000000
-0.34897882 -0.65079178 0.00000000
-0.08725833 0.69240692 0.05014983
0.56314501 -0.55122448 -0.00000001
-0.01488539 -0.69782831 0.00000000
-0.29759069 0.42113611 0.20042976
-0.78308976 -0.78660128 -0.00000002
-0.34709390 0.29602160 0.38689340
0.26489140 0.10002298 0.00000650
0.47565669 -0.37748831 0.00000000
-0.25076599 -0.14445702 0.00000000
0.42589913 0.24170285 -0.00000083
0.46462037 0.03477973 -0.00000063
-0.67329479 -0.77930480 -0.00000003
0.17551040 0.21324781 0.00000000
0.63231363 -0.05594911 -0.00000119
0.32548275 0.28394316 -0.00000048
-0.04750572 0.72171893 0.07589715
0.74050996 -0.60901324 -0.00000048
-0.40261099 0.04951632 -0.00000020
-0.26485342 0.51353532 0.05329655
-0.00393356 -0.72525253 0.00000000
0.40167335 -0.63939846 0.00000000
0.11867706 -0.39654431 0.00000000
0.57105134 -0.32325019 -0.00000045
-0.37303146 -0.31556631 0.00000000
0.74670882 -0.13072360 -0.00000154
0.15269778 0.31839426 0.00000000
0.06838603 0.43171365 0.00000000
-0.44260221 -0.57241306 0.00000000
0.70020531 -0.35118153 -0.00000095
0.38315115 -0.65001959 0.00000000
0.44301433 -0.14951769 -0.00000021
-0.32702096 -0.41929478 0.00000000
0.43589092 0.33034722 -0.00000053
0.21573722 0.30880614 -0.00000005
0.08946988 0.28344990 0.00000000
0.03518719 -0.43210665 0.00000000
0.46220044 0.26557411 0.00000005
-0.13502005 0.63669216 0.06976265
0.70575597 -0.02260504 -0.00000156
0.58739519 0.18428995 -0.00000142
-0.00760676 0.71965763 0.00000000
0.11242863 -0.64028889 0.00000000
0.44691076 -0.54563569 0.00000000
0.53410763 -0.59050549 0.00000000
-0.08098094 -0.02903322 0.00000000
0.05147700 0.29010004 0.00000000
-0.15498390 -0.75396478 0.00000000
-0.24490624 0.37194194 -0.00000014
-0.32268951 0.47573491 0.00388569
0.55468897 -0.22755885 -0.00000055
-0.46835841 0.04961714 -0.00000034
0.35782979 0.27258563 0.00000194
-0.04135306 0.30433327 0.00000000
0.60575896 -0.67250127 0.00000000
-0.17777691 -0.09935704 0.00000000
0.41980146 -0.50760353 0.00000000
-0.09003226 0.65653726 0.13176662
-0.59837555 -0.54699075 -0.00000009
0.11509442 0.07142783 0.00000000
0.34056482 -0.25457858 0.00000000
-0.11922756 -0.16702077 0.00000000
0.06017184 0.14695020 0.00000000
0.52084399 -0.10496158 -0.00000062
0.51680032 -0.53170944 0.00000000
-0.56384262 -0.21301037 -0.00000031
0.18442351 -0.24007187 0.00000000
0.20963735 0.04359755 0.00000000
-0.36787496 0.05223113 -0.00000012
-0.18529080 0.54900831 0.16202682
0.23652450 0.46673564 0.00000102
0.08977198 0.47186384 0.00000000
0.10813587 0.62276656 0.00000088
0.17914623 0.39851152 -0.00000005
-0.46469363 -0.58950112 0.00000000
0.29237657 0.49141924 -0.00000070
0.04990348 -0.17598195 0.00000000
-0.07653673 -0.70235701 0.00000000
0.04381680 0.60056843 0.00000000
-0.43375544 -0.64049569 0.00000000
-0.22801189 0.46181826 0.27169095
0.13770742 -0.31299190 0.00000000
0.52305949 -0.33809584 -0.00000022
-0.77924199 -0.54244290 -0.00000032
0.28808205 0.10785545 -0.00000001
0.42455168 0.32467354 -0.00000097
0.58163704 -0.16808066 -0.00000077
0.22878615 0.32255166 0.00000358
-0.14279913 0.23730576 0.00000000
0.13919450 0.55670215 -0.00000016
-0.57493890 0.18835948 0.09050894
0.10567739 0.09739220 0.00000000
0.18091279 -0.25363134 0.00000000
0.41563506 -0.06900788 -0.00000024
-0.55067162 -0.63005643 0.00000000
0.60379391 -0.19468967 -0.00000082
-0.21773451 0.26417203 0.00000000
-0.12978819 -0.07962030 0.00000000
-0.13542620 0.63340837 0.07685925
0.05596494 -0.12821522 0.00000000
0.55985613 -0.41425694 -0.00000024
-0.57547506 0.20498945 0.04817515
-0.43144217 0.22114153 0.36354441
0.27613036 -0.40408573 0.00000000
0.47166476 -0.63525768 0.00000000
0.04265136 -0.19543683 0.00000000
-0.13085260 0.33699830 0.00000000
0.28850218 -0.43180430 0.00000000
0.64368163 -0.09321232 -0.00000117
0.34740259 -0.22160093 0.00000000
-0.12346908 -0.77175880 0.00000000
0.29513624 0.09919676 0.00000604
0.30674309 -0.74277225 0.00000000
-0.02912384 -0.21668878 0.00000000
-0.44658759 0.09989144 -0.00000033
-0.00153208 0.07945761 0.00000000
-0.30347437 0.45432756 0.10406586
0.22216064 0.19074258 0.00000579
-0.01077875 -0.09786983 0.00000000
-0.30034586 -0.52300699 0.00000000
0.05527366 0.07327812 0.00001007
-0.34985071 -0.56538890 0.00000000
0.39957391 0.04965969 -0.00000038
0.33948181 0.00416153 -0.00000004
0.63522696 0.15528249 -0.00000143
-0.12872644 -0.32025111 0.00000000
-0.06217759 -0.70790243 0.00000000
0.34466759 0.07513190 0.00000549
-0.39593487 -0.71818998 0.00000000
-0.14578510 -0.57153234 0.00000000
0.15564432 0.34727169 0.00000444
0.32384879 -0.40265231 0.00000000
-0.45761186 0.28724561 0.13598735
-0.30265698 0.24000610 -0.00000015
0.32908637 0.30865054 -0.00000054
0.07611796 0.26448617 0.00000688
0.34925611 -0.08327068 0.00000000
0.29308076 0.23412413 0.00000382
-0.28282070 0.32201225 0.48130097
0.35948482 -0.17861003 0.00000000
0.55780911 -0.67502769 0.00000000
0.03495742 0.03288159 0.00001098
-0.27239206 0.48418891 -0.00000030
-0.43823186 0.21796800 0.35462668
0.08910030 -0.65757945 0.00000000
-0.28430079 0.32300166 -0.00000019
-0.17138135 0.11276467 0.00000000
-0.49637818 0.26303065 0.10010163
0.12183928 0.18896719 0.00000733
-0.10949990 0.33552005 0.00000000
0.24928697 0.50740826 0.00000010
-0.39641113 -0.62949494 0.00000000
-0.50612681 0.21868860 0.18541315
0.18821633 0.55488808 -0.00000037
-0.30204747 -0.73415704 0.00000000
0.12092585 0.28010734 0.00000597
0.64266977 0.14858053 -0.00000159
-0.60861542 -0.68576105 0.00000000
0.11608842 -0.10953222 0.00000000
-0.21352614 0.54411403 0.10446546
0.22692897 0.33237310 0.00000345
0.32921635 -0.45142969 0.00000000
0.38677461 0.04493256 -0.00000032
0.34304575 0.38026345 -0.00000072
0.15114362 0.50321402 -0.00000012
0.47135657 0.26818512 -0.00000107
0.32800187 0.05394129 0.00000616
-0.00573135 -0.63764170 0.00000000
0.46091427 -0.49328864 0.00000000
0.22753231 -0.00335334 0.00000000
0.36199795 0.25426754 -0.00000058
0.63216221 -0.73881966 0.00000000
-0.65802113 -0.48200857 -0.00000027
0.55688323 -0.12463162 -0.00000074
-0.24702361 -0.19938435 0.00000000
-0.09411032 0.25165702 0.00000000
-0.21880272 0.53512462 0.11362172
0.28846447 -0.37900044 0.00000000
-0.47350926 0.23828939 0.21751434
0.07329072 -0.75984740 0.00000000
-0.08501027 0.40978194 0.00000000
-0.26932402 0.51675772 0.03432463
0.45913014 0.17251142 -0.00000085
0.03509744 0.35517653 0.00000614
0.71117729 0.07010514 -0.00000174
0.03407737 0.20114927 0.00000000
0.70465783 -0.36712770 -0.00000094
-0.46964927 0.04631391 -0.00000034
0.47283591 0.00834824 -0.00000062
-0.53080876 -0.67329822 0.00000000
-0.69669411 -0.77140431 -0.00000004
0.12273292 0.20935140 0.00000701
0.06997731 0.04502958 0.00000000
-0.47007636 0.26592327 -0.00000053
0.07887105 -0.09722012 0.00000000
0.18739982 -0.75272570 0.00000000
-0.65390902 0.13994921 -0.00000081
-0.25173523 0.20581291 -0.00000001
-0.44194312 0.34903899 0.02223844
0.62565945 -0.43403610 -0.00000049
-0.66962119 -0.69222466 -0.00000011
-0.73881008 -0.76276553 -0.00000005
-0.57800116 -0.18542963 -0.00000036
-0.22858312 0.16942844 0.00000000
0.61495772 -0.71478197 0.00000000
0.40844301 0.35307860 -0.00000095
0.42571269 0.24857298 -0.00000084
-0.15806642 -0.26252706 0.00000000
0.25051930 0.43363239 0.00000131
0.54122080 0.10752258 0.00000117
-0.39356867 -0.03579723 -0.00000010
-0.73502684 0.04563344 0.04769116
0.70702817 -0.41783594 -0.00000086
0.20852666 -0.32953989 0.00000000
0.01562455 0.00346506 0.00000000
-0.76052676 -0.25681430 -0.00000068
0.32032464 0.05460517 -0.00000005
0.27934468 0.13561445 0.00000573
-0.79380655 -0.22353344 -0.00000072
0.16706931 0.22165543 0.00000000
0.00701217 -0.00572552 0.00000000
0.05248623 -0.08866717 0.00000000
-0.05177136 -0.14894127 0.00000000
0.74463939 -0.19626951 -0.00000142
-0.48176204 0.22796595 0.22262076
0.45607765 -0.77864154 0.00000000
-0.72584791 -0.52465182 -0.00000034
0.60347071 0.17647068 -0.00000117
0.64356829 0.10498842 -0.00000152
0.16849147 0.54663440 0.00000100
-0.39670585 0.32219971 0.19998840
-0.18483921 -0.07506493 0.00000000
0.08323885 0.03856283 0.00000000
-0.21939740 -0.75658476 0.00000000
0.47559134 0.12151992 0.00000220
-0.46760453 -0.25775155 -0.00000006
0.39860101 0.20634111 0.00000226
-0.03277005 -0.61863482 0.00000000
0.74910153 -0.72024769 -0.00000020
0.54211436 -0.48591499 -0.00000004
-0.48475143 -0.37966228 0.00000000
0.57256150 -0.15056277 -0.00000076
0.69059889 0.10110795 -0.00000171
-0.57658758 0.15353941 -0.00000066
-0.54854903 -0.25080796 -0.00000024
0.34918150 0.20179740 0.00000329
-0.43518210 -0.17280247 -0.00000007
-0.30125489 -0.06006394 0.00000000
-0.21982480 0.46143428 0.29282785
-0.64009950 0.15633566 0.00878908
-0.03180080 -0.28188012 0.00000000
-0.63971055 -0.19192990 -0.00000049
-0.64321637 0.13692603 0.04896900
-0.09506291 0.48123472 0.00000000
-0.07069472 0.23680593 0.00000000
-0.75622670 -0.72005882 -0.00000010
0.30371089 -0.76863667 0.00000000
-0.01230616 0.01175507 0.00000000
0.56103638 0.01887706 0.00000227
0.55256297 -0.79906377 0.00000000
0.56473222 -0.43408213 -0.00000023
0.29269137 0.35985739 -0.00000047
0.11238434 -0.70897846 0.00000000
-0.77181741 -0.79266944 -0.00000001
0.08138228 0.31817242 0.00000600
0.11354812 0.06225673 0.00000935
-0.09533276 0.23924146 0.00000000
0.49451347 0.21763571 0.00000023
-0.37849592 0.33073601 -0.00000039
0.10517460 0.66545580 0.00000023
-0.28685361 0.45400371 0.14585345
0.59117217 -0.00123092 -0.00000111
0.58229044 -0.22125722 -0.00000068
0.45777146 -0.04330532 -0.00000046
0.49152530 0.24616035 -0.00000112
-0.25294248 0.38249643 -0.00000017
0.11415782 0.25371003 0.00000647
0.46001903 -0.43168539 0.00000000
-0.39112072 -0.23330451 0.00000000
0.47607495 -0.13025916 -0.00000039
0.69858474 -0.57050393 -0.00000056
0.00227115 0.04866799 0.00001124
-0.12778153 -0.39774630 0.00000000
-0.71850720 -0.51362074 -0.00000036
-0.46375962 -0.77849254 0.00000000
-0.54164918 0.22184131 0.09003540
0.04744120 -0.04893406 0.00000000
-0.53785938 0.07180463 -0.00000050
0.35890783 0.34170561 0.00000076
-0.46430081 0.31676411 0.04669527
0.09460800 0.59014422 -0.00000003
-0.28364862 -0.54211889 0.00000000
-0.53364432 -0.65753377 0.00000000
-0.73116008 -0.16661738 -0.00000071
0.23470565 -0.11614904 0.00000000
-0.22270034 0.52392720 0.13162387
0.22391059 0.32026969 -0.00000011
0.13452160 -0.33558886 0.00000000
-0.76275449 -0.12928512 -0.00000081
0.55054751 0.20728264 -0.00000067
0.16221329 -0.03991896 0.00000000
0.14106928 0.16858618 0.00000000
0.77018861 -0.48335187 -0.00000079
-0.13648277 -0.48742869 0.00000000
-0.23330322 0.07113192 0.00000000
0.48028314 -0.00903472 -0.00000062
0.30197377 0.34282768 -0.00000048
0.38313667 0.31542964 0.00000074
-0.00480900 0.04001258 0.00000000
-0.48112399 0.23265327 0.21263477
-0.16252677 -0.22522855 0.00000000
-0.53965670 -0.73476642 0.00000000
-0.11985925 0.34405962 0.00000000
0.26051630 0.45570552 0.00000075
-0.66164069 -0.34160503 -0.00000040
0.17791466 -0.45074179 0.00000000
-0.15511737 0.59474037 -0.00000015
0.10435973 0.11418938 0.00000871
-0.21701790 0.20346669 0.00000000
0.65003084 -0.78006310 0.00000000
0.21705431 0.30951919 -0.00000006
-0.64562375 -0.79737519 0.00000000
-0.24397547 -0.14989996 0.00000000
0.13820540 0.56507741 -0.00000017
0.45057580 -0.61820126 0.00000000
0.07791161 0.06838814 0.00000980
0.02443814 -0.01278608 0.00000000
0.39374147 -0.16628847 0.00000000
0.11569465 0.20410193 0.00000719
0.27755317 0.26843038 0.00000355
-0.07137157 0.15233845 0.00000000
0.27347036 0.09091044 0.00000651
-0.27485270 0.48720454 0.09357195
0.61357776 -0.66601196 -0.00000003
-0.25692674 -0.64433154 0.00000000
0.66523093 -0.06693758 -0.00000131
-0.05722191 0.59650431 0.00000000
0.33925388 0.36310044 0.00000078
-0.40423327 0.30689161 0.21917645
-0.77614258 0.01918192 0.01152709
0.16958291 0.03937131 0.00000000
-0.32314632 0.27465545 0.49864057
-0.40834569 0.05952560 -0.00000022
0.13880720 -0.45170263 0.00000000
-0.06029594 0.73635806 -0.00000007
-0.19385429 0.13736158 0.00000000
-0.51857462 -0.54700584 0.00000000
-0.28441035 -0.72236589 0.00000000
0.66177101 -0.01548901 -0.00000138
0.52464024 -0.20995327 -0.00000045
-0.33436275 -0.24463126 0.00000000
0.35559967 0.03788070 -0.00000017
-0.47063591 -0.03760394 -0.00000026
-0.08944344 0.49015751 0.00000000
-0.21578028 0.48576157 0.24280890
0.54362667 -0.39496548 -0.00000021
-0.18221753 -0.36629631 0.00000000
0.25578275 0.46353224 0.00000071
0.07995777 0.71625415 -0.00000014
0.21459480 -0.57574410 0.00000000
0.35382593 -0.54164226 0.00000000
-0.14191626 -0.04031740 0.00000000
0.19993361 0.50518973 0.00000109
0.12707054 0.02919963 0.00000000
-0.17702387 -0.13938062 0.00000000
0.21062275 0.16016966 0.00000000
0.02890014 0.73361664 0.00000055
0.22065504 -0.35098244 0.00000000
0.00902824 -0.13070731 0.00000000
-0.54845814 -0.18382876 -0.00000030
-0.74831074 0.03708286 0.03601812
-0.20187462 0.05403005 0.00000000
0.68911751 -0.01285073 -0.00000150
-0.54602417 -0.05703477 -0.00000041
-0.24211012 -0.24660237 0.00000000
-0.43994962 0.32857977 -0.00000052
-0.17654802 0.23365573 0.00000000
0.15056772 0.50409411 -0.00000012
-0.27106526 -0.48615022 0.00000000
-0.61295239 0.11866061 0.16864868
0.40244408 0.07804073 0.00000433
-0.41398110 0.31523821 0.17455329
0.39609787 -0.53397066 0.00000000
0.10956214 0.67410855 -0.00000000
0.13534012 -0.32681697 0.00000000
0.21215146 0.50011911 0.00000094
0.55680311 -0.08974265 -0.00000080
-0.58816653 -0.04632678 -0.00000051
-0.16441094 0.55356364 0.20228430
0.32956710 -0.44247038 0.00000000
0.19858119 0.05742470 0.00000814
-0.51209079 0.24501586 0.10577894
0.10895663 0.49376577 0.00000295
-0.65672026 -0.62839538 -0.00000014
-0.35959749 -0.79518776 0.00000000
0.27775030 -0.77642459 0.00000000
0.32031729 0.15617662 0.00000460
-0.49398639 0.28142052 -0.00000060
0.19842797 0.27213114 0.00000492
-0.71136493 -0.10634624 -0.00000072
-0.10034182 0.61288027 -0.00000005
0.29875107 0.50105700 -0.00000075
0.22775142 0.24561464 0.00000488
0.07778910 -0.46358851 0.00000000
-0.41142970 0.36829269 0.05000653
0.02102749 -0.58235552 0.00000000
-0.34341567 0.41145235 0.11130094
0.67397080 0.08795927 -0.00000105
0.41316916 0.10460878 -0.00000053
-0.57308586 -0.78463832 0.00000000
0.46647103 0.08003909 -0.00000072
0.23965321 0.05924725 0.00000000
-0.05862519 0.64785515 0.00000000
-0.38137025 0.02950582 -0.00000013
0.08941286 0.02130995 0.00000000
-0.23702968 -0.26969824 0.00000000
-0.29715992 0.48013068 0.05600446
0.69442647 -0.75355218 -0.00000012
-0.46493708 0.27836188 0.13983078
-0.21972080 -0.12905292 0.00000000
0.18070409 -0.62339505 0.00000000
0.12447643 0.04592600 0.00000000
-0.60936326 0.12898958 0.15202743
-0.41942214 0.33704218 0.10736370
-0.03194052 0.14580144 0.00000000
-0.24315083 -0.09113404 0.00000000
0.45041453 0.05832420 0.00000374
0.46785003 0.16792531 0.00000157
0.17467414 -0.23967882 0.00000000
0.31635779 -0.18203914 0.00000000
0.07845435 -0.75462394 0.00000000
-0.57469468 0.16980426 0.13687066
0.43242181 -0.58125395 0.00000000
0.47399119 -0.72284949 0.00000000
-0.60601240 -0.50669992 -0.00000014
0.16558578 0.48894767 -0.00000016
-0.52025734 0.25388785 -0.00000063
0.56512822 0.19201179 -0.00000134
0.00669604 0.04129804 0.00001128
-0.16555368 0.53572578 0.24345579
0.00271620 0.03278236 0.00001147
-0.40654453 -0.22124078 0.00000000
-0.69074400 0.03819197 -0.00000080
-0.02459601 0.77183158 -0.00000003
0.38281616 0.19509558 -0.00000056
0.19349816 0.16523170 0.00000000
0.32894145 0.37871557 0.00000072
-0.09850859 -0.00943106 0.00000000
0.22460952 0.51299830 -0.00000045
-0.54542312 -0.50317400 -0.00000001
-0.77808297 -0.44160671 -0.00000045
0.51821312 0.14887337 -0.00000106
0.38793685 0.08554985 -0.00000039
0.05041036 -0.79742654 0.00000000
-0.27815083 0.01721212 0.00000000
0.41335489 0.36568362 -0.00000100
0.10938385 -0.14422578 0.00000000
0.77990075 -0.44447598 -0.00000089
-0.60398400 -0.04103991 -0.00000055
-0.55937924 0.02538856 -0.00000051
-0.73814172 0.02786013 -0.00000089
-0.29161477 0.18704957 -0.00000008
0.18822077 -0.52141857 0.00000000
-0.43358550 -0.21244353 -0.00000003
-0.44211089 0.34699617 0.02686255
-0.31786002 0.30298703 -0.00000024
-0.28310143 0.36987922 0.36256492
0.20408430 -0.51442120 0.00000000
-0.32619655 0.42153528 0.12889980
0.28784281 0.21830297 -0.00000020
-0.01899000 -0.69076781 0.00000000
-0.39458456 -0.74078741 0.00000000
0.14142447 0.16800847 0.00000000
-0.63399433 0.09953630 0.16391942
-0.31766388 -0.04819840 0.00000000
-0.35603930 0.24166566 -0.00000027
0.09700425 0.14105339 0.00000000
0.49692527 -0.40617405 0.00000000
0.01900959 0.77777957 -0.00000004
-0.35894538 0.26507797 0.43397620
-0.42549146 -0.14080314 -0.00000008
-0.34741990 0.36330272 0.22016890
0.73208307 -0.38485986 -0.00000103
-0.68495900 -0.34571586 -0.00000045
-0.08951040 0.63828485 -0.00000005
0.20614952 0.19913907 0.00000590
-0.15673788 0.60703153 0.08935041
-0.27057646 -0.57420910 0.00000000
-0.40533422 -0.00529752 -0.00000015
-0.13882605 -0.73147067 0.00000000
-0.70186283 -0.07152451 -0.00000073
-0.09189414 -0.42672510 0.00000000
-0.02530772 -0.34930258 0.00000000
0.16251583 0.52397551 0.00000149
0.48209873 0.16297136 0.00000138
0.32336696 -0.13110563 0.00000000
-0.31499357 0.18456869 -0.00000013
-0.59908366 -0.38238737 -0.00000023
-0.22838230 0.39054258 -0.00000013
0.35925846 -0.41887894 0.00000000
0.03686553 0.48899855 0.00000411
0.42198436 0.20801294 -0.00000075
0.08547635 0.14418085 0.00000000
0.52820225 -0.79846644 0.00000000
0.37440717 -0.02278216 -0.00000014
0.59110939 -0.33052260 -0.00000052
-0.54124446 0.25008151 0.02138971
0.49141590 -0.01749955 -0.00000065
0.23038931 -0.08388362 0.00000000
0.34645723 -0.78061082 0.00000000
0.58340386 -0.20541156 -0.00000071
0.03838671 0.08817683 0.00000000
0.19796518 0.23283698 0.00000000
-0.59851981 0.15546316 0.11348172
-0.03832062 0.73457306 0.06684899
-0.15799591 0.28610174 0.00000000
-0.16983061 0.60576784 0.06017845
-0.28292203 0.27367536 -0.00000014
-0.67892746 0.11004694 -0.00000084
-0.29702460 0.46326229 0.09793769
0.57958288 -0.72671516 0.00000000
-0.36756560 0.15358404 -0.00000021
0.11061297 0.04391332 0.00000967
-0.11590996 0.62215083 0.15274992
-0.77593784 0.01459626 0.02334082
-0.48229974 0.18392119 -0.00000048
-0.45536077 0.14883952 -0.00000040
0.65944104 -0.11161854 -0.00000120
0.22792054 0.29495054 -0.00000008
0.46296326 -0.62123467 0.00000000
0.04118724 0.68786168 0.00000106
0.10314347 0.68337732 -0.00000023
-0.54233394 -0.43579320 -0.00000006
-0.09043956 0.58598662 -0.00000000
-0.35841754 0.34400592 -0.00000036
-0.50779910 -0.31205021 -0.00000010
-0.77811648 -0.56517788 -0.00000029
0.22531699 0.13977521 0.00000000
-0.00994018 -0.15262802 0.00000000
0.23589905 -0.43289169 0.00000000
-0.67095957 -0.11083555 -0.00000063
0.00630191 0.66714276 0.00000190
-0.35134749 -0.70720070 0.00000000
0.17229255 -0.21560313 0.00000000
0.02717164 0.33044450 0.00000663
-0.34024368 0.18487915 -0.00000018
-0.34212874 0.34204055 0.28565150
0.03774113 -0.46779269 0.00000000
0.08699692 -0.14243026 0.00000000
0.50823203 -0.27653714 -0.00000027
-0.61689403 -0.19214444 -0.00000044
-0.58728075 0.15034114 -0.00000068
0.49116500 -0.35148175 -0.00000006
-0.03040236 0.38631773 0.00000000
0.19097698 -0.47163495 0.00000000
-0.16904937 0.60894577 -0.00000019
-0.46745766 0.20207010 0.32175916
0.37868931 -0.56158645 0.00000000
0.19668362 0.06072948 0.00000812
0.18498025 0.10224314 0.00000768
0.09284869 0.36167122 0.00000517
-0.15291717 0.56415742 -0.00000012
-0.22364598 0.51087937 0.16146903
0.15616304 0.10402437 0.00000808
-0.55300974 -0.29289214 -0.00000021
0.33084890 -0.36857192 0.00000000
-0.60048847 0.13460800 0.16005811
0.39412420 -0.26025366 0.00000000
-0.17100650 -0.30624540 0.00000000
0.15619203 -0.30244706 0.00000000
-0.70707953 0.05964944 0.08204768
-0.52534002 -0.18725820 -0.00000025
-0.24355736 0.54256522 -0.00000029
0.37571940 0.23779647 0.00000218
0.28055985 -0.58038536 0.00000000
-0.18323941 0.60562545 -0.00000022
0.13570347 0.31015097 0.00000000
-0.36454608 0.31023686 0.30879907
-0.64293442 0.12993822 0.06689713
0.09440680 -0.33384267 0.00000000
-0.63901917 0.15031809 0.02629337
-0.69508128 -0.27663678 -0.00000053
-0.05824921 0.10096061 0.00000000
-0.10659046 -0.77108987 0.00000000
-0.34322418 -0.13362063 0.00000000
0.55497516 -0.13959463 -0.00000071
-0.52400830 0.20245702 -0.00000059
0.46108221 -0.59066497 0.00000000
0.46428263 0.00154079 -0.00000057
0.40695131 0.24773443 -0.00000076
0.78129930 -0.20562473 -0.00000149
-0.11474870 -0.30568866 0.00000000
-0.19403124 -0.06260379 0.00000000
0.26707917 -0.18365397 0.00000000
0.02378629 -0.09534391 0.00000000
0.50695370 0.03788531 -0.00000082
0.63778473 0.15733038 -0.00000151
0.67520241 -0.28298354 -0.00000097
0.17848929 0.58087340 0.00000023
-0.17146893 0.12660833 0.00000000
0.01448871 0.73494756 0.00000000
0.53262679 -0.39575117 -0.00000016
-0.02850375 0.18623815 0.00000000
0.29300788 -0.42196165 0.00000000
-0.65843905 -0.48553384 -0.00000027
-0.36766832 0.35202729 0.19804023
0.74397365 -0.39349689 -0.00000102
0.63379421 -0.41850759 -0.00000055
-0.12622369 0.63209804 0.10278489
-0.63822879 -0.63600512 -0.00000009
-0.40511242 -0.55434150 0.00000000
0.22601487 0.36082534 -0.00000019
0.46192114 -0.71661747 0.00000000
-0.01621343 -0.70250528 0.00000000
0.64354289 -0.07775021 -0.00000119
-0.16065346 0.00689052 0.00000000
0.39543963 0.16188286 0.00000307
-0.70450353 -0.16817022 -0.00000065
-0.11818419 0.61569824 0.16305409
0.51126465 0.21691929 -0.00000115
0.04880388 0.37767249 0.00000000
0.41769242 0.05529406 -0.00000047
-0.56761244 -0.65035047 0.00000000
-0.38158424 0.22849219 -0.00000031
0.70394240 -0.77273737 -0.00000007
-0.17140882 -0.22555341 0.00000000
0.40543108 -0.15481060 -0.00000004
-0.26917489 0.46448566 0.16360173
0.31884568 -0.09413918 0.00000000
-0.58653089 0.21021604 0.00802062
-0.03826759 0.48758570 0.00000000
0.15247261 0.40313659 0.00000000
0.16288749 -0.45258389 0.00000000
-0.30750515 0.39777423 0.23359222
-0.08697217 0.15508928 0.00000000
0.40672096 0.09927969 -0.00000050
-0.45412118 0.03447442 -0.00000029
0.33359280 -0.12887594 0.00000000
-0.41742314 -0.20313184 -0.00000000
0.30221580 -0.42768404 0.00000000
-0.48176175 0.22986576 0.21793633
-0.14895296 0.59252051 0.14433414
0.25521505 -0.50050019 0.00000000
-0.46531702 0.29128111 0.10703338
-0.64903010 -0.67867118 -0.00000008
0.11983612 -0.18445374 0.00000000
0.09781579 0.31542029 0.00000000
-0.05019840 -0.29085605 0.00000000
-0.10068270 0.52065281 0.00000000
0.30195538 0.00174734 0.00000000
-0.59775482 0.13193821 0.17338368
-0.11232597 0.27271308 0.00000000
-0.11677955 -0.06691383 0.00000000
-0.14202240 0.07535858 0.00000000
0.50431693 -0.27423593 -0.00000025
0.13869734 0.39623808 0.00000396
0.17302325 0.28044824 0.00000518
0.03135019 -0.39269471 0.00000000
-0.36257020 -0.77519184 0.00000000
-0.49994275 -0.79163681 0.00000000
-0.04593918 0.16994579 0.00000000
0.40884141 0.37118130 -0.00000069
0.63998039 -0.04660698 -0.00000123
-0.41295129 -0.23201488 0.00000000
-0.40026348 -0.57245405 0.00000000
-0.07502502 0.18682375 0.00000000
-0.37795329 0.33438571 0.21618246
-0.70635615 -0.41814985 -0.00000043
0.63587145 -0.40929196 -0.00000058
0.18224223 -0.34730964 0.00000000
0.34987457 -0.28843272 0.00000000
0.05763194 -0.73963783 0.00000000
0.45279190 0.19241642 0.00000145
0.61735100 -0.23662119 -0.00000080
-0.11632091 0.51604212 0.00000000
-0.42464365 0.36578499 -0.00000052
0.47216922 -0.10327678 -0.00000042
0.56365915 -0.76658228 0.00000000
-0.47238433 -0.28672771 -0.00000005
-0.61912167 -0.37335127 -0.00000028
0.14258966 0.45925794 -0.00000001
0.72522185 -0.37776040 -0.00000101
0.36301001 0.21601009 0.00000278
0.29623671 0.12372376 -0.00000007
-0.63889664 0.13779878 0.05746973
-0.40187698 0.23393110 0.40491430
-0.50603016 0.19319877 0.24851257
-0.11871846 0.34903815 0.00000000
0.47683784 -0.68339522 0.00000000
0.00115529 -0.09100955 0.00000000
0.47767130 0.24841149 0.00000004
-0.56530766 -0.26590285 -0.00000026
0.32027979 -0.07349060 0.00000000
0.04937632 0.66147701 0.00000133
-0.44278739 0.32045076 0.09065845
-0.20740415 -0.39675742 0.00000000
0.06143389 0.57438603 0.00000000
-0.38625978 -0.57398739 0.00000000
0.50778943 -0.14577524 -0.00000050
0.25055861 0.05021233 0.00000747
0.23694591 -0.29790566 0.00000000
-0.04775586 0.37050074 0.00000000
0.52405336 0.12682818 -0.00000105
0.29167480 0.27417734 0.00000318
0.31902109 -0.26227159 0.00000000
-0.23731103 0.43417431 0.31693073
-0.08506081 -0.56346625 0.00000000
0.05992414 -0.48315420 0.00000000
-0.63749257 -0.31753443 -0.00000037
0.34495711 -0.50933271 0.00000000
-0.24660866 0.54870854 0.01154901
-0.27204588 0.33800773 0.46842637
0.25528220 0.28194605 -0.00000017
0.38237775 0.18274068 -0.00000054
-0.67392305 -0.55782222 -0.00000024
0.32850278 0.26363445 -0.00000045
-0.18992304 -0.15072795 0.00000000
0.36341134 0.14568723 -0.00000039
0.29871807 -0.18546342 0.00000000
-0.19589367 -0.23601891 0.00000000
0.49334680 -0.08439226 -0.00000054
0.09598572 0.16142429 0.00000813
-0.28705589 -0.23206948 0.00000000
0.26690548 0.48885540 0.00000007
-0.13114105 0.32841398 0.00000000
-0.50870926 -0.24375166 -0.00000016
0.33444335 -0.11294319 0.00000000
0.15131022 -0.75259229 0.00000000
-0.66941790 -0.58761668 -0.00000020
-0.30427247 -0.64835809 0.00000000
-0.28474097 -0.21991067 0.00000000
-0.06305374 -0.07193511 0.00000000
0.53024142 -0.03555754 -0.00000079
0.17197101 0.59723204 0.00000008
-0.49633132 -0.39759106 -0.00000000
-0.06864178 0.21474182 0.00000000
0.02985481 0.75915476 0.00000011
0.46606088 0.29121827 -0.00000109
0.53238741 -0.65318144 0.00000000
0.35014222 -0.60996809 0.00000000
-0.05695447 0.31103306 0.00000000
-0.02921910 0.64533451 0.00000000
-0.22569578 0.40839887 -0.00000014
0.41002749 0.12198356 -0.00000055
0.08280939 0.56093802 0.00000000
0.26180897 0.04607848 0.00000736
-0.01748323 -0.72526040 0.00000000
-0.17868502 0.56361406 -0.00000017
-0.01418746 -0.69729535 0.00000000
0.12896486 -0.76573134 0.00000000
-0.65136589 0.05419334 -0.00000073
-0.29181984 0.31828971 -0.00000020
-0.15061394 -0.59342625 0.00000000
0.05341917 -0.78707359 0.00000000
-0.40995331 0.33037569 0.14715545
0.66888393 0.08753914 -0.00000160
0.06773613 0.58037145 0.00000227
0.48548752 0.02125284 0.00000369
-0.21654123 0.20523745 0.00000000
0.45464884 -0.21748781 -0.00000014
0.21106204 0.55215899 0.00000009
-0.75067504 -0.02735529 -0.00000087
0.05639516 -0.07533235 0.00000000
0.13837425 0.00439514 0.00000985
-0.61230419 -0.14437799 -0.00000047
0.31962679 -0.22230715 0.00000000
0.25825257 0.44357728 0.00000099
-0.13848011 -0.00847198 0.00000000
-0.03773526 0.09358196 0.00000000
0.73112163 -0.37911566 -0.00000104
-0.34297165 -0.68162163 0.00000000
0.16373961 0.33566992 0.00000449
-0.59007103 -0.30976957 -0.00000028
0.79297583 -0.54995488 -0.00000063
0.30676691 0.26211210 0.00000309
-0.38133247 0.36596243 0.12997692
0.25647054 0.30783372 -0.00000022
-0.52691083 -0.29143265 -0.00000016
-0.12082708 0.46895332 0.00000000
0.54903697 -0.40875294 -0.00000021
0.09111316 -0.52877448 0.00000000
0.09827906 -0.07302046 0.00000000
-0.59213665 -0.33927158 -0.00000026
0.65906959 -0.13766825 -0.00000116
-0.18544938 -0.20842265 0.00000000
-0.37211718 0.05889319 -0.00000014
0.13359808 -0.69255343 0.00000000
0.34574922 -0.07150764 0.00000000
-0.41176007 -0.66246083 0.00000000
0.06208430 -0.64987432 0.00000000
-0.25883194 0.47953925 -0.00000027
-0.08561346 0.69252188 -0.00000009
0.57553536 0.17362143 -0.00000059
-0.53315078 0.09811672 -0.00000052
-0.56957962 -0.30497925 -0.00000024
0.08150885 0.16628773 0.00000828
-0.25585555 0.48936038 -0.00000027
0.51802914 0.10432783 0.00000167
-0.33482095 0.26485192 0.49402634
0.24756619 -0.50842366 0.00000000
0.39661264 -0.35171498 0.00000000
0.24358221 0.54455271 -0.00000059
-0.17588589 0.60501860 0.04709305
-0.33788444 0.45571232 0.01579117
-0.26343823 0.31672835 -0.00000013
-0.27881834 0.50704211 0.03487028
-0.11493824 -0.01959182 0.00000000
-0.17060657 0.51716076 0.27677780
-0.17413920 0.23447996 0.00000000
0.45227044 0.20290756 0.00000129
0.08577204 0.44837515 0.00000398
-0.40175806 -0.34244627 0.00000000
0.13923226 0.45654040 0.00000305
-0.43200646 -0.41880641 0.00000000
-0.18584869 0.58368365 0.07513810
-0.01212154 -0.68394247 0.00000000
-0.38831666 0.38236266 0.07230802
0.34457212 0.36966550 0.00000057
-0.55324902 -0.25469450 -0.00000025
-0.75734807 -0.68122009 -0.00000015
0.74991137 -0.54412890 -0.00000064
0.31644417 -0.33467121 0.00000000
0.43721141 0.35164382 -0.00000107
-0.64108285 -0.42540669 -0.00000028
-0.71151274 -0.54472110 -0.00000032
0.01325146 0.08721782 0.00001049
0.13430082 0.39117527 0.00000000
0.16558400 -0.77984363 0.00000000
-0.72982105 0.04975488 0.05036533
0.43692120 0.19203547 0.00000176
0.08063847 0.43490950 0.00000426
-0.13894536 -0.69982682 0.00000000
0.14236861 -0.34409995 0.00000000
0.16130778 -0.34022325 0.00000000
0.01666282 -0.62225029 0.00000000
0.66927127 0.07132806 -0.00000157
-0.23107654 -0.35058823 0.00000000
0.12671374 -0.01224123 0.00000000
-0.61341206 0.16971880 0.04159934
-0.11868696 0.65781618 -0.00000013
-0.55222814 0.24142753 0.01564428
-0.49357234 0.04143263 -0.00000038
-0.24718580 -0.35595650 0.00000000
0.75754617 -0.40148605 -0.00000100
0.53168028 0.15990201 -0.00000114
-0.24259200 -0.31931912 0.00000000
-0.77499613 -0.12044822 -0.00000084
0.60756179 -0.31977855 -0.00000061
0.05638843 -0.26467556 0.00000000
0.25286779 -0.19784445 0.00000000
-0.23334756 -0.25889240 0.00000000
-0.21444291 0.24488917 0.00000000
0.44061183 -0.53875277 0.00000000
0.00314765 0.75981828 0.00000056
-0.54973639 0.15643539 0.23139032
0.43584818 -0.51326572 0.00000000
-0.51776310 0.24720650 -0.00000062
0.26762694 0.01614761 0.00000772
-0.64170729 0.12448425 0.08337353
0.45949429 0.02590863 -0.00000059
0.59963429 0.16902283 -0.00000144
-0.71235061 -0.13740759 -0.00000069
0.13557378 -0.68714829 0.00000000
0.39040027 -0.16902093 0.00000000
-0.14608498 -0.26550194 0.00000000
0.14947523 0.10205188 0.00000000
-0.36399775 0.32165201 0.28200063
0.23114425 0.18520710 0.00000573
-0.04195645 0.74722608 -0.00000004
0.12379810 0.01036184 0.00000998
-0.38489967 -0.53232343 0.00000000
-0.20470511 -0.60443293 0.00000000
-0.08213932 0.70980803 0.01986073
-0.11546732 0.09966109 0.00000000
0.41853170 -0.61104591 0.00000000
-0.01939054 0.24274874 0.00000000
-0.62146945 -0.34348591 -0.00000032
0.05757885 0.43619283 0.00000459
0.31257322 -0.19119478 0.00000000
0.02430715 -0.29708572 0.00000000
-0.68366920 -0.50923222 -0.00000030
-0.75632302 -0.07617416 -0.00000084
0.30858057 0.06557600 0.00000634
-0.21328930 0.30976912 -0.00000002
-0.67489845 -0.11186609 -0.00000063
-0.36945642 -0.53614038 0.00000000
-0.30654617 0.35558086 0.34000930
0.26153769 -0.54916279 0.00000000
0.23676098 0.17377571 0.00000582
0.69056021 -0.40906109 -0.00000081
0.30839864 -0.23041780 0.00000000
