ply
format ascii 1.0
element vertex 1374
property float x
property float y
property float z
end_header
-0.22859993 0.76572993 -0.00000071
-0.60474976 0.73519716 -0.00000024
0.19192655 0.28041122 0.30747527
0.35564975 0.26412401 -0.00000081
-0.46991222 0.72275921 -0.00000041
0.00886927 0.08141566 -0.00000055
0.47977779 0.07129081 -0.00000073
-0.16050691 0.45249505 -0.00000077
-0.37241730 0.65291976 -0.00000053
0.60904381 0.08612490 0.09837197
0.39777347 -0.31866696 -0.00000030
-0.75217778 0.36363863 -0.00000006
0.32595172 -0.38343749 -0.00000026
-0.09494888 0.53513290 -0.00000083
0.28122746 -0.24860194 -0.00000034
0.11926984 0.18457384 -0.00000062
0.15034733 0.36225162 0.26969420
0.13935771 -0.66901361 -0.00000008
0.37197933 -0.36431079 -0.00000027
0.14731849 0.26289351 0.36577343
0.60339513 0.05193909 -0.00000085
0.51372658 0.21683771 0.06515669
-0.36071271 0.64554543 -0.00000055
-0.49925666 -0.47941801 -0.00000020
-0.11897035 -0.34824889 -0.00000028
-0.65930922 -0.73640560 -0.00000002
0.42356249 0.31895297 0.05394168
-0.16296994 -0.01448987 -0.00000049
0.55913114 -0.06759133 -0.00000067
0.35900941 0.30155921 0.13084076
0.10968786 0.18410470 -0.00000062
0.38880287 -0.20519443 -0.00000037
0.69849248 -0.22093432 -0.00000066
-0.02619286 0.74948634 -0.00000096
0.20797276 -0.09230297 -0.00000044
0.12134197 0.38792222 -0.00000074
-0.74174339 -0.43139075 0.00000000
-0.27749400 0.40886491 -0.00000063
-0.68852526 -0.24675573 -0.00000007
-0.37514926 0.06372062 -0.00000046
0.46949072 -0.73980405 -0.00000004
-0.66296738 0.64905052 -0.00000017
-0.60090426 -0.56568119 -0.00000011
0.23478277 -0.14375266 -0.00000041
0.09429673 -0.32737153 -0.00000030
-0.12570533 -0.07519744 -0.00000045
0.71050939 -0.68911989 -0.00000014
-0.22680760 -0.59425265 -0.00000013
-0.12655556 0.09708580 -0.00000056
-0.71217310 -0.40886814 -0.00000002
-0.40306975 0.51712370 -0.00000050
-0.59927240 -0.01386597 -0.00000021
-0.11430685 0.08854002 -0.00000056
0.41871397 0.14622654 -0.00000075
0.51040728 -0.36927301 -0.00000030
-0.35739859 0.53096319 -0.00000055
0.53781147 -0.35199297 -0.00000034
-0.31833733 0.21990285 -0.00000055
-0.46579760 -0.56595470 -0.00000015
-0.30454542 -0.65201950 -0.00000009
-0.66112512 -0.12906970 -0.00000012
0.26750108 -0.69191512 -0.00000007
0.01124061 0.41107747 -0.00000076
0.46991170 0.29990370 0.02832336
-0.42503532 0.71094173 -0.00000047
0.66264881 -0.50084315 -0.00000032
-0.08630503 0.22902960 -0.00000064
-0.54153491 0.16878100 -0.00000031
0.20319290 0.41489955 0.17070009
0.30803157 0.48101640 0.01027549
-0.46973396 0.20883221 -0.00000039
0.16718665 0.37501250 0.24191766
-0.77433757 0.24609905 -0.00000003
0.38149538 0.40966624 0.00829202
-0.03367360 -0.79415200 -0.00000000
-0.39469677 -0.15206867 -0.00000040
0.53265620 0.06888875 -0.00000079
0.10351394 0.52706688 0.15898051
0.47064994 -0.55020251 -0.00000016
-0.31859766 0.71194422 -0.00000060
0.10843620 0.21648165 -0.00000064
-0.15105491 -0.66069259 -0.00000009
-0.00505765 -0.45520627 -0.00000022
-0.67728674 -0.15445977 -0.00000010
0.42942575 -0.28565703 -0.00000032
-0.12821167 -0.67027571 -0.00000008
0.19390677 0.33541146 -0.00000071
0.19028136 -0.57981790 -0.00000014
-0.67806904 0.34967809 -0.00000015
-0.25470349 -0.73541454 -0.00000004
-0.48339742 -0.25082372 -0.00000029
-0.40656043 0.29275944 -0.00000047
0.22311074 0.29757285 0.26210804
-0.56199236 -0.34692013 -0.00000019
-0.00739745 -0.20200202 -0.00000037
-0.02575800 -0.59613722 -0.00000013
0.15254230 0.52250240 0.11725618
0.44737420 -0.33627800 -0.00000029
-0.10262915 -0.30715821 -0.00000031
-0.72567747 0.73861531 -0.00000009
-0.45405078 0.11120367 -0.00000039
0.05441351 -0.50742829 -0.00000018
-0.71341705 -0.76700834 0.00000000
0.26664344 0.06342134 -0.00000054
0.49734141 -0.57460813 -0.00000014
0.01515084 -0.52363380 -0.00000017
0.14185359 0.59885954 -0.00000094
-0.48355723 -0.02779134 -0.00000033
-0.29284320 -0.62380278 -0.00000011
-0.70800542 -0.52949564 -0.00000000
0.01840808 0.00942588 -0.00000051
0.01630953 0.03658625 -0.00000052
-0.29732291 -0.56288363 -0.00000015
-0.46816324 0.44142457 -0.00000041
0.10695801 -0.14963653 -0.00000041
0.66661330 0.10817305 0.02365861
-0.41231316 0.44368970 -0.00000048
0.15534067 0.28525218 0.33726428
0.78029027 -0.41718701 -0.00000048
-0.00837034 -0.26526781 -0.00000033
-0.70486294 -0.42446974 -0.00000002
-0.02555239 -0.77169589 -0.00000002
-0.55873101 0.49939772 -0.00000030
0.20945496 0.37977148 0.19778780
-0.12561598 -0.58272775 -0.00000014
-0.04377556 0.65051824 -0.00000091
0.40751182 0.30430452 -0.00000091
-0.39478753 0.67205759 -0.00000051
-0.30828815 0.76677457 -0.00000061
0.57497101 -0.21895011 -0.00000053
0.18483403 0.36189964 0.23766260
-0.33695379 0.52043423 -0.00000058
0.62008970 0.10692933 -0.00000092
-0.53690886 -0.56342395 -0.00000015
0.24550392 -0.49208204 -0.00000019
-0.79047096 -0.69599528 0.00000000
0.64578521 -0.24629537 -0.00000057
0.28766157 -0.40733425 -0.00000025
0.59643145 0.07610823 -0.00000086
0.59162302 -0.30683932 -0.00000045
-0.01482463 -0.52195430 -0.00000017
0.41388722 0.37536304 0.01008565
0.55445065 -0.57447645 -0.00000014
-0.46667278 0.73159488 -0.00000042
0.20895488 0.57765438 0.01256396
-0.78211852 -0.54886673 0.00000000
0.04232022 0.58483804 -0.00000087
0.68293563 -0.09165832 -0.00000078
0.11380028 0.61566552 0.06618751
-0.19380247 -0.52613620 -0.00000017
-0.74339041 -0.24085387 -0.00000002
-0.62051089 0.23055729 -0.00000022
0.13395393 -0.21059984 -0.00000037
-0.76229149 -0.18097778 -0.00000001
-0.52194876 0.67693350 -0.00000035
0.35886387 -0.20284463 -0.00000037
-0.75167336 -0.38571625 0.00000000
-0.04821425 -0.30280727 -0.00000031
-0.77295946 -0.67864707 0.00000000
0.34109439 0.33161274 -0.00000086
-0.18280502 0.20050906 -0.00000063
0.26868665 -0.59388507 -0.00000013
0.57243346 -0.64337919 -0.00000010
-0.42571153 -0.00736253 -0.00000040
-0.70902960 -0.68974851 0.00000000
0.31049465 -0.17996527 -0.00000039
-0.69812309 -0.47217347 -0.00000002
0.35433701 -0.10778975 -0.00000043
-0.46755844 -0.37383616 -0.00000027
-0.78585527 0.78569513 -0.00000002
-0.25559450 -0.72937874 -0.00000004
-0.48694004 -0.67739036 -0.00000008
-0.25077577 -0.03163767 -0.00000048
0.23275429 -0.06889639 -0.00000046
0.21278334 0.52761605 -0.00000094
-0.72174125 -0.79689148 0.00000000
-0.40384084 0.36934711 -0.00000049
0.32879104 -0.29598521 -0.00000032
0.65512629 -0.27841102 -0.00000055
0.29592377 0.44803343 0.05258875
-0.39556473 -0.64204559 -0.00000010
0.06882460 -0.38262765 -0.00000026
-0.56686678 -0.50550136 -0.00000016
0.52318098 -0.50701441 -0.00000018
0.75968245 0.00845286 -0.00000097
0.61576549 -0.36586766 -0.00000041
-0.01412629 -0.26019097 -0.00000034
0.21623245 -0.59798652 -0.00000013
0.30097323 0.32946585 0.15911439
-0.46606811 0.78897431 -0.00000042
0.27602998 0.49259551 0.02943998
0.59479288 0.16675818 0.03607863
-0.55220885 -0.11363992 -0.00000024
0.41085590 0.17089598 0.20480256
0.11836639 0.41496743 -0.00000076
-0.66078201 0.33895074 -0.00000017
-0.79597999 -0.01599198 -0.00000000
-0.35564451 -0.02660583 -0.00000047
-0.47755553 -0.35595753 -0.00000028
-0.74614155 -0.22085365 -0.00000002
0.43066610 -0.38122677 -0.00000026
-0.54256545 -0.23659717 -0.00000023
0.54093238 -0.26596768 -0.00000044
0.34524881 0.40049105 -0.00000094
0.76389461 -0.71444425 -0.00000011
0.41457304 -0.77561266 -0.00000002
-0.69563317 0.59015034 -0.00000013
0.72004731 -0.75498683 -0.00000006
-0.35643341 -0.79793022 -0.00000000
-0.07040627 -0.68023248 -0.00000007
-0.34579033 -0.27113401 -0.00000033
-0.15220767 0.61022906 -0.00000080
-0.33753526 0.34305927 -0.00000056
0.29208211 -0.38364395 -0.00000026
0.69429304 -0.77192787 -0.00000004
-0.75743340 -0.50578197 0.00000000
0.77612484 -0.19291478 -0.00000076
0.00711368 -0.61230979 -0.00000012
0.64508253 -0.23065069 -0.00000059
-0.21938477 -0.49174392 -0.00000019
0.06385340 -0.04477435 -0.00000047
-0.56843587 -0.05673115 -0.00000024
-0.42510344 0.64589321 -0.00000047
0.19745863 0.20674547 0.37141148
-0.08512318 0.46295100 -0.00000079
-0.06525613 0.00855177 -0.00000051
-0.04444845 0.79717460 -0.00000094
0.33932484 -0.55220234 -0.00000015
-0.71670861 0.31541240 -0.00000010
0.36971184 -0.10362577 -0.00000044
0.14364635 -0.37630559 -0.00000026
0.39979334 0.34613143 0.05074237
-0.60589975 0.10155678 -0.00000023
-0.37976546 -0.45339301 -0.00000022
0.50655627 0.25473937 -0.00000096
0.59511117 -0.60033600 -0.00000014
-0.04429685 0.61597164 -0.00000088
0.39262382 0.03704205 -0.00000060
-0.10812402 -0.58746605 -0.00000013
0.75711105 -0.51421828 -0.00000036
0.36729138 0.02538806 -0.00000057
0.12309322 0.41352275 0.24715663
-0.79213396 -0.53626682 0.00000000
-0.35193262 0.54871869 -0.00000056
-0.37354629 0.44403809 -0.00000053
-0.45064186 -0.46529689 -0.00000021
-0.32765288 0.36574966 -0.00000057
-0.57713720 0.29167525 -0.00000028
-0.73758786 0.74572309 -0.00000008
0.50331131 -0.78137814 -0.00000001
0.31689233 0.47858773 0.00423959
-0.79331091 -0.17334418 0.00000000
0.21077893 0.36178012 0.21342838
-0.42936472 0.56904410 -0.00000046
-0.29184858 -0.35913686 -0.00000028
-0.78296218 -0.51982498 0.00000000
-0.60026952 -0.12149099 -0.00000019
-0.22162565 0.33118109 -0.00000068
-0.28427528 -0.18345116 -0.00000039
-0.74708947 -0.47100529 0.00000000
0.23582378 0.14906936 0.38953298
-0.20646777 -0.74024465 -0.00000004
-0.17313381 -0.59170450 -0.00000013
-0.39776956 -0.03370614 -0.00000042
0.28643934 0.01728998 -0.00000051
-0.11913523 -0.41683807 -0.00000024
0.56750906 -0.16711682 -0.00000057
0.05580370 0.60177535 -0.00000088
0.72725257 -0.12276928 -0.00000079
-0.15608240 -0.35498583 -0.00000028
-0.55810338 -0.73447792 -0.00000004
-0.43424792 0.01350955 -0.00000039
0.24000189 -0.46934046 -0.00000021
0.69242026 0.04301403 0.06058666
-0.34417026 -0.31186446 -0.00000031
-0.31057864 -0.21453086 -0.00000037
-0.39742039 -0.72097092 -0.00000005
0.33293060 -0.51079991 -0.00000018
0.49776326 0.11703732 -0.00000080
0.07426765 -0.46068341 -0.00000021
-0.01821508 0.41719323 -0.00000076
-0.33844588 -0.43918258 -0.00000023
-0.06430653 0.53064573 -0.00000083
-0.08778486 -0.66416616 -0.00000008
-0.13744030 -0.17169702 -0.00000039
-0.53810629 -0.25594029 -0.00000023
0.19761491 -0.43709820 -0.00000023
-0.11697481 0.06350896 -0.00000054
-0.21470367 -0.29681364 -0.00000031
0.75162420 -0.72596454 -0.00000009
-0.56848773 -0.02047350 -0.00000024
0.78365965 0.00565371 -0.00000099
0.47196935 0.26025017 -0.00000093
0.52007029 0.21433650 0.06155088
-0.61365839 -0.59862486 -0.00000009
0.49130073 0.11698986 -0.00000080
0.32938130 0.27223139 -0.00000079
0.32545651 -0.77384458 -0.00000002
0.16808710 0.42101710 0.19790227
0.59525485 0.05120780 -0.00000084
-0.43343200 0.78807631 -0.00000046
0.08187735 -0.14259954 -0.00000041
-0.67198249 0.44284892 -0.00000016
0.13634525 0.36002679 -0.00000073
-0.59326016 0.20157304 -0.00000026
0.39853358 0.33711823 0.06038255
0.04646131 0.52603465 -0.00000083
0.09345174 0.53541318 0.16059065
-0.44861731 -0.15876659 -0.00000035
0.11382625 0.25666282 -0.00000066
0.54687327 0.20559586 -0.00000095
-0.29998422 0.78987137 -0.00000063
0.18152244 -0.60383822 -0.00000012
-0.25221495 -0.06680464 -0.00000046
0.67864781 -0.25200515 -0.00000060
0.20273388 0.18450363 -0.00000062
-0.52942747 0.45758669 -0.00000034
-0.11934496 0.04034850 -0.00000053
0.33005278 0.41285104 0.05357724
0.01024276 0.18258921 -0.00000061
0.15477276 -0.56731473 -0.00000015
-0.22090700 0.71400236 -0.00000072
0.33561812 0.22086798 -0.00000074
0.45126348 -0.43462444 -0.00000023
0.27577327 -0.66031464 -0.00000009
-0.61200937 0.00023491 -0.00000020
-0.03999912 -0.60981091 -0.00000012
0.09083511 0.41564490 -0.00000076
0.29228090 0.42913942 -0.00000092
-0.78483194 0.39697498 -0.00000002
-0.73628963 -0.20801815 -0.00000003
-0.56239154 0.05704603 -0.00000026
0.41564805 0.10613347 0.26107885
-0.34498635 -0.04494343 -0.00000047
-0.43022385 0.51686664 -0.00000046
0.28058783 0.48940623 0.02815571
0.66092801 0.07810018 -0.00000093
0.04875091 -0.77399325 -0.00000002
-0.51270100 -0.71568585 -0.00000005
0.42208122 0.16008985 -0.00000077
0.52641239 -0.22675525 -0.00000047
-0.50355734 0.23331160 -0.00000036
0.55500660 0.23627910 0.00817559
0.25357564 -0.35123939 -0.00000028
-0.59993698 -0.35723040 -0.00000015
-0.20214084 0.77397220 -0.00000075
-0.33524054 0.03273471 -0.00000050
0.23395961 0.55104339 -0.00000098
-0.08635463 0.43228438 -0.00000077
0.43743906 -0.51700864 -0.00000018
-0.18081022 -0.66128715 -0.00000009
0.50790125 0.13721226 -0.00000083
0.11896211 -0.49206373 -0.00000019
-0.44041176 0.78213446 -0.00000045
0.23078276 -0.70745731 -0.00000006
-0.24388817 -0.27500163 -0.00000033
-0.02627585 0.19882388 -0.00000062
-0.59066992 0.32675655 -0.00000026
0.26237914 0.24376423 -0.00000069
-0.36746552 -0.43266940 -0.00000023
0.32282495 0.13200605 0.32390425
0.12067642 -0.27879140 -0.00000033
-0.42116178 0.42231733 -0.00000047
0.50420510 -0.09746677 -0.00000058
-0.50425607 0.17725818 -0.00000035
-0.24612265 -0.02227151 -0.00000049
-0.69145837 -0.18096825 -0.00000008
-0.31443855 0.78804075 -0.00000061
0.10012892 -0.12071223 -0.00000042
0.62523321 -0.73376945 -0.00000004
-0.62647546 -0.13485921 -0.00000016
0.08809645 0.46056691 -0.00000079
-0.44339127 0.21653715 -0.00000042
0.51888416 -0.77411100 -0.00000002
-0.56413247 -0.76489132 -0.00000002
0.55151459 0.13769283 -0.00000088
0.31277652 0.10169716 -0.00000059
0.35897747 0.17889124 0.24598241
-0.27177064 -0.26427287 -0.00000033
0.38057558 -0.08841703 -0.00000046
-0.56765251 0.14298986 -0.00000027
-0.14493201 0.16179745 -0.00000060
-0.25706954 0.26467876 -0.00000063
0.42395889 -0.71491955 -0.00000005
0.37770187 -0.46400905 -0.00000021
0.40870070 0.11654778 -0.00000071
0.59795939 -0.33609833 -0.00000043
-0.75023346 -0.61003084 0.00000000
-0.41840754 0.57346121 -0.00000048
-0.62058566 0.43477338 -0.00000022
-0.40652612 0.53693023 -0.00000049
-0.21504545 -0.51815721 -0.00000018
0.47886562 0.15314978 -0.00000082
-0.12770594 -0.26783953 -0.00000033
-0.58343313 -0.38930962 -0.00000016
0.69780414 0.09918628 0.00282226
-0.79282063 -0.18240485 0.00000000
0.63552618 0.11122238 -0.00000094
-0.47807852 0.76930349 -0.00000040
0.22707910 -0.11835550 -0.00000043
0.29813476 0.44867462 -0.00000094
0.52077588 0.13970465 0.13092343
0.16524906 -0.41667592 -0.00000024
-0.56665494 -0.32009740 -0.00000019
0.21306097 0.54526434 0.03910569
-0.71722222 -0.36888479 -0.00000002
-0.23319914 -0.37977243 -0.00000026
0.04114163 -0.54598735 -0.00000016
-0.65558533 -0.05970704 -0.00000014
-0.05758954 -0.67360543 -0.00000008
0.35706295 0.18129404 0.24552420
-0.22589450 0.29574401 -0.00000067
0.33680877 0.33058565 0.12443542
0.19357055 0.40356581 0.19036509
-0.48238868 -0.59092253 -0.00000013
-0.50441505 0.13129372 -0.00000034
-0.74830078 0.48445840 -0.00000006
0.35454217 0.39930321 -0.00000095
-0.13690034 0.58506432 -0.00000081
0.10078827 0.19479126 -0.00000062
-0.28401932 0.15444646 -0.00000058
0.24948256 0.17653327 0.35094380
0.65839813 -0.41018068 -0.00000041
0.28523344 0.21351540 -0.00000068
-0.62420053 0.10612409 -0.00000021
-0.38549702 -0.64052467 -0.00000010
0.12031099 0.65112676 -0.00000097
-0.58857139 0.66465754 -0.00000026
0.18263432 0.30237938 0.29558020
0.63920635 -0.36022332 -0.00000044
0.78669642 -0.60809054 -0.00000024
0.14351409 -0.14725694 -0.00000041
-0.41940338 0.52474037 -0.00000048
0.07313603 0.57127976 0.14599769
-0.22368505 -0.38037489 -0.00000026
-0.79216459 0.58339283 -0.00000001
0.38155005 -0.30658469 -0.00000031
-0.10683121 0.45453119 -0.00000078
0.29651866 0.16669259 -0.00000064
0.35469438 -0.63309514 -0.00000010
0.53717753 0.19902433 -0.00000093
-0.56901554 0.61964681 -0.00000029
-0.34599522 -0.53832429 -0.00000016
0.68225997 0.02459089 -0.00000090
-0.72109086 -0.00508305 -0.00000008
-0.14555905 -0.66796429 -0.00000008
0.33928420 -0.69996477 -0.00000006
-0.16314054 -0.79754803 -0.00000000
0.25950814 0.39219689 0.13915837
0.08882872 0.48975246 0.20777655
0.09798295 0.11367983 -0.00000057
0.28028797 0.23088630 0.27103185
0.75991900 0.02958286 -0.00000099
-0.38557484 -0.46879543 -0.00000021
0.24947269 0.24426010 0.28739865
-0.44567328 -0.76598801 -0.00000002
0.50342017 0.16295085 -0.00000086
-0.04291457 -0.47717311 -0.00000020
-0.51597895 0.65901023 -0.00000036
0.32868765 0.21786461 -0.00000073
-0.04305021 -0.46293932 -0.00000021
0.53291358 -0.41407292 -0.00000027
0.27570849 0.32466414 0.18732866
-0.57203985 0.54763756 -0.00000028
-0.70355733 0.43798989 -0.00000012
0.32692280 -0.56304569 -0.00000015
-0.25831263 0.24760999 -0.00000062
0.54978255 -0.04854652 -0.00000068
0.37432525 0.26627375 0.14958029
0.55725636 -0.20252420 -0.00000052
-0.11483592 -0.16366774 -0.00000040
-0.20318839 0.41014572 -0.00000071
-0.33114175 -0.70740105 -0.00000006
-0.19803057 0.10117276 -0.00000056
0.07112943 0.65511866 -0.00000092
0.23444867 0.02101797 -0.00000051
-0.09697619 -0.66848022 -0.00000008
-0.10971006 -0.57907122 -0.00000014
-0.36446213 0.36055956 -0.00000053
-0.13607243 0.29350466 -0.00000068
-0.56654635 0.77685629 -0.00000029
-0.12174099 -0.15610755 -0.00000040
0.66504264 0.04280674 -0.00000090
0.33921007 0.39266886 0.06392302
0.58915917 -0.14874679 -0.00000062
-0.24989788 -0.06073500 -0.00000046
0.04609653 -0.61845095 -0.00000011
-0.62578122 -0.79830789 -0.00000000
-0.35348939 -0.35303131 -0.00000028
-0.43643574 -0.04980638 -0.00000038
0.18982879 0.15721840 -0.00000060
-0.03145269 0.69244846 -0.00000093
0.28527067 0.20322572 -0.00000067
0.42031717 0.20326313 0.16555068
0.35875353 -0.06850653 -0.00000046
-0.64219558 0.61534357 -0.00000020
0.66476325 -0.26229771 -0.00000058
0.12520615 0.21972970 -0.00000064
0.15169527 0.64715979 0.00107248
-0.63078466 -0.52861402 -0.00000008
-0.43365488 0.52152509 -0.00000046
-0.61524060 0.19850902 -0.00000023
-0.61991701 0.57628771 -0.00000023
0.29987032 -0.17149369 -0.00000039
-0.56748144 0.06111470 -0.00000026
-0.10407297 0.42441972 -0.00000077
0.18294238 0.28104444 0.31531169
-0.47593236 -0.66505028 -0.00000008
-0.15065231 -0.50432837 -0.00000018
0.39153378 0.18850417 0.20641091
0.28551409 0.29551920 0.20547663
0.74122746 -0.50640947 -0.00000037
0.19798195 0.42532804 0.16580396
0.18267466 0.49659901 -0.00000087
-0.34943522 0.12705497 -0.00000050
0.28475801 0.47792610 0.03501538
-0.48931811 0.00376467 -0.00000033
-0.03695493 -0.59165249 -0.00000013
0.16050634 -0.59559289 -0.00000013
0.41689693 0.30992062 0.06867264
0.28394675 -0.31738191 -0.00000030
-0.14993377 -0.25327684 -0.00000034
-0.11700267 0.48529284 -0.00000080
0.28447551 -0.44762246 -0.00000022
0.54114080 -0.23266831 -0.00000048
0.03278671 -0.06034562 -0.00000046
-0.60710009 -0.69666328 -0.00000006
-0.43694943 0.12441594 -0.00000041
0.76613138 -0.36178031 -0.00000055
0.00097909 0.69380695 -0.00000093
-0.70895768 0.24215878 -0.00000011
0.50319519 -0.46237252 -0.00000021
0.66285239 -0.40768376 -0.00000042
0.67422570 -0.08340463 -0.00000078
0.48998183 0.15651363 0.14404704
-0.43907181 0.42119005 -0.00000045
-0.23474709 0.65443049 -0.00000071
0.07013088 -0.20940799 -0.00000037
-0.03777994 0.50690155 -0.00000082
0.11772456 0.60772147 -0.00000092
-0.06373216 0.00663479 -0.00000050
-0.72655303 -0.50677598 0.00000000
-0.43140272 0.61562653 -0.00000046
-0.67719225 0.03969278 -0.00000014
0.41139978 0.21224214 -0.00000081
0.25492473 0.48729142 -0.00000094
-0.17885402 0.65222729 -0.00000078
0.21936182 -0.39723968 -0.00000025
0.29034144 -0.60054949 -0.00000012
0.56300329 -0.13488712 -0.00000060
0.59858768 -0.03379450 -0.00000075
0.31390159 0.13616168 -0.00000063
-0.14321284 -0.71422422 -0.00000005
-0.44123342 -0.32020089 -0.00000030
-0.22427806 -0.13850328 -0.00000041
-0.03120415 -0.72327156 -0.00000005
-0.06985982 0.06541467 -0.00000054
-0.67143072 0.19439605 -0.00000016
-0.29439893 -0.70569398 -0.00000006
0.23808695 0.15700519 -0.00000060
-0.53479334 -0.31796620 -0.00000022
0.03351186 -0.16768047 -0.00000040
-0.53808594 -0.43186203 -0.00000020
0.65705664 -0.00015456 -0.00000085
-0.68545505 0.74187874 -0.00000014
-0.73922434 -0.34721626 -0.00000000
-0.01649395 0.13074473 -0.00000058
-0.70789350 0.05347293 -0.00000011
0.22334837 -0.67586456 -0.00000008
0.72740333 -0.79565663 -0.00000001
0.51130425 -0.31730607 -0.00000035
0.38567935 -0.65485820 -0.00000009
0.57798664 0.02645253 -0.00000079
0.57445107 -0.10061455 -0.00000065
-0.61806027 -0.22154127 -0.00000015
0.71400917 0.06962705 0.01535388
-0.70423728 -0.27625007 -0.00000005
-0.06449657 0.32498878 -0.00000070
-0.10881022 0.19805525 -0.00000062
-0.40120850 -0.35521562 -0.00000028
-0.66554690 0.34110257 -0.00000017
-0.50087964 -0.29581383 -0.00000026
-0.34105434 0.49393633 -0.00000057
-0.28289028 0.19316778 -0.00000059
-0.22545105 0.22382678 -0.00000064
0.43654693 0.14126891 0.20849614
-0.30873039 0.02751645 -0.00000052
0.52150589 0.16486559 -0.00000088
0.41350863 -0.58017152 -0.00000014
0.32159279 -0.75800517 -0.00000003
0.20017422 0.59822447 -0.00000100
0.12016624 0.56953833 0.10349927
0.28826420 0.05192255 -0.00000053
-0.58043815 0.65756558 -0.00000027
-0.78963377 -0.25026040 0.00000000
0.07085551 -0.70062988 -0.00000006
0.44626527 -0.70309074 -0.00000006
-0.07284236 -0.73733284 -0.00000004
-0.36906953 0.33169192 -0.00000052
0.30445196 0.43286032 0.05882435
-0.03703367 -0.49894984 -0.00000019
-0.55795677 -0.13568191 -0.00000023
-0.60603718 0.74204973 -0.00000024
0.14952990 -0.61197279 -0.00000012
0.48717233 0.23732017 -0.00000092
-0.46544700 0.14960398 -0.00000038
0.71266487 -0.24699519 -0.00000064
-0.59720136 0.36444238 -0.00000025
-0.39167336 -0.66441767 -0.00000008
0.22425338 -0.46937182 -0.00000021
0.39692537 0.28213830 0.11348497
0.05798050 -0.52776356 -0.00000017
0.27381203 0.33134825 -0.00000079
0.15354767 -0.79792984 -0.00000000
-0.14940662 0.56977709 -0.00000080
0.08102771 0.00449328 -0.00000050
-0.08505813 0.40577159 -0.00000075
0.20202913 -0.68301299 -0.00000007
0.61603212 -0.06192022 -0.00000074
-0.60808859 -0.79054187 -0.00000001
-0.41713604 -0.40809024 -0.00000024
-0.14217282 -0.71027301 -0.00000006
0.10756279 -0.78707621 -0.00000001
-0.54326925 0.17644354 -0.00000031
0.63202355 -0.49837156 -0.00000029
-0.72980965 0.35093777 -0.00000009
0.20124741 0.51083531 0.08249983
0.20658121 0.26491660 0.30826356
-0.52057892 -0.75866342 -0.00000003
-0.17266520 -0.01797732 -0.00000049
-0.00111699 0.15646052 -0.00000060
-0.39496370 -0.10054470 -0.00000041
-0.66086353 -0.07230308 -0.00000014
0.33042049 -0.18737482 -0.00000038
-0.20342735 0.34506418 -0.00000070
0.28702299 -0.11271422 -0.00000043
0.34579754 0.37587668 0.07349914
-0.27368094 0.79520748 -0.00000066
-0.25515340 0.75346352 -0.00000068
-0.75356040 0.66340449 -0.00000006
0.18581681 0.18835332 0.39959510
0.12557028 0.38645182 0.27023538
0.15656269 -0.76729462 -0.00000002
0.64445130 0.12383991 0.02975367
-0.59452790 0.10443147 -0.00000024
-0.30757835 -0.37940205 -0.00000026
-0.69911414 -0.33061422 -0.00000005
-0.59343451 0.62662983 -0.00000026
0.64279466 0.08074221 0.07175122
0.00726592 0.35160565 -0.00000072
-0.22803257 -0.16993460 -0.00000039
0.25677840 -0.72460525 -0.00000005
-0.14110419 0.48560547 -0.00000079
-0.14571622 0.68143241 -0.00000082
-0.66465091 -0.53316120 -0.00000005
-0.62664920 0.34868094 -0.00000022
-0.56235138 0.66483676 -0.00000030
0.12439919 0.45635623 -0.00000079
0.29553928 0.25793113 0.23134152
0.14236374 -0.61689738 -0.00000011
0.36449673 0.32869260 0.10022942
-0.14308542 0.60735576 -0.00000081
-0.10991730 -0.51872178 -0.00000018
-0.71365066 0.39893658 -0.00000011
-0.49636730 0.50741826 -0.00000038
-0.71555802 0.55452163 -0.00000011
-0.08468770 0.27148151 -0.00000067
0.67566153 0.10088707 0.02200491
-0.20479389 0.35210915 -0.00000070
-0.29595481 0.75897114 -0.00000063
-0.73593168 0.64030675 -0.00000008
-0.42672388 -0.21974420 -0.00000036
-0.11108760 0.47753998 -0.00000080
-0.06269201 0.75481149 -0.00000092
-0.45885263 -0.61735916 -0.00000011
-0.05480964 -0.00796741 -0.00000050
0.05529365 -0.62333206 -0.00000011
-0.02439942 -0.00061763 -0.00000050
-0.04075039 0.76378096 -0.00000095
0.77195265 0.02765554 0.00036574
-0.27404746 -0.33211873 -0.00000029
-0.19366917 0.39914899 -0.00000072
-0.76407646 -0.57543363 0.00000000
-0.69862069 0.66310699 -0.00000013
-0.45623267 0.10373189 -0.00000039
0.13352855 0.49833103 -0.00000082
-0.11633863 0.57660852 -0.00000083
-0.23271038 -0.48884614 -0.00000019
0.01365513 0.04275782 -0.00000053
-0.39984760 -0.53761804 -0.00000016
-0.57033366 0.69102108 -0.00000029
0.49528927 0.16998427 -0.00000086
-0.71675286 -0.21889208 -0.00000005
-0.61195027 -0.24190256 -0.00000016
0.44053099 0.11943764 0.22524400
0.32512806 0.16317844 -0.00000067
-0.69604677 -0.41570225 -0.00000003
0.35758505 -0.22687058 -0.00000036
-0.74313037 -0.54923478 0.00000000
0.54101392 -0.69276824 -0.00000007
-0.33074537 -0.23123394 -0.00000036
0.62200636 0.11572158 -0.00000093
-0.47739188 0.74387901 -0.00000040
-0.59261384 -0.32871262 -0.00000016
0.41213287 -0.65652575 -0.00000009
-0.38518845 0.58122199 -0.00000052
0.67771266 0.05828272 0.06006013
-0.66439383 0.11166058 -0.00000017
0.07930671 0.37305952 -0.00000073
0.77427277 -0.14357480 -0.00000082
0.47269961 0.28701302 0.03780382
0.28036157 0.26400986 -0.00000073
-0.35320444 -0.62560543 -0.00000011
0.25051108 -0.51072552 -0.00000018
-0.00857223 0.17941159 -0.00000061
0.17242791 -0.69335960 -0.00000007
0.72515326 -0.03248324 -0.00000089
-0.62056946 0.42689724 -0.00000022
-0.60088452 -0.21753422 -0.00000017
0.16970582 0.42847923 -0.00000078
-0.03795939 0.12811963 -0.00000058
-0.18149816 0.14945892 -0.00000059
0.01858142 0.77946525 0.00183109
0.79323482 -0.13989261 -0.00000083
-0.24072517 0.75437099 -0.00000070
0.16912749 0.42133182 0.19663066
0.45112980 -0.79642502 -0.00000000
0.00134180 0.59210517 -0.00000087
-0.55157697 0.50492216 -0.00000031
-0.16704304 -0.30051145 -0.00000031
0.21302861 -0.22806875 -0.00000036
-0.43250151 -0.05670416 -0.00000038
-0.23947234 -0.69982434 -0.00000006
0.09342673 -0.27635002 -0.00000033
-0.41855697 0.11661956 -0.00000043
0.57826868 -0.39916072 -0.00000034
0.77958234 -0.15435770 -0.00000081
-0.54644158 -0.34399199 -0.00000021
0.27212226 0.24777185 -0.00000070
0.25728236 0.52975792 -0.00000099
-0.70193841 0.04660515 -0.00000011
-0.68895397 0.72246263 -0.00000014
-0.58433607 0.72750895 -0.00000027
-0.54316425 0.49272109 -0.00000032
-0.32094190 0.29323903 -0.00000056
-0.48695280 0.23299830 -0.00000038
0.29153788 0.04643763 -0.00000053
-0.02688609 -0.09784928 -0.00000044
0.63778997 -0.31964706 -0.00000049
0.48113406 0.13377844 0.17368457
-0.61315043 -0.22024381 -0.00000016
-0.17828864 0.48837622 -0.00000075
-0.06557024 -0.70900742 -0.00000006
0.11425506 -0.08064676 -0.00000045
-0.58905539 0.55468553 -0.00000026
0.68259277 -0.28116928 -0.00000057
0.71528153 -0.30794330 -0.00000058
0.09132321 -0.13983137 -0.00000041
0.39258191 0.16450592 0.22794736
-0.37878785 0.46207526 -0.00000053
-0.38832577 0.02956404 -0.00000044
0.51135018 -0.48274829 -0.00000020
-0.19251451 -0.14869730 -0.00000041
-0.33281420 0.11952659 -0.00000052
0.60419500 -0.77810093 -0.00000001
-0.21879428 0.56304486 -0.00000072
0.27283966 0.17743639 0.32817831
-0.20775945 0.73691607 -0.00000074
0.25480000 0.34832489 0.18474584
-0.30619044 -0.59494041 -0.00000013
-0.59357391 -0.22564876 -0.00000018
0.28349476 -0.19521702 -0.00000038
0.41448769 -0.00291808 -0.00000059
-0.05633229 -0.49689805 -0.00000019
0.37538773 -0.56888146 -0.00000014
-0.47348358 0.55051393 -0.00000041
-0.29478883 -0.23769188 -0.00000035
-0.27994742 0.19356682 -0.00000059
0.33215292 0.26528917 -0.00000078
-0.11650357 0.20922423 -0.00000063
0.57117551 0.18674679 0.03948387
-0.79861996 -0.76810782 0.00000000
-0.01215255 -0.54052801 -0.00000016
0.37543135 -0.28369588 -0.00000032
0.28360523 0.41962283 0.09080905
0.06826160 0.63212671 0.09347342
0.30868361 0.19549613 0.27759564
-0.49458995 -0.63097064 -0.00000011
-0.30843244 0.19370326 -0.00000056
-0.28935304 0.39892983 -0.00000062
0.24121272 0.13477927 -0.00000058
-0.68403370 -0.78084325 0.00000000
0.17842895 -0.53076548 -0.00000017
0.34877641 0.11479287 -0.00000064
-0.42961155 0.21118234 -0.00000043
0.02292967 0.27095723 -0.00000067
0.12539416 -0.75632057 -0.00000003
-0.69068790 0.43186339 -0.00000014
0.51684467 0.08351933 0.18733690
-0.28122870 -0.13006648 -0.00000042
0.34072241 -0.64406658 -0.00000010
0.04588381 0.38410400 -0.00000074
-0.59701297 -0.69908989 -0.00000006
-0.13173697 0.29803840 -0.00000069
0.59446405 -0.26675901 -0.00000050
-0.27720241 -0.44032618 -0.00000022
-0.66819088 0.07209037 -0.00000015
-0.35996403 0.68495926 -0.00000055
-0.14666827 0.72994745 -0.00000082
0.29235835 -0.45884247 -0.00000021
-0.13283928 0.48276864 -0.00000080
0.69323762 -0.17794496 -0.00000070
0.43386939 0.26919270 0.09096481
0.14883929 -0.63541832 -0.00000010
-0.33315103 -0.70850843 -0.00000006
0.38186177 0.07632709 -0.00000064
0.08765906 0.66877776 -0.00000095
-0.59919306 -0.21220735 -0.00000018
0.69094685 -0.12592252 -0.00000075
0.66277187 0.03417237 -0.00000089
0.70205837 -0.47653346 -0.00000039
0.36786144 0.30587761 -0.00000087
-0.51596774 -0.66761128 -0.00000008
0.39305734 0.17608642 0.21663404
-0.15069502 -0.10699575 -0.00000043
0.09514746 -0.75699226 -0.00000003
0.31870024 -0.36290156 -0.00000027
0.36344031 0.21296748 0.20981746
0.44904962 -0.52521931 -0.00000017
0.61649500 0.15360377 0.02805745
0.70684787 -0.19758096 -0.00000069
-0.17951562 0.23758336 -0.00000065
-0.77877008 -0.61807164 0.00000000
-0.74792133 0.52107488 -0.00000007
-0.14956510 0.55342396 -0.00000080
0.68094390 -0.66789675 -0.00000016
-0.07863156 0.11222462 -0.00000057
0.18192173 0.18148049 0.40969962
0.09306259 -0.46625511 -0.00000021
0.01961220 0.22376201 -0.00000064
-0.49357688 0.59854461 -0.00000038
0.43301202 0.24700385 0.11259143
0.14702855 -0.03956298 -0.00000048
0.35944514 -0.77706677 -0.00000001
-0.57258753 0.14348920 -0.00000027
0.04984801 -0.03956835 -0.00000048
-0.66878493 0.30057263 -0.00000016
0.67809400 -0.67350809 -0.00000015
0.30665754 -0.72838030 -0.00000004
0.17612721 0.20301353 0.39493067
-0.65643419 0.31548659 -0.00000018
-0.26741589 0.38433632 -0.00000064
0.43208679 0.26572545 -0.00000089
0.67688556 -0.63736368 -0.00000019
0.17834487 0.38901135 -0.00000075
-0.30934585 0.17167855 -0.00000055
-0.78078374 -0.23484445 0.00000000
0.61458560 0.13617585 0.04620363
-0.62745427 -0.35073358 -0.00000012
0.46048355 -0.41438386 -0.00000024
0.16269951 0.43310422 0.19161545
0.44394972 -0.13269540 -0.00000048
-0.34272464 -0.55979131 -0.00000015
-0.24522345 0.25085066 -0.00000064
-0.51577798 0.12435219 -0.00000033
-0.22094290 -0.17572125 -0.00000039
-0.36825919 -0.54726918 -0.00000016
-0.51341694 0.65707282 -0.00000036
0.12453526 -0.40828276 -0.00000024
-0.00640506 0.21736840 -0.00000064
-0.44348828 -0.24684923 -0.00000034
0.01353205 -0.66109688 -0.00000009
-0.69347141 0.25599899 -0.00000013
0.01721313 0.01601137 -0.00000051
-0.27124813 0.17787031 -0.00000060
-0.31382202 -0.20790616 -0.00000037
0.40050524 -0.71513606 -0.00000005
0.35195671 -0.06219296 -0.00000046
0.27198879 0.21248659 -0.00000066
-0.43403106 0.49753691 -0.00000046
0.24722351 -0.79153228 -0.00000001
0.55134324 0.18355550 0.06108923
-0.08941772 -0.74321440 -0.00000004
0.40367853 0.20059828 0.18366512
-0.70262895 -0.32519000 -0.00000004
-0.00424808 0.70511767 -0.00000094
-0.68577872 -0.77866980 0.00000000
-0.61839709 0.12868371 -0.00000022
0.11057094 0.55955654 0.12187023
0.30687230 -0.47228049 -0.00000020
0.51266802 0.17640960 -0.00000088
0.44930215 0.23775837 0.10598071
-0.38624733 -0.48873014 -0.00000019
0.37622543 0.37941098 -0.00000095
-0.16921253 -0.76893095 -0.00000002
0.63927348 0.08231325 0.07358125
-0.75211021 -0.36960732 0.00000000
-0.43449153 0.64959808 -0.00000046
-0.09123267 -0.37814892 -0.00000026
0.21453066 -0.73859241 -0.00000004
0.25527002 0.44712081 0.09159472
0.25937366 -0.78031371 -0.00000001
-0.69721594 0.43638158 -0.00000013
-0.04653608 -0.28061290 -0.00000032
-0.37905236 -0.35274186 -0.00000028
-0.65474023 -0.60770338 -0.00000004
-0.66928465 -0.44104717 -0.00000006
-0.66744946 -0.23761558 -0.00000010
-0.02296657 -0.56852310 -0.00000014
0.06474123 0.61771739 -0.00000089
-0.65929943 0.73006499 -0.00000018
0.18378223 0.53334387 0.07776711
-0.44660991 0.60372991 -0.00000044
0.24374480 -0.74353682 -0.00000004
0.36081113 -0.15081367 -0.00000041
-0.50869375 0.30806955 -0.00000036
0.55752133 -0.48731758 -0.00000022
0.31338892 -0.73885869 -0.00000004
-0.50291327 0.66065991 -0.00000037
-0.47762852 0.65530860 -0.00000040
-0.14388229 0.34505569 -0.00000072
-0.32642708 -0.33359671 -0.00000029
0.28918965 0.32235454 0.17684539
-0.72398006 0.55218698 -0.00000010
-0.26804275 0.75111365 -0.00000066
-0.56733735 -0.79633981 -0.00000000
-0.56519159 -0.45747208 -0.00000017
0.14806442 -0.33132163 -0.00000029
0.18715901 -0.73121394 -0.00000004
-0.50305616 -0.52478988 -0.00000017
-0.26538179 0.65843484 -0.00000067
0.44159990 -0.62021752 -0.00000011
-0.54772001 -0.44953650 -0.00000019
-0.40345250 0.11281994 -0.00000044
0.22385478 -0.79970729 -0.00000000
0.47263461 -0.63036255 -0.00000011
0.10151082 0.59733124 0.09492460
-0.14493125 -0.77076649 -0.00000002
0.50918026 0.26224117 0.02681626
0.79513559 -0.66910567 -0.00000016
0.08743275 -0.17915334 -0.00000039
0.51723472 -0.04099810 -0.00000065
0.60050098 -0.28560931 -0.00000048
0.12079272 0.59951571 0.07478081
-0.52318071 0.21763768 -0.00000034
-0.19056618 -0.44229839 -0.00000022
-0.57538976 0.21909254 -0.00000028
-0.18295527 0.30473098 -0.00000069
-0.40572046 -0.43172509 -0.00000023
0.12851939 0.62872025 0.04012449
0.73294702 -0.23109486 -0.00000068
0.57060047 0.20651252 0.02147529
-0.06985077 -0.42707175 -0.00000023
-0.68301182 -0.00617539 -0.00000012
0.54810012 -0.32605510 -0.00000038
-0.70545765 0.14116567 -0.00000012
0.49982550 -0.18115936 -0.00000049
-0.70993259 0.39113807 -0.00000011
0.16398246 -0.69443989 -0.00000007
-0.69121455 0.42199751 -0.00000014
-0.38067048 0.37001203 -0.00000052
-0.41580368 -0.41742915 -0.00000024
-0.13141420 0.29049548 -0.00000068
-0.59682258 -0.40201906 -0.00000014
-0.79169510 -0.20494995 0.00000000
-0.00694082 0.02357457 -0.00000051
0.29583415 0.47096012 0.03115840
0.09342797 0.20113023 -0.00000063
0.64334475 0.10890569 0.04480635
0.20193772 -0.58214911 -0.00000014
-0.32668753 -0.51253483 -0.00000018
0.12123841 -0.29405475 -0.00000032
-0.59363875 0.36030004 -0.00000026
0.19243041 0.21394621 -0.00000063
-0.55223263 0.49192278 -0.00000031
-0.67530116 0.08491670 -0.00000015
-0.44123440 0.46092162 -0.00000045
-0.50753265 0.63698079 -0.00000037
-0.55857679 0.02249987 -0.00000026
0.16059228 -0.59016456 -0.00000013
0.22994330 -0.50220053 -0.00000019
-0.76962401 -0.50168039 0.00000000
0.77740950 -0.35925577 -0.00000055
0.18224607 -0.59683823 -0.00000013
-0.00463944 -0.17070667 -0.00000039
-0.63074189 0.46901020 -0.00000021
0.74191496 -0.30824272 -0.00000061
0.05382621 0.22481298 -0.00000064
-0.67277747 -0.27327573 -0.00000009
-0.12474260 -0.78273025 -0.00000001
-0.36006649 -0.79025314 -0.00000001
-0.42033360 0.41631649 -0.00000047
-0.61834432 0.46949089 -0.00000023
0.30340946 0.27960695 0.20361579
-0.20244297 -0.55169420 -0.00000016
-0.55924443 0.56548695 -0.00000030
0.60924591 -0.21285485 -0.00000057
-0.22440193 0.14234847 -0.00000059
0.67410920 -0.58343974 -0.00000024
-0.16639986 -0.21849675 -0.00000036
0.39165265 -0.46590506 -0.00000021
0.32221774 0.06185197 -0.00000056
0.28387941 0.43125553 -0.00000091
0.22921052 -0.04142874 -0.00000047
0.44518699 0.12826065 -0.00000076
0.20629446 0.16455772 -0.00000060
-0.17627704 -0.77760284 -0.00000001
0.68496593 -0.36543273 -0.00000049
0.77007038 -0.29643922 -0.00000063
0.13505348 0.62952284 0.03323973
-0.09191933 -0.07492407 -0.00000045
-0.73732434 -0.04559809 -0.00000006
-0.25640570 0.21162585 -0.00000062
-0.07428001 -0.24566870 -0.00000035
0.40105952 -0.24284076 -0.00000035
0.07373018 0.65346239 0.06832051
0.58392321 -0.08052533 -0.00000068
0.35301300 0.43922360 0.00728326
-0.27888130 0.71476558 -0.00000065
0.36749146 0.24246539 0.17833495
0.12833416 0.01753165 -0.00000051
-0.50385050 -0.37435663 -0.00000025
-0.66023117 -0.24937113 -0.00000010
0.20825830 0.39688978 0.18284703
0.64884366 -0.01700511 -0.00000082
0.46494885 -0.62422017 -0.00000011
-0.04299238 0.39656331 -0.00000075
-0.57760791 0.25570237 -0.00000028
0.13729148 0.56490512 0.09177693
0.06617596 0.11488960 -0.00000057
0.71567695 -0.22186270 -0.00000067
0.13429836 -0.11349099 -0.00000043
-0.36069259 0.04584718 -0.00000048
0.08156211 0.55926084 0.14936924
-0.25614093 -0.09639820 -0.00000044
0.03120091 -0.36969262 -0.00000027
-0.58342388 -0.61361893 -0.00000012
0.10310189 -0.19608008 -0.00000038
0.17988358 -0.59527513 -0.00000013
-0.42989747 0.21052545 -0.00000043
-0.26962981 -0.09457418 -0.00000044
-0.20944084 -0.59061825 -0.00000013
-0.07094668 -0.06860600 -0.00000046
0.35388198 0.16015139 -0.00000069
-0.00866937 0.76541583 -0.00000098
0.34658579 -0.30571921 -0.00000031
-0.38124193 -0.50757745 -0.00000018
0.35847064 -0.24339956 -0.00000035
0.14519451 0.48270507 0.16149681
-0.39976267 -0.09132846 -0.00000041
-0.37649820 -0.07327873 -0.00000044
0.47939687 0.30424205 0.01535135
0.79426224 -0.18256842 -0.00000077
-0.47148890 -0.45320994 -0.00000022
0.05621696 0.70845555 -0.00000096
-0.63712258 0.35448257 -0.00000020
-0.54634955 -0.28491486 -0.00000022
0.30122343 0.42576201 0.06851508
-0.71638609 -0.35687412 -0.00000002
-0.79145439 -0.40974868 0.00000000
-0.50579201 -0.23668326 -0.00000027
0.46931396 0.22903608 0.09538661
0.10932845 -0.43049558 -0.00000023
0.00411474 -0.76844244 -0.00000002
0.55867376 -0.59795125 -0.00000013
-0.08596281 0.39327010 -0.00000075
0.41701720 0.18635769 0.18451148
-0.73311157 0.60296653 -0.00000008
-0.73152437 -0.56206372 0.00000000
0.15166679 0.04493592 -0.00000053
0.74707051 -0.36718534 -0.00000054
0.76292526 0.01316163 -0.00000097
-0.68826105 0.35965732 -0.00000014
0.58482235 0.03820231 -0.00000081
0.37111262 -0.15030038 -0.00000041
0.24065453 -0.07245119 -0.00000045
-0.13464808 0.64329907 -0.00000083
-0.23711874 -0.52886167 -0.00000017
-0.22353007 0.63529726 -0.00000072
-0.75334928 0.74292079 -0.00000006
-0.67048891 -0.58399306 -0.00000003
0.23188626 0.30312282 0.24866514
0.18937298 -0.60107181 -0.00000012
-0.76213086 0.54977213 -0.00000005
-0.77659886 -0.00721858 -0.00000002
-0.40179682 0.45204673 -0.00000050
0.19990082 0.32713081 -0.00000071
0.17666361 -0.03256081 -0.00000048
-0.05398693 0.15860786 -0.00000060
0.68370945 -0.29515155 -0.00000056
-0.70367566 -0.73196134 0.00000000
-0.70856193 0.17309555 -0.00000011
-0.60514924 0.26276140 -0.00000024
-0.78827592 -0.71554238 0.00000000
-0.19881201 0.33675495 -0.00000070
0.35233526 -0.56548668 -0.00000015
0.07328456 -0.76315863 -0.00000002
-0.43740834 -0.35170839 -0.00000028
0.45207962 0.00631642 -0.00000064
0.07699648 -0.12777511 -0.00000042
-0.56282952 0.16768958 -0.00000028
-0.61253309 0.43328303 -0.00000023
-0.59551550 0.75000288 -0.00000026
0.55803097 0.17572469 0.06216190
-0.21971216 -0.55018000 -0.00000016
0.32464668 0.09971852 -0.00000060
-0.77557770 -0.46512653 0.00000000
0.57536302 -0.42835209 -0.00000030
0.12681843 -0.06799026 -0.00000046
0.16826573 -0.16910708 -0.00000039
0.43690427 0.12055879 0.22759524
-0.40136892 -0.70999125 -0.00000006
0.17196238 -0.03323089 -0.00000048
-0.60665842 0.37123277 -0.00000024
0.07547830 0.55222285 -0.00000085
0.55574509 0.08125706 0.15295558
0.17785842 0.17083355 0.42350360
0.00053841 0.17178387 -0.00000061
-0.77931796 -0.13814458 0.00000000
0.64683273 -0.39143532 -0.00000042
0.13396629 -0.54265807 -0.00000016
-0.71892421 0.35916528 -0.00000010
0.38722119 -0.75889595 -0.00000003
-0.37120322 0.32318456 -0.00000052
0.54775576 0.23903536 0.01239331
-0.61999754 -0.66238224 -0.00000007
0.46172155 -0.28623358 -0.00000033
-0.36087506 -0.31634194 -0.00000030
-0.31961993 0.52785701 -0.00000060
-0.37771725 -0.66706269 -0.00000008
-0.60040481 0.06900816 -0.00000023
0.33746038 0.11891095 -0.00000063
0.18462769 0.14264258 -0.00000059
-0.53297509 -0.10736267 -0.00000027
-0.24905173 0.40033989 -0.00000066
-0.37249168 -0.69156412 -0.00000007
0.02278666 -0.55801125 -0.00000015
0.54491533 0.14997436 0.09863380
0.70131880 -0.38710251 -0.00000048
-0.11811659 -0.00341875 -0.00000050
-0.16722418 0.66425693 -0.00000079
-0.36212205 -0.02297938 -0.00000046
-0.38683178 -0.35023948 -0.00000028
-0.45913938 -0.20538128 -0.00000033
-0.53333684 0.13490149 -0.00000031
0.12897035 -0.14262884 -0.00000041
-0.52141656 -0.14597641 -0.00000027
-0.51996517 -0.36439604 -0.00000023
0.33737092 -0.28764694 -0.00000032
-0.67735048 0.34004790 -0.00000015
-0.13863707 -0.04298207 -0.00000047
-0.14010328 0.54014261 -0.00000080
-0.36339377 0.56456339 -0.00000055
-0.64827022 0.03759886 -0.00000017
0.35093287 -0.38997019 -0.00000026
-0.30686540 -0.52769523 -0.00000017
-0.08016054 0.19322763 -0.00000062
0.52583018 -0.48549859 -0.00000020
-0.49696503 0.11844427 -0.00000035
-0.59009279 -0.07769893 -0.00000021
0.40387430 0.28407004 -0.00000088
-0.02919434 0.07134786 -0.00000054
-0.26402911 -0.06403892 -0.00000046
0.46263598 0.28776688 0.04654014
-0.55069021 -0.27990925 -0.00000021
-0.08300786 0.55466993 -0.00000085
0.24997733 -0.39828721 -0.00000025
0.25043438 0.31492716 0.22018270
-0.77331880 0.32945319 -0.00000003
0.53693086 0.06809708 -0.00000079
-0.02689690 -0.10934908 -0.00000043
-0.20913259 -0.36829090 -0.00000027
-0.40118422 0.65391913 -0.00000050
-0.08895071 -0.44881472 -0.00000022
-0.44502722 -0.71826940 -0.00000005
0.23823007 -0.64589052 -0.00000010
-0.46402120 -0.12461046 -0.00000034
-0.10007784 0.48472355 -0.00000080
-0.76318127 -0.17769037 -0.00000001
-0.32883359 0.40893107 -0.00000058
0.43920056 -0.56565368 -0.00000015
0.24988363 0.37186586 -0.00000081
-0.66529593 0.57236079 -0.00000017
0.60611014 -0.28454626 -0.00000049
0.21266339 -0.50687793 -0.00000018
0.21869288 0.40788598 0.16273658
0.15592122 -0.17303020 -0.00000039
0.15956113 0.38916443 0.23579327
0.09110438 0.16205133 -0.00000060
0.47733837 -0.74935223 -0.00000003
0.22635341 0.23656642 -0.00000065
0.55481727 -0.18601127 -0.00000054
-0.24698013 -0.19530861 -0.00000038
-0.27459123 -0.40150641 -0.00000025
-0.35807911 0.50918174 -0.00000055
0.12350106 -0.62282299 -0.00000011
0.50130156 -0.64797345 -0.00000010
0.16019532 0.48000707 0.14995202
-0.04396819 -0.69854986 -0.00000006
0.13106437 0.50299578 -0.00000082
0.25580877 0.33152485 -0.00000077
-0.32665002 -0.78611982 -0.00000001
0.32980565 -0.67988926 -0.00000008
-0.73193530 0.49008969 -0.00000009
-0.43603651 0.21279068 -0.00000043
0.38240782 0.17948560 0.22343778
0.69440006 -0.60315495 -0.00000024
0.46101288 0.27605818 -0.00000093
0.22137423 0.39304624 0.17414596
-0.54010437 -0.08225148 -0.00000026
-0.57966430 -0.26523821 -0.00000019
0.26976471 -0.07054422 -0.00000046
-0.29681020 -0.68155341 -0.00000007
-0.33878731 0.52110384 -0.00000058
-0.58337991 0.67978616 -0.00000027
0.33107139 0.28525202 0.17236056
0.46752467 0.25382407 -0.00000092
-0.57726766 0.52083327 -0.00000028
-0.71379102 0.59096387 -0.00000011
0.13805797 0.11941992 -0.00000057
-0.25787611 -0.14139618 -0.00000041
0.11344116 -0.49952956 -0.00000019
0.05305619 -0.05563669 -0.00000047
0.23340276 0.00732552 -0.00000050
-0.62961231 -0.37961322 -0.00000011
0.27889221 0.05906210 -0.00000054
0.04584056 -0.50585474 -0.00000018
-0.65949705 0.49760486 -0.00000018
-0.38880222 -0.09001631 -0.00000042
-0.32759629 -0.57753246 -0.00000014
0.27505719 -0.01018034 -0.00000049
-0.15400677 -0.03253215 -0.00000048
0.73299673 -0.16798276 -0.00000075
-0.75597790 -0.71102133 0.00000000
0.32074667 0.28680284 -0.00000079
0.16738391 0.23586180 -0.00000065
-0.01467282 -0.51829043 -0.00000018
0.76810501 -0.51595481 -0.00000036
-0.55243849 0.59055208 -0.00000031
-0.73371150 0.21154082 -0.00000008
-0.23975410 -0.62946290 -0.00000011
-0.11466417 -0.60989322 -0.00000012
0.58820452 -0.40281834 -0.00000034
-0.21120623 0.19179203 -0.00000062
0.32604337 0.26639867 0.19477089
-0.65205309 -0.54576348 -0.00000006
0.16785275 0.55694393 -0.00000092
0.46157494 -0.12847633 -0.00000050
0.31019302 -0.36720598 -0.00000027
-0.09688194 0.02960755 -0.00000052
0.15920115 0.18866103 -0.00000062
-0.47056697 -0.27990211 -0.00000030
0.01909322 0.74465851 0.03401333
0.69099402 -0.57329793 -0.00000027
-0.11687746 0.05631860 -0.00000054
-0.77728120 0.38330701 -0.00000003
0.20376694 0.36046314 0.22124419
0.77517573 -0.16984818 -0.00000079
0.24668963 0.00119387 -0.00000050
0.76004930 -0.23811197 -0.00000070
0.13449943 0.63709008 0.02665854
-0.13274874 -0.65819616 -0.00000009
0.35027644 0.21660378 0.21875815
0.55162610 -0.15448038 -0.00000057
-0.57533893 -0.10451377 -0.00000022
0.31710871 -0.44455349 -0.00000022
0.21759309 -0.08069508 -0.00000045
-0.43985402 0.52248073 -0.00000045
-0.37371068 0.74496832 -0.00000053
0.34675714 0.39767592 0.05214220
-0.03038271 0.36315909 -0.00000073
0.24466538 0.35870337 0.18451695
-0.19491210 -0.12658100 -0.00000042
0.21668115 0.33683078 -0.00000074
0.19126780 -0.23131593 -0.00000036
0.29964159 0.14381578 -0.00000062
0.37845435 -0.71419352 -0.00000005
-0.60054662 -0.09571225 -0.00000020
-0.31385370 0.48678621 -0.00000061
-0.08266308 0.23308552 -0.00000065
-0.38546653 0.69478654 -0.00000052
0.20217465 0.15422945 -0.00000060
-0.65350557 -0.48907391 -0.00000007
0.34320950 -0.05744910 -0.00000046
-0.20026666 -0.58034193 -0.00000014
0.68044925 0.01952389 -0.00000089
-0.21140863 0.30895979 -0.00000068
-0.20278904 0.56661650 -0.00000074
-0.72704784 0.64330910 -0.00000009
0.22294017 0.37538798 0.18924690
-0.09404577 -0.68490187 -0.00000007
0.16188856 -0.24967039 -0.00000034
-0.73049983 -0.11953545 -0.00000005
-0.22493829 -0.54425890 -0.00000016
-0.47899958 0.77731359 -0.00000040
-0.38128884 0.00742498 -0.00000045
-0.49283666 -0.24971469 -0.00000028
0.09541987 -0.21352933 -0.00000037
0.11862024 -0.38409784 -0.00000026
-0.33865354 0.51437135 -0.00000058
0.72936681 -0.28144871 -0.00000062
0.52693154 0.10486314 0.15784229
-0.65319489 0.56311076 -0.00000018
-0.06377878 0.25602283 -0.00000066
0.71371287 0.03003825 0.05278213
-0.51209355 0.40734756 -0.00000036
0.56597030 -0.19221545 -0.00000055
0.49860560 -0.73815952 -0.00000004
-0.14936366 -0.29747419 -0.00000031
0.58172252 -0.25121789 -0.00000050
0.53078732 0.21390598 0.05189799
-0.36956489 0.76853757 -0.00000054
0.28931705 0.31455456 0.18404532
-0.52146847 0.23157613 -0.00000034
-0.44293904 0.38806718 -0.00000045
0.23718328 0.14534890 0.39174851
0.01663562 -0.38157027 -0.00000026
0.54965592 0.06612555 0.17286912
0.17213838 -0.08954276 -0.00000044
0.00608661 0.53594098 -0.00000083
0.59515411 -0.16987529 -0.00000060
0.06074603 -0.71404598 -0.00000005
-0.32523383 -0.29005054 -0.00000032
0.30935630 0.32817019 -0.00000083
0.28015781 0.20717430 0.29340518
0.57551757 -0.03236785 -0.00000073
0.72299471 -0.45997951 -0.00000043
0.65148135 -0.00307446 -0.00000084
-0.73747571 0.28020064 -0.00000008
-0.14075720 -0.72808343 -0.00000004
0.55877840 -0.17799781 -0.00000055
0.18212497 0.46970363 0.13904219
0.07571242 0.08664660 -0.00000055
-0.27131182 0.32989393 -0.00000062
-0.46534474 0.03268618 -0.00000036
-0.66463158 -0.21393845 -0.00000011
-0.39340283 -0.53812888 -0.00000016
0.28764561 0.26248694 0.23447370
-0.72724957 -0.23650970 -0.00000003
-0.55726593 -0.37358786 -0.00000019
0.41796302 0.02927893 -0.00000062
0.38756056 -0.75143414 -0.00000003
-0.55595159 0.31378563 -0.00000031
-0.73385237 0.70525602 -0.00000008
0.70769598 -0.08887229 -0.00000081
-0.00981459 -0.56612225 -0.00000015
-0.06752482 0.08068815 -0.00000055
0.18285435 -0.09388857 -0.00000044
-0.33200404 0.14482212 -0.00000053
-0.02904804 0.72270803 -0.00000095
0.33708169 0.24761183 0.20204212
0.13397258 0.49116560 0.16408803
-0.18569586 -0.72030075 -0.00000005
0.19421823 -0.68520247 -0.00000007
0.70839120 -0.78260645 -0.00000002
0.55580026 0.20048067 -0.00000095
-0.30720541 0.77105130 -0.00000062
0.26693547 -0.03571946 -0.00000048
0.21460436 0.49598484 0.08390134
0.62854693 -0.65709990 -0.00000012
0.37981612 -0.06690238 -0.00000048
0.28577052 0.47045028 0.04108057
-0.74592189 -0.16513891 -0.00000003
0.12995394 0.34008743 0.30962983
0.21485553 -0.76941741 -0.00000002
0.05916597 0.31286277 -0.00000070
-0.38727712 -0.44161874 -0.00000022
-0.56897466 -0.62366092 -0.00000011
-0.33050913 0.64789162 -0.00000059
-0.13293034 0.52308270 -0.00000081
-0.45244383 0.37250409 -0.00000043
0.60373495 -0.26676304 -0.00000051
0.13755941 -0.39330316 -0.00000025
-0.21061626 -0.74233410 -0.00000004
