ply
format ascii 1.0
element vertex 1388
property float x
property float y
property float z
end_header
-0.17926185 -0.09075796 0.00000000
-0.60991549 0.17643565 0.15782599
0.25375295 -0.27834883 0.00000000
-0.42549908 0.35656396 0.20741870
0.13904247 -0.32099685 0.00000000
-0.26883188 -0.77464169 0.00000000
-0.56659806 -0.51604372 -0.00000005
-0.71578145 -0.14264546 -0.00000069
0.18827665 0.13359250 0.00000716
0.47547165 0.19120999 0.00000104
-0.62718773 -0.55195993 -0.00000014
0.01626254 -0.21076329 0.00000000
-0.52781624 -0.11993784 -0.00000031
-0.13698459 0.44028118 0.00000000
-0.67669463 -0.33165824 -0.00000044
-0.06720059 0.73062164 0.02519300
-0.18219845 -0.21111399 0.00000000
-0.45769608 -0.53869188 0.00000000
0.12569392 -0.16346917 0.00000000
-0.37045139 0.39270216 0.42606768
-0.09051784 -0.02253850 0.00000000
0.09367383 0.15526845 0.00000826
0.28152671 0.28325385 0.00000323
-0.09968136 -0.72666967 0.00000000
-0.26752171 0.49847960 0.39313692
0.00777472 -0.15532066 0.00000000
-0.41212434 0.34635952 0.48006305
-0.69433403 -0.41439828 -0.00000041
0.32949293 -0.21954817 0.00000000
0.23224410 -0.20417064 0.00000000
-0.08762501 -0.11311575 0.00000000
0.07758982 -0.26842576 0.00000000
0.56248009 -0.14861637 -0.00000072
0.39359471 -0.64293700 0.00000000
-0.51461232 -0.52776998 0.00000000
-0.50421023 -0.16405910 -0.00000022
-0.18365464 -0.12642320 0.00000000
-0.45584804 -0.13576540 -0.00000015
-0.41182360 0.38536954 0.03245738
0.75476211 -0.21560034 -0.00000143
-0.39453360 0.38990787 0.17991580
0.77822042 -0.22915307 -0.00000143
-0.72273517 -0.37234509 -0.00000051
0.73549104 -0.63655275 -0.00000041
-0.43347195 0.36164162 0.05650452
-0.21869290 0.57913005 0.02518012
0.18598469 -0.58544111 0.00000000
-0.05206410 -0.25377265 0.00000000
-0.28270519 0.09043252 0.00000000
0.23934527 -0.33831316 0.00000000
0.56897980 -0.33310527 -0.00000043
0.18910961 0.56402415 0.00000031
-0.29848787 -0.31107995 0.00000000
0.01815785 0.50409925 0.00000416
0.22654334 -0.43100145 0.00000000
-0.73540282 -0.75953597 -0.00000005
-0.10137374 0.68612200 0.14459790
0.07717280 0.55682880 0.00000248
-0.37527862 0.12773512 -0.00000021
0.08216845 0.44894835 0.00000403
0.16337772 -0.65576643 0.00000000
-0.79087687 -0.41078186 -0.00000049
-0.47260594 0.30088663 0.30652237
-0.16258404 -0.39769822 0.00000000
-0.40596142 -0.15536371 -0.00000002
-0.65746051 -0.69893479 -0.00000008
-0.23109487 0.50922161 -0.00000024
-0.02986732 -0.13379531 0.00000000
-0.18286547 0.45024252 -0.00000008
-0.60215688 -0.55070519 -0.00000009
-0.38361773 0.40659583 0.11316866
-0.05157388 -0.79902911 0.00000000
-0.67666781 -0.55425858 -0.00000025
-0.03806063 -0.52676958 0.00000000
-0.36819953 0.39039761 -0.00000042
-0.73746395 -0.52348536 -0.00000035
-0.31673506 0.46074682 0.26039106
-0.51034862 0.28192884 0.08929831
-0.42262316 0.37056708 0.07874578
-0.31078514 -0.12902921 0.00000000
0.44912168 -0.61835068 0.00000000
0.06842009 0.47166225 0.00000389
0.47453073 -0.39280289 0.00000000
-0.46120238 -0.12500447 -0.00000017
0.11190791 -0.51799589 0.00000000
-0.50444174 -0.25771233 -0.00000014
0.77478814 -0.20735532 -0.00000148
-0.33789366 0.45097280 0.12874760
-0.54192042 0.25295675 0.05923480
0.77042097 -0.46133208 -0.00000085
0.69007844 -0.42389134 -0.00000078
-0.65169394 -0.55825371 -0.00000019
-0.38713381 0.37141401 0.47932327
-0.04862061 -0.60717237 0.00000000
-0.32531399 -0.79819036 0.00000000
-0.63718617 -0.21569821 -0.00000046
0.09951648 -0.08338147 0.00000000
-0.02949146 -0.75690293 0.00000000
-0.37816098 0.38373932 0.44055897
0.41907853 0.03068325 0.00000480
0.60070455 -0.42233106 -0.00000040
0.57493132 -0.11171419 -0.00000084
-0.69236350 0.08205831 -0.00000084
0.13953716 0.04450610 0.00000923
-0.17257878 -0.30738109 0.00000000
-0.20217972 0.49874863 -0.00000017
-0.63303745 -0.34402606 -0.00000034
-0.30671096 -0.43450117 0.00000000
-0.46860334 -0.75654393 0.00000000
-0.37380782 -0.47118217 0.00000000
-0.32277089 0.45316795 0.27823308
0.08276918 -0.75418180 0.00000000
-0.03117007 0.03645494 0.00000000
-0.31302860 -0.05351024 0.00000000
0.52397442 -0.40440175 -0.00000011
0.21597588 -0.79782671 0.00000000
0.45311117 0.24016985 0.00000065
-0.58343035 -0.27777141 -0.00000029
-0.28221506 0.48296741 0.40260565
0.38815221 0.29886201 0.00000092
-0.16126905 -0.79746234 0.00000000
-0.33797336 -0.07578088 0.00000000
-0.37763008 -0.61765993 0.00000000
-0.60289723 0.17624967 0.24113487
-0.00060446 -0.14586790 0.00000000
-0.78558725 -0.40751082 -0.00000049
0.28912246 0.06898236 0.00000660
0.07638382 0.18913281 0.00000801
0.13494270 0.64737445 -0.00000004
0.14897683 0.48555997 0.00000239
-0.76877195 -0.00880938 -0.00000093
-0.34303448 0.41971961 -0.00000040
0.38541549 -0.26661003 0.00000000
0.46752894 0.08754313 0.00000292
-0.66725963 -0.72446877 -0.00000008
0.63928789 -0.39822286 -0.00000061
-0.01148087 0.24616976 0.00000000
-0.15902367 -0.59491676 0.00000000
-0.51512086 -0.50691587 0.00000000
0.39888364 0.15852226 0.00000306
0.05221232 -0.31410554 0.00000000
0.04696954 0.49168468 0.00000392
0.60421377 -0.26315731 -0.00000070
-0.47212300 0.31007573 0.20584790
-0.73296779 -0.64573133 -0.00000019
-0.48998857 0.29725960 0.14745688
-0.62886190 -0.53396785 -0.00000016
0.06126808 0.62323087 0.00000173
-0.01995022 0.07867917 0.00000000
-0.18182026 -0.38336769 0.00000000
-0.32326493 -0.29024059 0.00000000
0.58475381 -0.61621082 0.00000000
-0.20631771 0.56892353 -0.00000024
0.14757061 -0.19431783 0.00000000
-0.06943735 0.51705581 0.00000000
0.44552454 -0.41127458 0.00000000
0.52764970 0.18498574 0.00000014
0.17530717 0.43617335 0.00000271
-0.79431093 -0.64202738 -0.00000020
-0.07279521 -0.77772552 0.00000000
0.55500656 0.22833981 -0.00000111
-0.00516020 -0.50691640 0.00000000
-0.16713803 0.44552079 -0.00000004
0.07052759 0.01203596 0.00001076
-0.54129881 -0.33351398 -0.00000015
-0.01893547 0.08256676 0.00000000
-0.17196177 0.61107457 -0.00000020
0.03377293 -0.20285144 0.00000000
-0.28369644 -0.01346337 0.00000000
-0.17221417 0.43069977 -0.00000004
0.12984207 -0.16218174 0.00000000
-0.34528205 -0.51465452 0.00000000
-0.40552697 0.38227236 0.14108580
-0.01392803 0.54952830 0.00000000
0.06292814 0.64544761 0.00000137
0.33850163 0.11640430 0.00000492
-0.21093458 -0.75881314 0.00000000
0.62797719 -0.14055844 -0.00000102
0.59387136 -0.28907055 -0.00000061
0.14279725 -0.02112337 0.00000000
0.33594802 -0.58041775 0.00000000
-0.00675378 -0.17912593 0.00000000
0.44083494 -0.78171748 0.00000000
0.13047837 -0.09600545 0.00000000
0.01704908 0.43527973 0.00000521
-0.78906173 -0.71840191 -0.00000010
-0.17615329 -0.37455979 0.00000000
0.19576228 0.58776963 -0.00000021
0.26763278 0.43766958 0.00000091
0.76143479 -0.74659580 -0.00000013
0.16103552 -0.45591569 0.00000000
0.73387831 -0.64632827 -0.00000038
-0.46788013 0.16923910 -0.00000044
0.15401278 -0.38356507 0.00000000
0.61411476 -0.12468892 -0.00000099
0.62330651 -0.57738322 -0.00000023
0.08689520 0.43060493 0.00000423
0.72730488 -0.03741109 -0.00000162
-0.02342984 -0.62260425 0.00000000
-0.52234197 -0.70705217 0.00000000
-0.49609494 0.17964844 -0.00000051
-0.10817221 0.60703117 -0.00000006
-0.69668508 -0.41897520 -0.00000041
0.33452156 0.08792367 0.00000547
0.48213968 -0.55251551 0.00000000
-0.09156543 -0.22712725 0.00000000
0.14619416 -0.53056240 0.00000000
0.79206210 -0.40521446 -0.00000099
-0.14273764 0.34394568 0.00000000
-0.68193150 -0.72142094 -0.00000010
0.12704080 -0.66730130 0.00000000
-0.57747251 -0.34262455 -0.00000022
-0.53038388 -0.74189979 0.00000000
-0.06750524 -0.07530064 0.00000000
-0.10111746 -0.72839838 0.00000000
0.33171594 -0.59216851 0.00000000
0.05389616 -0.75285184 0.00000000
-0.12919468 -0.53111458 0.00000000
0.51307672 -0.31610429 -0.00000022
-0.74073982 -0.76529986 -0.00000004
0.49851722 -0.07551127 -0.00000058
-0.09587879 0.33542144 0.00000000
-0.43434566 -0.12163466 -0.00000011
0.43226749 0.26979700 0.00000056
0.36850381 0.23289643 0.00000240
0.63890928 0.06980844 -0.00000007
0.07054610 0.18009412 0.00000823
-0.40683264 -0.31229606 0.00000000
0.27579141 -0.49288300 0.00000000
-0.10035266 0.56943506 -0.00000001
-0.22696607 -0.35651675 0.00000000
0.18996938 -0.73762870 0.00000000
0.59682328 0.15785183 -0.00000073
-0.40422422 0.07357906 -0.00000022
0.51871365 -0.06740521 -0.00000068
0.06346625 0.10696591 0.00000944
-0.54255170 0.25455242 0.03348269
0.39395022 -0.25859767 0.00000000
-0.56095856 0.16994585 -0.00000064
-0.31852040 0.47016144 0.13088316
0.43529192 -0.18365233 -0.00000012
-0.29958549 -0.63792545 0.00000000
0.06943815 0.40926328 0.00000481
0.59597415 0.09032484 0.00000041
-0.22162892 0.44973311 -0.00000016
-0.39418542 0.36781177 0.43943870
0.08615945 -0.14873265 0.00000000
-0.77939373 -0.33182594 -0.00000059
-0.47162867 0.29186222 0.42216930
-0.01979031 -0.28554949 0.00000000
0.13487370 0.40826851 0.00000384
-0.40423349 0.37932262 0.19015351
-0.59008533 -0.61620736 -0.00000001
-0.62930238 -0.14233826 -0.00000051
0.47010306 -0.60126460 0.00000000
-0.09692755 0.28889683 0.00000000
-0.56780761 -0.56983012 -0.00000000
0.40121627 0.24880610 0.00000150
-0.74436730 -0.73106909 -0.00000009
-0.47694859 -0.10922553 -0.00000021
-0.54101503 0.23247260 0.30657953
-0.72039783 -0.25301924 -0.00000061
0.60900223 0.00649285 0.00000156
-0.47781214 0.30381879 0.21241365
-0.03476294 0.56511259 0.00000000
0.68244660 -0.12801903 -0.00000127
-0.20900290 0.03346294 0.00000000
-0.17538078 0.60286295 0.25157878
-0.70650780 -0.34658125 -0.00000049
0.57804734 -0.51503348 -0.00000014
0.61596918 -0.70074129 0.00000000
0.24132231 0.42922783 0.00000156
0.74446523 -0.54863375 -0.00000063
0.11583802 -0.18204927 0.00000000
-0.24131665 -0.13847920 0.00000000
0.42413178 0.21996810 0.00000154
0.43722373 -0.45526433 0.00000000
0.13497134 0.06619779 0.00000897
0.44676459 -0.75754249 0.00000000
-0.35467836 -0.08467604 0.00000000
-0.73589319 -0.25994602 -0.00000063
-0.11168638 0.35089228 0.00000000
-0.48970944 -0.07631249 -0.00000027
0.13429284 -0.15619640 0.00000000
0.35980892 0.19441846 0.00000321
-0.53871006 -0.53414094 0.00000000
0.38890004 -0.21679807 0.00000000
-0.13212399 -0.43011394 0.00000000
0.38368940 -0.19430049 0.00000000
0.01566230 -0.04097421 0.00000000
-0.72921932 0.05538973 -0.00000090
0.10410119 -0.31033015 0.00000000
0.62520677 -0.68492496 -0.00000004
-0.63545746 -0.21430761 -0.00000046
0.37550732 0.26949745 0.00000165
0.71123451 0.07608012 -0.00000157
0.46113163 -0.49950251 0.00000000
-0.22010565 -0.48013735 0.00000000
-0.72980571 0.04985877 -0.00000089
-0.33975589 0.44915512 0.12823258
-0.20578073 -0.20006631 0.00000000
-0.67444491 -0.12869403 -0.00000062
0.62390369 -0.64645457 -0.00000011
-0.37876907 -0.36959112 0.00000000
0.62523568 -0.04270682 -0.00000118
0.44972974 -0.44374019 0.00000000
0.08327363 -0.36217549 0.00000000
-0.29524201 -0.42241254 0.00000000
-0.73166382 -0.10501982 -0.00000076
0.58938885 0.15375762 -0.00000052
-0.61529583 -0.34843436 -0.00000030
0.27642757 0.18893977 0.00000490
0.20710874 -0.73939222 0.00000000
-0.18315811 -0.49151525 0.00000000
-0.71226525 -0.50517100 -0.00000037
0.11315779 0.54255432 0.00000213
-0.69155699 -0.78986251 -0.00000001
0.39304256 -0.28456551 0.00000000
-0.39203060 0.40208629 0.06803095
-0.65843540 0.08664941 -0.00000077
-0.68867618 0.10840446 0.03374974
0.08711374 -0.25870770 0.00000000
-0.10488904 -0.38523251 0.00000000
-0.57691705 0.19985704 0.26857451
0.06996161 -0.05602018 0.00000000
0.71670896 -0.67938066 -0.00000030
-0.43475613 -0.04109997 -0.00000018
-0.76708138 -0.70656663 -0.00000012
-0.23574176 0.53954732 0.28574383
0.68179268 -0.01478501 -0.00000147
-0.38676101 -0.48947200 0.00000000
0.32823402 -0.03761497 0.00000000
-0.72230190 -0.64772481 -0.00000019
-0.10423256 -0.00888504 0.00000000
0.56583047 -0.61991388 0.00000000
0.05725421 0.73622692 -0.00000013
-0.27342111 0.05695701 0.00000000
0.48009899 -0.10974979 -0.00000044
-0.26669079 0.25622678 -0.00000009
-0.04381191 0.00850999 0.00000000
0.59831393 -0.57529998 -0.00000012
-0.09183317 -0.29183748 0.00000000
-0.45746666 0.31187508 0.35451695
-0.61763471 0.17242835 0.11490187
0.06283652 -0.73551708 0.00000000
0.63706642 -0.15962847 -0.00000102
0.58424175 0.07992241 0.00000081
0.75291634 -0.04635646 -0.00000172
-0.25298423 0.05794090 0.00000000
0.05029426 0.25623390 0.00000740
-0.17589647 0.61871976 0.06226329
0.64444214 -0.61093730 -0.00000026
-0.41329193 0.35675845 -0.00000049
0.60577571 -0.73613876 0.00000000
0.45945725 0.26062188 0.00000019
-0.22166552 -0.37814054 0.00000000
0.44453347 0.27881965 0.00000017
-0.06416034 -0.25577363 0.00000000
-0.23599747 0.53335214 0.35442069
-0.65059179 -0.21205895 -0.00000049
0.39326766 -0.15183279 0.00000000
0.27005285 -0.51708919 0.00000000
-0.44679716 -0.01847518 -0.00000023
0.39447296 -0.52850634 0.00000000
-0.10014517 -0.62121576 0.00000000
0.52273375 -0.12032883 -0.00000060
-0.35925809 0.25707164 -0.00000029
0.17777795 -0.04762548 0.00000000
0.52984542 -0.34191403 -0.00000024
-0.12492857 -0.19188607 0.00000000
-0.11975910 -0.35084102 0.00000000
0.41873264 -0.76021498 0.00000000
0.54773599 -0.72773570 0.00000000
0.03430255 -0.24105805 0.00000000
0.04826625 -0.53600341 0.00000000
-0.44409966 -0.61882120 0.00000000
-0.08927578 -0.61440581 0.00000000
0.07521089 -0.19201276 0.00000000
-0.26178309 0.31094691 -0.00000013
-0.63475901 -0.25331494 -0.00000042
0.50113606 -0.10304312 -0.00000054
0.36407614 -0.28500152 0.00000000
-0.11701375 -0.18555892 0.00000000
0.57624584 -0.19728117 -0.00000070
0.65623546 -0.39953214 -0.00000068
0.09981414 -0.02054107 0.00000000
-0.02363617 0.21758243 0.00000000
-0.47911933 0.31544673 -0.00000059
0.36609969 0.00768531 0.00000620
-0.24949548 0.33078223 -0.00000012
-0.72598511 -0.69638884 -0.00000013
-0.12942357 -0.44839737 0.00000000
0.31098241 -0.28592393 0.00000000
-0.33902490 0.43253046 0.32891852
-0.68562883 -0.76575506 -0.00000004
-0.22298558 0.07549815 0.00000000
0.31602785 0.02629023 0.00000684
-0.39147583 0.40141681 0.08218804
-0.69981700 0.09511023 0.05865093
-0.19905850 0.54311001 -0.00000020
-0.35795748 0.41053686 0.36431286
0.71098351 -0.26585931 -0.00000115
-0.49653390 0.29535517 0.09378984
-0.75774562 -0.18802316 -0.00000074
0.07539815 0.22107412 0.00000755
0.06586901 -0.12547903 0.00000000
-0.23668770 -0.34236082 0.00000000
-0.66979283 -0.55344951 -0.00000023
0.55274969 -0.29616678 -0.00000042
-0.09132548 -0.70766908 0.00000000
-0.19789220 0.59830952 0.04392842
-0.24605376 -0.04338239 0.00000000
0.63623869 -0.24659967 -0.00000087
-0.16352741 -0.16751160 0.00000000
-0.18954714 0.58549881 -0.00000021
0.39992219 -0.43722638 0.00000000
0.00824245 0.30358300 0.00000732
0.24605249 0.37741619 0.00000233
0.13963029 0.61272001 0.00000045
-0.39089867 -0.06576752 -0.00000007
-0.30511421 0.48943460 0.06303900
0.64324337 -0.69824886 -0.00000010
-0.31533256 -0.10144634 0.00000000
0.32934356 0.16805013 0.00000423
-0.33826676 -0.15834887 0.00000000
0.47507751 0.30566826 -0.00000087
-0.54883748 -0.17124166 -0.00000031
0.08465150 0.38541740 0.00000494
-0.18246777 -0.19823252 0.00000000
0.54855442 -0.00175372 -0.00000092
-0.27968574 0.35547677 -0.00000020
-0.51462847 -0.28903013 -0.00000014
0.26230395 -0.03797036 0.00000000
-0.38599825 -0.37028104 0.00000000
0.45987827 -0.50136781 0.00000000
0.26909295 -0.47090253 0.00000000
-0.30472827 -0.06224319 0.00000000
0.70695382 -0.74583161 -0.00000014
-0.26777259 -0.64719307 0.00000000
0.72273016 -0.60282952 -0.00000049
-0.53128040 0.12540522 -0.00000054
-0.16384697 0.63605917 0.00109205
-0.59715140 0.18384434 0.21975537
-0.33209682 -0.01902399 0.00000000
-0.37174869 -0.30669251 0.00000000
-0.60815251 -0.22245634 -0.00000039
-0.48618668 0.15762196 -0.00000047
0.10123532 -0.37950405 0.00000000
0.47803789 -0.13503671 -0.00000039
-0.65363985 0.10650048 -0.00000078
0.38215747 -0.02198133 -0.00000018
-0.63350320 -0.62766236 -0.00000009
-0.35333931 0.22937009 -0.00000025
-0.36515340 -0.56670070 0.00000000
0.03836485 0.50049472 0.00000391
-0.44497612 -0.18645845 -0.00000008
0.01790830 0.36057124 0.00000632
0.52040154 -0.04239050 -0.00000073
-0.08225080 -0.00881011 0.00000000
0.29628196 0.17685802 0.00000472
0.50973523 -0.20512716 -0.00000040
-0.56732678 -0.79348689 0.00000000
-0.50902134 0.28562003 0.06196235
-0.35128263 -0.34132925 0.00000000
-0.36739442 0.19410911 -0.00000025
-0.47203434 -0.09379619 -0.00000022
0.30318305 -0.32552379 0.00000000
-0.00930308 -0.34218031 0.00000000
0.57721716 -0.03618418 -0.00000099
-0.07737184 0.15672477 0.00000000
-0.09833559 0.36267257 0.00000000
-0.36102363 0.40429950 0.40098110
-0.25121871 0.54466712 0.04757942
-0.02103159 0.15015768 0.00000000
0.11708193 -0.18592355 0.00000000
-0.20440450 0.59028399 0.06142681
0.14677218 -0.65956408 0.00000000
0.39162251 -0.17923817 0.00000000
0.23623012 0.16365156 0.00000598
0.42603099 -0.45962715 0.00000000
0.68423450 -0.65404612 -0.00000035
-0.67785549 -0.74462861 -0.00000007
0.47471651 0.12489595 0.00000216
0.06085314 0.31874877 0.00000630
-0.16264763 -0.37245694 0.00000000
0.15076159 0.57702523 0.00000083
-0.05623080 -0.23254907 0.00000000
-0.21574791 -0.79341972 0.00000000
-0.27313656 0.50514907 -0.00000032
-0.08395686 -0.55743313 0.00000000
0.32139510 -0.44010612 0.00000000
0.18494223 -0.64374948 0.00000000
0.51182723 -0.32333410 -0.00000020
-0.04875884 -0.56937236 0.00000000
-0.67471200 -0.13897070 -0.00000061
-0.45363402 0.13875271 -0.00000038
-0.40687859 -0.63792974 0.00000000
0.11869613 0.18441498 0.00000744
-0.68415856 -0.06089976 -0.00000070
0.57263207 0.11363192 0.00000047
-0.09207907 0.16327249 0.00000000
0.13360097 -0.29012874 0.00000000
-0.40210405 -0.04781563 -0.00000011
-0.53381991 -0.03226045 -0.00000040
-0.61621952 -0.06242277 -0.00000055
0.63550389 -0.69695151 -0.00000007
0.10234833 0.26075926 0.00000654
-0.20490488 -0.03470403 0.00000000
0.36126393 -0.33620444 0.00000000
-0.11476119 -0.41687623 0.00000000
-0.05083837 -0.77695417 0.00000000
0.70853990 -0.31400204 -0.00000105
0.69970614 -0.22068126 -0.00000118
0.50476348 -0.51900774 0.00000000
-0.04301528 0.09203163 0.00000000
-0.62071234 0.01954454 -0.00000063
-0.30039555 -0.18382394 0.00000000
0.39901873 -0.13768604 -0.00000005
-0.49908844 -0.13548639 -0.00000024
-0.35308427 0.39388892 -0.00000039
-0.59440720 -0.69102460 0.00000000
0.15559477 0.41606778 0.00000341
0.44795448 -0.17923169 -0.00000018
0.36555454 0.32956949 0.00000084
0.65102077 -0.46562636 -0.00000054
0.10736548 0.34652838 0.00000518
0.01070433 0.57101583 0.00000327
0.50049144 -0.77662981 0.00000000
-0.15154070 -0.53849924 0.00000000
0.52550370 -0.16452371 -0.00000054
-0.46435064 -0.47981909 0.00000000
-0.00128146 -0.56309366 0.00000000
-0.02038827 -0.22192518 0.00000000
-0.68467218 -0.07771770 -0.00000069
0.13891554 -0.07593651 0.00000000
-0.08220463 -0.60373563 0.00000000
0.07621825 0.53513968 0.00000282
0.09243527 -0.14441516 0.00000000
0.68298578 -0.46188167 -0.00000068
0.47376937 -0.38753834 0.00000000
-0.41553101 0.34661216 -0.00000049
0.44223574 0.18924539 0.00000171
-0.00027944 -0.51944160 0.00000000
-0.63479120 0.16206917 0.03629869
0.07417061 0.04196836 0.00001025
0.49852154 0.03227632 0.00000325
-0.39906698 0.38334230 0.20341527
-0.04249974 -0.29576990 0.00000000
0.06394810 -0.56358725 0.00000000
-0.45185950 0.31434691 0.39076987
0.18164980 0.00241565 0.00000922
-0.51012367 -0.57975823 0.00000000
-0.41235274 0.34249780 -0.00000048
-0.69841391 0.02329227 -0.00000080
0.39777532 0.17240424 0.00000284
-0.21670420 0.45682725 -0.00000016
-0.73443395 -0.11109197 -0.00000076
-0.01738500 0.51502043 0.00000000
-0.20586134 0.57026148 0.27610302
-0.43396279 -0.34585989 0.00000000
-0.13214241 0.61009896 -0.00000011
-0.19786151 -0.65542018 0.00000000
-0.54141587 0.24146439 0.19796488
-0.31938145 0.29137784 -0.00000023
0.10563282 -0.43676507 0.00000000
0.06164034 0.07536611 0.00000994
-0.03314909 -0.47370878 0.00000000
-0.67412007 -0.26044059 -0.00000050
-0.72644812 -0.02781862 -0.00000082
-0.55500937 0.08101604 -0.00000055
0.09624943 -0.42949107 0.00000000
-0.37203920 -0.27909848 0.00000000
0.37689519 -0.53593093 0.00000000
-0.03260836 -0.72649145 0.00000000
-0.52681404 0.26043892 0.14740005
0.47035429 -0.19401787 -0.00000025
-0.20978001 0.57674193 0.15586059
0.03995532 -0.59001774 0.00000000
-0.73223966 -0.65232712 -0.00000018
0.65525359 -0.59909666 -0.00000032
-0.59403360 0.17605498 -0.00000072
0.03373806 0.05925538 0.00001060
-0.21734372 0.23810676 0.00000000
-0.06445426 0.51402169 0.00000000
-0.32325980 -0.78215599 0.00000000
0.50844496 -0.50367254 0.00000000
-0.42935628 -0.56784594 0.00000000
-0.77831882 0.00169119 -0.00000096
-0.75834966 -0.65272605 -0.00000018
0.70438051 -0.06876441 -0.00000147
-0.27413589 0.07259754 0.00000000
-0.04773502 -0.65448159 0.00000000
-0.16232593 0.10993935 0.00000000
-0.01743201 -0.72694963 0.00000000
0.25455058 0.39819154 0.00000182
0.76903969 -0.59421718 -0.00000051
0.65657675 0.11361312 -0.00000114
-0.14936954 -0.36372176 0.00000000
-0.58354282 -0.01444536 -0.00000053
-0.43655214 -0.23128201 -0.00000002
0.23988476 0.43252572 0.00000153
0.03235837 0.61221445 0.00000233
-0.37376258 0.40487617 0.24701583
0.18423180 -0.02820562 0.00000000
0.27064043 0.47919410 0.00000016
0.30040699 0.06734158 0.00000646
0.41934022 -0.16764697 -0.00000008
-0.15397701 -0.12782378 0.00000000
-0.49843538 0.28796521 0.15725774
0.35386214 -0.50525713 0.00000000
0.15633966 0.03213919 0.00000916
0.47441807 -0.67213529 0.00000000
-0.17201249 0.04580615 0.00000000
0.38867405 -0.31588995 0.00000000
0.72194356 -0.37926295 -0.00000100
-0.23936258 0.44710776 -0.00000020
0.18805119 -0.58269584 0.00000000
-0.79278588 -0.71910322 -0.00000010
-0.30994567 0.07491935 -0.00000002
-0.14646789 0.11443681 0.00000000
-0.26915839 -0.65670121 0.00000000
0.74986941 -0.00814807 -0.00000177
-0.73684436 -0.55333990 -0.00000031
0.09652830 -0.63625675 0.00000000
0.40728176 -0.45993510 0.00000000
0.79427403 -0.37864727 -0.00000105
0.69209236 -0.30728903 -0.00000100
0.32744750 -0.40042141 0.00000000
-0.25971296 -0.24184069 0.00000000
0.09366919 0.23636349 0.00000704
-0.78936428 -0.77318108 -0.00000003
0.73320228 -0.01768114 -0.00000168
0.69267648 -0.02123401 -0.00000150
0.34325096 -0.36321354 0.00000000
-0.73159999 -0.38622007 -0.00000051
-0.11715555 -0.68945020 0.00000000
-0.47894120 -0.14523958 -0.00000019
-0.40358129 0.11324173 -0.00000025
0.55716521 -0.01463152 -0.00000094
-0.48267096 -0.38217798 0.00000000
-0.21618477 0.57893771 0.05640776
0.79153478 -0.10287678 -0.00000174
0.31371000 -0.42344490 0.00000000
-0.07420556 0.72061884 0.05985770
-0.38699672 0.40209299 0.12616450
0.10088405 0.50334096 0.00000293
0.49891073 -0.02126803 -0.00000068
-0.70041859 -0.09449073 -0.00000070
0.19202824 -0.31985787 0.00000000
-0.79976994 -0.46966669 -0.00000041
0.17313312 0.07732086 0.00000823
-0.12336698 0.18255992 0.00000000
-0.31844580 -0.69129020 0.00000000
0.67978984 -0.44455627 -0.00000070
0.51653308 -0.77381188 0.00000000
-0.23674512 -0.56489187 0.00000000
-0.26694289 0.52209020 0.12682277
0.68940246 -0.05682935 -0.00000143
-0.45562255 -0.70080394 0.00000000
0.22894202 -0.28867349 0.00000000
0.40025833 0.14271694 0.00000329
-0.00284056 -0.08618720 0.00000000
-0.22680721 -0.11810230 0.00000000
-0.30711180 0.37656045 -0.00000028
-0.19248587 0.51586032 -0.00000016
-0.10965072 0.45580828 0.00000000
0.16484505 0.02502366 0.00000914
-0.23053405 -0.33844367 0.00000000
0.35053903 -0.10864229 0.00000000
-0.17509206 -0.49143282 0.00000000
-0.41192928 -0.52662975 0.00000000
-0.58761406 0.20238286 0.11566765
0.04499403 -0.40155062 0.00000000
-0.16631141 0.62854278 0.05951179
-0.24631009 0.43210056 -0.00000020
-0.23446083 0.21788663 0.00000000
0.67062175 -0.53018928 -0.00000051
-0.05478904 0.30978087 0.00000000
0.35901397 -0.17487653 0.00000000
-0.52582288 0.16722810 -0.00000056
0.15236644 -0.79811639 0.00000000
0.47862369 0.30958307 -0.00000100
-0.62799197 0.15586214 0.18670055
-0.02992702 0.33016345 0.00000000
-0.42235658 -0.77006525 0.00000000
0.22872958 -0.11541430 0.00000000
-0.32044557 0.44508374 0.39859596
-0.20758319 -0.31164739 0.00000000
-0.20836942 0.41061291 -0.00000010
0.24253207 0.06286752 0.00000740
0.64480346 0.02146363 0.00000062
-0.48836800 -0.63411611 0.00000000
-0.49623704 0.28712726 0.19236866
0.01204272 0.39303073 0.00000592
-0.48489940 0.10989523 -0.00000042
-0.01878338 0.47001213 0.00000000
-0.49632055 -0.51347262 0.00000000
-0.43393224 0.12577565 -0.00000033
0.11247486 -0.12413439 0.00000000
0.53792077 -0.59935403 0.00000000
0.01670567 -0.76585740 0.00000000
-0.58950716 -0.01030836 -0.00000054
-0.31727204 -0.37549183 0.00000000
-0.17008747 -0.42652547 0.00000000
0.17514750 -0.64680117 0.00000000
-0.27765536 0.52128237 0.01228711
0.28418210 0.18983826 0.00000473
-0.54213905 0.20454946 -0.00000063
-0.47017893 0.32028860 0.11022938
-0.52396566 -0.15943649 -0.00000027
-0.35351229 0.43235636 0.16341338
-0.65309089 -0.42848355 -0.00000031
0.51688838 -0.25835127 -0.00000034
-0.52230555 0.24653366 0.36032933
0.08434175 -0.73920727 0.00000000
-0.67721039 -0.14959995 -0.00000061
-0.28939715 -0.12177553 0.00000000
-0.13312839 -0.17984772 0.00000000
-0.36519492 -0.41565767 0.00000000
0.20644622 -0.14170375 0.00000000
-0.15912873 -0.03059870 0.00000000
0.62376523 0.01288873 0.00000117
-0.06066686 0.00242652 0.00000000
-0.50763339 0.21526800 -0.00000057
0.33141753 -0.78425664 0.00000000
-0.09427228 -0.33270231 0.00000000
0.48100841 -0.61385590 0.00000000
0.39554736 0.28634092 0.00000098
-0.71892488 0.01455895 -0.00000084
0.69144487 0.07772182 -0.00000121
-0.38550660 -0.09801536 -0.00000003
0.14513810 -0.49344587 0.00000000
-0.78366065 -0.01100919 -0.00000096
0.74171776 -0.33497405 -0.00000116
-0.66859740 -0.04744623 -0.00000068
-0.48775741 -0.27577108 -0.00000009
0.19208367 -0.62134326 0.00000000
-0.53651989 0.22088650 -0.00000063
-0.65302044 -0.49441120 -0.00000025
0.01563274 -0.03875209 0.00000000
-0.76807374 -0.74179560 -0.00000007
0.74331349 -0.00783201 -0.00000174
0.33643746 0.31588456 0.00000163
0.24228826 0.12405988 0.00000648
-0.12962912 -0.58295470 0.00000000
0.21187699 0.36466402 0.00000320
-0.71618170 0.07887176 0.05719119
-0.66915131 -0.02098076 -0.00000070
0.28856471 -0.45849290 0.00000000
0.15181486 0.27927589 0.00000552
0.32259431 -0.76389533 0.00000000
0.01648905 -0.06714603 0.00000000
0.03304252 -0.57343876 0.00000000
-0.39368451 -0.15793623 0.00000000
-0.55974001 -0.13774276 -0.00000037
-0.72286963 -0.79584008 -0.00000001
-0.09757224 0.63527930 -0.00000006
-0.39221478 -0.45623505 0.00000000
-0.59049100 -0.77715677 0.00000000
-0.46206805 -0.17248060 -0.00000013
0.28973737 -0.76747727 0.00000000
0.10062316 -0.68592769 0.00000000
0.09900543 0.29583174 0.00000607
-0.54748112 -0.55448687 0.00000000
0.79846746 -0.60286343 -0.00000049
0.51046759 -0.46328238 0.00000000
-0.49614725 -0.03838753 -0.00000032
-0.00578065 -0.07896185 0.00000000
-0.57214451 -0.22201033 -0.00000032
-0.14075209 0.36501718 0.00000000
-0.51233429 0.28165442 -0.00000064
0.69907546 -0.00118392 -0.00000157
-0.46365717 0.27335659 -0.00000052
-0.50244486 0.08659918 -0.00000044
-0.19838449 0.30872226 0.00000000
-0.77318078 -0.32542145 -0.00000059
-0.25087312 0.52391338 0.29155570
0.33729219 -0.31207764 0.00000000
-0.44500291 0.33987013 -0.00000054
-0.12776797 0.66400182 0.09517894
0.21837597 0.47264925 0.00000127
-0.09704240 0.07487348 0.00000000
0.63601291 -0.06941586 -0.00000118
-0.39302561 0.38250151 0.28299546
-0.06628056 0.72740245 0.07305528
0.54920888 0.19217062 -0.00000039
0.23215458 -0.60151953 0.00000000
-0.48420745 0.11218975 -0.00000043
-0.06936809 0.10081046 0.00000000
-0.02045967 0.12347879 0.00000000
0.10993525 -0.27515277 0.00000000
0.53377140 -0.18797159 -0.00000053
-0.23224770 -0.69353676 0.00000000
-0.47207278 -0.13810468 -0.00000018
-0.01058986 0.06712252 0.00000000
-0.38031334 -0.31960002 0.00000000
0.60431057 -0.51971906 -0.00000025
0.74011469 -0.00255462 -0.00000174
-0.46980187 0.31655452 0.15776978
-0.34880051 0.43091848 -0.00000042
-0.77341294 -0.72152561 -0.00000010
-0.78692448 -0.03453867 -0.00000094
-0.39433777 -0.04074277 -0.00000010
-0.09432590 0.28866884 0.00000000
0.30161950 0.30765361 0.00000243
-0.21520379 0.53826070 -0.00000023
0.58153290 -0.05901194 -0.00000096
-0.39642116 0.39251283 0.12796503
0.04817125 0.04083959 0.00001066
0.32065076 -0.79937285 0.00000000
-0.22125219 -0.14294349 0.00000000
0.37079102 -0.77104437 0.00000000
-0.72204840 -0.22215728 -0.00000064
-0.20843256 0.56592196 0.29654929
-0.45428270 -0.32992092 0.00000000
-0.58495641 -0.16054586 -0.00000040
0.45241541 -0.22334932 -0.00000012
0.63685912 -0.53853559 -0.00000035
-0.34825081 -0.51707160 0.00000000
0.07916400 0.25667062 0.00000696
-0.54146659 -0.23698990 -0.00000024
-0.24010067 -0.35089967 0.00000000
0.62533438 -0.64986128 -0.00000011
0.61964405 -0.39795342 -0.00000053
-0.21740542 0.15255313 0.00000000
0.40272176 0.35202670 -0.00000025
-0.34439123 0.41734064 0.44250548
-0.76543170 -0.03689780 -0.00000089
0.37493458 -0.49331558 0.00000000
0.16019626 -0.40777519 0.00000000
-0.61916739 -0.22499096 -0.00000042
0.10947595 -0.44779015 0.00000000
0.69502825 -0.45596528 -0.00000075
0.40330935 -0.69619566 0.00000000
-0.60998225 -0.02241741 -0.00000057
-0.15692374 -0.69765937 0.00000000
-0.36899465 -0.14954731 0.00000000
-0.37641168 -0.17589530 0.00000000
0.02403547 -0.74800622 0.00000000
0.01940462 -0.43571633 0.00000000
0.45266581 0.25979701 0.00000033
-0.64619619 -0.65918648 -0.00000009
-0.25891763 0.52441204 0.19277330
-0.05120117 0.65010118 0.00000000
0.59602362 -0.38634369 -0.00000045
-0.25631163 0.52108192 0.26141101
-0.55773485 0.17744328 -0.00000064
0.34018061 -0.70717639 0.00000000
0.09704531 0.31611404 0.00000579
-0.64228410 0.15132491 0.07389661
-0.08861753 0.15557861 0.00000000
0.60837162 0.16146103 -0.00000102
-0.35439417 -0.53881931 0.00000000
0.32633752 -0.27400735 0.00000000
-0.49627978 -0.59249562 0.00000000
-0.48764363 0.30826792 0.04727487
-0.26859725 0.49658954 0.40255523
0.70593458 -0.74376726 -0.00000014
-0.79089707 -0.69447875 -0.00000013
0.39944264 -0.52319866 0.00000000
0.08469337 -0.42470446 0.00000000
-0.58035505 -0.14366031 -0.00000040
0.65527469 -0.50203836 -0.00000049
0.13077781 0.08084723 0.00000881
0.32832727 0.25239271 0.00000284
-0.50882071 -0.11885134 -0.00000027
-0.16737628 0.52845472 -0.00000012
-0.11034262 -0.38755459 0.00000000
-0.35189438 0.26593950 -0.00000028
0.54240465 -0.36066920 -0.00000026
-0.35532868 0.24205147 -0.00000027
0.12050830 -0.18460473 0.00000000
-0.22195901 -0.03555581 0.00000000
-0.73254520 0.06135791 0.07049304
-0.39736038 -0.18084884 0.00000000
0.67455453 -0.45785350 -0.00000066
0.18377011 0.09520382 0.00000780
0.02892049 -0.76093739 0.00000000
0.65386647 -0.75692141 -0.00000004
-0.78807092 -0.54576564 -0.00000032
-0.26833749 -0.52029783 0.00000000
0.14994875 -0.77681667 0.00000000
0.23886864 0.27065635 0.00000426
-0.79557341 -0.49380657 -0.00000038
0.22741430 0.33610252 0.00000338
0.71601576 -0.73545599 -0.00000016
0.10481561 -0.18953487 0.00000000
-0.58776343 0.19730172 0.17269804
-0.48769316 -0.70101726 0.00000000
0.17469454 -0.12792341 0.00000000
-0.67778587 -0.19387105 -0.00000057
0.50853503 -0.41903973 -0.00000002
0.43569270 -0.07731221 -0.00000031
-0.14404979 -0.36007714 0.00000000
-0.38093737 0.18715148 -0.00000027
-0.12257515 -0.59914637 0.00000000
-0.68184471 -0.56679904 -0.00000025
-0.32936701 0.37917086 -0.00000033
-0.13228041 -0.34956041 0.00000000
-0.48775011 -0.07607350 -0.00000027
0.03746097 0.04210264 0.00001080
-0.36421743 -0.43688396 0.00000000
0.65122873 -0.07209017 -0.00000124
0.19797900 -0.78510046 0.00000000
-0.14368038 0.20522489 0.00000000
-0.73917395 -0.66452879 -0.00000017
0.77569556 -0.75001961 -0.00000012
-0.36921093 -0.45579427 0.00000000
-0.25650135 -0.46590498 0.00000000
-0.04429342 -0.40199333 0.00000000
-0.00275387 0.71290392 0.00000000
-0.00364238 0.15977949 0.00000000
0.53713834 -0.24595395 -0.00000044
-0.25393605 0.21800695 -0.00000003
-0.15175845 0.63987046 0.09680826
-0.30285892 0.01693695 0.00000000
-0.02233966 -0.34965289 0.00000000
0.50663733 -0.13633116 -0.00000051
0.61532408 -0.66489547 -0.00000004
0.27640751 0.29168910 0.00000318
-0.26031730 0.52431542 0.17770629
0.16523463 -0.00243654 0.00000000
-0.17041285 -0.52677214 0.00000000
-0.00534184 0.77524775 0.00000000
0.21577090 -0.33022410 0.00000000
0.15274177 0.39069963 0.00000383
0.42765927 0.01679412 0.00000487
-0.47370198 -0.26191056 -0.00000007
-0.50619280 -0.49127784 0.00000000
0.28728962 0.31552354 0.00000258
0.11091539 -0.11095856 0.00000000
-0.43825662 0.22583206 -0.00000043
-0.69498605 0.10486117 0.00175738
-0.08291591 0.48296618 0.00000000
0.42828381 0.28224382 0.00000042
-0.73346972 -0.44852713 -0.00000044
0.09346054 0.00461948 0.00001052
-0.66451335 -0.74390972 -0.00000005
0.19527045 0.48160708 0.00000157
-0.78136593 -0.75230688 -0.00000006
0.04840613 -0.19692145 0.00000000
-0.52515149 -0.33007389 -0.00000012
-0.01809323 -0.59418112 0.00000000
-0.21713150 -0.13858081 0.00000000
-0.53590220 -0.40545842 -0.00000008
0.40423775 -0.00091706 -0.00000031
0.02430156 0.10785483 0.00001002
0.60028237 -0.72841847 0.00000000
-0.60710293 0.07956713 -0.00000066
0.25866550 0.38498840 0.00000197
0.40106800 0.09089128 0.00000414
-0.47153711 0.02594516 -0.00000032
0.01738063 0.68574184 0.00000145
-0.44582045 0.32119569 0.38140705
-0.19838926 -0.29207274 0.00000000
-0.77095741 -0.14446907 -0.00000081
-0.49234363 0.29979566 0.09089654
0.40215346 -0.67456239 0.00000000
-0.21326639 -0.57354379 0.00000000
0.28504613 -0.31289691 0.00000000
-0.05480609 0.26306829 0.00000000
0.37330124 -0.36322197 0.00000000
-0.23326279 0.33701000 -0.00000009
0.60396534 -0.53259093 -0.00000022
0.45077267 -0.56443346 0.00000000
-0.23990616 0.54314631 0.19597758
0.05048893 0.72551775 0.00000027
-0.43930268 0.33582130 0.28765783
-0.15560500 -0.14167207 0.00000000
0.04909441 0.50941449 0.00000362
-0.28216988 -0.05754615 0.00000000
-0.48363742 0.28515720 0.36084378
0.34706473 0.17032214 0.00000385
0.47118032 0.14772974 0.00000185
-0.12368444 0.02857217 0.00000000
-0.68617147 -0.34368539 -0.00000045
-0.13466755 0.66496336 0.00427573
0.33980888 -0.15070140 0.00000000
-0.73623639 -0.05976418 -0.00000081
0.46514064 -0.67104274 0.00000000
-0.62636852 -0.63376099 -0.00000007
0.19745471 0.13981301 0.00000692
-0.33865684 0.45354852 0.09013724
0.58199286 0.21395016 -0.00000145
-0.02470748 -0.68034750 0.00000000
-0.22586516 0.45682263 -0.00000018
0.16266271 -0.05000945 0.00000000
0.55053240 -0.69980180 0.00000000
-0.04872351 0.29813957 0.00000000
-0.07079728 -0.77319098 0.00000000
0.66253233 -0.42698574 -0.00000066
0.02053961 -0.54323435 0.00000000
-0.47770342 -0.75752610 0.00000000
-0.57464069 -0.49710280 -0.00000008
-0.53775150 0.19813690 -0.00000062
-0.77508420 -0.20732290 -0.00000074
0.41123143 -0.40482539 0.00000000
-0.10803088 0.37904081 0.00000000
0.09579231 -0.53544438 0.00000000
0.70104045 -0.48172435 -0.00000073
-0.41202721 -0.69874722 0.00000000
0.54160237 -0.01775249 -0.00000087
0.48006630 -0.31071469 -0.00000009
0.39631915 -0.41756701 0.00000000
0.65338445 -0.78063452 0.00000000
-0.59648365 -0.43456239 -0.00000018
0.73154962 -0.72756100 -0.00000018
-0.75071394 -0.24065115 -0.00000068
-0.47933760 -0.11927009 -0.00000021
-0.17233662 0.55658746 -0.00000015
-0.25894597 -0.07773537 0.00000000
0.16448492 -0.78593516 0.00000000
0.09729093 -0.43246183 0.00000000
0.51515418 -0.13780744 -0.00000054
0.11142536 -0.12891050 0.00000000
-0.56295311 -0.24905017 -0.00000027
-0.10505806 0.50189060 0.00000000
-0.33198568 0.44883141 0.22182702
-0.34242150 0.43069768 0.31083670
0.47911379 -0.76567727 0.00000000
0.42810681 -0.68971163 0.00000000
0.56326467 -0.13112150 -0.00000076
0.31113541 0.41212717 0.00000050
0.05880763 0.01756008 0.00001085
0.37643948 -0.21989617 0.00000000
0.01769248 -0.55962533 0.00000000
-0.59971815 -0.00439581 -0.00000057
-0.19539319 0.54943877 -0.00000020
-0.31072670 0.46951663 0.22846092
0.69618994 0.06775113 -0.00000114
0.18838401 -0.32339773 0.00000000
-0.03546260 -0.51405180 0.00000000
0.07373871 -0.63598907 0.00000000
-0.43091738 -0.29765505 0.00000000
0.03795746 -0.69277698 0.00000000
0.06845068 -0.16629222 0.00000000
-0.62361920 -0.20089264 -0.00000045
-0.54321384 -0.51221436 0.00000000
0.56757301 -0.53958201 -0.00000005
0.46225500 -0.78328007 0.00000000
0.17014401 -0.00660767 0.00000000
0.21823722 0.51187134 0.00000062
-0.11559946 -0.33379006 0.00000000
0.47594073 0.07552476 0.00000296
0.32814565 0.43992364 -0.00000029
0.36024001 -0.45999828 0.00000000
-0.24343175 0.55290955 0.04231279
-0.41707942 -0.46832755 0.00000000
-0.61513358 -0.75661272 0.00000000
-0.04116364 -0.25668597 0.00000000
0.48662758 -0.21538745 -0.00000028
0.37036461 0.27940196 0.00000158
-0.42647499 0.36906460 0.05157835
-0.66596872 -0.42916691 -0.00000033
-0.46036524 -0.69351465 0.00000000
-0.21970829 0.56117857 0.22101772
-0.37139040 0.15913045 -0.00000023
-0.08266937 0.39544591 0.00000000
0.63915664 0.15013222 -0.00000142
-0.19118194 0.21148631 0.00000000
0.43177089 0.17381965 0.00000217
0.27512333 -0.52339262 0.00000000
0.24819668 -0.78584689 0.00000000
0.36064702 0.37229532 0.00000022
-0.46108094 -0.73672622 0.00000000
0.24741781 0.19020541 0.00000541
0.33372390 0.18541491 0.00000386
0.31827229 -0.18251118 0.00000000
0.76805085 0.00398652 -0.00000145
-0.31609663 -0.66181141 0.00000000
0.02849615 0.55917048 0.00000318
-0.07140690 -0.42888284 0.00000000
0.02239095 -0.02185410 0.00000000
0.21842171 -0.49425557 0.00000000
-0.10684216 -0.25309846 0.00000000
0.20863821 -0.04907683 0.00000000
-0.68836749 0.01085336 -0.00000077
0.25833887 -0.12958039 0.00000000
-0.46141034 -0.45880380 0.00000000
0.64533728 -0.47204807 -0.00000051
0.17230348 -0.12492076 0.00000000
-0.47863016 0.18337733 -0.00000048
0.32533112 -0.42673281 0.00000000
0.26306757 -0.09211449 0.00000000
-0.54001570 -0.46756229 -0.00000003
-0.49911338 0.27427617 0.30771416
0.76235354 -0.06686794 -0.00000172
0.68000966 -0.60503954 -0.00000042
-0.11668004 -0.70928401 0.00000000
-0.22233962 -0.44625303 0.00000000
-0.02707874 -0.69754988 0.00000000
-0.68771642 -0.40336692 -0.00000040
-0.30762279 0.44761017 -0.00000034
0.72375774 -0.55228335 -0.00000062
-0.19527774 -0.64110678 0.00000000
-0.76619184 0.00096132 -0.00000093
-0.01760866 -0.34502131 0.00000000
0.25848201 -0.27101636 0.00000000
0.71690625 -0.79064649 -0.00000002
0.06483748 -0.13628118 0.00000000
-0.00959938 -0.44912750 0.00000000
0.14988641 0.42699888 0.00000333
-0.65375942 -0.48442414 -0.00000026
-0.34564787 -0.68240184 0.00000000
-0.16212656 0.12848277 0.00000000
0.44955167 -0.16058068 -0.00000022
0.14886418 -0.09076045 0.00000000
-0.08060813 0.28033698 0.00000000
0.44998541 -0.78970796 0.00000000
-0.78151733 -0.28117719 -0.00000065
-0.47369111 -0.34958312 0.00000000
0.64470726 -0.42833599 -0.00000058
-0.28392291 0.12159419 -0.00000001
0.29802135 0.04443663 0.00000684
0.31176469 -0.63560987 0.00000000
0.09158441 -0.45327520 0.00000000
-0.23838182 -0.27718118 0.00000000
-0.26906782 0.49707898 0.39145488
-0.33443090 -0.69958562 0.00000000
0.78617984 -0.23537707 -0.00000141
-0.22189660 0.19286054 0.00000000
-0.51888603 0.05776825 -0.00000045
-0.45235732 0.33344954 0.16412470
0.26083708 -0.00644295 0.00000000
0.48538816 0.12378487 0.00000197
0.06459914 -0.12884624 0.00000000
-0.79317981 -0.24261421 -0.00000070
0.49528950 -0.78216851 0.00000000
-0.59990269 -0.49481606 -0.00000014
-0.60484302 0.09782872 -0.00000067
0.55460858 -0.75013304 0.00000000
-0.39198354 -0.35405776 0.00000000
0.36386773 -0.40178296 0.00000000
0.20384128 -0.08345561 0.00000000
-0.06771799 -0.71447998 0.00000000
0.17347410 -0.15463273 0.00000000
0.32537904 0.45000789 -0.00000040
-0.16425835 -0.46121755 0.00000000
-0.47127870 0.31229398 0.18995984
-0.15994988 0.09953155 0.00000000
0.14366463 -0.05237035 0.00000000
0.11102927 -0.46702334 0.00000000
-0.36266220 0.40163770 0.41281226
0.53586787 -0.77243447 0.00000000
0.69601667 -0.04870424 -0.00000147
-0.56341022 0.14670491 -0.00000062
-0.07279925 0.69368714 -0.00000006
0.23729248 0.04686014 0.00000772
-0.31823197 0.39105681 -0.00000032
0.58326346 -0.49132597 -0.00000021
0.04008573 0.15208739 0.00000911
0.40214211 -0.14127675 -0.00000005
0.65421367 -0.27849546 -0.00000089
-0.66304630 -0.35704976 -0.00000039
0.11589046 -0.03390267 0.00000000
-0.00538752 0.55263609 0.00000000
-0.09112547 0.22468197 0.00000000
-0.14155382 0.58705908 -0.00000011
0.45771077 0.06452815 0.00000350
0.46765983 0.21869649 0.00000073
0.35465094 0.03301965 0.00000600
0.34202504 -0.51938087 0.00000000
0.42210907 -0.16442260 -0.00000010
0.75705636 -0.34975442 -0.00000113
0.34168425 -0.47740951 0.00000000
-0.23937941 0.23535982 -0.00000001
0.32076916 0.33464637 0.00000161
0.28656772 0.22123326 0.00000416
-0.03176288 0.47033009 0.00000000
0.76690137 -0.04358182 -0.00000178
-0.34630421 0.21595035 -0.00000022
-0.69674009 0.02320702 -0.00000080
-0.16776285 0.62257624 0.11172278
0.23917629 -0.49763563 0.00000000
-0.00080090 0.66171330 0.00000000
0.55766964 -0.71137691 0.00000000
-0.40238324 -0.26208228 0.00000000
-0.35937768 -0.20932768 0.00000000
0.15653104 -0.16496471 0.00000000
0.06089711 0.48093715 0.00000387
-0.06495293 0.69544309 -0.00000005
0.13710789 -0.31705880 0.00000000
0.12275539 0.42491525 0.00000377
-0.21017066 -0.38911837 0.00000000
-0.66530055 -0.69431925 -0.00000010
0.54788977 -0.14904778 -0.00000066
0.10347234 -0.29834646 0.00000000
-0.48874649 0.29981455 0.13227502
-0.47186950 0.30319941 0.28829548
0.12033583 0.13385633 0.00000818
0.36846685 0.09320942 0.00000473
-0.45461896 0.32462588 0.24000669
0.73917675 -0.64241964 -0.00000039
-0.70064336 -0.49352360 -0.00000035
-0.12096095 -0.75127071 0.00000000
-0.01835420 0.04586419 0.00000000
0.21283183 0.09195352 0.00000741
-0.13322164 0.27902538 0.00000000
-0.55281824 -0.10428842 -0.00000038
-0.61867177 -0.47187558 -0.00000020
0.46451414 -0.59943628 0.00000000
-0.37156641 -0.78459221 0.00000000
0.42174691 -0.57740223 0.00000000
-0.19456279 -0.75345939 0.00000000
-0.68151253 -0.04844060 -0.00000070
0.11507043 0.41711876 0.00000401
-0.35302454 0.41929397 0.32009459
0.02360608 -0.09949504 0.00000000
-0.00988205 -0.49647886 0.00000000
-0.32719275 0.46073586 0.13959323
-0.66976750 -0.28868553 -0.00000047
-0.74726588 0.04820607 0.05235074
-0.24501625 -0.36778584 0.00000000
-0.42410254 -0.79041708 0.00000000
0.09084672 0.56545371 0.00000215
0.27023745 0.15305553 0.00000562
0.03012780 0.38309780 0.00000580
0.19482175 0.22512184 0.00000568
-0.33659682 -0.35329708 0.00000000
0.42650220 -0.12249840 -0.00000019
-0.54345107 -0.51214421 0.00000000
0.65626574 -0.16341878 -0.00000110
0.00764546 0.17482702 0.00000926
0.18284383 0.01081724 0.00000908
-0.01880849 0.59515220 0.00000000
-0.67865872 -0.27933958 -0.00000049
-0.09987078 0.32200253 0.00000000
-0.03305285 0.30890793 0.00000000
0.18945521 0.26360080 0.00000519
0.79526633 -0.03262486 -0.00000192
-0.52834356 -0.21673374 -0.00000023
0.48143286 -0.05942986 -0.00000054
-0.22239740 0.57537562 0.02575727
-0.17443135 -0.60715097 0.00000000
0.18908516 -0.40727499 0.00000000
0.58856004 -0.59281826 -0.00000005
-0.36586556 -0.28315157 0.00000000
-0.05852830 -0.79219180 0.00000000
0.17555861 0.20079251 0.00000634
0.58226490 -0.61418629 0.00000000
-0.33519113 0.46061879 0.04845481
0.23560198 -0.31812361 0.00000000
0.01751293 -0.11246070 0.00000000
0.39799881 -0.10613192 -0.00000010
-0.20153566 -0.60787636 0.00000000
0.40532717 -0.38525295 0.00000000
0.79525119 -0.74557579 -0.00000014
-0.02996033 0.60313559 0.00000000
0.03580061 0.05312848 0.00001066
-0.50023735 0.12450152 -0.00000047
-0.19130561 0.14299943 0.00000000
-0.60555601 -0.42643756 -0.00000021
-0.32036632 0.19956170 -0.00000015
-0.65370095 -0.66723567 -0.00000010
-0.04870444 -0.14888853 0.00000000
0.54515117 -0.37072244 -0.00000026
-0.28677559 0.48611036 0.31353205
-0.57407260 -0.30334970 -0.00000025
0.48889351 -0.12492434 -0.00000045
0.24281085 0.44288757 0.00000130
0.37071875 0.07065102 0.00000506
0.71046287 -0.51428264 -0.00000071
-0.62883294 0.04919503 -0.00000068
0.39429539 0.39023787 -0.00000073
0.44895560 -0.38366991 0.00000000
0.34508497 -0.29853657 0.00000000
-0.16594207 0.27464235 0.00000000
0.33552074 0.11053890 0.00000507
0.59970075 -0.44236076 -0.00000036
-0.04913439 -0.75870949 0.00000000
0.02454760 0.08471972 0.00001036
-0.25693443 -0.79558295 0.00000000
0.77400178 -0.11139019 -0.00000169
0.16145466 -0.54775614 0.00000000
-0.59107846 -0.46433651 -0.00000014
0.76305014 -0.45672983 -0.00000086
-0.45369163 -0.18366542 -0.00000010
-0.41462696 0.38028687 0.05881456
0.47994551 -0.08448219 -0.00000048
-0.45047235 0.33682430 0.14689703
0.01169069 -0.38226679 0.00000000
-0.21045487 0.55954182 -0.00000024
-0.30106607 0.49243242 0.07518478
0.67297494 -0.37301895 -0.00000080
0.68595022 -0.15352450 -0.00000124
-0.77641284 -0.18205158 -0.00000077
-0.10945718 -0.16140027 0.00000000
0.23756234 0.18982697 0.00000557
-0.13030353 -0.12503545 0.00000000
-0.41142046 0.37250495 0.18588281
-0.27423292 0.07348012 0.00000000
-0.19583949 -0.16064060 0.00000000
0.03361581 0.62585926 0.00000210
-0.27916494 0.49644637 0.28201899
0.04655153 -0.52505481 0.00000000
-0.63902068 0.15073374 0.11847058
0.00806781 0.25127527 0.00000811
-0.16506618 -0.57386255 0.00000000
0.66273010 0.09179692 -0.00000090
-0.65722269 -0.50926346 -0.00000025
-0.00640614 0.42199677 0.00000000
0.01718024 0.53379637 0.00000373
0.08248911 -0.22346786 0.00000000
0.45388797 -0.64015096 0.00000000
0.14484426 -0.67898655 0.00000000
0.02672465 -0.68436885 0.00000000
-0.19007932 0.58651263 0.27067846
0.56387812 -0.50803751 -0.00000009
0.56738597 -0.01747424 -0.00000098
0.01294466 -0.52756852 0.00000000
0.35446003 -0.21360289 0.00000000
0.19264936 0.56965607 0.00000015
-0.32189286 0.46083698 0.19971022
-0.54300773 0.07228985 -0.00000052
0.25034460 -0.60791296 0.00000000
0.57812768 -0.12220620 -0.00000084
-0.09600674 0.69163430 0.14291784
0.22969881 -0.62875885 0.00000000
-0.49438807 0.29899627 0.07649901
0.27298641 0.05667956 0.00000703
0.69416845 0.10004415 -0.00000173
0.79147673 -0.57014531 -0.00000057
-0.47785538 0.10511664 -0.00000041
-0.27308735 0.50079751 0.30198133
-0.59176594 -0.79299289 0.00000000
-0.56701148 -0.13155285 -0.00000039
0.32467207 -0.26367810 0.00000000
0.14381193 0.28437516 0.00000556
-0.06476475 -0.42362109 0.00000000
0.79043782 -0.23975746 -0.00000140
0.48415530 -0.73112720 0.00000000
0.00392037 -0.01075651 0.00000000
-0.41966680 0.04230806 -0.00000023
0.15903610 -0.48322138 0.00000000
0.31016961 -0.10018149 0.00000000
-0.19313948 -0.54001778 0.00000000
-0.59865898 0.19689944 0.05135519
-0.44801173 0.34350008 0.09815394
-0.64301807 -0.27136534 -0.00000043
0.66073608 -0.26206204 -0.00000094
0.16898969 -0.72494191 0.00000000
-0.27617046 0.01557774 0.00000000
0.63000762 -0.44524902 -0.00000049
0.37159312 -0.69285786 0.00000000
0.25053290 0.05134257 0.00000745
0.35165644 0.09994846 0.00000494
-0.27083936 0.51966721 0.10978356
0.06790115 -0.28494644 0.00000000
-0.17852345 0.35599372 0.00000000
0.58303094 -0.34655344 -0.00000046
-0.39632693 -0.41079208 0.00000000
0.55871511 -0.75389344 0.00000000
-0.11345888 -0.62792504 0.00000000
0.66317904 -0.21892004 -0.00000103
0.72437346 -0.48962465 -0.00000078
0.38645726 0.12590790 0.00000384
-0.08130608 0.71117306 0.08697565
0.03701857 0.59255493 0.00000255
0.52764171 -0.65158468 0.00000000
-0.21278961 -0.76317877 0.00000000
-0.24970987 0.53622586 0.16263954
0.06962146 0.56217289 0.00000252
-0.63590729 -0.09682023 -0.00000056
-0.50791597 0.25930551 0.37903428
-0.56766814 0.22982942 0.02893230
-0.06479441 -0.45690060 0.00000000
-0.57387990 -0.63537848 0.00000000
-0.66620708 -0.15507457 -0.00000058
0.43005520 -0.21162447 -0.00000005
-0.43159118 0.28156030 -0.00000046
0.05980880 0.48421553 0.00000383
-0.33516034 -0.57222009 0.00000000
-0.20971228 0.39096752 -0.00000009
0.62722313 -0.65226847 -0.00000011
-0.34456950 0.41262454 0.49497530
-0.55693156 -0.54354590 -0.00000000
-0.44212702 0.23905939 -0.00000045
-0.33806628 0.46088973 0.01207416
-0.08496163 0.37344003 0.00000000
-0.55996513 0.21278884 0.31506279
0.78005767 -0.54253334 -0.00000064
-0.33291924 -0.58389819 0.00000000
0.57455301 -0.18230259 -0.00000072
0.17447641 0.50932652 0.00000150
-0.23861583 0.34135103 -0.00000010
0.18374173 -0.43943223 0.00000000
0.09740136 -0.36849624 0.00000000
0.78953028 -0.42303187 -0.00000094
