ply
format ascii 1.0
element vertex 997
property float x
property float y
property float z
end_header
-0.30911484 -0.78752792 0.00000235
-0.15517420 0.42537329 0.02391586
-0.28142107 -0.67201245 0.00000228
-0.11403312 -0.15217066 0.00000167
-0.11728155 0.50149316 0.00000251
-0.32442689 -0.44399384 0.00000289
-0.46232501 -0.60756272 0.00000373
-0.22237074 -0.28592649 0.00000232
-0.11769165 -0.28216261 0.00000154
-0.10826933 0.53860897 0.09775176
-0.41612253 -0.20462702 0.29191223
-0.05043746 -0.05375982 0.00000131
-0.43819615 -0.35702315 0.00000386
-0.06321753 -0.38918704 0.00000099
-0.34046820 -0.02196971 0.05401126
-0.26116163 0.16948941 0.16358177
-0.24089499 -0.23334005 0.00000253
-0.16570336 -0.25169501 0.00000194
-0.14202854 -0.17862941 0.00000185
-0.18896800 0.01526282 0.00000668
-0.16100298 -0.12144863 0.00000206
-0.24717924 -0.63272089 0.00000207
-0.27531388 -0.40145785 0.00000258
-0.27284119 0.14129002 0.21523742
-0.30356053 0.06712751 0.19345880
-0.20740239 -0.24884415 0.00000225
-0.17173006 -0.69851166 0.00000142
-0.62050772 -0.69804925 0.08061622
-0.00009721 -0.70752692 0.00000012
-0.54022473 -0.79132593 0.00000409
-0.51420647 -0.44141227 0.03198244
-0.39300668 -0.47458521 0.00000337
-0.03432301 0.53474337 0.00000438
-0.17907389 0.36766863 0.14531636
-0.24271011 0.21403214 0.23932920
-0.41669840 -0.20601892 0.32862055
-0.40205207 -0.17065158 0.15362173
-0.20290115 -0.40620455 0.00000202
-0.40736634 -0.34377959 0.00000364
-0.11056802 -0.50315994 0.00000121
-0.32153836 -0.78399509 0.00000245
-0.40528750 -0.50775003 0.00000342
-0.11168365 0.14006776 0.00000722
-0.19323786 -0.44853008 0.00000190
-0.25195637 -0.22260562 0.00000262
-0.48795632 -0.37804106 0.08990487
-0.00244922 0.53133845 0.00000529
-0.49690366 -0.39964169 0.08348499
-0.16914901 0.28336638 0.00000386
-0.34463754 -0.03204430 0.25217614
-0.52441186 -0.63374108 0.00000416
-0.46101835 -0.31301224 0.21372025
-0.45077309 -0.28827697 0.19342510
-0.35717639 -0.37357834 0.00000323
-0.47461331 -0.75596082 0.00000364
-0.09950338 -0.26606336 0.00000142
-0.47041595 -0.48873973 0.00000394
-0.40059507 -0.16714387 0.37300718
-0.20937560 -0.53583932 0.00000191
-0.35505575 -0.05718800 0.06817863
-0.43074980 -0.23994295 0.34537363
-0.22041997 -0.12063503 0.00000251
-0.28291520 0.11697495 0.08196942
-0.05116786 0.59599650 0.00000316
-0.32163307 -0.29177594 0.00000306
-0.05948973 -0.50860238 0.00000081
-0.30551901 -0.34266913 0.00000288
-0.00060801 0.73852676 0.00000275
-0.00594653 -0.41356865 0.00000045
-0.28913072 0.10196932 0.08239105
-0.28366238 0.11516811 0.14932896
-0.05012825 -0.08219445 0.00000128
-0.14559755 0.44848931 0.11754025
-0.11369151 0.34368914 0.00000462
-0.05083879 -0.05708937 0.00000131
-0.17116837 0.36845762 0.00000275
-0.15536658 0.05124252 0.00000714
-0.06377608 -0.33149078 0.00000107
-0.41278639 -0.27923727 0.00000377
-0.28938359 0.10135081 0.26224545
-0.37832373 -0.24130708 0.00000355
-0.25668269 -0.26451129 0.00000261
-0.12480833 -0.22635622 0.00000166
-0.01124792 0.72836721 0.00000259
-0.26019412 0.17182218 0.23077685
-0.09979378 -0.13108063 0.00000159
-0.41820502 -0.20965271 0.24859972
-0.18494032 -0.72796232 0.00000149
-0.46085849 -0.62678742 0.00000369
-0.24987943 -0.67356032 0.00000204
-0.07917098 -0.76758784 0.00000064
-0.45821333 -0.42171967 0.00000393
-0.29750001 -0.31851470 0.00000285
-0.25425398 -0.08843284 0.00000281
-0.24720488 -0.77285999 0.00000190
-0.06275202 0.33948246 0.00000605
-0.31324998 -0.73116833 0.00000245
-0.14979315 -0.46177366 0.00000155
-0.28157973 0.06621123 0.00000352
-0.35000485 -0.04500204 0.24770389
-0.18075009 -0.37684062 0.00000189
-0.21490133 -0.40029594 0.00000212
-0.30666399 0.05963276 0.24518463
-0.20035347 0.08872443 0.00000545
-0.00222458 -0.76129836 0.00000003
-0.03142676 0.18627350 0.00000882
-0.04432755 0.67759931 0.00000233
-0.37640235 -0.10873800 0.39252681
-0.24758933 0.20225753 0.12875459
-0.37873212 -0.69068348 0.00000299
-0.31591165 -0.19093183 0.00000314
-0.21006203 0.29285651 0.13923898
-0.05587635 -0.27756071 0.00000107
-0.00005772 -0.03910795 0.00000095
-0.40394649 -0.17522790 0.21548241
-0.13952009 0.46316221 0.10500513
-0.45808825 -0.30593336 0.10254682
-0.30922288 -0.25550932 0.00000301
-0.22470623 -0.77796018 0.00000172
-0.15528680 0.42509943 0.06872536
-0.09485256 0.34417048 0.00000512
-0.33471483 -0.00808749 0.22684465
-0.27633587 0.13285758 0.11351375
-0.15644582 0.42230114 0.07255068
-0.06093528 -0.71215689 0.00000057
-0.44327933 -0.27018636 0.21661603
-0.49132735 -0.38618809 0.30727875
-0.27343172 0.13986890 0.11236948
-0.41074038 -0.20397605 0.00000384
-0.06777195 -0.17601512 0.00000129
-0.32990900 0.00352301 0.04436963
-0.29303405 -0.00722088 0.00000320
-0.31586561 -0.74788731 0.00000245
-0.21430735 0.28260422 0.20827492
-0.63750023 -0.73907179 0.09334633
-0.43942198 -0.64873153 0.00000350
-0.30419871 0.06558228 0.29476115
-0.02127575 -0.36699751 0.00000070
-0.12958719 0.48714352 0.08238571
-0.35648856 -0.06064881 0.10517782
-0.09544198 0.15620422 0.00000746
-0.22551955 0.23019816 0.00000300
-0.37499103 -0.35171095 0.00000339
-0.11183044 0.11492563 0.00000753
-0.14093637 -0.55919129 0.00000136
-0.03072977 -0.16609919 0.00000102
-0.17400622 -0.46248025 0.00000173
-0.47058091 -0.48263004 0.00000395
-0.28937405 0.10137808 0.16710408
-0.37086806 -0.09537355 0.31527245
-0.48340318 -0.72226799 0.00000374
-0.23322685 0.16799092 0.00000357
-0.44488782 -0.27406815 0.18468343
-0.13165875 -0.70981234 0.00000111
-0.49333096 -0.67064303 0.00000388
-0.04059976 -0.76534557 0.00000035
-0.34550571 -0.20045948 0.00000336
-0.26143137 -0.08333992 0.00000287
-0.09996823 -0.38354710 0.00000127
-0.23533931 -0.26375005 0.00000245
-0.10303405 -0.67859954 0.00000093
-0.38600659 -0.13192409 0.37567407
-0.22362642 0.03601069 0.00000548
-0.32311031 0.01992798 0.23680809
-0.48696378 -0.37564155 0.01616441
-0.52689165 -0.65630388 0.00000415
-0.26528329 0.15954581 0.00561404
-0.40557027 -0.17915106 0.28271434
-0.45885801 -0.35490993 0.00000402
-0.01393232 -0.48408055 0.00000050
-0.33014199 -0.67496973 0.00000265
-0.35763213 -0.06341160 0.14947999
-0.21428899 0.28264838 0.21205968
-0.31391251 0.04214129 0.06370682
-0.43479803 -0.24970850 0.17030826
-0.12073240 -0.69959754 0.00000104
-0.21981382 0.26931036 0.20856772
-0.29595706 -0.36160806 0.00000278
-0.29076073 0.09802683 0.24522106
-0.09474120 -0.38235036 0.00000124
-0.23374894 -0.42205551 0.00000224
-0.03492492 0.65352082 0.00000288
-0.05023990 -0.41828847 0.00000086
-0.46741641 -0.32846344 0.32973963
-0.00060725 -0.14567313 0.00000081
-0.43911600 -0.41912761 0.00000379
-0.31603414 -0.13208152 0.00000322
-0.44509706 -0.57976592 0.00000363
-0.26420927 0.16212989 0.20358850
-0.00759906 0.67557347 0.00000335
-0.45652673 -0.30216697 0.18133982
-0.15872207 0.39911216 0.00000270
-0.14186692 0.21901520 0.00000541
-0.38110688 -0.15213414 0.00000369
-0.07217536 -0.46887186 0.00000096
-0.32505196 -0.67051047 0.00000261
-0.01265908 -0.72735214 0.00000019
-0.14697118 -0.61403060 0.00000134
-0.01997710 -0.18633741 0.00000092
-0.18412924 -0.44554999 0.00000183
-0.16303107 -0.61023027 0.00000147
-0.50425762 -0.41739464 0.05691331
-0.27417815 0.13806558 0.14120615
-0.07944138 0.60820848 0.04535877
-0.44947478 -0.28514013 0.13982518
-0.31865507 -0.59627938 0.00000266
-0.08101734 -0.62845033 0.00000083
-0.31011090 0.05131055 0.25797263
-0.26687825 -0.75364286 0.00000207
-0.40786397 -0.34851259 0.00000364
-0.03786547 0.70858300 0.02714782
-0.20077322 0.02804766 0.00000620
-0.00271928 -0.06700722 0.00000094
-0.33396950 -0.09888242 0.00000340
-0.00333019 -0.46235397 0.00000045
-0.10650710 -0.46278551 0.00000123
-0.60793668 -0.66769928 0.05547948
-0.14972629 -0.43452230 0.00000159
-0.30238646 -0.42830077 0.00000275
-0.61678302 -0.68905592 0.04571666
-0.18523130 0.02338021 0.00000668
-0.09069066 0.18850391 0.00000718
-0.41939992 -0.21253319 0.15226051
-0.26888731 0.15083891 0.13963716
-0.02222616 -0.71926749 0.00000027
-0.24096426 -0.30892065 0.00000243
-0.45710966 -0.30357006 0.08628440
-0.51049054 -0.70978904 0.00000396
-0.14229316 0.21985911 0.00000539
-0.09484944 -0.28503197 0.00000136
-0.41638845 -0.20527385 0.40002933
-0.14043812 0.34604999 0.00000386
-0.05441780 0.04995049 0.00000990
-0.03614641 -0.37026331 0.00000081
-0.07789976 0.29314178 0.00000622
-0.15852439 -0.13924219 0.00000202
-0.45824802 -0.30632955 0.35240427
-0.41335237 -0.19793244 0.13954830
-0.46033356 -0.79706645 0.00000348
-0.26051822 0.02749684 0.00000458
-0.31282851 0.04475267 0.18939491
-0.21593310 0.27868757 0.02329426
-0.43883473 -0.58597934 0.00000358
-0.46971506 -0.39101288 0.00000405
-0.60385680 -0.70676303 0.00000467
-0.02602359 0.41287512 0.00000613
-0.63043225 -0.72200865 0.11039053
-0.52120626 -0.45832035 0.28033629
-0.00395638 -0.23642042 0.00000068
-0.29037750 -0.01444869 0.00000317
-0.13017496 -0.63442415 0.00000119
-0.21918844 -0.69968778 0.00000178
-0.24271233 -0.28922397 0.00000247
-0.00660353 0.17434128 0.00000964
-0.62312794 -0.73897880 0.00000478
-0.25036895 -0.36441872 0.00000243
-0.58575082 -0.61413634 0.02748667
-0.48113355 -0.36156666 0.02916584
-0.29429117 -0.49765995 0.00000260
-0.09410658 -0.60686487 0.00000095
-0.00650593 -0.45233580 0.00000040
-0.39035511 -0.14241037 0.10577874
-0.20740362 -0.31836909 0.00000217
-0.09549038 -0.20652124 0.00000146
-0.17427015 0.37927052 0.04243208
-0.07577567 -0.40157235 0.00000107
-0.04297089 -0.17117222 0.00000111
-0.31593737 0.03724315 0.27949297
-0.41624865 -0.20492890 0.23307812
-0.15618341 -0.78033423 0.00000120
-0.03089816 -0.71959335 0.00000033
-0.04755148 0.49061856 0.00000458
-0.28493598 0.11209624 0.08483704
-0.38956651 -0.72378707 0.00000303
-0.22893550 0.24729355 0.09663865
-0.35977316 -0.06859033 0.36851880
-0.10469513 0.54723883 0.07685354
-0.09643350 0.47543228 0.00000344
-0.39494997 -0.31354064 0.00000359
-0.52755743 -0.50698358 0.00000435
-0.25135386 -0.06429946 0.00000282
-0.54626983 -0.57496673 0.00000440
-0.52541828 -0.46848550 0.15185387
-0.38907406 -0.13933156 0.41860074
-0.42781317 -0.23284127 0.07549308
-0.43813473 -0.77382565 0.00000334
-0.51588112 -0.59708804 0.00000415
-0.37866306 -0.79117787 0.00000287
-0.36084428 -0.16766334 0.00000351
-0.03270830 0.72103387 0.02065621
-0.39009830 -0.48801586 0.00000333
-0.07958428 -0.31509259 0.00000121
-0.13184538 -0.05894937 0.00000192
-0.39162070 -0.35131970 0.00000352
-0.06289902 -0.54474330 0.00000079
-0.44735235 -0.28002381 0.31278726
-0.33052099 0.00204550 0.04486549
-0.32255629 -0.67021400 0.00000260
-0.00970386 -0.15714338 0.00000088
-0.33569741 -0.56050169 0.00000283
-0.44878376 -0.76298642 0.00000343
-0.36906350 -0.60150105 0.00000303
-0.42986813 -0.53501916 0.00000357
-0.08004837 -0.19287264 0.00000136
-0.06199825 0.38452965 0.00000551
-0.01527084 -0.55544800 0.00000042
-0.35378566 -0.51924133 0.00000302
-0.07933988 0.60845327 0.05190467
-0.11558899 -0.75484836 0.00000093
-0.41249043 -0.45556116 0.00000354
-0.31843442 -0.14274275 0.00000322
-0.09363184 0.57395053 0.02225457
-0.58666694 -0.61635244 0.12548399
-0.34043375 -0.02188963 0.12332666
-0.15972589 0.41437811 0.16644616
-0.27536911 -0.12792633 0.00000292
-0.21297371 -0.16060315 0.00000241
-0.09490319 -0.68154961 0.00000086
-0.51357597 -0.43989900 0.23081645
-0.56682569 -0.56845039 0.10805883
-0.33659172 -0.76519960 0.00000258
-0.08549154 -0.63276094 0.00000085
-0.54502714 -0.51582438 0.12167787
-0.19264622 -0.19922356 0.00000220
-0.29080275 -0.39685497 0.00000270
-0.16951948 0.39074144 0.00360014
-0.47470108 -0.34603927 0.07591131
-0.04393063 -0.29743102 0.00000096
-0.38772395 -0.32175004 0.00000352
-0.43634948 -0.25344965 0.07106485
-0.15604250 0.42327455 0.07877302
-0.37554708 -0.62517530 0.00000305
-0.06095099 -0.50090152 0.00000083
-0.19212089 0.33617222 0.09960363
-0.41752416 -0.20801140 0.30397031
-0.05337001 0.65801215 0.00000223
-0.37897351 -0.49748951 0.00000324
-0.07514461 0.49557921 0.00000376
-0.13602459 -0.46275449 0.00000145
-0.19914435 0.31921449 0.13346650
-0.49067888 -0.38461086 0.02080334
-0.11076403 0.20573787 0.00000642
-0.30507603 -0.51623631 0.00000266
-0.23238482 -0.15685318 0.00000256
-0.37331155 -0.10126309 0.10057695
-0.51517075 -0.44374010 0.02827096
-0.46831179 -0.73577946 0.00000361
-0.13334113 -0.76729274 0.00000105
-0.18997991 -0.46793813 0.00000185
-0.10919829 0.31227279 0.00000513
-0.12566227 0.20528923 0.00000602
-0.11163970 0.53047138 0.11423276
-0.30755618 -0.60604990 0.00000256
-0.00325217 0.38364252 0.00000712
-0.48048779 -0.36001217 0.13048050
-0.09945924 0.26331201 0.00000601
-0.37517968 -0.10577543 0.15057532
-0.33785728 -0.01566881 0.10794311
-0.37928623 -0.11570029 0.39107180
-0.01424311 -0.79406470 0.00000011
-0.17725454 0.37206644 0.02163771
-0.27347910 0.08633141 0.00000349
-0.25612402 -0.76906103 0.00000197
-0.16616844 0.39882377 0.17908962
-0.02896464 -0.63752705 0.00000042
-0.37062430 -0.39134625 0.00000331
-0.37870798 -0.59400827 0.00000311
-0.29598212 -0.70341319 0.00000235
-0.00418573 -0.70757991 0.00000015
-0.25854674 -0.52731526 0.00000229
-0.01781251 0.40071434 0.00000651
-0.34543368 -0.03395982 0.10497258
-0.46583503 -0.79927051 0.00000352
-0.00730905 -0.22324260 0.00000078
-0.29841349 -0.44650251 0.00000269
-0.52196246 -0.46014595 0.23443170
-0.03507867 0.59594393 0.00000360
-0.12830777 -0.02515731 0.00000194
-0.12212490 0.28745145 0.00000509
-0.40802622 -0.18506850 0.01824311
-0.03303073 0.01677175 0.00001089
-0.27561536 0.13459654 0.12425357
-0.27613547 0.13333789 0.19142462
-0.46347269 -0.31893700 0.20151223
-0.48680016 -0.37524784 0.04539003
-0.28369942 -0.51453048 0.00000250
-0.34958878 -0.04400042 0.31194714
-0.03792662 0.65369153 0.00000280
-0.22505653 0.25665334 0.20727825
-0.24380878 0.21138848 0.04343157
-0.13165618 -0.63373226 0.00000120
-0.39496726 -0.15354288 0.05522223
-0.16237116 -0.40811262 0.00000171
-0.35393336 -0.44419491 0.00000311
-0.36751655 -0.71006632 0.00000289
-0.36220089 -0.46410573 0.00000315
-0.33321491 -0.57350111 0.00000280
-0.23305412 0.23735265 0.04360594
-0.20998734 -0.43109366 0.00000205
-0.22295460 -0.53466284 0.00000201
-0.39452612 -0.15248215 0.15112598
-0.53564471 -0.49317253 0.10941911
-0.09045750 0.58161163 0.07774127
-0.33576921 -0.60113990 0.00000278
-0.48493022 -0.46589193 0.00000408
-0.10173419 0.55438989 0.01646055
-0.10724353 -0.14500713 0.00000163
-0.55753917 -0.54603356 0.20794496
-0.16295542 -0.63317668 0.00000144
-0.21028449 0.21447439 0.00000361
-0.42240089 -0.69420683 0.00000332
-0.22379331 -0.29463604 0.00000232
-0.01271706 0.54668063 0.00000482
-0.17351678 -0.62659079 0.00000153
-0.26037407 -0.58636504 0.00000223
-0.57531536 -0.58894396 0.05357319
-0.09252153 0.01247875 0.00000933
-0.23862627 0.12985937 0.00000390
-0.29259688 -0.68278843 0.00000235
-0.62685931 -0.71338302 0.13946541
-0.07501373 0.61889946 0.00923068
-0.34601909 -0.48319396 0.00000301
-0.55869365 -0.65071040 0.00000440
-0.09676070 -0.11694774 0.00000158
-0.37911704 -0.11527732 0.06518379
-0.10181569 -0.03320729 0.00000173
-0.10992097 0.53462243 0.07749504
-0.23382916 0.23547947 0.08956818
-0.48518771 -0.37135944 0.14382362
-0.15832628 0.41776001 0.10112250
-0.02368630 0.49916199 0.00000512
-0.54871535 -0.52472973 0.14817582
-0.42239255 -0.21976405 0.28721753
-0.56584060 -0.75249422 0.00000433
-0.26764116 -0.03685499 0.00000297
-0.43607062 -0.36457044 0.00000383
-0.44537777 -0.27524406 0.02841311
-0.37682769 -0.10976550 0.40677032
-0.33822909 -0.01656625 0.10371368
-0.45955247 -0.30947357 0.22039104
-0.01988478 -0.50006855 0.00000052
-0.18630636 0.35020730 0.15655936
-0.31377062 -0.14251651 0.00000319
-0.21836223 -0.23331995 0.00000236
-0.04024007 0.23854619 0.00000793
-0.38690650 -0.13408770 0.17409138
-0.19351333 -0.64413100 0.00000165
-0.08186690 0.58674514 0.00000235
-0.24993967 -0.75935423 0.00000194
-0.00075484 0.42453369 0.00000667
-0.25397742 0.05444998 0.00000442
-0.01317265 -0.75690943 0.00000015
-0.52239573 -0.59615391 0.00000420
-0.20839117 -0.53260112 0.00000191
-0.39550072 -0.15483616 0.17679094
-0.13610289 0.21684197 0.00000559
-0.06837349 -0.59151423 0.00000078
-0.59078634 -0.62629533 0.07424329
-0.32755458 -0.05492813 0.00000340
-0.09477838 -0.32611978 0.00000131
-0.15105347 -0.61327559 0.00000137
-0.31954074 0.00939472 0.00000342
-0.28185898 0.11952455 0.09057007
-0.66586673 -0.80755287 0.07100059
-0.27259094 -0.31502029 0.00000266
-0.03710086 0.61663729 0.00000328
-0.30772975 0.05706544 0.11837101
-0.25371978 -0.04169260 0.00000286
-0.22544460 -0.66510993 0.00000187
-0.14204928 0.25287193 0.00000498
-0.19746020 0.06303928 0.00000585
-0.53303677 -0.48687634 0.10942618
-0.33804357 -0.54689020 0.00000287
-0.41019028 -0.19029883 0.14769679
-0.12968947 0.48689672 0.07947970
-0.36627606 -0.08428298 0.21591119
-0.31252554 0.04548416 0.18900301
-0.30086625 0.07363923 0.03446177
-0.18880010 -0.75771427 0.00000148
-0.13298900 0.47892952 0.10974895
-0.07838030 0.07109238 0.00000898
-0.05748745 0.66121173 0.01203254
-0.13556351 0.47271430 0.10510004
-0.11213912 0.52927047 0.00733893
-0.08797959 0.00398739 0.00000956
-0.38196319 -0.57455492 0.00000316
-0.30796498 0.05649711 0.12721387
-0.34204534 -0.02577957 0.10521401
-0.17641377 0.07301624 0.00000630
-0.05994865 0.24057864 0.00000736
-0.24475449 0.20910028 0.15617479
-0.37262538 -0.09961998 0.40239146
-0.01779236 0.22482739 0.00000871
-0.12756707 -0.38806784 0.00000148
-0.41031775 -0.69377196 0.00000323
-0.54961127 -0.57995057 0.00000442
-0.17736313 0.37179941 0.13092136
-0.40599287 -0.37002867 0.00000360
-0.17191404 0.38495255 0.17997876
-0.03462032 0.67876768 0.00000258
-0.55419171 -0.53795224 0.19055051
-0.06433711 0.17364407 0.00000808
-0.10189693 -0.22081658 0.00000149
-0.41367638 -0.19870885 0.00907426
-0.53428006 -0.55284542 0.00000434
-0.63210553 -0.72604632 0.00917174
-0.38030910 -0.30492961 0.00000349
-0.37297234 -0.10045511 0.34584436
-0.32687426 0.01084580 0.12855546
-0.06831992 0.36230499 0.00000562
-0.40426418 -0.17599612 0.24280265
-0.19211839 0.00354677 0.00000674
-0.35290933 -0.05201641 0.29935190
-0.00337955 -0.01856641 0.00000100
-0.29347301 -0.16386086 0.00000301
-0.14250576 -0.71942705 0.00000118
-0.51444477 -0.44198635 0.00432137
-0.11358236 0.23314695 0.00000600
-0.13620932 0.24430981 0.00000525
-0.22777273 0.25010291 0.04802374
-0.44441688 -0.27293566 0.28452852
-0.01883029 0.17893191 0.00000925
-0.18213621 0.00097340 0.00000704
-0.09973990 -0.49333403 0.00000114
-0.01402425 0.44964689 0.00000600
-0.24431226 0.10638982 0.00000403
-0.10712897 0.23440811 0.00000616
-0.28926003 -0.06061448 0.00000311
-0.57239801 -0.58190036 0.04376144
-0.03256113 0.38075566 0.00000636
-0.11665464 -0.37111416 0.00000142
-0.41536438 -0.20279568 0.26853237
-0.38521001 -0.77901089 0.00000293
-0.26012385 0.17199463 0.16770437
-0.44965994 -0.28558701 0.13640355
-0.13882229 0.16683608 0.00000614
-0.05620906 0.06069290 0.00000971
-0.32128578 -0.53389901 0.00000276
-0.43485603 -0.24985196 0.24743140
-0.40834698 -0.18585813 0.35993049
-0.17352405 -0.78674221 0.00000133
-0.31807941 0.03208366 0.01337481
-0.15289374 -0.73327309 0.00000124
-0.56928891 -0.57919973 0.00000457
-0.49819744 -0.40277356 0.32660848
-0.21098670 -0.15773596 0.00000239
-0.27321017 -0.79984361 0.00000206
-0.10135474 -0.20992306 0.00000150
-0.34721681 -0.52049309 0.00000297
-0.35225287 -0.05042696 0.19584595
-0.03965502 -0.08068559 0.00000120
-0.45556763 -0.29984447 0.02402328
-0.14411926 -0.09586793 0.00000197
-0.10894197 -0.13686378 0.00000165
-0.47110933 -0.33737099 0.14294735
-0.12539653 -0.68621993 0.00000109
-0.21372660 0.28401265 0.06631395
-0.42245191 -0.21989805 0.07717859
-0.43601951 -0.25265417 0.09681636
-0.00835677 0.72524393 0.00000271
-0.39614701 -0.75015402 0.00000305
-0.16067421 0.15903009 0.00000565
-0.12017421 -0.41482133 0.00000139
-0.24649285 0.08066535 0.00000430
-0.05688138 -0.49837220 0.00000081
-0.04848103 -0.74150085 0.00000044
-0.20278113 -0.02057742 0.00000250
-0.24707611 0.20350094 0.03137572
-0.63096803 -0.72330213 0.13427514
-0.12124926 -0.58745962 0.00000118
-0.16501348 0.38932735 0.00000265
-0.57204926 -0.58106273 0.14125024
-0.02402847 0.27848655 0.00000787
-0.26344654 0.16397434 0.13579416
-0.35995519 -0.06902811 0.33147708
-0.45531109 -0.29922593 0.04158067
-0.16351382 -0.38697699 0.00000175
-0.20226961 0.31166580 0.21413007
-0.28935632 -0.48865655 0.00000257
-0.10230468 0.18466613 0.00000691
-0.33061039 0.00182090 0.24085999
-0.30078611 -0.27713087 0.00000292
-0.08911826 -0.20525011 0.00000142
-0.49755460 -0.61270952 0.00000399
-0.37736270 -0.11105568 0.37367499
-0.29449975 0.08899898 0.26681599
-0.45057121 -0.28778535 0.09868108
-0.11699418 0.51754493 0.10344156
-0.31130463 -0.70431089 0.00000247
-0.12202779 0.26625696 0.00000536
-0.29387456 -0.78822762 0.00000223
-0.05121179 -0.23077247 0.00000110
-0.34692812 -0.50786334 0.00000298
-0.29984820 -0.48836142 0.00000265
-0.57853472 -0.59671891 0.11360693
-0.10239011 -0.39401641 0.00000128
-0.45402876 -0.38616803 0.00000394
-0.13243671 -0.78267044 0.00000102
-0.45219761 -0.29171720 0.21894068
-0.05015404 0.01805572 0.00001041
-0.41576925 -0.33730757 0.00000372
-0.01843549 0.75040239 0.00000208
-0.05421893 0.14751504 0.00000868
-0.03970994 -0.42866540 0.00000076
-0.51501739 -0.71619320 0.00000399
-0.10523427 -0.21968456 0.00000152
-0.51793486 -0.73840231 0.00000398
-0.26505321 -0.67606676 0.00000215
-0.42965400 -0.23729917 0.39156711
-0.08404733 0.34924927 0.00000535
-0.51511270 -0.72103536 0.00000398
-0.17172371 0.00600679 0.00000726
-0.31248644 -0.31247458 0.00000297
-0.09812260 -0.39439672 0.00000125
-0.05270990 -0.74887240 0.00000046
-0.31815907 0.03188951 0.05484139
-0.10456789 0.45974129 0.00000341
-0.20914952 -0.78872281 0.00000159
-0.13719943 -0.76875299 0.00000107
-0.06587532 0.25413948 0.00000703
-0.19940320 0.03521660 0.00000614
-0.05840428 -0.73175538 0.00000053
-0.58111984 -0.77784640 0.00000441
-0.47602546 -0.34924436 0.24822530
-0.40645221 -0.18127984 0.27256641
-0.53658402 -0.56649005 0.00000434
-0.47350436 -0.34699038 0.00000414
-0.27024406 0.14755891 0.24051417
-0.05193557 0.17722781 0.00000837
-0.11594492 -0.17184073 0.00000166
-0.05610870 -0.78328067 0.00000044
-0.42462793 -0.37127331 0.00000374
-0.02572176 0.00144149 0.00001128
-0.42341408 -0.22222891 0.25652942
-0.32917732 -0.29229409 0.00000312
-0.31322786 0.04378365 0.29912409
-0.20151013 -0.33225873 0.00000210
-0.16851573 -0.36425823 0.00000182
-0.47791356 -0.35380375 0.27352285
-0.46330315 -0.31852859 0.22153221
-0.57277691 -0.58281624 0.06829113
-0.02305049 0.25276646 0.00000821
-0.21877043 0.27183077 0.17659926
-0.37314394 -0.10086597 0.26918414
-0.45690715 -0.30308768 0.23207660
-0.52460176 -0.46651766 0.28899491
-0.08145721 0.10165179 0.00000852
-0.32846820 0.00699784 0.12365153
-0.09070551 -0.44069949 0.00000113
-0.22157700 0.26505390 0.20291720
-0.48514414 -0.37124956 0.03887677
-0.30766016 -0.14391135 0.00000314
-0.02256112 0.03711996 0.00001092
-0.49766678 -0.68878734 0.00000389
-0.09107453 -0.42418405 0.00000116
-0.14545555 -0.31565040 0.00000170
-0.01179559 -0.14896227 0.00000090
-0.25834802 -0.19802940 0.00000270
-0.38210517 -0.12248901 0.01378137
-0.48953313 -0.38184711 0.07368365
-0.29807267 -0.52654237 0.00000259
-0.41179636 -0.24426508 0.00000380
-0.20652211 -0.15169068 0.00000237
-0.27267337 -0.75770509 0.00000211
-0.47645354 -0.60712719 0.00000384
-0.35769552 -0.06356875 0.24145328
-0.21125190 -0.33876276 0.00000217
-0.16580322 0.39971140 0.04636735
-0.01387310 -0.55867153 0.00000041
-0.07800096 0.25954029 0.00000664
-0.44833478 -0.54296088 0.00000370
-0.03404992 0.10380226 0.00000978
-0.25000754 0.19641784 0.16516316
-0.13547958 -0.60832578 0.00000126
-0.09596886 -0.79033309 0.00000074
-0.16518521 -0.42062446 0.00000172
-0.26135299 -0.71466297 0.00000208
-0.44855383 -0.28292343 0.28927276
-0.44519451 -0.55593604 0.00000366
-0.36940357 -0.09184152 0.39572740
-0.31516370 -0.65744334 0.00000256
-0.44058892 -0.37505093 0.00000386
-0.30745769 -0.52205610 0.00000267
-0.44830027 -0.28230107 0.06028035
-0.02859655 0.09929726 0.00000998
-0.14281970 0.45520040 0.01088314
-0.26773322 -0.42457521 0.00000249
-0.57414782 -0.58612412 0.02886343
-0.49230823 -0.38854375 0.00416652
-0.48463935 -0.45403665 0.00000409
-0.13359955 0.47745475 0.12777641
-0.28731874 0.10633592 0.25917682
-0.15686078 0.42129678 0.12904628
-0.48783296 -0.37775096 0.26305446
-0.29420006 0.08972542 0.20191015
-0.31170124 0.04748080 0.04085650
-0.39689192 -0.43606776 0.00000345
-0.25886157 -0.21821772 0.00000268
-0.27317384 0.14048755 0.20032145
-0.05970681 -0.37784660 0.00000098
-0.37518227 -0.48884574 0.00000322
-0.25353578 0.18789853 0.19516103
-0.34068590 -0.07849540 0.00000347
-0.03663696 0.60480469 0.00000344
-0.07633380 -0.10384710 0.00000145
-0.24405441 0.21079417 0.07254525
-0.50880504 -0.42837524 0.10402697
-0.07733410 -0.55555683 0.00000089
-0.14801311 -0.12464942 0.00000196
-0.36747229 -0.08717665 0.34293702
-0.43089932 -0.49712467 0.00000363
-0.01944639 0.48997873 0.00000535
-0.23893881 0.22314295 0.10465787
-0.24676396 0.20424727 0.19392391
-0.35371244 -0.65828037 0.00000285
-0.14998923 -0.33058649 0.00000172
-0.44345251 -0.27061030 0.34834048
-0.48175627 -0.58444136 0.00000390
-0.31677449 0.03522436 0.23083419
-0.11261998 0.52810913 0.01618614
-0.15279761 0.43110615 0.13105284
-0.16730908 0.19212885 0.00000505
-0.16787799 0.23413394 0.00000451
-0.10666868 0.43655694 0.00000365
-0.38685310 -0.13515402 0.00000375
-0.41210735 -0.27154809 0.00000377
-0.04944139 -0.77031183 0.00000041
-0.34788308 -0.08228344 0.00000352
-0.01087588 0.69601196 0.00000300
-0.34071368 -0.02256968 0.21816176
-0.52556038 -0.75043672 0.00000403
-0.54468650 -0.51500189 0.12029170
-0.28684542 -0.54476070 0.00000248
-0.01288598 -0.18156967 0.00000087
-0.05832082 0.48353997 0.00000437
-0.42016152 -0.21437933 0.31978220
-0.40041313 -0.16670206 0.31628862
-0.03618804 -0.45848790 0.00000070
-0.43247750 -0.68524551 0.00000341
-0.56541085 -0.74426734 0.00000434
-0.57264572 -0.58249795 0.03299678
-0.04086876 -0.34155026 0.00000088
-0.10174108 0.34293574 0.00000495
-0.11940724 0.19473681 0.00000632
-0.01675804 -0.13534918 0.00000096
-0.39710969 -0.16313531 0.00000379
-0.46787685 -0.53490275 0.00000386
-0.18095997 0.36311555 0.13683408
-0.22754714 0.25064495 0.10599645
-0.26848006 0.15182345 0.10922931
-0.05083654 -0.57703918 0.00000066
-0.20462452 0.30598524 0.10860981
-0.02192232 -0.22870456 0.00000088
-0.01293171 -0.48381025 0.00000049
-0.13631143 0.47091141 0.04361226
-0.37637916 -0.10867820 0.30640584
-0.21501087 0.28090981 0.11874445
-0.41157269 -0.19364047 0.24122144
-0.31630266 0.03637182 0.04364275
-0.19288686 0.33431861 0.19807248
-0.58508748 -0.61253941 0.16667478
-0.14745285 -0.68933719 0.00000125
-0.37790003 -0.11235443 0.40741712
-0.37271932 -0.23079503 0.00000352
-0.02624284 0.37663466 0.00000658
-0.10735775 -0.21295518 0.00000154
-0.50246072 -0.41306573 0.28519830
-0.35568118 -0.38892516 0.00000320
-0.07180288 0.04434085 0.00000950
-0.00059551 0.50630754 0.00000565
-0.38300848 -0.12468615 0.38037899
-0.02072886 0.74810910 0.00000209
-0.14559497 0.35076475 0.00000366
-0.36215091 -0.22174533 0.00000345
-0.43124428 -0.38859245 0.00000377
-0.06107901 -0.37761074 0.00000099
-0.25127459 -0.26614296 0.00000256
-0.04616440 -0.21532546 0.00000108
-0.54162109 -0.50760001 0.09121853
-0.13234788 -0.35355189 0.00000156
-0.23364545 -0.34628320 0.00000233
-0.00739360 0.77748883 0.00000208
-0.63616902 -0.73585802 0.07320451
-0.51099235 -0.43366244 0.29274511
-0.37756613 -0.63383085 0.00000306
-0.55111748 -0.53052539 0.06678606
-0.29183203 -0.72636694 0.00000229
-0.61032957 -0.67347383 0.00061366
-0.36073202 -0.79608113 0.00000273
-0.46239436 -0.31632647 0.03968171
-0.04699084 -0.44196042 0.00000080
-0.23051582 0.24347591 0.15041687
-0.14865790 -0.09738684 0.00000200
-0.38625866 -0.13251640 0.01150281
-0.42526498 -0.57347345 0.00000349
-0.29908010 0.07794633 0.14802201
-0.49879339 -0.40421230 0.31606695
-0.40142691 -0.16914736 0.26684761
-0.28931499 -0.52164268 0.00000253
-0.25156060 -0.14003520 0.00000272
-0.02120138 -0.31025434 0.00000077
-0.43429095 -0.24847677 0.00170344
-0.08918103 -0.60537988 0.00000092
-0.32171923 -0.51903617 0.00000278
-0.26049960 -0.06659362 0.00000288
-0.35045969 -0.04609973 0.23908138
-0.06551709 0.32807711 0.00000612
-0.40810582 -0.31059557 0.00000369
-0.00443323 -0.57240587 0.00000026
-0.35484144 -0.05667433 0.15130451
-0.35334432 -0.05305864 0.12152366
-0.49186417 -0.70850539 0.00000383
-0.24891028 -0.63425052 0.00000209
-0.32583338 -0.53633881 0.00000279
-0.20797050 -0.19459642 0.00000233
-0.49496260 -0.63014829 0.00000395
-0.00316469 -0.34342536 0.00000059
-0.29135895 -0.51002783 0.00000256
-0.00797004 -0.42033437 0.00000053
-0.62698251 -0.71368045 0.14586212
-0.44257760 -0.26849833 0.35391292
-0.29668459 -0.12883881 0.00000308
-0.14408034 -0.04168372 0.00000203
-0.37065268 -0.09484987 0.23320855
-0.23175801 -0.53018999 0.00000209
-0.32814124 -0.79628646 0.00000248
-0.38752604 -0.13559292 0.38855591
-0.09971614 0.55926085 0.04125337
-0.19470859 -0.63074565 0.00000168
-0.22619420 0.25390714 0.19783488
-0.39593160 -0.15588459 0.35938975
-0.31724986 0.03408479 0.04963294
-0.31170607 -0.41419753 0.00000283
-0.23323725 -0.50890595 0.00000212
-0.18464495 -0.06192102 0.00000232
-0.21525031 0.08893265 0.00000504
-0.12604535 -0.44772702 0.00000139
-0.15966862 -0.78293979 0.00000123
-0.52828610 -0.65779221 0.00000416
-0.01494184 0.10431693 0.00001029
-0.02918351 0.36669096 0.00000662
-0.19719435 -0.41334516 0.00000197
-0.40529883 -0.17848612 0.06603735
-0.24165092 -0.68993688 0.00000196
-0.49909502 -0.43488491 0.00000422
-0.13872835 0.26425844 0.00000493
-0.13613494 0.42847216 0.00000295
-0.00082060 -0.24612254 0.00000069
-0.17455855 0.37857157 0.10293008
-0.33846849 -0.01714615 0.14737841
-0.47451651 -0.61330593 0.00000381
-0.50305343 -0.67015326 0.00000396
-0.46039787 -0.71317798 0.00000358
-0.37532669 -0.10612483 0.02749710
-0.59698719 -0.64126277 0.01084113
-0.45974219 -0.30993032 0.19211867
-0.12776116 -0.76017535 0.00000101
-0.28462574 0.02067512 0.00000401
-0.41065612 -0.28015053 0.00000375
-0.29141349 -0.41340479 0.00000268
-0.37664738 -0.64790595 0.00000303
-0.27527273 -0.43310359 0.00000254
-0.51984930 -0.58330911 0.00000419
-0.50156808 -0.70647514 0.00000390
-0.04139223 -0.56868315 0.00000060
-0.11580898 -0.36773777 0.00000141
-0.32522523 0.01482038 0.27431688
-0.45978943 -0.38955528 0.00000398
-0.33539468 -0.00973191 0.29560056
-0.49419942 -0.47911942 0.00000413
-0.06617287 -0.10686172 0.00000137
-0.30804938 0.05629290 0.13745005
-0.23726434 0.22718185 0.18661173
-0.07525277 -0.02523800 0.00000154
-0.15181373 -0.52064818 0.00000149
-0.62531370 -0.70965165 0.13764954
-0.18519850 -0.68032336 0.00000155
-0.24401541 0.21088649 0.11287546
-0.45138830 -0.28975892 0.12002348
-0.45447698 -0.29722565 0.36559507
-0.03981119 -0.67933017 0.00000045
-0.28419030 -0.28437349 0.00000279
-0.16328967 0.09491524 0.00000638
-0.03686012 -0.12673523 0.00000112
-0.01360674 0.12542088 0.00001006
-0.33487114 -0.00845838 0.08120454
-0.20016813 -0.16139178 0.00000231
-0.40246844 -0.17166443 0.32458565
-0.36722222 -0.41892621 0.00000325
-0.39328703 -0.14948869 0.10645044
-0.01147661 -0.52082193 0.00000044
-0.39640164 -0.79855746 0.00000299
-0.17200574 -0.64724773 0.00000149
-0.10579904 0.54457700 0.00377162
-0.36697254 -0.11141281 0.00000363
-0.23198596 0.17021543 0.00000357
-0.35380539 -0.15664119 0.00000347
-0.23212616 0.04600261 0.00000512
-0.36551115 -0.08243781 0.25001016
-0.23580836 0.23070370 0.03409739
-0.49985692 -0.40677977 0.30713004
-0.48208383 -0.65700769 0.00000382
-0.12817577 0.04801191 0.00000792
-0.27325687 -0.77752948 0.00000209
-0.59828621 -0.74863267 0.00000458
-0.14604335 -0.41546223 0.00000158
-0.33278286 -0.00342333 0.22669716
-0.07599160 0.36928466 0.00000532
-0.57362717 -0.60625637 0.00000457
-0.10563774 0.33068010 0.00000500
-0.27187151 -0.63861692 0.00000225
-0.30836985 -0.66728342 0.00000249
-0.00890554 0.45545638 0.00000606
-0.43862644 -0.47555587 0.00000371
-0.10391318 0.11626715 0.00000772
-0.38585052 -0.13154463 0.31583494
-0.21299566 -0.61384147 0.00000184
-0.09765026 0.14086631 0.00000759
-0.21851353 0.27245346 0.12083470
-0.24097940 0.21821409 0.15855820
-0.54170650 -0.71932137 0.00000419
-0.12836742 -0.68444419 0.00000111
-0.47516361 -0.34715259 0.00025514
-0.15802182 -0.69024158 0.00000133
-0.20860355 -0.30591020 0.00000219
-0.14115745 0.45921192 0.04536730
-0.12040274 0.50931859 0.04340305
-0.35977224 -0.06857367 0.04527661
-0.27946070 -0.04529353 0.00000305
-0.45487452 -0.78115654 0.00000346
-0.19272900 0.33413690 0.00000287
-0.38126418 -0.28070489 0.00000353
-0.52723438 -0.47286418 0.02278543
-0.33240840 -0.56709826 0.00000280
-0.07841749 0.61068225 0.00382772
-0.05962078 -0.27853256 0.00000110
-0.05632994 -0.49879995 0.00000080
-0.05051130 0.34802201 0.00000628
-0.24203911 0.21566013 0.05911992
-0.31846365 -0.23864299 0.00000310
-0.05987105 -0.22299542 0.00000117
-0.22584476 0.23445062 0.00000294
-0.45501679 -0.29852811 0.32510918
-0.16403629 -0.69137293 0.00000137
-0.03146698 -0.78661674 0.00000025
-0.10047742 -0.77231562 0.00000079
-0.31710276 0.03442903 0.29415134
-0.05997552 0.34833527 0.00000602
-0.26181397 0.16791467 0.16020139
-0.08699055 -0.07194541 0.00000157
-0.59209555 -0.62945342 0.01555466
-0.46895048 -0.48161718 0.00000394
-0.34200075 -0.02566890 0.03699819
-0.53996706 -0.50360692 0.09256778
-0.04676581 -0.25875178 0.00000103
-0.28112605 0.12129330 0.10649827
-0.00578724 -0.64630622 0.00000024
-0.32147586 -0.39913771 0.00000293
-0.53679043 -0.73338020 0.00000413
-0.00315052 -0.56631726 0.00000027
-0.42414129 -0.22398680 0.30644354
-0.21375842 -0.41111010 0.00000210
-0.32480320 -0.08836537 0.00000334
-0.46726042 -0.32808322 0.24056564
-0.42191190 -0.44324529 0.00000363
-0.08876893 0.38176206 0.00000482
-0.06830999 -0.50233972 0.00000089
-0.21961515 -0.26905018 0.00000232
-0.17449990 0.37871003 0.17234090
-0.14570558 0.44823292 0.01841252
-0.25512931 0.18405946 0.01380869
-0.52878803 -0.72748911 0.00000408
-0.23044594 0.24364249 0.19816220
-0.44190922 -0.34288463 0.00000391
-0.57889253 -0.59758383 0.14856654
-0.61299497 -0.67991090 0.04972362
-0.45273259 -0.35794041 0.00000397
-0.40668601 -0.18183556 0.07720954
-0.04756187 0.05959345 0.00000996
-0.01397477 -0.60834211 0.00000035
-0.01028272 0.39521426 0.00000678
-0.12378650 -0.38849851 0.00000145
-0.13728799 -0.25786546 0.00000171
-0.28325149 0.11615363 0.29469723
-0.37207898 -0.19507635 0.00000356
-0.02867240 -0.47654060 0.00000062
-0.31250763 0.04553242 0.07563754
-0.13905157 0.27690196 0.00000476
-0.54493415 -0.51560313 0.22274078
-0.25950062 0.17350492 0.04046079
-0.11739313 -0.62813288 0.00000110
-0.11658683 0.51852983 0.07124884
-0.35113373 -0.04771754 0.02650855
-0.23510785 0.23239297 0.07745805
-0.12702128 -0.17666715 0.00000174
-0.45293838 -0.29350001 0.09348729
-0.17878060 -0.09871560 0.00000223
