ply
format ascii 1.0
element vertex 1371
property float x
property float y
property float z
end_header
0.01747740 -0.42109761 -0.00000024
0.11001642 0.05118215 -0.00000053
-0.63307911 0.34227195 -0.00000021
-0.32390216 0.05605916 -0.00000052
0.73011220 -0.45097658 -0.00000044
-0.69527113 0.29515243 -0.00000013
0.62326813 -0.76443177 -0.00000002
-0.31908110 0.20064226 -0.00000055
0.17277431 -0.06561571 -0.00000046
0.18013205 0.39682159 -0.00000076
0.01733977 -0.15976591 -0.00000040
0.12281462 0.05832484 -0.00000054
-0.36871889 -0.76889861 -0.00000002
0.52581131 0.13920037 0.19571050
0.73144126 -0.54220819 -0.00000032
-0.02310661 -0.78777635 -0.00000001
0.52356786 -0.72270495 -0.00000005
0.06979972 -0.49032345 -0.00000019
0.32630616 0.40364850 0.10155288
0.72014886 -0.60522908 -0.00000024
0.20069209 0.16891237 -0.00000061
0.73608834 -0.21339048 -0.00000070
0.07745522 0.45590675 -0.00000078
-0.79653484 -0.49363831 0.00000000
0.34060696 -0.13688429 -0.00000041
0.44437924 -0.62321997 -0.00000011
0.51990765 0.12605605 -0.00000084
0.10509640 0.40647742 -0.00000075
0.36323619 0.35464337 0.11905994
-0.22133955 0.46030730 -0.00000070
-0.12249730 0.55982208 -0.00000083
0.52511370 0.13539994 0.20223196
-0.55792677 0.18985063 -0.00000029
0.27246746 0.22620232 0.43688002
0.16385102 -0.03020798 -0.00000048
0.37087956 0.18500131 0.35393327
0.51431865 0.21660364 0.10014999
0.60881078 -0.29322842 -0.00000048
0.36127591 0.27459970 0.23795339
-0.30414531 0.41602749 -0.00000061
-0.61315542 0.57732308 -0.00000023
0.27572185 -0.22387603 -0.00000036
0.04067657 0.61082488 -0.00000088
-0.56174845 -0.07404944 -0.00000024
-0.07472789 -0.48433363 -0.00000020
-0.72188765 0.48724204 -0.00000010
-0.75902361 -0.16910025 -0.00000001
-0.11014683 0.45661470 -0.00000079
-0.20464224 0.38105777 -0.00000070
-0.29128480 -0.61378211 -0.00000012
0.31064773 -0.02512454 -0.00000048
-0.16413379 0.17527409 -0.00000061
-0.07384605 -0.14038888 -0.00000041
0.08849661 -0.58003396 -0.00000014
0.73224008 -0.16355269 -0.00000075
-0.29105291 0.61782396 -0.00000064
0.09120614 0.40707451 -0.00000075
-0.79151279 0.12221653 -0.00000001
-0.20517264 -0.43689767 -0.00000023
-0.19319935 0.16441320 -0.00000060
-0.31263244 -0.45194387 -0.00000022
-0.66202819 -0.28465891 -0.00000010
0.05424595 0.54079890 -0.00000084
-0.74604934 -0.11642467 -0.00000004
0.75437886 -0.51813370 -0.00000035
0.08660435 0.16518128 -0.00000060
-0.50443047 0.73979396 -0.00000037
0.36818957 -0.36606130 -0.00000027
-0.79402417 -0.45681655 0.00000000
-0.21184535 0.75891876 -0.00000074
0.14834920 0.48720416 0.23841989
0.74676108 -0.63450629 -0.00000021
-0.46196771 -0.09274713 -0.00000034
0.48330340 -0.46469116 -0.00000021
0.03751342 -0.65144676 -0.00000009
-0.63533360 -0.77578855 -0.00000002
-0.71747220 0.74564576 -0.00000010
-0.01628147 0.56975698 -0.00000086
-0.19794106 0.65432793 -0.00000075
-0.30183187 -0.77908987 -0.00000001
0.53328472 0.09503254 -0.00000082
-0.34431428 -0.19344246 -0.00000038
-0.06070035 0.55346841 -0.00000085
-0.24151394 -0.05926069 -0.00000046
-0.14521898 0.05538170 -0.00000053
-0.64020592 -0.72882742 -0.00000004
0.54912752 -0.53043783 -0.00000017
-0.74316269 -0.55043840 0.00000000
-0.68733656 -0.02290125 -0.00000012
-0.10165361 0.58932334 -0.00000085
-0.77801126 0.32568753 -0.00000003
0.24401738 -0.65948808 -0.00000009
-0.54738051 -0.48375782 -0.00000018
0.65210432 -0.30032685 -0.00000052
0.24460414 -0.51449275 -0.00000018
0.11657593 -0.56538373 -0.00000015
-0.25957182 -0.58925641 -0.00000013
-0.63406289 0.50699145 -0.00000021
-0.40639460 0.74509883 -0.00000049
0.66432017 0.10177484 0.04915473
-0.21283534 -0.46145684 -0.00000021
-0.51782328 -0.72926909 -0.00000004
-0.30582032 0.73794526 -0.00000062
0.21278107 0.34353417 -0.00000074
0.64499032 -0.09130191 -0.00000074
-0.56719476 -0.14111871 -0.00000022
-0.10638760 -0.20781444 -0.00000037
-0.53325868 -0.57725126 -0.00000014
-0.11670855 0.36358142 -0.00000073
-0.06248065 -0.70349675 -0.00000006
0.75378346 -0.72259974 -0.00000010
0.26371068 0.38996932 0.21213952
-0.41812429 0.47627902 -0.00000048
-0.00849436 -0.37150404 -0.00000027
-0.41209602 0.20868543 -0.00000045
0.12603197 0.33542424 -0.00000071
-0.78184056 0.39493757 -0.00000002
-0.48797491 -0.36179569 -0.00000027
0.67757940 -0.15065764 -0.00000071
-0.46513787 0.60116231 -0.00000042
-0.73075420 -0.77562428 0.00000000
0.29195881 0.29290566 0.31191134
-0.56187356 -0.69579542 -0.00000007
0.16903569 0.48194370 0.21605463
-0.23363458 -0.64943057 -0.00000009
-0.09244964 0.26952946 -0.00000067
0.63449371 -0.53531778 -0.00000025
-0.31275466 -0.27398202 -0.00000033
0.32779941 0.46383503 0.01212635
-0.57315344 0.18014213 -0.00000028
0.15781976 -0.53343415 -0.00000017
-0.73511964 -0.24426404 -0.00000002
0.36937702 -0.38490546 -0.00000026
-0.30650726 0.11253946 -0.00000055
-0.34912702 0.52667201 -0.00000056
0.24090821 0.36233529 0.28526443
0.19144687 0.35367587 0.36953023
0.00827757 0.15789621 -0.00000060
-0.12398652 0.76451164 -0.00000085
0.53193092 -0.67956650 -0.00000008
-0.64060128 0.07678773 -0.00000018
0.18566614 0.01952855 -0.00000051
0.45742923 -0.51782292 -0.00000018
-0.06009053 -0.43973446 -0.00000023
-0.25122499 -0.62697536 -0.00000011
0.04935871 -0.72665304 -0.00000005
0.20723805 -0.06197085 -0.00000046
0.76101363 -0.46640107 -0.00000042
-0.51546836 -0.34623230 -0.00000024
0.19302140 0.02594627 -0.00000052
0.57446885 -0.64032120 -0.00000010
0.02286216 0.10376799 -0.00000056
-0.50760871 0.16248615 -0.00000034
0.09023750 -0.00162550 -0.00000050
0.30842900 -0.38950053 -0.00000026
0.15965439 -0.08876684 -0.00000044
0.42999530 -0.13046940 -0.00000047
0.53608632 -0.42842633 -0.00000026
0.49960822 0.23679069 0.09220964
-0.56308079 0.48642805 -0.00000030
-0.52276760 0.34973085 -0.00000035
0.40766665 -0.03804077 -0.00000054
0.40813223 -0.44059148 -0.00000022
-0.19407341 0.11285389 -0.00000057
0.55414498 -0.57457972 -0.00000014
-0.23520973 -0.30766550 -0.00000031
0.59832788 0.04294341 -0.00000083
0.34372684 0.43031955 0.03762643
0.22016874 0.35470739 0.32639259
0.52264208 -0.27808735 -0.00000041
-0.26249528 0.18843038 -0.00000061
0.47882161 0.17251466 0.21553777
-0.40166661 0.71697164 -0.00000050
0.00592616 -0.22697562 -0.00000036
-0.07382069 -0.71225524 -0.00000005
-0.31203651 0.28894699 -0.00000057
0.75891674 -0.66960633 -0.00000016
-0.40756848 0.19213320 -0.00000045
-0.21397308 0.22473291 -0.00000064
0.23258330 0.37092948 0.28487399
0.17994343 0.14089411 -0.00000059
-0.23917185 0.05513029 -0.00000053
-0.41705754 0.25437436 -0.00000046
-0.63946301 -0.36269951 -0.00000010
-0.41201654 -0.25510550 -0.00000034
-0.29215416 -0.29252824 -0.00000032
0.51104891 -0.66281044 -0.00000009
0.15108655 0.46688113 0.26391640
-0.28858057 -0.16378437 -0.00000040
-0.05566400 -0.20868492 -0.00000037
0.23991613 -0.09432805 -0.00000044
0.07375621 0.06234013 -0.00000054
0.56695259 -0.01806045 -0.00000073
0.04895793 0.69538981 0.08068482
-0.46527946 -0.11639470 -0.00000034
-0.44175538 -0.69616663 -0.00000006
-0.46010235 0.53356272 -0.00000042
0.43404302 0.17730819 0.27351013
-0.29944196 0.17937988 -0.00000057
-0.31608725 0.16313183 -0.00000055
0.39904824 0.16149101 0.34717944
-0.01497483 0.39288962 -0.00000075
0.33052441 -0.67563754 -0.00000008
0.37962195 -0.70890987 -0.00000006
0.62359768 -0.75690138 -0.00000003
0.15309305 0.50286967 0.20882951
0.07041426 0.70075446 0.04179865
-0.71259940 -0.37179932 -0.00000003
-0.28214490 0.24106608 -0.00000060
0.40840277 -0.08441131 -0.00000049
-0.23739517 -0.23698141 -0.00000035
-0.47367463 -0.31122461 -0.00000029
-0.31916276 -0.50565547 -0.00000018
0.07550918 -0.61096114 -0.00000012
-0.43282798 -0.71156698 -0.00000006
0.48837522 -0.57340920 -0.00000014
-0.69400561 -0.27577245 -0.00000006
-0.77238512 -0.44495523 0.00000000
-0.08098974 -0.50536138 -0.00000018
-0.46806881 -0.61246592 -0.00000012
0.66096556 -0.76334685 -0.00000004
-0.68770146 0.36879995 -0.00000014
-0.39501041 0.70259255 -0.00000051
0.30369058 0.31161869 0.26777121
-0.67488629 0.23911615 -0.00000016
-0.05560143 0.52218962 -0.00000083
-0.31684944 0.33240643 -0.00000058
0.22702087 -0.75563759 -0.00000003
-0.47056967 -0.13598946 -0.00000033
0.68390363 -0.20407979 -0.00000066
0.17656623 -0.29340291 -0.00000032
-0.64353269 -0.02896426 -0.00000016
0.47853979 0.27431014 0.06835811
-0.22813648 0.04342379 -0.00000053
0.46853334 0.15656403 0.25358027
0.79659390 -0.31000218 -0.00000061
-0.07441688 0.15681332 -0.00000060
0.21839274 0.35733411 0.32515919
0.04411650 -0.08124631 -0.00000045
-0.23177496 0.77077293 -0.00000071
0.22358650 -0.37696791 -0.00000026
-0.25487685 0.62501413 -0.00000068
0.46126413 0.10580643 -0.00000075
-0.26100084 0.20847087 -0.00000061
0.67727184 -0.70999491 -0.00000011
-0.31555423 -0.77568132 -0.00000002
0.54775029 -0.55768687 -0.00000015
-0.63398963 -0.32224497 -0.00000012
0.50931531 -0.72603142 -0.00000005
-0.56612134 -0.53080028 -0.00000015
0.24450052 -0.25040632 -0.00000034
0.34252834 0.28432375 0.25103605
0.14722437 -0.62102693 -0.00000011
0.72432709 -0.37342331 -0.00000052
-0.28886840 0.13496858 -0.00000057
-0.06767310 -0.40614709 -0.00000025
0.11252896 -0.65276939 -0.00000009
0.55039603 0.03852984 -0.00000077
-0.36500666 0.23985372 -0.00000051
0.00468644 0.34610045 -0.00000072
0.66471589 0.11645228 0.02730096
-0.37569380 0.43792883 -0.00000053
0.36020881 -0.14902724 -0.00000041
-0.13105956 -0.59810966 -0.00000013
0.55792528 -0.45897982 -0.00000025
0.23229016 0.44625500 0.17608880
0.77884012 -0.01702861 -0.00000096
0.16098693 0.52882695 0.15975064
-0.23703924 0.02442297 -0.00000052
0.45088404 -0.38693523 -0.00000026
0.04301204 -0.22928849 -0.00000036
-0.48433653 -0.32045355 -0.00000028
-0.78955120 0.54882771 -0.00000001
-0.07392169 0.69286472 -0.00000090
0.27249208 0.44949397 0.11310615
0.29378879 0.34905946 0.22784396
-0.69848454 0.04981652 -0.00000012
0.36720476 0.11848068 -0.00000066
-0.79726899 0.78813851 -0.00000000
-0.75047326 -0.56488925 0.00000000
-0.67093271 0.07573631 -0.00000015
0.62801450 -0.72687781 -0.00000005
0.22138759 0.36836240 0.30482784
-0.08517583 -0.17398731 -0.00000039
0.65183204 -0.52567059 -0.00000028
-0.73346096 -0.19675431 -0.00000003
-0.72009957 -0.50664949 0.00000000
-0.32201606 -0.79060578 -0.00000001
0.31244126 0.46780303 0.02864042
0.56204104 -0.21013062 -0.00000052
0.69331557 -0.52869827 -0.00000032
-0.48918855 0.61218870 -0.00000039
0.11317973 -0.31537661 -0.00000030
-0.47417131 -0.06570827 -0.00000034
0.39497373 -0.19813316 -0.00000038
-0.78711605 -0.20939150 0.00000000
0.63229251 -0.72105676 -0.00000005
-0.25532296 0.57913262 -0.00000068
0.23182531 0.31324407 -0.00000073
0.30071151 0.19227727 -0.00000067
0.58911806 -0.34991103 -0.00000040
0.50775045 0.23882453 0.07745587
0.30925629 -0.77972329 -0.00000001
0.16301838 0.15964048 -0.00000060
0.17510986 -0.56517971 -0.00000015
0.51528835 -0.67478460 -0.00000008
0.16041556 -0.27403158 -0.00000033
0.26372918 0.41915146 0.16980316
-0.74918813 0.34475973 -0.00000006
-0.03412663 0.70255959 -0.00000094
-0.31430736 -0.26868474 -0.00000033
0.07911862 -0.21780264 -0.00000036
0.44698510 -0.16931984 -0.00000044
-0.72046107 0.50478244 -0.00000010
-0.56267953 -0.53851849 -0.00000015
0.18651025 -0.70546591 -0.00000006
0.16670077 0.58705765 0.06704094
0.12941040 -0.52933055 -0.00000017
-0.66046786 0.33459070 -0.00000017
-0.33038762 -0.37779057 -0.00000026
0.07999169 0.67057586 0.07166711
-0.50097400 0.48529246 -0.00000037
-0.12040973 -0.02527301 -0.00000048
-0.38954437 0.30252504 -0.00000049
-0.03724875 -0.69006872 -0.00000007
-0.19174092 -0.36640376 -0.00000027
-0.57059252 0.11469776 -0.00000027
-0.52113819 -0.56930572 -0.00000014
0.28791651 -0.00810575 -0.00000049
0.71058232 -0.25089806 -0.00000064
-0.60313702 0.21724901 -0.00000025
-0.28214598 -0.68611580 -0.00000007
-0.75313729 0.30752733 -0.00000006
0.30038854 0.45701256 0.06175962
0.65949816 -0.71071029 -0.00000009
-0.66106880 -0.15766826 -0.00000012
-0.55121714 -0.52768612 -0.00000017
-0.71159190 -0.54627055 0.00000000
-0.16664653 -0.72903639 -0.00000004
-0.30175614 -0.10505923 -0.00000043
0.69304609 0.10487629 0.00300979
0.05719536 -0.35070792 -0.00000028
0.01423289 -0.38820678 -0.00000026
0.42003027 -0.27501750 -0.00000033
0.18132438 0.56539845 0.07724151
-0.03924645 0.15568283 -0.00000060
-0.21638408 0.37109950 -0.00000069
-0.21553110 0.71830338 -0.00000073
0.00356206 -0.57880622 -0.00000014
0.59758878 0.18938009 0.01889078
-0.38061181 0.43553022 -0.00000052
0.04116611 -0.15996540 -0.00000040
0.42915604 0.05575157 -0.00000066
-0.69194442 -0.14861573 -0.00000009
-0.15095893 0.23170985 -0.00000064
0.23400055 0.52969694 0.05263082
0.03921349 0.56930745 -0.00000086
-0.39365247 -0.72179073 -0.00000005
0.54976702 0.08434168 -0.00000082
-0.71010637 -0.26788574 -0.00000005
0.20777656 0.55006063 0.06112736
0.09181998 0.56752783 0.20392145
0.04093499 -0.54285550 -0.00000016
0.69721800 -0.65078467 -0.00000019
-0.34887457 0.60000002 -0.00000056
-0.59831506 -0.36990628 -0.00000015
-0.13759036 0.51859641 -0.00000080
0.44501939 0.30968085 0.06567547
-0.68161553 -0.28666970 -0.00000007
-0.08318935 -0.34064987 -0.00000029
-0.01860329 -0.58629662 -0.00000013
0.17129768 0.03595244 -0.00000052
-0.30239534 0.79566187 -0.00000062
-0.63783014 0.04382049 -0.00000018
0.53338349 -0.50045359 -0.00000019
-0.29318413 0.69457024 -0.00000063
-0.20269169 -0.71051836 -0.00000006
-0.66772807 -0.32744014 -0.00000008
0.06110994 0.13532370 -0.00000058
-0.09779765 -0.22964387 -0.00000036
0.47397378 0.16612956 -0.00000083
0.25378302 -0.47816503 -0.00000020
0.46812603 -0.20890684 -0.00000042
0.72604084 -0.50041282 -0.00000037
0.73311681 0.03308755 -0.00000096
-0.08516262 0.41366491 -0.00000076
-0.66715556 0.38992789 -0.00000017
0.42605108 0.18933593 0.26765886
0.07692139 0.12017124 -0.00000058
-0.11335348 -0.48143637 -0.00000020
-0.03386884 -0.21023944 -0.00000037
-0.40426576 0.50047928 -0.00000049
-0.19838849 0.22760227 -0.00000064
-0.63464868 0.43276390 -0.00000021
0.03342425 -0.62906939 -0.00000011
-0.20216924 -0.26067817 -0.00000034
-0.36835822 -0.24882855 -0.00000034
-0.76501584 -0.67501009 0.00000000
-0.30156982 -0.71251082 -0.00000005
-0.27748901 -0.56967038 -0.00000014
-0.64064413 0.01336186 -0.00000017
0.17117296 0.17807119 -0.00000061
0.75204128 -0.13630971 -0.00000080
0.25137150 0.35033944 0.28748646
-0.73303670 0.42189521 -0.00000008
-0.28785965 -0.29294145 -0.00000032
-0.09305159 -0.75697076 -0.00000003
-0.54865289 -0.35686371 -0.00000020
0.39921817 -0.50600123 -0.00000018
0.00410939 0.12210095 -0.00000058
0.16634069 0.56159252 0.10448367
-0.44432732 0.05775049 -0.00000039
0.05603110 -0.35976419 -0.00000028
-0.77491730 0.28847563 -0.00000003
0.21292344 0.00008939 -0.00000050
-0.08765851 -0.37875736 -0.00000026
-0.79762107 0.08386467 -0.00000000
-0.79466391 -0.62869805 0.00000000
0.11626073 0.66082758 0.03321608
-0.74811316 -0.78750396 0.00000000
0.24117614 0.12430556 -0.00000058
-0.39819738 -0.67320651 -0.00000008
0.36227047 0.32439944 0.16430926
0.21940582 0.56235731 0.02643834
-0.40291142 -0.22109400 -0.00000036
-0.25677255 0.07343352 -0.00000055
-0.02965441 0.38912886 -0.00000074
-0.73555040 0.77723807 -0.00000008
-0.50649172 0.31412950 -0.00000037
-0.31828168 -0.49013424 -0.00000019
-0.05010581 -0.01662587 -0.00000049
0.02990164 0.28149536 -0.00000068
0.20542847 0.39156675 0.29432335
0.46587965 0.31524193 0.02736847
0.00033165 0.32586250 -0.00000070
-0.17319487 0.25243136 -0.00000066
-0.54499727 -0.52539605 -0.00000017
-0.31793594 -0.51597005 -0.00000018
0.25842783 -0.62851441 -0.00000011
0.21910003 -0.67733181 -0.00000008
-0.20458902 0.07744383 -0.00000055
0.57569939 0.12735596 0.14055283
0.05020237 -0.58731580 -0.00000013
0.05139099 -0.27050766 -0.00000033
0.00783162 0.10957543 -0.00000057
0.19044772 -0.23732547 -0.00000035
-0.36704403 -0.17725290 -0.00000039
0.01460732 0.01873949 -0.00000051
-0.00846806 0.60815632 -0.00000088
0.33655474 0.46017346 0.00474117
-0.05707229 -0.51313436 -0.00000018
-0.65986055 -0.33313781 -0.00000009
0.18930544 -0.23505884 -0.00000035
-0.68927628 0.34484380 -0.00000014
-0.16477539 0.55854946 -0.00000078
0.55795956 -0.16997677 -0.00000056
-0.35500380 -0.75128067 -0.00000003
-0.52616119 0.52822763 -0.00000034
-0.35646993 0.60358024 -0.00000055
0.25431731 -0.55190974 -0.00000016
-0.04703276 -0.16480029 -0.00000040
0.28190774 -0.75144464 -0.00000003
0.32015428 0.21945466 -0.00000072
-0.09294583 0.52946466 -0.00000083
0.76546091 -0.17238289 -0.00000078
-0.42299822 -0.29318875 -0.00000032
0.32180580 -0.57592034 -0.00000014
0.20648396 0.33811203 -0.00000073
-0.16953240 -0.13854995 -0.00000041
-0.59252024 -0.10388743 -0.00000020
-0.75997531 -0.32893571 0.00000000
0.25199267 0.39997360 0.21462412
0.34868321 0.05138835 -0.00000057
-0.06029147 0.73721945 -0.00000092
0.16598091 0.37844604 -0.00000074
-0.75981069 0.67781025 -0.00000005
-0.35462183 -0.10591967 -0.00000043
-0.68416256 -0.79650164 0.00000000
0.79990417 -0.75290620 -0.00000006
-0.59844172 -0.31276631 -0.00000016
-0.07221477 0.24526501 -0.00000065
-0.27191210 -0.68489474 -0.00000007
-0.57338786 -0.39812237 -0.00000017
0.53249919 -0.66794789 -0.00000008
-0.05163962 -0.70095700 -0.00000006
-0.36979377 -0.56164914 -0.00000015
0.77451348 -0.22121982 -0.00000072
-0.10426312 0.40758297 -0.00000075
0.24052247 0.30919555 0.36286795
-0.34575471 0.39090174 -0.00000056
0.18663344 0.60126042 0.01754968
-0.22751752 -0.67944324 -0.00000008
-0.50889164 -0.20459779 -0.00000027
0.02210164 -0.11483086 -0.00000043
0.42131287 0.17703415 0.29236415
-0.19666044 0.66965365 -0.00000075
-0.61986077 -0.02447881 -0.00000019
-0.68247110 0.74741280 -0.00000015
-0.75126982 -0.01633850 -0.00000005
0.10372955 -0.46570778 -0.00000021
-0.53931379 -0.26509467 -0.00000023
0.04514668 0.75219554 0.00385098
0.35000798 -0.41673163 -0.00000024
0.41941920 -0.26859787 -0.00000033
-0.68294638 0.76835585 -0.00000015
-0.43403217 0.67736495 -0.00000046
0.33417976 0.27506733 0.27656052
-0.12062673 0.39903092 -0.00000075
-0.57824314 0.75209522 -0.00000028
-0.17988481 0.00993526 -0.00000051
-0.02134792 -0.58989477 -0.00000013
-0.10909322 0.58375299 -0.00000084
0.07165686 -0.66373402 -0.00000009
-0.11070040 0.73414004 -0.00000086
0.49971351 -0.08983615 -0.00000058
0.38379648 -0.47011971 -0.00000021
0.55568230 0.17367426 0.10242004
0.39008480 -0.20560130 -0.00000037
-0.03028278 -0.20084333 -0.00000037
-0.32700112 -0.30925649 -0.00000031
-0.53512114 -0.78200907 -0.00000001
-0.28084102 -0.75542027 -0.00000003
0.13911156 -0.42295781 -0.00000024
-0.32675365 0.23052374 -0.00000055
-0.18924783 0.76215076 -0.00000076
-0.44090369 -0.23884560 -0.00000034
-0.79550290 -0.58775014 0.00000000
0.35938889 0.40221471 0.05566663
-0.46825525 -0.40510395 -0.00000025
-0.09824818 0.67738229 -0.00000087
0.29545850 0.39240551 0.16257805
-0.62622917 -0.15241253 -0.00000016
-0.26748860 0.18441883 -0.00000060
-0.76738000 -0.52568746 0.00000000
-0.18122983 0.36451173 -0.00000073
-0.74822617 -0.46106148 0.00000000
-0.42350447 0.56458443 -0.00000047
0.22204129 -0.64979154 -0.00000009
-0.25142920 -0.67108065 -0.00000008
-0.17576545 0.10992119 -0.00000057
-0.64403844 -0.33721957 -0.00000010
0.64374989 -0.54415858 -0.00000025
-0.50541306 -0.63732833 -0.00000010
0.69233203 -0.39026362 -0.00000047
0.08404757 -0.33366457 -0.00000029
-0.00068448 0.22572483 -0.00000064
-0.00971690 -0.62579966 -0.00000011
0.72244155 -0.14275722 -0.00000076
-0.49289259 -0.21002743 -0.00000029
0.71582079 0.04056605 -0.00000095
-0.23385137 -0.40816692 -0.00000024
-0.06496164 -0.19195627 -0.00000038
0.13715056 0.05117859 -0.00000053
0.36226016 -0.67306411 -0.00000008
-0.58495003 0.78573889 -0.00000027
-0.78139639 0.56448162 -0.00000002
-0.50504601 -0.05543023 -0.00000030
0.02097891 0.75232953 0.03869624
0.66373748 -0.26428425 -0.00000057
-0.21559624 0.29390574 -0.00000068
0.64831007 0.14279905 0.01288803
0.20616448 0.55406249 0.05766255
0.48568812 -0.03865727 -0.00000062
-0.56303132 -0.02786728 -0.00000025
-0.15562083 -0.22426003 -0.00000036
-0.42730638 0.09152808 -0.00000041
-0.17271727 0.13968083 -0.00000059
-0.02954551 -0.59064716 -0.00000013
0.13459031 0.54518527 0.17430459
-0.42089456 0.10943443 -0.00000042
-0.27217665 -0.25443143 -0.00000034
0.06000956 0.70571488 0.04969193
0.01730921 0.10886624 -0.00000057
-0.26327664 -0.79398078 -0.00000000
-0.07928772 -0.35592636 -0.00000028
0.79449469 -0.03199699 -0.00000096
0.74320590 -0.77733231 -0.00000003
-0.17690729 0.50821722 -0.00000076
0.78974408 -0.25630006 -0.00000068
-0.18038499 0.10344201 -0.00000056
0.16591203 0.31316635 -0.00000070
-0.00517189 -0.09488942 -0.00000044
-0.18469030 -0.44130009 -0.00000022
-0.62878752 -0.05963908 -0.00000017
-0.01167459 -0.67570257 -0.00000008
0.23257735 -0.12503552 -0.00000042
0.45972192 -0.57063276 -0.00000014
-0.37156093 -0.73351926 -0.00000004
-0.15815583 0.42072052 -0.00000076
0.43110755 -0.44649038 -0.00000022
0.23995496 0.31869924 -0.00000074
0.09261099 -0.37672257 -0.00000026
0.28760797 -0.13247997 -0.00000042
-0.27554756 0.19565029 -0.00000060
0.25459614 -0.20159516 -0.00000037
-0.07404217 -0.39694548 -0.00000025
-0.07038895 0.20137905 -0.00000063
0.52268660 -0.64652193 -0.00000010
0.17090875 0.06128106 -0.00000054
0.37217987 0.28713134 0.20397533
0.55272979 -0.05955610 -0.00000067
0.12829499 -0.11535397 -0.00000043
-0.13049038 -0.64169133 -0.00000010
0.04954338 0.58553326 -0.00000087
0.27172238 -0.27697933 -0.00000033
-0.20361193 -0.00634766 -0.00000050
-0.25656176 0.77093625 -0.00000068
-0.72363704 0.33255002 -0.00000010
0.14194664 0.36129686 -0.00000073
-0.63155144 0.08894111 -0.00000020
-0.23892170 -0.02949262 -0.00000048
-0.13625105 -0.34916285 -0.00000028
-0.17410839 0.56488204 -0.00000077
-0.75588453 -0.27778816 0.00000000
-0.51150715 -0.29449239 -0.00000025
0.34975049 -0.74067330 -0.00000004
0.44210041 -0.65849519 -0.00000009
-0.08427389 0.15400881 -0.00000060
-0.13326894 -0.16806278 -0.00000039
0.05949650 -0.48972186 -0.00000019
0.26816773 -0.76359320 -0.00000002
0.60042197 0.09630114 -0.00000089
0.27124992 0.25178537 -0.00000070
-0.44057268 -0.76017416 -0.00000002
0.53343856 0.16835798 0.14237790
-0.55694145 0.71491754 -0.00000030
-0.12954001 0.33329034 -0.00000071
-0.74984282 0.41082290 -0.00000006
-0.56053948 0.03843614 -0.00000026
-0.55514789 -0.78471917 -0.00000001
-0.42489114 -0.68800324 -0.00000007
-0.11298229 0.12004490 -0.00000058
0.65332144 -0.65997297 -0.00000014
-0.17269090 -0.39341387 -0.00000025
0.76459098 -0.28381473 -0.00000065
0.16625738 0.48132858 0.22097459
-0.63925970 0.07863477 -0.00000019
-0.41682443 0.33934143 -0.00000047
0.48908716 -0.20574047 -0.00000045
-0.53714484 -0.52035284 -0.00000017
0.42843753 -0.19085547 -0.00000040
0.00940788 -0.79616380 -0.00000000
-0.18776675 0.40533212 -0.00000073
-0.43919182 0.48788929 -0.00000045
0.56558585 -0.37532163 -0.00000035
-0.34078369 0.27893183 -0.00000054
0.07990772 -0.71511585 -0.00000005
-0.58687013 0.24599257 -0.00000027
0.46793184 0.14040254 0.27788410
-0.48638493 -0.37214941 -0.00000027
-0.09266532 0.01121724 -0.00000051
-0.57869655 0.58735323 -0.00000028
-0.28789923 -0.46348667 -0.00000021
0.22992244 0.17974548 -0.00000061
-0.74371582 -0.35281587 0.00000000
0.43220529 -0.31224895 -0.00000030
0.33649480 -0.77017224 -0.00000002
0.26711330 0.27589512 0.37259594
-0.04886311 -0.70466578 -0.00000006
-0.30627650 0.21124953 -0.00000057
-0.49087763 0.39843738 -0.00000039
-0.73628306 0.48420182 -0.00000008
-0.26092982 0.21900780 -0.00000062
-0.62960988 0.01640483 -0.00000018
-0.17380176 0.43918043 -0.00000075
0.02675801 -0.14346121 -0.00000041
-0.61548650 0.49690163 -0.00000023
0.41641474 0.19602740 0.27192846
0.70050943 -0.69034433 -0.00000014
0.22058284 -0.29897815 -0.00000031
-0.39866769 0.35860190 -0.00000049
0.08292871 0.40575069 -0.00000075
-0.43891206 0.67850035 -0.00000045
-0.57850718 -0.29710540 -0.00000018
0.36829457 -0.79213661 -0.00000000
-0.44534951 0.46411046 -0.00000044
-0.21896251 -0.05489638 -0.00000047
-0.21597114 0.54617447 -0.00000072
0.11573199 -0.74248242 -0.00000004
0.09847231 0.61107141 0.13114528
0.57293975 -0.79304892 -0.00000000
-0.43598139 -0.04262060 -0.00000038
-0.76245368 0.11293414 -0.00000005
0.06143055 0.00195129 -0.00000050
-0.05804168 -0.76473385 -0.00000002
-0.35657701 -0.53256625 -0.00000017
-0.27056497 -0.16958916 -0.00000039
-0.62121612 0.44251105 -0.00000022
-0.49121910 -0.51302445 -0.00000018
0.15303448 0.09148914 -0.00000056
-0.51853627 -0.62030637 -0.00000011
0.46402276 0.25865689 0.11210054
-0.25375885 0.30542684 -0.00000064
-0.75114292 -0.77297157 0.00000000
-0.05292900 0.43385628 -0.00000077
0.38780716 0.30040237 0.16207705
-0.18208355 -0.61919427 -0.00000011
-0.65666056 -0.62968105 -0.00000004
-0.16029771 0.66402739 -0.00000080
0.07775586 0.27162740 -0.00000067
-0.17431031 -0.56044960 -0.00000015
-0.17252830 0.42560974 -0.00000075
0.60675812 -0.17913999 -0.00000060
-0.56970853 0.46297690 -0.00000029
0.46549767 0.27609327 0.08468196
0.40351838 0.39285675 0.00525307
-0.73385078 0.38155526 -0.00000008
-0.72164512 -0.65355903 0.00000000
0.18006697 -0.01381465 -0.00000049
0.26105464 0.44429696 0.13722362
-0.35062450 -0.70750481 -0.00000006
-0.21716556 0.52591348 -0.00000072
-0.79861546 0.38985589 -0.00000000
-0.12636366 -0.70847726 -0.00000006
-0.48037615 -0.66042143 -0.00000009
-0.10677439 0.34721470 -0.00000072
-0.47927523 0.67678845 -0.00000040
-0.29551056 0.35284317 -0.00000060
0.37383091 0.20178153 0.32532558
-0.35381281 -0.28932872 -0.00000032
0.44767806 0.17916141 0.25105450
-0.04366239 0.03455142 -0.00000052
0.42327046 0.14380655 -0.00000075
0.25828907 -0.01632191 -0.00000049
0.49557590 0.14408498 0.23246536
0.17451040 -0.51098579 -0.00000018
-0.18627337 -0.28720209 -0.00000032
-0.66533518 0.26004553 -0.00000017
-0.60786062 -0.58783090 -0.00000010
0.59180766 0.01641687 -0.00000080
0.59432161 -0.02026744 -0.00000076
0.34695446 0.37438816 0.11403900
-0.07915827 0.05023606 -0.00000053
0.26636121 -0.35947862 -0.00000028
-0.25813463 -0.03554415 -0.00000048
-0.48596293 -0.52036941 -0.00000017
-0.27444977 0.29314598 -0.00000061
-0.58758289 -0.60237753 -0.00000012
-0.21843328 -0.06844970 -0.00000046
0.28440627 0.25447005 0.37858686
0.31289119 0.30012721 0.27109262
0.07947827 0.65491778 0.09511327
-0.77409524 0.08709268 -0.00000003
0.74504334 -0.68446338 -0.00000014
-0.79903221 0.38205406 -0.00000000
-0.64640623 -0.66405594 -0.00000004
-0.74458444 -0.45746902 0.00000000
0.04716928 -0.16418774 -0.00000040
0.32077071 0.42405298 0.07999496
-0.12660575 0.15590920 -0.00000060
-0.18361457 0.19847690 -0.00000062
0.77353483 -0.35982239 -0.00000055
0.15210226 -0.71889234 -0.00000005
0.03340046 -0.44465178 -0.00000022
0.31289932 0.31982273 0.24252541
0.44944602 -0.06123047 -0.00000056
0.56270266 -0.77781278 -0.00000001
-0.57593495 -0.00333532 -0.00000024
0.45073262 -0.45784694 -0.00000021
-0.50759727 -0.19612382 -0.00000028
0.16112906 -0.74635166 -0.00000003
0.73075074 0.05167466 0.02547810
-0.22936869 -0.36670768 -0.00000027
0.42860290 0.34565160 0.03732470
-0.62907225 -0.59641129 -0.00000007
0.68454528 -0.50970089 -0.00000033
0.16146231 0.36327159 -0.00000073
0.48637691 0.28675064 0.03895861
0.27686071 0.43565765 0.12683292
0.38777405 0.32274833 0.12972675
-0.27021652 -0.36699307 -0.00000027
0.73779881 -0.15955071 -0.00000076
-0.57729846 0.32547572 -0.00000028
0.74463433 -0.17311797 -0.00000076
0.30441555 0.45190993 0.06331909
-0.29175434 -0.46948436 -0.00000021
0.09005017 0.00274239 -0.00000050
-0.55159611 0.31598088 -0.00000031
-0.70008940 0.79713428 -0.00000012
-0.25479057 -0.11678593 -0.00000043
0.51340401 -0.35679755 -0.00000031
-0.25667667 0.47427493 -0.00000067
0.19521438 0.07810969 -0.00000055
-0.34344861 0.47208539 -0.00000057
0.37292427 0.25366032 0.25142393
-0.15522459 0.03804529 -0.00000052
-0.53906548 0.71693802 -0.00000033
-0.23759012 0.42870605 -0.00000068
-0.61699235 -0.77777827 -0.00000001
-0.45107698 0.21355671 -0.00000041
0.42855915 -0.22034854 -0.00000037
-0.44631457 0.18848822 -0.00000041
-0.64091986 0.62147981 -0.00000020
-0.00887923 -0.59088534 -0.00000013
-0.13551012 0.59425688 -0.00000082
0.14277454 0.35973766 -0.00000072
0.50023276 -0.56910497 -0.00000014
-0.68542629 0.65872186 -0.00000014
0.41570476 0.13141650 -0.00000073
-0.46702191 0.02477948 -0.00000036
0.79870617 -0.62781453 -0.00000022
0.52032602 -0.70350885 -0.00000006
0.44765079 -0.33649385 -0.00000029
-0.15217286 0.78590828 -0.00000081
0.45678291 0.15459815 0.27346691
0.49587271 -0.23019613 -0.00000043
0.18305290 -0.58030999 -0.00000014
0.27287036 -0.08313456 -0.00000045
-0.37085021 0.59514368 -0.00000054
0.63129413 -0.33983481 -0.00000046
-0.17899270 0.56835693 -0.00000077
0.61323512 0.04313316 -0.00000085
-0.40668845 0.46146065 -0.00000049
-0.25782070 -0.16795498 -0.00000040
0.49974078 -0.74744833 -0.00000003
-0.11277326 -0.49432233 -0.00000019
-0.66673398 -0.54884291 -0.00000004
-0.71765667 -0.46938232 -0.00000000
0.14209060 0.44880334 0.30316901
-0.49096662 0.27950928 -0.00000038
-0.08415634 -0.54984248 -0.00000016
-0.42184779 -0.31487527 -0.00000030
-0.75586826 -0.54905170 0.00000000
-0.26528722 -0.35649681 -0.00000028
0.12733832 0.59307957 0.11537957
0.24438787 -0.78761864 -0.00000001
0.20921443 0.39609170 0.28227383
-0.17526026 -0.25696200 -0.00000034
-0.02211843 -0.32573217 -0.00000030
-0.44266325 0.36034870 -0.00000045
0.40271145 -0.78818816 -0.00000001
-0.14148346 -0.60864186 -0.00000012
-0.73261362 0.45006195 -0.00000008
-0.05376943 -0.16757777 -0.00000040
0.10280264 0.12268349 -0.00000058
0.11466049 -0.36551109 -0.00000027
-0.39160302 0.38039711 -0.00000051
-0.37810487 -0.54886800 -0.00000016
0.19956875 -0.27054030 -0.00000033
0.07812545 -0.36000291 -0.00000027
-0.30885869 0.23563597 -0.00000057
-0.65505767 0.52770174 -0.00000018
-0.14167282 -0.27278855 -0.00000033
0.14568944 0.15549468 -0.00000060
-0.60681540 0.02919552 -0.00000021
-0.10777710 -0.60894930 -0.00000012
-0.27894089 0.52758193 -0.00000065
-0.51352406 0.35308373 -0.00000036
0.43038428 -0.44220364 -0.00000022
-0.35658595 0.32951123 -0.00000053
-0.78542119 -0.24701954 0.00000000
0.35527608 -0.45625135 -0.00000021
-0.00168315 -0.22997186 -0.00000036
-0.32877964 -0.74745971 -0.00000003
-0.49044377 -0.56418282 -0.00000015
-0.34335333 -0.26692533 -0.00000033
-0.72716773 0.79647368 -0.00000009
-0.58149046 -0.57700348 -0.00000013
0.63445127 0.12646580 0.05666199
0.25679889 0.44876584 0.13691466
-0.23739722 -0.42851922 -0.00000023
-0.22966576 -0.55982572 -0.00000015
0.29273933 0.38828316 0.17249720
-0.20013583 -0.21988522 -0.00000036
-0.47376913 -0.50847298 -0.00000018
0.22705179 -0.16738841 -0.00000040
-0.78716266 0.38652790 -0.00000002
-0.69014400 0.00577232 -0.00000012
0.16994137 -0.40223023 -0.00000025
-0.32907003 -0.37846330 -0.00000026
0.39623910 -0.38552994 -0.00000026
0.76100445 -0.46134961 -0.00000042
0.08561686 -0.28301790 -0.00000032
-0.54717976 -0.75814021 -0.00000003
-0.32029337 -0.29277071 -0.00000032
0.17510737 -0.62247914 -0.00000011
-0.13371728 -0.03991048 -0.00000048
-0.21379310 0.10874863 -0.00000057
0.71109527 -0.54166967 -0.00000032
-0.68670952 -0.04398990 -0.00000011
-0.29661691 -0.22289112 -0.00000036
0.15650842 0.07443651 -0.00000055
0.34044409 -0.61047822 -0.00000012
-0.78136736 0.45472509 -0.00000002
-0.52657795 -0.20868105 -0.00000025
0.24378599 0.49745297 0.08519232
-0.04335278 0.18939185 -0.00000062
0.00024292 -0.26277649 -0.00000034
0.15060273 -0.30926546 -0.00000031
0.27714363 0.40600410 0.16941592
-0.56800944 0.75116462 -0.00000029
0.32948732 -0.23789299 -0.00000035
-0.11308807 0.52234942 -0.00000083
0.31804079 0.42547405 0.08189262
0.21637571 0.31056726 0.39588815
0.75524819 -0.29760882 -0.00000063
-0.63549566 -0.61262810 -0.00000006
0.72757310 -0.09703872 -0.00000082
0.19957747 -0.31748089 -0.00000030
-0.04894204 -0.23009726 -0.00000036
-0.46223751 -0.31426674 -0.00000030
-0.16880652 0.03132994 -0.00000052
-0.30190349 0.79764813 -0.00000062
0.12499210 0.50797391 0.24217109
0.23344678 -0.44924456 -0.00000022
-0.15431914 -0.23474868 -0.00000035
-0.17631526 -0.08714838 -0.00000045
-0.32676819 0.23712844 -0.00000055
-0.40573698 0.51683265 -0.00000049
0.71303302 -0.37243140 -0.00000051
0.00444820 -0.65402877 -0.00000009
-0.36580721 0.50587553 -0.00000054
0.35569745 0.02284464 -0.00000055
-0.32905957 -0.59519953 -0.00000013
-0.40954325 0.59718150 -0.00000049
0.49771515 -0.70470273 -0.00000006
0.76782691 0.01529975 -0.00000098
0.06180187 0.10122697 -0.00000056
-0.75178826 0.34375268 -0.00000006
-0.41162902 0.10690209 -0.00000043
0.09359272 -0.78083551 -0.00000001
0.63142520 -0.47416693 -0.00000031
0.70244426 -0.33290851 -0.00000054
0.23264286 0.48307553 0.12219331
0.29449964 0.47675788 0.04166988
0.35128105 0.24492158 0.29547295
0.65458077 -0.56980920 -0.00000024
-0.33648521 -0.02573403 -0.00000048
-0.29779828 0.45531854 -0.00000062
0.03587775 0.06614173 -0.00000054
0.17675237 -0.04555147 -0.00000047
-0.52215582 0.18097843 -0.00000033
-0.03490084 0.51482284 -0.00000082
0.41692242 -0.25416112 -0.00000034
-0.06370635 -0.52080750 -0.00000017
-0.57438082 0.50047153 -0.00000028
0.34198010 -0.79940236 -0.00000000
0.24513058 -0.14734741 -0.00000041
-0.10904932 -0.66841489 -0.00000008
-0.10676732 -0.78867304 -0.00000001
0.47931293 -0.09909613 -0.00000055
0.20053869 0.51149648 0.12753345
-0.59709340 0.01935381 -0.00000022
-0.55668390 0.56856591 -0.00000030
-0.03823584 -0.53251606 -0.00000017
-0.65974361 0.16414431 -0.00000018
0.05306212 0.30838156 -0.00000069
0.47177741 -0.75376898 -0.00000003
0.21233119 0.33497652 0.36636245
-0.79031628 -0.69245368 0.00000000
-0.26220870 -0.14219733 -0.00000041
0.13321586 -0.15078162 -0.00000041
-0.06238084 -0.28828231 -0.00000032
-0.75297713 0.22617182 -0.00000006
-0.70755106 -0.54869866 0.00000000
-0.70844936 -0.27475971 -0.00000005
-0.66494870 -0.67279774 -0.00000002
-0.68904775 -0.67685312 0.00000000
0.29835832 -0.10072594 -0.00000044
-0.44045019 0.20268479 -0.00000042
0.38147607 -0.33862931 -0.00000029
0.73111796 0.04564321 0.03369039
-0.08818254 0.25535813 -0.00000066
0.09839733 -0.36636430 -0.00000027
-0.64194542 -0.27124363 -0.00000012
-0.31475565 0.59445614 -0.00000061
0.19684803 -0.17027192 -0.00000039
-0.61508811 0.01939409 -0.00000020
-0.37813094 -0.13651647 -0.00000041
0.36241293 -0.63149214 -0.00000011
0.68133700 -0.33134919 -0.00000052
-0.38644642 0.69004261 -0.00000052
0.12995790 0.34727731 -0.00000072
-0.16428350 -0.57140839 -0.00000014
-0.59766853 -0.09829689 -0.00000020
0.03980329 0.04903136 -0.00000053
-0.35514459 -0.67843300 -0.00000008
0.38384268 0.03138883 -0.00000059
0.49604014 -0.70458204 -0.00000006
0.68170029 -0.71225601 -0.00000011
0.79262447 -0.37571657 -0.00000053
0.19964179 0.59350199 0.00993809
0.25599316 -0.44725871 -0.00000022
0.16665393 -0.76067108 -0.00000002
-0.30014569 0.29841202 -0.00000059
-0.36186984 -0.31741282 -0.00000030
0.47957933 -0.21452710 -0.00000043
-0.03369817 0.45832711 -0.00000079
0.60226667 -0.42705339 -0.00000033
-0.46598798 -0.67416590 -0.00000008
-0.62191868 0.34176093 -0.00000022
-0.64798075 -0.50077939 -0.00000007
-0.51509845 0.07664664 -0.00000032
0.32669917 -0.04249644 -0.00000047
0.12623499 0.47488949 -0.00000080
-0.13939761 0.10224994 -0.00000056
0.63826847 -0.27034831 -0.00000054
-0.12001528 -0.36177844 -0.00000027
0.41782358 0.08259170 -0.00000068
-0.76924658 0.43778604 -0.00000004
-0.04611971 -0.35900548 -0.00000028
0.54416096 0.15473145 0.14658849
-0.36205509 -0.03084152 -0.00000046
-0.41061887 0.61756694 -0.00000049
0.37480074 0.23464011 0.27627972
0.23792616 -0.73692101 -0.00000004
-0.40591407 0.73695219 -0.00000049
-0.22080718 0.73081762 -0.00000072
-0.48908806 -0.34797060 -0.00000027
0.53377557 -0.01546053 -0.00000070
-0.46078080 0.71130401 -0.00000042
-0.68652368 0.09317589 -0.00000014
0.55472648 0.18597190 0.08597605
0.00795014 0.63583869 -0.00000090
-0.36582860 0.31776270 -0.00000052
0.45495999 -0.56293827 -0.00000015
-0.50616848 0.24023089 -0.00000036
-0.09866963 0.75313091 -0.00000088
-0.20045732 -0.56199211 -0.00000015
0.35131508 0.31930494 0.18757918
-0.76793420 -0.63512504 0.00000000
-0.40618047 0.16562669 -0.00000045
-0.58075231 -0.21216789 -0.00000020
0.27828220 -0.52273589 -0.00000017
-0.43988487 -0.60044956 -0.00000012
-0.34231094 0.36582059 -0.00000056
-0.79293835 -0.51512915 0.00000000
-0.20886917 0.51936609 -0.00000073
0.53989828 -0.21378119 -0.00000049
0.10671812 0.19336514 -0.00000062
0.28471258 0.26575732 0.36177802
0.16356833 -0.78529692 -0.00000001
-0.50769854 -0.57282668 -0.00000014
-0.50142467 0.37569073 -0.00000037
0.41200563 0.12069208 -0.00000071
-0.17290090 -0.56931669 -0.00000014
0.23677000 0.26026994 0.43924290
-0.07937818 -0.39837334 -0.00000025
-0.31535426 0.60906398 -0.00000061
-0.19243777 -0.23206159 -0.00000035
0.17613833 -0.01653785 -0.00000049
0.11469406 0.21268788 -0.00000063
-0.33487207 0.05505200 -0.00000051
-0.14120013 0.04838780 -0.00000053
-0.60667688 0.15316527 -0.00000023
-0.06458182 0.68837887 -0.00000091
-0.66623747 -0.63856924 -0.00000003
0.24612951 0.29977140 -0.00000073
-0.53360820 -0.46438602 -0.00000020
-0.18581226 -0.43390715 -0.00000023
0.19609939 0.30510232 0.43320888
-0.71394700 -0.14173152 -0.00000007
-0.02040429 0.44571942 -0.00000078
-0.01582252 0.06030142 -0.00000054
0.41397116 -0.44776091 -0.00000022
-0.17740476 -0.63760239 -0.00000010
-0.27368239 -0.69377905 -0.00000007
-0.65659636 -0.42300841 -0.00000008
0.44152352 -0.40382600 -0.00000025
-0.13207063 -0.68332785 -0.00000007
0.70447904 -0.53928363 -0.00000032
-0.09306869 -0.16724601 -0.00000040
-0.68407005 0.08143644 -0.00000014
0.34436625 -0.79391921 -0.00000000
0.40591311 -0.75506723 -0.00000003
-0.14111082 -0.05645311 -0.00000046
-0.20625722 -0.78670532 -0.00000001
-0.46898040 -0.42743143 -0.00000023
-0.52515131 -0.11091041 -0.00000027
0.39761686 -0.72917587 -0.00000004
0.27075511 0.42912593 0.14515512
0.66066664 0.00597801 -0.00000086
0.24004638 0.39510980 0.23899603
-0.28427020 0.40434104 -0.00000062
-0.37357214 -0.49630615 -0.00000019
-0.59536207 0.64536363 -0.00000026
-0.49085793 0.42231512 -0.00000039
-0.68463981 -0.01349928 -0.00000012
0.11786328 0.42817768 -0.00000077
-0.00370100 0.22853822 -0.00000064
-0.65667003 -0.69638771 -0.00000003
-0.28534576 0.06403158 -0.00000054
0.48411322 -0.20398714 -0.00000045
0.05798592 -0.59347457 -0.00000013
-0.48351678 0.08020781 -0.00000035
-0.24872921 -0.66472059 -0.00000008
-0.61696178 0.74445468 -0.00000023
0.25515559 -0.01599113 -0.00000049
0.49832129 0.15517606 0.21240456
0.14314036 0.20848615 -0.00000063
-0.03024649 -0.77540135 -0.00000002
0.26309597 0.27368659 0.38162243
-0.47910672 -0.15445061 -0.00000031
0.49992630 -0.61945218 -0.00000011
0.47285965 0.23185158 0.13815206
0.52160460 -0.41682824 -0.00000026
0.49499261 -0.52972895 -0.00000017
0.18634813 -0.61273992 -0.00000012
-0.44337380 -0.48390394 -0.00000020
0.56859994 0.10400181 -0.00000086
0.01266333 0.36917454 -0.00000073
0.15263717 -0.47495186 -0.00000020
-0.46488926 0.28075403 -0.00000041
0.39703527 -0.24011065 -0.00000035
0.67986846 0.04160455 -0.00000092
0.23069873 0.44716752 0.17707311
-0.21442249 0.21486066 -0.00000063
-0.05253575 -0.38947591 -0.00000026
-0.60094112 -0.69802183 -0.00000006
-0.03074154 0.61926097 -0.00000089
0.74333733 -0.40013921 -0.00000050
0.55623251 -0.08212159 -0.00000065
-0.10536929 0.64875907 -0.00000086
-0.32922745 0.40451354 -0.00000058
0.21086077 0.53618008 0.07678043
-0.79466873 -0.06151274 0.00000000
-0.00910856 0.11794103 -0.00000057
-0.58555406 0.19318153 -0.00000026
0.13311633 0.53876698 -0.00000086
0.03743728 0.45502639 -0.00000078
-0.36746883 -0.35570660 -0.00000028
0.54420751 -0.40423790 -0.00000030
-0.62296104 0.16300090 -0.00000022
0.39868793 0.34132975 0.08696298
-0.63540429 0.74826711 -0.00000021
-0.35737878 -0.15087977 -0.00000041
-0.66751462 0.56487262 -0.00000017
0.18118484 -0.24611583 -0.00000035
0.07301453 -0.08205424 -0.00000045
-0.45503432 0.77254599 -0.00000043
-0.62383693 0.49511027 -0.00000022
0.62924397 -0.13122638 -0.00000068
-0.10711462 -0.42453125 -0.00000023
-0.47934601 -0.75001544 -0.00000003
0.22814646 0.33498862 0.34341532
-0.37099922 0.71624738 -0.00000054
0.09280650 0.52315497 -0.00000083
-0.49416471 0.02575658 -0.00000033
-0.56207502 -0.00834741 -0.00000025
-0.79493129 -0.73536474 0.00000000
-0.75190616 -0.27298689 -0.00000000
0.26951674 0.27906218 0.36451960
-0.04473085 0.34418318 -0.00000072
0.27660635 -0.71124268 -0.00000006
-0.20366414 -0.34643930 -0.00000028
0.43500581 0.14745453 0.31539744
0.20804878 0.30896404 0.41028526
0.18497847 -0.70225817 -0.00000006
-0.73151004 -0.56496847 0.00000000
-0.74463266 0.54677528 -0.00000007
-0.64725471 -0.56218737 -0.00000006
0.51119483 0.25266582 0.05239421
0.18303858 0.45755169 0.23111729
-0.08337485 -0.29025126 -0.00000032
0.77242547 -0.18084663 -0.00000077
0.41970435 0.29680222 0.12105061
-0.64185524 -0.45451513 -0.00000009
-0.27195114 -0.26593196 -0.00000033
0.33154771 0.21963702 0.36074176
-0.28778616 0.40774569 -0.00000062
0.16447319 -0.44712916 -0.00000022
-0.04126545 -0.03182057 -0.00000048
-0.63175297 -0.39107862 -0.00000011
-0.60171258 -0.20463863 -0.00000017
0.12240357 -0.46359909 -0.00000021
-0.33153743 0.23902602 -0.00000054
0.08224717 -0.76257199 -0.00000002
0.40359303 -0.17852990 -0.00000039
-0.39514914 -0.10742620 -0.00000041
0.31140289 0.35985702 0.18665148
0.68712848 0.09358263 0.02796359
-0.37222794 -0.68230802 -0.00000007
0.03208701 0.18257976 -0.00000061
0.32597128 -0.48227775 -0.00000020
-0.40761006 -0.46943495 -0.00000021
-0.06525815 -0.33610350 -0.00000029
0.13283202 0.18541054 -0.00000062
0.11528286 0.50757182 0.25683087
-0.60790366 0.27291760 -0.00000024
-0.24848555 0.46793312 -0.00000067
-0.07979233 -0.30678615 -0.00000031
-0.16364434 -0.42500716 -0.00000023
0.47562268 0.23709059 0.12655029
0.61878657 -0.43734273 -0.00000034
0.13584496 0.26191831 -0.00000066
-0.33774278 -0.23992425 -0.00000035
0.42212918 -0.73852259 -0.00000004
0.29546878 -0.33632302 -0.00000029
0.64638114 0.09537341 0.08444479
0.17809911 0.19197936 -0.00000062
0.66237152 -0.44824189 -0.00000037
-0.03527248 0.39828947 -0.00000075
0.31024516 0.46529335 0.03546309
0.33538771 0.18293525 0.40838620
-0.06565253 -0.57575470 -0.00000014
0.22048526 -0.57318854 -0.00000014
-0.69204342 0.61502993 -0.00000013
0.40396279 -0.04847308 -0.00000053
-0.59096783 -0.38566658 -0.00000015
0.40609455 -0.46430731 -0.00000021
0.07752370 0.65412909 0.09909056
0.16284192 0.25861257 -0.00000066
0.62829226 -0.30567506 -0.00000049
0.23999074 0.43701851 0.17831568
-0.27658352 0.12030059 -0.00000058
-0.39722705 -0.57573771 -0.00000014
-0.69830579 -0.60321194 0.00000000
0.31045824 -0.07413883 -0.00000045
-0.13658065 0.08182199 -0.00000055
-0.15707660 -0.32045314 -0.00000030
0.06031452 0.48128185 -0.00000080
-0.08680484 0.64726448 -0.00000088
-0.70695007 0.17236669 -0.00000012
-0.14649151 -0.36029851 -0.00000027
-0.26880419 0.57748586 -0.00000066
-0.73975974 -0.27139774 -0.00000001
0.18826735 -0.31746796 -0.00000030
0.38610706 0.37107316 0.06207988
-0.10564975 -0.68880081 -0.00000007
-0.42471379 0.09841886 -0.00000042
0.18966639 0.50994164 0.14555086
-0.23220234 -0.54593134 -0.00000016
-0.53358674 0.47393900 -0.00000033
-0.73205280 0.00327778 -0.00000007
-0.00914830 -0.26915175 -0.00000033
0.68988204 -0.32102659 -0.00000054
0.76961595 -0.26317358 -0.00000067
-0.20017660 -0.62477517 -0.00000011
0.08492114 -0.21991660 -0.00000036
0.77485001 0.01356693 0.01679124
0.15844193 -0.24287181 -0.00000035
-0.32085130 -0.25413233 -0.00000034
0.23132965 0.41216072 0.22691277
0.04902132 0.15276226 -0.00000060
-0.09509460 0.35069448 -0.00000072
-0.23345618 -0.47853971 -0.00000020
-0.48035473 -0.41665867 -0.00000024
-0.61204714 -0.05326249 -0.00000019
0.27053368 -0.71775061 -0.00000005
-0.20339067 0.33702043 -0.00000070
0.53372711 0.13713343 0.18723045
-0.39735201 -0.16399226 -0.00000040
0.35120282 0.20088539 0.35943195
0.44992495 -0.47541499 -0.00000020
-0.79531455 -0.09573392 0.00000000
0.30626884 0.44799775 0.06630418
-0.75834268 0.73594838 -0.00000005
0.73457801 -0.31063196 -0.00000060
-0.77070111 0.39653534 -0.00000004
0.35897213 0.21837687 0.32280779
-0.13428722 -0.73043036 -0.00000004
0.24201304 -0.60946655 -0.00000012
-0.55102021 -0.06988550 -0.00000025
-0.05822378 -0.28083557 -0.00000032
-0.09977666 0.60745645 -0.00000086
0.66789651 -0.54528207 -0.00000028
-0.05943151 -0.58361149 -0.00000014
0.32841352 0.12619966 -0.00000063
-0.08355180 0.40306482 -0.00000075
0.68962878 0.05372503 -0.00000094
0.33107606 0.39967728 0.10039488
-0.25139591 -0.32450438 -0.00000030
-0.44658348 0.67035586 -0.00000044
-0.40930203 -0.58046478 -0.00000014
0.43437281 -0.76144183 -0.00000002
-0.16849294 0.67269498 -0.00000079
-0.19711700 -0.26022533 -0.00000034
-0.65667605 -0.54813647 -0.00000005
-0.47016424 -0.60933173 -0.00000012
-0.21523763 -0.38445482 -0.00000026
-0.19721998 -0.42684662 -0.00000023
0.32026726 0.18327892 -0.00000068
-0.04829101 0.43784916 -0.00000077
-0.38299802 -0.04600597 -0.00000044
-0.40638992 0.78757405 -0.00000049
-0.44398949 -0.20373924 -0.00000034
0.22223851 -0.48778126 -0.00000020
-0.18153973 0.62288469 -0.00000077
0.51419616 -0.53506643 -0.00000017
-0.59449929 0.38093388 -0.00000026
-0.58256924 0.76553512 -0.00000027
0.38652778 0.40189809 0.01677831
0.78046584 -0.31937876 -0.00000060
-0.76551694 -0.28914940 0.00000000
0.20645724 -0.54607379 -0.00000016
-0.01857533 0.00508855 -0.00000050
0.06302967 0.38216844 -0.00000074
-0.55303031 0.11032836 -0.00000028
0.42946589 -0.69064289 -0.00000007
0.24184552 -0.71328652 -0.00000005
-0.46899626 -0.46240637 -0.00000021
-0.32667002 -0.25982985 -0.00000034
-0.32013756 0.10570348 -0.00000053
0.15341309 0.61783308 0.04168633
-0.03677218 0.32581690 -0.00000070
-0.78582507 0.46937823 -0.00000002
0.65512288 -0.51060450 -0.00000030
0.25242758 -0.16976285 -0.00000039
0.00988357 -0.28007364 -0.00000032
0.30283523 0.36506128 0.19152792
-0.46826667 0.05852400 -0.00000036
0.65903044 -0.54332405 -0.00000027
0.21972118 0.52888381 0.07451262
-0.28083330 0.53117412 -0.00000065
-0.10853966 0.51554525 -0.00000082
0.58845299 -0.00936002 -0.00000076
0.27364290 -0.30467898 -0.00000031
0.28325292 -0.39944202 -0.00000025
-0.52383655 0.04665009 -0.00000030
-0.06915208 -0.19533396 -0.00000038
0.56026375 -0.32987106 -0.00000039
-0.64764339 -0.51120812 -0.00000007
-0.11048795 0.02485295 -0.00000052
0.22032256 -0.42111260 -0.00000024
0.31932884 -0.10303607 -0.00000044
-0.67096210 -0.69033158 -0.00000001
0.38190886 -0.10684949 -0.00000044
0.05534183 -0.26080984 -0.00000034
0.51362091 0.24368127 0.06190303
0.38838810 0.15841210 -0.00000073
-0.02197512 0.24003151 -0.00000065
0.33222821 -0.48358741 -0.00000020
0.09135783 -0.31258580 -0.00000030
0.42546707 -0.56911981 -0.00000014
0.19407770 -0.12110614 -0.00000042
-0.69317234 -0.06484683 -0.00000010
-0.29027084 -0.42133084 -0.00000024
-0.50618011 0.20091672 -0.00000035
0.19451976 0.48793045 0.17042698
-0.50918341 -0.53789884 -0.00000016
0.45302579 0.26656690 0.11657616
0.49822801 0.22227968 0.11524957
0.05107749 -0.16449468 -0.00000040
-0.45737812 -0.49377742 -0.00000019
-0.40738541 -0.73779070 -0.00000004
0.42466092 0.34486547 0.04417975
0.45732859 -0.66155738 -0.00000009
0.15057290 0.41699931 -0.00000076
-0.53557587 -0.27895418 -0.00000023
-0.51552731 0.44324356 -0.00000036
0.02391017 -0.71066618 -0.00000006
0.23696873 0.04564068 -0.00000053
-0.76989901 0.18390527 -0.00000004
0.17525972 -0.01802620 -0.00000049
-0.08789125 -0.56005132 -0.00000015
-0.69602329 -0.78903025 0.00000000
-0.56434834 0.45503098 -0.00000029
-0.10517099 -0.35079485 -0.00000028
0.43682504 -0.48154697 -0.00000020
0.37637135 -0.32399598 -0.00000030
0.43374899 0.29356414 0.10538268
-0.37245807 -0.10597577 -0.00000043
-0.47059208 -0.62934595 -0.00000011
0.59920478 -0.43457487 -0.00000032
-0.46292782 0.22880103 -0.00000040
-0.17693672 0.07063145 -0.00000054
0.69926971 -0.20243874 -0.00000068
-0.46487308 0.09445082 -0.00000037
-0.54864448 0.62234831 -0.00000031
0.28026059 0.22231527 0.43121687
-0.57141143 -0.55218148 -0.00000014
-0.72325182 -0.29568008 -0.00000003
-0.23352110 0.55761856 -0.00000071
-0.39038789 -0.38200477 -0.00000026
-0.14721762 -0.62431973 -0.00000011
-0.68608201 -0.74063116 0.00000000
-0.04319592 -0.69627810 -0.00000006
0.47021592 0.23361455 0.13942905
0.07473327 0.00592699 -0.00000050
0.32849097 0.36004135 0.16160905
0.33416069 -0.24562240 -0.00000035
