ply
format ascii 1.0
element vertex 1091
property float x
property float y
property float z
end_header
-0.58550781 -0.73808557 0.16790189
-0.35720488 0.11940870 0.10243357
-0.42120564 0.29929990 0.12078737
-0.65276045 -0.50255746 0.18718818
-0.17636774 -0.70909876 0.05057571
-0.32247192 -0.35882062 0.09247296
-0.47565973 0.08925541 0.13640262
-0.64432305 -0.72779775 0.18476811
-0.20263004 -0.53141588 0.05810677
-0.60239184 -0.69806802 0.17274362
-0.29386005 0.40859100 0.08426891
-0.14925276 0.41677040 0.04280014
-0.76559317 -0.45053339 0.21954489
-0.26598990 -0.01470322 0.07627602
-0.47420600 -0.69486988 0.13598466
-0.21691146 -0.56823087 0.06220215
-0.57115388 -0.71301836 0.16378571
-0.40851298 -0.23749395 0.11714634
-0.13317582 0.57206553 0.03819011
-0.65964717 -0.30604813 0.18916351
-0.60510194 0.08637001 0.17352255
-0.60183823 -0.28158981 0.17258580
-0.27680904 -0.71180397 0.07937854
-0.61978781 -0.04428100 0.17773370
-0.58802563 -0.53102839 0.16862422
-0.25473830 -0.00599451 0.07304948
-0.20478611 -0.41300797 0.05872504
-0.40901548 -0.00738351 0.11729093
-0.51137358 0.26619625 0.14664458
-0.36171255 -0.01293750 0.10372593
-0.09509979 0.20229258 0.02727109
-0.12534331 0.64580739 0.03594416
-0.03502660 -0.09931874 0.01004433
-0.00192860 0.27953470 0.00055305
-0.41808039 0.18682881 0.11989090
-0.38394949 0.05394716 0.11010293
-0.26190099 0.36747015 0.07510398
-0.35975951 -0.51524103 0.10316565
-0.33457616 0.08836172 0.09594430
-0.49024478 -0.04355574 0.14058484
-0.63562346 -0.75954187 0.18227327
-0.06712970 -0.75578010 0.01925030
-0.19034433 0.35596097 0.05458376
-0.12826951 -0.75213289 0.03678293
-0.18857437 -0.77446634 0.05407612
-0.03655863 -0.48408476 0.01048366
-0.68213999 -0.04302775 0.19561432
-0.60775471 0.13226838 0.17428337
-0.24032959 0.54835451 0.06891836
-0.15469781 -0.35046065 0.04436158
-0.17213778 0.32421944 0.04936272
-0.05517258 -0.58898097 0.01582144
-0.59145331 -0.18766877 0.16960794
-0.04510165 -0.00581075 0.01293348
-0.05320162 0.66890967 0.01525625
-0.71502382 -0.42837098 0.20504346
-0.11622300 0.58324063 0.03332861
-0.34746340 -0.25353631 0.09963959
-0.27189821 0.06109312 0.07797030
-0.48061892 0.18154837 0.13782495
-0.61552429 -0.49655816 0.17651007
-0.43310001 -0.78254366 0.12419699
-0.23026922 0.51161939 0.06603330
-0.24695575 -0.22252069 0.07081773
-0.03561230 0.49295139 0.01021229
-0.32183123 -0.34113777 0.09228923
-0.17667881 0.57363325 0.05066540
-0.17878237 0.17558624 0.05126814
-0.20091920 0.01859887 0.05761616
-0.03902329 0.20588152 0.01119043
-0.07834146 0.19237459 0.02246542
-0.52459323 0.18298794 0.15043540
-0.76414138 -0.60867751 0.21912812
-0.52775192 -0.79004282 0.15133964
-0.20159279 -0.17653763 0.05780932
-0.23868705 -0.53397763 0.06844658
-0.11306161 0.67103863 0.03242221
-0.01442321 -0.41525865 0.00413604
-0.11565088 -0.71919894 0.03316438
-0.24061085 -0.22477260 0.06899825
-0.54941475 -0.23946577 0.15755250
-0.74528027 -0.14187990 0.21372077
-0.15469261 -0.35885394 0.04436009
-0.14250532 -0.70584095 0.04086523
-0.44300455 0.23395874 0.12703846
-0.10557913 -0.70392638 0.03027617
-0.31868017 -0.46305561 0.09138563
-0.57264411 -0.68750596 0.16421305
-0.69877583 -0.23773839 0.20038453
-0.16924708 -0.36522910 0.04853377
-0.61646849 -0.15696266 0.17678156
-0.48464349 0.03366283 0.13897875
-0.67164361 -0.03515685 0.19260433
-0.38270921 -0.23347679 0.10974678
-0.43563193 -0.56481624 0.12492305
-0.14725167 0.54690945 0.04222657
-0.24128425 -0.22970586 0.06919136
-0.34773538 -0.56008261 0.09971759
-0.45573241 -0.59021556 0.13068712
-0.15634438 0.09865094 0.04483376
-0.57400531 -0.61209297 0.16460346
-0.30116534 -0.30553511 0.08636303
-0.54222888 0.05339241 0.15549245
-0.15389755 -0.73814249 0.04413210
-0.32973239 -0.79541779 0.09455500
-0.42495438 -0.56708592 0.12186112
-0.38603291 -0.51698864 0.11069989
-0.66820955 -0.01951966 0.19161958
-0.03635182 -0.21291114 0.01042435
-0.51845115 -0.79300010 0.14867252
-0.23664038 0.16331615 0.06785967
-0.29386422 -0.09429573 0.08426933
-0.61994171 -0.41887179 0.17777701
-0.21949922 0.52133071 0.06294482
-0.18432261 -0.59301603 0.05285687
-0.01757470 0.02646299 0.00503977
-0.14974970 0.48756617 0.04294279
-0.02667729 0.09394104 0.00765005
-0.65041822 -0.76236153 0.18651590
-0.48590961 -0.58666211 0.13934082
-0.10747076 0.64318401 0.03081887
-0.53592402 -0.76045972 0.15368310
-0.08485646 -0.18834192 0.02433368
-0.03188883 0.68796819 0.00914453
-0.11027461 0.01401893 0.03162266
-0.35812986 0.20771746 0.10269902
-0.71097702 -0.30792224 0.20388329
-0.64008296 -0.61487788 0.18355243
-0.04695939 0.38883978 0.01346621
-0.16192137 0.06988202 0.04643303
-0.64934438 -0.78217494 0.18620791
-0.26963258 -0.75033194 0.07732060
-0.76861835 -0.72855800 0.22041161
-0.04122415 0.06133422 0.01182155
-0.02071979 -0.38343310 0.00594167
-0.37242875 0.38239539 0.10679988
-0.02905208 0.08347698 0.00833106
-0.34335443 -0.54601198 0.09846129
-0.07215747 -0.43935061 0.02069208
-0.22774354 0.00972659 0.06530838
-0.18927789 -0.79266745 0.05427786
-0.54772776 -0.49650547 0.15706815
-0.04956030 0.27812824 0.01421205
-0.58325261 0.19086242 0.16725709
-0.05900923 0.07163914 0.01692165
-0.03168088 -0.55575323 0.00908490
-0.18307547 0.36616009 0.05249930
-0.09349724 0.30695900 0.02681153
-0.18719053 0.19350162 0.05367929
-0.33097783 -0.30509061 0.09491214
-0.26222530 -0.63871300 0.07519648
-0.13767146 -0.53654796 0.03947906
-0.20685127 0.11101681 0.05931726
-0.71857923 -0.16259657 0.20606370
-0.65418673 -0.76383555 0.18759657
-0.13236798 0.26868045 0.03795822
-0.57311535 -0.76275486 0.16434819
-0.70548499 0.00875929 0.20230906
-0.33076656 0.35223424 0.09485241
-0.23455991 -0.72240120 0.06726306
-0.41999549 0.26032814 0.12044025
-0.19101995 -0.69747263 0.05477742
-0.45033827 -0.07532054 0.12914085
-0.28702956 -0.09788763 0.08230941
-0.03410694 -0.77413905 0.00978060
-0.06565249 0.39206186 0.01882670
-0.22937886 -0.02383708 0.06577733
-0.07453887 -0.39651173 0.02137498
-0.60472345 -0.67268270 0.17341231
-0.13354495 -0.56389791 0.03829573
-0.02929916 0.26271042 0.00840191
-0.65074259 0.01906862 0.18661070
-0.52763349 -0.19568549 0.15130641
-0.11134005 0.52484828 0.03192820
-0.21095917 -0.14920880 0.06049525
-0.30146223 -0.10080752 0.08644817
-0.54839778 -0.54638815 0.15726016
-0.51008689 0.02590239 0.14627509
-0.40349507 0.13387007 0.11570817
-0.41061458 0.12526405 0.11774979
-0.03391956 -0.61213225 0.00972687
-0.14420655 0.21192107 0.04135308
-0.19049332 0.12539560 0.05462640
-0.65908140 -0.62706995 0.18900058
-0.65514708 -0.52357548 0.18787256
-0.69249809 -0.13081914 0.19858453
-0.19323979 -0.57102472 0.05541399
-0.09592729 -0.57818866 0.02750838
-0.26257986 0.11506337 0.07529815
-0.14057060 0.03077482 0.04031042
-0.55316192 -0.27513960 0.15862697
-0.57065052 -0.12923561 0.16364248
-0.51477021 -0.31229290 0.14761737
-0.22694468 -0.10809986 0.06507930
-0.32286739 -0.39071944 0.09258637
-0.15363383 -0.41554874 0.04405648
-0.43073639 -0.61375606 0.12351919
-0.40488520 0.31764781 0.11610722
-0.42528418 0.24003483 0.12195684
-0.05812403 -0.41877025 0.01666781
-0.44719431 -0.10800574 0.12823918
-0.45956898 -0.58554447 0.13178730
-0.46486959 -0.04218688 0.13330805
-0.25177312 -0.64347607 0.07219917
-0.19470327 -0.57529688 0.05583366
-0.62326521 -0.07423012 0.17873085
-0.09955467 -0.54367805 0.02854858
-0.36072728 -0.19478950 0.10344318
-0.53390265 -0.15385804 0.15310431
-0.18520397 0.46824706 0.05310991
-0.07265952 0.51156008 0.02083605
-0.51238525 -0.25035527 0.14693359
-0.62011141 -0.17990375 0.17782620
-0.41437635 0.02986898 0.11882834
-0.06712573 -0.19461630 0.01924917
-0.26844889 -0.73569876 0.07698117
-0.76222384 -0.54857332 0.21857841
-0.33872953 0.40691891 0.09713606
-0.29604706 -0.01602329 0.08489530
-0.11811390 0.17572965 0.03387068
-0.14966203 -0.27897614 0.04291751
-0.35975802 0.31981272 0.10316617
-0.31747314 0.40926009 0.09104041
-0.68107033 -0.39498335 0.19530679
-0.49772364 -0.17611478 0.14272925
-0.19446394 0.51648486 0.05576549
-0.33063737 -0.26764965 0.09481451
-0.27893752 -0.03605647 0.07998891
-0.59084737 0.18222950 0.16943495
-0.19762345 -0.16577530 0.05667106
-0.28912443 -0.25144580 0.08291014
-0.35810739 -0.52568102 0.10269189
-0.44900513 -0.68660200 0.12875798
-0.65792936 -0.50515300 0.18867047
-0.03182689 0.20859864 0.00912677
-0.30024508 0.00414385 0.08609913
-0.69184446 -0.18609679 0.19839695
-0.09815024 -0.11489590 0.02814584
-0.38346785 -0.42921683 0.10996433
-0.37840256 0.23311210 0.10851265
-0.66072792 -0.00185143 0.18947412
-0.49196440 -0.51551610 0.14107712
-0.49736521 -0.43836465 0.14262588
-0.09308867 0.39331725 0.02669437
-0.19052169 0.39245129 0.05463470
-0.08621533 -0.10631479 0.02472335
-0.24709678 -0.53064513 0.07085817
-0.07331319 0.31892577 0.02102350
-0.03778751 -0.62380630 0.01083605
-0.68028885 -0.00920513 0.19508356
-0.41945729 0.31374264 0.12028602
-0.23568384 0.23992760 0.06758544
-0.43571931 -0.49113885 0.12494811
-0.35853705 -0.29426372 0.10281511
-0.45486239 0.11934161 0.13043866
-0.51739973 -0.11932787 0.14837186
-0.48436263 -0.29608500 0.13889746
-0.36224446 -0.46186647 0.10387825
-0.60483199 -0.22084267 0.17344444
-0.04453458 -0.57755631 0.01277086
-0.07716770 0.66241103 0.02212895
-0.67403138 -0.64523304 0.19328766
-0.25659576 -0.69400316 0.07358213
-0.56792974 0.01417945 0.16286257
-0.62113380 -0.03866176 0.17811970
-0.10757168 -0.42348281 0.03084756
-0.50234580 0.21043436 0.14405560
-0.72601992 -0.36672077 0.20819692
-0.53507560 0.19480628 0.15344144
-0.02993764 0.04449256 0.00858500
-0.43341213 -0.47094157 0.12428649
-0.12938234 -0.34636176 0.03710205
-0.05363505 -0.31634501 0.01538054
-0.59608150 0.08799736 0.17093576
-0.36815614 -0.52976739 0.10557350
-0.23721565 -0.40754911 0.06802463
-0.66952062 -0.06848815 0.19199544
-0.24221174 -0.41813016 0.06945733
-0.23684178 0.23266914 0.06791748
-0.31030408 -0.61928964 0.08898368
-0.11177375 -0.22176749 0.03205256
-0.43865028 -0.56989235 0.12578860
-0.64370143 -0.48940563 0.18459038
-0.07764840 0.36756241 0.02226667
-0.39793542 -0.38148636 0.11411309
-0.02171644 0.28643569 0.00622747
-0.39188093 0.17508098 0.11237769
-0.46723825 -0.14493886 0.13398708
-0.35765153 0.16058324 0.10256175
-0.38069049 -0.09731552 0.10916802
-0.58709741 -0.71674573 0.16835772
-0.28926575 -0.29118401 0.08295066
-0.11977226 -0.56378949 0.03434623
-0.12396363 -0.28811297 0.03554816
-0.66700119 -0.38253361 0.19127224
-0.48781407 0.21605983 0.13988838
-0.51885182 -0.40044567 0.14878763
-0.63473976 -0.06335050 0.18202141
-0.30729920 0.12891965 0.08812222
-0.72624665 -0.00289027 0.20826282
-0.64416957 -0.63803214 0.18472430
-0.52901971 -0.39394906 0.15170351
-0.71193945 -0.06218104 0.20415984
-0.58614415 -0.75937510 0.16808435
-0.60325927 0.02178989 0.17299397
-0.22736114 -0.76745158 0.06519873
-0.38061729 -0.20778506 0.10914690
-0.17626622 0.44484285 0.05054680
-0.13485070 -0.54881018 0.03867017
-0.73694235 -0.54299492 0.21132860
-0.45786962 -0.70306599 0.13129999
-0.61227226 0.13921002 0.17557891
-0.67155266 -0.66347343 0.19257680
-0.21488772 0.14220764 0.06162181
-0.16078983 -0.14973995 0.04610855
-0.29749528 0.10358676 0.08531070
-0.05385087 -0.24228679 0.01544243
-0.56909549 0.15948059 0.16319720
-0.41236451 -0.45053494 0.11825082
-0.26048714 -0.44035798 0.07469803
-0.31119400 0.02821092 0.08923890
-0.54310238 0.20526543 0.15574330
-0.09383601 0.50619543 0.02690868
-0.29551849 -0.43613422 0.08474372
-0.00652698 0.01816477 0.00187169
-0.17695719 -0.47201243 0.05074475
-0.64638603 -0.37337184 0.18536049
-0.34514603 0.11821384 0.09897547
-0.35787213 0.02322973 0.10262470
-0.34798914 -0.17656346 0.09979035
-0.48482794 -0.11589796 0.13903131
-0.64051461 -0.70730180 0.18367602
-0.68290997 -0.55980927 0.19583398
-0.51374286 -0.05454135 0.14732333
-0.45429328 -0.06540236 0.13027504
-0.20259114 0.45675829 0.05809598
-0.46490082 0.28988343 0.13331775
-0.21070351 -0.44892663 0.06042194
-0.07602625 0.04579050 0.02180150
-0.13070418 -0.22832137 0.03748110
-0.14208417 -0.05679735 0.04074446
-0.25827315 0.14165094 0.07406314
-0.69216543 -0.08025928 0.19848923
-0.01224813 -0.20477182 0.00351231
-0.46611249 -0.62222934 0.13366374
-0.27270114 0.09592296 0.07820055
-0.55184156 -0.69973421 0.15824766
-0.45234138 0.07965546 0.12971564
-0.30801126 0.37019852 0.08832695
-0.61636996 -0.47625253 0.17675260
-0.22231402 -0.56783533 0.06375140
-0.45439065 0.30948785 0.13030380
-0.09830238 0.55131775 0.02818947
-0.02362079 0.40708846 0.00677356
-0.25611576 -0.29736292 0.07344448
-0.02491120 -0.60014534 0.00714361
-0.57763988 -0.14717114 0.16564678
-0.07268941 0.01282146 0.02084462
-0.43289036 0.22718269 0.12413801
-0.37073597 -0.34228259 0.10631330
-0.45960394 -0.40795988 0.13179733
-0.09228785 -0.55062723 0.02646473
-0.09181535 0.29591870 0.02632923
-0.37304229 -0.31565523 0.10697466
-0.51507199 -0.33734390 0.14770386
-0.31271449 -0.68077886 0.08967489
-0.14922403 0.26669279 0.04279191
-0.06465407 0.28264478 0.01854039
-0.30047673 0.35138077 0.08616625
-0.10862179 0.11805599 0.03114869
-0.32991931 -0.22868548 0.09460860
-0.06374107 -0.18065023 0.01827857
-0.10835471 0.63535804 0.03107235
-0.72429883 -0.79919517 0.20770214
-0.75424874 -0.73177093 0.21629091
-0.54757172 -0.70112556 0.15702321
-0.54665303 -0.17296816 0.15676066
-0.20862857 0.45838672 0.05982733
-0.50954002 -0.62532938 0.14611714
-0.70751661 -0.32651749 0.20289092
-0.14141388 -0.47730112 0.04055225
-0.09723889 0.36233523 0.02788450
-0.18182574 0.56654090 0.05214136
-0.04138650 -0.57392323 0.01186811
-0.02681959 -0.59746957 0.00769086
-0.06683049 0.48234406 0.01916450
-0.56048340 0.09560862 0.16072738
-0.43083024 -0.53199834 0.12354610
-0.15103674 -0.48975897 0.04331172
-0.42872366 0.32445300 0.12294336
-0.04796444 -0.76828974 0.01375442
-0.27259648 -0.66196859 0.07817054
-0.29913232 -0.27054331 0.08578003
-0.64404130 -0.40919638 0.18468802
-0.37826833 0.22424430 0.10847414
-0.59796214 -0.60816562 0.17147353
-0.18309695 0.45820674 0.05250566
-0.26138979 0.09699980 0.07495688
-0.51543641 -0.24179453 0.14780857
-0.16418608 -0.10458621 0.04708246
-0.25954059 -0.14382830 0.07442659
-0.27803051 0.28099984 0.07972921
-0.29159591 0.38519225 0.08361958
-0.34102249 0.00765090 0.09779272
-0.04661993 -0.11189406 0.01336886
-0.07722448 0.52709335 0.02214511
-0.17343359 -0.03649289 0.04973431
-0.70201659 -0.07175430 0.20131426
-0.69283926 -0.65874225 0.19868106
-0.31029028 -0.10947273 0.08897972
-0.17167503 -0.50572526 0.04923001
-0.62555832 -0.03154400 0.17938852
-0.04180580 -0.51654726 0.01198835
-0.69034171 -0.37347960 0.19796561
-0.49904189 0.22608298 0.14310819
-0.67046219 -0.75643677 0.19226383
-0.18067402 0.48160812 0.05181090
-0.54878545 -0.03681335 0.15737247
-0.43929723 0.13109571 0.12597509
-0.54384971 0.07699620 0.15595733
-0.12360326 -0.60268104 0.03544482
-0.01766087 -0.03380973 0.00506448
-0.32774454 -0.43309227 0.09398496
-0.44278005 0.33398819 0.12697431
-0.51633531 -0.27555412 0.14806627
-0.71829265 -0.28626642 0.20598122
-0.26240507 0.24969663 0.07524826
-0.50217986 -0.17502496 0.14400716
-0.06936081 0.40687290 0.01989010
-0.09791260 0.36594412 0.02807769
-0.56426346 0.04506837 0.16181128
-0.10871121 0.31668907 0.03117434
-0.00917223 0.25796655 0.00263025
-0.43223119 -0.26352569 0.12394789
-0.01333840 -0.75496334 0.00382496
-0.39725196 -0.16762926 0.11391717
-0.18473473 0.34029055 0.05297507
-0.06291143 -0.17129847 0.01804066
-0.16251108 -0.32172382 0.04660214
-0.11781643 -0.56278783 0.03378537
-0.21078604 -0.78114015 0.06044560
-0.42782840 -0.55962169 0.12268529
-0.41263619 0.01404467 0.11832928
-0.04506748 0.56340808 0.01292368
-0.36408862 0.15983924 0.10440770
-0.61948186 -0.25417683 0.17764550
-0.15694284 0.43225276 0.04500543
-0.75375021 -0.17196210 0.21614955
-0.16648374 -0.33818969 0.04774135
-0.09707870 -0.28632107 0.02783856
-0.03977315 -0.62135965 0.01140546
-0.23792288 -0.75781101 0.06822744
-0.62199593 -0.00211118 0.17836702
-0.34031224 0.17322025 0.09758941
-0.44242480 -0.00181988 0.12687168
-0.21623480 -0.31000853 0.06200810
-0.42966446 0.26229900 0.12321301
-0.24170098 -0.13551126 0.06931086
-0.30507225 -0.31166908 0.08748338
-0.03611391 -0.00415828 0.01035613
-0.66305697 0.08326378 0.19014221
-0.04890313 -0.60913211 0.01402360
-0.51337290 -0.59631222 0.14721628
-0.20968455 -0.21623330 0.06012974
-0.10567645 -0.47521955 0.03030408
-0.65805298 -0.37898928 0.18870620
-0.55697280 -0.36077353 0.15971965
-0.10020796 0.30571353 0.02873592
-0.72921067 -0.35491917 0.20911196
-0.13210936 -0.44543269 0.03788406
-0.42870930 -0.21112706 0.12293804
-0.26437217 -0.10790313 0.07581211
-0.57902426 -0.33857852 0.16604336
-0.24727350 -0.79362887 0.07090885
-0.39927930 0.14401466 0.11449924
-0.59380752 -0.35887966 0.17028268
-0.38101205 0.24114110 0.10926098
-0.10127221 0.36529097 0.02904111
-0.06707219 0.47412384 0.01923381
-0.29948956 -0.02452707 0.08588247
-0.15772168 -0.06657581 0.04522872
-0.17366697 0.60322857 0.04980177
-0.11391172 -0.15223403 0.03266565
-0.33707914 0.07056701 0.09666203
-0.01018519 -0.01328221 0.00292074
-0.00661387 0.53231353 0.00189661
-0.30702317 -0.40587831 0.08804284
-0.08313648 0.29386246 0.02384045
-0.29078972 0.05317038 0.08338769
-0.33933902 -0.23817487 0.09730982
-0.75264901 -0.66580933 0.21583235
-0.59270126 -0.11261816 0.16996598
-0.20015617 -0.55581725 0.05739735
-0.29535210 -0.73572659 0.08469600
-0.35986945 -0.42696372 0.10319718
-0.05353637 -0.53199893 0.01535224
-0.44049147 0.33885923 0.12631796
-0.07022631 0.14072958 0.02013829
-0.33105823 -0.12303433 0.09493520
-0.51975608 0.05020724 0.14904796
-0.12918547 -0.33220583 0.03704559
-0.64644146 -0.25321227 0.18537666
-0.03682951 -0.71658123 0.01056133
-0.56600195 -0.39516383 0.16230883
-0.29491675 -0.36561838 0.08457117
-0.51948059 0.18724671 0.14896926
-0.07194843 0.68010557 0.02063227
-0.10148172 -0.00965807 0.02910119
-0.04879044 -0.37179747 0.01399129
-0.61563909 -0.36127314 0.17654328
-0.63494706 -0.38056141 0.18208015
-0.17133099 -0.02617327 0.04913136
-0.40474704 -0.22697216 0.11606641
-0.08862319 0.29840392 0.02541384
-0.71152908 -0.53568381 0.20404099
-0.60667711 -0.31030786 0.17397337
-0.02067918 0.46001235 0.00593002
-0.55425489 -0.13830705 0.15894072
-0.36213234 0.28139147 0.10384697
-0.16996054 -0.56579137 0.04873837
-0.02105246 0.74886489 0.00603707
-0.72282410 -0.05045814 0.20728125
-0.56112915 -0.52606177 0.16091117
-0.56152445 -0.28511658 0.16102508
-0.27396518 0.07521698 0.07856303
-0.09989828 0.45557910 0.02864712
-0.31877804 -0.03412713 0.09141370
-0.48213720 0.05111766 0.13826007
-0.57046598 -0.42155421 0.16358893
-0.50985330 -0.14515091 0.14620773
-0.56516767 0.08464390 0.16207065
-0.37402380 -0.10821449 0.10725619
-0.12543695 0.08939444 0.03597066
-0.09483165 -0.37224910 0.02719419
-0.73119187 -0.76592851 0.20967892
-0.34549236 0.24837779 0.09907507
-0.09880749 0.20372859 0.02833432
-0.19202743 0.30491167 0.05506633
-0.16913912 -0.55678296 0.04850281
-0.66681260 -0.24334939 0.19121848
-0.21945979 -0.01015650 0.06293291
-0.38056576 -0.09803729 0.10913225
-0.71318889 -0.73394859 0.20451640
-0.38947678 -0.32661319 0.11168747
-0.20389131 0.46479470 0.05846884
-0.04507216 0.51712316 0.01292502
-0.34237671 0.33871841 0.09818181
-0.61773282 -0.37010252 0.17714366
-0.19252692 -0.73746866 0.05520956
-0.08675242 0.61082071 0.02487743
-0.45119053 -0.59711051 0.12938468
-0.10120084 0.16814588 0.02902064
-0.37971234 -0.77941406 0.10888739
-0.06243260 0.00871105 0.01790335
-0.53616673 0.01764821 0.15375395
-0.56668085 -0.12774064 0.16250412
-0.69264197 -0.72054303 0.19862431
-0.25154501 0.05142045 0.07213376
-0.12218988 -0.33118397 0.03503952
-0.51018161 -0.60217291 0.14630112
-0.64221376 -0.31543615 0.18416417
-0.09271722 -0.29971313 0.02658785
-0.34935039 0.26069388 0.10018147
-0.68580931 -0.71357584 0.19666496
-0.23984081 -0.75735950 0.06877743
-0.40214643 -0.09969388 0.11532090
-0.51499170 -0.41832238 0.14768064
-0.61820883 -0.71381259 0.17727941
-0.40672955 -0.41977564 0.11663492
-0.74515915 -0.34448412 0.21368545
-0.67494345 -0.77717334 0.19354881
-0.38706267 -0.30496150 0.11099519
-0.14106716 0.30950156 0.04045282
-0.00296385 0.72687453 0.00084992
-0.18029439 -0.23197539 0.05170173
-0.12809373 0.57693487 0.03673274
-0.44021031 0.08077225 0.12623683
-0.14926633 0.26560482 0.04280404
-0.21104006 0.03568355 0.06051845
-0.47746202 -0.69305807 0.13691837
-0.60666782 -0.68808448 0.17396986
-0.22218996 -0.16123343 0.06371582
-0.66779464 -0.55400538 0.19149941
-0.34845409 0.40763336 0.09992476
-0.38217208 -0.42614138 0.10959275
-0.39755446 -0.79970640 0.11400384
-0.53444433 -0.11646185 0.15325972
-0.26973549 0.42743027 0.07735079
-0.09979142 0.51638955 0.02861647
-0.06832366 0.72568929 0.01959290
-0.73060465 -0.55811936 0.20951112
-0.14585881 0.28850126 0.04182689
-0.13240556 -0.03036559 0.03796899
-0.71913368 -0.37053853 0.20622221
-0.42679429 0.23001181 0.12238986
-0.10553084 0.40132025 0.03026232
-0.35181072 0.04163768 0.10088652
-0.19828986 0.46066478 0.05686252
-0.46184993 -0.36832181 0.13244139
-0.21110681 -0.32364717 0.06053759
-0.37696609 -0.63246989 0.10809987
-0.16164196 0.21987297 0.04635291
-0.31514463 -0.01485861 0.09037177
-0.35523894 0.41166037 0.10187045
-0.18280438 0.49397776 0.05242184
-0.05597054 0.71752119 0.01605040
-0.36110762 -0.77830142 0.10355225
-0.18531615 -0.76631141 0.05314178
-0.33889782 -0.79968405 0.09718330
-0.09239816 -0.79478586 0.02649636
-0.36037087 -0.57807457 0.10334097
-0.73263872 -0.74155372 0.21009390
-0.57989484 0.07686579 0.16629392
-0.36750093 -0.61726046 0.10538561
-0.64987952 -0.61328971 0.18636177
-0.11108578 -0.57561427 0.03185527
-0.54937363 -0.04382920 0.15754113
-0.25249898 -0.78521323 0.07240732
-0.76464731 -0.42263034 0.21927373
-0.27911735 -0.72999030 0.08004048
-0.07552005 -0.41801286 0.02165634
-0.00539091 0.03982709 0.00154591
-0.36420241 -0.52772975 0.10443972
-0.56571954 -0.43571749 0.16222775
-0.16078664 0.03346255 0.04610763
-0.61674130 -0.72054297 0.17685854
-0.06211194 0.32113999 0.01781140
-0.42447957 -0.35038364 0.12172497
-0.47569057 -0.22917178 0.13641074
-0.51490659 -0.14143351 0.14765686
-0.42774221 -0.25113863 0.12266062
-0.36600107 0.03061936 0.10495584
-0.37546813 0.24018881 0.10767116
-0.24930257 -0.29066598 0.07149071
-0.17700867 0.01047695 0.05075951
-0.09169429 -0.11271505 0.02629452
-0.19382486 -0.76904762 0.05558177
-0.59669709 -0.36352074 0.17111129
-0.40924251 0.24031401 0.11735659
-0.00048765 -0.37835789 0.00013984
-0.00661960 -0.49643230 0.00189826
-0.23742913 -0.23665656 0.06808585
-0.36150032 0.34751859 0.10366587
-0.38339248 -0.12583619 0.10994280
-0.26720431 -0.62679166 0.07662426
-0.44088554 -0.69259882 0.12642959
-0.76190466 -0.50907552 0.21848699
-0.05746602 -0.19730727 0.01647912
-0.36375114 -0.44094083 0.10431031
-0.63346946 -0.18229832 0.18165687
-0.51838839 -0.28943902 0.14865500
-0.21169595 0.57812268 0.06070720
-0.37826872 -0.75219262 0.10847341
-0.57691360 -0.51414233 0.16543768
-0.26762828 0.43087706 0.07674652
-0.18022352 0.22328527 0.05168141
-0.04027581 0.00515402 0.01154960
-0.50105000 -0.55242562 0.14368251
-0.15514724 0.43230975 0.04449051
-0.41469607 0.36767972 0.11892077
-0.21708310 0.14956729 0.06225137
-0.73574060 0.02126569 0.21098545
-0.74621618 -0.76206690 0.21398738
-0.13510060 -0.22951981 0.03874183
-0.02346008 0.06253275 0.00672748
-0.48422274 -0.11081112 0.13885777
-0.20629898 0.20368333 0.05915888
-0.20632905 0.38470632 0.05916773
-0.10866675 0.05490123 0.03116159
-0.00702382 0.26564592 0.00201417
-0.11732176 0.42229691 0.03364352
-0.03580034 -0.27669027 0.01026621
-0.15195690 0.37607265 0.04357559
-0.52324128 -0.38353837 0.15004644
-0.70369554 -0.22110032 0.20179538
-0.39740402 -0.60119164 0.11396070
-0.42158180 -0.71222109 0.12089399
-0.39361647 -0.47380751 0.11287457
-0.23763403 0.08275262 0.06814461
-0.71387607 -0.75158441 0.20471340
-0.16996144 -0.49753696 0.04873863
-0.29640901 0.04660877 0.08499909
-0.54276139 0.10427587 0.15564530
-0.61283648 -0.11831637 0.17574011
-0.18071555 0.44713402 0.05182273
-0.57924509 -0.36864227 0.16610661
-0.07229310 -0.70264727 0.02073097
-0.67446196 -0.00387671 0.19341260
-0.50846553 -0.18582729 0.14580967
-0.10551610 0.28757790 0.03025810
-0.28667343 0.39866906 0.08220800
-0.37164131 0.38319656 0.10657407
-0.09425555 -0.16590549 0.02702899
-0.07012564 -0.40621713 0.02010943
-0.03991061 -0.17850412 0.01144488
-0.35865831 -0.26505938 0.10284988
-0.01166605 0.07749055 0.00334539
-0.16662969 -0.72269690 0.04778320
-0.64075100 -0.15015371 0.18374506
-0.60395753 0.08514706 0.17319436
-0.31803447 -0.62741095 0.09120047
-0.24376354 0.01641779 0.06990232
-0.13737568 0.12488977 0.03939424
-0.44133368 -0.14269723 0.12655845
-0.50587142 -0.17279652 0.14506578
-0.09951058 0.07802343 0.02853594
-0.65794462 -0.38629559 0.18867511
-0.05427979 -0.23053178 0.01556543
-0.66030174 -0.47654319 0.18935084
-0.16410728 -0.31597114 0.04705987
-0.58896816 -0.10568676 0.16889545
-0.30966410 0.08788056 0.08880030
-0.40495828 -0.56253588 0.11612698
-0.73311126 -0.14572901 0.21023107
-0.17852823 0.45202345 0.05119549
-0.58498734 -0.21987756 0.16775364
-0.54290164 0.01891806 0.15568531
-0.48331875 -0.66525066 0.13859786
-0.08931345 -0.33988941 0.02561178
-0.42790252 -0.35555515 0.12270654
-0.10392305 0.29292282 0.02980127
-0.30548358 -0.48007032 0.08760133
-0.44449383 -0.36923036 0.12746431
-0.36010131 0.19494393 0.10326434
-0.00637807 -0.02322596 0.00182899
-0.10115177 0.57442790 0.02900663
-0.32094470 0.36859891 0.09203585
-0.35581473 -0.32616526 0.10203444
-0.06231516 0.07231397 0.01786967
-0.73331845 -0.09360614 0.21029060
-0.64215350 -0.03258819 0.18414751
-0.68556738 -0.76550329 0.19659543
-0.22278415 -0.63461238 0.06388621
-0.73014843 -0.66478264 0.20938000
-0.68334287 -0.76767921 0.19595753
-0.09404251 -0.41058797 0.02696790
-0.16600502 -0.32598397 0.04760407
-0.61437434 -0.53922248 0.17618018
-0.01524904 0.35501114 0.00437286
-0.72335088 -0.36866111 0.20743154
-0.08557583 -0.75681990 0.02453997
-0.28983316 0.04132704 0.08311338
-0.39760208 -0.31842050 0.11401750
-0.45889312 0.22977437 0.13159479
-0.44922763 0.08958668 0.12882271
-0.17326015 -0.21705775 0.04968457
-0.57766914 -0.78353286 0.16565405
-0.03345623 -0.01396162 0.00959400
-0.17193425 0.27287847 0.04930435
-0.21955322 0.23534064 0.06295970
-0.43571070 -0.75200266 0.12494564
-0.27944851 -0.45715749 0.08013545
-0.34442785 0.17106900 0.09876963
-0.23436791 -0.28742293 0.06720800
-0.72922367 0.02588658 0.20911659
-0.43076387 -0.52001888 0.12352707
-0.54960203 0.15201458 0.15760706
-0.40769425 -0.72388649 0.11691156
-0.21264131 -0.29362574 0.06097763
-0.32375038 -0.47476876 0.09283957
-0.08676359 -0.45395011 0.02488057
-0.03677839 0.40445173 0.01054668
-0.42165062 -0.77706748 0.12091372
-0.37950191 0.08774317 0.10882758
-0.41520840 0.35461906 0.11906767
-0.50012827 -0.41271654 0.14341830
-0.44426399 -0.69750923 0.12739840
-0.44769523 -0.17160076 0.12838268
-0.26717815 -0.72719902 0.07661676
-0.55037761 -0.02393493 0.15782911
-0.46744028 0.20965485 0.13404579
-0.45885742 -0.49746296 0.13158326
-0.03206875 0.20802893 0.00919613
-0.14861144 0.08772688 0.04261624
-0.12027915 0.37310150 0.03449159
-0.00713102 -0.41974160 0.00204491
-0.19883791 -0.55684847 0.05701932
-0.38266116 0.32734483 0.10973409
-0.55831200 -0.59863150 0.16010316
-0.50213873 -0.04222353 0.14399567
-0.13405791 0.21405506 0.03844283
-0.27333453 -0.78994489 0.07838219
-0.58386618 -0.17572808 0.16743222
-0.18407263 -0.24001214 0.05278519
-0.45274600 0.32604691 0.12983219
-0.33667731 -0.53283763 0.09654654
-0.69833183 -0.36700839 0.20025691
-0.09116536 -0.41325450 0.02614284
-0.01426101 0.06338750 0.00408953
-0.03200484 -0.77687198 0.00917780
-0.04045920 0.14195147 0.01160220
-0.40634397 0.26006779 0.11652543
-0.71961403 -0.03100530 0.20636074
-0.36378461 0.40647078 0.10432107
-0.56407958 -0.60286236 0.16175710
-0.08514028 -0.73712248 0.02441507
-0.39371184 -0.26162946 0.11290192
-0.15049537 -0.48979309 0.04315648
-0.15910679 -0.66249204 0.04562591
-0.34787983 0.19019906 0.09975959
-0.04948682 -0.54755849 0.01419098
-0.51278687 0.02691984 0.14704937
-0.40941435 0.15350910 0.11740567
-0.61893475 -0.53575182 0.17748797
-0.44043589 0.27329969 0.12630194
-0.67202473 -0.18494643 0.19271328
-0.34139302 0.17774583 0.09789935
-0.31668213 0.17738263 0.09081305
-0.33685875 -0.29593411 0.09659857
-0.62270868 -0.42800254 0.17857046
-0.32485023 -0.56882203 0.09315498
-0.48627749 -0.74225867 0.13944632
-0.65551937 -0.28927702 0.18797985
-0.10715910 0.62301475 0.03072945
-0.43276161 0.19102861 0.12410101
-0.28165704 -0.54121912 0.08076877
-0.42327940 -0.26510462 0.12138080
-0.45496446 -0.68890035 0.13046689
-0.26929644 -0.50099087 0.07722421
-0.25852481 0.33993974 0.07413573
-0.27638543 0.11720578 0.07925710
-0.72925121 -0.46666312 0.20912325
-0.25510362 0.07777913 0.07315424
-0.59507054 -0.30739585 0.17064498
-0.15093569 -0.70805973 0.04328275
-0.01057285 0.00051614 0.00303190
-0.27620357 0.49173307 0.07920578
-0.32158890 -0.03979223 0.09221975
-0.37714323 -0.65091807 0.10815066
-0.57691592 -0.60786897 0.16543815
-0.30276111 -0.46711603 0.08682063
-0.58586198 -0.71979707 0.16800344
-0.73740959 -0.02516849 0.21146394
-0.53973883 -0.11566430 0.15477802
-0.15763883 0.27546117 0.04520496
-0.19266716 -0.30928457 0.05524978
-0.50399905 -0.18417999 0.14452882
-0.41733447 -0.10010321 0.11967635
-0.32205483 -0.50907254 0.09235335
-0.30105403 0.19307961 0.08633144
-0.70630533 -0.18684356 0.20254388
-0.35911313 -0.35269102 0.10298030
-0.19701810 -0.12782006 0.05649747
-0.08914078 -0.31503963 0.02556226
-0.41777009 -0.61385703 0.11980094
-0.01852272 -0.19404402 0.00531163
-0.09905260 -0.11317203 0.02840461
-0.40469089 -0.61946267 0.11605031
-0.42435187 -0.65885609 0.12168835
-0.18557848 -0.36173496 0.05321701
-0.61910385 0.04357598 0.17753775
-0.76168811 -0.41934028 0.21842515
-0.16334453 0.09677569 0.04684114
-0.46796235 -0.61297506 0.13419421
-0.00122048 -0.79812264 0.00034999
-0.60557526 -0.73764026 0.17365648
-0.00307598 -0.51025200 0.00088208
-0.17670383 -0.62220174 0.05067209
-0.45205206 -0.46923634 0.12963173
-0.26903677 -0.55496031 0.07714975
-0.11352537 0.05504365 0.03255486
-0.71106035 0.05740632 0.20390797
-0.68031192 -0.52835262 0.19508903
-0.41875094 -0.51330966 0.12008220
-0.41325742 -0.54662180 0.11850687
-0.35851154 -0.22297402 0.10280779
-0.70151669 -0.71123010 0.20116928
-0.72183836 -0.44367930 0.20699757
-0.14831804 0.31383306 0.04253210
-0.52999663 -0.78984255 0.15198334
-0.06892138 -0.76744175 0.01976409
-0.09788806 0.28374276 0.02807066
-0.68915504 -0.62710440 0.19762464
-0.38108250 0.04113588 0.10928074
-0.60314804 -0.03218108 0.17296197
-0.00654750 0.06564847 0.00187758
-0.18385294 0.40117848 0.05272233
-0.46095818 -0.22658877 0.13218597
-0.06631923 -0.19757852 0.01901789
-0.58637804 -0.53888577 0.16815174
-0.72892386 -0.04009019 0.20903048
-0.57395798 -0.19077937 0.16459084
-0.40473685 -0.63562572 0.11606349
-0.46987486 0.14734615 0.13474382
-0.55197978 0.01008977 0.15828861
-0.09660602 -0.67814499 0.02770302
-0.23013870 -0.75538445 0.06599523
-0.29359448 -0.61221492 0.08419199
-0.52507401 0.18843788 0.15057328
-0.00196678 -0.60761118 0.00056400
-0.46034387 -0.73712176 0.13200952
-0.14671429 -0.72648364 0.04207221
-0.16383564 0.19024195 0.04698197
-0.49813333 -0.16850252 0.14284676
-0.14977603 -0.43483219 0.04295020
-0.60596311 -0.66259241 0.17376783
-0.69760799 -0.72769034 0.20004836
-0.44696063 -0.38063756 0.12817170
-0.07943269 0.07910501 0.02277834
-0.42745996 -0.71812975 0.12257963
-0.19907922 -0.03875906 0.05708852
-0.61009008 -0.20153132 0.17495234
-0.22167853 -0.25002611 0.06356916
-0.45753330 -0.33085677 0.13120359
-0.24653040 0.08315457 0.07069576
-0.37501675 0.38221291 0.10754204
-0.49654791 0.27844945 0.14239302
-0.60197967 -0.49709088 0.17262587
-0.21836524 0.16957767 0.06261903
-0.23002084 0.03370495 0.06596143
-0.46116734 -0.04292022 0.13224636
-0.01908478 -0.00164726 0.00547281
-0.56191462 -0.71106917 0.16113622
-0.23730268 -0.04829457 0.06804959
-0.13672169 0.10753887 0.03920670
-0.30889583 0.40838122 0.08858070
-0.38598222 0.00457395 0.11068575
-0.28855270 -0.15273111 0.08274619
-0.63915998 0.11648603 0.18328938
-0.15841877 0.45325270 0.04542873
-0.71286911 -0.35556024 0.20442578
-0.36182588 0.10343149 0.10375869
-0.61121470 -0.23650710 0.17527477
-0.14159884 0.59731036 0.04060563
-0.08727890 0.61405820 0.02502842
-0.16634358 0.11225749 0.04770116
-0.22431912 -0.31463775 0.06432639
-0.64826149 -0.62330019 0.18589775
-0.09657104 -0.78737336 0.02769298
-0.26556578 -0.45668703 0.07615440
-0.14017498 -0.34245151 0.04019698
-0.45456797 0.29158410 0.13035461
-0.21044002 0.39321899 0.06034665
-0.38654876 0.32356796 0.11084892
-0.11612494 -0.57267231 0.03330032
-0.10292636 -0.63466513 0.02951545
-0.34268004 -0.57516098 0.09826790
-0.04985546 0.34008336 0.01429669
-0.54093355 -0.41846240 0.15511996
-0.10745922 -0.70353752 0.03081531
-0.53195482 -0.30850908 0.15254539
-0.00483247 -0.36679554 0.00138577
-0.02266235 -0.43649200 0.00649872
-0.19320738 0.16004264 0.05540470
-0.31849298 -0.48131981 0.09133195
-0.68199265 -0.66233593 0.19557062
-0.14755870 -0.18778752 0.04231436
-0.35847974 -0.72971576 0.10279867
-0.30588225 0.08099431 0.08771577
-0.48085874 -0.03299190 0.13789324
-0.12316257 0.42546713 0.03531845
-0.30963048 0.26310664 0.08879105
-0.32587332 -0.64487588 0.09344836
-0.38366759 -0.46507287 0.11002160
-0.56426847 0.00985567 0.16181263
-0.63811255 -0.54158187 0.18298754
-0.00564051 0.36341685 0.00161749
-0.45073944 -0.16693212 0.12925570
-0.22149585 -0.75192255 0.06351678
-0.64253515 -0.36271593 0.18425621
-0.31119999 0.13272895 0.08924085
-0.19559008 -0.73559946 0.05608797
-0.48595119 0.11314313 0.13935393
-0.60859430 0.05139803 0.17452396
-0.04955919 0.37715846 0.01421173
-0.07985908 -0.67935032 0.02290062
-0.17965688 -0.15111578 0.05151892
-0.53865188 -0.71758252 0.15446533
-0.69088084 -0.34889159 0.19812027
-0.24625471 -0.31903100 0.07061670
-0.07771845 0.29116243 0.02228676
-0.59905636 -0.75999922 0.17178711
-0.11002682 -0.51271254 0.03155160
-0.20032036 -0.50248659 0.05744444
-0.70127922 0.00850182 0.20110299
-0.33686471 -0.35921890 0.09660028
-0.14027214 -0.64559150 0.04022484
-0.45504808 -0.02082917 0.13049158
-0.49256226 0.28318614 0.14125016
-0.56038016 0.01686042 0.16069761
-0.31120294 -0.72746915 0.08924144
-0.10528228 -0.54547590 0.03019104
-0.39709756 0.19896954 0.11387371
-0.54679686 -0.55331224 0.15680106
-0.22032182 0.26168668 0.06318014
-0.02225197 -0.15151979 0.00638104
-0.12967977 -0.32145646 0.03718734
-0.66382605 -0.21435940 0.19036210
-0.27799827 -0.29478905 0.07971957
-0.01164903 0.07808401 0.00334051
-0.38798422 -0.19960093 0.11125946
-0.13213770 -0.74207222 0.03789218
-0.13677837 0.56431574 0.03922319
-0.66266716 -0.76644301 0.19002846
-0.11477070 0.41651964 0.03291197
-0.29972500 -0.68358511 0.08594999
-0.08985733 0.53079039 0.02576774
-0.04826156 0.28687862 0.01383962
-0.03608320 -0.10050446 0.01034732
-0.25366867 -0.77140450 0.07274274
-0.24147765 -0.06323555 0.06924682
-0.28184661 -0.31140268 0.08082313
-0.57221377 -0.50784457 0.16408992
-0.20701405 -0.07818790 0.05936394
-0.47714949 -0.47933832 0.13682874
-0.64849198 -0.06924017 0.18596508
-0.15435264 0.34288990 0.04426260
-0.21476763 0.31247348 0.06158749
-0.17994401 -0.40974748 0.05160125
-0.30817217 -0.43341920 0.08837233
-0.11822761 0.02030616 0.03390328
-0.68786788 -0.47460863 0.19725595
-0.10395310 -0.55436713 0.02980989
-0.20450307 -0.34075946 0.05864388
-0.63186944 -0.12316305 0.18119815
-0.27884415 0.38637716 0.07996278
-0.42224938 0.27976543 0.12108664
-0.60505641 -0.08428091 0.17350911
-0.69011825 -0.58449799 0.19790098
-0.32049578 -0.14329565 0.09190628
-0.20658594 -0.10901803 0.05924117
-0.14194949 -0.29168221 0.04070584
-0.64560568 -0.43523833 0.18513659
-0.76125711 -0.51450729 0.21830128
-0.59848106 -0.61121511 0.17162234
-0.09431471 -0.45043567 0.02704595
-0.05278554 -0.73872066 0.01513693
-0.09578551 0.67076147 0.02746797
-0.61262649 -0.66430104 0.17567869
-0.02061852 -0.34770629 0.00591263
-0.70959026 -0.06551927 0.20348616
-0.42834273 0.32804424 0.12283413
-0.08732606 -0.15542085 0.02504187
-0.61164194 -0.58155257 0.17539652
-0.68973207 -0.55254459 0.19779032
-0.23549995 0.15491480 0.06753263
-0.09525608 0.01067395 0.02731590
-0.22221515 -0.32497230 0.06372305
-0.12263982 0.54990649 0.03516867
-0.31723940 0.14646675 0.09097279
-0.30056101 -0.25522706 0.08618973
-0.55840164 -0.71039057 0.16012883
-0.27228922 -0.51787329 0.07808243
-0.46759069 -0.62862051 0.13408764
-0.11581268 -0.69969726 0.03321077
-0.53029245 0.07372925 0.15206952
-0.74407268 -0.03176106 0.21337470
-0.72952408 -0.49235278 0.20920144
-0.01860504 -0.05680247 0.00533523
-0.10399872 0.31815699 0.02982297
-0.43458995 -0.43231875 0.12462424
-0.42152175 -0.73844808 0.12087677
-0.24697715 0.20095022 0.07082391
-0.25745824 0.43348756 0.07383008
-0.49918449 -0.20588571 0.14314811
-0.24452457 -0.03164266 0.07012056
-0.33205602 -0.43194866 0.09522133
-0.14540809 -0.09198272 0.04169764
-0.31845838 -0.41817012 0.09132203
-0.65487957 -0.16210696 0.18779665
-0.15078267 -0.35536176 0.04323887
-0.38320434 -0.60739964 0.10988876
-0.02299079 0.43764663 0.00659291
-0.58209628 -0.62016761 0.16692367
-0.65710270 -0.42805430 0.18843357
-0.25922173 -0.46516237 0.07433516
-0.71601278 -0.19481151 0.20532764
-0.07768431 -0.14161214 0.02227697
-0.34834117 -0.36980665 0.09989130
-0.13655260 -0.41587958 0.03915821
-0.34425253 0.30125359 0.09871965
-0.48600945 0.16274679 0.13937075
-0.05983369 0.54529762 0.01715808
-0.31695357 -0.41844410 0.09089050
-0.11391246 -0.22830489 0.03266586
-0.00001711 -0.35084581 0.00000491
-0.29522744 0.12493020 0.08466041
-0.70763409 -0.42824328 0.20292436
-0.46117204 -0.37643743 0.13224700
-0.46728808 -0.00319655 0.13400169
-0.45644525 -0.08102534 0.13089213
-0.24124435 0.27580562 0.06918009
-0.16628750 -0.75584584 0.04768507
-0.41683701 -0.25709942 0.11953336
-0.22157931 -0.42957568 0.06354071
-0.29798755 -0.39803681 0.08545175
-0.40856031 -0.20451729 0.11715997
-0.52623856 -0.17761454 0.15090643
-0.40797311 0.32532048 0.11699276
-0.25821853 -0.13602822 0.07404748
-0.69275373 0.05622209 0.19865824
