ply
format ascii 1.0
element vertex 1395
property float x
property float y
property float z
end_header
-0.35066232 0.13157675 0.00000443
0.05874430 -0.67715871 0.01248642
0.56729776 -0.29121077 0.12058184
0.04627667 0.11502769 0.00984563
0.65584671 -0.13421822 0.13940290
-0.02271786 -0.09721981 0.00000000
-0.22135632 0.40152240 0.00000241
0.44146764 -0.39657143 0.09383636
-0.62257224 -0.28268564 -0.00000074
0.07342694 -0.17311621 0.01560730
-0.14231023 -0.35152292 0.00000000
-0.79702437 -0.56451690 -0.00000059
-0.61295336 -0.65747297 -0.00000004
0.72441763 -0.55759943 0.15397833
0.77920192 -0.33332965 0.16562258
0.36810979 -0.32504842 0.07824375
-0.02991519 -0.41467315 0.00000000
-0.58516365 -0.61579394 0.00000000
-0.62470686 -0.39279509 -0.00000056
0.43715832 0.33948401 0.09291981
0.05485869 0.34336513 0.01166643
0.60104537 0.10346174 0.12775581
0.24616174 0.17672360 0.05232919
0.19050559 -0.56899118 0.04049301
0.69930369 -0.35714957 0.14864008
-0.16614363 0.10212243 0.00000796
-0.22840860 -0.34827697 0.00000000
0.20534976 -0.40307623 0.04364821
0.68380231 -0.58101159 0.14534551
0.26236293 -0.02975382 0.05576668
0.10846892 0.58073127 0.02305741
0.67005926 -0.39621389 0.14242417
-0.70990366 -0.59334022 -0.00000052
0.16358469 -0.00705114 0.03477082
-0.72116685 -0.41861233 -0.00000092
0.71787316 -0.55891317 0.15258731
0.15864666 0.49431199 0.03372350
0.65039992 -0.00498071 0.13824500
-0.16479512 -0.21490318 0.00000000
0.45563862 -0.68025255 0.09684848
0.48766783 -0.02610320 0.10365597
0.58482701 -0.14702442 0.12430753
0.59872353 -0.72889984 0.12726197
0.68955868 -0.72478962 0.14656924
-0.01891952 0.34025159 0.00000661
-0.44156623 -0.40800869 0.00000000
-0.55131775 -0.66454738 0.00000000
0.74544996 -0.78128111 0.15844908
-0.51726705 0.02530428 0.00000301
0.35378310 -0.26053631 0.07519854
0.34337017 0.34246430 0.07298647
0.13905215 0.07275197 0.02956514
0.18518576 -0.17019051 0.03936225
-0.52043825 -0.34922057 -0.00000019
-0.27062267 0.45598862 0.00000055
-0.17791928 -0.09315483 0.00000000
-0.46138829 -0.65818465 0.00000000
0.05976995 0.36354178 0.01271000
-0.35676223 -0.20614398 0.00000000
0.63570893 0.07658618 0.13512354
-0.79077935 -0.41961417 -0.00000095
-0.30369243 -0.73047137 0.00000000
0.24696945 0.05510765 0.05250260
-0.16992198 0.41555113 0.00000316
0.26423874 -0.12032070 0.05616539
-0.19708909 -0.13411449 0.00000000
0.53113931 -0.37171289 0.11289639
0.67480135 0.11004267 0.14343144
-0.19243380 -0.24037398 0.00000000
0.10575259 0.03334258 0.02248806
0.11386340 0.25185588 0.02420885
0.56095451 -0.37443784 0.11923368
-0.42441478 -0.49371502 0.00000000
-0.17315765 -0.15342578 0.00000000
-0.08753416 -0.52229726 0.00000000
-0.68091059 -0.56450266 -0.00000049
0.11128549 -0.06811553 0.02365434
0.41735214 0.25856888 0.08871175
-0.20266624 0.35152516 0.00000360
-0.18195102 -0.59912795 0.00000000
-0.37483767 0.09502766 0.00000458
-0.75611550 -0.63036966 -0.00000042
0.10286873 -0.28090864 0.02186531
-0.16319922 0.30080935 0.00000503
0.11060841 0.18673898 0.02351795
-0.30817291 -0.73814648 0.00000000
-0.09464220 0.11794218 0.00000880
-0.25579897 0.13552824 0.00000611
-0.68122178 0.08771809 -0.00000118
0.29168034 -0.37406656 0.06199825
-0.52602804 -0.43325335 -0.00000006
-0.15747267 -0.03825996 0.00000000
0.07222966 -0.12758900 0.01535281
-0.15305926 -0.54379594 0.00000000
0.66574264 -0.59919924 0.14150691
0.45085242 -0.33735654 0.09583115
-0.10021405 -0.74497563 0.00000000
0.15497769 -0.02819672 0.03294136
-0.48241743 -0.48370427 0.00000000
-0.25933710 -0.53437734 0.00000000
-0.11111795 -0.78456980 0.00000000
-0.14346907 0.03443891 0.00000932
0.27783963 0.31070840 0.05905950
0.45002216 0.05399812 0.09565896
0.31780505 0.34319046 0.06755297
-0.29601422 0.48423085 -0.00000041
0.46878764 -0.68141806 0.09964338
-0.39676172 0.01711459 0.00000546
0.42764440 0.27938893 0.09089884
0.17921133 0.19662358 0.03809897
0.40560323 -0.79553115 0.08621318
-0.37683278 -0.14020991 0.00000000
-0.58128405 -0.12559581 -0.00000084
-0.20342597 -0.08205220 0.00000000
0.24616897 -0.09906248 0.05232456
0.16888505 -0.76727271 0.03589744
-0.03944871 -0.36830547 0.00000000
-0.02874931 -0.29497334 0.00000000
0.17742695 -0.38580582 0.03771307
-0.13478479 0.25299922 0.00000617
0.05397471 0.45450452 0.01147695
0.08881067 0.50945276 0.01888036
-0.29550844 -0.29474953 0.00000000
0.12458608 0.04451333 0.02649086
0.62573445 0.11296247 0.13300295
-0.69082546 -0.47672951 -0.00000069
-0.10184056 -0.07421634 0.00000000
0.02497493 -0.45769006 0.00530856
-0.26617765 -0.70323700 0.00000000
-0.40346649 -0.37075651 0.00000000
-0.68250078 -0.56790787 -0.00000049
-0.67566794 -0.40825611 -0.00000075
0.30704653 0.31373465 0.06526694
0.40045959 -0.05677816 0.08511970
0.56814951 -0.16994929 0.12076272
0.09602963 -0.38760087 0.02041162
0.17309935 -0.04801318 0.03679322
-0.25683600 0.15826596 0.00000575
-0.07819342 0.58516067 0.00000204
-0.21137574 -0.58070862 0.00000000
-0.41601300 -0.73207700 0.00000000
-0.52825606 -0.38584855 -0.00000016
0.42215869 -0.65861773 0.08973214
-0.60830420 -0.61520022 -0.00000009
-0.77721000 -0.29292333 -0.00000127
0.44450900 0.07851786 0.09448678
-0.03528105 -0.69383860 0.00000000
0.61069226 -0.39986780 0.12980556
-0.45185325 0.09302141 0.00000313
-0.01200981 -0.52737832 0.00000000
0.38060701 0.10490075 0.08090488
-0.24915485 0.44754353 0.00000110
-0.71295708 -0.79167336 -0.00000002
-0.24364486 0.51963276 0.00000000
0.43294290 -0.43785167 0.09202438
0.48837405 -0.55482548 0.10380657
0.65284508 -0.09234853 0.13876484
0.08655338 0.51428968 0.01840051
0.46625751 -0.25051349 0.09910545
-0.38624075 -0.36603364 0.00000000
-0.09792792 -0.78290206 0.00000000
-0.11659152 0.32918483 0.00000530
0.29381350 -0.39316255 0.06245166
-0.55409408 -0.50131786 -0.00000006
0.39332354 0.23261952 0.08360530
0.24885382 0.37637845 0.05289781
0.69797993 -0.77643049 0.14835924
-0.19747768 0.23106077 0.00000555
0.30958986 -0.79411185 0.06580502
-0.09040386 0.45501021 0.00000381
0.31477922 -0.48354432 0.06690805
-0.69623864 -0.00482286 -0.00000155
-0.43958277 -0.43066078 0.00000000
0.23358932 -0.21853541 0.04965069
-0.19058026 -0.26133382 0.00000000
0.09032536 0.32359195 0.01920495
0.75843585 -0.63283157 0.16120908
-0.62285388 0.02032352 0.00000106
0.28500789 -0.08477321 0.06057999
0.67410660 -0.68960357 0.14328481
0.49550042 -0.33577713 0.10532121
0.53064191 -0.42581728 0.11279074
-0.47390372 -0.58837169 0.00000000
-0.25899106 0.27930903 0.00000372
-0.77808779 -0.36405250 -0.00000109
-0.31714311 0.08457985 0.00000586
0.46160215 -0.03737610 0.09811566
0.62457722 -0.07465971 0.13275643
-0.39397165 0.40265173 -0.00000098
-0.06921219 0.58522052 0.00000218
0.06036569 0.38003021 0.01283638
0.24381319 0.51238734 0.05182405
-0.43122798 -0.37040830 0.00000000
-0.75572908 -0.44186732 -0.00000090
-0.55350298 0.07270922 0.00000152
-0.16765295 0.47011563 0.00000229
-0.51309502 -0.13355890 -0.00000054
-0.18233474 -0.18835030 0.00000000
-0.32666692 -0.35089743 0.00000000
-0.28165969 0.44341749 0.00000055
0.60857266 -0.31182429 0.12935492
0.09879557 -0.48507702 0.02099954
0.27623010 0.24603625 0.05871858
0.25248489 -0.39008358 0.05366704
-0.06951475 0.67150861 0.00000081
-0.28411677 -0.40351135 0.00000000
0.66945803 -0.35572797 0.14229631
0.02845478 0.58477324 0.00605098
-0.50408608 -0.52007210 0.00000000
-0.12043061 0.17938255 0.00000749
0.29407686 0.10705570 0.06251415
-0.79748416 -0.04936144 -0.00000188
0.39460653 0.07399992 0.08388083
0.05222668 0.20188697 0.01110903
0.03802809 -0.30873129 0.00808308
0.06100048 -0.60260725 0.01296599
0.69561517 -0.30394611 0.14785601
-0.13805196 0.65342647 -0.00000020
-0.45814261 0.31978235 -0.00000078
0.02152029 -0.76699400 0.00457426
0.52738684 -0.62891400 0.11209896
-0.18598048 -0.39576903 0.00000000
-0.12325078 0.39429399 0.00000423
-0.07232008 -0.49255764 0.00000000
-0.24265841 -0.63099998 0.00000000
0.13917127 0.14929941 0.02958936
-0.14344729 0.01214783 0.00000965
0.23100375 -0.43818828 0.04910111
-0.75743455 -0.00639787 -0.00000181
0.53876644 0.05620100 0.11452020
0.09774051 -0.05633892 0.02077528
0.51571405 -0.26339933 0.10961757
-0.03826389 0.16563597 0.00000894
0.42626289 -0.03590163 0.09060422
0.61400050 0.04962246 0.13051020
-0.56160116 -0.40352830 -0.00000027
-0.17072037 -0.22125618 0.00000000
-0.05043856 0.08266774 0.00001000
0.56132656 -0.72871494 0.11931303
0.64771432 -0.57959658 0.13767493
-0.00147899 -0.01384489 0.00000000
-0.20777266 -0.78874606 0.00000000
0.00539530 0.07606075 0.00115708
0.06750853 0.28661999 0.01435589
-0.00500466 -0.30908042 0.00000000
-0.56421667 -0.22286709 -0.00000060
0.10538748 -0.70300615 0.02240068
0.35143703 -0.69383073 0.07469987
-0.15606365 -0.72977191 0.00000000
0.49256742 -0.31083068 0.10469776
-0.13361791 -0.24037112 0.00000000
-0.62011379 -0.47183055 -0.00000040
-0.36130214 -0.11036956 0.00000000
0.36777678 -0.60013133 0.07817296
-0.46844786 0.12068942 0.00000235
-0.48846447 -0.05295373 -0.00000058
0.32221025 -0.73118979 0.06848755
-0.08644885 -0.68730950 0.00000000
-0.07936303 0.70065719 0.00000014
0.27228284 0.33085641 0.05787812
0.33883157 -0.66241562 0.07202050
0.41587755 -0.72571236 0.08839705
-0.07293516 0.23320235 0.00000740
-0.07991965 0.61144471 0.00000161
0.55561596 -0.77611607 0.11809921
0.29533976 -0.17430684 0.06277608
-0.23046982 0.29349694 0.00000403
-0.28219762 -0.27961686 0.00000000
0.19630063 -0.77430224 0.04172477
0.34269875 0.35448468 0.07284355
0.50980902 -0.72605741 0.10836270
-0.30343542 -0.46493724 0.00000000
0.12590364 -0.11977548 0.02676151
0.73171282 -0.50556982 0.15552889
0.47923738 -0.01617975 0.10186405
-0.12632070 -0.51725996 0.00000000
-0.60365987 -0.11343149 -0.00000096
0.33007160 -0.30771780 0.07015852
0.32415518 0.02812686 0.06890827
0.70004386 -0.75204533 0.14879790
-0.04194454 0.74630982 0.00000009
-0.01468680 -0.46693459 0.00000000
0.03244975 -0.03469221 0.00689737
0.76124036 -0.33256966 0.16180480
0.32554880 -0.55036759 0.06919718
-0.75458235 -0.03083619 -0.00000175
-0.65915406 -0.52038866 -0.00000048
0.70422691 -0.26169887 0.14968640
0.45357394 -0.06987043 0.09640929
-0.49651471 -0.14176120 -0.00000045
0.39812404 -0.00987974 0.08462322
0.00061322 0.24140993 0.00013831
0.68416303 -0.20507351 0.14542168
-0.55654860 -0.30900761 -0.00000041
-0.28506452 0.07544339 0.00000657
-0.16692114 -0.25486952 0.00000000
-0.28304660 -0.76186109 0.00000000
0.19516301 -0.37378818 0.04148297
0.21133102 -0.72068191 0.04491957
0.33245355 0.19488692 0.07066896
-0.60998696 -0.17461380 -0.00000088
0.62131274 0.05397337 0.13206422
0.11055652 0.47910056 0.02350275
-0.52901131 -0.30740696 -0.00000030
-0.09127286 -0.06001716 0.00000000
-0.37915483 0.41329920 -0.00000082
-0.09922027 0.17977746 0.00000781
-0.45160800 -0.55556691 0.00000000
0.17892303 -0.43945235 0.03803107
-0.26357549 0.46172312 0.00000059
0.05963022 -0.49320963 0.01267473
-0.19318686 0.14369486 0.00000693
-0.39309064 -0.40275136 0.00000000
-0.58478224 0.16812338 -0.00000068
0.73952192 -0.34887180 0.15718853
0.00638310 -0.15054175 0.00135676
0.23244745 -0.23338969 0.04940798
-0.09868322 -0.19990925 0.00000000
0.55592537 -0.33065259 0.11816465
-0.48366469 -0.43945786 0.00000000
-0.31683972 0.47566783 -0.00000067
-0.48946330 -0.06828072 -0.00000055
0.25950041 -0.07724657 0.05515823
0.70191866 -0.54480153 0.14919613
-0.12660187 -0.07416354 0.00000000
0.46284682 0.16226543 0.09838271
-0.62130249 0.15557671 -0.00000117
0.41645417 0.13818733 0.08852307
0.65601259 -0.56156594 0.13943873
-0.19953994 -0.27888799 0.00000000
0.10659244 -0.34418648 0.02265681
-0.01269154 0.51937896 0.00000402
-0.06456117 0.43034470 0.00000457
-0.45082128 -0.54578549 0.00000000
0.30378729 -0.28179514 0.06457165
0.18866260 0.25071424 0.04010701
0.56219703 -0.39601764 0.11949780
-0.57596672 -0.00259543 -0.00000104
-0.08293717 -0.35532358 0.00000000
-0.60327947 -0.00021078 -0.00000116
0.67665809 -0.55228215 0.14382696
-0.62302321 -0.45920891 -0.00000043
0.54533517 -0.61335057 0.11591397
-0.33862755 -0.41702846 0.00000000
0.33104467 -0.77952588 0.07036536
0.67793691 -0.71808749 0.14409900
-0.65668744 -0.76833457 -0.00000003
-0.25318006 0.21865559 0.00000485
0.72747856 -0.41567877 0.15462878
0.01130033 0.10952731 0.00241168
0.26856661 -0.72681350 0.05708530
0.37727872 0.31520784 0.08019372
0.04486884 -0.14541911 0.00953712
0.31600267 -0.07026490 0.06716809
0.29596710 -0.71351367 0.06290943
0.42358014 0.30066383 0.09003466
-0.28358254 -0.30976582 0.00000000
-0.51425928 0.25487688 -0.00000077
-0.21193482 0.48055500 0.00000127
-0.07956978 -0.58529025 0.00000000
0.68024373 0.06868793 0.14458887
0.51165688 -0.41747996 0.10875540
0.00630404 0.22902682 0.00134804
0.55150729 -0.62219352 0.11722590
0.13653682 -0.23697662 0.02902165
-0.23845646 -0.75039345 0.00000000
0.24629246 0.13361105 0.05235758
-0.07341203 -0.13734904 0.00000000
0.62536371 -0.73672527 0.13292447
-0.37167975 -0.71985584 0.00000000
-0.28862306 0.50698066 -0.00000071
-0.66188043 0.13691531 -0.00000165
-0.04017086 0.36765566 0.00000588
0.20867994 -0.02111579 0.04435606
0.63697857 -0.20833002 0.13539253
-0.31302780 -0.48452097 0.00000000
0.42599502 -0.07239940 0.09054734
-0.37151602 0.34443441 0.00000048
-0.52905661 -0.39802897 -0.00000014
-0.28000450 -0.39408356 0.00000000
0.77428377 -0.21967067 0.16457707
-0.16509864 0.15074241 0.00000725
-0.40801677 -0.73830086 0.00000000
-0.29261065 -0.77720076 0.00000000
-0.76908940 -0.00209837 -0.00000186
0.29230598 -0.75395763 0.06213123
-0.16628602 0.52367234 0.00000142
-0.17522296 0.41772830 0.00000302
-0.63351822 -0.67060596 -0.00000010
-0.62918490 -0.79088509 0.00000000
0.04049774 0.31343275 0.00861451
-0.16570137 -0.33815911 0.00000000
-0.58360481 -0.31272072 -0.00000052
-0.45587033 -0.67025501 0.00000000
0.18748130 0.47536910 0.03985221
0.40402484 -0.32250303 0.08587769
0.67398131 -0.35831895 0.14325774
-0.49540097 -0.26325122 -0.00000023
-0.50579578 -0.34747377 -0.00000013
-0.61655247 0.07609939 0.00000025
0.74010128 -0.43899950 0.15731180
0.00719803 -0.23706649 0.00152998
-0.24105009 -0.73067307 0.00000000
-0.79484868 -0.54263037 -0.00000064
0.22893949 -0.04076165 0.04866234
0.24100889 -0.79155684 0.05122776
0.37315363 -0.79624009 0.07931584
0.13767280 0.21516049 0.02926993
0.00232930 0.17151418 0.00050406
0.53110313 -0.58623928 0.11288888
-0.47287452 0.21185195 0.00000074
-0.41642645 -0.35526577 0.00000000
0.47456437 0.04717234 0.10087517
0.66550952 -0.20382906 0.14145686
0.23207065 -0.15479060 0.04932789
-0.36810514 0.35909647 0.00000030
-0.35610819 0.24008377 0.00000251
0.54783392 -0.28032237 0.11644474
0.03691760 0.28616607 0.00785397
0.60015935 -0.15799689 0.12756646
0.13923413 -0.14558755 0.02959497
0.18128486 -0.49987489 0.03853309
-0.56597841 -0.48976240 -0.00000014
0.16198765 -0.29710102 0.03443136
-0.21449526 0.02023295 0.00000846
-0.61762035 -0.59390581 -0.00000017
0.31000653 0.10130112 0.06589986
-0.77938432 -0.69981927 -0.00000025
0.00740867 -0.42777273 0.00157475
-0.00589711 -0.24446186 0.00000000
-0.78384161 -0.33807141 -0.00000115
-0.49986118 -0.07464570 -0.00000059
0.20525233 0.06328923 0.04363574
-0.39097765 0.16289642 0.00000313
0.18147185 0.32670912 0.03857758
0.54710156 -0.15017490 0.11628890
0.27494439 -0.70125902 0.05844093
0.21588750 -0.02070493 0.04588807
0.40067083 -0.52739835 0.08516478
0.02042974 -0.24204136 0.00434245
-0.34201202 -0.65630889 0.00000000
-0.03548670 -0.07618672 0.00000000
-0.43939900 0.34924906 -0.00000091
0.18268846 -0.71081734 0.03883143
-0.37045127 0.38060907 -0.00000011
-0.15192010 -0.57144713 0.00000000
0.47637236 0.23322539 0.10125608
0.77300185 -0.42647645 0.16430487
-0.08356944 -0.77642143 0.00000000
0.03881622 -0.60236669 0.00825060
-0.70273691 -0.46558917 -0.00000076
0.69087446 -0.05466249 0.14684802
0.01731737 0.56363171 0.00368408
-0.40607655 -0.01833103 -0.00000029
-0.13023482 -0.64813501 0.00000000
-0.74738687 -0.56301653 -0.00000059
-0.04755785 0.68136472 0.00000106
0.50201422 0.28301230 0.10670492
0.40528670 -0.04006844 0.08614569
0.40193906 -0.15599142 0.08543430
-0.56709599 -0.71588695 0.00000000
0.30937916 -0.25287461 0.06576023
0.00506683 0.11867196 0.00108666
-0.69331342 -0.12825900 -0.00000132
0.32828653 -0.32196841 0.06977910
0.40725252 -0.11056444 0.08656363
0.33482161 -0.59125781 0.07116816
0.15186080 -0.73892361 0.03227885
0.64662296 -0.32985452 0.13744263
0.31672269 0.19081025 0.06732568
-0.11015194 -0.40826139 0.00000000
-0.47850651 -0.30455789 -0.00000009
-0.46072260 -0.64603490 0.00000000
-0.11717949 -0.65727538 0.00000000
-0.13708965 0.55446500 0.00000147
0.49452341 -0.62329483 0.10511366
0.20992365 -0.26213384 0.04462042
0.02974394 0.42576569 0.00632725
0.22483192 0.53870732 0.04778940
-0.66672724 -0.37707466 -0.00000076
0.32642615 0.06027370 0.06939035
-0.56869525 -0.01794383 -0.00000098
0.65039933 -0.59870028 0.13824566
-0.17536163 0.27241561 0.00000527
-0.34585834 -0.59899539 0.00000000
0.08662722 -0.04677416 0.01841309
0.33013701 -0.38655591 0.07017243
-0.68982470 -0.58262461 -0.00000050
0.40406904 -0.29002383 0.08588708
0.24200971 -0.25122476 0.05144049
0.73867148 -0.41945323 0.15700786
0.35756293 0.32889280 0.07600318
0.31311831 0.04789429 0.06656219
-0.06539202 -0.13067703 0.00000000
0.28349096 0.12888008 0.06026388
0.49730209 -0.37893552 0.10570422
0.35685334 -0.62337708 0.07585113
0.17072861 0.36662489 0.03629359
-0.00128477 -0.73303568 0.00000000
-0.47790560 -0.56449103 0.00000000
-0.42070544 -0.29444718 0.00000000
-0.37721914 -0.40301880 0.00000000
-0.12610467 -0.05306309 0.00000000
0.44896269 0.19219965 0.09543130
-0.32594693 -0.61175281 0.00000000
-0.03723766 -0.40123650 0.00000000
-0.48397416 0.17314012 0.00000118
-0.02854301 -0.41898331 0.00000000
0.32729682 -0.59256881 0.06956873
0.00874315 -0.74813128 0.00185840
0.52312481 -0.69924253 0.11119305
0.65824920 -0.69719374 0.13991430
-0.07545249 0.60527456 0.00000178
-0.00743749 0.01274936 0.00001170
0.55162728 0.14558204 0.11725198
0.66468829 -0.26727742 0.14128238
0.06107588 0.53583455 0.01298511
-0.00969543 -0.10318657 0.00000000
0.68666929 -0.74390173 0.14595510
0.35261011 0.22880650 0.07495233
0.40401122 -0.01835267 0.08587456
0.76594728 -0.18271470 0.16280508
-0.15203834 0.48292294 0.00000238
-0.71274149 -0.41135871 -0.00000090
-0.08375854 -0.72207189 0.00000000
0.05068190 0.00114698 0.01078356
-0.10754551 0.58029693 0.00000160
0.26609737 0.29911640 0.05656406
0.22524093 -0.30234116 0.04787619
-0.35736513 -0.53413963 0.00000000
-0.33645448 -0.47162932 0.00000000
-0.11662677 0.27963904 0.00000605
0.16155361 0.23874608 0.03434532
-0.22830100 -0.75200689 0.00000000
-0.05693657 -0.16128258 0.00000000
-0.62557471 0.16798925 -0.00000155
0.48133466 -0.14327782 0.10230999
-0.38064781 -0.49213269 0.00000000
0.19407436 0.07734397 0.04125973
0.42681345 -0.38638696 0.09072153
0.38701472 -0.00098855 0.08226189
0.18305391 0.12708841 0.03891668
-0.45425943 -0.37953392 0.00000000
0.29694635 -0.79085863 0.06311757
-0.41790694 -0.66128135 0.00000000
-0.01640415 -0.54223567 0.00000000
-0.60352892 0.18790662 -0.00000137
0.62602884 -0.05417661 0.13306496
0.37462896 0.27490830 0.07963128
0.44317275 0.07424545 0.09420286
-0.67776221 -0.21993692 -0.00000109
-0.62758040 -0.43637401 -0.00000049
0.39209545 0.13761158 0.08334600
0.53189182 0.13143983 0.11305776
0.65735495 -0.66064477 0.13972418
0.33695811 0.12655167 0.07162757
-0.24950694 0.01719391 0.00000798
0.26337326 -0.38507178 0.05598143
0.27728403 -0.31933886 0.05893824
0.33884719 -0.47845620 0.07202382
-0.58085483 -0.00514345 -0.00000106
-0.72297359 -0.58136243 -0.00000055
0.12416276 0.08327731 0.02640033
-0.18535341 0.34032464 0.00000410
-0.70901358 -0.31497157 -0.00000105
0.22940727 0.25292382 0.04876696
0.17839849 0.21825986 0.03792590
0.51613224 -0.19609950 0.10970636
-0.52719718 -0.11987454 -0.00000062
0.02581452 0.39983279 0.00549245
0.12824655 0.35916021 0.02726438
0.62737012 -0.73295808 0.13335092
0.00694433 -0.34332138 0.00147605
-0.42937300 0.25833178 0.00000080
-0.21179770 -0.50169832 0.00000000
-0.01157710 0.29918668 0.00000734
0.26606104 0.52669382 0.05655225
-0.43116891 0.36265138 -0.00000097
-0.32805160 -0.64849788 0.00000000
0.40764377 -0.63322628 0.08664691
-0.76107258 -0.38111946 -0.00000105
-0.08260847 -0.71158546 0.00000000
0.09902374 -0.12153407 0.02104804
0.32338560 -0.25859311 0.06873738
-0.62048531 -0.27116588 -0.00000075
0.01677986 -0.46010369 0.00356665
0.20491502 0.54771751 0.04355619
0.27562034 0.35174021 0.05858709
0.73022360 -0.00581681 0.15521172
0.27344838 -0.69586045 0.05812295
-0.14343269 -0.34514090 0.00000000
-0.45197737 0.02380600 0.00000429
-0.36276525 -0.30010220 0.00000000
0.25969872 0.30690843 0.05520399
-0.04587244 -0.60162264 0.00000000
0.08888592 -0.63718468 0.01889319
0.32511994 0.12563266 0.06911156
0.22837465 -0.20661980 0.04854228
0.53433430 -0.45604789 0.11357559
-0.02860372 0.37882587 0.00000589
-0.25132263 0.51099378 0.00000000
0.70469505 -0.63979846 0.14978638
0.01463839 -0.67735153 0.00311147
-0.21920474 -0.11700997 0.00000000
-0.14932530 0.63436604 -0.00000010
-0.42437539 -0.24190378 0.00000000
-0.36500973 -0.28166384 0.00000000
0.29870945 -0.13015643 0.06349233
0.04924281 0.02303729 0.01047738
0.35178757 -0.40801561 0.07477437
0.31295785 -0.03888241 0.06652090
-0.08521343 -0.76164174 0.00000000
0.59630519 -0.34075108 0.12674749
0.64181328 -0.27402669 0.13642025
-0.35065356 -0.07840361 0.00000000
-0.25293592 0.53742826 -0.00000047
-0.32600665 -0.12440792 0.00000000
-0.05643210 -0.76756442 0.00000000
-0.52640635 -0.74575037 0.00000000
0.00765213 -0.36760348 0.00162650
0.39996630 -0.73098969 0.08501502
-0.35805911 -0.71383286 0.00000000
-0.22263300 0.05782786 0.00000777
-0.06566369 -0.79627109 0.00000000
-0.02116905 0.51434964 0.00000397
0.17461184 0.13995238 0.03712218
-0.05026407 -0.17801651 0.00000000
-0.03499163 0.10144782 0.00000995
-0.06370229 0.41350555 0.00000484
0.49240270 0.17890526 0.10466407
0.06125467 -0.65622932 0.01302001
0.30580771 0.04108483 0.06500854
0.22912112 0.37580588 0.04870393
0.73775595 -0.58661145 0.15681347
0.02392227 0.52668482 0.00508845
0.35807288 -0.47713664 0.07611035
-0.42653516 -0.51315933 0.00000000
0.06763291 -0.13895509 0.01437574
0.30697405 -0.67731982 0.06524902
0.13991696 -0.70879775 0.02974011
-0.22554164 -0.70269144 0.00000000
0.18495885 0.14029443 0.03932138
0.11521410 0.35650221 0.02449444
-0.56448442 -0.47734734 -0.00000015
0.20440152 -0.38791957 0.04344666
-0.18686485 0.44533104 0.00000234
-0.50636625 -0.46287477 0.00000000
-0.37724832 -0.53987330 0.00000000
0.69255263 -0.33728600 0.14720508
-0.76726693 -0.10430775 -0.00000168
-0.72294945 -0.70738262 -0.00000023
0.16955729 -0.07620052 0.03604033
-0.72096473 -0.41390768 -0.00000093
0.45352966 -0.61888301 0.09640021
0.02236710 0.66665792 0.00475591
-0.60301906 -0.67496806 0.00000000
-0.75717050 -0.67766571 -0.00000031
-0.37841976 -0.37509009 0.00000000
-0.17954487 -0.40699530 0.00000000
-0.40264592 -0.55926466 0.00000000
0.64896584 -0.06803415 0.13794027
-0.12903129 -0.66391486 0.00000000
-0.09551273 0.59197116 0.00000164
-0.39799717 -0.49711236 0.00000000
-0.30400485 -0.65237248 0.00000000
-0.31497517 0.08228755 0.00000594
0.37985381 -0.60658222 0.08074001
0.64408123 -0.65886396 0.13690282
0.66412771 -0.41052598 0.14116341
0.32554510 0.21504822 0.06920031
-0.21492775 0.04899099 0.00000802
0.05094703 0.63390732 0.01083088
0.21010438 -0.52447748 0.04465883
0.17862947 0.23779476 0.03797471
0.35378790 0.22096777 0.07520279
-0.21988937 0.42561299 0.00000203
0.36925218 -0.55222547 0.07848657
-0.00073804 0.71374404 0.00000128
-0.09343916 0.53216094 0.00000261
0.48046529 -0.31568611 0.10212544
0.61723834 -0.01097187 0.13119645
-0.63591272 -0.00843125 -0.00000128
-0.61257541 0.07027927 0.00000043
0.00736053 -0.64287668 0.00156452
0.04871188 0.47405612 0.01035809
0.01164600 -0.25060338 0.00247542
-0.01271765 -0.63674742 0.00000000
0.00834395 -0.21922718 0.00177355
0.43103859 -0.25625965 0.09161960
0.06408310 -0.49861416 0.01362121
-0.16609769 0.38955811 0.00000365
-0.71410972 -0.74576575 -0.00000014
-0.59643608 -0.33125722 -0.00000055
-0.39683130 0.40119982 -0.00000099
0.14639491 0.61345029 0.03111742
0.34918687 -0.01664157 0.07422152
0.42047644 -0.24377625 0.08937457
0.37578705 -0.05697876 0.07987550
-0.17452577 -0.08180345 0.00000000
0.11340673 0.22697061 0.02411214
0.38080043 0.04096269 0.08094714
-0.47726738 0.19849811 0.00000088
0.59097856 -0.01769321 0.12561488
-0.08694949 -0.65669537 0.00000000
0.39511263 0.18989561 0.08398631
0.10289245 -0.30695319 0.02187035
-0.19544591 -0.70560002 0.00000000
-0.64054620 -0.07726575 -0.00000118
0.76359737 -0.26783258 0.16230571
-0.33538073 -0.03624236 0.00000000
0.18024234 0.17833772 0.03831837
0.10344626 -0.20657884 0.02198807
0.24203555 -0.26474661 0.05144598
-0.79671687 -0.35017550 -0.00000112
0.36683917 -0.38906237 0.07797368
-0.61036217 -0.05450132 -0.00000109
0.75055081 -0.06887387 0.15953238
0.00003485 0.27487251 0.00001491
-0.22083256 -0.06133095 0.00000000
-0.47367615 -0.56746495 0.00000000
-0.43083835 -0.01963068 -0.00000039
0.50615978 -0.25915655 0.10758679
-0.06681651 -0.39953592 0.00000000
0.69624025 -0.12221110 0.14798862
-0.22618175 -0.73094249 0.00000000
-0.51448739 -0.36339876 -0.00000014
0.60645670 -0.45896235 0.12890539
-0.01305553 0.13873591 0.00000972
0.30658025 -0.33779180 0.06516531
0.07636940 -0.52396935 0.01623273
0.58610797 -0.21358097 0.12457988
0.25222743 -0.32189763 0.05361232
-0.72492790 -0.37806278 -0.00000101
0.51582104 0.01884219 0.10964417
0.65169621 -0.56041622 0.13852127
-0.13475634 -0.39122456 0.00000000
-0.43556100 -0.03229536 -0.00000039
0.06839713 -0.11253451 0.01453818
-0.33604842 -0.53669220 0.00000000
0.67923224 -0.47393140 0.14437398
0.17809360 0.39875907 0.03785837
-0.39050007 0.38468227 -0.00000056
-0.34500086 -0.69721723 0.00000000
0.72728336 -0.60923404 0.15458754
0.02366331 0.57890654 0.00503266
-0.01927687 -0.28611800 0.00000000
0.05511202 -0.47343963 0.01171436
0.18853481 0.48935196 0.04007587
0.70436579 -0.70800614 0.14971648
-0.76629221 -0.56417823 -0.00000059
-0.40654591 -0.05905101 -0.00000022
0.72921890 -0.76212740 0.15499914
0.43568844 -0.00549572 0.09260761
-0.60021937 -0.04865442 -0.00000106
0.13469687 0.26012343 0.02863677
0.56667459 0.12546749 0.12045042
-0.12722734 0.03437479 0.00000956
-0.79822481 -0.14538144 -0.00000164
0.01042785 0.42455605 0.00222174
-0.73636872 -0.08521340 -0.00000158
-0.45749974 0.02052352 0.00000423
-0.03465341 0.39578891 0.00000554
0.70046514 -0.18810640 0.14888673
-0.09315424 -0.59364682 0.00000000
-0.01936861 -0.45874926 0.00000000
0.36143246 -0.03899972 0.07682438
-0.61425358 -0.71442586 0.00000000
0.14338000 -0.72727334 0.03047620
-0.73118812 -0.42375734 -0.00000094
-0.59977639 0.07959532 0.00000052
0.73137671 0.01252990 0.15545744
-0.30005464 0.31382477 0.00000236
0.45377383 -0.71236700 0.09645211
-0.37051111 -0.64528972 0.00000000
-0.29589990 0.09007507 0.00000618
0.17290688 -0.39045036 0.03675230
-0.35311526 -0.41785491 0.00000000
-0.26255801 0.01327919 0.00000784
-0.10108150 0.15552978 0.00000814
-0.03213395 0.18555708 0.00000873
0.37469092 -0.61383891 0.07964260
0.76444602 -0.33857533 0.16248620
0.61239213 -0.70547950 0.13016729
0.53557038 -0.45971188 0.11383833
-0.61691946 -0.32858035 -0.00000064
0.33809602 -0.02771191 0.07186415
0.56867695 -0.00147166 0.12087460
-0.02774832 -0.59646285 0.00000000
0.26171547 -0.50622535 0.05562905
0.35576013 -0.35581899 0.07561876
-0.04224423 -0.00970570 0.00000000
0.21013865 0.21909437 0.04467208
-0.03943456 0.40840510 0.00000528
0.50174272 -0.44107136 0.10664816
0.18919048 -0.21376333 0.04021347
-0.38962620 0.06130871 0.00000486
-0.10839255 -0.22382474 0.00000000
-0.26845956 -0.50637233 0.00000000
0.75512785 -0.45300779 0.16050574
0.46607247 -0.10694940 0.09906593
-0.09941976 -0.28983483 0.00000000
-0.32413426 -0.54806900 0.00000000
0.60450435 -0.77840769 0.12849070
0.15350010 0.35155374 0.03263198
-0.26376036 0.24952525 0.00000413
-0.20540595 -0.46695489 0.00000000
-0.14601518 -0.25377887 0.00000000
-0.13739690 -0.54466063 0.00000000
-0.71103889 -0.08546218 -0.00000147
-0.79717040 -0.43760043 -0.00000091
0.01364844 -0.09256407 0.00290105
-0.43176472 0.13415895 0.00000283
-0.60371876 -0.48545513 -0.00000030
-0.64225096 -0.32658112 -0.00000075
-0.69711977 -0.25518408 -0.00000111
-0.27036366 -0.42030832 0.00000000
0.21879648 -0.00721347 0.04650639
-0.41520607 -0.30297384 0.00000000
-0.65033644 0.12163214 -0.00000116
-0.15669946 0.56663716 0.00000089
-0.51839048 -0.20404673 -0.00000044
-0.48918492 -0.09613491 -0.00000050
-0.24440996 0.00492276 0.00000824
-0.75674343 -0.59414041 -0.00000051
0.03448830 -0.16859628 0.00733068
0.67367679 -0.17816898 0.14319278
-0.73252463 -0.15170765 -0.00000144
0.33995262 -0.13189660 0.07225879
0.39360559 -0.06010555 0.08366287
-0.63319987 -0.61583024 -0.00000020
-0.19174016 -0.32107952 0.00000000
-0.48653865 -0.68144935 0.00000000
0.55342448 0.22134168 0.11763258
0.11120541 -0.70708758 0.02363732
0.02552155 -0.49077344 0.00542475
0.03236128 -0.22033434 0.00687857
-0.73090172 -0.10555552 -0.00000152
0.27565461 0.18397564 0.05859739
0.52319604 -0.28823951 0.11120792
0.39582503 -0.20491354 0.08413477
-0.32858306 0.12560546 0.00000496
0.30604231 -0.07705713 0.06505097
-0.24799398 -0.66209614 0.00000000
-0.26814497 0.18511587 0.00000512
-0.12453108 -0.26260349 0.00000000
0.65650856 0.12099224 0.13954338
0.18636777 -0.77626616 0.03961349
0.59858966 -0.28233293 0.12723298
0.05134733 -0.38643953 0.01091416
-0.21780330 0.31392792 0.00000394
-0.43330869 -0.79462951 0.00000000
-0.71228713 -0.07149036 -0.00000150
-0.38506544 -0.22753854 0.00000000
-0.59502196 -0.62319505 -0.00000002
-0.10489678 -0.29937476 0.00000000
0.07989296 -0.26897094 0.01698169
0.34840739 0.36342955 0.07405668
-0.59157276 -0.37497619 -0.00000045
0.77494121 -0.12291860 0.16471669
-0.61185652 0.08214887 0.00000024
0.42865759 -0.63161021 0.09111352
0.17500325 -0.63318425 0.03719790
0.07486784 -0.71594751 0.01591357
-0.10958017 -0.25204360 0.00000000
-0.30393735 -0.03668402 0.00000000
0.08965672 0.24985597 0.01906389
-0.01525107 -0.42072451 0.00000000
-0.68004304 -0.27447566 -0.00000100
0.14134389 0.16194461 0.03005096
0.56898338 -0.46527556 0.12094035
-0.40723619 0.05078908 0.00000469
-0.14963172 -0.00720072 0.00000000
0.56446880 -0.60136724 0.11998093
0.20645627 -0.13109151 0.04388341
-0.29403663 -0.71551037 0.00000000
0.24187531 -0.45852906 0.05141192
-0.22311559 -0.28077784 0.00000000
0.02402605 0.44489846 0.00511167
0.47180578 -0.39890590 0.10028490
-0.69161779 -0.51978010 -0.00000062
0.57057357 0.13443722 0.12127893
0.19750904 0.05562346 0.04199006
0.26419798 0.46210095 0.05615744
-0.37595668 -0.75908625 0.00000000
0.22228521 0.25099668 0.04725331
0.66085362 -0.54991478 0.14046769
-0.04081688 -0.70480329 0.00000000
0.06190257 0.35883221 0.01316334
-0.19130281 0.28357002 0.00000486
-0.13138896 -0.67859375 0.00000000
0.10021074 0.33337742 0.02130589
0.30551699 -0.25098231 0.06493930
-0.31630492 0.28971314 0.00000245
-0.68842494 -0.35780731 -0.00000089
-0.18595394 -0.30758572 0.00000000
0.20565747 -0.37675434 0.04371362
0.40360788 -0.16426437 0.08578902
0.22188903 -0.73423296 0.04716373
-0.12600246 -0.47003078 0.00000000
0.01979000 -0.79333717 0.00420647
0.49195370 0.02865028 0.10457135
0.44526392 0.33828488 0.09464255
-0.72602785 -0.11943012 -0.00000147
0.73269469 -0.36417720 0.15573741
-0.01423241 -0.79026580 0.00000000
0.40938628 -0.43462011 0.08701729
-0.40921992 -0.75617778 0.00000000
-0.33894929 -0.65195268 0.00000000
0.34233025 0.39922571 0.07276443
0.77759558 -0.77823770 0.16528168
0.17826343 -0.03736764 0.03789087
-0.46085209 -0.22885931 -0.00000015
0.30267045 0.19214997 0.06433905
-0.58260274 -0.46167815 -0.00000026
-0.26288334 0.45345268 0.00000074
-0.71809191 -0.79226875 -0.00000002
-0.00207426 0.47770140 0.00000480
0.46563819 -0.40407458 0.09897395
0.04295638 -0.48116487 0.00913061
-0.29063264 0.30347320 0.00000271
0.08872606 -0.02148758 0.01885921
0.02069850 0.33424053 0.00440600
-0.60770160 -0.72454500 0.00000000
0.07185460 -0.54892558 0.01527309
0.01425870 0.57936686 0.00303376
0.58683681 0.05610745 0.12473686
-0.65867120 -0.08006294 -0.00000126
0.01229173 -0.47628567 0.00261268
-0.40745455 -0.28544608 0.00000000
-0.53920704 -0.03605406 -0.00000082
0.54709738 -0.33918998 0.11628826
-0.50584012 -0.59348744 0.00000000
-0.71974987 -0.39695749 -0.00000096
0.04935906 -0.15501408 0.01049154
0.44873714 0.04179244 0.09538607
-0.03314328 0.71971929 0.00000070
0.35992804 -0.37272015 0.07650468
0.51183003 -0.26759377 0.10879201
0.74839091 -0.21383850 0.15907349
-0.68862689 -0.55070710 -0.00000055
0.43264970 -0.38986948 0.09196206
-0.49278772 -0.02359188 -0.00000065
0.41798049 -0.05944657 0.08884381
0.07879597 0.13804553 0.01675709
-0.36553064 -0.39398700 0.00000000
-0.09586631 0.62191743 0.00000113
0.31332368 -0.17208999 0.06659866
0.71792567 -0.53849107 0.15259846
-0.48443967 -0.02149663 -0.00000062
0.08149797 -0.43058911 0.01732284
-0.07172138 -0.73642850 0.00000000
0.23971015 -0.06176658 0.05095170
0.29748762 -0.71617955 0.06323262
0.43624198 0.03886626 0.09273046
-0.21787615 -0.43784955 0.00000000
-0.24866179 -0.22699599 0.00000000
0.30362597 -0.72273070 0.06453736
-0.06683492 0.59606713 0.00000205
0.64389515 0.02281442 0.13686435
-0.75764501 -0.69339663 -0.00000027
-0.07774239 -0.43434688 0.00000000
-0.08434659 0.33441481 0.00000571
0.14044797 0.22483119 0.02985964
0.15770447 -0.03727761 0.03352095
0.53167439 -0.09004150 0.11300974
-0.29505715 -0.63060755 0.00000000
-0.62315065 -0.22659960 -0.00000084
-0.70388162 -0.55521607 -0.00000061
-0.70337337 -0.20158617 -0.00000123
0.69209081 -0.78836316 0.14710753
0.04238126 -0.27634364 0.00900837
0.49327829 -0.32120568 0.10484887
-0.47621605 -0.65360785 0.00000000
-0.00777329 -0.09400431 0.00000000
0.06578581 0.59599495 0.01398532
-0.39673325 -0.53708756 0.00000000
0.37761158 -0.16000895 0.08026341
0.14933781 0.25515962 0.03174869
0.56719303 -0.43501583 0.12055976
-0.76282114 -0.07960347 -0.00000170
-0.20126490 0.59207308 -0.00000039
0.02087836 0.01391772 0.00444880
0.03974179 0.57582378 0.00845009
0.41757810 0.01936433 0.08876408
0.19182990 0.54343045 0.04077522
-0.25476325 -0.71263087 0.00000000
-0.72108984 -0.74682730 -0.00000013
0.09756855 -0.47219777 0.02073873
0.27057749 -0.66334069 0.05751272
-0.19175479 0.52064610 0.00000098
0.64263475 -0.25542155 0.13659483
0.54089028 -0.22633316 0.11496879
0.35650483 0.11729675 0.07578210
-0.52015507 0.19983684 0.00000004
-0.21923485 0.32724980 0.00000369
-0.23408921 0.02363984 0.00000811
-0.03587564 -0.79392976 0.00000000
-0.39872283 0.37566274 -0.00000057
0.31246269 0.33437410 0.06641769
-0.36942849 -0.05967510 -0.00000006
0.19292919 -0.43565625 0.04100815
-0.28147480 0.40752062 0.00000115
0.65523130 -0.40640044 0.13927245
0.13593338 0.22201139 0.02890013
0.41119856 0.21118195 0.08740475
0.39934680 0.24566787 0.08488521
0.27430499 -0.63628531 0.05830503
-0.27208856 -0.37382942 0.00000000
-0.05608035 0.22290942 0.00000781
-0.23235370 0.56393921 -0.00000057
-0.69281960 -0.02380110 -0.00000150
-0.41008222 -0.31078595 0.00000000
-0.03326956 0.24090447 0.00000788
-0.52398413 -0.47701225 0.00000000
-0.55875289 -0.42147684 -0.00000023
-0.56226647 0.14997706 0.00000006
-0.15175492 0.51943320 0.00000177
-0.10815200 -0.68162751 0.00000000
-0.53977448 0.00878750 0.00000285
-0.55088735 -0.67292935 0.00000000
-0.13445844 0.13156421 0.00000800
0.01547285 0.49049890 0.00329309
-0.20789456 0.19001015 0.00000601
0.06697692 -0.42828238 0.01423631
0.27694044 -0.70827717 0.05886521
0.08446506 -0.14960107 0.01795351
0.58077860 0.06961269 0.12344902
0.43231910 -0.73927975 0.09189179
-0.30260873 -0.03243959 0.00000000
-0.61662489 0.13189062 -0.00000068
0.21409957 -0.49351791 0.04550803
0.46722668 0.00527111 0.09931641
-0.33996338 -0.71001208 0.00000000
0.58423489 -0.33292836 0.12418191
0.17565341 0.55193645 0.03733699
-0.49854794 -0.06089791 -0.00000061
-0.46502256 0.06640462 0.00000332
-0.11778855 -0.50780892 0.00000000
-0.68757969 -0.34223482 -0.00000092
0.33836302 0.08220193 0.07192696
0.64812309 0.04351499 0.13776256
0.31708157 -0.62424523 0.06739742
0.38348207 0.20954262 0.08151405
0.48580059 -0.49365434 0.10325957
-0.29737312 -0.73016316 0.00000000
0.67428172 -0.11992458 0.14332129
-0.02772157 -0.38354427 0.00000000
0.52051520 -0.23064491 0.11063802
0.66882944 -0.66880691 0.14216311
0.52716136 -0.37271661 0.11205086
-0.34602186 0.08227299 0.00000534
-0.06487152 0.10735305 0.00000941
0.67722988 -0.22805588 0.14394806
0.36590597 0.14376879 0.07777970
0.13862202 -0.78210187 0.02946487
0.60477102 -0.52563310 0.12854718
0.53533268 0.09149996 0.11378978
0.13843226 0.26783207 0.02943060
-0.37411782 -0.18078974 0.00000000
0.16475829 -0.23467015 0.03502028
-0.06899423 -0.00634422 0.00000000
-0.21139362 0.48505616 0.00000120
0.19677942 -0.00291859 0.04182654
0.18062937 -0.45722458 0.03839376
-0.30597258 0.31614119 0.00000221
0.59652662 -0.60316950 0.12679490
0.68059117 -0.21213308 0.14466248
0.52807212 -0.22591645 0.11224425
0.59220761 -0.50995463 0.12587677
-0.14144222 0.28399253 0.00000561
-0.04014203 0.28630006 0.00000710
0.67068964 -0.66736805 0.14255850
-0.31650618 -0.57728636 0.00000000
-0.26586977 -0.04145559 0.00000000
0.00331925 -0.69544131 0.00070553
-0.41803357 0.34815991 -0.00000048
0.59514123 -0.17244525 0.12649988
-0.03335738 0.46318287 0.00000455
-0.70583785 -0.28578749 -0.00000109
0.06661642 0.34681040 0.01416541
-0.70212507 -0.35655680 -0.00000095
0.11791687 -0.25754869 0.02506388
0.07431878 -0.27004248 0.01579686
-0.28903961 0.49728113 -0.00000049
-0.11551512 0.58531308 0.00000137
-0.28558919 -0.05427280 0.00000000
0.58247262 -0.43409476 0.12380747
0.76936883 -0.79532874 0.16353311
-0.04297324 0.21653128 0.00000810
0.24856870 0.24496907 0.05283958
-0.35021308 -0.74637347 0.00000000
0.27877966 -0.22241336 0.05925614
-0.25486374 -0.44337243 0.00000000
-0.18944125 0.00597232 0.00000905
0.38416839 -0.59561765 0.08165709
0.21628004 -0.05864917 0.04597151
0.05384656 0.18046762 0.01145363
-0.67233753 -0.15567575 -0.00000118
-0.28162017 0.06351461 0.00000680
-0.39733553 0.17019401 0.00000289
0.13207795 -0.61445171 0.02807389
0.24472280 -0.38635710 0.05201717
-0.08701120 -0.08021528 0.00000000
-0.16542755 -0.75603044 0.00000000
-0.36440372 -0.20740017 0.00000000
0.66335720 -0.39045832 0.14099962
-0.60238373 -0.13818172 -0.00000091
0.31984162 0.30067772 0.06798658
0.61165738 -0.12379123 0.13001035
-0.37006903 0.40082771 -0.00000044
-0.03499739 -0.16646852 0.00000000
0.49803635 -0.03287578 0.10585983
0.31266025 0.38354760 0.06645880
-0.28878215 -0.72696066 0.00000000
-0.58803821 -0.19293217 -0.00000075
-0.08671867 -0.41950482 0.00000000
-0.29571959 0.31585160 0.00000241
-0.02589051 -0.26893398 0.00000000
-0.47330830 -0.37901691 0.00000000
0.04475395 0.67607588 0.00951397
-0.41537601 -0.15296581 -0.00000009
-0.46135518 0.28989363 -0.00000034
0.08846071 -0.58355200 0.01880281
-0.27314395 -0.28729147 0.00000000
0.15759867 -0.04201403 0.03349846
-0.50884032 -0.65354407 0.00000000
-0.60561180 0.13900876 -0.00000059
0.07679378 -0.67256206 0.01632294
0.68540704 -0.35983115 0.14568631
-0.25068825 0.25567392 0.00000428
0.05481477 0.32309511 0.01165738
-0.22804137 0.16295126 0.00000611
0.66102344 -0.30772418 0.14050347
-0.50973195 0.27738315 -0.00000106
0.19479673 0.00153023 0.04141435
-0.33188018 -0.78825742 0.00000000
0.61780667 -0.20073234 0.13131750
0.21935500 -0.38031694 0.04662511
0.78074336 -0.63524717 0.16595058
-0.17872392 0.42812625 0.00000278
-0.16970266 -0.48186707 0.00000000
0.61032927 -0.30319673 0.12972830
-0.19445688 0.26367724 0.00000511
-0.30918521 -0.72677481 0.00000000
0.14919928 0.04834740 0.03172220
0.33725330 -0.76726723 0.07168504
0.30271646 -0.30742994 0.06434404
0.57153505 -0.40965334 0.12148264
0.62930906 -0.35444057 0.13376255
-0.52453834 -0.42274436 -0.00000008
0.14488979 -0.18046369 0.03079712
0.04850349 0.30324346 0.01031624
0.27840716 0.33546978 0.05917968
0.50299895 -0.71961129 0.10691518
-0.34428397 -0.55937082 0.00000000
-0.17223912 -0.26406384 0.00000000
-0.21438888 -0.36773625 0.00000000
-0.74451905 -0.33028907 -0.00000117
0.23427983 0.16481373 0.04980392
-0.42398235 0.07270754 0.00000401
0.40739647 -0.65349460 0.08659435
0.25615406 -0.01561374 0.05444694
-0.22190207 -0.68602115 0.00000000
-0.61497557 0.06906437 0.00000040
-0.35493338 -0.64729726 0.00000000
-0.44643238 0.19453774 0.00000154
-0.13455686 -0.64441746 0.00000000
0.55584705 -0.44896612 0.11814817
-0.06814776 0.25366959 0.00000717
-0.72850770 -0.07973080 -0.00000155
0.00546961 0.15332557 0.00117177
-0.00665820 -0.61016953 0.00000000
-0.10879592 -0.58806038 0.00000000
-0.42541963 -0.34804165 0.00000000
0.12148270 -0.54551119 0.02582181
-0.39724568 0.29307288 0.00000084
-0.11574123 0.60485309 0.00000104
0.55902302 -0.78652096 0.11882340
-0.63379949 -0.42259771 -0.00000054
-0.63418466 -0.13469817 -0.00000105
-0.73591340 -0.70840603 -0.00000023
0.14817213 -0.54090893 0.03149480
-0.04197423 0.55596447 0.00000303
0.01127092 -0.15851192 0.00239570
-0.15332232 0.16519558 0.00000721
-0.18629339 0.53074205 0.00000092
-0.02259655 -0.42215836 0.00000000
0.45433053 0.15289147 0.09657286
-0.70468855 -0.48779601 -0.00000073
-0.20510480 -0.46738592 0.00000000
-0.66583073 -0.21379574 -0.00000105
-0.67505044 -0.23901081 -0.00000104
0.33383837 -0.44310617 0.07095917
0.06364062 0.63716727 0.01352878
-0.56999588 0.21765237 -0.00000122
-0.28583106 -0.35103989 0.00000000
0.41638574 -0.39213806 0.08850506
0.22958168 0.35678685 0.04880216
0.13238373 -0.00814246 0.02813889
0.05928050 -0.46902680 0.01260039
0.46155018 -0.31026906 0.09810498
0.14903963 0.15182327 0.03168679
0.27987584 -0.02390086 0.05948914
-0.06703108 -0.68929970 0.00000000
0.24567162 -0.12865344 0.05221885
0.16240533 -0.32116202 0.03452014
-0.09863319 0.25501266 0.00000669
-0.02022601 0.18051377 0.00000899
0.19858068 0.56542987 0.04220960
-0.06198783 0.25532228 0.00000723
-0.11519498 0.24297324 0.00000662
0.53189796 0.20781109 0.11305768
0.28707939 -0.02067915 0.06102030
-0.49190149 -0.20712695 -0.00000032
0.27044064 -0.69932717 0.05748364
-0.41868433 -0.19533756 -0.00000003
0.51870018 -0.52603060 0.11025256
-0.08740666 -0.62463808 0.00000000
-0.28817075 0.14662184 0.00000538
0.13334949 0.18124239 0.02835152
-0.61180341 -0.62124288 -0.00000010
0.13286419 0.60974252 0.02824174
0.02295431 -0.72955179 0.00487906
0.10390506 0.56837022 0.02208765
-0.08512997 0.20861021 0.00000759
0.21930934 0.35297945 0.04661900
0.28613436 -0.26110071 0.06081943
0.10612155 0.27861282 0.02256298
-0.52262527 -0.54913443 0.00000000
-0.62429750 -0.75001627 0.00000000
0.22905493 0.03505858 0.04869526
-0.50512666 -0.37758473 -0.00000007
-0.60382980 -0.76363546 0.00000000
-0.61670268 -0.76430637 0.00000000
-0.50677127 -0.21713395 -0.00000036
-0.36304408 0.13666162 0.00000411
-0.65499562 -0.32261091 -0.00000081
0.27816516 0.45354700 0.05912611
0.52629745 -0.25959510 0.11186709
0.33258963 -0.20902418 0.07069375
0.46317962 -0.30321279 0.09845131
0.43131807 -0.15144835 0.09167886
0.54256338 -0.54595542 0.11532481
0.67304796 -0.52118611 0.14305958
-0.16037646 -0.35913241 0.00000000
-0.50678498 -0.56100470 0.00000000
0.13587756 -0.18277185 0.02888152
-0.33710229 0.36693826 0.00000076
-0.50331950 -0.18813840 -0.00000040
0.40872252 -0.17803910 0.08687617
-0.09448232 0.10412421 0.00000901
-0.52280116 -0.05535851 -0.00000072
0.69523931 -0.42415521 0.14777628
-0.52012247 -0.45746961 0.00000000
-0.32308969 0.27802771 0.00000251
-0.12666586 0.38422573 0.00000433
0.47808012 0.22793069 0.10161914
-0.56748551 -0.69290590 0.00000000
-0.40561259 -0.11272248 -0.00000012
0.17626199 -0.12577860 0.03746545
-0.53087360 -0.54901296 0.00000000
-0.29797104 -0.38557249 0.00000000
-0.09458628 0.52242273 0.00000274
-0.21092594 -0.30455220 0.00000000
0.04220589 0.10463509 0.00898055
0.48433536 -0.00611497 0.10294762
-0.59331119 -0.28721750 -0.00000061
0.61131769 -0.31388494 0.12993839
-0.11698930 0.06740878 0.00000922
-0.19384213 0.38545975 0.00000320
0.07668146 -0.46169809 0.01629906
0.45840964 -0.02265709 0.09743707
-0.38338840 0.25576633 0.00000173
-0.63273853 -0.21590176 -0.00000090
-0.42087665 -0.57480347 0.00000000
0.66089028 -0.43319485 0.14047533
0.58373255 -0.07900756 0.12407480
-0.12795150 -0.37110883 0.00000000
-0.74752212 -0.52216452 -0.00000069
0.40614745 0.08366493 0.08633351
-0.09709000 -0.75808465 0.00000000
0.07026753 0.72058755 0.01493575
0.06569124 0.67747438 0.01396390
0.24934775 -0.62240338 0.05300023
-0.34992483 0.14037070 0.00000430
-0.58046973 -0.52834177 -0.00000013
0.45629990 0.18009211 0.09699093
0.20828784 -0.76076883 0.04427272
-0.71753937 -0.27805027 -0.00000116
0.53266430 -0.46282917 0.11322064
-0.68289179 0.00145614 0.00000022
-0.19056024 0.57881916 0.00000004
0.27063850 -0.50482184 0.05752569
0.23664615 -0.35265520 0.05030043
0.20323464 -0.09213612 0.04319864
0.10231608 0.22329096 0.02175494
0.08669115 0.62462771 0.01842808
-0.79978919 -0.14319237 -0.00000164
-0.25574112 0.43766683 0.00000114
0.22283401 -0.04720484 0.04736459
-0.78008801 -0.39628050 -0.00000101
-0.49478611 -0.54122907 0.00000000
-0.31264156 0.09988633 0.00000569
-0.34212577 0.39815468 0.00000014
0.13454831 0.55534130 0.02860065
-0.05649540 -0.46700096 0.00000000
-0.12027724 -0.69389522 0.00000000
0.76366907 -0.09347064 0.16232073
-0.73182857 -0.79893696 -0.00000000
-0.30460468 -0.40847147 0.00000000
0.66684353 -0.68767935 0.14174104
-0.24253277 0.50547504 0.00000026
0.51325554 -0.36921757 0.10909514
0.55696976 -0.25025538 0.11838654
0.09639993 -0.60055017 0.02049033
0.53357631 -0.22398993 0.11341417
-0.68976724 -0.26303551 -0.00000106
0.28927276 0.00107014 0.06149470
-0.01152327 -0.30443978 0.00000000
-0.11198159 -0.69406211 0.00000000
0.37354431 0.26672089 0.07940090
-0.75827026 -0.19300537 -0.00000148
-0.46496654 0.32082149 -0.00000093
-0.52565938 -0.63418937 0.00000000
0.28113937 -0.06464922 0.05975771
0.02940726 -0.58707893 0.00625067
-0.54306698 -0.13918757 -0.00000066
-0.02724970 -0.07912293 0.00000000
-0.15103377 -0.77085423 0.00000000
0.38848922 0.31553528 0.08257634
0.33862656 -0.09369935 0.07197693
0.50154114 -0.53961211 0.10660531
0.09986501 -0.47151285 0.02122685
-0.27856863 -0.55335796 0.00000000
-0.52253044 0.01815670 0.00000303
0.78215402 -0.21560390 0.16624990
-0.47220537 0.01984979 0.00000396
-0.29401800 -0.34394544 0.00000000
0.27540711 -0.11146123 0.05853929
0.22278178 -0.52201456 0.04735349
0.47932425 0.14562047 0.10188504
0.56374139 -0.22531760 0.11982584
0.16431855 -0.62317824 0.03492681
-0.22274184 -0.66911334 0.00000000
-0.14860675 -0.65789992 0.00000000
-0.50673795 0.06111052 0.00000261
-0.77959198 -0.37214819 -0.00000107
0.21610242 -0.71791381 0.04593375
0.54510218 -0.00682816 0.11586375
0.77438611 -0.12200288 0.16459870
-0.77319759 -0.04682407 -0.00000180
0.20898511 -0.41906166 0.04442093
0.09130135 0.31871325 0.01941246
0.00940368 -0.21376914 0.00199880
0.29542288 -0.72485387 0.06279375
-0.41739839 0.30876136 0.00000019
0.75823033 -0.12691145 0.16116476
-0.00126185 0.32309559 0.00000713
0.07799545 -0.52005297 0.01657836
-0.07137498 -0.56032062 0.00000000
-0.18698925 0.47458276 0.00000184
0.32589495 -0.64577752 0.06927076
0.55194455 -0.26488256 0.11731844
-0.79962999 -0.11697146 -0.00000171
-0.21655278 -0.68496525 0.00000000
-0.22300385 -0.79103142 0.00000000
0.34016505 -0.01367213 0.07230391
-0.57068604 -0.56688744 -0.00000002
-0.10540180 0.22287983 0.00000707
0.76733726 -0.70934808 0.16310118
0.23287249 0.08257237 0.04950598
-0.15079539 0.51781881 0.00000182
-0.16146179 0.21561816 0.00000633
-0.79173493 -0.59052807 -0.00000052
0.57895398 -0.52740675 0.12305970
0.08054751 -0.28048965 0.01712081
0.05195571 -0.75287122 0.01104347
0.24954249 0.37014192 0.05304429
0.60975069 0.09816928 0.12960610
-0.47031713 -0.74500787 0.00000000
-0.07841165 -0.15229408 0.00000000
-0.21732292 -0.42452508 0.00000000
-0.42245224 -0.61650938 0.00000000
0.72048903 -0.79507554 0.15314361
-0.27695212 0.28532511 0.00000328
-0.69425094 0.07287412 -0.00000119
-0.05893906 0.03505437 0.00001058
0.00605796 -0.15001732 0.00128765
-0.40584686 -0.77724725 0.00000000
-0.18430756 -0.30598721 0.00000000
0.35424006 0.00166550 0.07530284
0.46520263 -0.61836982 0.09888136
0.29852936 0.42524147 0.06345473
0.16687129 -0.59916639 0.03546941
-0.67929977 -0.17023502 -0.00000118
