ply
format ascii 1.0
element vertex 1378
property float x
property float y
property float z
end_header
-0.59049058 -0.58894795 0.10648730
-0.33184421 0.02618448 0.07947375
-0.19573671 -0.03019240 0.00000337
-0.69710219 -0.65959334 -0.00000035
-0.30194747 -0.48729879 0.00000137
-0.01210157 -0.50698715 0.00000123
-0.58687037 -0.75072098 0.00000022
-0.55183291 0.24221539 0.00000084
-0.08138564 -0.46497390 0.00000147
-0.35508996 -0.29157832 0.00000222
-0.21608610 0.04335428 0.00000847
-0.44168034 0.34905893 0.00000204
-0.08717271 0.24220271 0.00000917
-0.64466059 -0.69430780 0.18037210
-0.25994843 0.07301248 0.00000762
-0.09973353 0.13119043 0.00000968
-0.20908748 -0.34495604 0.00000199
-0.53374571 0.21591271 0.00000140
-0.57997757 -0.56879580 0.09128836
-0.08771105 -0.54265940 0.00000113
-0.74203491 -0.39743325 -0.00000101
-0.60336196 -0.34115130 0.00000047
-0.65308881 0.05053472 0.00000042
-0.38515383 -0.09306384 0.10695120
-0.67080832 -0.66640615 -0.00000016
-0.66668332 -0.80049771 0.02623673
-0.22711521 -0.05287808 0.00000327
-0.34374297 0.01179502 0.12115090
-0.65449637 -0.00475460 -0.00000029
-0.44552326 -0.23617390 0.11460834
-0.49426237 -0.33082446 0.18151581
-0.44860163 0.33880001 0.00000205
-0.08622572 0.70301890 0.00000612
-0.35848150 -0.07909767 0.00000315
-0.78450412 -0.12994713 -0.00000168
-0.45706156 -0.54369515 0.00000112
-0.62863189 -0.66133970 0.16372104
-0.18854447 0.03687604 0.00000892
-0.14982168 0.34386441 0.00000759
-0.56578428 -0.19971955 0.00000085
-0.20839889 0.33005244 0.09646822
-0.37935069 -0.59012371 0.00000092
-0.45372874 0.11968650 0.00000370
-0.04246711 0.54615903 0.00000795
-0.11714581 0.48631054 0.00000719
-0.50709194 -0.10540477 0.00000149
-0.13957781 -0.41689873 0.00000168
-0.24597812 -0.72163904 0.00000034
-0.01340113 -0.08862396 0.00000305
-0.03754560 0.51495999 0.00000821
-0.29804829 0.13708952 0.16469367
-0.20920724 -0.16604224 0.00000277
-0.25632283 0.46962178 0.00000471
-0.52883303 -0.40330321 0.21344063
-0.06231069 0.66780591 0.05305681
-0.76993847 -0.07755211 -0.00000161
-0.17787986 -0.78252739 0.00000008
-0.30393714 0.35581958 0.00000470
-0.69298720 -0.18519326 -0.00000065
-0.41270879 -0.31973708 0.00000210
-0.63518405 -0.72636682 0.02067193
-0.38096195 -0.56214631 0.00000104
-0.16694970 0.17731073 0.00000837
-0.26910672 0.33762380 0.00000551
-0.69714046 -0.45076832 -0.00000057
-0.10927745 0.55494440 0.05458532
-0.47157291 0.31567186 0.00000180
-0.37863097 0.32376885 0.00000352
-0.47100127 -0.43486387 0.00000160
-0.24958406 -0.46775135 0.00000145
-0.31226334 0.06215480 0.04661857
-0.22880699 -0.12334822 0.00000296
-0.68547040 -0.02776810 -0.00000064
-0.46298057 -0.31576338 0.00575652
-0.73405880 0.04229430 -0.00000107
-0.66210121 -0.38090104 -0.00000020
-0.34969252 -0.01001196 0.09951220
-0.41482985 0.34376451 0.00000266
-0.38736412 0.20480473 0.00000430
-0.31375322 0.32030755 0.00000479
-0.09757700 -0.19812921 0.00000263
-0.21161218 0.29002389 0.00265451
-0.27057505 -0.41089597 0.00000170
-0.79015893 -0.38316095 -0.00000104
-0.46490312 -0.24291988 0.23100954
-0.79461241 -0.38256094 -0.00000104
-0.00283060 -0.62860769 0.00000075
-0.52322531 -0.44690824 0.04732204
-0.29374912 0.17433456 0.24279444
-0.71215963 -0.21769622 -0.00000086
-0.41914150 -0.63812894 0.00000071
-0.17289364 -0.46250173 0.00000148
-0.50528127 -0.50353557 0.00000130
-0.35317048 0.02212607 0.21734832
-0.12459746 0.07087245 0.00000968
-0.29001284 0.16033636 0.17587903
-0.66707492 -0.80172598 0.02541438
-0.00905522 -0.33585060 0.00000203
-0.17730761 0.42412111 0.15172544
-0.15857576 0.51367754 0.00000623
-0.70744604 -0.07797905 -0.00000088
-0.35362542 -0.62466860 0.00000077
-0.59468389 0.01965784 0.00000179
-0.71488839 -0.70226550 -0.00000024
-0.34951237 0.02846163 0.21009263
-0.43350941 -0.22451513 0.06418509
-0.25489613 -0.53855526 0.00000114
-0.53073418 -0.42106479 0.17514947
-0.18904917 0.00251227 0.00000913
-0.27715310 0.16814810 0.10833566
-0.02078364 -0.39407104 0.00000168
-0.19809303 -0.43335643 0.00000160
-0.25107566 -0.63188130 0.00000074
-0.49502781 0.27160954 0.00000170
-0.46591529 -0.26100901 0.18552698
-0.05957241 0.72841114 0.00000643
-0.74593735 -0.67568469 -0.00000031
-0.12514193 0.50466359 0.01975655
-0.11294727 0.66903108 0.00000587
-0.71136731 -0.12643589 -0.00000090
-0.48479426 -0.32777971 0.12391769
-0.52609921 -0.16093464 0.00000129
-0.76488364 -0.16838931 -0.00000151
-0.28245044 -0.59504873 0.00000090
-0.44536492 -0.19396020 0.23621453
-0.25016618 0.21127909 0.04431947
-0.68562037 -0.59269428 -0.00000037
-0.27392983 -0.52807552 0.00000119
-0.23982356 0.29539463 0.21626125
-0.00177655 -0.14665535 0.00000286
-0.28597376 0.15732355 0.13877335
-0.51725119 -0.34313819 0.30705926
-0.40610337 0.25589272 0.00000353
-0.11935858 0.51645046 0.01343292
-0.34556064 -0.18084826 0.00000271
-0.52515912 0.26404655 0.00000110
-0.41200545 -0.09433351 0.29171076
-0.38719526 -0.73479807 0.00000029
-0.48869634 -0.38259053 0.00000183
-0.49405423 -0.30824745 0.24568768
-0.27500582 -0.21527149 0.00000256
-0.56685597 -0.26770478 0.00000087
-0.11338410 0.38513863 0.00000788
-0.41473085 -0.17398924 0.07927462
-0.23038563 -0.09412988 0.00000309
-0.23974665 -0.77552259 0.00000011
-0.13728669 0.16213228 0.00000892
-0.18834507 0.08138430 0.00000865
-0.09311223 0.24073234 0.00000909
-0.38425735 0.09789198 0.00000521
-0.37530613 -0.58762324 0.00000093
-0.32297841 -0.73866755 0.00000027
-0.60887527 -0.67657423 0.00000054
-0.65968060 -0.78698611 0.01637009
-0.26390088 -0.06833886 0.00000320
-0.30607295 -0.16464846 0.00000278
-0.10531249 0.68308955 0.00000582
-0.01343126 0.35150737 0.00000960
-0.00327902 0.24111451 0.00001044
-0.67517793 -0.54720056 -0.00000027
-0.06809781 0.64682907 0.03269125
-0.10365614 0.11312600 0.00000973
-0.57190979 -0.57101327 0.02822024
-0.05443007 0.67484927 0.01822429
-0.06516252 -0.64187348 0.00000069
-0.46639857 -0.30566615 0.05909800
-0.38897428 0.33521107 0.00000323
-0.35159421 -0.43092996 0.00000161
-0.46976736 -0.20412789 0.37791833
-0.73030871 -0.13890187 -0.00000111
-0.26714498 -0.35186115 0.00000196
-0.08746141 0.31247863 0.00000873
-0.29787028 -0.09187729 0.00000310
-0.30932307 -0.13134038 0.00000293
-0.16701607 0.54668683 0.00000581
-0.00740732 -0.49908969 0.00000128
-0.00527777 -0.44622439 0.00000155
-0.49172953 -0.64049858 0.00000070
-0.28308454 -0.78529775 0.00000006
-0.27463531 0.51317984 0.00000401
-0.34693015 -0.00564691 0.09281480
-0.43040395 0.18759410 0.00000361
-0.09015567 -0.41365397 0.00000169
-0.71644574 -0.13946313 -0.00000095
-0.16922700 -0.52152133 0.00000122
-0.41944838 -0.71687227 0.00000036
-0.34219730 0.01577159 0.12186333
-0.00373625 -0.61058521 0.00000083
-0.60835874 -0.18653913 0.00000034
-0.69710910 0.04046030 -0.00000035
-0.61195260 0.04409736 0.00000126
-0.54931158 -0.10430351 0.00000099
-0.02042204 0.65924686 0.00000757
-0.19675748 0.38169357 0.16488981
-0.12838612 0.16510895 0.00000903
-0.18868475 -0.55257618 0.00000108
-0.53604698 -0.38297960 0.32314903
-0.23665574 0.52513719 0.00000464
-0.38902503 -0.43491283 0.00000160
-0.22092783 0.10391918 0.00000802
-0.26474261 -0.59688503 0.00000089
-0.24864221 0.25794488 0.16928391
-0.58090037 -0.34216338 0.00000074
-0.43005484 -0.71798593 0.00000036
-0.33266449 -0.78118175 0.00000008
-0.06308588 -0.22899394 0.00000250
-0.16613980 0.41563606 0.04868080
-0.28569633 -0.51471364 0.00000125
-0.48338723 -0.46543592 0.00000146
-0.22697349 -0.70056784 0.00000044
-0.39007053 -0.12255247 0.05573252
-0.34200251 0.21938361 0.00000505
-0.11603796 0.55533105 0.10315598
-0.35284907 0.42324573 0.00000322
-0.23958449 0.08416185 0.00000786
-0.14757027 0.38766959 0.00000735
-0.76663125 -0.61243153 -0.00000047
-0.10058582 0.56828755 0.03237472
-0.75000054 -0.68236274 -0.00000029
-0.35699633 -0.47563341 0.00000142
-0.71867442 -0.14722095 -0.00000097
-0.48277494 -0.29385266 0.20837350
-0.44409424 -0.13527398 0.39790079
-0.10026982 -0.23467316 0.00000247
-0.30293101 0.07082954 0.00634029
-0.70437509 -0.28373870 -0.00000074
-0.46035710 0.28914210 0.00000222
-0.31349903 -0.40861061 0.00000171
-0.21269371 0.33856544 0.15135790
-0.67411667 -0.12597851 -0.00000046
-0.63986880 -0.01027720 -0.00000012
-0.26285347 0.04333705 0.00000776
-0.34257287 -0.04188590 0.00000332
-0.24962501 0.20672260 0.02727554
-0.58207762 -0.77169937 0.00000012
-0.57506001 -0.75851357 0.00000018
-0.50985456 -0.40145341 0.08562283
-0.43564901 -0.65957546 0.00000061
-0.47066110 -0.30441904 0.09263887
-0.56108242 -0.03514598 0.00000082
-0.69778115 -0.00361550 -0.00000080
-0.38377264 0.39234015 0.00000287
-0.71392739 -0.63599455 -0.00000041
-0.52502626 -0.41152084 0.16283476
-0.48945913 -0.74189025 0.00000025
-0.03426857 -0.62583637 0.00000076
-0.46479467 -0.35206887 0.00000196
-0.08545474 0.71179491 0.00000606
-0.66954893 -0.26039767 -0.00000034
-0.22518355 -0.66081512 0.00000061
-0.44614986 -0.20385230 0.21296667
-0.36636025 -0.02238402 0.18052374
-0.27152860 0.17263228 0.08189740
-0.45619109 -0.26333773 0.11051071
-0.26133555 0.21085583 0.12147818
-0.03028252 0.09943293 0.00001092
-0.48973691 -0.00892003 0.00000165
-0.64880884 -0.42451099 -0.00000002
-0.54979736 -0.10670884 0.00000099
-0.16347219 0.33850938 0.00000742
-0.34015018 -0.74655670 0.00000023
-0.25344408 0.22434060 0.10529524
-0.24727014 -0.68859458 0.00000049
-0.46963784 -0.24727225 0.25158638
-0.48746470 -0.29192051 0.24690416
-0.24039438 0.28379586 0.18654925
-0.02077562 -0.72676575 0.00000023
-0.15265936 0.45462519 0.06741562
-0.05494716 -0.29215214 0.00000222
-0.00973308 -0.15322578 0.00000279
-0.38243476 -0.02078614 0.29798329
-0.37847564 -0.74921530 0.00000022
-0.15254892 -0.44167009 0.00000157
-0.41821164 -0.79852301 0.00000001
-0.36547914 -0.05871411 0.06872625
-0.48190564 -0.33111244 0.09395639
-0.10921315 -0.16984414 0.00000276
-0.21438390 0.14465216 0.00000786
-0.46240780 -0.21460761 0.29580218
-0.12657531 -0.03308348 0.00000336
-0.34180278 0.17915635 0.00000537
-0.17087129 0.50823748 0.00000604
-0.55472583 0.12468536 0.00000172
-0.40725723 0.28718600 0.00000326
-0.27983916 -0.68082374 0.00000052
-0.48622593 -0.32599199 0.13916261
-0.23550747 0.41023517 0.00000558
-0.31986448 -0.74847406 0.00000023
-0.66335356 -0.58182675 -0.00000011
-0.43332791 -0.16898425 0.22434258
-0.53811032 0.22362150 0.00000125
-0.68962538 -0.07357441 -0.00000067
-0.39259705 -0.19763936 0.00000264
-0.33822680 0.45607659 0.00000324
-0.35711396 -0.05715866 0.01453937
-0.25149414 0.41604829 0.00000522
-0.10210107 -0.46866101 0.00000145
-0.64831954 -0.37264448 -0.00000004
-0.18432930 -0.32458693 0.00000208
-0.55415273 -0.53412211 0.01084220
-0.17065208 -0.70699161 0.00000041
-0.39354664 -0.13139842 0.05441290
-0.64068425 0.15341155 -0.00000020
-0.45281354 0.19876160 0.00000309
-0.38548788 -0.03333067 0.28294310
-0.02611687 0.18390572 0.00001046
-0.57981610 -0.62564754 0.00000076
-0.41214439 -0.74288106 0.00000025
-0.58634907 0.04420749 0.00000175
-0.41776979 -0.67605728 0.00000054
-0.12553449 0.52232063 0.07384177
-0.16041479 -0.34467858 0.00000199
-0.02842799 -0.21992628 0.00000254
-0.34108680 -0.02338550 0.00023773
-0.01017191 0.58494353 0.00000819
-0.52861375 0.10106420 0.00000241
-0.01996713 -0.07084087 0.00000310
-0.13332739 -0.37458655 0.00000186
-0.33468622 -0.63433987 0.00000072
-0.27975073 -0.74713492 0.00000023
-0.11753055 0.07215788 0.00000978
-0.19715901 -0.18101269 0.00000271
-0.06088024 -0.45453951 0.00000151
-0.12355372 -0.63622481 0.00000072
-0.52768439 -0.43567511 0.11127243
-0.35500321 -0.74398869 0.00000025
-0.00551588 -0.37806690 0.00000185
-0.59631443 0.20069204 0.00000032
-0.18995111 -0.24567112 0.00000243
-0.13373145 -0.66593528 0.00000059
-0.10552184 0.55599993 0.03129597
-0.29454672 0.04803554 0.00000726
-0.41310558 -0.14104004 0.16365321
-0.40676141 -0.24854381 0.00000241
-0.32581577 0.05899537 0.13254794
-0.11537265 0.45126563 0.00000744
-0.54404014 -0.42501983 0.25703549
-0.38651949 -0.48819786 0.00000136
-0.64433008 -0.03482109 -0.00000016
-0.38936028 -0.33350071 0.00000204
-0.31910598 0.11409661 0.24563953
-0.27184731 -0.54669583 0.00000111
-0.12770708 0.65972042 0.00000566
-0.66230321 -0.27863169 -0.00000025
-0.12878315 -0.54095262 0.00000113
-0.69294643 -0.56813383 -0.00000047
-0.24594851 0.47379330 0.00000487
-0.44533506 -0.48190957 0.00000139
-0.07834989 -0.40114960 0.00000174
-0.66207504 0.13479428 -0.00000045
-0.66470140 -0.17025192 -0.00000033
-0.47912213 -0.67991930 0.00000053
-0.10961416 -0.10736131 0.00000303
-0.19157445 -0.50224072 0.00000130
-0.60414767 -0.76184124 0.00000017
-0.34480527 0.24550134 0.00000479
-0.22824034 0.30692574 0.16848926
-0.38505563 -0.09170179 0.11022140
-0.06416554 0.03350455 0.00001082
-0.60572803 -0.09820557 0.00000033
-0.60164642 -0.61795193 0.10046547
-0.33092090 0.06366039 0.18193845
-0.55773926 -0.52583826 0.06009494
-0.13427253 0.22782092 0.00000855
-0.43889594 -0.29608813 0.00000220
-0.50677937 -0.41598538 0.02179554
-0.59158671 0.20691121 0.00000035
-0.20520709 0.16449979 0.00000788
-0.00684985 0.04639578 0.00001161
-0.08545597 0.62133735 0.08040876
-0.10459131 0.30687413 0.00000850
-0.49666864 -0.36379084 0.10256841
-0.12778749 -0.68609476 0.00000050
-0.30815944 -0.42390537 0.00000165
-0.13715179 0.62553066 0.00000575
-0.02031326 0.26713815 0.00001002
-0.25480759 0.26666069 0.23789132
-0.23184203 0.30616269 0.19154850
-0.73904753 -0.55945134 -0.00000060
-0.17193490 0.40690452 0.06396900
-0.62053216 0.16846377 0.00000011
-0.49028996 -0.01332570 0.00000164
-0.77494240 -0.58427095 -0.00000054
-0.71110773 -0.09745175 -0.00000091
-0.52921432 -0.44454351 0.09622886
-0.67716342 -0.03923901 -0.00000054
-0.63529778 -0.72291934 0.03149198
-0.20043308 -0.31092638 0.00000214
-0.07839974 0.61861640 0.02297670
-0.41713080 -0.15677397 0.14616372
-0.65101612 -0.08457857 -0.00000021
-0.28734684 0.10588861 0.00000700
-0.37912044 -0.05453045 0.17662606
-0.55659992 -0.50784850 0.10439569
-0.27612698 0.15356813 0.05874935
-0.09909299 -0.19975965 0.00000263
-0.44336709 -0.18515608 0.24778745
-0.53939813 -0.58353263 0.00000095
-0.44552100 -0.19345430 0.23878071
-0.49600327 -0.27576524 0.35379335
-0.59099227 0.14315853 0.00000088
-0.50075907 -0.40892413 0.00007089
-0.01011509 -0.76438183 0.00000011
-0.32693568 0.06712054 0.16402818
-0.48424783 -0.24121246 0.37173831
-0.66662228 -0.29113883 -0.00000029
-0.01882663 -0.12613210 0.00000295
-0.40441933 0.11334007 0.00000470
-0.78841102 -0.13127144 -0.00000167
-0.27112508 0.44982728 0.00000458
-0.00284920 -0.54293865 0.00000112
-0.49005836 -0.63054734 0.00000074
-0.43031606 0.26603606 0.00000298
-0.15264544 0.46735370 0.10432039
-0.20537837 -0.29191437 0.00000222
-0.14951529 0.47955656 0.11782663
-0.58649433 -0.55865395 0.16650666
-0.62724721 -0.19183341 0.00000012
-0.27502272 -0.13728140 0.00000290
-0.19053774 -0.66209036 0.00000060
-0.38656288 -0.69699782 0.00000045
-0.36793244 -0.48292163 0.00000139
-0.40784234 0.19698788 0.00000396
-0.23039851 0.54788715 0.00000458
-0.55955803 -0.62112015 0.00000078
-0.22523846 -0.24333160 0.00000244
-0.29931352 0.08818789 0.03141349
-0.04834455 0.71362096 0.00000676
-0.58193845 -0.62544131 0.00000076
-0.19657379 -0.37337962 0.00000187
-0.27164692 -0.44209149 0.00000157
-0.44554162 -0.25215629 0.06827550
-0.65758097 -0.20531894 -0.00000023
-0.47585502 -0.29248032 0.16379745
-0.01559569 0.44799098 0.00000896
-0.32848889 0.06143997 0.15841511
-0.14540786 0.45416799 0.01519387
-0.52790797 -0.36891493 0.30691561
-0.54880238 -0.48216131 0.12434499
-0.55436480 -0.03230284 0.00000090
-0.32500583 0.39374748 0.00000399
-0.39200488 -0.05296565 0.27160087
-0.20736954 -0.76185095 0.00000017
-0.26078072 -0.37458515 0.00000186
-0.07392272 0.54585868 0.00000747
-0.25307971 -0.35483402 0.00000195
-0.06123763 0.14202608 0.00001019
-0.09708085 0.03240928 0.00001033
-0.63738048 -0.70622271 0.09464537
-0.50455213 -0.31653231 0.29527977
-0.26509169 0.20530726 0.13170969
-0.56697047 0.04557725 0.00000211
-0.66115159 -0.29243743 -0.00000023
-0.58254617 -0.15406433 0.00000063
-0.02736936 -0.65641409 0.00000063
-0.32502681 0.42895827 0.00000371
-0.41230693 -0.64113128 0.00000070
-0.25078744 0.24193844 0.13780807
-0.75306994 0.04250284 -0.00000144
-0.48514235 -0.30114207 0.20379780
-0.59623826 -0.62730628 0.03531611
-0.02846422 0.68226606 0.00000731
-0.20930471 0.32485485 0.08771566
-0.35677493 -0.51610029 0.00000124
-0.04424433 0.08804663 0.00001078
-0.25935957 0.08837483 0.00000753
-0.69094253 -0.05064250 -0.00000070
-0.08335400 0.48826998 0.00000769
-0.39665851 -0.09811471 0.17301042
-0.44133246 -0.13510491 0.37900940
-0.77485543 -0.32501996 -0.00000119
-0.20936693 -0.13488103 0.00000291
-0.48044312 -0.32166687 0.11115077
-0.45919764 -0.21401322 0.27500039
-0.46770713 0.20584118 0.00000274
-0.07276694 0.63801372 0.03983354
-0.06571726 0.16417006 0.00000998
-0.30026171 0.11214465 0.10771188
-0.28680980 0.19110250 0.24283817
-0.00507246 -0.12580606 0.00000293
-0.06534153 -0.42552027 0.00000164
-0.56663346 -0.50711924 0.17693345
-0.79193282 -0.79605097 -0.00000001
-0.60302854 -0.59966958 0.16331159
-0.46468806 -0.63510132 0.00000072
-0.76606959 -0.79781872 -0.00000001
-0.44302413 -0.45161140 0.00000152
-0.36625504 -0.36471090 0.00000190
-0.10929007 0.17607620 0.00000925
-0.46290508 -0.26193318 0.16171412
-0.41342506 0.20652421 0.00000378
-0.41802576 -0.15855125 0.14727809
-0.37864181 -0.73737884 0.00000027
-0.62849522 -0.70665854 0.03102117
-0.22593918 -0.70464259 0.00000042
-0.33105493 0.07024379 0.20201723
-0.07824750 0.56486392 0.00000729
-0.31815141 0.06299587 0.09038749
-0.03498271 0.29119027 0.00000965
-0.42391765 0.34139076 0.00000251
-0.18304099 0.39261049 0.10036047
-0.66767418 0.04912458 0.00000015
-0.12897091 -0.54732341 0.00000111
-0.26327106 -0.38151890 0.00000183
-0.13697647 0.26342699 0.00000829
-0.08783442 0.30497035 0.00000877
-0.27656710 -0.13906074 0.00000289
-0.28345075 0.17897373 0.18400452
-0.01213996 -0.67213297 0.00000050
-0.56614006 -0.49631500 0.20487899
-0.34165236 -0.27408230 0.00000230
-0.13530540 0.14360131 0.00000906
-0.21942031 -0.77763945 0.00000010
-0.17430462 0.21871358 0.00000800
-0.46126190 -0.21835269 0.27687293
-0.50645792 0.20156501 0.00000203
-0.70863527 -0.57937807 -0.00000055
-0.30805469 0.13294914 0.22288454
-0.07134228 0.63891733 0.03246175
-0.26105168 -0.24761429 0.00000242
-0.39597836 -0.35631910 0.00000194
-0.17146394 -0.01776289 0.00000342
-0.08179125 -0.55865979 0.00000106
-0.19645974 -0.35731521 0.00000194
-0.67249298 -0.15212493 -0.00000043
-0.19060461 0.45471698 0.00000609
-0.11264173 -0.74693978 0.00000023
-0.47498995 -0.58469021 0.00000094
-0.58916783 -0.36922160 0.00000065
-0.32042286 0.10010092 0.21419547
-0.46571451 -0.27302748 0.14917959
-0.02485493 -0.11367301 0.00000300
-0.08998008 -0.57873726 0.00000097
-0.00169576 -0.70227957 0.00000043
-0.11178818 -0.38248375 0.00000183
-0.57821828 -0.53649288 0.17284758
-0.10023649 0.58160788 0.06864604
-0.35374090 -0.15221113 0.00000283
-0.02653170 0.47401011 0.00000864
-0.51367962 0.21948980 0.00000175
-0.45208207 -0.17760742 0.33089557
-0.12988733 -0.02125627 0.00000341
-0.60212201 -0.57652307 0.22423530
-0.17195030 -0.17147475 0.00000275
-0.46580076 -0.70469755 0.00000042
-0.01048440 0.28573135 0.00001006
-0.48146108 -0.35076332 0.03371009
-0.11384470 0.27539533 0.00000856
-0.41647732 -0.18423399 0.06174956
-0.24651361 -0.24732861 0.00000242
-0.33116645 0.10064680 0.29118317
-0.27516979 0.18893012 0.15483066
-0.55415201 -0.43392217 0.30212069
-0.35408059 -0.40381590 0.00000173
-0.44924876 -0.20326851 0.23641247
-0.20756987 -0.44629139 0.00000155
-0.31175122 -0.07264628 0.00000318
-0.34278855 -0.00519966 0.06504819
-0.68100113 -0.13136077 -0.00000054
-0.62443113 -0.05065575 0.00000009
-0.16059206 -0.67238176 0.00000056
-0.52200443 -0.40876293 0.14964436
-0.25868675 -0.45570058 0.00000151
-0.11247735 -0.21899317 0.00000254
-0.39185852 0.18422890 0.00000437
-0.43189853 -0.22694221 0.04582400
-0.44653371 -0.49121186 0.00000135
-0.33486184 -0.34060481 0.00000201
-0.23188502 -0.78156471 0.00000008
-0.19050810 0.37754256 0.10896295
-0.41108793 -0.10090191 0.26617667
-0.17409503 -0.07494311 0.00000317
-0.49868900 0.15148827 0.00000258
-0.46002257 -0.30692539 0.01068930
-0.40437409 0.36013192 0.00000273
-0.31883180 0.07394646 0.12699644
-0.16726100 -0.63023287 0.00000074
-0.12171038 -0.11025905 0.00000302
-0.14809103 -0.20200528 0.00000262
-0.45249835 -0.35173959 0.00000196
-0.57525086 -0.17725055 0.00000072
-0.38114449 -0.10269626 0.05081071
-0.32154521 -0.07482763 0.00000317
-0.25859958 -0.48288122 0.00000139
-0.29061076 0.10609036 0.02237924
-0.36711505 -0.53557050 0.00000116
-0.50949681 -0.32897595 0.29380816
-0.35284349 -0.53953099 0.00000114
-0.32197723 -0.38453132 0.00000182
-0.27020824 -0.06328800 0.00000322
-0.24884783 -0.47081870 0.00000144
-0.16951171 -0.36831632 0.00000189
-0.73777747 -0.32441887 -0.00000111
-0.50158608 -0.63065434 0.00000074
-0.12780324 0.30581707 0.00000816
-0.41890493 0.37023309 0.00000237
-0.59773159 -0.64404529 0.00000068
-0.04955642 0.68664575 0.01831285
-0.39244163 -0.16548505 0.00000278
-0.21247394 -0.22520836 0.00000251
-0.25263789 -0.09285090 0.00000309
-0.52000767 -0.39863035 0.16508646
-0.33196923 0.41992089 0.00000365
-0.18850650 0.20261776 0.00000789
-0.76436877 -0.66647267 -0.00000033
-0.53846347 0.23297979 0.00000117
-0.53841388 0.22124998 0.00000126
-0.06988878 -0.28968161 0.00000223
-0.55126816 -0.52144945 0.02743764
-0.28525320 -0.79120106 0.00000004
-0.14360456 -0.14984608 0.00000284
-0.20472851 0.31256133 0.01986100
-0.44680345 -0.22319329 0.16132826
-0.20553884 0.46629840 0.00000571
-0.10044473 0.55986238 0.00689216
-0.39312303 -0.34507260 0.00000199
-0.28321621 -0.71588665 0.00000037
-0.53167820 0.01759682 0.00000301
-0.18464334 0.40669876 0.15256155
-0.37098870 -0.09044463 0.01515124
-0.55487949 -0.77419508 0.00000011
-0.48005348 0.28646687 0.00000187
-0.09791416 0.59441400 0.08957557
-0.12937815 0.51956165 0.09279686
-0.72418374 -0.42788467 -0.00000090
-0.22523588 0.26347125 0.02107864
-0.56017995 -0.47302374 0.23075783
-0.08988378 -0.08078499 0.00000315
-0.05586532 0.66675675 0.00477176
-0.14174186 -0.32807234 0.00000206
-0.42749968 -0.17780314 0.15780185
-0.77865463 -0.12822498 -0.00000168
-0.19289896 0.33926237 0.01445998
-0.08493668 0.36131614 0.00000846
-0.55087352 0.16452269 0.00000148
-0.12977247 0.39518505 0.00000757
-0.05691614 -0.54421604 0.00000112
-0.38956055 -0.60810083 0.00000084
-0.11788519 -0.38707763 0.00000181
-0.70995981 -0.07193741 -0.00000091
-0.46539423 0.11722697 0.00000349
-0.30765784 0.09193125 0.10085805
-0.37795290 -0.21823163 0.00000255
-0.09919960 -0.02059211 0.00000341
-0.68602145 -0.53116530 -0.00000040
-0.49428439 -0.34449908 0.14191753
-0.20618863 0.31767377 0.04497062
-0.02549875 -0.36164364 0.00000192
-0.58070964 -0.56311530 0.11293946
-0.21943137 -0.09668463 0.00000308
-0.55180615 -0.44709459 0.24736641
-0.27488962 -0.56718791 0.00000102
-0.39331087 -0.11082637 0.11256237
-0.69462317 -0.25654793 -0.00000064
-0.26235193 -0.74807394 0.00000023
-0.47812352 -0.52558589 0.00000120
-0.61593062 -0.68311328 0.01128743
-0.49380678 -0.28733227 0.30475247
-0.43793073 0.28289703 0.00000270
-0.72992927 -0.71551442 -0.00000021
-0.16798191 0.42298561 0.08297467
-0.18389188 0.33569452 0.00000713
-0.23603858 -0.18819480 0.00000268
-0.49682108 -0.31596118 0.24268173
-0.47275779 0.03037171 0.00000404
-0.40600190 -0.47252986 0.00000143
-0.79225296 -0.61193073 -0.00000047
-0.31787091 0.08171912 0.14284836
-0.36912099 0.01392378 0.30544806
-0.11002350 0.19423634 0.00000913
-0.48791364 0.00677551 0.00000394
-0.63782650 0.02179149 0.00000094
-0.14739676 -0.26733127 0.00000233
-0.71668190 -0.02145980 -0.00000101
-0.10839364 0.54642493 0.02361595
-0.14402296 -0.60654885 0.00000085
-0.58255368 -0.55255985 0.15656671
-0.75837296 -0.45126686 -0.00000087
-0.25452203 0.10118073 0.00000753
-0.58381093 -0.29237202 0.00000068
-0.02545822 0.19261082 0.00001041
-0.67732775 -0.46644688 -0.00000033
-0.56773949 -0.14964695 0.00000080
-0.33983934 -0.19292799 0.00000266
-0.27076173 -0.02592069 0.00000339
-0.26823372 0.04858016 0.00000765
-0.33383974 0.30569381 0.00000452
-0.52307642 -0.09214743 0.00000129
-0.23443411 -0.71798664 0.00000036
-0.61969852 0.06192772 0.00000097
-0.52792495 -0.70499355 0.00000042
-0.61145562 -0.73101503 0.00000030
-0.28796557 -0.74582684 0.00000024
-0.33601540 0.08029754 0.26605776
-0.53182942 -0.41353992 0.20471127
-0.05678199 0.06704122 0.00001072
-0.45848349 -0.03210910 0.00000202
-0.56558228 -0.17429216 0.00000084
-0.61496949 -0.06343428 0.00000020
-0.53823900 0.06339132 0.00000252
-0.33061361 -0.24314502 0.00000244
-0.76020908 -0.06447692 -0.00000150
-0.66918480 0.03319705 0.00000025
-0.59537679 -0.06229902 0.00000043
-0.01281365 -0.25700933 0.00000232
-0.39966732 -0.53144199 0.00000117
-0.19003698 -0.62234986 0.00000078
-0.38475081 -0.02482129 0.30250740
-0.33660308 -0.19243002 0.00000266
-0.63329452 -0.06397215 -0.00000001
-0.56293201 -0.48789164 0.20685139
-0.20746516 -0.12547909 0.00000295
-0.52004665 -0.50227743 0.00000130
-0.16761702 -0.52706707 0.00000119
-0.33676893 0.05663649 0.20256239
-0.40717119 -0.23921752 0.00000245
-0.45205367 -0.44293693 0.00000156
-0.30472225 0.37305096 0.00000454
-0.25798959 0.19247825 0.04457083
-0.60322052 -0.77302837 0.00000012
-0.31990671 0.07948881 0.15065233
-0.60371178 -0.60866356 0.14196150
-0.41669661 -0.07181329 0.39010188
-0.22097068 0.32437894 0.16820650
-0.36688015 -0.39158311 0.00000179
-0.27491775 0.20168938 0.19015366
-0.50693762 -0.38167718 0.12264195
-0.39041102 -0.37211818 0.00000187
-0.35871309 -0.02269417 0.12595259
-0.68384802 -0.22945665 -0.00000053
-0.25197747 0.08894080 0.00000764
-0.70865375 -0.63255334 -0.00000042
-0.08639263 -0.07870528 0.00000316
-0.49084654 -0.00126115 0.00000163
-0.56598783 -0.69277817 0.00000047
-0.64417750 -0.78581583 0.00000006
-0.63945597 -0.28697208 0.00000002
-0.15497892 -0.68154216 0.00000052
-0.55459636 0.11658584 0.00000179
-0.17624514 0.48195863 0.00000615
-0.31449389 0.09371087 0.15400839
-0.44580120 -0.27484676 0.00413486
-0.06345165 -0.58107078 0.00000096
-0.49946791 -0.59031308 0.00000092
-0.16680682 -0.36385614 0.00000191
-0.59454739 -0.13520381 0.00000048
-0.44906050 -0.16906922 0.33451045
-0.55832505 -0.73755002 0.00000027
-0.33262238 0.40510198 0.00000375
-0.26853746 0.32353133 0.00000563
-0.67919701 -0.22836198 -0.00000047
-0.12606791 -0.74959272 0.00000022
-0.54987216 -0.67812276 0.00000053
-0.21792911 0.48456389 0.00000532
-0.07216061 -0.71212041 0.00000038
-0.38569027 -0.03486632 0.27989939
-0.65138805 0.05604425 0.00000041
-0.39582494 0.26979733 0.00000362
-0.61889929 -0.10368888 0.00000018
-0.47327235 0.20026000 0.00000268
-0.05383965 -0.22504514 0.00000252
-0.60179406 -0.59069425 0.18073907
-0.13954388 -0.00437073 0.00000348
-0.36219639 -0.01430548 0.17478573
-0.32902917 0.45874617 0.00000340
-0.07052478 -0.31892115 0.00000210
-0.73760116 -0.26957026 -0.00000114
-0.38193452 -0.68710589 0.00000049
-0.34580743 -0.03070017 0.01210399
-0.14102446 0.45997825 0.00132094
-0.56315988 -0.47547844 0.24453500
-0.58723289 -0.68049639 0.00000052
-0.67184842 -0.41154101 -0.00000030
-0.12554426 -0.23966064 0.00000245
-0.08275799 -0.11508113 0.00000300
-0.69084316 -0.82590473 0.12193043
-0.06627824 -0.04555918 0.00000330
-0.31211197 0.08912921 0.12397248
-0.02661012 -0.58126092 0.00000096
-0.25974143 0.25245842 0.23123147
-0.34700805 -0.67328608 0.00000055
-0.29515281 -0.14494850 0.00000287
-0.07144021 0.60400081 0.00000715
-0.08104119 -0.48860466 0.00000136
-0.14837663 0.55762064 0.00000608
-0.41551062 -0.37117055 0.00000188
-0.22061571 0.30357784 0.10524540
-0.19726449 0.34835196 0.07152220
-0.22789608 -0.43675268 0.00000159
-0.08921019 -0.40786842 0.00000172
-0.66302633 -0.47306368 -0.00000016
-0.66548002 -0.15968667 -0.00000034
-0.20872253 -0.35345206 0.00000195
-0.62775731 0.08656825 0.00000062
-0.15346840 -0.19492704 0.00000265
-0.40776253 -0.07673910 0.31308100
-0.54412669 -0.16805843 0.00000108
-0.50915015 -0.36306730 0.19226962
-0.02086375 -0.02793277 0.00000338
-0.11937966 -0.22068703 0.00000253
-0.65441155 -0.75835705 0.06261574
-0.39258856 -0.42003793 0.00000166
-0.79874444 -0.15658848 -0.00000161
-0.39084968 -0.16546462 0.00000278
-0.07144648 -0.41286144 0.00000169
-0.47358847 -0.27882689 0.18758157
-0.17118903 -0.68317759 0.00000051
-0.10732549 0.08648228 0.00000984
-0.42962825 -0.43587062 0.00000159
-0.72986108 -0.15472448 -0.00000110
-0.63951534 -0.17202032 -0.00000003
-0.11171259 -0.78706181 0.00000006
-0.23452030 0.50825959 0.00000482
-0.61595875 -0.64403528 0.12508564
-0.45585927 -0.26576799 0.10111701
-0.19437002 -0.75951993 0.00000018
-0.30474296 0.14590193 0.23729645
-0.56391865 -0.62137449 0.00000078
-0.41094106 -0.18864574 0.01006971
-0.00226869 -0.34810910 0.00000198
-0.21497224 -0.04811906 0.00000329
-0.39540026 -0.62814778 0.00000075
-0.73543173 0.02650242 -0.00000097
-0.00030572 0.48695454 0.00000895
-0.29956549 -0.59476525 0.00000090
-0.37501210 -0.00930471 0.27926660
-0.37036386 -0.02726207 0.19444117
-0.40232289 -0.76994824 0.00000013
-0.28263086 0.12381577 0.01790316
-0.23713808 -0.35947612 0.00000193
-0.11836602 -0.03387968 0.00000335
-0.40892005 -0.08577699 0.29493105
-0.63964474 -0.72678453 0.05076340
-0.04486321 -0.18528590 0.00000269
-0.18695939 0.40895069 0.17536250
-0.37354407 -0.19977173 0.00000263
-0.07294758 -0.07623144 0.00000317
-0.33844057 0.08285044 0.29049954
-0.22075696 -0.74463373 0.00000024
-0.62243932 -0.77038950 0.00000013
-0.50213540 -0.35931462 0.15394777
-0.44069976 0.22342081 0.00000312
-0.22063872 0.32892722 0.17909892
-0.60518926 0.06296034 0.00000124
-0.34494364 0.05883716 0.26633176
-0.15943246 -0.33644000 0.00000203
-0.31716388 -0.11144624 0.00000301
-0.19014734 -0.15995513 0.00000280
-0.57847345 -0.08159324 0.00000064
-0.11837901 0.62025940 0.00000616
-0.26240739 -0.42751884 0.00000163
-0.60288316 -0.63872796 0.04874808
-0.09602017 0.16042414 0.00000955
-0.45731446 0.17096552 0.00000322
-0.07206363 0.33985353 0.00000879
-0.33338654 -0.51851726 0.00000123
-0.76627278 -0.43327013 -0.00000092
-0.10297113 0.57241005 0.06109963
-0.59251225 -0.25502396 0.00000056
-0.67455751 0.07079407 -0.00000015
-0.78219658 -0.25976601 -0.00000135
-0.35065255 -0.11280102 0.00000301
-0.66463053 -0.42751193 -0.00000020
-0.32661182 0.06510729 0.15590242
-0.00886585 -0.65457499 0.00000064
-0.61238372 -0.16838831 0.00000028
-0.40629601 -0.10741411 0.21361452
-0.78730816 -0.22160201 -0.00000145
-0.27364507 0.16481996 0.07404035
-0.19295955 0.00327393 0.00000907
-0.55525494 -0.16944537 0.00000095
-0.23258308 0.29389471 0.16108558
-0.28244674 -0.26251513 0.00000235
-0.14600199 -0.16678384 0.00000277
-0.07496201 -0.43683261 0.00000159
-0.22626279 0.25749728 0.01091918
-0.16966248 0.40494362 0.04232018
-0.51857001 -0.78459036 0.00000007
-0.33521640 0.01114234 0.05941235
-0.10245235 -0.69903088 0.00000044
-0.28455031 0.11710936 0.01187837
-0.25749940 0.20522438 0.07818430
-0.17937048 0.61349368 0.00000499
-0.45488587 -0.19103688 0.31153306
-0.49021637 0.02622085 0.00000374
-0.21051152 0.33336946 0.12093785
-0.10902459 0.35225117 0.00000815
-0.00488747 0.37275448 0.00000960
-0.10788051 -0.77968031 0.00000009
-0.79149336 -0.19067848 -0.00000152
-0.13691033 0.48901874 0.05686946
-0.60428953 0.06036362 0.00000128
-0.35884243 -0.03117298 0.10221194
-0.47523832 -0.39328349 0.00000178
-0.04129290 -0.15113880 0.00000284
-0.63178533 -0.67717558 0.13981760
-0.64937693 -0.46638179 -0.00000001
-0.51454449 -0.00057746 0.00000135
-0.74916327 -0.07978143 -0.00000136
-0.50614893 -0.42085353 0.00321895
-0.43795565 -0.60887831 0.00000084
-0.04092435 -0.54402804 0.00000112
-0.07904044 -0.03355086 0.00000335
-0.24394341 0.16521354 0.00000729
-0.08991855 0.60517716 0.06474959
-0.01336351 0.56224090 0.00000828
-0.61611319 -0.64902115 0.11167576
-0.17162660 -0.37311360 0.00000187
-0.05805451 0.11921443 0.00001038
-0.40869647 -0.25343338 0.00000239
-0.46155894 -0.22719462 0.25325349
-0.25109032 0.20915125 0.04461965
-0.42851123 -0.55104297 0.00000109
-0.45706367 -0.23910084 0.18709269
-0.41883302 -0.13087672 0.23339498
-0.56639421 -0.48053744 0.25252685
-0.41154909 -0.71426058 0.00000038
-0.64614928 -0.73114431 0.08373772
-0.20945901 0.49968910 0.00000537
-0.36460692 -0.07387528 0.01853045
-0.74735707 -0.77717566 -0.00000006
-0.13652827 -0.67239547 0.00000056
-0.66714263 -0.80320323 0.02159554
-0.19271773 0.19834532 0.00000785
-0.21356133 0.44062653 0.00000576
-0.75878960 0.04120231 -0.00000154
-0.22656763 -0.02743525 0.00000338
-0.45494366 -0.56805485 0.00000101
-0.37421289 0.00288608 0.30909687
-0.04372020 0.11964911 0.00001059
-0.77055860 -0.75374478 -0.00000012
-0.17604561 0.41604075 0.11937848
-0.52669048 -0.37355965 0.28486979
-0.16583557 0.29456556 0.00000766
-0.23575912 0.27955419 0.14168710
-0.16718914 0.34564596 0.00000732
-0.61356848 0.07455760 0.00000099
-0.59023219 -0.62107670 0.01127406
-0.35915461 -0.01575876 0.14921296
-0.00177317 -0.73794496 0.00000027
-0.00674233 -0.55095112 0.00000106
-0.73523229 -0.66550660 -0.00000034
-0.58181399 -0.57744998 0.07901847
-0.19240518 0.36768639 0.09362469
-0.38669679 0.10108765 0.00000513
-0.62711054 0.06604203 0.00000079
-0.18174963 0.40421757 0.12503979
-0.63822442 -0.51504707 0.00000015
-0.08123057 0.70806611 0.00000609
-0.32247511 0.06214467 0.11825772
-0.73917854 -0.63495994 -0.00000041
-0.55241615 -0.74286377 0.00000025
-0.31187573 -0.06513449 0.00000322
-0.40350634 0.38899395 0.00000252
-0.34090716 -0.59066421 0.00000092
-0.05265143 0.23727305 0.00000972
-0.30499557 -0.23225459 0.00000248
-0.63887036 0.14863877 -0.00000018
-0.17110333 -0.20352294 0.00000261
-0.54429287 -0.44792351 0.19222736
-0.10196390 -0.64225376 0.00000069
-0.39433119 -0.11073434 0.11999072
-0.10416198 0.67982513 0.00000596
-0.23195714 -0.07000238 0.00000319
-0.62718201 -0.70073676 0.03901991
-0.53522873 -0.41166991 0.23400477
-0.01661125 0.20389663 0.00001047
-0.65917498 0.10373302 -0.00000012
-0.58105767 -0.55196559 0.14779481
-0.58004463 -0.73088050 0.00000030
-0.27676019 0.51586044 0.00000395
-0.48343101 -0.76990384 0.00000013
-0.42443734 -0.19184536 0.09548810
-0.14152776 -0.34258881 0.00000200
-0.02206225 0.72817075 0.00000712
-0.24775243 -0.19193125 0.00000266
-0.09779544 -0.15186138 0.00000284
-0.22424418 -0.31522223 0.00000212
-0.35961166 0.00124810 0.20186047
-0.36385947 -0.36488792 0.00000190
-0.12202259 0.67590803 0.00000564
-0.29395717 0.49934322 0.00000375
-0.37973419 -0.11830754 0.00000298
-0.32680473 0.01320938 0.00638623
-0.23040923 0.27172276 0.08137403
-0.12527093 -0.36486247 0.00000190
-0.37857610 -0.65176886 0.00000065
-0.44250953 -0.13806604 0.37866229
-0.60104030 -0.40931720 0.00000053
-0.04556508 -0.70118892 0.00000043
-0.16359080 0.62965441 0.00000521
-0.32673404 0.07107213 0.17410032
-0.44410619 -0.22056936 0.15002617
-0.45160067 -0.40999165 0.00000171
-0.41304517 -0.16290072 0.09967898
-0.54606849 -0.44141659 0.22360520
-0.36315551 -0.79624939 0.00000002
-0.26653755 0.20707837 0.14700574
-0.15270071 0.24069437 0.00000819
-0.63583100 -0.01109894 -0.00000007
-0.77271521 -0.48272690 -0.00000079
-0.36687952 -0.46092665 0.00000148
-0.26947135 0.04449973 0.00000766
-0.56485230 -0.29024032 0.00000090
-0.27836081 -0.43226933 0.00000161
-0.04690436 -0.25919798 0.00000237
-0.27671105 -0.40206766 0.00000174
-0.56283003 -0.63494289 0.00000072
-0.40083602 -0.68634528 0.00000050
-0.12221373 0.49731377 0.00000705
-0.13099262 0.38710293 0.00000760
-0.16590822 0.19490498 0.00000828
-0.48385429 0.03421897 0.00000380
-0.27593949 0.51000625 0.00000401
-0.52060932 -0.60681313 0.00000085
-0.24379376 -0.62208623 0.00000078
-0.18835688 0.40223196 0.16563866
-0.33870572 -0.51753044 0.00000124
-0.65594637 -0.77157259 0.03496991
-0.36801091 -0.67206454 0.00000056
-0.72267425 -0.24953963 -0.00000097
-0.25287575 0.22340351 0.09858237
-0.35066378 -0.04596951 0.00179812
-0.09171992 0.59543455 0.04906982
-0.02187460 0.37423748 0.00000933
-0.13395286 0.12024698 0.00000923
-0.16073175 0.44131187 0.08536695
-0.74048585 -0.66416091 -0.00000034
-0.00788498 -0.36417416 0.00000191
-0.00989454 0.79004496 0.00000689
-0.18980943 -0.65686899 0.00000063
-0.29385257 0.13311353 0.12368883
-0.02579014 -0.06801188 0.00000320
-0.46947601 -0.20840842 0.36342973
-0.04369564 0.58571130 0.00000768
-0.00445712 -0.33807617 0.00000202
-0.09632288 0.13504338 0.00000970
-0.00759503 -0.40934208 0.00000167
-0.59882158 -0.61419767 0.09155375
-0.05345874 0.67775655 0.01985880
-0.02576588 -0.00553330 0.00000348
-0.55066514 0.23662569 0.00000091
-0.77638090 -0.23469026 -0.00000141
-0.28840834 0.17078464 0.19499189
-0.40711668 -0.08772256 0.27661869
-0.09801578 0.44365579 0.00000775
-0.13695645 0.02400720 0.00000978
-0.30379644 0.36300346 0.00000464
-0.52976269 -0.58274275 0.00000095
-0.07744950 0.17840958 0.00000972
-0.55289352 -0.76468271 0.00000015
-0.24741048 -0.50723481 0.00000128
-0.28174695 0.48811772 0.00000407
-0.56034076 0.14367662 0.00000146
-0.16965564 0.43460095 0.12848765
-0.01528039 -0.04961481 0.00000321
-0.15060857 -0.76904029 0.00000014
-0.26341715 0.19933619 0.10259924
-0.63120139 -0.71478456 0.02639099
-0.43673798 -0.18193376 0.21063036
-0.17109586 -0.09648940 0.00000308
-0.58628494 -0.78541356 0.00000006
-0.55164355 -0.48104915 0.14751831
-0.44107687 -0.60330474 0.00000086
-0.20536710 0.33635339 0.09350767
-0.31825465 -0.11330927 0.00000300
-0.28732434 0.11366681 0.02133956
-0.00935972 -0.24316759 0.00000244
-0.41640049 -0.24538869 0.00000243
-0.69640213 -0.09107448 -0.00000074
-0.32485500 -0.14288032 0.00000287
-0.16556583 0.09531352 0.00000891
-0.52540767 -0.42284322 0.13259695
-0.01254180 0.78064930 0.00000691
-0.68378752 -0.09482211 -0.00000059
-0.12501000 0.67189145 0.00000560
-0.39312372 0.09181085 0.00000508
-0.68018538 -0.38044891 -0.00000041
-0.41595358 -0.10410443 0.29101506
-0.02000246 -0.12277275 0.00000287
-0.21391477 0.32376218 0.11689365
-0.38667378 -0.05059689 0.24107215
-0.10425860 0.31782073 0.00000844
-0.34757760 0.06917338 0.31486532
-0.30603948 0.07878576 0.05128526
-0.17939962 0.38849515 0.06284106
-0.56158960 -0.47405168 0.23766263
-0.15174362 0.23182204 0.00000826
-0.68060648 -0.37372437 -0.00000042
-0.53572524 -0.02526619 0.00000111
-0.01024722 -0.77566296 0.00000006
-0.10767398 -0.24701002 0.00000242
-0.24206786 0.18506381 0.00000719
-0.17229211 0.55237919 0.00000566
-0.10981962 -0.11420841 0.00000300
-0.34653544 -0.19076885 0.00000267
-0.43322432 -0.25478232 0.00000239
-0.59581786 -0.56232285 0.22127284
-0.43730497 -0.17165481 0.24449106
-0.50780100 -0.57087803 0.00000100
-0.13910049 0.06644057 0.00000949
-0.32361123 -0.07813266 0.00000316
-0.36214644 0.41478059 0.00000311
-0.72913313 -0.08786070 -0.00000113
-0.35130903 0.02314105 0.20723493
-0.15874194 -0.33707529 0.00000203
-0.41937664 -0.08930946 0.35804856
-0.05203923 0.13061905 0.00001040
-0.62300205 -0.68035460 0.06893587
-0.20688394 0.10382014 0.00000823
-0.49591547 -0.29026952 0.31101313
-0.39345327 -0.25369644 0.00000239
-0.00227016 0.48628017 0.00000893
-0.20111495 0.50311643 0.00000550
-0.15873536 -0.70132273 0.00000043
-0.07987680 0.63228768 0.07308623
-0.48638138 -0.30799145 0.19258203
-0.57488793 -0.49365565 0.27400076
-0.58183241 -0.16850162 0.00000064
-0.28002608 0.12533624 0.00404227
-0.08358143 0.66384763 0.00000648
-0.36820582 -0.58014411 0.00000096
-0.24742658 0.48206285 0.00000478
-0.17169712 -0.67090571 0.00000056
-0.33787450 -0.00409953 0.03375835
-0.08634287 -0.33269081 0.00000204
-0.75856054 -0.72328973 -0.00000019
-0.74644172 -0.39633524 -0.00000101
-0.05933039 -0.48463818 0.00000138
-0.01505620 0.62002689 0.00000790
-0.51463091 -0.39374283 0.14155971
-0.16828816 0.11495293 0.00000874
-0.44160110 -0.22874610 0.10867470
-0.00797623 -0.79312664 -0.00000001
-0.54603535 -0.04329938 0.00000100
-0.00031004 -0.45534983 0.00000151
-0.12068656 0.54251623 0.09852758
-0.31562251 0.12476787 0.25221375
-0.60083216 -0.06655825 0.00000037
-0.53363037 -0.40292153 0.24821889
-0.19255652 0.26672009 0.00000743
-0.53236496 -0.79871947 0.00000001
-0.22958297 -0.43136564 0.00000161
-0.11678654 -0.79614860 0.00000002
-0.19407415 0.38248274 0.14835177
-0.65496916 -0.23669468 -0.00000018
-0.65234613 -0.46420598 -0.00000004
-0.25379670 0.24601226 0.17077062
-0.40546149 -0.26562336 0.00000234
-0.32219210 0.07408931 0.15099518
-0.02047501 0.37971425 0.00000932
-0.10833624 0.31385773 0.00000840
-0.71784353 -0.73079914 -0.00000017
-0.51618522 -0.04114122 0.00000135
-0.33143389 -0.24568196 0.00000243
-0.36399281 -0.05913914 0.05705935
-0.13175689 0.20366946 0.00000874
-0.44563881 0.30267361 0.00000240
-0.25919306 -0.30776227 0.00000215
-0.28085169 0.21314088 0.26508951
-0.31881860 0.21903215 0.00000550
-0.38825518 -0.10297482 0.09990527
-0.45681205 -0.70708472 0.00000041
-0.00266351 -0.00561691 0.00000348
-0.52719879 -0.79781908 0.00000001
-0.39150715 -0.67934030 0.00000053
-0.10606974 0.61156660 0.00000646
-0.30761141 0.43083131 0.00000403
-0.65594375 -0.57570100 -0.00000003
-0.45509887 -0.23242241 0.19271785
-0.39592531 -0.12730832 0.08299707
-0.03583355 -0.35060337 0.00000197
-0.17241238 -0.20463672 0.00000260
-0.56268096 -0.64250243 0.00000069
-0.35855791 -0.00546862 0.17493913
-0.09499613 0.58275211 0.03519426
-0.00494618 -0.62320584 0.00000077
-0.11353475 0.55957568 0.09792728
-0.37082747 -0.05498887 0.11709163
-0.24506561 0.24349818 0.10218527
-0.48142135 -0.25223845 0.31984860
-0.00648214 -0.41760629 0.00000167
-0.17514203 -0.15529074 0.00000282
-0.00837259 -0.44926408 0.00000150
-0.53376752 -0.70503032 0.00000042
-0.59755522 -0.58062267 0.18026890
-0.11816808 -0.69484162 0.00000046
-0.26091844 0.24540006 0.21897274
-0.62831265 -0.34264287 0.00000018
-0.38197491 -0.29905972 0.00000219
-0.41585314 0.19795671 0.00000380
-0.04500251 0.23215221 0.00000987
-0.45817858 0.29448292 0.00000222
-0.13261831 0.40587384 0.00000746
-0.04432684 0.51356864 0.00000812
-0.24918182 0.36817995 0.00000565
-0.51748210 -0.46718538 0.00000146
-0.27477279 -0.60682786 0.00000085
-0.09686436 0.58457369 0.05360135
-0.18988551 -0.56865275 0.00000101
-0.05693267 -0.67108381 0.00000056
-0.16738494 0.07031810 0.00000903
-0.41691053 -0.12702224 0.23110768
-0.44943058 -0.19412670 0.26426429
-0.08071770 -0.39278701 0.00000178
-0.63884866 0.00802562 0.00000103
-0.41646084 -0.36209917 0.00000192
-0.46675244 -0.27249438 0.15801372
-0.20594858 -0.23047784 0.00000249
-0.79165190 -0.66461670 -0.00000034
-0.08920161 -0.21969427 0.00000254
-0.78890073 -0.45605677 -0.00000086
-0.64496028 -0.72850913 0.08305383
-0.17153037 0.62340492 0.00000511
-0.43901736 -0.49251610 0.00000135
-0.20714216 0.32748953 0.08019761
-0.35189426 0.05221128 0.29585084
-0.25035188 0.50609642 0.00000453
-0.42444164 -0.21005537 0.04258082
-0.41081113 -0.09574657 0.27922097
-0.01097709 0.54017520 0.00000846
-0.53977662 -0.12368114 0.00000111
-0.28057683 -0.39152241 0.00000179
-0.34959579 0.03337560 0.22496346
-0.43688157 -0.50608814 0.00000129
-0.53613102 -0.45819506 0.10508574
-0.35634556 -0.05863136 0.00486538
-0.55204940 -0.76629525 0.00000015
-0.33719933 0.45582432 0.00000321
-0.33261082 0.45158520 0.00000338
-0.24173000 0.29217443 0.22027989
-0.28287888 -0.55072904 0.00000109
-0.51756454 -0.08544195 0.00000136
-0.10680568 -0.44216436 0.00000157
-0.69211692 -0.32050836 -0.00000058
-0.29874945 -0.21300225 0.00000257
-0.39593804 -0.73381978 0.00000029
-0.25298020 -0.62044626 0.00000079
-0.38945952 -0.51485008 0.00000125
-0.00097565 -0.10529443 0.00000304
-0.54916400 -0.21705624 0.00000105
-0.28805104 0.12858792 0.06981617
-0.37004864 0.40625328 0.00000303
-0.45155188 0.34597975 0.00000192
-0.33329016 -0.35558170 0.00000194
-0.67504930 -0.13002351 -0.00000047
-0.04146518 0.38976720 0.00000894
-0.36761838 -0.56613177 0.00000102
-0.43107158 0.24508385 0.00000314
-0.42147365 -0.17830400 0.11405373
-0.29983768 0.08702268 0.03170497
-0.24707241 0.16283068 0.00000725
-0.56815618 -0.55316120 0.05377383
-0.06174968 0.14496803 0.00001016
-0.69880658 -0.26524758 -0.00000068
-0.28079098 -0.20302460 0.00000261
-0.52939087 -0.14043908 0.00000124
-0.42589265 -0.40904224 0.00000171
-0.41777128 -0.16738392 0.11981498
-0.21295127 -0.38571218 0.00000181
-0.17109972 0.14816231 0.00000849
-0.46802470 -0.25532311 0.21686053
-0.39403027 -0.09335446 0.16840319
-0.49354255 -0.30815798 0.24235661
-0.15581946 -0.51275218 0.00000126
-0.64197183 0.12856078 0.00000001
-0.32456073 0.10844906 0.26750445
-0.59287387 -0.16088386 0.00000051
-0.59695596 0.06020546 0.00000142
-0.44661158 -0.24322376 0.10175204
-0.53093666 -0.49098331 0.00000135
-0.47315124 -0.29543766 0.13622452
-0.51962513 -0.43920064 0.04446167
-0.36366433 0.14537545 0.00000522
-0.62209964 -0.02080989 0.00000010
-0.09756283 0.58286089 0.05352429
-0.35412890 0.01394042 0.20027858
-0.16578883 -0.79725462 0.00000001
-0.06786762 -0.01213104 0.00000345
-0.39105386 0.13861173 0.00000475
-0.04419687 -0.04698254 0.00000329
-0.37576830 -0.05459283 0.15291880
-0.53636640 -0.46656939 0.08239307
-0.05171072 -0.70950705 0.00000040
-0.43065464 -0.16414347 0.21965355
-0.16951706 -0.51067764 0.00000127
-0.21852203 -0.31731859 0.00000211
-0.41640431 -0.17720143 0.08168125
-0.16356789 -0.30010989 0.00000219
-0.25393590 0.00388086 0.00000814
-0.69695753 -0.70217019 -0.00000024
-0.62175673 -0.64423859 0.16518402
-0.47127986 0.26495686 0.00000221
-0.34958240 0.26917967 0.00000451
-0.43886399 -0.14577559 0.33066496
-0.47380042 -0.26453894 0.23060489
-0.49558839 -0.64534789 0.00000068
-0.05162284 -0.17816891 0.00000272
-0.27123767 -0.38616058 0.00000181
-0.43362144 0.31103620 0.00000256
-0.32424650 -0.48795664 0.00000137
-0.22456515 0.27576476 0.05210926
-0.24932173 0.16255768 0.00000722
-0.43190125 0.15514879 0.00000384
-0.61944765 -0.62402451 0.20774032
-0.59609598 -0.61478990 0.07070331
-0.45980412 -0.21493264 0.27658400
-0.45684001 -0.24774252 0.16040109
-0.71049988 0.05566307 -0.00000072
-0.11796208 0.28836098 0.00000842
-0.27836812 0.36231026 0.00000514
-0.02800839 -0.01552847 0.00000343
-0.58122325 0.13455079 0.00000113
-0.49641329 -0.33935738 0.17180577
-0.26594189 -0.68136090 0.00000052
-0.57877183 -0.30329865 0.00000074
-0.62459910 -0.64899272 0.17131136
-0.49734747 -0.37244001 0.08218900
-0.24384740 0.55506855 0.00000427
-0.32506588 -0.77130997 0.00000013
-0.74930233 -0.22875310 -0.00000129
-0.32563007 0.11850589 0.30424497
-0.12370136 0.31882954 0.00000814
-0.01455910 -0.50071460 0.00000131
-0.70547867 -0.47276402 -0.00000066
-0.50868684 -0.58302528 0.00000095
-0.39853838 -0.06404046 0.28525946
-0.35235700 0.04492684 0.27792218
-0.51809770 -0.41217577 0.11230460
-0.45047319 -0.48194766 0.00000139
-0.04615459 0.55099434 0.00000786
-0.64187390 -0.14743385 -0.00000007
-0.31862876 -0.64447820 0.00000068
-0.53317583 -0.49340653 0.00000134
-0.12655681 -0.26543409 0.00000234
-0.02869219 -0.59999210 0.00000088
-0.57409072 0.12299428 0.00000136
-0.30116352 -0.71529484 0.00000037
-0.48237884 -0.03246452 0.00000174
-0.42037106 -0.15041536 0.18738946
-0.27284521 0.22149858 0.23319466
-0.16584253 0.44685435 0.13734785
-0.54404050 -0.49085554 0.06565039
-0.24192303 -0.13491373 0.00000291
-0.26046798 -0.44298589 0.00000156
-0.27009287 -0.51685399 0.00000124
-0.47308871 -0.77643335 0.00000010
-0.75676113 -0.37315801 -0.00000107
-0.40099058 -0.14955638 0.05387003
-0.38704753 -0.79680938 0.00000001
-0.34858599 0.04786329 0.25999290
-0.42632467 -0.48045185 0.00000140
-0.41074601 -0.14267077 0.14235272
-0.47777805 -0.45589110 0.00000151
-0.38333589 0.23899779 0.00000410
-0.74738544 -0.14109015 -0.00000131
-0.29947495 0.14357778 0.19356805
-0.17349714 0.53042632 0.00000581
-0.29199487 -0.34572139 0.00000199
-0.30138749 0.16347905 0.26484475
-0.33444992 0.04679123 0.15766624
-0.69657052 -0.46514171 -0.00000056
-0.14205264 -0.40038845 0.00000175
-0.55709463 -0.04985759 0.00000088
-0.30873641 -0.71107286 0.00000039
-0.40257743 -0.06265763 0.31762630
-0.46770871 -0.49970743 0.00000131
-0.46637356 -0.29015994 0.10399991
-0.36281869 -0.03146548 0.12926801
-0.17582215 0.40782377 0.09392298
-0.14102027 -0.28847301 0.00000224
-0.00783516 -0.61798131 0.00000080
-0.40699366 -0.57229155 0.00000100
-0.15519349 -0.37778175 0.00000185
-0.77200556 -0.70673263 -0.00000023
-0.38789949 -0.07634365 0.17482719
-0.49093923 -0.35147512 0.09816071
-0.52251583 0.12938836 0.00000230
