ply
format ascii 1.0
element vertex 1390
property float x
property float y
property float z
end_header
-0.44318435 -0.12050914 -0.00000013
-0.13626084 -0.37753159 0.00000000
-0.75891483 -0.13524368 -0.00000079
-0.33698410 0.22202337 0.31386277
0.12610792 -0.52063739 0.00000000
-0.20954216 0.25470653 0.00000000
-0.26173478 0.03774662 0.00000000
0.06148458 0.51949143 0.00000328
0.22245128 -0.22591130 0.00000000
-0.68805414 -0.76027912 -0.00000005
-0.22816256 -0.26740241 0.00000000
0.43008986 -0.27694482 0.00000000
0.13066027 -0.20654176 0.00000000
0.17890745 -0.78724563 0.00000000
-0.73954839 -0.24606146 -0.00000065
-0.68572348 -0.41425109 -0.00000039
0.19847111 -0.67406666 0.00000000
-0.02924976 -0.33608815 0.00000000
-0.71315217 -0.64159042 -0.00000020
-0.49306068 -0.75559103 0.00000000
-0.05576161 0.73679435 0.00969606
-0.02384126 -0.47121367 0.00000000
-0.19431871 0.47060308 0.17592312
0.70672405 -0.44885895 -0.00000081
-0.16735411 0.25886679 0.00000000
-0.15317655 -0.62234724 0.00000000
0.29030085 0.28448114 0.00000304
-0.21529803 -0.22773260 0.00000000
-0.59505075 -0.11192458 -0.00000046
0.36582476 -0.71488154 0.00000000
-0.13218258 0.52260447 0.18912236
0.63696098 -0.40553322 -0.00000059
-0.04207833 -0.21416640 0.00000000
-0.52860737 -0.27496144 -0.00000018
-0.15939496 -0.24121925 0.00000000
-0.41708347 0.28275070 0.13045333
-0.62086922 -0.21654619 -0.00000043
0.33116144 -0.28817490 0.00000000
0.49575928 0.22369602 0.00000011
-0.54758602 0.00005780 -0.00000046
0.67084968 -0.59451509 -0.00000040
0.62638509 0.14437070 -0.00000108
-0.20520128 0.15093593 0.00000000
0.01450963 -0.67895377 0.00000000
-0.35213965 -0.78138214 0.00000000
-0.32974407 0.24222884 0.29697698
0.32922223 0.25830418 0.00000273
0.41167867 -0.31286079 0.00000000
0.53414202 0.10346678 0.00000138
0.07255177 -0.49975869 0.00000000
0.73645622 0.01172190 -0.00000098
-0.07128454 -0.09281487 0.00000000
-0.45636994 0.13950092 0.26585275
0.44526500 -0.34384456 0.00000000
-0.59149510 -0.59831750 -0.00000003
0.13927038 0.26706851 0.00000589
0.30185592 0.18229331 0.00000452
-0.51514447 -0.45465770 0.00000000
0.19198997 -0.44659957 0.00000000
-0.21155100 0.56319487 0.03289080
0.05225038 -0.60323524 0.00000000
0.15343916 -0.29254791 0.00000000
0.16515288 -0.02876508 0.00000000
-0.07048521 -0.29919288 0.00000000
0.12799770 0.54127169 0.00000186
0.10500882 -0.73583323 0.00000000
-0.30178380 0.09842563 -0.00000002
-0.65000200 0.13794266 0.01569899
-0.62444538 -0.52522278 -0.00000016
-0.52919161 0.21952891 0.06678423
-0.04418118 0.56368124 0.00000000
-0.08667665 0.19251236 0.00000000
-0.22870328 0.29268384 0.36285850
-0.34830108 -0.78506941 0.00000000
-0.07916266 -0.10587973 0.00000000
0.30249727 0.36327964 0.00000149
-0.03995510 0.06845740 0.00000000
0.56482619 -0.13825646 -0.00000075
-0.73847544 -0.42523265 -0.00000047
-0.02926287 0.36840209 0.00000000
-0.34775367 -0.30047822 0.00000000
0.75966299 -0.11118389 -0.00000163
0.18478790 0.43782201 0.00000250
0.14475805 0.28680640 0.00000551
0.28124186 -0.33899853 0.00000000
-0.03758240 -0.06325642 0.00000000
-0.31885678 0.38907668 0.11990540
-0.40272743 0.39222860 0.00656864
-0.26165178 0.23586500 -0.00000006
-0.30752242 -0.06464292 0.00000000
-0.36119273 0.04572726 -0.00000010
0.46897262 -0.07045509 -0.00000046
-0.62983632 -0.17097263 -0.00000049
-0.06196074 0.64988202 0.11481472
-0.50046068 -0.55061942 0.00000000
0.07842902 0.08657633 0.00000952
0.55554718 -0.22389129 -0.00000056
0.22045612 0.37002760 0.00000295
-0.58967638 0.17940651 0.04026445
-0.16538826 0.22065030 0.00000000
-0.31495103 -0.51651514 0.00000000
-0.30075821 -0.29089320 0.00000000
0.24674822 -0.58132464 0.00000000
-0.04226709 0.73243624 0.03294697
0.26458734 0.36428592 0.00000220
0.30142525 0.41429573 0.00000065
-0.16224602 0.38565424 0.32832858
0.02724153 -0.37849098 0.00000000
-0.72072327 -0.47986943 -0.00000040
-0.12724286 -0.29971686 0.00000000
-0.09263063 0.36207756 0.00000000
-0.24565269 -0.61578989 0.00000000
-0.18390854 -0.17661600 0.00000000
0.42610011 0.31639782 -0.00000010
0.19377691 0.52853608 0.00000081
-0.45602456 -0.55004841 0.00000000
0.09879013 0.25013378 0.00000676
-0.06032270 -0.39365017 0.00000000
0.54555327 0.12892008 0.00000073
-0.69840705 -0.53867668 -0.00000031
-0.20357245 -0.05360368 0.00000000
-0.35472488 0.31457391 0.17022221
0.55461282 0.08509654 0.00000129
-0.15909134 0.07436622 0.00000000
-0.64750713 0.13707161 0.02008273
-0.33482468 0.22637697 0.31100515
-0.41799808 -0.74491513 0.00000000
0.45568416 -0.70347959 0.00000000
0.21603009 -0.12976779 0.00000000
-0.65444320 -0.31638446 -0.00000041
0.38291058 -0.77941579 0.00000000
0.29875508 0.22372736 0.00000389
0.13019703 -0.27560404 0.00000000
0.11713783 0.20017660 0.00000723
-0.04162658 -0.06595782 0.00000000
0.07507452 -0.41561073 0.00000000
-0.74042648 -0.32216755 -0.00000059
0.47718334 -0.31701106 -0.00000006
0.09442909 0.14100341 0.00000846
0.21957718 0.57976550 -0.00000054
-0.21734758 0.02566556 0.00000000
0.07606088 -0.45544511 0.00000000
0.73420846 -0.64240724 -0.00000039
0.05139282 0.35344827 0.00000592
-0.40565988 -0.54543167 0.00000000
-0.23635785 0.20749295 0.46383953
-0.46871191 0.26176715 0.09054182
-0.49423653 -0.17231327 -0.00000020
0.33630854 0.17665553 0.00000395
0.29475302 -0.56369776 0.00000000
-0.14105880 0.27633250 0.00000000
-0.29773399 -0.63172603 0.00000000
-0.50199735 0.19305529 0.13668029
0.14338891 0.45758739 0.00000297
0.47665855 -0.70373660 0.00000000
-0.41959882 -0.31705689 0.00000000
-0.14505462 -0.12436072 0.00000000
-0.50302958 0.20722507 0.11688150
-0.07616497 -0.57462978 0.00000000
0.10154591 0.01875174 0.00001019
0.56483233 -0.68893582 0.00000000
0.06210300 0.66648859 0.00000104
0.60055548 -0.40413460 -0.00000043
0.02767060 0.03670977 0.00001103
0.54609185 0.13753448 0.00000058
-0.03899519 0.67735130 0.00000000
-0.10809880 0.56580967 0.16421919
0.54018080 -0.33754939 -0.00000029
-0.39284426 -0.40730438 0.00000000
-0.33072588 -0.65721011 0.00000000
0.18249114 -0.55459201 0.00000000
-0.58852726 -0.45117486 -0.00000015
-0.40390220 -0.10340122 -0.00000006
-0.03436695 -0.43509525 0.00000000
-0.04368958 -0.79015517 0.00000000
-0.38939744 -0.15549143 0.00000000
-0.25637981 -0.37153283 0.00000000
0.34370804 -0.56364125 0.00000000
-0.32842824 0.37052748 0.13159776
-0.21746178 -0.00312560 0.00000000
0.47090957 0.03365381 0.00000376
-0.04946177 -0.62325209 0.00000000
-0.64180100 -0.73238820 -0.00000002
-0.69601238 -0.47216776 -0.00000036
-0.02060806 -0.22066016 0.00000000
-0.13257772 -0.61172032 0.00000000
-0.12376754 -0.12995778 0.00000000
0.68040109 -0.50526112 -0.00000060
-0.33498627 -0.07931673 0.00000000
-0.66197622 -0.63409489 -0.00000015
0.32047215 0.20407887 0.00000380
-0.50055808 0.24340595 0.07297914
0.00173641 0.65002710 0.00000222
0.21732211 -0.16355085 0.00000000
-0.44604182 -0.46062922 0.00000000
-0.03172286 0.67263883 0.00000000
0.17302567 -0.52805448 0.00000000
0.70663220 -0.04993672 -0.00000151
-0.34597117 0.21770348 0.30778438
0.74902886 -0.76854753 -0.00000008
0.25477996 0.26042658 0.00000412
0.74919289 -0.10279900 -0.00000160
-0.20551862 0.17157494 0.00000000
0.46935812 -0.03126638 -0.00000053
-0.21763568 -0.16088893 0.00000000
-0.41113323 -0.33287808 0.00000000
0.64833796 -0.32154322 -0.00000078
-0.25366721 0.13375060 0.00000000
-0.40572068 0.13342483 -0.00000028
-0.47511965 0.02233708 -0.00000033
-0.16939797 -0.10370214 0.00000000
0.62064457 -0.31960347 -0.00000067
-0.24121717 -0.17420529 0.00000000
0.33168796 -0.59856308 0.00000000
0.00302340 -0.78763133 0.00000000
-0.47211573 0.25049111 0.10079444
-0.17844729 0.39872432 0.29020640
-0.27754608 0.33236614 0.24756594
-0.14657798 0.62118226 0.04198900
-0.17630871 -0.07087985 0.00000000
0.76275885 -0.42936441 -0.00000093
-0.63324314 0.11079048 0.07288789
-0.42345363 -0.45658278 0.00000000
-0.59393317 -0.66313016 0.00000000
0.59771174 -0.43001410 -0.00000038
-0.19218774 0.29167798 0.41172528
-0.08800286 -0.64544827 0.00000000
0.37970099 -0.14144202 0.00000000
-0.51239169 0.05534103 -0.00000044
-0.72120696 -0.65763754 -0.00000018
-0.29986936 -0.47095931 0.00000000
0.07631924 -0.60854679 0.00000000
0.05667087 0.66890293 0.00000110
0.16396497 0.19331115 0.00000663
-0.41630599 -0.40602189 0.00000000
-0.32361764 -0.19558024 0.00000000
-0.71749407 -0.32276395 -0.00000054
0.13582738 0.39439389 0.00000403
0.27354854 0.47088134 0.00000024
0.52821916 -0.25700676 -0.00000039
0.17914647 0.53771490 0.00000094
-0.63625270 -0.18417668 -0.00000049
0.26948199 -0.04956106 0.00000000
0.30108970 0.14462078 0.00000517
0.69109839 -0.20196736 -0.00000118
-0.22255929 0.40034333 0.23064767
-0.34491464 0.32996652 0.16295189
0.52183884 -0.06913405 -0.00000069
0.63521707 -0.32064176 -0.00000073
-0.07768306 -0.32349649 0.00000000
0.31497195 -0.51678246 0.00000000
-0.63779420 -0.13216531 -0.00000054
0.76127720 -0.32051772 -0.00000120
0.16032387 0.21479145 0.00000636
-0.76586491 -0.41142127 -0.00000049
-0.38394362 -0.40544361 0.00000000
-0.14306159 -0.79218316 0.00000000
0.48707461 0.14707299 0.00000155
-0.07145719 0.65817034 0.09165234
0.06042393 0.70655483 0.00000040
0.20176756 -0.72676772 0.00000000
0.38462034 -0.01058990 -0.00000021
-0.08152502 0.39002490 0.00000000
0.22548231 0.01840752 0.00000832
0.68854344 -0.39627987 -0.00000082
-0.24035527 0.25288674 0.39951387
-0.41356012 -0.67929482 0.00000000
-0.05652626 -0.28667572 0.00000000
-0.57341045 -0.10080336 -0.00000043
0.62925535 -0.69760525 -0.00000004
-0.33194342 -0.78849834 0.00000000
0.26952580 0.22047538 0.00000450
-0.30149564 0.47115493 0.03561927
-0.16656455 -0.62955445 0.00000000
-0.12522542 -0.44466177 0.00000000
-0.17219429 0.18724500 0.00000000
0.13997395 0.31125268 0.00000522
0.17844461 -0.74305719 0.00000000
0.66645229 -0.78778094 -0.00000003
-0.52911675 -0.69295722 0.00000000
0.01129683 0.21476658 0.00000861
-0.44079623 -0.38727456 0.00000000
-0.13064019 -0.72314024 0.00000000
0.03220960 -0.33436832 0.00000000
-0.74220341 -0.48112530 -0.00000040
-0.20726217 -0.71621001 0.00000000
0.00180611 -0.52242291 0.00000000
-0.44407877 -0.45367402 0.00000000
0.02135041 0.42542261 0.00000530
0.21948653 -0.44433215 0.00000000
-0.40121606 -0.31375864 0.00000000
-0.08742119 -0.48727518 0.00000000
0.19741954 0.44337648 0.00000217
-0.68161988 -0.75164789 -0.00000006
0.23588832 0.16785859 0.00000592
0.39683601 -0.69772279 0.00000000
-0.29868981 -0.68152267 0.00000000
0.07843414 0.02391589 0.00001046
-0.12794667 -0.33496484 0.00000000
-0.73422706 -0.57007140 -0.00000029
0.34030488 0.20796324 0.00000335
0.11719789 0.60579336 0.00000099
-0.78935587 -0.02884386 -0.00000095
-0.70903832 -0.39177865 -0.00000046
-0.13996786 0.48299721 -0.00000002
-0.27584642 -0.00623446 0.00000000
-0.41940987 0.11021899 -0.00000029
0.68046153 -0.75165224 -0.00000012
-0.58541632 0.13113689 0.10867802
0.78647864 -0.35525283 -0.00000111
0.31451246 -0.21703345 0.00000000
0.02633064 -0.24657470 0.00000000
-0.27137709 -0.16531114 0.00000000
0.31882897 -0.48637813 0.00000000
-0.18324398 0.18241414 0.00000000
0.58962750 -0.77425414 0.00000000
0.27641430 -0.08553919 0.00000000
0.12327518 -0.70428532 0.00000000
-0.23284227 0.46466503 0.13348459
-0.34470138 -0.28027865 0.00000000
0.54975009 -0.08568132 -0.00000078
-0.03321003 -0.19963145 0.00000000
-0.13121326 -0.66528058 0.00000000
-0.63692528 -0.49782297 -0.00000021
0.37202483 -0.47342187 0.00000000
0.45752746 0.13774255 0.00000228
0.61574185 -0.17087021 -0.00000091
-0.54495209 -0.00965830 -0.00000045
-0.18954648 0.17089672 0.00000000
0.68846589 -0.46730900 -0.00000070
-0.06786410 0.48133093 0.00000000
-0.55244219 0.03813272 -0.00000051
-0.06489234 -0.50740051 0.00000000
0.04436900 0.35149303 0.00000606
-0.24103145 0.51453406 0.05787075
-0.64841491 0.06577720 -0.00000073
-0.78163552 -0.32139924 -0.00000060
0.53621733 -0.62174904 0.00000000
0.31389219 -0.42789140 0.00000000
-0.32125753 -0.42297465 0.00000000
-0.01069204 -0.33055156 0.00000000
0.05398277 -0.06725262 0.00000000
0.06977083 -0.74097747 0.00000000
0.46022904 0.13698412 0.00000224
0.17233053 0.01162334 0.00000923
-0.45796397 0.28716376 0.07146375
0.53024161 -0.78680909 0.00000000
0.32321423 -0.22573587 0.00000000
-0.02923265 0.71827579 0.06836482
-0.28433269 -0.37577662 0.00000000
0.68746424 -0.28462827 -0.00000102
0.67119867 -0.70453405 -0.00000020
-0.43865106 0.34519050 0.02104375
0.50077355 0.19576199 0.00000048
-0.03935387 0.09106482 0.00000000
-0.46852037 -0.28182992 -0.00000004
0.64717460 -0.12726419 -0.00000112
0.25521913 -0.05933972 0.00000000
-0.15637359 0.09258323 0.00000000
-0.21521887 -0.73480868 0.00000000
-0.58413231 0.10047850 0.15027913
-0.71348572 -0.70864475 -0.00000011
-0.64503902 -0.07668523 -0.00000060
0.24450158 -0.26825750 0.00000000
-0.76058966 0.00280760 -0.00000092
0.34973738 -0.34778291 0.00000000
-0.12137697 0.63156903 0.06128294
-0.02840348 0.59529877 0.00000000
-0.42547724 -0.37460849 0.00000000
0.27396333 -0.76605332 0.00000000
0.28585452 -0.14082409 0.00000000
-0.69576514 0.07978910 0.03183580
-0.06572616 0.68884587 0.05916532
-0.43973452 -0.06093821 -0.00000018
0.00085771 0.25517255 0.00000816
-0.30374703 0.06839440 -0.00000000
-0.18994270 0.53729475 0.09476483
0.59498864 -0.01301005 -0.00000110
0.74593353 -0.25312841 -0.00000132
0.72481388 -0.75304353 -0.00000012
-0.60828644 -0.11198537 -0.00000049
-0.41596928 0.25617206 0.16651987
0.14704724 0.60890365 0.00000037
-0.23223090 0.30380732 0.34377733
-0.64323437 -0.74938494 -0.00000000
0.01881960 0.66779262 0.00000170
0.02807703 -0.05483595 0.00000000
-0.49291977 -0.13253294 -0.00000023
-0.72745234 -0.24787244 -0.00000063
0.10186546 -0.35394785 0.00000000
0.70971870 -0.11963745 -0.00000140
-0.44827026 0.18309198 0.21962956
-0.31393301 0.34424853 0.18470126
0.61430848 -0.01205709 -0.00000119
0.62050104 -0.53802395 -0.00000028
-0.57934111 -0.06006147 -0.00000048
0.20094313 -0.43835843 0.00000000
0.48351407 -0.49157649 0.00000000
0.29530376 -0.24979590 0.00000000
0.48044062 -0.71828228 0.00000000
-0.14987472 0.56628978 0.10918614
0.63610488 -0.64477611 -0.00000016
-0.69193906 -0.03962040 -0.00000073
-0.28046271 -0.62716365 0.00000000
-0.29858062 -0.18937685 0.00000000
-0.47123784 -0.75561482 0.00000000
0.58208454 0.04391259 0.00000145
-0.49421254 -0.37758130 -0.00000001
0.27802128 -0.77479601 0.00000000
-0.31740978 0.45215824 0.03963386
0.73578304 -0.00507703 -0.00000172
0.17694440 -0.45977402 0.00000000
0.56020689 -0.06389221 -0.00000086
-0.33425435 -0.41510692 0.00000000
-0.72479260 0.03220199 0.05600738
-0.69584572 -0.42291930 -0.00000040
0.37323466 -0.36773703 0.00000000
-0.21721935 0.41395050 0.21988064
-0.23209161 -0.46226373 0.00000000
0.41869038 -0.47430176 0.00000000
-0.67582536 0.09329322 0.04021758
-0.56366569 -0.72332960 0.00000000
-0.17297806 -0.64671797 0.00000000
-0.44418177 0.34954640 0.00816763
0.30678099 -0.79626018 0.00000000
-0.69538945 -0.53108275 -0.00000031
-0.39509565 -0.71178114 0.00000000
-0.41295046 0.31950036 0.08797408
0.60778522 -0.56679487 -0.00000018
0.76370877 -0.17860207 -0.00000153
-0.50095552 -0.46053177 0.00000000
0.52027088 0.23769046 -0.00000060
0.43722063 -0.26150677 0.00000000
-0.73765492 -0.58512133 -0.00000027
0.11941710 0.67651880 -0.00000023
0.39525443 -0.47489873 0.00000000
0.45482594 -0.66583163 0.00000000
-0.63814968 -0.77168071 0.00000000
0.22947280 -0.13470346 0.00000000
-0.35316843 0.09957816 -0.00000013
-0.19917201 -0.52300543 0.00000000
-0.55133247 0.20365125 0.05862705
0.03326146 0.18787022 0.00000868
-0.39892471 0.25254652 0.19344024
-0.49325496 0.22389618 0.10789971
-0.26113954 -0.05566710 0.00000000
-0.53269464 -0.56460893 0.00000000
-0.08433863 -0.21834011 0.00000000
-0.13845307 -0.30131486 0.00000000
-0.08848802 0.61442208 0.12644829
-0.72375804 -0.35725385 -0.00000052
0.03467624 0.56286389 0.00000303
-0.61042577 0.07112375 0.15426596
-0.42566499 0.24834359 0.16408800
-0.61248958 0.12527016 0.08105898
0.01121184 -0.67986053 0.00000000
-0.17978624 0.54609829 0.09652690
-0.62029439 -0.17937136 -0.00000046
-0.14792348 0.39190257 0.33884424
0.12603121 -0.29601556 0.00000000
0.70269734 -0.06803176 -0.00000146
-0.23992249 -0.63690692 0.00000000
-0.42994726 -0.75812167 0.00000000
-0.41729060 0.36456618 0.02362878
0.33915886 -0.40308496 0.00000000
-0.57044321 -0.08143961 -0.00000044
0.25910771 0.22847015 0.00000457
0.72424179 -0.20915066 -0.00000131
-0.12064208 -0.49044302 0.00000000
0.31935281 -0.58216637 0.00000000
-0.28175998 -0.64927626 0.00000000
0.65479267 0.04487029 0.00000004
-0.24819902 -0.55785435 0.00000000
-0.11043079 0.37089613 0.00000000
0.42674711 -0.47373265 0.00000000
-0.32150438 -0.09036893 0.00000000
-0.67370492 -0.74936664 -0.00000006
-0.32232839 -0.04085761 0.00000000
0.55910683 0.22181240 -0.00000108
0.13024151 -0.22563599 0.00000000
-0.46759006 0.14399323 0.24538913
-0.44454333 -0.43118915 0.00000000
-0.36396366 -0.28479126 0.00000000
0.65487802 -0.36826640 -0.00000073
0.13631339 -0.74844396 0.00000000
-0.33881864 0.34652171 0.14933006
-0.17844269 0.16467126 0.00000000
0.15210760 -0.47625905 0.00000000
0.28527853 0.30785459 0.00000274
0.36123264 -0.59607106 0.00000000
-0.44506532 0.06473134 -0.00000030
-0.06095561 -0.16036747 0.00000000
-0.08341685 0.45221454 0.00000000
-0.27177966 0.23121011 -0.00000008
-0.16819647 -0.62754941 0.00000000
-0.27626413 -0.77228367 0.00000000
0.45965654 0.33970490 -0.00000114
-0.39085054 0.28700978 0.15907168
-0.43590650 -0.79912698 0.00000000
-0.65021563 -0.08405873 -0.00000061
0.39835417 0.02298038 0.00000533
-0.60198420 -0.43078598 -0.00000020
0.67116779 -0.79445237 -0.00000001
-0.52615029 0.13899851 0.17562628
0.17215268 0.01470452 0.00000918
-0.25463367 0.47394234 0.09302128
-0.11278028 -0.13759378 0.00000000
-0.46470496 -0.41265443 0.00000000
0.05851269 -0.40408382 0.00000000
0.55869859 -0.49874139 -0.00000009
-0.12120248 0.52016580 0.20659855
-0.35149094 -0.77716273 0.00000000
-0.30499321 0.35657552 0.18028989
-0.52554810 0.13049182 0.18748948
0.59876633 -0.35935447 -0.00000051
-0.02781833 0.76861829 0.00464206
-0.22115660 -0.24526829 0.00000000
0.44701540 -0.18720935 -0.00000016
0.24455246 0.31592560 0.00000339
-0.36721393 -0.61668712 0.00000000
-0.08907782 -0.11141381 0.00000000
-0.49212751 0.14532161 0.21170194
-0.03280013 0.22442156 0.00000000
-0.32009485 0.22586209 0.33085942
0.18469471 0.08287498 0.00000797
0.71981961 -0.05157127 -0.00000157
0.09453533 0.38144362 0.00000485
0.78140020 -0.41668540 -0.00000096
-0.12743738 -0.41789508 0.00000000
0.73212677 0.01933002 -0.00000102
-0.19363089 0.46144357 0.18874802
-0.35907653 0.38186955 0.07691027
-0.02679128 -0.12311691 0.00000000
0.36615387 -0.39239848 0.00000000
-0.73526376 -0.57714695 -0.00000028
-0.13938481 0.65546685 0.00670578
-0.08479817 0.00141609 0.00000000
0.31587628 0.33477029 0.00000171
-0.03043727 -0.46624321 0.00000000
0.02244918 -0.79323184 0.00000000
-0.73676103 -0.73078841 -0.00000009
-0.06080103 -0.03362099 0.00000000
-0.21476151 0.21725202 0.47925606
-0.19474787 0.49844515 0.13910352
-0.56077516 -0.23073161 -0.00000029
0.18282098 -0.47917143 0.00000000
0.41005546 -0.14496541 -0.00000008
0.51423949 -0.07077696 -0.00000066
-0.44788858 0.14698786 0.26714790
-0.21614045 -0.11532472 0.00000000
-0.38134849 0.36320457 0.07221252
-0.52087605 -0.32283112 -0.00000012
-0.10666346 0.52528167 0.00000000
0.41630808 0.08982642 0.00000387
-0.61614770 0.18045998 0.00441666
0.20866905 -0.55427003 0.00000000
0.03489319 0.17794620 0.00000880
0.39288864 0.05718431 0.00000486
-0.63792372 0.13822265 0.03106489
-0.19509561 0.18382010 0.00000000
0.64698368 -0.69286805 -0.00000012
0.62687051 -0.31220275 -0.00000071
-0.24762121 0.52055424 0.04144782
-0.38855380 0.38931584 0.02882169
-0.46541464 0.28363338 0.06635798
0.69295669 -0.18266983 -0.00000122
0.12438502 -0.34612867 0.00000000
-0.36906546 -0.24916437 0.00000000
-0.17514285 0.40990770 -0.00000003
-0.53150892 -0.59701610 0.00000000
0.40425596 -0.23224582 0.00000000
-0.78326064 -0.12953869 -0.00000084
-0.45865393 -0.02938459 -0.00000025
-0.36356628 -0.46426120 0.00000000
-0.71494550 -0.54100758 -0.00000032
0.15761174 -0.24115352 0.00000000
-0.36987713 -0.35555720 0.00000000
0.69447517 -0.32211393 -0.00000098
-0.22477968 0.42643163 0.19377923
0.16558462 -0.10596951 0.00000000
0.32087713 0.47740379 -0.00000080
-0.24262001 -0.71801680 0.00000000
0.76865971 -0.60639209 -0.00000048
0.02674190 0.76960790 -0.00000001
-0.03095555 -0.61205351 0.00000000
0.54059213 -0.34103847 -0.00000029
0.74935210 -0.13873371 -0.00000154
0.27941766 -0.50610852 0.00000000
0.40793571 0.38999686 -0.00000102
-0.21891388 0.56184727 0.02505662
-0.11314113 -0.33931890 0.00000000
-0.33246985 -0.21674564 0.00000000
0.17297480 -0.75399667 0.00000000
-0.25401899 0.33699116 0.27218348
0.27304414 -0.02249297 0.00000000
-0.78147835 -0.48819837 -0.00000039
-0.09819311 -0.14663897 0.00000000
0.05655942 -0.62457049 0.00000000
-0.44825771 -0.35514942 0.00000000
-0.20464292 0.31129402 0.36995667
0.00369308 0.32738537 0.00000703
0.32588845 0.31659597 0.00000182
-0.77075410 -0.06539518 -0.00000088
-0.51143575 0.21540396 0.09528140
0.13242719 0.13224733 0.00000802
-0.48763961 -0.50606596 0.00000000
0.01478495 0.57580608 0.00000314
-0.54104793 -0.05228709 -0.00000040
-0.20730016 -0.63651133 0.00000000
0.11695783 -0.32090142 0.00000000
0.30018550 0.05905598 0.00000658
-0.00109050 -0.54698098 0.00000000
-0.67334557 0.01867469 -0.00000075
0.54613638 0.20994280 -0.00000063
0.31372201 -0.04786247 0.00000000
0.37884420 -0.70844734 0.00000000
0.32267156 0.22941685 0.00000333
0.23417798 -0.05241564 0.00000000
0.07174614 0.68741989 0.00000050
-0.32344311 -0.64518487 0.00000000
-0.65883958 -0.18436542 -0.00000054
0.49765363 0.04549807 0.00000305
0.04528141 0.08745592 0.00001000
0.64700276 -0.67460507 -0.00000015
-0.03400733 0.62545049 0.00000000
0.66386914 -0.12574729 -0.00000120
-0.69702071 -0.49501744 -0.00000034
0.38564387 -0.77397966 0.00000000
-0.05574844 0.68916202 0.07174831
0.31456575 -0.52620208 0.00000000
-0.16154489 -0.53584325 0.00000000
-0.40185079 -0.48158157 0.00000000
-0.12622915 0.00593078 0.00000000
0.10199356 -0.78909665 0.00000000
-0.72884446 -0.21593426 -0.00000066
0.49342120 0.08530960 0.00000246
-0.14440563 -0.29923889 0.00000000
-0.09188756 -0.16605712 0.00000000
-0.09161422 -0.72735214 0.00000000
-0.30797994 0.46943277 0.02941714
-0.31650472 -0.23736273 0.00000000
-0.22689269 -0.08405396 0.00000000
-0.35769573 0.27329096 0.22011907
0.37051070 -0.69826937 0.00000000
-0.36974749 0.30694452 0.16059338
0.23683624 0.36619997 0.00000270
0.49476427 -0.76751679 0.00000000
-0.22646476 -0.10017406 0.00000000
-0.11649988 0.56292295 0.15703745
0.24911517 -0.43344313 0.00000000
0.39774516 -0.49116936 0.00000000
-0.55353707 -0.14842311 -0.00000034
0.38508031 0.17498372 0.00000305
0.55196422 -0.47914657 -0.00000009
-0.26275849 -0.25101504 0.00000000
0.38895869 -0.04223820 -0.00000017
0.20061804 0.22294019 0.00000563
-0.07402958 -0.19264555 0.00000000
0.21800372 -0.19230384 0.00000000
-0.75834674 -0.05931901 -0.00000086
-0.58145487 0.07565553 -0.00000060
0.64138055 -0.35670725 -0.00000069
-0.35757551 -0.66929430 0.00000000
0.77261853 -0.73992437 -0.00000015
-0.65673488 -0.36632940 -0.00000037
-0.54210663 0.01016758 -0.00000046
-0.68076301 -0.20276675 -0.00000057
-0.76842177 -0.13142748 -0.00000082
0.06127836 0.00705158 0.00001097
0.43393409 0.08648210 0.00000359
0.23337770 -0.54360741 0.00000000
-0.18790144 -0.26498339 0.00000000
-0.22910336 0.35693276 0.27866152
0.45153430 -0.71097863 0.00000000
-0.17932892 -0.23760994 0.00000000
0.79812616 -0.29197645 -0.00000127
-0.09745463 0.58637142 0.15130286
0.25490609 0.39060315 0.00000194
-0.30267471 0.48438331 0.01685533
-0.05067214 -0.23222239 0.00000000
0.60654980 -0.42970377 -0.00000041
0.50903863 0.18502975 0.00000050
0.05697353 -0.16600795 0.00000000
-0.14250469 0.42153740 0.30730596
-0.51740277 -0.69503087 0.00000000
-0.50607806 -0.08030590 -0.00000030
0.29093876 -0.71857429 0.00000000
0.68919599 -0.57369858 -0.00000051
0.51358914 -0.48786399 0.00000000
0.05632014 0.44765544 0.00000444
-0.12653875 -0.26924223 0.00000000
-0.24544683 -0.38310763 0.00000000
-0.06929688 0.48606417 0.00000000
-0.18991016 0.38155699 0.29763573
-0.52606994 0.13863344 0.17620645
0.33455420 -0.41596666 0.00000000
-0.07690474 0.08349638 0.00000000
-0.50622618 0.06593423 -0.00000043
0.06246323 0.45238525 0.00000427
0.46487316 -0.07275275 -0.00000044
0.24665070 0.33077320 0.00000310
0.23112059 0.27536148 0.00000433
0.46795455 -0.28315508 -0.00000008
-0.43243521 -0.26849663 0.00000000
0.57720929 -0.12559031 -0.00000083
0.07124530 -0.24017964 0.00000000
-0.13852476 -0.33974591 0.00000000
0.25354949 -0.26639667 0.00000000
0.74518329 -0.59852022 -0.00000050
0.09615148 -0.40585232 0.00000000
-0.16107833 -0.63263923 0.00000000
-0.46624658 0.13654293 0.25684199
0.11690349 0.60755211 0.00000097
0.30157852 -0.73617047 0.00000000
-0.71744972 0.05943130 0.03010773
-0.03592124 -0.26637259 0.00000000
-0.23114774 0.19570620 0.00000000
-0.39034560 0.34340054 0.08628718
0.51554865 0.06779507 0.00000233
0.70525646 -0.40322149 -0.00000088
0.04006924 -0.66487914 0.00000000
0.25433505 -0.77751666 0.00000000
0.62823349 -0.24112354 -0.00000084
-0.03402975 0.18282977 0.00000000
-0.08787834 -0.60513926 0.00000000
0.45237240 0.32126048 -0.00000069
0.55336756 -0.40229428 -0.00000024
-0.41194335 -0.40524772 0.00000000
-0.01835929 0.52834100 0.00000000
0.73945570 -0.13830674 -0.00000150
0.04026234 0.00324444 0.00001134
-0.48339894 -0.12509289 -0.00000021
-0.19527115 0.29048777 0.40925965
-0.13261668 0.57631218 0.11860965
-0.36007398 -0.25572792 0.00000000
0.09962739 -0.16128141 0.00000000
-0.08286630 0.65727293 0.07796222
-0.55826652 0.02028455 -0.00000050
0.52869207 -0.20839883 -0.00000047
-0.33317482 -0.32067460 0.00000000
-0.31346470 -0.44351938 0.00000000
-0.29644996 -0.17957404 0.00000000
-0.23012355 0.16061997 0.00000000
-0.61133623 0.16701025 0.02819963
-0.60685307 -0.50994235 -0.00000014
0.02242321 -0.15036210 0.00000000
0.20882639 0.56377077 -0.00000006
0.04041257 0.71122527 0.00000071
-0.14884108 0.56867981 0.10741959
-0.19810233 0.57219326 0.03868679
-0.56315416 -0.19722518 -0.00000032
-0.52410221 0.09990383 0.22920974
-0.15401819 -0.62340021 0.00000000
0.71319765 -0.75776470 -0.00000011
-0.44481391 0.26329130 0.11968113
0.02437403 0.13167267 0.00000966
0.61300194 -0.40243161 -0.00000049
0.70936877 -0.46221700 -0.00000080
-0.79623020 -0.22666547 -0.00000072
0.19909395 -0.58784086 0.00000000
0.31210044 -0.18792032 0.00000000
0.54152399 -0.33068264 -0.00000031
0.72156650 0.02063647 -0.00000084
0.61480999 0.08003229 0.00000022
0.26789632 -0.24482842 0.00000000
-0.21660201 -0.34313086 0.00000000
-0.56620407 0.16313398 0.09202742
0.52369791 -0.33766192 -0.00000022
-0.15259996 0.55189157 0.12438869
0.09453412 -0.39529756 0.00000000
0.49903581 -0.48257363 0.00000000
0.24066594 0.54252201 -0.00000032
0.12955484 -0.00334239 0.00000000
-0.22869176 -0.27148899 0.00000000
0.40929607 -0.31732208 0.00000000
0.37924957 0.09150277 0.00000455
0.11427191 0.62123227 0.00000079
-0.40396097 0.20104699 0.25395301
0.18718655 -0.43547142 0.00000000
-0.39927936 -0.25781173 0.00000000
-0.70264018 -0.62279963 -0.00000022
-0.13680319 0.57128632 0.11970275
0.72319728 -0.76424676 -0.00000009
-0.39632198 -0.45227417 0.00000000
0.31621113 0.34732494 0.00000149
-0.09669214 0.41320443 0.00000000
0.25704461 0.53287894 -0.00000047
0.52519542 -0.41738048 -0.00000009
0.05889671 -0.17147754 0.00000000
0.22866584 0.27225539 0.00000442
-0.38406268 -0.08841781 -0.00000003
-0.11927139 -0.65745538 0.00000000
-0.54974622 -0.41621444 -0.00000010
-0.04855273 -0.11400037 0.00000000
0.23095803 -0.50763047 0.00000000
-0.16273814 0.58734399 0.06501256
-0.38443586 -0.52462506 0.00000000
-0.18537599 -0.44400075 0.00000000
-0.15569624 -0.71809888 0.00000000
-0.61567193 -0.22883461 -0.00000040
-0.12303374 0.16003591 0.00000000
-0.60433340 0.03643793 -0.00000061
-0.20540632 0.56170911 0.04282855
-0.13052958 0.09105782 0.00000000
0.59593529 0.02038442 0.00000158
0.03783717 0.71709841 0.00000066
-0.24164999 0.20814815 0.45609388
0.18961105 0.02959872 0.00000869
-0.47722292 0.12856866 -0.00000042
0.35234413 -0.42280191 0.00000000
-0.37158251 0.07613147 -0.00000015
-0.20190820 0.37442562 0.29129750
-0.63263619 0.08240122 0.11065194
0.76312250 -0.78581667 -0.00000004
-0.63285249 -0.65448529 -0.00000006
-0.15729928 -0.57218510 0.00000000
0.65169251 -0.51651663 -0.00000045
-0.18593845 0.28940341 0.42282653
0.58474427 0.09659350 0.00000052
0.57234126 -0.59326434 0.00000000
-0.09966063 0.07828193 0.00000000
-0.60275543 -0.78511441 0.00000000
-0.23587330 -0.76579326 0.00000000
-0.25653094 0.32185659 0.28862280
0.35293064 -0.37357569 0.00000000
-0.00646571 -0.59069908 0.00000000
-0.45770398 0.29456404 0.06216440
0.60002995 -0.49538180 -0.00000027
-0.18810391 0.00873679 0.00000000
0.22845568 -0.57062250 0.00000000
-0.70202923 -0.08557621 -0.00000072
-0.73584026 -0.06700252 -0.00000080
0.12002925 -0.63153195 0.00000000
0.37041235 -0.08419059 -0.00000002
0.79195178 -0.66608351 -0.00000033
-0.03296571 0.73182428 0.04585779
-0.68437535 0.04685170 0.08956664
-0.79262859 -0.02757994 -0.00000096
-0.41536853 -0.53338617 0.00000000
-0.65236998 -0.22656789 -0.00000048
-0.37507376 -0.78140980 0.00000000
-0.60518330 -0.41017225 -0.00000022
-0.75931209 -0.78771430 -0.00000002
0.30269223 0.14089960 0.00000520
-0.05807491 -0.00168600 0.00000000
-0.37284362 0.31914163 0.14067577
-0.10651120 -0.53499687 0.00000000
0.43795979 -0.58106554 0.00000000
-0.56988084 0.17098805 0.07700985
-0.52550435 0.18385720 0.11804456
-0.41095233 0.16519961 0.29153427
-0.35751688 0.26617798 0.22961576
-0.28919628 0.20076096 -0.00000009
0.23077925 -0.40132424 0.00000000
0.47207800 -0.72332680 0.00000000
0.03977609 0.15011826 0.00000915
0.32777658 0.20864818 0.00000358
-0.62449235 0.07274891 0.13382933
0.39852622 -0.38794315 0.00000000
-0.17683607 -0.05442821 0.00000000
-0.32503140 -0.00059735 0.00000000
-0.29250750 -0.27387545 0.00000000
-0.48050636 -0.02554901 -0.00000030
0.04632474 -0.25329036 0.00000000
0.32648382 -0.24524508 0.00000000
-0.13886809 -0.74771911 0.00000000
-0.31779981 -0.45943958 0.00000000
0.71005201 0.07893631 -0.00000159
-0.55272126 0.20418991 0.05611677
0.63055342 -0.52525896 -0.00000035
0.25369722 -0.70402676 0.00000000
-0.16115223 -0.69156128 0.00000000
-0.32337397 0.27827233 0.25833121
-0.57729888 -0.50840527 -0.00000008
0.49877253 0.15721726 0.00000116
-0.51647550 -0.27036005 -0.00000016
-0.06841015 -0.56049567 0.00000000
-0.38955057 -0.71513981 0.00000000
-0.41546959 0.16895588 0.28075907
0.32360193 -0.23680414 0.00000000
-0.72017503 0.06686318 0.01687924
-0.12121314 -0.20694920 0.00000000
0.73150671 -0.53842372 -0.00000065
-0.01063266 0.69714677 0.00000000
-0.34717074 0.33066297 0.15910655
-0.52892625 -0.08113056 -0.00000035
-0.14412872 -0.36270663 0.00000000
-0.65776223 0.12070151 0.02804669
-0.39793721 -0.05951795 -0.00000009
0.34011108 0.06868263 0.00000568
-0.33300206 -0.51860166 0.00000000
-0.72907692 -0.43666616 -0.00000045
-0.69535565 0.09957956 0.00659445
-0.26978710 0.43442059 0.12475801
0.16365668 -0.52904063 0.00000000
0.78640908 -0.66113949 -0.00000035
0.63686025 -0.67123210 -0.00000012
0.73898834 -0.61559528 -0.00000046
-0.36051807 0.17269067 0.34746230
-0.13264185 0.25617981 0.00000000
-0.24840443 -0.04334647 0.00000000
0.42109653 -0.31650063 0.00000000
-0.42860109 -0.03543667 -0.00000018
-0.33535862 -0.10392007 0.00000000
0.16887978 -0.65783334 0.00000000
-0.15327547 0.14660063 0.00000000
0.64017463 -0.35411757 -0.00000069
0.23380551 0.36984628 0.00000270
-0.52576405 -0.48840743 0.00000000
-0.10646423 0.54329330 0.19567271
-0.37861076 -0.44916224 0.00000000
0.11853894 -0.18938509 0.00000000
-0.21039097 0.26470488 0.42314690
0.21872070 -0.00362340 0.00000000
-0.15688558 -0.00138935 0.00000000
0.54467410 -0.15744299 -0.00000063
-0.08327269 -0.38677952 0.00000000
-0.16444287 -0.39097467 0.00000000
-0.34912857 -0.34481338 0.00000000
-0.00319407 0.50166696 0.00000000
0.71751767 -0.28386185 -0.00000115
0.53891081 0.15922396 0.00000035
-0.55581516 0.10034524 0.18733244
-0.61227280 -0.23886079 -0.00000039
0.51892567 -0.78697401 0.00000000
-0.70842320 -0.69020545 -0.00000014
-0.49261561 0.25178310 0.07241304
0.61753494 -0.75612599 0.00000000
0.34075910 0.41039950 -0.00000004
0.14813873 -0.71931159 0.00000000
0.55555940 0.06809569 0.00000156
-0.41289225 0.13959496 -0.00000030
-0.15534523 0.64444363 0.00027563
0.09056343 -0.76156068 0.00000000
0.69998479 -0.65742058 -0.00000036
0.73537844 -0.63172388 -0.00000042
0.13903242 0.01455125 0.00000968
-0.09980358 0.14134070 0.00000000
-0.37485275 -0.33693263 0.00000000
-0.34361851 0.11469359 -0.00000013
0.25219584 -0.52189136 0.00000000
0.21322136 0.44745889 0.00000179
-0.26735753 0.50020885 0.04224097
0.71837878 -0.73168755 -0.00000017
-0.25042012 -0.59416687 0.00000000
0.00705280 0.42966944 0.00000545
-0.58363652 -0.53535306 -0.00000007
-0.60085702 -0.15087447 -0.00000044
-0.69257563 -0.05218383 -0.00000072
-0.54444653 0.04412753 -0.00000049
0.14375359 0.15091090 0.00000757
0.69099563 -0.34087721 -0.00000093
0.51175797 -0.02782196 -0.00000072
0.04073996 -0.20501712 0.00000000
-0.46394154 -0.19305447 -0.00000011
0.56461984 -0.71923351 0.00000000
0.04931935 0.22939384 0.00000781
-0.08058108 -0.29230517 0.00000000
-0.11763656 -0.71977621 0.00000000
-0.26704991 -0.17724665 0.00000000
0.34263420 0.10132267 0.00000509
-0.75989491 -0.60122877 -0.00000025
0.56801516 -0.44517618 -0.00000022
-0.40221226 -0.36320984 0.00000000
-0.54244769 -0.77033675 0.00000000
0.02533678 0.49886870 0.00000413
0.23278391 0.15671271 0.00000614
0.65152639 -0.70796996 -0.00000011
-0.15550275 -0.62990421 0.00000000
-0.58715832 -0.74115783 0.00000000
-0.02089517 -0.15834793 0.00000000
-0.33780226 -0.33307856 0.00000000
0.72724611 -0.61486387 -0.00000046
-0.58571869 -0.57967639 -0.00000003
-0.37887406 -0.50960273 0.00000000
-0.50125355 0.03480611 -0.00000039
0.15451141 0.18045615 0.00000696
-0.35671189 -0.30108330 0.00000000
-0.40041849 -0.40619498 0.00000000
0.18616697 -0.51057374 0.00000000
0.14169253 -0.34364963 0.00000000
-0.66181546 -0.53458285 -0.00000023
0.37648785 -0.68761164 0.00000000
0.68184185 -0.26480713 -0.00000103
0.29652771 -0.04733506 0.00000000
0.41553023 -0.27858788 0.00000000
-0.33113229 0.16631949 0.39403114
0.06381411 -0.42956012 0.00000000
0.23984078 0.05123066 0.00000761
-0.57107544 -0.02319340 -0.00000049
0.56507844 -0.10649660 -0.00000081
-0.25450298 -0.19685481 0.00000000
-0.19813794 -0.02069581 0.00000000
0.18941034 -0.71406162 0.00000000
0.00804047 0.44672909 0.00000518
0.26665986 0.03030107 0.00000752
-0.06262140 0.11968966 0.00000000
0.19786923 -0.09466131 0.00000000
-0.69692576 -0.06257906 -0.00000072
0.02799597 0.01925042 0.00001129
-0.38924113 -0.22537620 0.00000000
-0.26246738 0.36253220 0.22791664
-0.06997451 0.28396216 0.00000000
-0.43437532 0.13904466 0.29509228
-0.43908355 0.15426271 0.26914081
-0.29522276 0.09932108 -0.00000001
-0.66145688 -0.58167940 -0.00000019
-0.14190465 -0.50261182 0.00000000
0.75135159 -0.18155348 -0.00000147
0.27235302 -0.69695520 0.00000000
-0.64053029 -0.74413365 -0.00000000
-0.68388742 -0.26905629 -0.00000051
0.58502519 -0.10840412 -0.00000089
-0.54615426 -0.40699226 -0.00000010
0.42135796 0.08341872 0.00000388
0.34898964 -0.21417435 0.00000000
-0.10050285 -0.41686654 0.00000000
-0.43268642 0.18655294 0.23541822
-0.22148316 0.35445908 0.29180753
0.23315673 -0.77091432 0.00000000
-0.71424186 -0.60075176 -0.00000025
-0.04508369 -0.32675654 0.00000000
-0.26569545 0.33129472 0.26439524
0.43327904 0.10099381 0.00000336
0.20152819 -0.35690928 0.00000000
0.13973598 0.43850914 0.00000331
0.01096166 0.38964826 0.00000599
-0.42459506 -0.20388009 -0.00000002
0.06449132 -0.59292811 0.00000000
0.00611147 0.63971472 0.00000231
-0.44905344 -0.43458137 0.00000000
-0.71042532 -0.13114157 -0.00000069
-0.11471841 0.11179962 0.00000000
-0.31179962 -0.57397372 0.00000000
0.30834493 0.32776678 0.00000197
-0.58677185 0.19366322 0.02547962
0.33006170 -0.59392840 0.00000000
0.27735728 -0.41387299 0.00000000
-0.11260936 0.19910488 0.00000000
0.37298602 0.17334764 0.00000330
-0.03062613 -0.22808532 0.00000000
0.01702793 0.46043578 0.00000484
-0.63378114 -0.73354805 0.00000000
-0.51563096 -0.53094137 0.00000000
0.43343922 -0.14477533 -0.00000018
0.67716330 -0.13707271 -0.00000123
-0.45660695 0.33276463 0.01384148
0.63056898 -0.58701223 -0.00000024
-0.48782456 -0.36512509 -0.00000001
0.07013647 0.31107402 0.00000628
0.69605291 0.04853177 -0.00000081
0.31079289 -0.54744196 0.00000000
-0.04370333 0.50041032 0.00000000
0.75643009 -0.34641120 -0.00000113
0.49241403 -0.59419590 0.00000000
-0.38834167 0.37852797 0.04314785
0.11244293 0.52283508 0.00000246
0.04176594 0.01600571 0.00001113
-0.55724245 0.15302698 0.11686197
-0.00090302 -0.50076896 0.00000000
-0.05040878 0.36708149 0.00000000
-0.73268336 -0.55302513 -0.00000031
-0.30730236 0.16486526 -0.00000009
-0.39189929 -0.37999743 0.00000000
-0.35350487 0.37053448 0.09892926
-0.66039491 -0.60564989 -0.00000017
-0.41569930 0.37775353 0.00852632
0.30662939 -0.41461530 0.00000000
-0.79643977 -0.64927965 -0.00000019
0.03689891 0.63996267 0.00000184
0.63522702 -0.79721540 0.00000000
-0.49859884 -0.69636899 0.00000000
-0.11622224 -0.41570631 0.00000000
-0.03927198 -0.54118919 0.00000000
0.60068423 0.02776451 0.00000136
0.49501106 -0.62342501 0.00000000
-0.33942249 -0.19010937 0.00000000
-0.69038928 0.10550610 0.00534396
-0.49572209 0.01677113 -0.00000037
-0.42151144 0.12135954 -0.00000030
-0.10076494 0.55902261 0.18260992
0.25518611 -0.22586159 0.00000000
0.63232452 -0.15535384 -0.00000101
0.54791844 -0.55730635 0.00000000
-0.25120685 0.47258595 0.09925084
-0.16018064 0.26452994 0.00000000
-0.44099569 0.12594147 -0.00000035
0.05611472 0.47613838 0.00000401
0.24071316 -0.04408153 0.00000000
0.63249731 -0.06676878 -0.00000117
-0.51364654 -0.59201699 0.00000000
-0.66321939 -0.28926501 -0.00000045
-0.26428846 0.30078483 0.30596286
0.02738135 -0.71729130 0.00000000
0.62629348 0.12870330 -0.00000081
0.72369611 -0.40859786 -0.00000095
0.55094653 -0.00499851 -0.00000093
0.14598542 0.56271040 0.00000116
-0.13619287 0.48667929 0.23068739
-0.11747698 0.67359143 0.01163309
0.26175612 0.50077933 -0.00000003
0.26183251 -0.56482702 0.00000000
0.02729289 0.58688253 0.00000278
-0.13295729 -0.21309409 0.00000000
0.51111728 -0.40018573 -0.00000006
0.23298515 -0.10009786 0.00000000
0.29367593 0.38631058 0.00000127
0.53766400 -0.68763626 0.00000000
0.27177370 -0.36943483 0.00000000
0.32968286 -0.65762776 0.00000000
-0.28958499 -0.18080188 0.00000000
-0.15308762 0.60999608 0.04807965
0.18968531 -0.49989852 0.00000000
-0.37775913 -0.51350284 0.00000000
-0.28337261 -0.34295785 0.00000000
0.20319569 0.54331648 0.00000039
0.03769313 0.22817393 0.00000801
0.71332085 -0.18229903 -0.00000131
0.09530596 0.57044232 0.00000200
-0.20441926 -0.59631687 0.00000000
-0.31400478 0.09294203 -0.00000005
-0.54471010 -0.04178185 -0.00000042
-0.24766091 0.33933669 0.27740929
0.34435889 0.03721891 0.00000613
0.55341387 0.22365409 -0.00000100
-0.52084368 -0.60680556 0.00000000
-0.64020467 0.09994716 0.07794343
-0.08328652 0.34072378 0.00000000
0.20880902 -0.64482671 0.00000000
-0.43128085 -0.73808277 0.00000000
-0.16452754 0.41471589 -0.00000001
0.46687654 -0.63635719 0.00000000
0.40017414 0.05159884 0.00000482
-0.56381100 -0.53323042 -0.00000002
-0.37279618 -0.16908924 0.00000000
-0.35796747 -0.66947949 0.00000000
0.21509548 -0.75689673 0.00000000
-0.10624577 0.67778611 0.02079736
-0.76712918 -0.79602802 -0.00000000
0.19826038 -0.25779736 0.00000000
-0.24284407 -0.14150722 0.00000000
0.17049496 -0.21971995 0.00000000
-0.78087711 -0.52729386 -0.00000034
-0.64781851 0.07858099 0.09585418
-0.29614222 -0.55602920 0.00000000
0.10643065 0.37105897 0.00000483
0.08890790 -0.57894802 0.00000000
-0.09929979 0.24441528 0.00000000
0.25429985 -0.25569984 0.00000000
-0.43959162 -0.66174990 0.00000000
-0.53798312 -0.30325171 -0.00000017
-0.46963045 -0.76620358 0.00000000
0.23107579 -0.39339238 0.00000000
-0.25816521 0.23571216 0.39868638
-0.13686626 0.12683646 0.00000000
-0.61204219 0.11628311 0.09334618
-0.02900687 0.46733430 0.00000000
0.41984636 -0.63620782 0.00000000
-0.07830468 -0.60520494 0.00000000
-0.09598758 0.57026058 0.17419574
-0.67562437 -0.39258787 -0.00000039
-0.18322682 -0.79803193 0.00000000
-0.27998069 -0.56407291 0.00000000
0.09347757 0.35732943 0.00000523
0.30989265 0.22334374 0.00000368
-0.30508441 -0.50238329 0.00000000
0.21891201 -0.67109823 0.00000000
-0.48131514 0.11892950 0.26015630
0.43821263 -0.13967310 -0.00000021
0.37793726 -0.10888912 -0.00000001
0.53814220 -0.56813204 0.00000000
0.37869507 -0.03960254 -0.00000013
0.22128372 -0.68659621 0.00000000
-0.21023515 -0.50930619 0.00000000
0.10314507 0.20113491 0.00000743
-0.42411900 0.20503710 0.22250287
-0.00528714 0.21547508 0.00000000
0.30139813 -0.42996991 0.00000000
0.69229412 -0.27439687 -0.00000106
0.13569890 0.26109415 0.00000604
0.67056537 0.12539120 -0.00000161
0.13116859 -0.77583176 0.00000000
0.33060437 -0.28024387 0.00000000
-0.26015997 0.15731589 0.00000000
0.32623744 -0.19042180 0.00000000
0.03617015 0.51290154 0.00000376
0.02541496 -0.21088357 0.00000000
-0.14671476 -0.39058754 0.00000000
-0.39523584 -0.06795608 -0.00000008
0.15036654 -0.54450130 0.00000000
-0.09433327 0.68276685 0.02982523
-0.13502029 -0.58128345 0.00000000
-0.75447041 -0.10697504 -0.00000081
-0.20293477 0.20089097 0.00000000
0.22662155 0.07585589 0.00000744
-0.00175117 0.43895206 0.00000000
-0.03436061 0.52595288 0.00000000
0.62335896 0.01349138 0.00000117
0.33783951 -0.44998083 0.00000000
-0.00942712 0.78050512 0.01311329
0.16723761 0.58876348 0.00000032
-0.71250308 0.03341236 -0.00000084
-0.34742391 -0.48012742 0.00000000
0.44127291 -0.53375244 0.00000000
0.46601942 -0.69633353 0.00000000
0.02181362 -0.31850225 0.00000000
0.25854707 0.38078395 0.00000204
0.29007727 -0.00698303 0.00000000
-0.25299093 -0.60983872 0.00000000
-0.15195756 -0.63506144 0.00000000
-0.50442910 -0.49982044 0.00000000
0.44154313 -0.14485732 -0.00000021
0.09968833 0.20853792 0.00000737
0.06191718 0.66787839 0.00000102
0.36823630 -0.05765088 -0.00000006
-0.54271698 0.13427787 0.16019820
-0.12190683 -0.25758103 0.00000000
-0.52299464 0.22732346 0.06470363
-0.58460003 -0.65508717 0.00000000
-0.78066617 -0.06913561 -0.00000090
0.13787851 -0.63607895 0.00000000
0.15713464 0.33935282 0.00000454
-0.57083434 -0.16362663 -0.00000037
-0.22041699 0.32202742 0.33543408
0.36534807 -0.04312035 -0.00000007
-0.12276929 0.49587172 0.23619790
0.34587449 -0.53613567 0.00000000
-0.67088240 0.01684291 -0.00000074
-0.34537816 -0.31362891 0.00000000
0.50922632 -0.69386977 0.00000000
-0.05893394 0.69521612 0.05971489
-0.50461853 0.16039084 0.17580804
-0.07144380 0.13774675 0.00000000
0.71215367 0.07120071 -0.00000150
0.07628077 0.04340011 0.00001020
-0.22891749 -0.65778232 0.00000000
0.07019159 0.04250239 0.00001030
-0.31835812 0.17385408 0.40085500
-0.48639047 0.26534256 0.06286103
0.56890947 -0.14164945 -0.00000076
0.43781808 -0.47032100 0.00000000
-0.05549866 0.70816278 0.04732760
-0.28256297 0.36397704 0.19986302
0.29050413 -0.43993351 0.00000000
-0.43974063 -0.08552318 -0.00000016
0.68963903 0.01602011 -0.00000015
0.68756187 -0.14225148 -0.00000127
0.24231946 0.40214747 0.00000199
-0.57617360 -0.06328675 -0.00000047
0.69922405 -0.16933884 -0.00000127
-0.09360985 -0.56031317 0.00000000
0.77617437 -0.77599269 -0.00000006
0.21073499 0.24118732 0.00000520
0.14482617 0.62393087 0.00000016
0.00394062 0.15684107 0.00000959
-0.53285599 -0.21456546 -0.00000024
0.32574224 0.36268461 0.00000105
0.39118439 -0.07403333 -0.00000012
-0.19899687 -0.69418341 0.00000000
-0.48122904 -0.52619207 0.00000000
0.26875773 -0.58363253 0.00000000
-0.35489339 0.37722129 0.08841216
-0.54740024 -0.42687070 -0.00000008
-0.34995043 -0.03159956 -0.00000001
0.37678286 -0.57582265 0.00000000
-0.41837236 0.13787936 -0.00000031
-0.10742971 -0.43681470 0.00000000
-0.13758276 0.64125574 0.02756102
0.54979622 -0.47050768 -0.00000010
0.79297912 -0.27491385 -0.00000131
0.07182533 -0.43479311 0.00000000
-0.39346734 0.25739828 0.19422901
-0.16881368 0.29170030 0.00000000
0.13672508 -0.10935070 0.00000000
-0.32560509 -0.06127530 0.00000000
-0.51093805 -0.71314555 0.00000000
0.17467003 0.56417859 0.00000058
-0.28391609 0.24146438 0.35765764
-0.66844922 -0.11152692 -0.00000062
0.21447952 -0.62213820 0.00000000
0.76729834 -0.03360402 -0.00000180
-0.67000091 -0.04229499 -0.00000069
0.57768655 -0.77567273 0.00000000
-0.68629205 0.05256213 0.07963327
0.16878203 0.55908078 0.00000078
-0.47893307 -0.24779218 -0.00000010
-0.13089859 0.51901835 0.19546504
-0.22031996 0.39576700 0.23952420
-0.35379872 0.16875927 0.36133352
0.11885251 -0.71276355 0.00000000
-0.72737783 -0.43824887 -0.00000045
0.79468542 -0.11936848 -0.00000170
0.78584588 -0.49113742 -0.00000077
-0.37547567 -0.04603849 -0.00000005
-0.63074493 -0.10838938 -0.00000054
0.37166446 0.13265525 0.00000401
-0.35633516 -0.70238715 0.00000000
-0.02538598 0.31331408 0.00000000
-0.78946602 -0.54031032 -0.00000032
0.10437823 -0.18610917 0.00000000
-0.07164720 -0.25245869 0.00000000
0.06555579 0.67496270 0.00000083
-0.45457318 -0.07223513 -0.00000020
-0.24863888 0.07659700 0.00000000
0.07990018 -0.66897064 0.00000000
-0.21487916 -0.30358595 0.00000000
0.22236796 0.22742318 0.00000523
0.56671208 -0.25207201 -0.00000056
0.14830945 0.10241547 0.00000823
0.61990798 -0.50008196 -0.00000035
-0.09455219 0.64875370 0.07383804
0.06737966 -0.07751104 0.00000000
-0.36170438 0.16723490 0.35302269
-0.05673453 0.24473831 0.00000000
-0.21708144 -0.57546639 0.00000000
-0.13621832 0.41639000 0.32219696
-0.39220601 0.17531092 0.30278027
-0.62751120 0.08418080 0.11500898
0.22510903 -0.31067505 0.00000000
0.30900365 -0.42256898 0.00000000
-0.67057610 -0.60978764 -0.00000018
0.62125611 -0.08552710 -0.00000109
-0.20870204 0.48521101 0.13816576
-0.79238123 -0.68661153 -0.00000014
-0.32753098 -0.46512035 0.00000000
-0.75477070 -0.78404027 -0.00000002
0.41738611 -0.79974473 0.00000000
-0.19563554 0.32433960 0.36469746
-0.65605330 -0.68938845 -0.00000008
0.19298325 -0.30709091 0.00000000
-0.29749203 0.22178008 0.36561301
-0.03566906 -0.19989800 0.00000000
-0.30552408 -0.74914724 0.00000000
0.01257056 0.68816161 0.00000149
-0.14670007 0.51481229 0.18036354
-0.73995453 -0.58596325 -0.00000027
0.71013343 -0.76780623 -0.00000008
-0.74918014 -0.22980367 -0.00000069
-0.33019489 0.34591514 0.16135155
0.30385178 0.23513688 0.00000360
-0.22332996 0.51650649 0.07835605
-0.18244992 0.37128526 0.32072935
-0.60809892 -0.02547052 -0.00000057
-0.10032738 -0.44575325 0.00000000
0.32563215 -0.47762069 0.00000000
-0.49919277 -0.16834655 -0.00000021
0.73613113 -0.30873713 -0.00000118
0.57464093 -0.33558103 -0.00000044
-0.25002211 -0.54782706 0.00000000
0.21975033 0.17527917 0.00000605
-0.24856505 -0.00395728 0.00000000
-0.53488517 0.09685142 -0.00000052
0.79289299 -0.60395795 -0.00000049
-0.39259562 0.18302184 0.29223037
0.37630782 -0.06757328 -0.00000007
0.37283939 0.04431116 0.00000546
-0.07003684 0.19596785 0.00000000
-0.09122585 -0.42047065 0.00000000
0.46954101 -0.16497058 -0.00000030
-0.68992871 -0.11439587 -0.00000066
-0.62356025 0.11724253 0.07709575
-0.09491921 -0.72592729 0.00000000
-0.13086998 0.57795358 0.11874681
-0.13777809 -0.05575207 0.00000000
0.15418646 -0.68572325 0.00000000
-0.10823333 -0.27448070 0.00000000
-0.74849766 -0.59269696 -0.00000026
-0.13861108 -0.01257350 0.00000000
0.04766913 0.15706074 0.00000892
0.02256581 0.28665379 0.00000736
-0.24626794 -0.31777546 0.00000000
0.37290817 -0.51490158 0.00000000
-0.15534312 0.39089984 0.33048701
0.61190444 -0.40301752 -0.00000048
0.29683116 0.43310145 0.00000043
-0.15325598 0.13913311 0.00000000
-0.06065394 0.00395410 0.00000000
0.41165832 -0.44476867 0.00000000
0.28345022 0.15984248 0.00000525
-0.65075892 0.01825956 -0.00000070
-0.23305517 0.48297647 0.10935888
0.52687836 0.23027451 -0.00000060
0.06358526 -0.43956104 0.00000000
0.68232131 -0.27573058 -0.00000101
-0.38983592 0.28162545 0.16740555
0.04789134 0.40296867 0.00000523
0.42561442 0.09726316 0.00000357
-0.54768795 -0.35746866 -0.00000015
0.56850612 -0.36264518 -0.00000037
-0.46630850 -0.04256575 -0.00000025
