ply
format ascii 1.0
element vertex 1375
property float x
property float y
property float z
end_header
-0.06486432 -0.68168670 -0.00000007
-0.58327490 0.60479057 0.12795538
0.37972063 -0.21119145 -0.00000037
-0.33006614 -0.29090875 -0.00000032
0.50599337 -0.62581742 -0.00000011
0.30177441 0.34323767 0.00000141
0.63012302 -0.73147827 -0.00000004
-0.20667072 -0.65653235 -0.00000009
0.47840077 -0.22534111 -0.00000053
-0.48444307 0.35254058 0.01219398
-0.18189667 -0.24660531 -0.00000035
0.44117144 -0.05786360 -0.00000074
0.58773291 -0.45939055 -0.00000042
0.56817669 -0.26246625 -0.00000075
0.09974357 -0.17522401 -0.00000039
0.33041191 0.21437961 0.00000317
-0.45156088 0.69483632 0.11421599
0.16688876 -0.34262407 -0.00000029
0.74552828 -0.28946078 -0.00000126
0.26308602 -0.06055312 -0.00000046
-0.58929002 0.66962111 0.15131512
-0.34398624 -0.57668495 -0.00000014
0.71326709 -0.53413147 -0.00000066
0.47789299 -0.50723803 -0.00000018
-0.26047432 0.58304906 0.01434994
-0.15630324 -0.03666789 -0.00000048
-0.77510369 -0.71495306 0.00000000
-0.52059585 0.40240651 0.04055674
-0.77599418 -0.35802031 0.00000000
-0.17950192 0.71271026 0.03040382
0.58679128 -0.58431369 -0.00000018
0.38275069 -0.14898278 -0.00000041
-0.01872574 -0.05904941 -0.00000046
-0.51689708 -0.59262550 -0.00000013
-0.05770050 0.21506748 -0.00000063
-0.45241725 -0.11394224 -0.00000035
0.01882587 -0.02792460 -0.00000048
0.11800466 0.13841428 0.00000797
-0.34560007 -0.30782625 -0.00000031
0.22066739 -0.11167835 -0.00000043
0.14796065 -0.66418368 -0.00000008
0.63182628 -0.49117863 -0.00000050
-0.40623507 -0.15527108 -0.00000039
-0.19305958 0.32331508 -0.00000070
-0.42783815 0.61863869 0.08126950
0.06501447 -0.78341669 -0.00000001
0.46524587 -0.75227731 -0.00000003
-0.73769414 -0.05522398 -0.00000006
0.08393604 -0.57510191 -0.00000014
-0.73466867 0.31456158 0.08217789
0.19234625 0.60079229 -0.00000112
-0.59456342 0.13655332 -0.00000024
-0.37906381 -0.07083886 -0.00000044
-0.28145516 -0.55231798 -0.00000015
-0.44160289 -0.02916420 -0.00000038
-0.58029741 0.09746945 -0.00000025
-0.09273404 -0.55850148 -0.00000015
0.47378466 -0.42399114 -0.00000024
0.45686093 -0.37487218 -0.00000027
-0.21094501 -0.45475668 -0.00000022
-0.60860419 -0.05776062 -0.00000019
-0.51068336 0.14791122 -0.00000034
-0.05325384 0.79563564 0.01611894
0.12144943 0.35179743 0.00000445
-0.11131537 -0.27671063 -0.00000033
-0.38375530 0.59902656 0.06026745
0.58647233 -0.38184530 -0.00000057
-0.75794768 0.62725276 0.19295643
-0.63965738 -0.73065901 -0.00000004
0.23300347 0.27493072 0.00000395
-0.13039751 0.19080260 -0.00000062
-0.64920068 -0.31008661 -0.00000010
-0.63105577 -0.49099514 -0.00000009
0.42238680 0.34281856 -0.00000090
-0.08819466 0.73535413 0.00776349
0.16784614 -0.31148180 -0.00000031
-0.06332799 -0.05516785 -0.00000047
-0.39732501 0.39034790 -0.00000050
0.35683984 0.33756658 0.00000045
0.26633805 -0.05390772 -0.00000047
-0.10258750 -0.33089322 -0.00000029
0.15734392 0.08768908 0.00000820
-0.20163408 -0.45433441 -0.00000022
-0.59876382 -0.62976450 -0.00000010
-0.29412466 0.31422973 -0.00000060
0.25781029 0.32569268 0.00000256
0.35124871 -0.64396149 -0.00000010
-0.54892766 -0.77010494 -0.00000002
0.28481174 -0.52559054 -0.00000017
-0.08687739 0.05635154 -0.00000054
0.58861023 -0.72106695 -0.00000005
-0.65714043 0.13676625 -0.00000018
-0.34080872 0.57533127 0.03829375
-0.27881283 -0.22688368 -0.00000036
-0.64042616 0.26591843 0.03506444
-0.15491296 -0.30790693 -0.00000031
-0.04304223 0.25196642 -0.00000066
-0.46899363 0.60819995 0.09139771
-0.00033787 0.02516216 -0.00000052
0.09325414 0.28942734 0.00000589
-0.65048361 -0.49063089 -0.00000007
0.42094862 -0.17475054 -0.00000045
-0.74149793 -0.41743004 0.00000000
0.21401173 -0.38156378 -0.00000026
0.78208679 -0.04806816 -0.00000185
-0.20430079 -0.22078906 -0.00000036
0.09187068 -0.24259195 -0.00000035
0.18396859 0.22991125 0.00000549
0.45972013 -0.01361571 -0.00000088
-0.16514598 0.45644093 -0.00000076
-0.55896139 0.17604063 -0.00000029
-0.61861354 0.41469163 0.07692675
-0.41632620 0.49551943 0.03687791
0.12933116 0.47488126 0.00000233
0.57237744 -0.06696453 -0.00000114
0.35585368 0.42192373 -0.00000105
-0.07007112 -0.30069074 -0.00000031
0.56140947 -0.27361265 -0.00000070
-0.57802075 -0.05378410 -0.00000023
-0.03939316 0.60533059 -0.00000088
-0.65813696 0.61911476 0.15736263
-0.28204924 -0.45815554 -0.00000021
0.07397741 0.37130114 0.00000485
0.00863379 -0.02620175 -0.00000048
-0.29501364 0.19477980 -0.00000057
-0.16903025 -0.73205107 -0.00000004
0.63292611 -0.47271293 -0.00000054
0.27267477 -0.02224898 -0.00000049
-0.21423003 0.00141322 -0.00000050
-0.52007663 0.25872844 -0.00000035
0.05445997 0.06390243 0.00001014
-0.58378953 -0.22673371 -0.00000019
-0.06145471 -0.20947202 -0.00000037
-0.59673673 0.47114623 0.08832796
-0.26412717 0.06903961 -0.00000054
0.39225265 -0.60386586 -0.00000012
0.24154362 0.36425829 0.00000218
0.26755926 0.27995804 0.00000320
0.70689917 -0.13492745 -0.00000144
0.20396879 0.31770769 0.00000374
0.49332181 -0.25154063 -0.00000053
0.40576226 0.31692755 -0.00000012
-0.25650012 0.01527955 -0.00000051
-0.31969029 0.42339292 -0.00000059
-0.28375813 -0.75806981 -0.00000003
-0.42054728 0.73625529 0.11764688
-0.34343141 0.51962161 0.02078954
-0.22713505 0.21493641 -0.00000063
0.04693097 0.55733299 0.00000224
0.22055098 -0.52707517 -0.00000017
-0.42300043 -0.61098576 -0.00000012
-0.14005396 0.38184932 -0.00000074
-0.77920187 -0.00405574 -0.00000002
-0.70982701 -0.36743128 -0.00000003
0.27397215 0.16191694 0.00000520
0.51080239 -0.05299222 -0.00000097
-0.12804912 -0.08151099 -0.00000045
-0.27230772 -0.77075678 -0.00000002
0.46588159 -0.63316286 -0.00000010
0.51135939 -0.22714815 -0.00000063
0.10515544 -0.14615791 -0.00000041
0.66732407 -0.55350983 -0.00000050
0.59788460 -0.55080926 -0.00000028
-0.36242199 0.62642747 0.06226807
-0.49212873 -0.62197113 -0.00000011
-0.68393159 0.56614631 0.14840274
-0.05320797 0.35270166 -0.00000072
0.29734212 0.39004609 0.00000065
0.58601367 -0.19679658 -0.00000093
0.27827138 -0.50589710 -0.00000018
-0.24868883 -0.05269359 -0.00000047
0.26848131 0.19887909 0.00000464
-0.43979040 0.75308001 0.12953947
-0.50524604 -0.31001616 -0.00000026
-0.64020550 -0.59069186 -0.00000006
0.70112485 -0.53384912 -0.00000064
-0.52365893 0.75123233 0.15658411
-0.58133531 0.02172967 -0.00000024
0.76689136 -0.15036622 -0.00000160
-0.32331437 0.55273539 0.02507488
-0.78424871 -0.13206069 0.00000000
-0.43024561 0.67378098 0.10024522
-0.73699725 -0.01718272 -0.00000006
0.49754843 0.07585849 0.00000245
-0.54126704 0.67463690 0.13713440
0.42792055 -0.34139264 -0.00000029
0.69965589 -0.07826145 -0.00000153
-0.76889670 -0.02369487 -0.00000003
0.42663419 -0.41437221 -0.00000024
-0.30590552 -0.36910000 -0.00000027
-0.63487971 0.19461986 0.00972654
-0.08346587 -0.57701200 -0.00000014
-0.07344605 0.62599230 -0.00000089
0.10913245 0.53954911 0.00000158
-0.47557503 0.71627724 0.12920381
-0.03768127 0.70532209 -0.00000094
-0.33164850 -0.44470012 -0.00000022
0.36794913 0.22153665 0.00000232
0.56477875 -0.59226620 -0.00000013
-0.49463716 0.65435773 0.11507261
0.24333899 -0.23270036 -0.00000035
-0.56306440 0.47914907 0.07986398
0.36029869 -0.24527492 -0.00000035
-0.30215713 -0.08181412 -0.00000045
0.30620125 -0.37678993 -0.00000026
-0.53288555 -0.24793027 -0.00000024
-0.10500428 -0.66101134 -0.00000009
0.22411421 0.52626228 -0.00000039
0.68571192 -0.33741313 -0.00000098
0.65106833 -0.39857930 -0.00000075
-0.33719879 0.55020517 0.02881868
-0.44621640 -0.79498726 -0.00000000
-0.05989972 -0.14496735 -0.00000041
-0.54436433 -0.10038329 -0.00000025
-0.13960367 0.22332335 -0.00000064
-0.07811431 0.65405208 -0.00000089
-0.67559630 0.38506868 0.08594813
-0.30056402 0.06453689 -0.00000054
0.42110983 0.30937439 -0.00000028
0.00220105 -0.59066862 -0.00000013
-0.34275246 -0.43886992 -0.00000023
-0.20381415 0.27001426 -0.00000067
-0.68192291 -0.76708865 0.00000000
0.23471755 -0.40476149 -0.00000025
-0.37308073 0.66750121 0.07932571
-0.33467466 0.28791994 -0.00000055
0.29072726 -0.54451877 -0.00000016
-0.39796960 0.10431619 -0.00000045
-0.58325565 -0.05951540 -0.00000022
-0.43672895 -0.48944831 -0.00000019
-0.00628910 0.53010929 -0.00000083
0.09646211 -0.71995801 -0.00000005
-0.26257321 -0.41476414 -0.00000024
0.48440957 -0.68423432 -0.00000007
-0.23514602 -0.62007916 -0.00000011
-0.54000151 -0.45352897 -0.00000019
-0.37547386 0.24218205 -0.00000050
-0.19367269 0.65137517 0.01485250
0.08582840 -0.03608639 -0.00000048
0.05807466 -0.05443994 -0.00000047
0.21744032 -0.16337372 -0.00000040
-0.54806489 0.28727272 0.01165135
-0.51489919 -0.62403303 -0.00000011
-0.13024300 -0.20101400 -0.00000037
0.55852449 -0.17640278 -0.00000088
-0.50151318 0.71481442 0.13727404
-0.69899684 0.35095772 0.08241665
-0.27509776 0.78207350 0.08479550
0.59424233 -0.26684317 -0.00000082
-0.51293468 -0.34442058 -0.00000024
0.32568848 0.38059679 0.00000028
-0.19228280 -0.42872953 -0.00000023
-0.42297077 0.75160056 0.12350574
-0.39843467 0.76029480 0.11828219
-0.20583408 0.75104463 0.05172618
0.53281206 -0.74355048 -0.00000004
-0.72938907 -0.02452464 -0.00000007
-0.77589494 -0.65954453 0.00000000
-0.70176494 -0.60209531 0.00000000
-0.37926137 0.37345964 -0.00000052
-0.60180616 -0.78912705 -0.00000001
0.71424723 -0.04064497 -0.00000165
-0.04985827 -0.62750793 -0.00000011
-0.44966909 0.19620784 -0.00000041
-0.48801947 0.27108827 -0.00000038
-0.50072467 -0.00256829 -0.00000032
-0.63336515 0.38355595 0.07152451
-0.15096468 -0.20002569 -0.00000037
0.15573479 0.53532100 0.00000076
0.50313056 -0.36473954 -0.00000034
-0.34025365 -0.62592918 -0.00000011
-0.51440996 0.70196182 0.13728862
0.44851455 -0.63829601 -0.00000010
0.17093419 -0.46799865 -0.00000021
-0.30816445 0.08512387 -0.00000054
0.14092261 0.62194526 -0.00000051
-0.77903312 -0.08495887 -0.00000001
-0.13757440 0.04812982 -0.00000053
-0.37034193 0.31035197 -0.00000052
0.48110995 -0.58676940 -0.00000013
-0.70061046 -0.09355244 -0.00000009
0.01725874 -0.70977032 -0.00000006
-0.44738892 -0.69421273 -0.00000007
-0.19638084 0.52495712 -0.00000074
0.74261129 -0.58383399 -0.00000054
-0.69381666 0.58770692 0.15877125
0.59887314 -0.73377848 -0.00000004
0.25917399 -0.36059749 -0.00000027
0.35156083 -0.29522133 -0.00000032
0.25633392 0.07436863 0.00000692
-0.41020992 -0.12347050 -0.00000039
-0.71786976 0.67802548 0.19648273
-0.37373632 0.23231266 -0.00000050
0.72217613 -0.48405114 -0.00000079
-0.48127013 0.35474801 0.01187563
0.14471591 0.13093317 0.00000769
-0.27802598 0.01372405 -0.00000051
-0.72524035 0.37970525 0.10054874
-0.43559280 0.11061956 -0.00000041
0.08968990 -0.51386321 -0.00000018
0.38987756 -0.63070464 -0.00000011
0.35302779 -0.12049255 -0.00000042
0.17921904 0.29862404 0.00000444
0.18816784 -0.72339350 -0.00000005
-0.01221464 0.00376248 -0.00000050
-0.17840558 -0.60994315 -0.00000012
0.03762787 -0.74405110 -0.00000003
-0.66950566 0.44191128 0.10268242
-0.67327464 0.64375716 0.17047924
0.36100683 0.22006249 0.00000248
0.44047716 0.10725953 0.00000298
0.78069001 -0.77346265 -0.00000007
0.31016186 -0.11470783 -0.00000043
0.59708840 -0.39188322 -0.00000059
0.23145913 0.47180757 0.00000045
-0.25568935 -0.24058454 -0.00000035
-0.45406792 -0.43497962 -0.00000023
-0.12638210 0.41744837 -0.00000076
0.66230202 0.00284524 0.00000059
-0.13629560 0.23883457 -0.00000065
-0.02860949 -0.24020702 -0.00000035
0.59794748 -0.03998429 -0.00000128
-0.64078641 0.19210643 0.01084539
0.52473605 -0.41588062 -0.00000031
-0.66027105 -0.17907989 -0.00000012
0.38601249 -0.66627735 -0.00000008
0.75466049 -0.76639801 -0.00000008
0.30899984 0.35844767 0.00000099
-0.62495428 0.25523528 0.02644039
-0.42664111 0.08353426 -0.00000041
-0.71587133 0.08093265 -0.00000010
0.44803643 0.24278194 0.00000040
0.09979513 -0.36412925 -0.00000027
-0.06858955 -0.22761802 -0.00000036
-0.72457069 -0.57726437 0.00000000
0.20606938 -0.76380271 -0.00000002
0.20609432 -0.74186802 -0.00000004
-0.57119769 0.08953635 -0.00000026
-0.03117378 -0.70588619 -0.00000006
0.39729822 -0.72908205 -0.00000004
0.65088892 0.12666307 -0.00000141
-0.40592146 -0.24302165 -0.00000035
0.29045963 -0.56621522 -0.00000015
0.60901505 -0.77487850 -0.00000002
-0.67339516 -0.72757828 -0.00000000
-0.13148460 0.15815215 -0.00000060
0.16942938 -0.72710025 -0.00000005
-0.23418874 -0.46479061 -0.00000021
-0.64412248 -0.70407838 -0.00000004
0.53570980 0.08615688 0.00000153
-0.18185593 0.09544104 -0.00000056
0.57892764 -0.74045312 -0.00000004
-0.09687597 0.22844836 -0.00000064
0.29287061 -0.34570748 -0.00000028
0.00038949 -0.59081924 -0.00000013
-0.31842613 0.08249351 -0.00000053
-0.18769023 0.27671957 -0.00000067
-0.11384776 -0.34856206 -0.00000028
-0.06478550 0.17997739 -0.00000061
-0.71843064 0.31565872 0.07718548
0.75340182 -0.70602292 -0.00000023
0.01659220 0.30606154 0.00000678
0.04745618 0.43584231 0.00000420
0.43735349 -0.50527334 -0.00000018
-0.44726282 -0.02054684 -0.00000037
0.63416511 -0.58605182 -0.00000033
-0.54830158 -0.68346244 -0.00000007
0.79315376 -0.10856296 -0.00000173
0.60634363 -0.77297229 -0.00000002
0.51747417 -0.61089861 -0.00000012
0.27264711 -0.77278978 -0.00000002
-0.25865513 -0.68106508 -0.00000007
-0.65549386 0.64058143 0.16356927
0.15512097 -0.78078723 -0.00000001
0.68983454 -0.11253721 -0.00000143
0.78182584 -0.46758476 -0.00000083
0.42603102 -0.20027360 -0.00000041
0.08820568 0.50088996 0.00000253
-0.77770692 -0.70621669 0.00000000
0.32240215 0.40611851 -0.00000012
-0.15438335 -0.53680927 -0.00000016
-0.12948005 -0.26113391 -0.00000034
-0.15743931 0.61550611 -0.00000080
-0.03038507 -0.63007516 -0.00000011
0.42442486 0.27780518 0.00000022
-0.42154029 -0.25528437 -0.00000034
-0.41174546 -0.61929351 -0.00000011
-0.57034183 0.21319973 -0.00000028
-0.04358049 0.41922268 -0.00000076
0.45900792 -0.61037666 -0.00000012
-0.20552450 0.70341653 0.03591983
-0.52250761 0.44414505 0.05494946
0.57281035 0.20949052 -0.00000140
0.21627505 0.51508331 -0.00000004
0.07618910 0.05113616 0.00001002
-0.47675675 -0.26558360 -0.00000030
-0.39116415 0.44951034 0.01341080
-0.15902653 0.22232613 -0.00000064
-0.56464630 0.15297841 -0.00000028
-0.51070493 -0.08540089 -0.00000029
0.45332918 0.18563461 0.00000132
0.42923459 -0.26073328 -0.00000034
-0.42768961 -0.42104751 -0.00000024
-0.64915025 0.63297224 0.15896866
0.48650298 0.16870371 0.00000099
-0.37253949 0.38046494 -0.00000053
0.06406250 0.36421406 0.00000511
-0.66056144 0.00859306 -0.00000015
0.21107893 -0.66205263 -0.00000009
-0.24703524 0.43254477 -0.00000067
0.27057943 0.40758669 0.00000085
-0.47869268 -0.04138016 -0.00000034
-0.52428424 0.20227349 -0.00000033
0.42598304 -0.08113343 -0.00000064
-0.15994315 -0.74760979 -0.00000003
0.54945314 -0.03291422 -0.00000113
-0.45366845 -0.34857795 -0.00000028
-0.63376772 -0.10792369 -0.00000016
-0.55021834 -0.47255272 -0.00000018
-0.49148712 -0.77745193 -0.00000001
-0.59914780 -0.27839002 -0.00000016
-0.59336358 0.06757537 -0.00000023
-0.72037524 -0.54053950 0.00000000
0.21220909 0.07576859 0.00000757
-0.39435276 -0.16760898 -0.00000040
-0.23463312 -0.28366646 -0.00000032
0.72609740 -0.66608888 -0.00000033
0.52684015 0.08791125 0.00000167
0.11871842 0.07375803 0.00000901
0.34344110 0.35037890 0.00000048
-0.66989177 0.52227014 0.12930624
-0.57930416 0.61840266 0.13113438
0.37947035 0.30900547 0.00000053
0.04749811 -0.03105142 -0.00000048
-0.46936414 -0.62884200 -0.00000011
-0.12058297 0.04802581 -0.00000053
-0.11944422 -0.54519761 -0.00000016
0.32779261 0.40104699 -0.00000013
-0.69639069 0.39811048 0.09710487
-0.49856624 -0.31707016 -0.00000026
-0.17414969 -0.68788457 -0.00000007
0.18266368 -0.27620229 -0.00000033
0.64374745 -0.08703022 -0.00000133
0.28285763 -0.01283222 -0.00000049
-0.50414860 0.61069292 0.10381134
0.53371841 -0.35015604 -0.00000046
-0.62615037 0.10612038 -0.00000020
-0.45129523 -0.72838485 -0.00000004
0.76107526 -0.04810519 -0.00000178
-0.39020976 0.73002189 0.10558840
-0.57347625 0.70483702 0.15771252
-0.57073933 0.69702786 0.15423520
0.70437711 -0.25751585 -0.00000119
-0.50484043 -0.08266318 -0.00000030
-0.41958886 0.37607694 -0.00000047
0.65277284 -0.36303326 -0.00000082
0.62077272 -0.17349003 -0.00000109
-0.14060609 -0.04255465 -0.00000047
-0.11532422 0.10482923 -0.00000057
-0.48643979 0.45713285 0.04733928
-0.03661794 -0.75836033 -0.00000003
0.49013013 0.14089067 0.00000142
-0.00168726 0.40335903 -0.00000075
0.51164073 -0.36595431 -0.00000036
0.08370214 0.59046090 0.00000114
0.06979091 -0.68127847 -0.00000007
-0.25894374 0.77871555 0.07836183
0.10716688 -0.70010108 -0.00000006
0.26196325 0.30346885 0.00000288
-0.35987633 0.13577569 -0.00000049
-0.17519490 0.53767467 -0.00000077
-0.64871746 -0.45354748 -0.00000008
-0.35243052 -0.28675404 -0.00000032
0.49501577 0.22499003 -0.00000018
0.29801843 0.14611714 0.00000502
-0.28964669 0.32814085 -0.00000060
-0.65612590 -0.35653993 -0.00000009
-0.18715343 -0.53171897 -0.00000017
-0.20761219 -0.22297376 -0.00000036
-0.61146390 -0.26351941 -0.00000015
-0.56028223 0.40148908 0.05334000
-0.75718594 0.32828408 0.09412715
0.44166461 -0.47801131 -0.00000020
0.37906054 -0.75551617 -0.00000003
-0.56198156 -0.16879465 -0.00000022
-0.19725639 -0.15210371 -0.00000040
-0.49055675 0.04036935 -0.00000034
-0.49005049 0.36554348 0.01833033
0.69932145 -0.40864453 -0.00000088
-0.21375476 0.72569358 0.04597893
-0.22262934 -0.03233915 -0.00000048
-0.67812937 0.55305433 0.14217281
-0.04249506 0.32632571 -0.00000070
-0.12209849 -0.09442142 -0.00000044
0.27545252 -0.59393525 -0.00000013
-0.16879970 -0.23947932 -0.00000035
0.34089932 0.19322266 0.00000335
0.42636526 -0.64425492 -0.00000010
0.55250180 -0.31593293 -0.00000059
0.15932120 -0.69822651 -0.00000006
-0.40156344 -0.28768063 -0.00000032
-0.69893152 -0.12344316 -0.00000009
-0.08647356 0.55493081 -0.00000085
0.43021834 0.12648730 0.00000283
0.19618443 -0.54556453 -0.00000016
0.32081932 -0.55506420 -0.00000015
-0.41474542 0.12800132 -0.00000043
0.38805133 -0.51844585 -0.00000018
-0.43897131 -0.13883829 -0.00000036
-0.44764730 -0.42427003 -0.00000023
-0.78967869 -0.32931837 0.00000000
-0.39612299 0.22547492 -0.00000047
0.19470426 0.50021487 0.00000064
-0.31431022 -0.36992082 -0.00000027
-0.48724884 0.68183011 0.12169484
-0.43512407 -0.31528002 -0.00000030
-0.12731054 0.03567538 -0.00000052
-0.17775846 0.49831444 -0.00000076
0.62664455 -0.68186128 -0.00000011
0.11715115 0.62679213 -0.00000014
0.42608252 -0.12470003 -0.00000056
0.38359398 -0.31878570 -0.00000030
-0.70853090 0.61562777 0.17282923
0.25497642 0.14530122 0.00000579
0.39848235 0.11679641 0.00000361
-0.08928345 0.72190356 0.00368747
-0.27840367 -0.47852290 -0.00000020
0.25543121 -0.07865809 -0.00000045
0.47518781 -0.53151160 -0.00000017
0.18003774 -0.20465510 -0.00000037
0.36142001 -0.60432845 -0.00000012
-0.78117734 -0.43133554 0.00000000
-0.62895060 0.25648966 0.02817169
0.04376927 0.24991861 0.00000728
0.22683227 0.08271884 0.00000723
0.57522631 -0.41657084 -0.00000047
-0.02686560 -0.17972833 -0.00000039
0.12947389 -0.53414226 -0.00000017
-0.27507943 -0.21703622 -0.00000036
0.61019838 -0.27835795 -0.00000085
-0.75046760 0.04315821 -0.00000006
-0.24365084 -0.27589247 -0.00000033
0.55752081 -0.05155426 -0.00000112
-0.61800015 0.59579170 0.13643812
0.42386779 -0.01362871 -0.00000077
-0.33651772 -0.72430009 -0.00000005
-0.53602546 -0.37686792 -0.00000021
0.76479524 -0.65826422 -0.00000035
0.13531356 0.24819781 0.00000593
-0.05396062 -0.24319015 -0.00000035
0.14386047 0.01747139 0.00000955
0.22701883 -0.26770633 -0.00000033
0.50567293 -0.48430625 -0.00000020
-0.01752024 0.72302490 -0.00000095
0.37317297 -0.34712982 -0.00000028
0.02398309 0.35446987 0.00000588
-0.50046813 -0.74298143 -0.00000004
0.57149792 -0.18175966 -0.00000091
-0.25023282 -0.05087261 -0.00000047
0.47640944 -0.44997427 -0.00000022
0.36042169 -0.11115050 -0.00000043
-0.06834282 0.53326273 -0.00000083
-0.63313472 -0.52365524 -0.00000008
-0.75542760 -0.57567835 0.00000000
0.05637682 0.53216267 0.00000250
0.19654936 -0.14596598 -0.00000041
0.05786977 -0.15886889 -0.00000040
-0.09769682 0.39415982 -0.00000075
-0.09642151 0.06373376 -0.00000054
0.49993387 -0.70359153 -0.00000006
-0.10607059 0.21133339 -0.00000063
0.25881976 -0.77265048 -0.00000002
-0.06231733 0.78625101 0.01601308
0.03583073 -0.24722345 -0.00000035
-0.66032529 0.72377676 0.19259410
0.02523919 -0.54305542 -0.00000016
0.50219887 -0.63849813 -0.00000010
0.38348502 -0.57540786 -0.00000014
0.55584991 0.13643532 0.00000024
0.04479972 -0.11317024 -0.00000043
-0.30114776 -0.01940000 -0.00000049
-0.34143469 -0.66693670 -0.00000008
0.14425427 -0.51129562 -0.00000018
-0.67294616 0.19286661 0.02170004
-0.51119602 -0.27327529 -0.00000026
0.74656761 -0.18500157 -0.00000147
-0.27257419 0.18265988 -0.00000060
-0.74747205 0.54205239 0.16140942
0.44697461 -0.22498837 -0.00000043
0.70759368 -0.33819953 -0.00000104
0.31521854 -0.40758345 -0.00000025
-0.28900656 0.64651883 0.04468555
-0.54073113 -0.39539379 -0.00000020
0.68779516 -0.56190246 -0.00000054
-0.26676559 0.15287448 -0.00000060
-0.45102614 -0.38550958 -0.00000026
-0.31969151 0.65667486 0.05815199
0.09053667 -0.07911679 -0.00000045
-0.60151547 -0.16862996 -0.00000018
-0.79021835 0.19530989 0.06117369
-0.50203842 -0.52265942 -0.00000017
-0.34361744 -0.46696672 -0.00000021
0.22497773 -0.15886635 -0.00000040
0.18757342 -0.61573005 -0.00000012
0.35497800 -0.48131698 -0.00000020
0.41258851 0.27837116 0.00000044
-0.46513936 0.62745243 0.09647491
-0.00168344 -0.44595447 -0.00000022
0.76843870 -0.43492657 -0.00000091
0.50631946 -0.12908895 -0.00000081
0.08494328 0.01704630 0.00001044
-0.60502005 0.49324480 0.09834571
0.11498755 0.00130350 0.00001024
0.60679996 -0.18193254 -0.00000103
-0.08253190 0.15125898 -0.00000059
0.22563756 -0.29627696 -0.00000031
-0.36689982 0.44231811 0.00303868
0.23005959 0.05997553 0.00000755
0.18850829 0.46733430 0.00000135
0.58823013 -0.42833883 -0.00000049
-0.11082921 0.50272900 -0.00000081
-0.25611433 -0.01720109 -0.00000049
0.69449508 -0.34662837 -0.00000099
0.58164501 -0.77931839 -0.00000001
-0.28981623 -0.35026211 -0.00000028
-0.46285364 0.42121902 0.02772047
-0.60872769 0.68546540 0.16294859
0.16362844 0.07767468 0.00000827
-0.20541801 0.35340163 -0.00000070
-0.12337352 -0.05518697 -0.00000047
-0.12805443 -0.20542485 -0.00000037
0.32575774 0.34550342 0.00000090
-0.46518245 -0.72245455 -0.00000005
0.13835023 -0.37777030 -0.00000026
-0.04807208 -0.73685259 -0.00000004
-0.73785555 0.62327969 0.18502146
-0.19318324 0.22109894 -0.00000064
0.17914104 -0.10987428 -0.00000043
-0.59404612 -0.10511081 -0.00000020
0.52295399 -0.08775735 -0.00000094
0.23454055 -0.46732202 -0.00000021
-0.18423139 -0.68043059 -0.00000007
-0.37404707 -0.23687300 -0.00000035
0.35873383 -0.31938207 -0.00000030
-0.75551701 -0.53595710 0.00000000
0.51825231 -0.04702547 -0.00000101
0.04113803 0.53905952 0.00000262
-0.33891433 -0.24144211 -0.00000035
0.07974865 -0.69412100 -0.00000007
-0.09099066 0.69154763 -0.00000088
-0.64671427 -0.20628640 -0.00000013
-0.40454948 0.41943577 0.00790793
-0.24620856 -0.33665466 -0.00000029
0.02343817 -0.08410588 -0.00000045
-0.56973344 0.09126345 -0.00000026
0.68690526 -0.69940192 -0.00000025
0.59554142 0.09389897 0.00000024
-0.67297447 0.25895184 0.04349948
-0.25270399 -0.74515414 -0.00000003
-0.20123866 -0.19118084 -0.00000038
0.32849768 -0.03786744 -0.00000048
0.00554069 -0.44418693 -0.00000022
-0.41761398 -0.26633266 -0.00000033
-0.32744566 -0.75637811 -0.00000003
0.56776309 -0.65166187 -0.00000009
-0.64134496 -0.00553806 -0.00000017
-0.22620331 -0.04052180 -0.00000047
0.76895815 -0.26343390 -0.00000134
-0.69897753 -0.16418998 -0.00000008
0.25454950 -0.28795096 -0.00000032
-0.46602464 -0.19158912 -0.00000032
-0.17056973 -0.09513917 -0.00000044
0.71145421 -0.52973413 -0.00000068
0.35045701 -0.77543509 -0.00000002
0.00096432 0.52477890 0.00000346
-0.55358487 -0.42048171 -0.00000019
0.01450464 -0.45677847 -0.00000021
0.25388911 0.11146019 0.00000636
-0.52416945 -0.17283092 -0.00000026
-0.18555914 0.24249558 -0.00000065
-0.26005343 0.03145060 -0.00000052
-0.07422454 -0.00606921 -0.00000050
-0.52379549 0.34024778 0.02111634
-0.34750369 0.19818951 -0.00000052
-0.51638216 0.73410380 0.14853700
-0.09479074 -0.70145798 -0.00000006
-0.34656742 -0.42916736 -0.00000023
-0.53885520 0.63429129 0.12303610
0.67806381 -0.17749386 -0.00000126
-0.24947530 -0.54002053 -0.00000016
-0.38026127 0.32024845 -0.00000051
0.15172474 0.60545057 -0.00000042
0.74059993 -0.66629815 -0.00000033
0.51463091 -0.50952041 -0.00000018
0.14449643 -0.47991380 -0.00000020
-0.47202662 0.19496147 -0.00000039
-0.17708445 0.25828305 -0.00000066
0.41639811 -0.25948656 -0.00000034
0.04630920 0.13449761 0.00000912
-0.23381618 0.56591952 -0.00000071
-0.53984135 0.55414271 0.09693411
-0.76238042 -0.06712680 -0.00000003
-0.32634330 0.73395765 0.08582752
-0.13803472 0.70250499 0.01336594
-0.46919969 -0.54216975 -0.00000016
0.40492490 -0.52444810 -0.00000017
-0.34424046 0.20604999 -0.00000052
-0.09043790 -0.54399818 -0.00000016
-0.45555708 -0.18784858 -0.00000033
-0.19404925 0.75916195 0.05051690
0.44465035 0.26683995 0.00000003
-0.06763610 0.19912682 -0.00000062
-0.48635751 -0.41053680 -0.00000024
0.42476273 0.27451301 0.00000028
-0.50399691 0.29984722 0.00126702
0.17403261 -0.13477235 -0.00000042
0.43746892 -0.66327322 -0.00000009
-0.66436726 0.15561606 0.00658880
-0.11725424 -0.72121388 -0.00000005
-0.49793205 -0.24789546 -0.00000028
-0.53353590 0.43439916 0.05537232
0.26065356 -0.57374978 -0.00000014
-0.42493579 -0.75567096 -0.00000003
0.74500394 -0.26258242 -0.00000131
0.60572696 -0.15750325 -0.00000107
-0.25719568 -0.66906834 -0.00000008
-0.44133145 -0.44842848 -0.00000022
0.45291623 0.14627458 0.00000204
-0.67217350 0.46012634 0.10956809
0.48234096 -0.30672234 -0.00000038
0.51093566 -0.48535407 -0.00000020
0.35830683 -0.42688152 -0.00000023
-0.63054740 -0.65455616 -0.00000006
-0.75725532 0.50322419 0.15183254
-0.49357852 0.22974704 -0.00000037
0.06347269 -0.48127899 -0.00000020
-0.27439427 0.37221071 -0.00000063
0.64398664 0.12245598 -0.00000120
0.37401041 0.05064407 0.00000527
0.49554950 0.21702673 -0.00000005
-0.36367589 -0.39242014 -0.00000025
-0.63722861 -0.61421180 -0.00000006
0.14081526 0.42482898 0.00000297
0.63236392 -0.25734127 -0.00000096
0.51347303 0.24027456 -0.00000081
-0.38135681 -0.31497285 -0.00000030
0.39126435 -0.27389923 -0.00000033
0.46507728 -0.34985554 -0.00000028
0.56301892 -0.75210774 -0.00000003
-0.38077417 0.36982596 -0.00000051
0.40149140 0.04289418 0.00000488
0.34931666 -0.67014140 -0.00000008
-0.07320111 -0.42434606 -0.00000023
-0.51254994 0.65446067 0.12101291
-0.53531712 -0.79126149 -0.00000001
0.24993469 -0.23502961 -0.00000035
0.40645462 -0.15511729 -0.00000044
0.59386873 0.20048302 -0.00000173
-0.16893493 0.58986944 -0.00000078
-0.41904530 0.56193030 0.05967193
0.41537407 -0.06451715 -0.00000064
-0.29322296 -0.21885964 -0.00000036
-0.68793571 0.39890406 0.09457870
-0.46564227 -0.14033721 -0.00000033
-0.20929629 0.17531982 -0.00000061
-0.17749730 -0.08325146 -0.00000045
0.11296554 -0.59725446 -0.00000013
0.77626896 -0.17542803 -0.00000156
0.71787143 -0.41564417 -0.00000093
0.01357423 -0.06434673 -0.00000046
-0.63044673 0.67086512 0.16529587
0.21778125 -0.02311137 -0.00000049
0.35779628 0.19462569 0.00000300
-0.30611032 0.54096007 0.01551956
-0.72250152 -0.50127780 0.00000000
0.55423486 -0.28926501 -0.00000065
0.09177033 0.37447280 0.00000453
-0.04535066 0.05896979 -0.00000054
0.28295645 -0.59856337 -0.00000013
0.39817637 -0.19236168 -0.00000038
0.11970646 -0.67460281 -0.00000008
-0.60972315 -0.39844173 -0.00000013
-0.71821851 -0.14534388 -0.00000006
-0.75314933 -0.33180991 0.00000000
-0.41079637 0.05735109 -0.00000043
-0.11911569 0.73420578 0.01758040
-0.40335539 -0.77047396 -0.00000002
0.62277138 -0.16594785 -0.00000111
0.12170746 0.42359933 0.00000328
0.31690818 0.07083071 0.00000601
0.30538297 0.49256578 -0.00000138
0.72596020 -0.26999381 -0.00000124
-0.64435697 0.07398886 -0.00000018
0.23789947 -0.32125518 -0.00000030
0.52427751 0.17391385 0.00000017
-0.73161548 0.07410095 0.00188474
-0.44033709 0.41712630 0.01894665
-0.18153179 -0.41230509 -0.00000024
0.60319132 0.12754662 -0.00000051
-0.08802840 -0.77288955 -0.00000002
-0.21273988 0.04344117 -0.00000053
0.18526597 0.50008214 0.00000083
-0.70295531 -0.27889150 -0.00000005
-0.63937563 0.69925439 0.17760073
0.17297755 -0.72469229 -0.00000005
0.02969650 0.13435221 0.00000937
0.62943393 -0.63214207 -0.00000022
-0.35218418 -0.63450754 -0.00000010
0.00971734 -0.60916138 -0.00000012
-0.34983373 0.76550144 0.10397384
-0.00939389 -0.58222425 -0.00000014
-0.70686150 0.18956913 0.03179564
0.71458995 -0.61814231 -0.00000045
-0.13338003 0.56386083 -0.00000081
0.46381512 -0.35759667 -0.00000028
0.12628300 -0.71470594 -0.00000005
-0.07108625 -0.33989501 -0.00000029
-0.74309415 0.21623328 0.05253449
-0.26267505 -0.27098843 -0.00000033
-0.56443000 -0.42274326 -0.00000017
-0.33528361 0.29661193 -0.00000055
-0.51810706 -0.07419312 -0.00000029
0.71886784 -0.38581973 -0.00000099
0.64681178 -0.30645955 -0.00000091
-0.08991046 0.73718184 0.00893188
0.06030076 -0.53168368 -0.00000017
0.70419770 -0.13410848 -0.00000143
0.15431648 0.61036223 -0.00000056
0.23534644 -0.14225422 -0.00000041
-0.60738856 -0.17574096 -0.00000017
0.42390946 0.32132840 -0.00000055
0.21385112 -0.42405003 -0.00000023
-0.15118887 0.04086767 -0.00000053
0.26515114 -0.09071679 -0.00000044
0.27002519 0.06415739 0.00000688
-0.46809283 -0.76227051 -0.00000002
0.10815143 -0.64357489 -0.00000010
0.39381596 -0.71983159 -0.00000005
-0.71607471 -0.44413149 -0.00000001
-0.19702898 0.72820830 0.04129314
0.73625648 -0.24803127 -0.00000131
0.50463963 -0.06325870 -0.00000093
0.35519770 -0.06027655 -0.00000046
-0.13771936 -0.00222165 -0.00000050
0.18556792 0.35099158 0.00000350
-0.03683448 0.75687116 -0.00000095
-0.31760108 -0.62698936 -0.00000011
0.53796077 -0.74713027 -0.00000003
0.18440495 0.39783654 0.00000268
-0.44798353 -0.47341084 -0.00000020
-0.38159430 0.16401637 -0.00000048
-0.36526299 0.08513141 -0.00000048
-0.14260235 0.71979803 0.02057400
-0.66239375 0.54212636 0.13338105
-0.74843782 -0.68395126 0.00000000
-0.63687241 0.53754973 0.12345689
0.54387188 -0.50691628 -0.00000019
-0.46638063 -0.62723660 -0.00000011
0.01010085 -0.36511424 -0.00000027
-0.25793159 0.12285805 -0.00000058
-0.66966486 0.71758801 0.19363303
-0.51260215 0.31664240 0.00964225
0.78870982 -0.02779816 -0.00000191
-0.76669461 -0.27554420 0.00000000
-0.23239234 0.21142165 -0.00000063
0.37403691 -0.34108129 -0.00000029
-0.04190440 0.51143092 -0.00000082
-0.67836726 -0.37137496 -0.00000006
0.70960128 -0.06441665 -0.00000158
0.15377174 -0.20266996 -0.00000037
0.34764469 -0.65668303 -0.00000009
-0.00112519 0.26704380 -0.00000067
0.14472464 0.32550418 0.00000453
-0.20212102 0.14514692 -0.00000059
0.19827043 0.51965219 0.00000023
0.43900692 -0.67546588 -0.00000008
0.39958110 -0.23258340 -0.00000035
-0.14261428 0.73560482 0.02578987
0.50444394 -0.78205866 -0.00000001
-0.68351936 -0.18807191 -0.00000009
0.36832902 0.32255310 0.00000050
0.44054255 -0.66551358 -0.00000008
0.26630491 -0.63382375 -0.00000010
0.15132403 -0.16921031 -0.00000039
0.03643506 0.02101310 0.00001111
0.26979527 -0.05459493 -0.00000047
-0.04764568 -0.26581520 -0.00000033
0.30264252 0.16862603 0.00000452
-0.35199162 0.02364864 -0.00000048
0.31033897 0.15659186 0.00000459
-0.34980202 -0.76400483 -0.00000002
0.04621497 0.67428762 0.00000035
-0.20025446 0.35897189 -0.00000071
-0.67003286 0.32675233 0.06488521
-0.28184217 0.07806589 -0.00000055
0.12198324 -0.54803240 -0.00000016
0.56363666 -0.63506371 -0.00000010
0.29853964 -0.27982888 -0.00000033
0.59725624 -0.53538519 -0.00000031
-0.78705132 -0.66676164 0.00000000
-0.35090950 -0.42924571 -0.00000023
-0.46637815 0.65668619 0.10652254
-0.45196754 0.42514932 0.02542694
0.42344478 -0.79386866 -0.00000000
0.73319417 -0.06060453 -0.00000167
-0.52739662 -0.74636137 -0.00000003
-0.76033914 -0.09791455 -0.00000002
0.39127171 0.13603583 0.00000341
0.11072472 0.36459506 0.00000440
-0.36948481 -0.37692776 -0.00000026
-0.59639561 0.27535614 0.02365816
-0.33367682 0.23624741 -0.00000054
-0.52281809 0.57352620 0.09771230
-0.30229479 0.13209914 -0.00000056
-0.38775584 0.09934092 -0.00000046
0.13471511 0.36049321 0.00000411
-0.36521098 -0.70757067 -0.00000006
-0.25360042 -0.46327719 -0.00000021
0.60285246 -0.53719032 -0.00000032
0.47573990 -0.07244601 -0.00000082
0.50387359 0.06784303 0.00000247
-0.25730205 -0.54279250 -0.00000016
0.62942392 -0.49746445 -0.00000048
-0.71475214 0.30266476 0.07168811
-0.57908952 0.35963508 0.04574091
-0.39413971 -0.26573873 -0.00000033
-0.18253505 0.31464341 -0.00000070
-0.42468983 -0.54991549 -0.00000016
0.48637390 -0.38794410 -0.00000026
-0.04376741 0.60522068 -0.00000088
0.19033277 0.44177863 0.00000178
0.78204972 -0.51856875 -0.00000070
-0.06379427 -0.40827566 -0.00000024
0.19074304 0.40685967 0.00000240
0.51727670 0.22618605 -0.00000063
-0.77699465 0.44637382 0.13959605
-0.16270204 -0.07071770 -0.00000046
-0.35824537 -0.06716634 -0.00000046
0.03038891 0.76231384 -0.00000091
0.66398984 -0.26981878 -0.00000104
-0.05279991 -0.58613676 -0.00000013
0.44853154 0.05210728 0.00000381
-0.30881879 0.69124234 0.06596476
-0.66843921 -0.79866546 0.00000000
0.67794377 -0.37085387 -0.00000089
0.09812830 -0.77798384 -0.00000001
-0.07068645 0.55972469 -0.00000085
0.14635888 -0.54194385 -0.00000016
-0.16847344 0.47893298 -0.00000076
0.10922690 -0.55833626 -0.00000015
-0.21660961 -0.45416528 -0.00000022
-0.18147616 0.59522027 -0.00000077
0.09562546 -0.67821395 -0.00000008
0.34464371 -0.43811953 -0.00000023
0.64734721 0.01712213 0.00000062
-0.12602177 -0.18226568 -0.00000039
0.44737664 -0.49476907 -0.00000019
-0.55500126 0.12531580 -0.00000028
0.03354839 0.01593586 0.00001123
-0.54685313 -0.33534759 -0.00000021
-0.23042899 -0.18610808 -0.00000038
-0.79381067 -0.15206772 0.00000000
-0.68920201 -0.03707060 -0.00000011
-0.59869659 -0.47759232 -0.00000013
0.75295591 -0.66648191 -0.00000033
0.20684268 -0.02548355 -0.00000048
0.03956157 0.02168012 0.00001105
0.38579544 0.11051463 0.00000397
-0.32766464 -0.46158665 -0.00000021
0.11811301 0.04648752 0.00000946
-0.42017317 0.43731928 0.01895619
-0.29754451 -0.34445989 -0.00000028
0.52146894 -0.68135846 -0.00000007
0.53719223 0.18806060 -0.00000033
-0.26773474 0.21273760 -0.00000061
-0.11148658 -0.54320550 -0.00000016
0.74680120 -0.15854518 -0.00000152
-0.78899276 -0.47843790 0.00000000
0.07267562 0.69586438 -0.00000053
-0.65750539 -0.09713263 -0.00000013
-0.28805417 -0.55164307 -0.00000016
0.50727832 0.26319847 -0.00000110
-0.36643752 -0.23208162 -0.00000035
0.49005610 0.25079885 -0.00000055
-0.71073246 0.51235682 0.13950390
-0.70061535 -0.19604781 -0.00000007
-0.40432751 -0.58095199 -0.00000014
-0.65811020 -0.13503143 -0.00000013
0.24799871 0.18228218 0.00000530
0.75787359 -0.60292071 -0.00000049
0.63566625 -0.59067982 -0.00000032
-0.45413092 -0.19468898 -0.00000033
0.00285147 0.49116948 0.00000398
-0.71745783 0.58378863 0.16527446
0.27901804 -0.11489564 -0.00000043
0.06914368 0.18878745 0.00000789
-0.35767210 -0.42632979 -0.00000023
0.41499859 0.23994671 0.00000109
-0.76001871 -0.74675143 0.00000000
0.61690128 -0.72230959 -0.00000005
0.17809354 -0.59342647 -0.00000013
-0.25382823 0.13943119 -0.00000059
-0.58641040 0.31947941 0.03491440
-0.66601449 0.64484590 0.16844435
-0.17858163 -0.06048061 -0.00000046
0.30706400 -0.70575321 -0.00000006
-0.18761712 -0.21819033 -0.00000036
-0.60322100 -0.56910980 -0.00000011
0.16818424 -0.30562657 -0.00000031
-0.59529448 0.15524344 -0.00000025
0.05511876 0.46007490 0.00000369
0.55492604 -0.40517259 -0.00000043
-0.43306324 -0.06955539 -0.00000038
-0.12635943 -0.72281450 -0.00000005
0.69542563 -0.42772385 -0.00000083
0.02319261 0.56378305 0.00000249
0.15748283 0.60560971 -0.00000053
0.32307920 -0.78569943 -0.00000001
-0.02034271 -0.42181396 -0.00000024
-0.55525124 0.41286898 0.05543339
-0.73123246 -0.35839689 -0.00000001
-0.60826868 0.23033053 0.01272687
-0.48269421 -0.14796872 -0.00000031
-0.26003632 -0.48633841 -0.00000020
-0.40760788 -0.17319983 -0.00000039
0.79310977 -0.74879634 -0.00000013
0.00062710 0.06880778 0.00001087
-0.38061675 0.22903071 -0.00000049
0.64329207 0.01094049 0.00000081
-0.33093256 -0.61719000 -0.00000011
-0.57460892 -0.33649722 -0.00000018
0.60492045 -0.55017853 -0.00000030
-0.16501963 0.75090635 0.03822289
0.57208073 0.05633215 0.00000137
-0.63332587 -0.76742309 -0.00000002
0.00071339 -0.66420221 -0.00000008
-0.09326210 0.33856854 -0.00000071
0.30203459 0.49211958 -0.00000137
0.22997834 0.05082891 0.00000770
0.46239766 0.11965125 0.00000234
-0.00856187 0.45712101 -0.00000079
0.12508017 0.40523157 0.00000353
0.19129258 0.28173870 0.00000454
0.07394369 -0.13883948 -0.00000041
0.55438143 0.18286413 -0.00000057
0.10594612 0.03342463 0.00000986
0.32703894 0.28584591 0.00000195
-0.48235700 -0.57813555 -0.00000014
-0.16303098 0.38125697 -0.00000074
-0.76338619 -0.25180852 0.00000000
0.01187913 -0.35455287 -0.00000028
-0.64689350 -0.38751030 -0.00000009
-0.22566499 0.61045212 0.01190783
-0.63279271 0.10792703 -0.00000020
-0.24907467 0.66473264 0.03752444
-0.43869996 -0.66239631 -0.00000009
-0.59100145 -0.54700863 -0.00000012
-0.59015971 0.30153897 0.03023519
-0.13537072 0.50668985 -0.00000080
0.55083835 -0.23348793 -0.00000075
-0.56841969 0.19675799 -0.00000028
-0.47152415 0.58083510 0.08320915
-0.18198270 -0.19035342 -0.00000038
0.62664151 -0.26903808 -0.00000092
0.76802194 -0.67782569 -0.00000031
-0.19116096 0.30825967 -0.00000069
0.32064220 -0.24261209 -0.00000035
-0.39673746 -0.48479894 -0.00000020
0.27512613 -0.49632922 -0.00000019
-0.34460345 -0.68902951 -0.00000007
0.35550770 -0.70002002 -0.00000006
-0.24284264 0.45980063 -0.00000068
-0.34066635 0.27459505 -0.00000054
0.09753261 -0.04715595 -0.00000047
0.54618692 -0.29607883 -0.00000061
0.03585903 0.43386927 0.00000441
0.30564570 0.25214872 0.00000297
-0.33074149 -0.53023803 -0.00000017
0.21862315 0.57851535 -0.00000122
-0.44195202 -0.76268691 -0.00000002
-0.07588430 -0.12856655 -0.00000042
-0.26879850 -0.55629897 -0.00000015
-0.41260803 0.58165216 0.06405223
0.66619670 -0.69811177 -0.00000021
0.11051842 -0.43205792 -0.00000023
0.14621900 0.18854018 0.00000673
-0.65016091 0.38496968 0.07752870
-0.08897866 0.58706903 -0.00000087
0.47483337 0.12178857 0.00000206
0.49178410 -0.10668130 -0.00000081
-0.73970085 -0.07370121 -0.00000005
-0.44486240 0.42091608 0.02168835
-0.47867757 0.57772529 0.08454246
0.43834040 -0.04592043 -0.00000075
0.70335102 0.07722580 -0.00000153
0.03756689 0.15496111 0.00000892
-0.57182121 -0.11241014 -0.00000022
-0.61595166 0.18599880 0.00064281
-0.70794225 -0.44648150 -0.00000002
0.75434405 -0.41525614 -0.00000096
-0.65725785 -0.79146099 -0.00000001
-0.62171108 -0.22992207 -0.00000015
-0.26036960 -0.63065469 -0.00000011
-0.47249934 0.38433832 0.01874037
0.07193116 -0.17677306 -0.00000039
-0.44777894 -0.72248054 -0.00000005
-0.12731636 0.35801920 -0.00000072
0.06903137 -0.57455325 -0.00000014
0.74927193 -0.46398240 -0.00000084
-0.26844627 -0.40090081 -0.00000025
-0.01464411 0.61505944 -0.00000088
0.55452085 0.16136861 -0.00000018
0.69960946 -0.59503841 -0.00000051
-0.75895327 0.25270465 0.06978930
0.35157529 -0.41179505 -0.00000024
0.04153934 0.39522958 0.00000495
-0.35861459 0.42172620 -0.00000055
0.14452612 -0.78735697 -0.00000001
0.05383711 -0.00986512 -0.00000049
0.34805742 -0.45120254 -0.00000022
0.46853954 -0.04997478 -0.00000084
0.60354751 -0.23545793 -0.00000091
0.74146014 -0.15844131 -0.00000150
-0.00365469 0.39190131 -0.00000074
-0.54999834 -0.61505574 -0.00000012
0.65240276 -0.12690690 -0.00000128
0.41542071 0.31367603 -0.00000025
0.07071222 0.51110828 0.00000263
0.13124865 -0.42468780 -0.00000023
-0.49141473 0.16810848 -0.00000036
-0.03344674 0.54302824 -0.00000084
-0.77107036 0.14481612 0.03821087
0.51109493 0.14405867 0.00000096
0.20334259 0.45930651 0.00000121
0.34923014 -0.36835167 -0.00000027
0.01954321 -0.75306863 -0.00000003
-0.24232975 0.01449649 -0.00000051
0.17489530 0.48058784 0.00000138
-0.29072693 0.69164300 0.06013148
0.00191669 0.26347396 0.00000769
-0.17184605 0.52329749 -0.00000077
-0.49131200 -0.74758595 -0.00000003
0.16171654 -0.62084675 -0.00000011
0.05084875 -0.20514350 -0.00000037
0.67356837 -0.45526955 -0.00000071
0.04138557 0.67836207 0.00000035
0.03293371 0.44450638 0.00000428
0.01683879 -0.30863777 -0.00000031
0.79533619 -0.23298475 -0.00000142
-0.04155262 -0.56576133 -0.00000015
-0.26611775 0.44063091 -0.00000065
0.16126256 0.16244151 0.00000693
0.29578814 0.50176293 -0.00000136
0.15559232 -0.73208368 -0.00000004
-0.19911420 -0.33079770 -0.00000029
-0.72381330 0.05471584 -0.00000009
-0.69941467 -0.44194800 -0.00000003
-0.70769745 0.27330348 0.05968077
-0.64392596 0.71381009 0.18390051
-0.69090176 0.19342580 0.02780489
0.76593959 -0.47538069 -0.00000081
0.50027245 -0.77398366 -0.00000002
-0.00825414 -0.29984188 -0.00000031
0.02776345 0.43177783 0.00000456
-0.50390273 -0.54186410 -0.00000016
-0.43590924 0.08619275 -0.00000040
0.62170023 -0.68430388 -0.00000009
0.03959051 0.75841135 -0.00000105
-0.52048796 0.77173805 0.16229986
-0.45130134 0.76840001 0.13838638
-0.69755435 0.72573227 0.20551439
0.20195816 0.54770201 -0.00000035
0.70516628 -0.61614239 -0.00000046
-0.74024296 -0.50833011 0.00000000
-0.13782927 -0.10569600 -0.00000043
-0.56223541 0.38459611 0.04841394
0.16303748 -0.10352395 -0.00000044
-0.72315907 0.76140326 0.22571872
-0.06645882 0.63289720 -0.00000090
-0.77200931 -0.20801595 0.00000000
-0.37060007 0.20348956 -0.00000050
-0.25816211 -0.68182087 -0.00000007
0.35727510 0.34936860 0.00000023
-0.41470477 0.50198454 0.03847499
0.43472788 -0.26724443 -0.00000033
-0.03497739 -0.19702259 -0.00000038
0.30287942 0.31228098 0.00000194
-0.15324044 0.65274018 0.00197090
0.20874278 -0.50536603 -0.00000018
0.04986339 -0.38401631 -0.00000026
-0.17237110 -0.71580160 -0.00000005
-0.35900685 0.32934785 -0.00000053
-0.06836607 -0.75575948 -0.00000003
0.03077605 0.23332088 0.00000774
0.23940781 0.14261375 0.00000607
-0.12342189 -0.04319896 -0.00000047
0.54178351 0.15040860 0.00000026
0.18174250 0.17876606 0.00000635
0.25827438 -0.01346481 -0.00000049
0.55055511 -0.50692934 -0.00000021
-0.52800560 -0.59462374 -0.00000013
0.27669120 -0.68138587 -0.00000007
-0.71908510 -0.27342477 -0.00000004
0.02418445 0.67939121 0.00000059
0.54557312 -0.05080494 -0.00000109
-0.43186125 0.36512631 -0.00000046
-0.67837298 0.67315364 0.18185313
0.73760152 -0.11039848 -0.00000158
-0.21091661 0.54500228 -0.00000073
-0.34107527 -0.41364220 -0.00000024
-0.14762516 -0.03285953 -0.00000048
-0.22807157 0.54104948 -0.00000071
-0.77494246 0.11282051 0.02893779
0.37767881 -0.57096243 -0.00000014
0.11435407 -0.67060697 -0.00000008
0.54914445 -0.21769355 -0.00000077
-0.19761457 0.11621920 -0.00000057
-0.33423385 0.50231057 0.01204892
-0.41944131 -0.11080433 -0.00000039
0.39411804 -0.51795894 -0.00000018
-0.34746432 -0.47160882 -0.00000021
0.40001565 -0.54096442 -0.00000016
0.33105305 0.32422435 0.00000118
0.53156805 0.02680156 0.00000267
-0.27850419 0.56926471 0.01574984
-0.65299213 -0.76709384 -0.00000002
-0.55024368 0.12076247 -0.00000029
0.14187133 0.64727336 -0.00000098
0.37361592 -0.57553262 -0.00000014
0.52775484 -0.07907067 -0.00000097
0.40255895 -0.03771413 -0.00000065
-0.39596915 0.10696851 -0.00000045
-0.33856288 0.69822109 0.07807334
-0.59844428 -0.37763593 -0.00000015
-0.21865806 -0.59748834 -0.00000013
0.10307595 0.15964828 0.00000785
-0.38126883 0.72511005 0.10102076
-0.00052975 0.57682294 -0.00000086
-0.00270497 -0.15400514 -0.00000040
0.27785152 -0.35339573 -0.00000028
0.54408085 -0.33065048 -0.00000054
-0.51208174 0.60471565 0.10445624
-0.18009362 0.33378491 -0.00000071
-0.09631233 0.67928880 -0.00000088
-0.22469886 -0.62666190 -0.00000011
0.11188607 0.61115712 0.00000024
0.60847795 -0.62230867 -0.00000017
0.12871780 0.34791061 0.00000440
0.33918571 -0.52326643 -0.00000017
0.16584785 0.00204231 0.00000946
0.57963645 -0.54268646 -0.00000024
-0.09363703 0.19473247 -0.00000062
-0.08806297 0.64823663 -0.00000088
-0.17255203 0.64182758 0.00474030
-0.53858751 -0.10285654 -0.00000026
-0.21395324 0.12138681 -0.00000058
0.14674844 0.03632702 0.00000920
-0.74924308 -0.41515586 0.00000000
-0.69232261 -0.40865144 -0.00000004
0.75093859 -0.14923891 -0.00000155
0.24459442 0.43214703 0.00000091
-0.29845425 0.37488362 -0.00000060
-0.23049454 -0.70322436 -0.00000006
0.60643220 -0.03902124 -0.00000130
-0.31120375 0.71501058 0.07458820
0.35737416 0.32181713 0.00000072
-0.03179119 0.21929006 -0.00000064
0.23783326 -0.49901181 -0.00000019
-0.28517404 -0.55668980 -0.00000015
0.18915004 -0.79578501 -0.00000000
-0.50749993 0.20939450 -0.00000035
0.63482010 -0.34324449 -0.00000080
-0.37871569 -0.41915658 -0.00000024
0.16296266 0.47029743 0.00000179
-0.69888735 -0.03218845 -0.00000010
-0.65550029 -0.49048254 -0.00000006
0.16243625 -0.78130710 -0.00000001
0.45608541 -0.70658344 -0.00000006
0.05066812 -0.25282142 -0.00000034
-0.79353112 -0.63921750 0.00000000
-0.26147324 -0.55202621 -0.00000015
0.69863492 -0.30424577 -0.00000108
0.07415727 -0.79072559 -0.00000001
0.72626632 -0.68463963 -0.00000029
-0.24504057 -0.55793083 -0.00000015
-0.48006549 0.67375487 0.11666366
0.06503248 -0.47036031 -0.00000021
-0.42326695 0.17057864 -0.00000043
0.63593543 -0.67443025 -0.00000016
-0.43448707 0.52900082 0.05390579
0.22579563 0.16345640 0.00000594
-0.73182732 0.54811454 0.15824978
-0.03195211 -0.03799814 -0.00000048
-0.07940303 0.61858988 -0.00000088
-0.76250124 -0.12232244 -0.00000002
0.31463909 -0.14770187 -0.00000041
-0.77045739 -0.12954551 -0.00000001
0.42986506 -0.78301144 -0.00000001
0.16735227 0.39896873 0.00000299
0.49458274 -0.36451936 -0.00000031
-0.58822209 -0.02467380 -0.00000022
-0.26361138 -0.02558418 -0.00000048
0.70748591 -0.58580875 -0.00000054
0.14777783 -0.61280751 -0.00000012
0.55709589 -0.42563075 -0.00000039
0.25002542 0.26950166 0.00000372
-0.53253883 -0.73746479 -0.00000004
0.52112627 0.11911342 0.00000122
-0.09737149 0.27309063 -0.00000067
-0.12937482 -0.68164068 -0.00000007
0.79680073 -0.42714646 -0.00000093
-0.72242689 0.19177768 0.03765621
0.14979288 0.51389647 0.00000126
-0.20298839 0.64613402 0.01619599
0.01610898 -0.73576069 -0.00000004
0.40906447 -0.62377733 -0.00000011
0.09172399 -0.19055998 -0.00000038
0.45232204 -0.14669739 -0.00000060
0.77464259 -0.79552799 -0.00000001
0.10246169 -0.60731137 -0.00000012
0.70598996 -0.72887975 -0.00000018
-0.39279160 0.60356665 0.06474397
0.13603921 -0.48018262 -0.00000020
-0.52162445 -0.49454212 -0.00000019
-0.49089670 0.45125419 0.04687051
-0.21259399 -0.15203144 -0.00000040
-0.10867939 -0.53231603 -0.00000017
0.40611026 0.34805107 -0.00000068
0.77532607 -0.71026522 -0.00000022
0.61655945 -0.13933936 -0.00000114
0.63751197 -0.20040900 -0.00000109
-0.60622913 -0.71684790 -0.00000005
0.12729502 -0.67854494 -0.00000008
-0.17452739 -0.17032836 -0.00000039
-0.54166335 -0.77259976 -0.00000002
-0.06262308 -0.37673381 -0.00000026
0.76186079 -0.41716245 -0.00000096
-0.59934807 -0.10559116 -0.00000019
0.32245043 0.07278582 0.00000586
-0.75191665 0.43348023 0.12707576
-0.33187377 0.77077252 0.09978994
0.71181208 -0.25794262 -0.00000121
-0.54999977 -0.35184702 -0.00000020
-0.76429558 -0.40295067 0.00000000
0.75610089 -0.27068350 -0.00000132
0.06982034 0.43297166 0.00000391
0.15745211 0.48143506 0.00000170
-0.21301496 -0.78851509 -0.00000001
-0.13040996 0.64058012 -0.00000083
-0.32346603 -0.58266878 -0.00000014
-0.03325983 -0.43439034 -0.00000023
0.02980342 -0.43615994 -0.00000023
-0.47454393 -0.17115998 -0.00000032
0.10901555 -0.64779115 -0.00000010
0.57097375 -0.41353396 -0.00000046
0.18356431 -0.58444321 -0.00000013
0.19328536 -0.65927750 -0.00000009
0.60732514 -0.36942777 -0.00000066
0.28921509 -0.50201964 -0.00000019
0.30947062 0.35195220 0.00000110
0.38744721 0.19449160 0.00000243
-0.37268370 0.15336841 -0.00000048
-0.50604969 0.41285342 0.03920511
-0.78119040 0.18402325 0.05447540
-0.76282758 0.09867620 0.02027939
0.62407357 0.16512053 -0.00000159
-0.66009480 -0.71584409 -0.00000002
-0.25777957 -0.38881940 -0.00000026
0.47272715 -0.67207527 -0.00000008
-0.12670556 0.36119920 -0.00000073
0.19813240 0.56703091 -0.00000062
-0.61093730 0.18972720 0.00021878
-0.22278108 -0.66916525 -0.00000008
0.55403525 -0.09600234 -0.00000103
-0.13320632 0.54556543 -0.00000081
