ply
format ascii 1.0
element vertex 1221
property float x
property float y
property float z
end_header
-0.37689975 -0.51817906 0.00000320
-0.05039877 0.44951946 0.00000516
-0.07139849 0.62762529 0.05799395
-0.01391308 0.69724923 0.00000295
-0.50200659 -0.47195899 0.00000420
-0.21064480 -0.02235127 0.00000256
-0.20916934 0.09483111 0.00000576
-0.37578815 -0.51087731 0.00000320
-0.27008000 -0.14950879 0.00000285
-0.05269091 -0.48819700 0.00000079
-0.34643680 -0.42870495 0.00000308
-0.23935610 -0.47063628 0.00000222
-0.36890522 0.16430742 -0.26802084
-0.57477671 -0.34998822 -0.24984615
-0.20678183 0.44248575 -0.14898060
-0.31149235 -0.40207666 0.00000285
-0.54555839 -0.22874442 -0.30316034
-0.23711348 0.05426594 0.00000560
-0.36580580 -0.08314114 0.06939546
-0.03354386 0.05918785 0.00001045
-0.48496059 -0.47262958 0.00000407
-0.46065953 -0.69233435 0.00000361
-0.28262153 -0.75346035 0.00000219
-0.51075345 -0.62580317 0.00000407
-0.00989413 0.33295074 0.00000760
-0.13664034 -0.56153315 0.00000133
-0.24389850 0.21116461 0.20596810
-0.29353908 -0.47818968 0.00000262
-0.09104613 -0.31050900 0.00000130
-0.52288741 -0.25764003 -0.21523075
-0.64038736 -0.74604177 0.12977944
-0.24343894 -0.53119487 0.00000217
-0.02902520 0.71019477 0.00000242
-0.41424447 -0.57566297 0.00000341
-0.28790626 0.26745799 -0.17087169
-0.40149775 -0.65020031 0.00000322
-0.36405495 -0.16724581 0.00000354
-0.46906790 -0.00647889 -0.34269869
-0.56010580 -0.58106476 0.00000450
-0.59989095 -0.46438047 -0.19331822
-0.22341239 -0.65763265 0.00000186
-0.34730846 -0.30021220 0.00000324
-0.00717555 -0.19870883 0.00000071
-0.20236312 0.22047085 0.00000436
-0.09712724 0.50261760 0.00000337
-0.41949549 0.02475318 -0.24970290
-0.31763229 0.03315701 0.15056612
-0.20234862 0.31147823 0.14341168
-0.12064912 0.50872117 0.10125245
-0.14815804 0.44231084 0.04746093
-0.32431704 0.16762680 -0.15832780
-0.32242858 -0.77467376 0.00000246
-0.09044216 -0.30815864 0.00000130
-0.00081654 0.75319898 0.00000257
-0.11250753 0.34648332 0.00000495
-0.60106546 -0.38932380 -0.27521780
-0.60544515 -0.66723979 0.00000473
-0.04500838 0.33526617 0.00000672
-0.43671164 -0.51683748 0.00000365
-0.58067089 -0.62711942 0.00000460
-0.18481866 -0.15676966 0.00000220
-0.38021836 -0.11794127 0.18016610
-0.14974932 -0.60850173 0.00000137
-0.32962418 0.14434844 -0.14732307
-0.20486358 0.30541000 0.06555801
-0.15702707 0.34358159 0.00000391
-0.02717027 0.59270930 0.00000394
-0.52700579 -0.77489245 0.00000401
-0.31056321 -0.24583541 0.00000304
-0.40814626 -0.18535969 0.04893415
-0.04509380 0.07720049 0.00000995
-0.33044073 0.00222981 0.25645164
-0.64886898 -0.60177404 -0.17318141
-0.13173160 0.48196977 0.00730601
-0.25930849 0.05482745 0.00000505
-0.24708447 0.20347539 0.15113638
-0.26677611 -0.67272097 0.00000217
-0.07491201 -0.71927351 0.00000067
-0.02167950 -0.63234180 0.00000037
-0.61507457 -0.52350861 -0.16969006
-0.37060204 -0.09473427 0.38149735
-0.48466349 -0.37010050 0.32979104
-0.27521119 0.24866681 -0.11888797
-0.26944283 -0.67594141 0.00000219
-0.09561981 -0.23227260 0.00000143
-0.04791959 -0.32362548 0.00000096
-0.38289607 -0.30127597 0.00000351
-0.18326695 0.35754970 0.05313890
-0.28417367 0.11393054 0.22194052
-0.22022767 0.26831913 0.03155753
-0.29427093 -0.01138697 0.00000321
-0.18833503 0.34530878 0.17527282
-0.21949154 0.27009600 0.03860117
-0.38206628 -0.70634019 0.00000300
-0.04976653 -0.67490077 0.00000053
-0.18136536 -0.09528472 0.00000225
-0.02222455 -0.56507581 0.00000046
-0.21743502 0.27505496 0.17257638
-0.57958215 -0.68939155 0.00000451
-0.30396578 -0.44650024 0.00000274
-0.16234975 -0.79440415 0.00000123
-0.37277016 -0.09996493 0.29993126
-0.29806614 0.08038957 0.25247532
-0.38946214 -0.14025488 0.11378786
-0.28197405 -0.49458233 0.00000251
-0.24394973 -0.04886485 0.00000278
-0.26953319 -0.31975868 0.00000263
-0.22792026 -0.77716595 0.00000175
-0.25438038 0.18585747 0.23999269
-0.51470113 -0.19143865 -0.26405808
-0.16968288 -0.37424490 0.00000181
-0.16598175 -0.12069438 0.00000210
-0.22521868 0.41782880 -0.16985495
-0.27746022 0.08577055 0.00000423
-0.13190067 0.28041863 0.00000531
-0.09604070 0.56813198 0.08957129
-0.43423396 -0.48730043 0.00000367
-0.47462219 -0.34585032 0.10899023
-0.34311816 -0.67890203 0.00000274
-0.41780695 0.06632135 -0.28912443
-0.41687226 -0.20643115 0.15918250
-0.52361608 -0.15794858 -0.32190049
-0.21478099 0.28146100 0.20318957
-0.07747867 0.61294621 0.06122588
-0.21082610 -0.06425604 0.00000251
-0.35522848 -0.78168702 0.00000270
-0.46826684 -0.05363427 -0.29108283
-0.44554305 -0.61693943 0.00000359
-0.01123131 -0.69437057 0.00000022
-0.45135188 -0.60008281 0.00000366
-0.45362785 -0.10305524 -0.20196159
-0.36033753 -0.31885096 0.00000332
-0.48706511 -0.10434667 -0.28547999
-0.19372770 0.33229646 0.02294470
-0.61124533 -0.50220615 -0.18236837
-0.12427741 0.55074453 -0.05338100
-0.47488132 -0.15075779 -0.20575425
-0.65142483 -0.55668873 -0.22707412
-0.34961951 -0.04407346 0.28686276
-0.20029357 -0.31804979 0.00000211
-0.35500187 -0.07503603 0.00000358
-0.63851941 -0.61700815 -0.13089226
-0.22143488 -0.49578127 0.00000205
-0.47048852 -0.50162286 0.00000392
-0.35173705 -0.11221530 0.00000351
-0.07347995 0.05206565 0.00000958
-0.46323499 -0.71235019 0.00000360
-0.49739453 -0.40082556 0.05704920
-0.16764338 -0.15502264 0.00000207
-0.08265352 -0.62870359 0.00000084
-0.05122830 0.52900612 0.00000415
-0.39096072 -0.14388400 0.36569652
-0.47779047 -0.35350442 0.22445334
-0.24205443 0.21561839 0.16564508
-0.12748361 0.18270475 0.00000664
-0.20211822 0.22240525 0.00000434
-0.05619289 -0.21174404 0.00000116
-0.21400440 -0.42172939 0.00000209
-0.49528277 -0.03926094 -0.37477353
-0.09497864 0.61320388 -0.04468271
-0.35847959 -0.43587038 0.00000316
-0.29212019 -0.68030638 0.00000235
-0.15361989 0.09211766 0.00000714
-0.31391734 0.01672346 0.00000421
-0.31860602 0.03079970 0.29629353
-0.52114052 -0.45815986 0.19416948
-0.04929727 0.70648777 -0.02680961
-0.14893597 0.32414129 0.00000435
-0.37821838 -0.39553040 0.00000336
-0.34975675 -0.50168639 0.00000301
-0.50371552 -0.18367802 -0.24433239
-0.33528957 -0.00946686 0.04259305
-0.41459233 0.01731713 -0.22943793
-0.35552540 -0.51351476 0.00000304
-0.45862520 -0.34010708 0.00000403
-0.31899360 0.17129578 -0.14867258
-0.55525839 -0.54052740 0.20469339
-0.19447562 0.27696836 0.00000384
-0.52614963 -0.18117224 -0.30391318
-0.19514301 0.32887596 0.10377474
-0.31457779 0.26686510 -0.23795164
-0.34039709 -0.02179659 0.02080243
-0.05580828 -0.16694663 0.00000121
-0.05620868 -0.41758931 0.00000090
-0.24922821 -0.16492648 0.00000267
-0.42039615 -0.21493997 0.18943642
-0.30862755 -0.17044507 0.00000312
-0.37132463 -0.09647076 0.20158494
-0.57371688 -0.38940343 -0.20571297
-0.20968975 0.29376021 0.02847539
-0.44523716 -0.27490941 0.13624175
-0.59749514 -0.64249116 0.05802917
-0.08031331 0.45542243 0.00000437
-0.47644651 -0.35026178 0.26928681
-0.30961722 -0.17583513 0.00000312
-0.11511009 -0.56249011 0.00000117
-0.37380522 -0.10245565 0.11662822
-0.30549541 -0.33604118 0.00000288
-0.33331797 -0.00470737 0.05248853
-0.39674881 -0.15785228 0.24177907
-0.07469273 0.22619610 0.00000737
-0.34750471 -0.22622165 0.00000334
-0.27820984 0.02189212 0.00000501
-0.42718962 0.03238786 -0.27726144
-0.61565024 -0.43734047 -0.26175267
-0.45965773 -0.47713691 0.00000387
-0.41336673 0.07459784 -0.28655574
-0.27434012 0.13766766 0.29572618
-0.33851296 -0.01726010 0.29522529
-0.43848351 -0.56734461 0.00000360
-0.14997610 0.13754193 0.00000666
-0.40968603 -0.78762859 0.00000311
-0.43719712 -0.70866734 0.00000341
-0.44355235 -0.27085081 0.33608034
-0.03368876 0.60932076 0.00000357
-0.55060315 -0.52928174 0.02339638
-0.47253570 -0.70218575 0.00000369
-0.37050280 -0.77251887 0.00000283
-0.14980203 -0.73266256 0.00000121
-0.16734155 -0.43687445 0.00000172
-0.05429327 0.66892213 0.03629262
-0.58257747 -0.78249121 0.00000442
-0.54106337 -0.50625843 0.21942344
-0.21865715 -0.25212783 0.00000233
-0.23978883 0.22109202 0.07783181
-0.50927055 -0.75525302 0.00000390
-0.18246149 0.35949349 0.07155624
-0.36806765 -0.53664851 0.00000311
-0.49870861 -0.40400079 0.11776106
-0.10477671 -0.33822355 0.00000137
-0.27367705 -0.48639992 0.00000246
-0.39192298 -0.14619665 0.13040665
-0.55678385 -0.20056549 -0.36128339
-0.49845800 -0.05227429 -0.36915043
-0.32923782 0.00514135 0.08963417
-0.06324451 0.64676428 0.00000239
-0.53277844 -0.60600847 0.00000426
-0.15180953 0.09735860 0.00000712
-0.03572808 0.71374422 0.00221204
-0.61723763 -0.69015473 0.07611440
-0.22128081 0.19820315 0.00000418
-0.41785336 -0.66853440 0.00000332
-0.42990819 -0.23789756 0.04097625
-0.18285553 -0.01683168 0.00000236
-0.13339955 -0.22652997 0.00000172
-0.16465712 -0.16073065 0.00000204
-0.05888244 0.32775685 0.00000648
-0.07531801 -0.56549078 0.00000086
-0.38341820 -0.68212420 0.00000304
-0.20480652 0.30554539 0.11889633
-0.00724634 -0.68712080 0.00000020
-0.14465272 0.31124684 0.00000462
-0.51809710 -0.67021763 0.00000407
-0.10385389 -0.24855383 0.00000147
-0.36258784 -0.07538107 0.26735282
-0.36140499 -0.07252177 0.18658310
-0.54980099 -0.54323143 0.00000447
-0.34792769 -0.60850900 0.00000286
-0.48349461 -0.02743265 -0.35728741
-0.48407546 -0.36867717 0.21060561
-0.00989459 0.56565249 0.00000469
-0.26946342 0.14944626 0.18038814
-0.06485218 -0.24219717 0.00000119
-0.50868332 -0.22422586 -0.21430866
-0.10011457 -0.33016729 0.00000134
-0.39639351 -0.15699559 0.26657966
-0.23863351 0.22387590 0.19620247
-0.55621076 -0.26521811 -0.29184988
-0.02628825 0.19895485 0.00000888
-0.10565731 -0.62254786 0.00000102
-0.26756954 0.15402623 0.00697350
-0.08507443 0.32624036 0.00000587
-0.46523502 -0.74507183 0.00000358
-0.50492090 -0.41900104 0.17132780
-0.51914454 -0.23618367 -0.22829010
-0.27635872 -0.26137358 0.00000276
-0.09824310 -0.14819191 0.00000156
-0.54266196 -0.73432863 0.00000418
-0.38366315 -0.12626655 0.37686339
-0.18030059 0.36471227 0.02868684
-0.36557189 -0.09169668 0.00000364
-0.24307974 -0.29726389 0.00000246
-0.16762200 0.21945225 0.00000521
-0.06830766 0.27534086 0.00000691
-0.27517807 -0.33397070 0.00000266
-0.20124710 0.31413579 0.18338998
-0.43900225 0.04320021 -0.31861567
-0.21146110 -0.41665047 0.00000207
-0.39421114 -0.58965498 0.00000324
-0.37272638 -0.60902143 0.00000305
-0.58545989 -0.41075176 -0.21307451
-0.00687869 -0.32400182 0.00000065
-0.40214276 -0.17086411 0.00944853
-0.36883503 -0.74313474 0.00000285
-0.61193120 -0.67734122 0.01585046
-0.12256359 -0.70306206 0.00000105
-0.23228303 0.21916655 0.00000365
-0.01713336 -0.71023279 0.00000024
-0.47228473 -0.34021631 0.33631095
-0.36923152 0.17037459 -0.27522868
-0.40492252 -0.35654834 0.00000361
-0.13999179 -0.66911197 0.00000122
-0.50640184 -0.13640995 -0.30085108
-0.42287126 -0.38861212 0.00000370
-0.03182809 0.21797799 0.00000851
-0.25976574 0.17285991 0.15143514
-0.49414220 -0.75571686 0.00000378
-0.17879266 -0.79595679 0.00000135
-0.35853463 -0.33428746 0.00000329
-0.51249796 -0.74012297 0.00000394
-0.15729731 -0.45835873 0.00000161
-0.12006899 -0.16626535 0.00000170
-0.40748855 0.05187661 -0.24774379
-0.23840754 0.18043038 0.00000399
-0.49153960 -0.13097568 -0.26883897
-0.46353441 -0.41085649 0.00000398
-0.45146325 -0.28995007 0.34984046
-0.66257656 -0.69126713 -0.11387923
-0.12244255 0.38755652 0.00000420
-0.44445094 0.02153537 -0.30966678
-0.11911908 0.43922010 0.00000363
-0.51436746 -0.49343881 0.00000426
-0.30215475 -0.70872748 0.00000239
-0.34205022 -0.02580066 0.31271949
-0.40539232 -0.59142172 0.00000332
-0.25937688 0.17379449 0.24644138
-0.34462336 -0.03201480 0.35759071
-0.09496230 0.29926720 0.00000597
-0.23932695 0.22219960 0.24537879
-0.23997398 0.22064136 0.16014600
-0.00387342 0.55966729 0.00000491
-0.13854676 -0.54482323 0.00000136
-0.35604423 0.14734431 -0.21753813
-0.54613000 -0.30730212 -0.22201216
-0.14131355 0.13010514 0.00000696
-0.64860141 -0.55855846 -0.21794121
-0.11642198 -0.73596573 0.00000096
-0.51685953 -0.10018105 -0.36548933
-0.04894721 0.39152005 0.00000592
-0.04862868 0.62299889 0.00000304
-0.02084218 -0.52031708 0.00000051
-0.27535468 0.13522193 0.21332949
-0.34973282 -0.04433559 0.03131629
-0.50660598 -0.42307293 0.25514534
-0.09897123 -0.56836748 0.00000104
-0.03653805 -0.66020948 0.00000045
-0.16842993 -0.48763689 0.00000166
-0.58035833 -0.60112250 0.16504079
-0.25194469 -0.65770900 0.00000208
-0.41873932 -0.21093732 0.12981914
-0.14805131 0.41589597 0.00000323
-0.52820802 -0.17698753 -0.31353822
-0.46089515 -0.31271219 0.15478688
-0.31976303 0.22737443 -0.20959070
-0.50961876 -0.43033561 0.01160512
-0.24719876 -0.04514914 0.00000281
-0.00705046 -0.70130402 0.00000008
-0.45843515 -0.30677748 0.25102702
-0.66185272 -0.79786241 0.03721281
-0.06614611 -0.40330982 0.00000099
-0.10164053 -0.19784062 0.00000152
-0.00142351 0.15212113 0.00001006
-0.18334867 -0.40996838 0.00000187
-0.12029405 0.03082550 0.00000871
-0.29930142 -0.12366923 0.00000310
-0.55262214 -0.53416091 0.13232698
-0.42708403 -0.23108067 0.06910193
-0.23573697 -0.63898563 0.00000198
-0.20701990 -0.05471611 0.00000249
-0.19712859 0.05565289 0.00000655
-0.00608385 0.28683540 0.00000827
-0.38616389 0.04851150 -0.19007467
-0.36687100 -0.08572292 0.29767081
-0.00099254 -0.05077474 0.00000094
-0.21810114 0.16112895 0.00000472
-0.52397531 -0.50142395 0.00000433
-0.40036234 0.04959915 -0.22725987
-0.41259885 -0.19612281 0.35295051
-0.13925406 -0.65268892 0.00000123
-0.05580155 -0.12632743 0.00000126
-0.36569169 -0.08287119 0.19360055
-0.35015059 0.18242154 -0.23946029
-0.42972970 -0.44858134 0.00000368
-0.18882565 -0.70469046 0.00000154
-0.14884064 0.21287060 0.00000575
-0.09978828 0.29626250 0.00000589
-0.58131337 -0.42320380 -0.18945642
-0.33710220 -0.01385669 0.35011137
-0.27132475 -0.68454701 0.00000219
-0.15553714 0.42449188 0.13975523
-0.15883023 0.05103841 0.00000753
-0.13212208 -0.06349482 0.00000192
-0.39080456 0.13530070 -0.29311085
-0.63901663 -0.56367481 -0.18823163
-0.30141559 -0.43558818 0.00000273
-0.31175777 0.04734298 0.07057145
-0.38694465 -0.79083085 0.00000293
-0.06376846 -0.43454954 0.00000094
-0.32427850 -0.37086862 0.00000298
-0.48548415 -0.70594561 0.00000378
-0.16948432 0.47177747 -0.08510341
-0.11092687 0.13975519 0.00000758
-0.54783469 -0.52260548 0.26172245
-0.26892224 -0.44039550 0.00000248
-0.13923983 0.17800549 0.00000641
-0.15434295 0.28975356 0.00000465
-0.20094018 -0.53699178 0.00000184
-0.07516398 0.61853713 0.00023618
-0.08931545 0.31275493 0.00000593
-0.40066272 -0.17783476 0.00000380
-0.06649625 0.14488393 0.00000858
-0.21845835 -0.09632910 0.00000253
-0.34898427 -0.04253012 0.06888913
-0.51014853 -0.43162066 0.14741710
-0.38948524 -0.14032082 0.34224638
-0.29315370 0.03452716 0.00000449
-0.48037732 -0.35974109 0.03237720
-0.24930063 0.19813044 0.03121192
-0.36002555 -0.52570140 0.00000306
-0.18580472 -0.05233862 0.00000234
-0.30263320 -0.29732126 0.00000291
-0.05973136 -0.40857118 0.00000094
-0.43401304 -0.06999955 -0.18692817
-0.64510596 -0.62225705 -0.14209256
-0.17695959 -0.50641543 0.00000170
-0.16904114 -0.38792950 0.00000179
-0.09808173 -0.54518718 0.00000106
-0.21211439 0.24708784 0.00000379
-0.47311088 -0.38703153 0.00000409
-0.21011786 -0.56259984 0.00000188
-0.20038600 -0.60253310 0.00000176
-0.44988242 -0.44357142 0.00000384
-0.49116585 -0.13942347 -0.25900790
-0.62603998 -0.71394831 0.00000483
-0.37959218 0.09471564 -0.22197521
-0.32236832 -0.35643750 0.00000299
-0.08391821 -0.67438781 0.00000079
-0.49401197 -0.39266619 0.21161889
-0.24629796 0.35900813 -0.16151473
-0.01042597 -0.74005884 0.00000015
-0.03730765 -0.69349205 0.00000041
-0.44020307 -0.69192827 0.00000346
-0.11225213 0.13297021 0.00000763
-0.17004074 0.30491558 0.00000408
-0.56884712 -0.26251078 -0.32677245
-0.22558679 0.25537699 0.12177581
-0.46499759 -0.51560014 0.00000386
-0.41818091 -0.20959462 0.25069311
-0.48090228 -0.64257216 0.00000382
-0.20466140 0.41679487 -0.11658491
-0.40486959 0.10217838 -0.29398659
-0.35735756 -0.06274978 0.17327987
-0.06725728 0.52170354 0.00000386
-0.36893731 -0.09069990 0.03817510
-0.05933472 0.18393447 0.00000827
-0.31333497 0.17217270 -0.13523068
-0.21813606 -0.70960397 0.00000176
-0.25949228 -0.46478307 0.00000238
-0.27578971 -0.46702459 0.00000250
-0.15250073 -0.32149673 0.00000175
-0.26196405 0.16755404 0.12218482
-0.22377555 0.25974977 0.12093830
-0.09811249 -0.07218110 0.00000165
-0.54645628 -0.54214889 0.00000444
-0.44636390 0.02070851 -0.31365320
-0.42482871 -0.22564836 0.35147625
-0.12701394 -0.76108307 0.00000101
-0.66857195 -0.81408376 0.11776640
-0.51225716 -0.23465639 -0.21241333
-0.48083758 -0.36085689 0.13625458
-0.49477759 -0.39451277 0.17073880
-0.25906616 -0.38388041 0.00000247
-0.29006946 0.09969397 0.28456840
-0.30561429 0.19552951 -0.14019138
-0.35779873 -0.47308409 0.00000311
-0.18234041 0.46692380 -0.11263405
-0.10271159 0.25342572 0.00000635
-0.19331346 -0.61056215 0.00000170
-0.59857869 -0.48625070 -0.16699189
-0.02953143 0.12257560 0.00000975
-0.26162428 -0.41011906 0.00000246
-0.24525025 0.20790985 0.01148496
-0.12133000 -0.55189127 0.00000123
-0.31457791 0.19276552 -0.16003850
-0.18456241 0.35442153 0.06775966
-0.34291360 -0.36612874 0.00000313
-0.39086726 -0.14364946 0.16547348
-0.44227344 -0.26775315 0.11048103
-0.48920885 -0.38106915 0.18354961
-0.12727690 0.49272454 0.00457365
-0.00057035 0.47147611 0.00000609
-0.16010199 0.50467730 -0.09588034
-0.09790568 0.56362981 0.08330564
-0.45866719 -0.08705848 -0.23157305
-0.00035096 -0.07417919 0.00000091
-0.29944125 -0.43846142 0.00000271
-0.44920218 -0.28448546 0.21738838
-0.34780708 -0.03969958 0.32600930
-0.31608662 -0.47407550 0.00000279
-0.09545382 -0.28839093 0.00000136
-0.20447449 0.39923191 -0.09764354
-0.00623771 -0.00378116 0.00000096
-0.23626155 0.22960551 0.12620097
-0.03610143 -0.04551971 0.00000122
-0.24782588 0.20168814 0.09156604
-0.14094688 0.45972106 0.02804160
-0.37306571 -0.24674547 0.00000351
-0.04097491 -0.17047115 0.00000110
-0.25983527 -0.66236413 0.00000213
-0.07762470 0.13018486 0.00000850
-0.25004929 -0.28640598 0.00000253
-0.45652282 -0.30216172 0.27473709
-0.34966004 0.10943750 -0.16147463
-0.19805363 -0.62634015 0.00000171
-0.06267853 0.42921829 0.00000512
-0.47119254 -0.06233820 -0.28935751
-0.11674909 0.51813805 0.07139161
-0.37981120 -0.11696662 0.36701593
-0.38530409 -0.13022386 0.28106794
-0.12229701 0.29298100 0.00000539
-0.08267551 -0.02833016 0.00000159
-0.14756241 0.44374460 0.14174847
-0.14942031 0.43925941 0.13778900
-0.42476439 -0.22547860 0.02664566
-0.34551814 -0.42636290 0.00000307
-0.24912153 0.19855440 0.21995808
-0.08196645 -0.76009738 0.00000067
-0.47067454 -0.10644473 -0.24166863
-0.12001925 -0.61817783 0.00000113
-0.46173820 -0.31474662 0.13528210
-0.28996363 -0.36685535 0.00000273
-0.51589888 -0.44549909 0.05247392
-0.12822106 0.21341164 0.00000624
-0.35278836 -0.05171386 0.06417834
-0.20888510 0.43071038 -0.14193814
-0.41479561 -0.20141251 0.04447847
-0.42362404 -0.22273605 0.26222759
-0.10275601 -0.15135242 0.00000159
-0.27832946 -0.70897204 0.00000221
-0.46557164 -0.32400334 0.17859320
-0.28379288 0.11485130 0.18897085
-0.40801758 -0.18506005 0.29715872
-0.07160525 -0.00533019 0.00000153
-0.22074065 -0.20660128 0.00000241
-0.06671440 -0.47024244 0.00000092
-0.16828018 0.39373314 0.00860560
-0.14286400 -0.29864916 0.00000170
-0.34808180 -0.04035672 0.18868931
-0.07402856 0.37965903 0.00000547
-0.47768164 -0.51916838 0.00000395
-0.37221202 -0.09860534 0.02799780
-0.33040574 0.00231475 0.24533252
-0.30889538 -0.36043814 0.00000288
-0.19852060 0.42996883 -0.11484902
-0.28812766 -0.77423358 0.00000221
-0.35247937 -0.12359459 0.00000350
-0.64628232 -0.59237856 -0.17649432
-0.23543808 -0.73296052 0.00000186
-0.42472306 -0.34161988 0.00000378
-0.20591803 0.20123567 0.00000451
-0.28718543 0.10666281 0.14602759
-0.17596515 0.02110506 0.00000749
-0.22326340 -0.13853928 0.00000251
-0.27326438 -0.05948896 0.00000299
-0.23513024 -0.33955535 0.00000235
-0.34868687 -0.39325777 0.00000314
-0.24299784 -0.45572644 0.00000226
-0.12680960 0.49384812 0.10746466
-0.37099501 -0.09568141 0.34536368
-0.21551582 -0.69794863 0.00000175
-0.26580310 -0.47718546 0.00000241
-0.34624952 -0.03593141 0.14952521
-0.14115982 0.24739531 0.00000550
-0.41852319 -0.21042770 0.40618360
-0.57006651 -0.57627648 0.19642465
-0.49083599 -0.38499138 0.04813895
-0.63648367 -0.73661733 0.03609531
-0.27148584 0.14456370 0.17958792
-0.13714860 -0.23270880 0.00000174
-0.15678632 0.37216491 0.00000356
-0.27406710 -0.50463051 0.00000244
-0.17147307 0.38602459 0.01313100
-0.09848656 -0.73119456 0.00000083
-0.11758624 0.01451592 0.00000898
-0.21405005 -0.53582668 0.00000195
-0.51047325 -0.50141233 0.00000422
-0.37776643 -0.11202008 0.14271536
-0.45063013 -0.28793052 0.16404900
-0.67884809 -0.83889192 0.11147414
-0.45462701 -0.09003954 -0.21818316
-0.36852118 -0.08970877 0.34030563
-0.54910237 -0.52566308 0.12595287
-0.37120062 0.08054277 -0.18577158
-0.32398400 -0.16222067 0.00000324
-0.59416968 -0.33747339 -0.31223169
-0.41811460 -0.20943019 0.15411977
-0.15999877 -0.73461330 0.00000129
-0.25808370 0.16863418 0.00000366
-0.52914578 -0.47748089 0.07033394
-0.15595813 -0.47750691 0.00000158
-0.35438433 -0.61275321 0.00000291
-0.07266395 -0.42392156 0.00000102
-0.13079979 0.48421937 0.00768832
-0.35377109 -0.59608573 0.00000292
-0.00227162 -0.76388067 0.00000003
-0.38839778 0.06151563 -0.20941867
-0.60089070 -0.49333954 -0.16540705
-0.44375402 -0.27132440 0.03840782
-0.32762364 -0.07221982 0.00000338
-0.64974797 -0.55383521 -0.22581793
-0.33811966 -0.01630187 0.10004033
-0.63739181 -0.57226211 -0.17507808
-0.09800718 0.62706441 -0.06694431
-0.18760978 -0.57979214 0.00000169
-0.25919208 0.30455419 -0.13698868
-0.60943508 -0.39709243 -0.28829488
-0.08362180 0.50302422 0.00000369
-0.54256195 -0.29856876 -0.22213773
-0.13831072 0.46608564 0.02165755
-0.63253480 -0.73964846 0.00000485
-0.12306479 -0.35464332 0.00000149
-0.57103407 -0.57860559 0.00042710
-0.09948847 0.49294975 0.00000344
-0.57334459 -0.58418691 0.07208021
-0.45548666 -0.53001398 0.00000377
-0.10082279 -0.01406569 0.00000174
-0.00590014 -0.63120753 0.00000018
-0.11613773 0.48507699 0.00000313
-0.01702287 -0.73656148 0.00000021
-0.38054207 -0.73504663 0.00000295
-0.21677282 -0.12751105 0.00000248
-0.04802006 0.36829108 0.00000624
-0.37065181 -0.30729979 0.00000341
-0.43099296 -0.24051575 0.02624772
-0.43887049 -0.06401764 -0.20554785
-0.47772810 -0.44789138 0.00000404
-0.00779978 -0.29152018 0.00000069
-0.23568484 -0.19261923 0.00000254
-0.51714581 -0.16114978 -0.30211064
-0.46467182 0.01110101 -0.35002431
-0.06863772 -0.42732760 0.00000098
-0.31034103 0.05075375 0.28594920
-0.54548383 -0.33121780 -0.19522591
-0.03450759 0.71604407 0.00000216
-0.55824327 -0.72508013 0.00000431
-0.01247041 0.06977831 0.00001083
-0.44827580 -0.28224799 0.19443627
-0.51104230 -0.16388334 -0.28374350
-0.30346215 0.06736268 0.24593487
-0.21093537 0.38297874 -0.09695420
-0.00637742 0.07012623 0.00001097
-0.32188189 -0.05172716 0.00000336
-0.60863388 -0.51834810 -0.15876701
-0.29729486 0.08224936 0.30306977
-0.37920088 -0.55777615 0.00000316
-0.04793781 0.54258430 0.00000406
-0.47675729 -0.35101232 0.27479756
-0.13532890 -0.34935158 0.00000158
-0.36189732 -0.45470354 0.00000316
-0.32594448 0.01308150 0.32925987
-0.38671142 -0.13362128 0.27660233
-0.30104274 0.21742690 -0.15161133
-0.36523208 -0.23170595 0.00000347
-0.47812968 -0.07043561 -0.29845268
-0.42510340 -0.24844760 0.00000390
-0.52525741 -0.46809247 0.04788341
-0.03728392 0.38245192 0.00000632
-0.35299572 -0.05222498 0.30026144
-0.50209844 -0.41218606 0.15032709
-0.32005844 -0.57720757 0.00000269
-0.48814631 -0.37849760 0.04194189
-0.40900329 -0.52354556 0.00000343
-0.48191208 -0.36345461 0.21799713
-0.09545889 -0.38407362 0.00000124
-0.27853158 -0.04891048 0.00000304
-0.18184237 0.36098772 0.08113944
-0.34249100 -0.69664502 0.00000271
-0.32209480 -0.09216511 0.00000331
-0.35352820 -0.05351124 0.31576133
-0.13708869 -0.02583488 0.00000200
-0.12605374 0.49567547 0.05140835
-0.22132245 0.18351968 0.00000436
-0.14891738 -0.54792619 0.00000144
-0.43149662 -0.34945512 0.00000382
-0.32273072 -0.72763884 0.00000253
-0.30921331 0.05347839 0.23876062
-0.30090898 0.07353412 0.07746092
-0.09081685 -0.45480576 0.00000112
-0.28580731 0.24309187 -0.13992344
-0.02051477 -0.14040722 0.00000098
-0.13646428 -0.14277960 0.00000185
-0.52144712 -0.23865741 -0.23153394
-0.37738019 -0.28122818 0.00000350
-0.51437765 -0.46246567 0.00000430
-0.18163326 0.48141739 -0.12607855
-0.52637309 -0.47079116 0.16413409
-0.13104729 0.30966267 0.00000497
-0.10775537 0.53984904 0.11436998
-0.08565291 0.59321296 0.03391627
-0.33291769 -0.31717268 0.00000312
-0.30608466 -0.60165054 0.00000256
-0.39840561 -0.16185185 0.23492551
-0.42373312 -0.41229951 0.00000368
-0.48823634 -0.37872502 0.26773226
-0.27095866 0.27881274 -0.13979083
-0.48362023 -0.36758193 0.30664185
-0.37349117 -0.25606608 0.00000350
-0.36709008 -0.08625546 0.37894815
-0.49560481 -0.43166035 0.00000420
-0.11906803 -0.26373184 0.00000157
-0.00619776 -0.24662063 0.00000065
-0.31517097 0.03910428 0.03615454
-0.50382942 -0.10643989 -0.32583320
-0.05799690 0.69695592 -0.03887045
-0.08867250 0.44277951 0.00000432
-0.29094389 -0.33488205 0.00000278
-0.33617738 0.23071875 -0.25477356
-0.00355234 -0.26688024 0.00000064
-0.40694404 -0.66743273 0.00000324
-0.29126048 0.09682818 0.06837734
-0.13153377 0.54549158 -0.06627733
-0.28672966 -0.52380192 0.00000251
-0.03274335 -0.43934333 0.00000070
-0.17296091 0.38243023 0.06736397
-0.33106187 0.00072811 0.30380318
-0.31939211 -0.38771781 0.00000292
-0.32582295 0.16069545 -0.15486234
-0.17558540 0.37608933 0.17318363
-0.05945136 0.32537788 0.00000650
-0.02832511 0.30757600 0.00000747
-0.04250168 -0.48972473 0.00000071
-0.51932192 -0.54710430 0.00000423
-0.56439704 -0.23307276 -0.34642902
-0.48087189 -0.38398069 0.00000415
-0.23373543 -0.14975218 0.00000258
-0.49583948 -0.14851381 -0.26131329
-0.17437208 0.37901825 0.18092646
-0.42899734 -0.01114034 -0.23608164
-0.29966295 -0.14858691 0.00000308
-0.23738822 -0.75236982 0.00000185
-0.26576596 0.15837622 0.10255628
-0.58518755 -0.33407474 -0.29300508
-0.01124017 -0.70984906 0.00000020
-0.37712032 -0.58472890 0.00000311
-0.28359598 -0.21094921 0.00000288
-0.19301084 -0.65789014 0.00000163
-0.04489229 -0.42352265 0.00000081
-0.19133139 0.33807400 0.19517469
-0.22290824 0.17673978 0.00000441
-0.33308259 0.18612719 -0.20003104
-0.18929829 0.34298953 0.03444918
-0.19002648 0.34123266 0.00919125
-0.23145804 -0.19507135 0.00000250
-0.48367384 -0.36771137 0.32192862
-0.39454740 -0.15252705 0.00644870
-0.48676062 -0.37515482 0.09970744
-0.37909499 -0.11522616 0.11256439
-0.24233583 0.21493585 0.23720939
-0.69655108 -0.74758750 -0.14090195
-0.06745575 -0.48971692 0.00000090
-0.53759623 -0.61939806 0.00000428
-0.20144019 0.16683145 0.00000505
-0.15032208 -0.25589901 0.00000181
-0.23980930 0.22103563 0.23362482
-0.02711937 0.26902312 0.00000798
-0.03021425 -0.45311832 0.00000066
-0.35670683 -0.17776799 0.00000347
-0.10764053 0.54013008 0.02975980
-0.43627346 -0.66871512 0.00000346
-0.27907342 -0.64227015 0.00000230
-0.05780455 0.54118752 0.00000384
-0.38059601 -0.43595153 0.00000333
-0.56092203 -0.27031493 -0.29844990
-0.26913890 0.15023477 0.06610879
-0.60973656 -0.51840329 -0.16150808
-0.00565241 -0.00767984 0.00000096
-0.45446283 -0.51064759 0.00000379
-0.59836245 -0.37337828 -0.28512239
-0.37295404 -0.27933899 0.00000346
-0.06438183 0.13570029 0.00000875
-0.34960729 0.18352629 -0.23924281
-0.04745190 -0.37749982 0.00000089
-0.49074522 -0.05661586 -0.34500721
-0.42027378 -0.28065839 0.00000382
-0.19584417 -0.00403107 0.00000247
-0.49401212 -0.39265972 0.05819034
-0.18956950 0.34233615 0.00336032
-0.59549421 -0.63765985 0.04426423
-0.05847077 0.09407762 0.00000941
-0.48803556 -0.10027709 -0.29222229
-0.04383819 -0.07808900 0.00000123
-0.01897566 -0.10662234 0.00000101
-0.45338213 -0.04146863 -0.26609105
-0.01798066 0.42152193 0.00000630
-0.16135515 0.03023448 0.00000773
-0.03696555 -0.18352947 0.00000105
-0.24406147 0.17106149 0.00000397
-0.27643913 0.13260765 0.12718706
-0.45552495 -0.79801810 0.00000344
-0.38972694 0.03669706 -0.18669662
-0.18506370 -0.42985117 0.00000186
-0.64756072 -0.65196949 -0.11708259
-0.28068638 0.12235167 0.17607465
-0.43905267 -0.03312582 -0.23848917
-0.05883672 0.09617459 0.00000938
-0.05998486 0.65518093 0.04572935
-0.23388578 -0.05293747 0.00000270
-0.07019008 -0.62439317 0.00000075
-0.58479947 -0.42551056 -0.19588007
-0.08410645 -0.75155503 0.00000070
-0.02911365 -0.04902159 0.00000116
-0.17829974 -0.07099025 0.00000226
-0.02818768 0.44956848 0.00000570
-0.36510924 -0.69464254 0.00000289
-0.20149310 -0.55355078 0.00000183
-0.47755200 -0.63978094 0.00000380
-0.44895697 -0.00256624 -0.29576281
-0.07366196 0.54197866 0.00000345
-0.00886788 -0.79921526 0.00000007
-0.33386502 0.22928138 -0.24739251
-0.29822910 -0.10508693 0.00000312
-0.44157290 -0.01910438 -0.25962964
-0.39507431 -0.15380725 0.18812285
-0.23944286 0.22192702 0.08274399
-0.34532708 -0.03370044 0.05980889
-0.02400047 -0.43399593 0.00000064
-0.34723639 -0.47321633 0.00000303
-0.27720112 -0.18049777 0.00000287
-0.34825861 -0.13663433 0.00000346
-0.06843679 0.30741632 0.00000651
-0.41146812 -0.23999947 0.00000380
-0.57576460 -0.30950582 -0.29491878
-0.31215087 0.24918696 -0.21320309
-0.31991595 0.02764869 0.03967580
-0.35203207 -0.78761172 0.00000267
-0.41907358 -0.21174492 0.14277476
-0.10024381 -0.11638920 0.00000161
-0.59005708 -0.48261404 -0.14918455
-0.08316116 0.11401704 0.00000857
-0.12876536 0.17092748 0.00000675
-0.11085779 0.04220079 0.00000880
-0.08903015 0.42701682 0.00000451
-0.48315629 -0.04752127 -0.33530605
-0.45867452 -0.60616708 0.00000370
-0.20168997 -0.35103601 0.00000208
-0.06804120 -0.37069026 0.00000105
-0.20489402 -0.74694443 0.00000161
-0.17315154 0.38196883 0.09276594
-0.00296814 -0.52157414 0.00000033
-0.41927734 0.08466771 -0.31214744
-0.34915006 -0.04293803 0.24001186
-0.29163021 -0.55768979 0.00000250
-0.36132962 -0.65080112 0.00000291
-0.44044027 -0.26333842 0.35644287
-0.48110041 -0.36520717 0.00000417
-0.30846271 -0.30743822 0.00000294
-0.19109330 -0.03370828 0.00000240
-0.62952042 -0.57387513 -0.15340140
-0.08717965 -0.46241486 0.00000108
-0.53236318 -0.14868839 -0.35384053
-0.12768108 -0.41351268 0.00000145
-0.38710794 -0.70809293 0.00000304
-0.39367655 -0.66648799 0.00000314
-0.00137541 -0.57471246 0.00000027
-0.44655016 -0.27864814 0.00000402
-0.60667402 -0.47026902 -0.20434482
-0.37211546 -0.09838595 0.33526722
-0.20532830 0.42644778 -0.12842754
-0.20979446 -0.16776344 0.00000237
-0.20860539 0.26808587 0.00000361
-0.43752769 -0.05362605 -0.21306273
-0.44425446 -0.27254155 0.23934707
-0.28983563 0.10025787 0.29825404
-0.23063923 0.24318101 0.08254677
-0.35778174 0.16211495 -0.23747955
-0.23823810 0.06460605 0.00000544
-0.04643561 -0.72021919 0.00000045
-0.42036226 -0.21485856 0.19860283
-0.04371517 0.36455169 0.00000639
-0.39315400 -0.42956406 0.00000343
-0.40747061 -0.18372872 0.05315754
-0.32876420 0.00627313 0.35091212
-0.05948038 0.02898826 0.00001020
-0.30805075 0.05629543 0.00708974
-0.08719965 0.03037185 0.00000952
-0.57330453 -0.58409357 0.23575220
-0.07984265 -0.30402136 0.00000122
-0.02361977 -0.29197359 0.00000081
-0.28856406 0.10333580 0.11767037
-0.43362284 -0.24687316 0.21199343
-0.28808531 0.10448438 0.27908245
-0.32883164 0.17211001 -0.17450178
-0.19165975 0.00949454 0.00000725
-0.20148084 -0.18600985 0.00000229
-0.31129706 -0.67305660 0.00000251
-0.34193560 -0.55271715 0.00000289
-0.14357533 -0.65840423 0.00000126
-0.05515057 -0.67508173 0.00000057
-0.47858223 -0.10380969 -0.26451185
-0.56716770 -0.56927508 0.08550525
-0.45310777 -0.05043543 -0.25596631
-0.25054786 0.17545195 0.00000376
-0.23619863 -0.56674755 0.00000207
-0.34983966 -0.46381387 0.00000306
-0.39750606 -0.15968430 0.32822955
-0.05296824 -0.73934078 0.00000048
-0.01414486 0.64847273 0.00000355
-0.60289693 -0.52128363 -0.14111799
-0.37258285 0.10831395 -0.21848080
-0.04356978 -0.69184810 0.00000046
-0.47377187 -0.34379604 0.07775201
-0.33084127 0.00125839 0.35610524
-0.60626644 -0.51134634 -0.16011959
-0.06868466 -0.49109608 0.00000090
-0.40419111 -0.38542074 0.00000357
-0.05773078 -0.50606990 0.00000080
-0.43882477 -0.35986951 0.00000386
-0.60709792 -0.41810757 -0.26026601
-0.19936150 -0.27330470 0.00000216
-0.07412084 -0.41713730 0.00000104
-0.25093427 0.19418362 0.09418725
-0.10705639 -0.16734792 0.00000160
-0.17011309 0.38930401 0.10093479
-0.49748129 -0.45919898 0.00000418
-0.46621701 -0.32555988 0.14389713
-0.34077173 -0.12503166 0.00000341
-0.28633824 -0.53364813 0.00000249
-0.53221482 -0.48488966 0.05771337
-0.01453450 0.35114303 0.00000726
-0.22752070 0.38787571 -0.14420369
-0.22661600 0.38020924 -0.13384606
-0.38778475 -0.13621601 0.35454544
-0.37324798 -0.10110795 0.06263556
-0.40052631 0.01744347 -0.19386537
-0.19786134 -0.47861150 0.00000189
-0.20607896 -0.75287443 0.00000161
-0.08367429 -0.78168619 0.00000065
-0.39199531 -0.14636569 0.00591981
-0.25888652 0.17498656 0.06163429
-0.07623044 -0.62215102 0.00000080
-0.28854316 0.10338296 0.19015664
-0.25793302 0.17728120 0.22594097
-0.26360270 0.16359411 0.20805208
-0.14010306 0.54382229 -0.08627455
-0.11181317 0.53005511 0.05787858
-0.13891995 -0.38263565 0.00000157
-0.20654868 0.30134165 0.06893392
-0.38053769 0.11665145 -0.24744008
-0.28906858 0.07092553 0.00000413
-0.29489782 -0.31826520 0.00000283
-0.13551748 -0.44483238 0.00000147
-0.68310112 -0.71078271 -0.14545906
-0.12438323 0.56645328 -0.07016688
-0.29186669 -0.75180584 0.00000226
-0.13232176 0.48054340 0.04257703
-0.24998274 0.11821323 0.00000449
-0.49416023 -0.71370918 0.00000384
-0.00900152 -0.61541092 0.00000030
-0.69546694 -0.73172903 -0.15482430
-0.26540795 -0.15667324 0.00000281
-0.36037061 0.12039489 -0.20018385
-0.36679575 0.16630334 -0.26476485
-0.33120474 -0.63846451 0.00000270
-0.27428037 0.13781284 0.27412525
-0.30270019 0.06920815 0.11268317
-0.17434245 0.12216696 0.00000626
-0.44137520 -0.26558092 0.02819964
-0.17234217 0.38392028 0.15061282
-0.44864541 -0.28313902 0.16607763
-0.19859524 -0.28704798 0.00000214
-0.23524283 0.23206948 0.02407532
-0.23299615 0.33491653 -0.10241766
-0.21489672 -0.39217347 0.00000213
-0.40749869 -0.60571188 0.00000332
-0.08938004 -0.63306952 0.00000088
-0.54637957 -0.58531350 0.00000439
-0.10792084 0.60209662 -0.06585641
-0.50765413 -0.20627087 -0.23057492
-0.04636525 -0.12367425 0.00000120
-0.45889154 -0.51787430 0.00000381
-0.35474899 0.12370747 -0.18939689
-0.57957959 -0.41345844 -0.19530223
-0.10560139 0.61612278 -0.07471677
-0.09332013 0.57470375 0.00788066
-0.20751037 -0.51324892 0.00000192
-0.30936599 -0.24795328 0.00000302
-0.05061426 0.10143596 0.00000951
-0.41090778 -0.54322517 0.00000342
-0.10022021 -0.65507782 0.00000094
-0.40241495 -0.17152122 0.00884385
-0.44063944 -0.26380885 0.12296827
-0.58475447 -0.78747064 0.00000443
-0.60971469 -0.73304039 0.00000468
-0.04645760 -0.76355034 0.00000040
-0.62860245 -0.71759123 0.15579851
-0.30588940 0.06151130 0.05419128
-0.54712063 -0.60691708 0.00000437
-0.50933200 -0.10915169 -0.33694941
-0.44383553 -0.27152517 0.12815551
-0.16538541 -0.05550713 0.00000218
-0.17277949 -0.39446670 0.00000181
-0.17127518 -0.47860295 0.00000169
-0.41385645 0.03923716 -0.25061819
-0.19412634 0.01753886 0.00000709
-0.30149761 0.27639019 -0.21476406
-0.25771695 -0.26053903 0.00000262
-0.48185161 -0.36330569 0.15179697
-0.10000709 0.35441309 0.00000516
-0.21581605 -0.69103795 0.00000176
-0.48547378 -0.38747415 0.00000418
-0.13147742 0.48258066 0.06923765
-0.28180730 0.24940993 -0.13641302
-0.32860574 -0.21016707 0.00000322
-0.31004640 0.26770365 -0.22733077
-0.04957648 -0.70610636 0.00000049
-0.34153986 -0.43066740 0.00000304
-0.49111465 -0.15760888 -0.23975696
-0.33357337 -0.00532651 0.10904155
-0.52509820 -0.72367901 0.00000406
-0.02462417 0.43030363 0.00000603
-0.44417304 -0.30152529 0.00000397
-0.41102257 -0.56798100 0.00000339
-0.08232447 -0.69756246 0.00000075
-0.44599143 -0.27673048 0.13824157
-0.25595322 -0.65300596 0.00000211
-0.32758653 -0.17374378 0.00000325
-0.31283611 0.04474092 0.04187187
-0.04992246 0.56010646 0.00000379
-0.26377320 -0.51157439 0.00000235
-0.66505414 -0.64755303 -0.16613147
-0.00230591 -0.02877163 0.00000098
-0.39389119 -0.39536995 0.00000348
-0.17649417 0.37389717 0.13403858
-0.34238175 -0.68596363 0.00000273
-0.51017618 -0.15652198 -0.28928503
-0.25147784 -0.55029500 0.00000221
-0.28418046 -0.06837765 0.00000306
-0.21240379 0.43970016 -0.16032253
-0.25937265 -0.08341980 0.00000285
-0.15450892 0.14172845 0.00000650
-0.26091239 0.28836945 -0.12433784
-0.39705059 -0.15858716 0.38440034
-0.34616712 -0.03572688 0.02373874
-0.04085768 0.17315938 0.00000885
-0.17141929 0.45721686 -0.07470517
-0.12530041 -0.64254832 0.00000114
-0.31522453 -0.70918572 0.00000249
-0.23404665 0.23495694 0.03288399
-0.31000865 0.05156631 0.05918841
-0.42010555 -0.21424448 0.32683823
-0.00129235 -0.73057342 0.00000008
-0.57024795 -0.57671452 0.17154448
-0.14242190 0.25075111 0.00000543
-0.38923490 -0.13970718 0.13400103
-0.55646825 -0.55694193 0.00000450
-0.64325380 -0.62430507 -0.13523768
-0.16537587 0.47073856 -0.07358210
-0.33698779 -0.19726498 0.00000330
-0.00312081 -0.05425324 0.00000091
-0.30760804 0.05736288 0.03767474
-0.18772346 0.22377948 0.00000467
-0.56905144 -0.57382214 0.06957205
-0.01809788 0.60285294 0.00000403
-0.55395609 -0.53737694 0.03320738
-0.14100914 -0.02052236 0.00000204
-0.15010016 0.52926964 -0.09634963
-0.21788092 -0.01382622 0.00000263
-0.57505924 -0.35973364 -0.24031651
-0.19940943 0.31857362 0.15454119
-0.49795410 -0.14740409 -0.26784775
-0.38215795 -0.64498639 0.00000308
-0.46991768 -0.38863504 0.00000406
-0.11118811 0.53156459 0.04834928
-0.41314450 -0.19743082 0.14422309
-0.50277972 -0.50572813 0.00000416
-0.26552105 0.26668301 -0.11323387
-0.25428483 0.32052371 -0.14132348
-0.30064878 -0.74926627 0.00000233
-0.31361568 -0.70891613 0.00000248
-0.40568671 0.04637883 -0.23738921
-0.03520903 0.05201678 0.00001050
-0.24098581 0.33736667 -0.12527496
-0.40461308 -0.17683499 0.16632651
-0.33800867 -0.01602960 0.00299226
-0.44190183 -0.06819197 -0.20885345
-0.25108138 0.19382146 0.25253406
-0.29921141 0.23874231 -0.16937518
-0.55347961 -0.18496062 -0.36930364
-0.32718974 -0.43265766 0.00000293
-0.57644534 -0.39386842 -0.20794407
-0.30936307 0.27446818 -0.23270895
-0.11029148 0.53372693 0.09967056
-0.15526828 0.42514119 0.13540903
-0.36936226 -0.43837109 0.00000324
-0.50957167 -0.11515125 -0.33124959
-0.40674108 -0.37237728 0.00000360
-0.48600256 -0.42218998 0.00000414
-0.15078515 0.43596417 0.14265251
-0.25366390 -0.71183127 0.00000202
-0.50771242 -0.65449542 0.00000401
-0.30049363 -0.79690641 0.00000227
-0.50816029 -0.42682269 0.19456676
-0.09809676 0.45640808 0.00000393
-0.50777292 -0.68887967 0.00000397
-0.34060493 -0.70806593 0.00000268
-0.19996695 0.16884699 0.00000506
-0.45640567 -0.73096651 0.00000353
-0.56544942 -0.29981685 -0.27892247
-0.40636897 -0.01302333 -0.17666155
-0.02894156 0.49655172 0.00000509
-0.28094339 -0.59431452 0.00000238
-0.04734863 0.33796108 0.00000663
-0.13950823 -0.70041716 0.00000118
-0.42609915 -0.29400119 0.00000385
-0.34513542 -0.30382332 0.00000322
-0.30528879 -0.63866562 0.00000250
-0.38115194 -0.24307743 0.00000357
-0.35049808 -0.04618600 0.09543715
-0.25810489 0.17687552 0.01914187
-0.40554118 -0.17908449 0.36481035
-0.42435631 -0.22450793 0.35202339
-0.17542566 -0.46354893 0.00000174
-0.03832174 -0.65423602 0.00000047
-0.33595389 -0.31282133 0.00000314
-0.41702920 -0.00063535 -0.21674722
-0.11968891 -0.03978153 0.00000185
-0.32654119 0.01164522 0.23346871
-0.33541232 -0.00977474 0.30178139
-0.11735133 -0.59963804 0.00000114
-0.36523676 -0.68217266 0.00000290
-0.49212304 -0.38810378 0.16472656
-0.16010174 0.52300990 -0.11515589
-0.36991036 -0.09305428 0.15438807
-0.17205873 -0.25818300 0.00000198
-0.37584585 0.14339446 -0.26364970
-0.48184729 -0.65540618 0.00000382
-0.20186365 0.44264281 -0.13666138
-0.09087358 0.58060825 0.05310917
-0.38666144 -0.30971906 0.00000353
-0.29211894 -0.69596708 0.00000233
-0.53234410 -0.48520884 0.27005476
-0.35038218 -0.60433263 0.00000289
-0.05781200 -0.04034475 0.00000139
-0.34309110 0.15204309 -0.18959838
-0.17731658 0.05744302 0.00000700
-0.04491814 -0.68858254 0.00000048
-0.28178996 0.11968461 0.23823096
-0.39882457 -0.16286397 0.24921754
-0.51779681 -0.45008883 0.22526462
-0.29078329 0.27567029 -0.18680973
-0.18638161 0.00890823 0.00000739
-0.31016317 -0.40315264 0.00000284
-0.43753964 -0.25632304 0.07381607
-0.18657894 0.34954840 0.17407359
-0.23689307 -0.57228982 0.00000207
-0.28268966 -0.25103533 0.00000282
-0.23357344 0.23609105 0.21938834
-0.17911254 0.30868763 0.00000382
-0.46366552 -0.31940210 0.19153196
-0.68158656 -0.75713038 -0.09288227
-0.29737824 -0.40312311 0.00000274
-0.07918635 0.60882294 0.07342400
-0.45591956 -0.40379971 0.00000393
-0.31722173 0.17571314 -0.14881960
-0.35927117 -0.06737392 0.26812753
-0.29661822 -0.35247678 0.00000280
-0.00219923 -0.75025016 0.00000008
-0.62230361 -0.51141781 -0.20075306
-0.19865543 0.29827636 0.00000348
-0.18247350 -0.46638301 0.00000179
-0.69710010 -0.74102920 -0.14919135
-0.07108369 0.62838775 0.00284136
-0.63397521 -0.55442840 -0.18515673
-0.26886079 0.31711805 -0.17474242
-0.16390508 0.40428862 0.16586205
-0.17826274 0.09523348 0.00000651
-0.34369841 -0.02976823 0.05402125
-0.57399827 -0.58576840 0.23464796
-0.06062186 0.09737863 0.00000932
-0.32844502 0.17795649 -0.17966771
-0.44375673 -0.01457627 -0.26993427
-0.10111808 0.35159078 0.00000516
-0.14419109 0.21761976 0.00000580
-0.26171732 0.07315027 0.00000477
-0.02349270 0.63549417 0.00000349
-0.02780489 -0.70968425 0.00000032
-0.27151686 0.33114493 -0.19623344
-0.28887057 0.10258892 0.27095130
-0.32929459 -0.42694700 0.00000295
-0.27170289 0.12520117 0.00000388
-0.00365006 -0.50123054 0.00000040
-0.11310110 0.52694613 0.04973365
-0.62161499 -0.77172697 0.00000472
-0.02935175 0.33835608 0.00000706
-0.37934643 -0.11583559 0.16544826
-0.46932051 -0.35948879 0.00000409
-0.50294197 -0.79881942 0.00000380
-0.31261462 -0.46137810 0.00000278
-0.34217706 -0.08308725 0.00000348
-0.10584635 -0.32930946 0.00000139
-0.00348623 0.57295614 0.00000475
-0.00163111 -0.16917238 0.00000080
-0.35144800 -0.26369992 0.00000332
-0.35295069 -0.55893803 0.00000296
-0.48674810 -0.37513250 0.27712095
-0.11286185 0.31412625 0.00000535
-0.52136594 -0.15243489 -0.32198623
-0.17013916 0.38472962 0.00000308
-0.18162294 -0.65750688 0.00000155
-0.28698391 0.10714285 0.29230917
-0.22624283 -0.26254565 0.00000238
-0.64473939 -0.61222929 -0.15170573
-0.23145215 0.16301197 0.00000437
-0.24298097 0.35362950 -0.14743939
-0.60105121 -0.65107471 0.02178799
-0.50566304 -0.12589404 -0.31003264
-0.07856679 0.31300345 0.00000619
-0.22538508 -0.50815231 0.00000207
-0.38625747 -0.79089421 0.00000293
-0.10540337 0.54553169 0.01628305
-0.00246205 0.38982740 0.00000707
