ply
format ascii 1.0
element vertex 199
property float x
property float y
property float z
end_header
0.43268067 0.36201149 0.00842769
0.29842272 0.23983805 0.41570649
0.39610249 0.24116719 0.25845617
0.23253614 0.40839323 0.25264272
0.08310564 0.61411798 0.16323252
0.18153273 0.44770899 0.27120534
0.32812199 0.33827138 0.21220008
0.36263746 0.31029928 0.20180748
0.31351429 0.25278777 0.37117001
0.33813673 0.38397121 0.12371062
0.51764739 0.18370695 0.15667284
0.16189890 0.57445467 0.10108482
0.32339990 0.30606923 0.27084497
0.27322218 0.30167660 0.35751605
0.13211460 0.55697507 0.17615153
0.23589672 0.33670497 0.36116418
0.31963214 0.31459722 0.26328450
0.57696795 0.12611821 0.15392222
0.20780014 0.38584819 0.32773668
0.29871783 0.47307131 0.04480373
0.57271886 0.20227362 0.03971599
0.14911748 0.51730144 0.21215846
0.33785811 0.26170278 0.31834683
0.31047302 0.25255498 0.37637001
0.42263260 0.25612804 0.19255757
0.31967396 0.22632141 0.40342215
0.36011955 0.19765189 0.38471904
0.23020282 0.43828985 0.20886528
0.12826605 0.62730223 0.07056676
0.49368608 0.21454416 0.14575209
0.30502790 0.41834798 0.12169678
0.23607710 0.51846641 0.07219436
0.14385134 0.47333443 0.29035297
0.30361852 0.34376577 0.24239112
0.28193277 0.39221051 0.19989102
0.23167804 0.38304913 0.29425836
0.30291751 0.34199747 0.24631298
0.21556509 0.52499533 0.09440320
0.45798701 0.19345009 0.23595458
0.46645203 0.19446974 0.22089043
0.26550600 0.29599291 0.37879834
0.42270494 0.36713380 0.01613620
0.17798077 0.41847327 0.32328033
0.20767242 0.49330077 0.15727800
0.16504060 0.60319990 0.05043991
0.41099074 0.30204159 0.13812509
0.53800571 0.25305510 0.01419523
0.21833016 0.33593202 0.39029181
0.23260903 0.31747037 0.39693516
0.40321344 0.23447041 0.25779840
0.29504383 0.28596720 0.34780839
0.55170977 0.20794654 0.06407388
0.34053725 0.31252798 0.23336856
0.22540174 0.31088230 0.41884562
0.27989385 0.42292061 0.15435375
0.19665816 0.46059498 0.22671627
0.48539424 0.15625732 0.25149664
0.00491555 0.79002285 0.00803656
0.60907292 0.15861689 0.05131457
0.40360060 0.30206341 0.14982794
0.24803679 0.48510680 0.10618309
0.16860101 0.59853280 0.05219765
0.43016317 0.22274019 0.23362578
0.61657143 0.10435466 0.12558772
0.27334064 0.39651877 0.20669483
0.07276359 0.64443189 0.13151212
0.37376827 0.24125382 0.29379079
0.59320319 0.18333654 0.03725854
0.60003340 0.09848153 0.16118255
0.23814715 0.43066823 0.20835277
0.44784814 0.32907709 0.03664626
0.36389631 0.23609741 0.31765953
0.39309877 0.26264524 0.22911409
0.44372976 0.33102533 0.04009301
0.23765333 0.28074390 0.44725442
0.07927019 0.71445948 0.00995638
0.34010190 0.21708240 0.38565147
0.30866054 0.43514827 0.08924389
0.04333895 0.75016880 0.01030885
0.20506443 0.58461934 0.01638234
0.61828774 0.12507655 0.08994991
0.30862656 0.30561289 0.29503343
0.54458374 0.18234091 0.11606042
0.47582337 0.32053539 0.00578069
0.52393252 0.19742385 0.12490433
0.15233354 0.63142771 0.02578887
0.57703692 0.13785084 0.13517819
0.33218881 0.40707457 0.09646325
0.15055843 0.55879450 0.14396854
0.43406117 0.28832570 0.12326761
0.25284615 0.52631950 0.03308787
0.40453786 0.23170669 0.26008439
0.27634394 0.33164141 0.30496633
0.21370181 0.51584566 0.11189467
0.05297783 0.67662013 0.11181377
0.31923223 0.29221979 0.29946062
0.37749189 0.20839365 0.34006694
0.76270831 0.03252394 0.00756988
0.33722144 0.34812838 0.18209223
0.42333594 0.20437464 0.27363858
0.32271811 0.23733844 0.38108948
0.65126169 0.06949154 0.12586226
0.49852866 0.18932143 0.17812113
0.35069826 0.39554366 0.08537948
0.21424815 0.36169255 0.35586086
0.34769002 0.30230328 0.23824760
0.38755220 0.24103568 0.27224499
0.13727959 0.58202660 0.12816019
0.54217017 0.16170134 0.15267490
0.15582500 0.45655176 0.29799095
0.14695884 0.59941941 0.08516294
0.33929238 0.23772793 0.35414693
0.20462064 0.35899687 0.37543312
0.52796805 0.12243320 0.23759980
0.30705416 0.38523558 0.17106982
0.47563311 0.26481307 0.09458465
0.10391112 0.64644533 0.07884442
0.42458975 0.30221766 0.11624662
0.22466840 0.57515174 0.00028308
0.46687189 0.23457569 0.15652473
0.66729856 0.10472273 0.04443503
0.36413550 0.22372158 0.33693555
0.45204693 0.34576669 0.00346997
0.45862696 0.20876393 0.21061578
0.08776967 0.67863977 0.05334811
0.34594759 0.42767936 0.04188481
0.05763671 0.72338867 0.03013415
0.06088081 0.67765987 0.09761053
0.26599550 0.44306302 0.14443655
0.33623555 0.32060155 0.22737788
0.26877582 0.23948795 0.46334907
0.41027382 0.20122617 0.29938495
0.27436900 0.23027828 0.46909297
0.46342066 0.20592710 0.20750773
0.16919500 0.57399142 0.09023244
0.46130478 0.30668154 0.05084361
0.63020706 0.09855166 0.11314741
0.49226519 0.21050523 0.15442371
0.22700347 0.45859793 0.18169235
0.39635676 0.37191731 0.05038659
0.40457118 0.39035365 0.00805816
0.34013435 0.22032529 0.38044938
0.38449177 0.22582629 0.30126202
0.44098467 0.33301267 0.04129655
0.37635267 0.29006639 0.21215928
0.53884792 0.15166643 0.17388959
0.33320895 0.35554442 0.17668650
0.34526291 0.36284477 0.14594674
0.37527913 0.31613323 0.17246331
0.16422410 0.41388309 0.35241964
0.47965151 0.23489472 0.13572061
0.29050973 0.40243399 0.17003112
0.16908050 0.45651761 0.27699223
0.24632007 0.42141068 0.21007550
0.39377096 0.32116058 0.13510863
0.30762857 0.37309039 0.18944725
0.24242368 0.28690201 0.42989731
0.26721257 0.26855510 0.41966599
0.75558811 0.02858886 0.02512857
0.45584744 0.33046165 0.02174221
0.24466655 0.48175323 0.11686229
0.24750127 0.43096805 0.19302000
0.22594173 0.37753171 0.31213206
0.10075155 0.66848940 0.04885095
0.39309072 0.20742740 0.31682682
0.20630468 0.38418835 0.33274806
0.36675888 0.19566736 0.37732610
0.21584968 0.28957039 0.46786526
0.17998776 0.44337636 0.28054041
0.10586099 0.63652420 0.09150478
0.25251040 0.48114756 0.10536614
0.27875835 0.35643503 0.26175317
0.47836789 0.22590542 0.15203673
0.33541131 0.29557276 0.26843894
0.22112153 0.50896019 0.11104616
0.23623048 0.39211613 0.27262729
0.70116156 0.08786322 0.01742897
0.26813275 0.42209324 0.17434756
0.56948662 0.12075276 0.17432632
0.24605429 0.40888020 0.23039915
0.35044122 0.30040067 0.23689985
0.48757279 0.15509838 0.24987721
0.31746110 0.41992456 0.09944555
0.45701006 0.27085325 0.11456956
0.17164980 0.54761243 0.12823018
0.44664723 0.31197706 0.06571302
0.69701368 0.09914342 0.00610098
0.38196164 0.22878020 0.30058894
0.22541618 0.55013329 0.03883132
0.18814774 0.37483373 0.37644321
0.17407745 0.42922935 0.31239641
0.26171228 0.49269682 0.07240784
0.07168814 0.72520113 0.00493809
0.27493662 0.38946167 0.21536848
0.25194922 0.44342399 0.16617240
0.53173184 0.24590147 0.03552164
0.15601648 0.63619345 0.01237011
0.49328074 0.19730771 0.17377190
0.28940529 0.44221368 0.10860460
