ply
format ascii 1.0
element vertex 159
property float x
property float y
property float z
end_header
0.45705771 0.27972540 0.02326988
0.13043563 0.50099033 0.06205365
0.13560337 0.27167070 0.14456737
0.41925588 0.18316278 0.07273179
0.25948143 0.46845597 0.02652614
0.26358765 0.12813431 0.15029269
0.06330282 0.20934705 0.19412437
0.06342996 0.30945563 0.15722609
0.08560061 0.24097008 0.17427537
0.38945130 0.20977247 0.07390789
0.42315021 0.12203860 0.09379910
0.51974267 0.24132858 0.01432899
0.15536219 0.22652075 0.15391429
0.13276850 0.17550214 0.18101202
0.24427611 0.39338937 0.05975682
0.35480875 0.16216055 0.10418720
0.38463870 0.12165583 0.10811677
0.22192299 0.26443931 0.11545403
0.09476769 0.44012696 0.09758819
0.18913259 0.37032577 0.08854618
0.05240102 0.18553671 0.20690240
0.12770461 0.36439493 0.11334181
0.40820780 0.10392586 0.10596728
0.08420352 0.25159642 0.17087793
0.16924125 0.31365535 0.11672967
0.14876068 0.44743201 0.07502361
0.40932730 0.18339226 0.07630220
0.22742550 0.29781541 0.10114225
0.26537392 0.40445521 0.04791682
0.43039358 0.07836260 0.10721059
0.42280066 0.06752287 0.11399598
0.36293173 0.38927263 0.01759305
0.27528381 0.23844142 0.10538140
0.35647991 0.16786300 0.10147285
0.23648448 0.20096654 0.13345906
0.51715839 0.08884151 0.07141347
0.11873101 0.44175014 0.08816948
0.20556647 0.48596019 0.03992958
0.03424376 0.73111171 0.01275190
0.31232920 0.47328785 0.00529325
0.48519632 0.22237550 0.03402307
0.12165887 0.12307539 0.20440069
0.08399598 0.25365663 0.17019594
0.25660688 0.17716400 0.13481383
0.08200669 0.57092923 0.05413538
0.14808491 0.58498180 0.02463795
0.05076288 0.32628462 0.15569399
0.17371105 0.50683969 0.04397000
0.13762569 0.30276749 0.13237573
0.45825523 0.24472319 0.03571398
0.38380933 0.03307498 0.14103024
0.35153592 0.03317864 0.15287247
0.47766206 0.07623230 0.09059444
0.31154588 0.32703799 0.05941874
0.02902103 0.37670043 0.14513861
0.15242171 0.23605071 0.15148859
0.22721940 0.42019689 0.05616737
0.19329055 0.38328257 0.08224599
0.19457687 0.50604469 0.03658158
0.09274795 0.08956361 0.22737935
0.05768035 0.48554948 0.09451978
0.31214204 0.46684772 0.00773287
0.44308612 0.17643543 0.06643592
0.32259223 0.40042689 0.02833665
0.07700041 0.19248147 0.19529060
0.32442081 0.47038913 0.00190919
0.46379936 0.05287297 0.10429652
0.40404025 0.37881634 0.00630943
0.08939480 0.12562414 0.21533926
0.07411322 0.55913872 0.06138133
0.54479980 0.06245350 0.07095207
0.21536212 0.43734404 0.05422008
0.20608512 0.16400895 0.15825409
0.14351115 0.14353915 0.18882358
0.20931952 0.35206658 0.08783660
0.29322559 0.23129198 0.10140855
0.26536602 0.19920003 0.12347769
0.42028755 0.20292982 0.06507542
0.06534611 0.44703001 0.10587752
0.09995775 0.06329363 0.23439571
0.43500897 0.18356985 0.06678295
0.48209545 0.24248588 0.02776157
0.32851240 0.45781195 0.00503288
0.19821776 0.16609830 0.16038103
0.02142157 0.49058536 0.10601330
0.24125183 0.19098702 0.13537775
0.30056426 0.26700416 0.08556078
0.11014373 0.27581498 0.15241380
0.19653267 0.16215441 0.16245314
0.48729029 0.11938144 0.07116616
0.05880508 0.47588351 0.09766394
0.22488748 0.15270218 0.15549490
0.44343260 0.19859132 0.05815240
0.56497878 0.14113487 0.03455985
0.32212102 0.26747847 0.07745075
0.36809027 0.36343709 0.02520462
0.09070763 0.17736214 0.19581045
0.29547441 0.07001388 0.15994979
0.06615342 0.25857374 0.17495394
0.16541111 0.16950245 0.17120445
0.19877665 0.55095351 0.01850385
0.15154272 0.04493759 0.22216378
0.10512430 0.64494121 0.01838040
0.17968795 0.04568406 0.21152839
0.09362722 0.51230764 0.07143721
0.17748666 0.42722243 0.07188864
0.19976090 0.49987254 0.03694533
0.13585308 0.65300053 0.00410182
0.40870202 0.31425902 0.02835803
0.39864224 0.21279033 0.06941362
0.13207915 0.24159865 0.15693465
0.03806503 0.37433958 0.14267847
0.30091584 0.47661668 0.00826931
0.31037664 0.16325904 0.12013906
0.19981852 0.27593797 0.11935813
0.40086025 0.31846493 0.02969645
0.10349640 0.65970528 0.01354474
0.04972632 0.59118420 0.05856202
0.18033645 0.24826583 0.13671626
0.65434134 0.09431575 0.01889886
0.52299374 0.07691852 0.07365444
0.48095205 0.16687562 0.05601594
0.07763572 0.62169015 0.03705852
0.19307455 0.58623040 0.00761685
0.03678087 0.32435372 0.16155173
0.67690492 0.09040655 0.01203186
0.56461239 0.22537631 0.00368397
0.31566155 0.18566467 0.10994569
0.15983033 0.11615789 0.19289574
0.19750506 0.59445441 0.00295850
0.26258656 0.11551415 0.15530688
0.05695356 0.06397956 0.24997358
0.08462996 0.27499783 0.16210654
0.21922204 0.48922426 0.03370116
0.09430922 0.11318836 0.21810800
0.05505554 0.22759533 0.19044283
0.22500803 0.07630160 0.18357474
0.23138294 0.46423072 0.03842508
0.32855839 0.37499192 0.03550346
0.06740759 0.27620620 0.16800149
0.27049893 0.19334954 0.12374186
0.44962752 0.24416570 0.03909521
0.11421704 0.13598330 0.20238853
0.25151226 0.46315524 0.03141103
0.45372322 0.08796321 0.09508839
0.28847468 0.44533938 0.02436284
0.14510269 0.34563315 0.11384385
0.20256621 0.53071612 0.02455858
0.07416835 0.60557425 0.04426741
0.08225644 0.48996830 0.08384638
0.04808504 0.11238478 0.23541950
0.02763177 0.43948865 0.12253672
0.23900841 0.18633379 0.13791651
0.03365089 0.48740718 0.10268147
0.50773239 0.10681866 0.06826565
0.38785475 0.25382593 0.05827875
0.15363827 0.33455288 0.11478061
0.18398768 0.38225937 0.08604715
0.20738402 0.37255639 0.08100643
