ply
format ascii 1.0
element vertex 1142
property float x
property float y
property float z
end_header
-0.13514651 0.47922021 -0.00000001
-0.28059304 -0.55606216 0.00000000
-0.75464416 -0.54870462 -0.00000063
-0.43182325 -0.56631660 0.00000000
-0.35949880 -0.10792267 0.00000000
-0.01016576 -0.53074884 0.00000000
-0.24557324 -0.25732324 0.00000000
-0.47168443 -0.09460988 -0.00000043
-0.13557190 -0.66159087 0.00000000
-0.44321746 -0.30591503 0.00000000
-0.16129012 -0.70414126 0.00000000
-0.02600381 -0.01572595 0.00000000
-0.39711943 -0.52122337 0.00000000
-0.67889613 -0.55416393 -0.00000050
-0.30046034 0.13712236 -0.00000011
-0.61425608 -0.41150019 -0.00000048
-0.15556860 0.62761897 -0.00000036
-0.14591397 0.08665128 0.00000000
-0.08499897 -0.55172724 0.00000000
-0.01560526 -0.22062418 0.00000000
-0.57162464 -0.39439881 -0.00000033
-0.04621210 -0.00484974 0.00000000
-0.75291389 -0.19293380 -0.00000146
-0.57265925 -0.58699769 0.00000000
-0.31197658 -0.66226524 0.00000000
-0.09220433 -0.69850951 0.00000000
-0.05313213 0.68376321 -0.00000002
-0.48022532 0.23698144 -0.00000105
-0.03906614 0.69907832 0.00000000
-0.43757755 -0.66854835 0.00000000
-0.12035867 0.62831384 -0.00000021
-0.13086119 0.37660387 0.00000000
-0.02316697 -0.52709991 0.00000000
-0.06865956 0.17424786 0.00000000
-0.10966812 -0.05692033 0.00000000
-0.21461692 -0.79918915 0.00000000
-0.15674217 -0.72520232 0.00000000
-0.08567770 0.49014574 0.00000000
-0.41365221 0.21276787 -0.00000073
-0.71224618 -0.21648560 -0.00000124
-0.64819115 -0.00532871 -0.00000134
-0.59404808 0.03174428 -0.00000118
-0.75324094 -0.61583507 -0.00000046
-0.40298668 -0.13043402 -0.00000008
-0.20816062 0.23823524 0.00000000
-0.69516927 -0.41393638 -0.00000082
-0.21738431 -0.70842957 0.00000000
-0.78783453 -0.55313861 -0.00000062
-0.46690196 0.13199328 -0.00000081
-0.24757864 -0.08994708 0.00000000
-0.67544878 -0.47961015 -0.00000062
-0.75979751 -0.47879034 -0.00000080
-0.40152851 0.15224971 -0.00000057
-0.10222031 0.01769293 0.00000000
-0.32353073 -0.48623541 0.00000000
-0.44663137 -0.67756414 0.00000000
-0.11967146 -0.11548082 0.00000000
-0.21067224 0.10101460 0.00000000
-0.13769028 0.34923604 0.00000000
-0.26915061 0.30913094 -0.00000028
-0.09509093 0.62942415 -0.00000010
-0.06335727 0.57057714 0.00000000
-0.40451121 -0.52427006 0.00000000
-0.40960568 0.01341501 -0.00000036
-0.01806717 -0.63621855 0.00000000
-0.25685540 -0.73186201 0.00000000
-0.10584895 0.52279061 0.00000000
-0.15968657 0.21518521 0.00000000
-0.52535826 0.13260579 -0.00000106
-0.47134107 0.21492040 -0.00000098
-0.24976717 -0.42616412 0.00000000
-0.31574062 -0.55346411 0.00000000
-0.15974237 -0.44015828 0.00000000
-0.22398156 -0.19260082 0.00000000
-0.32745543 0.34793034 -0.00000060
-0.35022551 0.30131418 -0.00000061
-0.26693901 -0.20568058 0.00000000
-0.58087122 -0.05947897 -0.00000096
-0.67120373 0.02291179 -0.00000149
-0.63655120 -0.39656404 -0.00000060
-0.52536213 0.05004031 -0.00000092
-0.29806459 -0.06615202 0.00000000
-0.29826206 -0.71675080 0.00000000
-0.46284577 -0.60704255 0.00000000
-0.00745176 -0.07010940 0.00000000
-0.04604519 0.67559254 0.00000000
-0.15685146 -0.74489892 0.00000000
-0.15740331 -0.63569796 0.00000000
-0.27913845 -0.44172230 0.00000000
-0.59495705 -0.06366260 -0.00000101
-0.48335370 -0.46924961 0.00000000
-0.48451623 0.16733684 -0.00000095
-0.22326890 -0.32398695 0.00000000
-0.79955143 -0.62749988 -0.00000043
-0.31215885 0.27633396 -0.00000041
-0.74025899 -0.04465292 -0.00000167
-0.18159942 0.10827230 0.00000000
-0.02475540 -0.06341564 0.00000000
-0.27813399 0.12573104 0.00000000
-0.33188751 -0.24749990 0.00000000
-0.01425773 -0.45699751 0.00000000
-0.50827605 -0.71658307 0.00000000
-0.46621439 0.25937933 -0.00000103
-0.56073970 -0.30524215 -0.00000044
-0.33371702 0.06102794 -0.00000012
-0.17254768 -0.75209540 0.00000000
-0.67413610 -0.24967024 -0.00000102
-0.32016262 0.21202730 -0.00000033
-0.20574643 0.09075661 0.00000000
-0.39386275 0.25630832 -0.00000072
-0.33200949 -0.22738653 0.00000000
-0.23129393 -0.23259826 0.00000000
-0.62000442 -0.70992166 0.00000000
-0.39676771 0.10700395 -0.00000047
-0.35422555 -0.54760355 0.00000000
-0.76816189 -0.02828603 -0.00000181
-0.22482654 -0.29480720 0.00000000
-0.64519221 0.03298730 -0.00000140
-0.69257939 -0.49313834 -0.00000067
-0.65947419 0.04711974 -0.00000148
-0.18270072 0.16231494 0.00000000
-0.21605080 -0.77445263 0.00000000
-0.47111642 -0.79687166 0.00000000
-0.19015008 -0.75590599 0.00000000
-0.73276299 -0.14122874 -0.00000146
-0.51878881 -0.05835342 -0.00000070
-0.24035025 -0.32567492 0.00000000
-0.52500260 -0.75584078 0.00000000
-0.21297538 -0.09402743 0.00000000
-0.15137747 -0.35972679 0.00000000
-0.62524021 -0.70775390 -0.00000000
-0.14446081 0.32017621 0.00000000
-0.21503846 -0.12537119 0.00000000
-0.03091135 0.76404792 0.00000001
-0.72497827 0.00435697 -0.00000169
-0.33453906 -0.52556664 0.00000000
-0.14108570 0.52913165 -0.00000012
-0.34607074 -0.60621023 0.00000000
-0.35295501 0.10998593 -0.00000029
-0.19774567 -0.48071441 0.00000000
-0.25203472 0.24058643 -0.00000009
-0.26943696 -0.06177359 0.00000000
-0.23945454 -0.19337493 0.00000000
-0.28081623 -0.67215884 0.00000000
-0.26824731 -0.54641628 0.00000000
-0.73220497 -0.54148382 -0.00000065
-0.38875994 -0.47758409 0.00000000
-0.02528915 0.41425723 0.00000000
-0.36277401 0.26740298 -0.00000061
-0.34068120 -0.39101461 0.00000000
-0.04381671 -0.55737436 0.00000000
-0.69589961 -0.73914748 -0.00000015
-0.38166863 -0.50205976 0.00000000
-0.34071144 0.01610521 -0.00000007
-0.15683424 -0.20724089 0.00000000
-0.73886722 -0.04023217 -0.00000167
-0.39280796 -0.03227040 -0.00000021
-0.16614409 -0.72655541 0.00000000
-0.68201864 -0.01559720 -0.00000147
-0.53242373 0.05270875 -0.00000095
-0.02208386 0.28173944 0.00000000
-0.21915425 0.43770427 -0.00000029
-0.04817533 0.50121301 0.00000000
-0.28370747 0.16986287 -0.00000010
-0.72950566 0.03362555 -0.00000176
-0.36859229 -0.39139479 0.00000000
-0.15517344 -0.13163103 0.00000000
-0.75231487 0.04458159 0.01314687
-0.32326102 0.46190864 -0.00000078
-0.55261540 -0.62742263 0.00000000
-0.06710418 -0.45845044 0.00000000
-0.29054397 -0.21505763 0.00000000
-0.41387850 -0.30864462 0.00000000
-0.46806616 0.33063579 -0.00000115
-0.25139752 -0.56147724 0.00000000
-0.69179934 -0.59576672 -0.00000049
-0.62151057 -0.04471923 -0.00000116
-0.57978237 -0.39792407 -0.00000036
-0.22289814 -0.12861456 0.00000000
-0.11206950 -0.38303480 0.00000000
-0.19382475 0.47606766 -0.00000025
-0.03911387 0.63231099 0.00000000
-0.69176567 -0.42960629 -0.00000078
-0.21342655 0.17870162 0.00000000
-0.71798015 -0.16159765 -0.00000136
-0.14378835 0.63707078 -0.00000033
-0.03655827 0.02578848 0.00000000
-0.00502146 0.54528528 0.00000000
-0.07368550 -0.37201208 0.00000000
-0.25764990 -0.31122333 0.00000000
-0.46577814 -0.00823981 -0.00000056
-0.18390898 0.05543815 0.00000000
-0.30175138 -0.34057856 0.00000000
-0.53542358 -0.42158064 -0.00000013
-0.42741427 0.35120359 -0.00000103
-0.14319944 -0.02108223 0.00000000
-0.61934209 -0.77619356 0.00000000
-0.35537854 -0.79657096 0.00000000
-0.11974990 -0.25200900 0.00000000
-0.13102168 -0.22157654 0.00000000
-0.48717657 -0.48718163 0.00000000
-0.27056330 0.25305846 -0.00000019
-0.42198995 -0.73313874 0.00000000
-0.07275034 -0.69470268 0.00000000
-0.24151771 -0.13038944 0.00000000
-0.65437448 0.14330921 -0.00000160
-0.18638909 0.49209487 -0.00000025
-0.19407053 -0.75574243 0.00000000
-0.65501153 -0.14039209 -0.00000113
-0.25653970 -0.28557169 0.00000000
-0.10761440 0.26027659 0.00000000
-0.66740525 -0.24248514 -0.00000101
-0.02590828 -0.21169035 0.00000000
-0.59009886 -0.59632307 -0.00000005
-0.53533900 -0.24293000 -0.00000044
-0.54110974 0.04909996 -0.00000098
-0.47230229 -0.18875290 -0.00000027
-0.29538926 0.15599485 -0.00000012
-0.33675200 -0.25057283 0.00000000
-0.10404934 -0.08348338 0.00000000
-0.29007098 -0.74608046 0.00000000
-0.40667671 -0.05919020 -0.00000022
-0.01616535 -0.36105672 0.00000000
-0.13724175 -0.72476798 0.00000000
-0.17527395 0.31703526 0.00000000
-0.70922112 -0.33601859 -0.00000102
-0.07791995 0.00767629 0.00000000
-0.03913549 0.73475146 -0.00000005
-0.44512349 -0.67730629 0.00000000
-0.14231804 0.56005788 -0.00000018
-0.60466611 0.15877855 -0.00000145
-0.31607106 -0.30618793 0.00000000
-0.15935503 -0.00325810 0.00000000
-0.57359660 -0.14670233 -0.00000077
-0.02014874 0.49451956 0.00000000
-0.51741976 -0.63631761 0.00000000
-0.20212172 0.43231505 -0.00000021
-0.78485227 -0.13048036 -0.00000167
-0.34817210 -0.42201591 0.00000000
-0.64859486 -0.49088827 -0.00000049
-0.03186046 0.14631543 0.00000000
-0.39806166 -0.79543620 0.00000000
-0.25602344 -0.49842104 0.00000000
-0.45085514 -0.36271349 0.00000000
-0.34077755 0.39053860 -0.00000073
-0.37842262 -0.02846765 -0.00000015
-0.74520397 -0.07179088 -0.00000164
-0.01595797 -0.44835958 0.00000000
-0.44481373 0.30674043 -0.00000103
-0.25234666 -0.69228935 0.00000000
-0.36370847 0.23181348 -0.00000055
-0.25372452 0.42993692 -0.00000043
-0.53579736 -0.63511431 0.00000000
-0.62640756 -0.03168841 -0.00000120
-0.64993846 -0.63749909 -0.00000023
-0.01436284 0.48604146 0.00000000
-0.03465612 -0.27761310 0.00000000
-0.47367188 0.13745452 -0.00000085
-0.39948639 -0.21059524 0.00000000
-0.10432741 0.10818985 0.00000000
-0.26203015 -0.45101905 0.00000000
-0.17137332 0.61527056 -0.00000040
-0.77830875 -0.72054005 -0.00000020
-0.17136791 -0.32023960 0.00000000
-0.28844231 0.17765187 -0.00000013
-0.22415742 -0.21309316 0.00000000
-0.52078849 0.14090449 -0.00000106
-0.36330640 -0.34031853 0.00000000
-0.30913198 -0.26667750 0.00000000
-0.06589243 0.48356631 0.00000000
-0.42501736 0.23557413 -0.00000082
-0.65932101 0.06900478 -0.00000152
-0.38082376 0.31122649 -0.00000076
-0.22133534 -0.30224991 0.00000000
-0.22821873 0.54432094 -0.00000052
-0.64845794 -0.10964789 -0.00000116
-0.06743427 0.71914518 -0.00000014
-0.42653480 0.02034361 -0.00000044
-0.13190970 0.62551659 -0.00000025
-0.03256328 0.21258050 0.00000000
-0.51782084 -0.30327016 -0.00000026
-0.30582073 -0.44811255 0.00000000
-0.52378374 -0.65146601 0.00000000
-0.75438148 -0.50246781 -0.00000074
-0.04242415 0.64255530 0.00000000
-0.03907768 0.09736523 0.00000000
-0.27676564 0.29850790 -0.00000029
-0.65484577 -0.11582114 -0.00000118
-0.46508625 -0.47947076 0.00000000
-0.34054384 -0.36486620 0.00000000
-0.31834322 0.29628932 -0.00000047
-0.06539182 -0.18795510 0.00000000
-0.12618811 0.12977470 0.00000000
-0.16866788 0.42306390 -0.00000005
-0.03772691 0.10718712 0.00000000
-0.09869935 -0.07020449 0.00000000
-0.19962025 -0.65100169 0.00000000
-0.56182146 -0.72268730 0.00000000
-0.10743011 0.18079630 0.00000000
-0.29874241 -0.43295953 0.00000000
-0.19097373 0.55256057 -0.00000038
-0.03974482 0.35384628 0.00000000
-0.64413154 -0.64379549 -0.00000020
-0.19272716 0.06270105 0.00000000
-0.45631194 -0.00840065 -0.00000052
-0.58249366 0.06602683 -0.00000119
-0.49500406 -0.13857919 -0.00000045
-0.34806234 -0.56215280 0.00000000
-0.69294739 -0.26932704 -0.00000107
-0.52052534 -0.14462794 -0.00000055
-0.69280434 -0.56481105 -0.00000054
-0.47705135 -0.24624071 -0.00000019
-0.76375973 0.01985333 -0.00000188
-0.46216899 -0.64258462 0.00000000
-0.27938721 0.00242779 0.00000000
-0.46768621 0.16496617 -0.00000087
-0.24211082 -0.26523861 0.00000000
-0.45850044 -0.24108618 -0.00000012
-0.27820343 0.02843504 0.00000000
-0.72988039 -0.47464469 -0.00000081
-0.76429576 -0.00178802 -0.00000184
-0.52955365 -0.19967757 -0.00000049
-0.10841270 0.30981609 0.00000000
-0.01505855 0.33626860 0.00000000
-0.08049903 -0.65644372 0.00000000
-0.11992209 -0.12726979 0.00000000
-0.05229748 0.51388550 0.00000000
-0.14382292 -0.25574458 0.00000000
-0.29799527 0.29560727 -0.00000038
-0.48954260 -0.51079798 0.00000000
-0.46065366 -0.02282165 -0.00000051
-0.26902756 -0.16974048 0.00000000
-0.42590457 -0.65281492 0.00000000
-0.30235389 -0.42091933 0.00000000
-0.45163873 0.05713610 -0.00000061
-0.05740769 -0.70831233 0.00000000
-0.34751248 0.10245912 -0.00000025
-0.20201612 -0.02848224 0.00000000
-0.09090958 -0.15215626 0.00000000
-0.33929560 -0.28915879 0.00000000
-0.30143505 -0.08121264 0.00000000
-0.69154823 -0.61246306 -0.00000045
-0.53462631 -0.74392074 0.00000000
-0.06769689 -0.07830375 0.00000000
-0.42194009 -0.64341468 0.00000000
-0.67438114 -0.24743082 -0.00000103
-0.48078236 -0.72126293 0.00000000
-0.56338602 0.10202966 -0.00000117
-0.36779815 0.21708000 -0.00000054
-0.05461533 0.16456811 0.00000000
-0.40273827 -0.73964691 0.00000000
-0.75927955 -0.76044500 -0.00000010
-0.24394779 0.38942742 -0.00000032
-0.75015992 -0.63176781 -0.00000042
-0.23444703 -0.16951980 0.00000000
-0.08150036 -0.65892029 0.00000000
-0.30623087 0.32930699 -0.00000047
-0.54063821 -0.34209788 -0.00000029
-0.00094007 -0.03388584 0.00000000
-0.51337433 -0.03831134 -0.00000071
-0.65063012 -0.71437228 -0.00000010
-0.18252201 0.55474925 -0.00000035
-0.03394567 0.15524866 0.00000000
-0.16143411 -0.13768980 0.00000000
-0.14250652 0.08088889 0.00000000
-0.25351313 -0.68460894 0.00000000
-0.24670710 -0.24121374 0.00000000
-0.03745370 0.20706460 0.00000000
-0.31641856 -0.55093765 0.00000000
-0.23797956 -0.13853437 0.00000000
-0.26329815 0.51633024 -0.00000062
-0.02801082 -0.71726602 0.00000000
-0.49090508 -0.65791935 0.00000000
-0.26560995 -0.24808890 0.00000000
-0.00562270 0.10089573 0.00000000
-0.11424252 0.47034863 0.00000000
-0.27196759 0.49659345 -0.00000062
-0.18929394 0.60023457 -0.00000045
-0.36847821 -0.19314145 0.00000000
-0.35001120 -0.41973284 0.00000000
-0.04332404 -0.04095535 0.00000000
-0.21368673 -0.72025132 0.00000000
-0.02998301 -0.72188962 0.00000000
-0.41436419 -0.66066909 0.00000000
-0.72366726 -0.77096695 -0.00000007
-0.43282735 -0.28023458 0.00000000
-0.72837675 0.06695969 0.01272854
-0.43860438 -0.53434235 0.00000000
-0.58209413 -0.46116787 -0.00000025
-0.14800458 0.46841073 -0.00000005
-0.26614252 -0.32623386 0.00000000
-0.41821757 0.20523064 -0.00000073
-0.69184470 -0.46446365 -0.00000072
-0.19202358 0.12870409 0.00000000
-0.38825721 -0.43025917 0.00000000
-0.52207214 -0.71325493 0.00000000
-0.02586276 0.42689246 0.00000000
-0.74972647 -0.78580606 -0.00000004
-0.08160959 0.36795580 0.00000000
-0.37916592 -0.64192808 0.00000000
-0.48106921 -0.16132355 -0.00000035
-0.27455661 0.00870244 0.00000000
-0.17576458 -0.31411448 0.00000000
-0.19210923 0.53088099 -0.00000034
-0.04428037 -0.55952007 0.00000000
-0.06795940 0.42041877 0.00000000
-0.54696256 -0.16729064 -0.00000062
-0.60146832 -0.27318436 -0.00000067
-0.79072702 -0.29894632 -0.00000125
-0.52902180 0.08196587 -0.00000099
-0.72174758 -0.14937618 -0.00000140
-0.39515567 0.35004595 -0.00000089
-0.32579464 -0.27559087 0.00000000
-0.02414198 -0.67699003 0.00000000
-0.22083144 -0.65894830 0.00000000
-0.76998049 -0.76077664 -0.00000010
-0.71786314 -0.44449273 -0.00000086
-0.45777023 -0.72239429 0.00000000
-0.20988172 0.50879401 -0.00000038
-0.44690010 -0.69650894 0.00000000
-0.23909491 -0.24159598 0.00000000
-0.44543445 -0.32226950 0.00000000
-0.10862356 0.68951434 -0.00000024
-0.15642820 0.24340834 0.00000000
-0.73052382 -0.52853686 -0.00000068
-0.04349249 -0.59104300 0.00000000
-0.44098780 -0.43085104 0.00000000
-0.35249794 -0.72044426 0.00000000
-0.39074320 -0.25824502 0.00000000
-0.15664992 0.34143850 0.00000000
-0.21132281 -0.10459931 0.00000000
-0.13700439 -0.54047012 0.00000000
-0.27591890 -0.77356952 0.00000000
-0.11077803 -0.67288190 0.00000000
-0.34372625 -0.76715446 0.00000000
-0.23661359 0.21159969 0.00000000
-0.05635802 0.30867934 0.00000000
-0.47275028 -0.11192773 -0.00000041
-0.22408305 -0.41011325 0.00000000
-0.05285870 -0.18195561 0.00000000
-0.27911922 0.42052394 -0.00000052
-0.19713476 0.27952617 0.00000000
-0.60248995 -0.06175485 -0.00000105
-0.15696375 -0.09274606 0.00000000
-0.18306738 -0.68668580 0.00000000
-0.62193584 -0.26103097 -0.00000078
-0.33790225 0.21991473 -0.00000042
-0.75747514 -0.71567869 -0.00000021
-0.09092962 0.35953584 0.00000000
-0.27672219 -0.07910787 0.00000000
-0.22054118 0.47230861 -0.00000036
-0.76611233 -0.28269282 -0.00000129
-0.67068774 -0.41102502 -0.00000072
-0.05226921 -0.53348815 0.00000000
-0.75099075 -0.01013047 -0.00000177
-0.36104295 -0.33994573 0.00000000
-0.67315477 -0.52275461 -0.00000053
-0.67305148 0.01461409 -0.00000148
-0.12435659 -0.15968774 0.00000000
-0.42129752 -0.07635468 -0.00000025
-0.14851052 0.29989997 0.00000000
-0.29877728 0.49611759 -0.00000066
-0.10123966 -0.15327615 0.00000000
-0.11662203 0.58495414 -0.00000012
-0.24196464 0.26806861 -0.00000009
-0.43624163 -0.71258986 0.00000000
-0.26292297 0.34053966 -0.00000031
-0.36509857 0.10564189 -0.00000033
-0.09560044 -0.48603788 0.00000000
-0.48988119 0.05588772 -0.00000078
-0.62412232 -0.43368500 -0.00000048
-0.27708051 -0.18971375 0.00000000
-0.67091334 -0.24623676 -0.00000101
-0.36437559 0.41231814 -0.00000087
-0.35300255 -0.02236237 -0.00000005
-0.43946254 0.22002968 -0.00000085
-0.11878567 -0.02151843 0.00000000
-0.31632444 -0.07607997 0.00000000
-0.34531584 0.13697781 -0.00000030
-0.43655348 -0.13923340 -0.00000020
-0.25019369 -0.29066360 0.00000000
-0.55512166 -0.72262150 0.00000000
-0.23164250 -0.20632178 0.00000000
-0.12276633 -0.48412123 0.00000000
-0.47817153 0.13887309 -0.00000087
-0.00204649 -0.55432051 0.00000000
-0.07079703 0.42183748 0.00000000
-0.58213800 -0.03477273 -0.00000101
-0.57261550 -0.25953987 -0.00000057
-0.33176315 -0.32031316 0.00000000
-0.07171892 -0.43130699 0.00000000
-0.66710752 -0.57991248 -0.00000041
-0.68105453 0.01481931 -0.00000152
-0.10709732 0.10314605 0.00000000
-0.01264439 -0.32092804 0.00000000
-0.05027442 -0.38734868 0.00000000
-0.76632112 0.01862115 -0.00000189
-0.13479996 0.22133082 0.00000000
-0.14617112 0.12340582 0.00000000
-0.05193026 0.53269756 0.00000000
-0.11523773 -0.12804575 0.00000000
-0.19670619 -0.35999751 0.00000000
-0.31926900 -0.55196923 0.00000000
-0.11859451 0.29913834 0.00000000
-0.22106075 0.03214511 0.00000000
-0.24205758 0.23815605 -0.00000004
-0.11479111 0.37877381 0.00000000
-0.46172258 -0.60373062 0.00000000
-0.22143807 -0.52986974 0.00000000
-0.25690466 -0.36260867 0.00000000
-0.22731522 -0.73585552 0.00000000
-0.61627704 -0.46503288 -0.00000039
-0.16381268 -0.56555027 0.00000000
-0.42044169 -0.62712663 0.00000000
-0.65959662 -0.15008810 -0.00000114
-0.47722954 0.10787321 -0.00000081
-0.39761442 -0.35686168 0.00000000
-0.63805318 0.15036638 -0.00000157
-0.15212084 0.26492161 0.00000000
-0.59131342 -0.66260880 0.00000000
-0.53277403 -0.17250527 -0.00000055
-0.27770936 0.10892388 0.00000000
-0.55525643 -0.07197752 -0.00000083
-0.46994135 -0.47312486 0.00000000
-0.65390253 -0.41450739 -0.00000064
-0.44849521 0.25701338 -0.00000095
-0.46934620 -0.26902792 -0.00000011
-0.65392536 0.01602032 -0.00000140
-0.03841344 -0.00755358 0.00000000
-0.28190029 0.32182091 -0.00000036
-0.75670666 -0.08745610 -0.00000166
-0.64833468 -0.25810587 -0.00000090
-0.03552269 0.67633897 0.00000000
-0.36281165 -0.12315080 0.00000000
-0.55376208 -0.79109102 0.00000000
-0.59019268 -0.59084076 -0.00000006
-0.41677749 0.20353781 -0.00000072
-0.63645637 -0.12924445 -0.00000107
-0.25261250 -0.32772470 0.00000000
-0.59112144 0.05786002 -0.00000121
-0.00621303 0.51261538 0.00000000
-0.25336725 -0.31279302 0.00000000
-0.67507082 0.11806521 -0.00000168
-0.27132195 -0.70839953 0.00000000
-0.58416402 -0.17279612 -0.00000077
-0.01954060 0.40560502 0.00000000
-0.61982846 0.12147641 -0.00000145
-0.56059223 0.15190613 -0.00000125
-0.27025369 -0.53463984 0.00000000
-0.62635231 -0.41635957 -0.00000052
-0.54373235 -0.56121492 0.00000000
-0.23891787 -0.66869450 0.00000000
-0.39809358 0.28997555 -0.00000080
-0.42927703 -0.33619714 0.00000000
-0.71519268 0.00371144 -0.00000164
-0.56523436 -0.15070418 -0.00000073
-0.14776558 0.42129254 0.00000000
-0.57713115 -0.38748252 -0.00000036
-0.32664257 0.41590458 -0.00000072
-0.02182574 0.28451034 0.00000000
-0.06516559 -0.74417114 0.00000000
-0.11546401 -0.29619178 0.00000000
-0.25095677 -0.43085527 0.00000000
-0.37814841 -0.42468977 0.00000000
-0.26788256 0.11703135 0.00000000
-0.25686541 -0.44114196 0.00000000
-0.66109961 -0.56846946 -0.00000040
-0.42880476 0.27160764 -0.00000090
-0.76089740 -0.47495744 -0.00000081
-0.51108432 -0.36346912 -0.00000012
-0.13374929 -0.00377782 0.00000000
-0.77682120 -0.15432183 -0.00000161
-0.62269419 0.17208286 -0.00000155
-0.66257554 -0.17270988 -0.00000111
-0.33586913 -0.57968724 0.00000000
-0.03840084 0.09800427 0.00000000
-0.59224671 -0.75494719 0.00000000
-0.23147888 -0.64197636 0.00000000
-0.70890224 -0.33207327 -0.00000102
-0.21805897 -0.45002213 0.00000000
-0.66846907 -0.41573101 -0.00000070
-0.38927743 -0.76765764 0.00000000
-0.00769969 -0.20453908 0.00000000
-0.19523148 0.45320287 -0.00000022
-0.26319999 0.39883524 -0.00000041
-0.57800567 0.16348964 -0.00000134
-0.40174085 -0.37986124 0.00000000
-0.61805916 0.16243786 -0.00000151
-0.21426345 -0.58251071 0.00000000
-0.67935085 -0.64956534 -0.00000034
-0.52341795 -0.01992170 -0.00000078
-0.13934831 0.48057145 -0.00000003
-0.17354745 0.38734967 -0.00000001
-0.52761054 -0.68685514 0.00000000
-0.24517319 -0.38234860 0.00000000
-0.51184380 -0.61162847 0.00000000
-0.20115942 -0.74501282 0.00000000
-0.44997692 0.13565344 -0.00000075
-0.12332200 -0.31522837 0.00000000
-0.56015706 0.23131923 -0.00000139
-0.66854429 -0.78766841 -0.00000003
-0.17868023 0.45920911 -0.00000016
-0.19787228 0.03857633 0.00000000
-0.54321462 0.22313841 -0.00000130
-0.27786201 0.31899655 -0.00000034
-0.66803938 -0.07101855 -0.00000131
-0.05158720 0.63405752 0.00000000
-0.27093887 -0.42009246 0.00000000
-0.21499421 0.19589520 0.00000000
-0.03421696 -0.02712173 0.00000000
-0.60141236 -0.64903152 -0.00000001
-0.13173693 0.04999240 0.00000000
-0.73001909 -0.65793628 -0.00000036
-0.58865786 -0.21390520 -0.00000072
-0.15177675 -0.03130039 0.00000000
-0.34954703 -0.71418536 0.00000000
-0.16855007 0.53258669 -0.00000025
-0.62070471 -0.37822235 -0.00000057
-0.49198800 -0.20978285 -0.00000031
-0.20456874 0.32760581 -0.00000004
-0.27035132 -0.79268724 0.00000000
-0.12384813 -0.09940565 0.00000000
-0.22101153 -0.27893743 0.00000000
-0.39086565 0.07358778 -0.00000038
-0.16954054 -0.20070128 0.00000000
-0.40577924 -0.09596598 -0.00000015
-0.66034102 -0.42575851 -0.00000065
-0.04619729 -0.01317464 0.00000000
-0.36029336 0.02448472 -0.00000017
-0.71646100 -0.66045892 -0.00000035
-0.33612925 0.34946111 -0.00000064
-0.74855763 -0.04586939 -0.00000170
-0.30170441 -0.58858830 0.00000000
-0.03708881 0.16078316 0.00000000
-0.13511784 -0.32077417 0.00000000
-0.62019324 -0.13401230 -0.00000100
-0.65712351 -0.27865055 -0.00000090
-0.41525805 0.30207005 -0.00000089
-0.20991780 0.06819948 0.00000000
-0.35605690 0.37350559 -0.00000077
-0.05561837 0.73168838 -0.00000012
-0.31702325 -0.23812059 0.00000000
-0.62066466 -0.50149190 -0.00000035
-0.26605153 -0.66052598 0.00000000
-0.03782677 0.16170545 0.00000000
-0.69660538 -0.34302765 -0.00000095
-0.22435674 0.50394577 -0.00000043
-0.42621449 -0.07489784 -0.00000027
-0.62391138 -0.48199716 -0.00000040
-0.19881326 0.51929265 -0.00000035
-0.64015746 -0.60797209 -0.00000024
-0.34067172 0.10470975 -0.00000022
-0.25707364 -0.30121851 0.00000000
-0.15346421 0.18093790 0.00000000
-0.14890458 -0.07783386 0.00000000
-0.03759174 0.03064284 0.00000000
-0.43467587 0.19849990 -0.00000079
-0.75267577 0.04126076 0.01315317
-0.28520527 -0.45837417 0.00000000
-0.02624487 -0.63103664 0.00000000
-0.05033364 0.17243032 0.00000000
-0.07674991 -0.23728190 0.00000000
-0.25731140 0.45405614 -0.00000049
-0.63494819 -0.05041329 -0.00000121
-0.13723528 -0.11844322 0.00000000
-0.35459107 0.07954066 -0.00000024
-0.35103354 0.08576274 -0.00000024
-0.40329441 -0.28243703 0.00000000
-0.04269406 -0.37979105 0.00000000
-0.06404880 0.57440096 0.00000000
-0.16778588 0.16655914 0.00000000
-0.17412002 0.35976890 0.00000000
-0.06925192 -0.50942129 0.00000000
-0.22825687 -0.52676576 0.00000000
-0.41231114 -0.74082273 0.00000000
-0.66499519 -0.22803871 -0.00000102
-0.39873925 -0.10136882 -0.00000011
-0.44423702 0.25529534 -0.00000093
-0.45012179 0.33407444 -0.00000110
-0.46848279 -0.53642726 0.00000000
-0.01556194 -0.17353147 0.00000000
-0.54514390 -0.46561420 -0.00000009
-0.37914824 0.08925453 -0.00000036
-0.55205595 -0.38724500 -0.00000026
-0.02215036 -0.42970473 0.00000000
-0.23062763 -0.48243007 0.00000000
-0.12189797 0.33222666 0.00000000
-0.53021562 -0.75638348 0.00000000
-0.19698846 -0.69687468 0.00000000
-0.22753537 0.52455860 -0.00000048
-0.14138179 -0.55370146 0.00000000
-0.54594082 -0.53280210 0.00000000
-0.49710941 -0.17903285 -0.00000039
-0.49438253 0.23436990 -0.00000111
-0.31823617 -0.78665018 0.00000000
-0.74462140 -0.70180231 -0.00000025
-0.79723084 -0.17739429 -0.00000156
-0.32563105 0.15994893 -0.00000026
-0.34449738 0.27359128 -0.00000054
-0.10640467 -0.27869880 0.00000000
-0.44660103 -0.51937270 0.00000000
-0.48353496 0.13696639 -0.00000089
-0.08091230 -0.70626140 0.00000000
-0.21600275 0.09704241 0.00000000
-0.12700714 0.13938157 0.00000000
-0.34731027 -0.57684040 0.00000000
-0.44881058 0.32997334 -0.00000108
-0.12762778 0.15824841 0.00000000
-0.05112056 0.42917112 0.00000000
-0.20328753 0.06476856 0.00000000
-0.40514556 -0.39282727 0.00000000
-0.06419477 0.52702397 0.00000000
-0.52464545 -0.02359875 -0.00000078
-0.48022321 -0.33588213 -0.00000004
-0.75044268 -0.28662935 -0.00000128
-0.37943769 -0.03421579 -0.00000014
-0.67679286 -0.64082921 -0.00000034
-0.18708690 -0.62611324 0.00000000
-0.68564361 -0.76620728 -0.00000008
-0.09828425 0.57244706 -0.00000002
-0.33095509 0.35020104 -0.00000062
-0.44226402 -0.76145595 0.00000000
-0.09112595 0.60038841 -0.00000004
-0.00056773 -0.53647840 0.00000000
-0.50285715 -0.07120870 -0.00000061
-0.41118458 -0.06834125 -0.00000022
-0.02764717 -0.58048415 0.00000000
-0.10043585 -0.32283121 0.00000000
-0.26938009 -0.22497699 0.00000000
-0.21357830 0.00416157 0.00000000
-0.42920655 0.27322793 -0.00000090
-0.20340551 0.30540678 0.00000000
-0.24409066 -0.44368148 0.00000000
-0.10511072 0.30306369 0.00000000
-0.78567845 -0.74946398 -0.00000013
-0.35275677 -0.67664438 0.00000000
-0.41833925 -0.79037547 0.00000000
-0.70822412 -0.75068188 -0.00000012
-0.64366829 -0.21739890 -0.00000095
-0.60883546 -0.74927342 0.00000000
-0.31188104 -0.59393942 0.00000000
-0.47024366 0.22229387 -0.00000099
-0.46892741 -0.10507575 -0.00000040
-0.28548864 0.25762182 -0.00000026
-0.39674529 0.29618898 -0.00000080
-0.16947310 -0.39556071 0.00000000
-0.32608575 -0.18014795 0.00000000
-0.49955940 0.05177722 -0.00000081
-0.18497622 -0.60193968 0.00000000
-0.41894248 0.36560765 -0.00000102
-0.19507822 0.53250444 -0.00000036
-0.66231030 -0.59430337 -0.00000036
-0.79528826 -0.26933935 -0.00000133
-0.27001873 -0.45738059 0.00000000
-0.00321429 0.21159023 0.00000000
-0.05267801 -0.64925754 0.00000000
-0.13722593 0.15062124 0.00000000
-0.70928079 -0.19466043 -0.00000127
-0.65972304 -0.63136977 -0.00000029
-0.04471222 0.62408322 0.00000000
-0.71190608 -0.71381521 -0.00000022
-0.19677463 0.06190450 0.00000000
-0.16527183 0.43041426 -0.00000005
-0.62038392 -0.59911132 -0.00000017
-0.09192153 0.01790601 0.00000000
-0.00520315 0.00855084 0.00000000
-0.48385715 -0.67961788 0.00000000
-0.10423690 -0.61676514 0.00000000
-0.59708250 0.17341816 -0.00000144
-0.03124271 0.28427839 0.00000000
-0.05053146 -0.03399468 0.00000000
-0.22206374 -0.11314585 0.00000000
-0.31695390 0.07271884 -0.00000007
-0.24936628 -0.36252141 0.00000000
-0.13494259 0.05045031 0.00000000
-0.31597242 -0.36263540 0.00000000
-0.68565452 -0.19712128 -0.00000116
-0.15795393 -0.67154163 0.00000000
-0.00569455 0.03980925 0.00000000
-0.73767340 -0.15185988 -0.00000147
-0.42091548 -0.09608027 -0.00000021
-0.69168413 -0.49742910 -0.00000066
-0.48298365 -0.35283685 -0.00000002
-0.27117434 0.00586091 0.00000000
-0.00499819 -0.00531084 0.00000000
-0.40467614 -0.17203932 -0.00000001
-0.43543303 -0.17599335 -0.00000013
-0.15455292 -0.17319159 0.00000000
-0.17337982 -0.05548026 0.00000000
-0.61975831 -0.21637818 -0.00000085
-0.72472656 -0.38257068 -0.00000100
-0.04419599 -0.53016174 0.00000000
-0.21774919 -0.66227615 0.00000000
-0.27578211 -0.15663421 0.00000000
-0.65320808 -0.08897884 -0.00000122
-0.45874444 -0.33855242 0.00000000
-0.65035516 -0.70580864 -0.00000011
-0.14733247 -0.22062583 0.00000000
-0.31111726 0.24523339 -0.00000035
-0.04726234 0.50966728 0.00000000
-0.02020991 0.29267755 0.00000000
-0.44601622 -0.41512579 0.00000000
-0.69754690 -0.28401148 -0.00000106
-0.25419453 0.37356785 -0.00000033
-0.33708483 0.08043386 -0.00000017
-0.16015910 0.43672088 -0.00000004
-0.30410811 -0.62786263 0.00000000
-0.32672098 0.16532254 -0.00000027
-0.71712929 -0.40417406 -0.00000093
-0.22964139 0.35940319 -0.00000020
-0.32477102 -0.29783747 0.00000000
-0.08646809 -0.52289999 0.00000000
-0.57553649 0.13577759 -0.00000128
-0.04179804 -0.24440847 0.00000000
-0.64835316 -0.63200921 -0.00000024
-0.41888285 -0.01377957 -0.00000035
-0.10916885 -0.07262617 0.00000000
-0.23655149 0.48458844 -0.00000045
-0.40842476 -0.02585813 -0.00000028
-0.36558530 -0.53059828 0.00000000
-0.00993179 -0.43236598 0.00000000
-0.43456727 -0.37369293 0.00000000
-0.41447735 0.19589102 -0.00000070
-0.63888335 -0.44060466 -0.00000053
-0.76533949 0.01133710 -0.00000187
-0.05530642 -0.67883337 0.00000000
-0.10683430 0.13007355 0.00000000
-0.09804040 0.33314171 0.00000000
-0.16883926 -0.28860670 0.00000000
-0.01854282 0.07754151 0.00000000
-0.26180777 0.23474821 -0.00000012
-0.24110714 -0.72861558 0.00000000
-0.18658569 0.54248291 -0.00000034
-0.60662603 -0.37857276 -0.00000051
-0.27711302 -0.76262665 0.00000000
-0.42451337 0.07613992 -0.00000053
-0.01635237 -0.06841298 0.00000000
-0.58188629 -0.08852801 -0.00000091
-0.18167865 0.35469118 0.00000000
-0.69635153 -0.21830951 -0.00000117
-0.29508734 0.15135540 -0.00000011
-0.04462758 -0.42511481 0.00000000
-0.46030959 -0.50063115 0.00000000
-0.20507921 -0.01590126 0.00000000
-0.18075481 -0.52286088 0.00000000
-0.22728521 -0.49731633 0.00000000
-0.28626066 0.36371845 -0.00000045
-0.25777081 0.20782153 -0.00000005
-0.40402284 -0.77049494 0.00000000
-0.00412736 0.29012743 0.00000000
-0.24483769 0.31099358 -0.00000018
-0.02191670 -0.31314895 0.00000000
-0.61686623 -0.01051978 -0.00000120
-0.77817827 -0.76151484 -0.00000010
-0.07623669 -0.35491508 0.00000000
-0.14986055 -0.40294501 0.00000000
-0.30529892 -0.09094735 0.00000000
-0.06784865 -0.36074397 0.00000000
-0.75707197 -0.76862645 -0.00000008
-0.21098053 -0.01106504 0.00000000
-0.56364614 -0.11288245 -0.00000079
-0.50741279 -0.40741387 -0.00000003
-0.27653655 0.34950238 -0.00000038
-0.72189200 -0.47911376 -0.00000080
-0.12897483 0.66902429 -0.00000029
-0.68177795 -0.11203639 -0.00000130
-0.45933220 0.00957640 -0.00000056
-0.21788046 -0.70592248 0.00000000
-0.07064331 -0.71973038 0.00000000
-0.29061872 -0.39916843 0.00000000
-0.47473535 0.15751860 -0.00000089
-0.78041655 -0.33142504 -0.00000117
-0.06168939 -0.03235648 0.00000000
-0.00246975 0.28977534 0.00000000
-0.23633307 0.07848739 0.00000000
-0.78356403 -0.38998157 -0.00000103
-0.44149110 -0.16780646 -0.00000017
-0.47940475 -0.21676376 -0.00000025
-0.19419621 -0.66559869 0.00000000
-0.23431569 0.29469815 -0.00000011
-0.02593513 -0.66849995 0.00000000
-0.71730077 -0.18938445 -0.00000131
-0.61361116 0.06765227 -0.00000132
-0.10944918 0.39915812 0.00000000
-0.40664709 -0.40023485 0.00000000
-0.16160861 -0.05460273 0.00000000
-0.77677459 -0.35595289 -0.00000111
-0.76010770 -0.70981193 -0.00000023
-0.12240654 0.21511327 0.00000000
-0.34199402 -0.39486134 0.00000000
-0.12160022 0.03342053 0.00000000
-0.73847938 -0.70172983 -0.00000025
-0.77152181 -0.29915401 -0.00000125
-0.58633155 -0.21869965 -0.00000070
-0.03242129 -0.60750562 0.00000000
-0.54813868 0.19118533 -0.00000126
-0.57178372 0.18841456 -0.00000136
-0.48235050 -0.19561210 -0.00000030
-0.45550901 -0.17501578 -0.00000022
-0.06757381 0.02905501 0.00000000
-0.66781241 -0.62334967 -0.00000033
-0.10515624 -0.58960748 0.00000000
-0.22076695 -0.76186311 0.00000000
-0.17262575 -0.54283905 0.00000000
-0.04638645 0.10110150 0.00000000
-0.46196654 -0.20054615 -0.00000020
-0.10082523 0.26887578 0.00000000
-0.35450813 -0.74645329 0.00000000
-0.63786882 -0.71185184 -0.00000005
-0.59826714 -0.19936325 -0.00000079
-0.20753302 -0.36260229 0.00000000
-0.50115138 -0.72077572 0.00000000
-0.45528159 -0.15295531 -0.00000026
-0.39843789 -0.40921444 0.00000000
-0.18400899 -0.52311474 0.00000000
-0.04822141 -0.13797826 0.00000000
-0.78744680 -0.34668517 -0.00000113
-0.71919447 -0.37857682 -0.00000099
-0.21905027 0.23930193 0.00000000
-0.10067247 -0.17330508 0.00000000
-0.71056908 -0.01519596 -0.00000159
-0.63611031 -0.69831854 -0.00000007
-0.15100946 -0.76211256 0.00000000
-0.18855952 0.30264261 0.00000000
-0.36067140 0.32762325 -0.00000070
-0.01292845 -0.21005765 0.00000000
-0.03993064 -0.09376775 0.00000000
-0.56302893 -0.33288759 -0.00000040
-0.14787407 0.44068584 0.00000000
-0.49412367 0.17074093 -0.00000100
-0.06053252 0.22247796 0.00000000
-0.22945160 -0.54059416 0.00000000
-0.01717143 0.62447733 0.00000000
-0.69888878 -0.27481315 -0.00000108
-0.53352517 -0.73221123 0.00000000
-0.63794887 -0.73332816 -0.00000001
-0.75165522 -0.70322365 -0.00000024
-0.13162999 -0.58614457 0.00000000
-0.48122069 -0.49686953 0.00000000
-0.64394122 -0.33003065 -0.00000075
-0.35585165 -0.62571681 0.00000000
-0.00500922 -0.13107452 0.00000000
-0.31574807 0.11456433 -0.00000014
-0.03071159 -0.53953236 0.00000000
-0.27468693 0.21209274 -0.00000013
-0.70536065 0.04411791 -0.00000167
-0.43512058 0.19710632 -0.00000079
-0.30899322 0.06806328 -0.00000002
-0.77873772 0.00221521 -0.00000191
-0.18530472 0.54636931 -0.00000034
-0.19878082 -0.48508614 0.00000000
-0.34002796 -0.09850927 0.00000000
-0.15421717 -0.41420287 0.00000000
-0.10295551 -0.34759405 0.00000000
-0.35482973 0.06847965 -0.00000022
-0.00501137 0.32423675 0.00000000
-0.71112221 -0.65590960 -0.00000036
-0.62001348 -0.65970457 -0.00000007
-0.23745155 -0.43399474 0.00000000
-0.26853743 -0.56913710 0.00000000
-0.29651910 -0.71686512 0.00000000
-0.12077643 0.20445418 0.00000000
-0.41476139 0.28296143 -0.00000086
-0.16702238 -0.05636889 0.00000000
-0.51140451 -0.05743309 -0.00000067
-0.25613344 0.26008952 -0.00000014
-0.00979662 0.34669921 0.00000000
-0.04543477 -0.54745513 0.00000000
-0.09439736 0.02505757 0.00000000
-0.12260499 -0.02551616 0.00000000
-0.15518244 -0.30999875 0.00000000
-0.43367812 -0.21567224 -0.00000006
-0.29748228 -0.16653910 0.00000000
-0.33880475 -0.61641723 0.00000000
-0.27454472 0.00815592 0.00000000
-0.13622540 -0.18457413 0.00000000
-0.76533967 -0.18678555 -0.00000152
-0.69533777 0.07021479 -0.00000168
-0.17022355 0.47361633 -0.00000015
-0.12883997 -0.69951355 0.00000000
-0.42495304 0.09757450 -0.00000057
-0.30394304 0.37154758 -0.00000054
-0.51499951 0.14870346 -0.00000105
-0.78469002 -0.13549212 -0.00000166
-0.07498470 0.25407386 0.00000000
-0.21123578 0.53929651 -0.00000044
-0.14848591 0.33261120 0.00000000
-0.06368088 -0.34428459 0.00000000
-0.08292900 0.63965040 -0.00000007
-0.11247058 -0.41943425 0.00000000
-0.37689513 -0.73082483 0.00000000
-0.55192709 -0.62402755 0.00000000
-0.75899744 -0.67393106 -0.00000032
-0.12146509 -0.74494022 0.00000000
-0.36630839 -0.43853661 0.00000000
-0.58211738 0.02126023 -0.00000111
-0.23026216 0.22812387 0.00000000
-0.47271153 -0.04355518 -0.00000053
-0.04391655 0.12884347 0.00000000
-0.75433511 -0.07162804 -0.00000168
-0.68150353 -0.12081760 -0.00000128
-0.16850673 0.49951416 -0.00000019
-0.52558482 -0.41478422 -0.00000010
-0.42032948 0.32400790 -0.00000095
-0.02171597 -0.77695805 0.00000000
-0.60757744 -0.08782073 -0.00000102
-0.49565858 -0.23173580 -0.00000029
-0.58351433 -0.23404796 -0.00000066
-0.54491812 -0.37874919 -0.00000024
-0.68192536 -0.42981574 -0.00000074
-0.24707618 0.43592685 -0.00000041
-0.41618806 -0.24280792 0.00000000
-0.00993539 0.71247226 0.00000000
-0.37782198 -0.73569959 0.00000000
-0.00707353 0.51021725 0.00000000
-0.52261996 -0.21399197 -0.00000044
-0.09955497 -0.77450961 0.00000000
-0.17630705 -0.03386441 0.00000000
-0.38134745 0.27453437 -0.00000070
-0.17650643 -0.39052713 0.00000000
-0.08244538 -0.44239911 0.00000000
-0.61661279 0.12021500 -0.00000143
-0.21110381 -0.41385323 0.00000000
-0.35332996 -0.69194412 0.00000000
-0.18091387 -0.03825840 0.00000000
-0.58483189 -0.23993589 -0.00000066
-0.77105522 -0.33119881 -0.00000117
-0.29518941 0.50466251 -0.00000074
-0.42969131 -0.65783226 0.00000000
-0.05429172 0.30516383 0.00000000
-0.22688024 0.54994118 -0.00000053
-0.07894440 -0.01048448 0.00000000
-0.00207833 0.00487997 0.00000000
-0.71028912 -0.12203552 -0.00000140
-0.02900437 -0.30194113 0.00000000
-0.56892097 -0.11820373 -0.00000080
-0.26524261 -0.17553581 0.00000000
-0.01733830 -0.42471343 0.00000000
-0.26291984 0.35442078 -0.00000033
-0.52303666 -0.50404292 0.00000000
-0.49431935 0.30114275 -0.00000123
-0.39643148 0.34449455 -0.00000089
-0.11937694 -0.05810664 0.00000000
-0.53943151 -0.34901279 -0.00000027
-0.15857565 0.11996976 0.00000000
-0.41329196 0.38093138 -0.00000102
-0.00483889 0.60478789 0.00000000
-0.43353531 -0.41203681 0.00000000
-0.15070084 -0.42047730 0.00000000
-0.18747075 0.32532570 0.00000000
-0.79822236 -0.36442402 -0.00000109
-0.21018796 0.22858216 0.00000000
-0.04608580 -0.47443998 0.00000000
-0.68198466 -0.65209025 -0.00000034
-0.50222290 0.18624105 -0.00000106
-0.14533851 -0.58114827 0.00000000
-0.22071940 0.37933969 -0.00000020
-0.16307127 0.37293407 0.00000000
-0.00245556 -0.05806266 0.00000000
-0.77692354 -0.72008234 -0.00000020
-0.68052590 -0.29811248 -0.00000096
-0.51835257 -0.79495865 0.00000000
-0.16916788 -0.33670932 0.00000000
-0.07836633 0.57644004 0.00000000
-0.78796220 -0.56939012 -0.00000058
-0.60591513 0.01218017 -0.00000119
-0.19695655 -0.65826845 0.00000000
-0.68293047 -0.05898328 -0.00000140
-0.00524193 0.52319580 0.00000000
-0.53673100 0.13950582 -0.00000112
-0.45205033 -0.02468128 -0.00000047
-0.76262784 -0.40557379 -0.00000099
-0.28847575 0.47757861 -0.00000066
-0.34083855 0.37536782 -0.00000070
-0.15851772 0.27479935 0.00000000
-0.23735330 0.01637334 0.00000000
-0.50771880 0.15341216 -0.00000102
-0.79350102 -0.73142260 -0.00000017
-0.49856362 -0.46625838 0.00000000
-0.62212616 -0.30354792 -0.00000070
-0.36868036 -0.30554932 0.00000000
-0.68979800 -0.24197942 -0.00000110
-0.16022095 -0.29698026 0.00000000
-0.27028769 -0.40476397 0.00000000
-0.58793473 -0.32600722 -0.00000052
-0.33447385 -0.57696867 0.00000000
-0.27122080 -0.47595626 0.00000000
-0.21907233 -0.50347185 0.00000000
-0.79308188 -0.24291107 -0.00000139
-0.06493193 -0.71881253 0.00000000
-0.68691570 -0.56473470 -0.00000052
-0.12143741 0.12492148 0.00000000
-0.39363649 -0.74854630 0.00000000
-0.57838941 -0.08662904 -0.00000090
-0.50375694 -0.39978316 -0.00000003
-0.70598537 -0.64335066 -0.00000039
-0.07489655 0.47865775 0.00000000
-0.08498213 -0.60990357 0.00000000
-0.50762939 -0.61300260 0.00000000
-0.73725277 -0.40582329 -0.00000099
-0.17196392 -0.02278668 0.00000000
-0.04210355 -0.39020741 0.00000000
-0.16067460 -0.14254999 0.00000000
-0.25834492 0.33844584 -0.00000029
-0.29258806 0.33015946 -0.00000042
-0.41590720 -0.30553132 0.00000000
-0.38067636 -0.52368385 0.00000000
-0.06599999 -0.48009670 0.00000000
-0.33822662 -0.50321519 0.00000000
-0.62745625 0.14586370 -0.00000152
-0.12370133 -0.65216482 0.00000000
-0.79397768 -0.34156105 -0.00000115
-0.24378778 -0.67590183 0.00000000
-0.12096391 -0.17625824 0.00000000
-0.32434624 -0.33135843 0.00000000
-0.55701357 -0.30242696 -0.00000043
-0.04971053 -0.43669251 0.00000000
-0.13830400 -0.48649520 0.00000000
-0.42430452 0.09725142 -0.00000057
-0.03994948 0.14065447 0.00000000
-0.71379948 -0.63321078 -0.00000042
-0.09199629 -0.46414039 0.00000000
-0.21450751 -0.42106116 0.00000000
-0.57340485 -0.02750564 -0.00000098
-0.76711398 -0.76263219 -0.00000009
-0.73151398 -0.39355865 -0.00000101
-0.02789937 -0.20237225 0.00000000
-0.75474924 -0.03824854 -0.00000174
-0.75059420 -0.38330740 -0.00000104
-0.77653992 0.02146465 -0.00000194
-0.54709202 -0.36909398 -0.00000027
-0.44767159 0.20124814 -0.00000085
-0.57510406 -0.04401127 -0.00000096
-0.19782466 -0.16014133 0.00000000
-0.60385847 -0.75812232 0.00000000
-0.17083269 0.07836031 0.00000000
-0.37942749 -0.27288377 0.00000000
-0.09992888 -0.66233236 0.00000000
-0.78783143 -0.07082892 -0.00000182
-0.30586755 0.24289893 -0.00000032
-0.38700104 0.18401413 -0.00000056
-0.39629358 0.18633050 -0.00000061
