ply
format ascii 1.0
element vertex 1371
property float x
property float y
property float z
end_header
-0.08779286 -0.18629563 0.00000220
-0.05057446 0.44794013 0.00000281
-0.06412081 0.57952509 0.00000306
-0.59699113 -0.71303143 -0.00000339
-0.45910185 -0.30838598 0.22194243
-0.36340707 -0.07736434 0.38433007
-0.23681840 0.20113945 -0.00000083
-0.38309401 -0.51544628 0.00000360
-0.12055790 0.38497405 0.00000597
-0.39950001 0.09473224 -0.11016297
-0.47187828 -0.33922551 0.08916619
-0.07222055 -0.24200828 0.00000194
-0.17454425 -0.66735886 0.00000165
-0.13295207 0.29792386 0.00000375
-0.51430098 -0.64978489 -0.00000273
-0.02501477 0.25319593 -0.00000618
-0.08422507 0.39160325 0.00000361
-0.39906400 -0.16343524 0.08067168
-0.23354059 -0.62013873 -0.00000096
-0.20739827 0.04481546 0.00000086
-0.32418254 -0.68106199 -0.00000166
-0.04472596 0.11855143 0.00000203
-0.07221818 0.59685094 0.00000212
-0.29185184 0.22615637 -0.05556219
-0.51683817 -0.61439229 0.00000436
-0.12261191 0.04213799 -0.00000746
-0.68088062 -0.75538769 -0.03756344
-0.45981368 -0.00912243 -0.12790596
-0.14858079 -0.18380839 0.00000266
-0.24861210 0.13705086 0.00000084
-0.45197568 -0.28923397 -0.00081370
-0.58449870 -0.00947308 -0.25569622
-0.06428738 0.64479349 0.03320222
-0.01575396 -0.08936136 0.00000168
-0.54317421 -0.51135360 0.17947687
-0.20656202 0.51213502 -0.08959743
-0.29405898 0.42331298 -0.14162553
-0.33685642 -0.01326301 0.33375818
-0.22141938 0.26543797 0.09185730
-0.19330313 0.14886908 0.00000701
-0.51921880 0.12027008 -0.24385822
-0.64016750 -0.47058047 -0.11683771
-0.52337793 -0.78921954 -0.00000313
-0.19291250 0.14330639 0.00000707
-0.00053946 0.13849618 -0.00000921
-0.55663729 -0.54385022 0.03220342
-0.28532290 0.28475108 -0.07376769
-0.59956164 -0.08864591 -0.23750286
-0.51586300 -0.44541240 0.04140278
-0.62178037 -0.70112168 0.13882374
-0.45545344 -0.47340501 0.00000425
-0.49542559 -0.39607607 0.13888334
-0.02997075 -0.33183742 0.00000140
-0.51575862 -0.79831797 0.00000390
-0.47023339 -0.50400712 0.00000429
-0.37594390 -0.58473424 0.00000337
-0.20751649 -0.70152579 -0.00000101
-0.38460631 0.27317669 -0.17072287
-0.26129013 0.35667907 -0.07967962
-0.02459246 -0.09195205 0.00000162
-0.51099302 -0.43366404 0.29264052
-0.36025196 -0.02861318 -0.01746695
-0.05756188 0.03927542 0.00000253
-0.26317411 0.16464480 0.03214513
-0.47544146 -0.17476874 -0.07354157
-0.38902550 -0.13920576 0.21473856
-0.11664906 0.20357607 -0.00000441
-0.00610300 0.22164146 0.00000252
-0.01210075 -0.41212952 0.00000090
-0.67248835 -0.82353853 0.11310916
-0.47689490 0.09740311 -0.19071155
-0.14953669 0.13581708 -0.00000477
-0.09113753 0.19112935 0.00000193
-0.40990639 -0.05889384 -0.05554651
-0.67814764 -0.63310411 -0.08673228
-0.35090445 -0.26808533 0.00000398
-0.24852002 0.18037588 0.00000095
-0.00292713 0.47274647 0.00000722
-0.62549460 -0.12663786 -0.24796481
-0.67732634 -0.44070562 -0.16766291
-0.09450664 0.27661657 0.00000340
-0.25948996 0.17352018 0.25558838
-0.29818360 0.08011231 0.08567521
-0.09897906 -0.56830418 -0.00000002
-0.00326472 -0.52433246 0.00000071
-0.25639230 0.45016490 -0.11438877
-0.44165173 -0.59408662 -0.00000215
-0.55497364 0.00207808 -0.23031153
-0.51568439 -0.47075706 0.00000471
-0.05973455 -0.20147611 0.00000195
-0.35009125 -0.63822525 0.00000305
-0.22211493 0.26375421 0.19905998
-0.04687047 0.59366840 0.00000129
-0.55725440 -0.54534609 0.20451677
-0.34158320 0.08191349 -0.04528317
-0.46522504 -0.32317189 0.29646267
-0.03955156 -0.06227897 0.00000214
-0.06963215 0.25880356 0.00000317
-0.72473471 -0.56865880 -0.16192422
-0.35588341 0.05143547 -0.04700236
-0.29033202 -0.53661479 -0.00000109
-0.27016895 -0.61171898 0.00000251
-0.29006073 0.09972555 0.01903141
-0.25952710 0.17343559 0.20390446
-0.15392444 0.60225785 -0.07389143
-0.12812424 0.49067195 0.12247482
-0.52363151 -0.15968635 -0.12939877
-0.14699028 -0.23734844 0.00000052
-0.27162670 0.14423142 0.12320911
-0.51473517 0.12467226 -0.24112842
-0.58406671 -0.32097589 -0.12285879
-0.25442780 0.18574900 0.07529566
-0.35863084 -0.41909457 0.00000366
-0.21725938 0.27547619 0.20867588
-0.43948001 -0.26101887 0.32555825
-0.08632496 0.49384810 0.00000389
-0.00427015 0.67454236 0.00000366
-0.28481913 -0.79185179 0.00000217
-0.18182155 0.36103391 0.16699367
-0.22150797 0.26523683 0.00232310
-0.62455401 -0.58058100 -0.05406452
-0.18735002 0.34768910 0.08985045
-0.23699746 0.22782702 0.13918443
-0.20719240 0.51946850 -0.09336148
-0.09580011 0.12588434 0.00000304
-0.25412443 0.31077064 -0.05281665
-0.26339341 0.17109949 -0.00296427
-0.28173681 0.23543782 -0.04912810
-0.05994109 0.05820773 -0.00000903
-0.48055471 0.07315264 -0.18415817
-0.18780243 0.21412407 0.00000646
-0.58410607 -0.63519141 0.00000482
-0.63769486 -0.35099935 -0.16512501
-0.04030581 0.59395975 0.00000379
-0.63352974 -0.72948642 0.06943209
-0.27136902 0.14485057 0.04132274
-0.27006139 0.42142775 -0.11620081
-0.07276424 -0.76303043 0.00000064
-0.06584528 0.10536282 0.00000276
-0.16077068 0.37808161 0.00000416
-0.38015946 -0.56213637 -0.00000170
-0.70000693 -0.51079057 -0.16114711
-0.41513921 -0.20225392 0.30543880
-0.40617937 0.01478965 -0.08303928
-0.34359488 0.24863137 -0.11820840
-0.46495164 0.11195106 -0.18463998
-0.39072392 -0.32400293 0.00000414
-0.12460639 0.14057766 -0.00000543
-0.09534071 -0.54267317 0.00000007
-0.05927905 0.17648380 0.00000289
-0.14578965 0.44802489 0.09443484
-0.28215216 0.21336302 -0.04017513
-0.08708064 0.46067282 0.00000381
-0.28357375 -0.35277345 0.00000326
-0.06557749 -0.65204302 0.00000086
-0.62993674 -0.14118397 -0.24634041
-0.10616734 0.13348197 -0.00000613
-0.53162798 -0.76629453 -0.00000312
-0.36404733 0.04209484 -0.05141368
-0.21284862 0.28612954 0.09566046
-0.32649281 0.01176792 0.07724769
-0.03179262 0.46970097 -0.00000165
-0.19031508 0.28641213 0.00000569
-0.11234435 -0.32052887 0.00000205
-0.06122314 0.65218955 0.04098133
-0.12095191 0.50799178 0.02240110
-0.42710678 -0.41965520 0.00000417
-0.30184620 0.21402398 -0.06066372
-0.17501776 -0.00708720 0.00000330
-0.52975611 -0.23910390 -0.10192901
-0.44290151 -0.26926748 0.05052200
-0.01172297 0.36916481 0.00000301
-0.35439773 -0.23039047 -0.00000071
-0.05729770 0.38087952 0.00000338
-0.33551503 0.02628558 -0.01541276
-0.66040136 -0.55817142 -0.10037132
-0.24952438 0.19759923 0.01345381
-0.02727116 0.02841351 0.00000228
-0.36184580 -0.07359510 0.38467483
-0.03985798 0.23502181 0.00000289
-0.31001859 0.20278194 -0.06427115
-0.13436029 -0.15790285 0.00000262
-0.28155123 -0.45154309 -0.00000083
-0.11048559 0.42292360 0.00000389
-0.15819229 0.24190574 0.00000380
-0.62868562 -0.71779200 0.13705346
-0.04602311 -0.27852087 0.00000103
-0.63067082 -0.29488247 -0.18176861
-0.14822799 0.15914228 0.00000352
-0.22458860 0.08105716 0.00000085
-0.02363988 0.68879403 0.00000249
-0.50144128 -0.41060467 0.29790630
-0.16658502 0.18539317 0.00000146
-0.71827384 -0.62919196 -0.12956711
-0.20976395 0.51560885 -0.09435943
-0.26245470 -0.25235538 -0.00000021
-0.14708725 0.60836152 -0.06947011
-0.39097242 0.08401459 -0.09685775
-0.09781205 0.51760677 0.00000270
-0.26392428 -0.44247352 0.00000288
-0.43883308 -0.25944615 0.06839208
-0.65936375 -0.79185367 0.00736364
-0.25074328 0.19464885 0.11000346
-0.43043297 0.07921143 -0.13530345
-0.25196875 0.19168271 0.14544480
-0.44262059 0.18788292 -0.19399843
-0.29391539 0.09041077 0.26940257
-0.15710385 0.55640470 -0.05766524
-0.41093759 0.05022661 -0.10297965
-0.43760095 -0.79670839 -0.00000263
-0.15284045 -0.03694161 0.00000099
-0.27843832 0.12778299 0.05803817
-0.47159880 -0.33855858 0.27322032
-0.13548058 0.47291569 0.08886231
-0.24570360 0.20680698 0.17406504
-0.47617622 -0.19653573 -0.06504407
-0.08488516 0.41723470 0.00000368
-0.61279881 -0.63684794 -0.01808812
-0.17235979 0.45144448 -0.02870881
-0.43723920 -0.25561024 0.35348285
-0.64854321 -0.43427357 -0.14086304
-0.15652625 -0.61406198 -0.00000048
-0.02176193 -0.65673120 0.00000023
-0.68709566 -0.70559052 -0.06510530
-0.52044890 0.00450800 -0.19591718
-0.41168480 -0.10680969 -0.03700608
-0.21414861 0.28900509 -0.00254385
-0.25232627 0.19083022 0.07263527
-0.29169713 -0.06304059 0.00000008
-0.59523910 -0.55697326 -0.03401882
-0.22002477 -0.18296903 0.00000320
-0.46666950 0.03464699 -0.15354427
-0.20142278 -0.77968948 -0.00000116
-0.32628826 0.01225499 0.29144285
-0.44205740 -0.26724026 0.30137821
-0.67380557 -0.54333583 -0.12043041
-0.29414767 0.29900235 -0.08888196
-0.19543536 0.39802741 -0.02968285
-0.26951958 -0.26108772 -0.00000028
-0.15633206 0.32321677 0.00000594
-0.35572838 0.33605882 -0.16781837
-0.13391762 0.06763826 -0.00000661
-0.27188361 0.05308574 -0.00000273
-0.50316267 -0.28096687 -0.05684937
-0.11155062 -0.62812860 -0.00000024
-0.55916426 -0.51826087 -0.01345670
-0.65231796 -0.70072634 -0.03148832
-0.60131381 -0.22753618 -0.18026951
-0.02899247 0.23305100 0.00000280
-0.59964002 -0.51547899 -0.05617044
-0.23732156 -0.53663401 -0.00000077
-0.01889424 0.21604528 0.00000950
-0.44231182 -0.26784565 0.09347940
-0.08287745 0.46632691 0.00000584
-0.47216619 -0.33992554 0.20611982
-0.02244368 0.67341031 0.00000385
-0.36654351 -0.25924089 -0.00000086
-0.17386932 0.11827916 0.00000767
-0.06306774 -0.04299576 0.00000151
-0.32942171 -0.14182572 0.00000413
-0.08015238 0.34270035 0.00000237
-0.61622723 -0.22039460 -0.19860719
-0.16723851 0.39624030 0.14758342
-0.15599349 0.09341603 0.00000129
-0.01564363 0.69169254 0.00000480
-0.04793596 0.06570560 0.00000187
-0.24138149 -0.22961774 -0.00000003
-0.40477061 -0.49959192 -0.00000169
-0.13892089 -0.77057303 -0.00000076
-0.48653994 -0.37462729 0.21334000
-0.40736925 -0.67284871 0.00000339
-0.10881687 -0.60721800 -0.00000017
-0.06178430 -0.49581891 0.00000039
-0.03770623 -0.76046451 -0.00000013
-0.23101637 -0.06535480 0.00000044
-0.36756377 0.14478614 -0.09866775
-0.18924584 0.34311288 0.07268469
-0.08594757 -0.31317436 0.00000070
-0.21595447 0.27863344 0.13424348
-0.06184532 -0.18915632 0.00000199
-0.13353623 0.21127289 0.00000354
-0.18854546 0.50699255 -0.06892568
-0.25455918 -0.50886887 0.00000265
-0.14309144 0.49980718 -0.01923049
-0.35585142 0.06238615 -0.05162397
-0.15902639 0.41606724 0.14610021
-0.54080082 0.10250143 -0.25845106
-0.04182138 0.47889916 0.00000645
-0.50313000 -0.41504254 0.00000476
-0.12008888 0.13931581 0.00000325
-0.47206793 -0.31580683 -0.01013596
-0.39059891 -0.14300385 0.20394287
-0.12599175 0.15783659 0.00000335
-0.27705304 0.20289001 -0.03049178
-0.40799590 0.09847671 -0.12046920
-0.25346833 -0.67695861 -0.00000122
-0.35821266 -0.67048087 -0.00000184
-0.51642706 -0.55975427 0.00000450
-0.14532335 0.48129994 -0.01365441
-0.31979110 -0.36721596 -0.00000085
-0.59952810 -0.23835498 -0.17383901
-0.37777317 -0.69677298 0.00000311
-0.27836547 0.12795757 0.08876663
-0.29201814 0.09499541 0.21519250
-0.31004094 0.05148884 0.01981661
-0.38144470 -0.00775138 -0.04807429
-0.24908428 -0.31963709 -0.00000030
-0.33936487 -0.54922924 0.00000319
-0.12950501 -0.23859562 0.00000238
-0.33613679 -0.38253063 0.00000358
-0.32468163 0.01614270 0.02584646
-0.14827436 -0.26955678 0.00000043
-0.23642246 -0.58246405 0.00000233
-0.40089779 0.06831702 -0.10036689
-0.22431033 0.01476220 0.00000779
-0.56197197 -0.64651587 0.00000462
-0.31205767 0.04662080 0.15936767
-0.08214006 -0.47130485 0.00000144
-0.28969800 -0.24868839 0.00000356
-0.02137421 0.60288614 0.00000367
-0.10889962 -0.19919046 0.00000232
-0.30474063 -0.18438820 0.00000384
-0.21626809 0.27787605 0.05141452
-0.24065339 0.21900275 0.09305233
-0.59360062 -0.03825022 -0.25280558
-0.32331903 0.01942238 0.25990675
-0.44869212 -0.28325088 0.13493786
-0.35022984 0.18263868 -0.09696729
-0.30568409 0.06200040 0.25181786
-0.14296228 0.27647553 -0.00000216
-0.36387666 -0.07849276 0.32303242
-0.19328954 0.33334726 0.17739710
-0.25485011 0.18472821 0.10455277
-0.35811153 -0.06456344 0.00020499
-0.20690373 0.30048510 0.11531198
-0.06468770 0.54195186 0.00000541
-0.25951301 0.17347419 0.14673680
-0.10033507 -0.42654109 0.00000033
-0.41016717 -0.64277284 0.00000349
-0.59499155 0.02588048 -0.28148946
-0.35551357 -0.05829968 0.19605702
-0.53850344 -0.64799491 -0.00000287
-0.02845397 0.73130272 0.02259755
-0.36939203 -0.72187558 -0.00000203
-0.19260933 -0.15474118 0.00000045
-0.39087121 0.00385670 -0.06268068
-0.61769876 -0.01738599 -0.28639994
-0.28332373 0.11598357 0.23699417
-0.04489128 0.22099138 -0.00000623
-0.26458853 -0.73000218 0.00000217
-0.47541570 0.16086101 -0.21616468
-0.19973507 -0.30729726 0.00000003
-0.18994929 -0.22939346 0.00000286
-0.01225670 -0.03532371 0.00000200
-0.24702546 0.20361885 0.10003042
-0.14552466 0.32060509 0.00000390
-0.03022726 0.29873900 0.00000256
-0.22214731 0.26368402 0.01140067
-0.22814092 0.06403503 0.00000388
-0.74077820 -0.65191634 -0.14299971
-0.38543658 -0.35328489 0.00000402
-0.28407537 -0.23533697 -0.00000030
-0.03794443 0.74288130 -0.01465444
-0.36319040 0.06612268 -0.06074673
-0.44773252 -0.34287670 0.00000452
-0.31212940 -0.37755207 -0.00000083
-0.29520344 0.19740261 -0.04677989
-0.26816571 -0.32580302 0.00000321
-0.32902355 -0.73428175 0.00000265
-0.59877592 -0.64558538 0.14265316
-0.20980137 -0.37135266 0.00000265
-0.07770764 0.51986550 0.00000389
-0.63364241 -0.53098272 -0.08447024
-0.56559132 -0.77384828 0.00000433
-0.15483480 -0.51399385 -0.00000022
-0.65838594 -0.56383347 -0.09589685
-0.08766668 -0.13118629 0.00000233
-0.53739253 -0.23841150 -0.11005888
-0.19224235 0.26433797 0.00000411
-0.45525391 -0.09367907 -0.08729229
-0.36626998 -0.38297383 0.00000381
-0.09782467 0.26202210 0.00000206
-0.27212033 0.27604146 -0.05651863
-0.10772215 0.49546627 0.00000405
-0.16596478 0.04569909 0.00000111
-0.03554241 0.70314068 0.00000403
-0.50933240 -0.78533366 0.00000388
-0.16480028 0.40212909 0.13283849
-0.11102968 0.16084388 0.00000838
-0.24223423 0.21518679 0.16573753
-0.30783728 -0.43556408 0.00000323
-0.03408785 -0.11895766 0.00000150
-0.20713006 -0.56436398 -0.00000066
-0.12985456 0.09495620 -0.00000618
-0.42696749 -0.65890412 0.00000357
-0.33625727 -0.11852976 -0.00000033
-0.66741524 -0.81129122 0.05638608
-0.44238516 -0.17363080 -0.04010677
-0.00683702 0.61842852 0.00000057
-0.07929460 -0.39380894 0.00000054
-0.13049427 -0.41867613 0.00000194
-0.20456330 -0.57487829 0.00000211
-0.41927786 -0.21223398 0.03311387
-0.08912572 0.24645197 0.00000792
-0.02711224 0.67194004 0.00000226
-0.12339626 -0.03915064 0.00000283
-0.45186473 -0.29091080 0.14755898
-0.53472901 0.01301189 -0.21418446
-0.03111340 0.72488242 0.01198426
-0.02294083 -0.57115413 0.00000075
-0.18861052 0.20569761 -0.00000219
-0.24111851 -0.26098943 0.00000317
-0.20742055 0.17291014 0.00000118
-0.35854738 -0.71506335 -0.00000195
-0.37572862 0.18412987 -0.12376539
-0.15602892 -0.31156377 0.00000240
-0.32276520 0.32744178 -0.13033320
-0.26155990 0.16854222 0.02690062
-0.02547269 0.37924621 -0.00000365
-0.18938550 0.30479007 0.00000419
-0.16216121 0.40850109 0.07578689
-0.22751351 0.19141524 0.00000597
-0.16259700 0.40744598 0.14700982
-0.12036036 0.50942020 0.06979106
-0.02550847 -0.39548913 0.00000086
-0.37451110 -0.10415798 0.05511091
-0.14862860 0.13357270 -0.00000484
-0.37773029 -0.58745857 0.00000338
-0.06723146 0.24458319 0.00000312
-0.65407418 -0.77908335 0.00290091
-0.07325863 -0.13823713 0.00000221
-0.55335807 -0.53593976 0.24616734
-0.23499701 -0.63099808 -0.00000100
-0.27547785 -0.65357685 0.00000244
-0.32348821 -0.07526747 -0.00000014
-0.16036438 -0.39967082 0.00000003
-0.10731997 -0.64664807 0.00000119
-0.16083588 0.41169950 0.13724816
-0.18856542 -0.01002811 0.00000084
-0.17807619 0.37007544 0.17265567
-0.14377994 0.45287647 0.10154606
-0.30118262 0.00466584 0.00000019
-0.25671632 -0.62647500 -0.00000112
-0.57632434 -0.24066280 -0.14904920
-0.19752085 0.43902490 -0.04924751
-0.25049958 0.13659784 -0.00000171
-0.50504091 -0.41929447 0.25395304
-0.25433543 0.18596680 0.23432744
-0.50370283 -0.59838935 -0.00000254
-0.27906607 0.13645493 -0.00432103
-0.43451345 -0.24901982 0.12053969
-0.17638381 0.37417030 0.05815209
-0.41857201 0.05085323 -0.11108290
-0.13427019 0.57014530 -0.04007610
-0.32593073 -0.59124420 0.00000298
-0.39651335 -0.57262265 -0.00000182
-0.22210465 0.26377739 0.23787057
-0.19940334 -0.38154049 0.00000255
-0.12757724 -0.22193095 0.00000241
-0.04722316 0.68598847 0.04776362
-0.61482836 -0.03641579 -0.27536662
-0.23490906 -0.67678660 0.00000208
-0.37160088 -0.09714302 0.31320976
-0.51908941 -0.00632647 -0.18991931
-0.00357866 0.01584253 -0.00001158
-0.31524318 -0.42513869 -0.00000097
-0.63440983 -0.02404953 -0.30071470
-0.56151213 -0.31527376 -0.10213950
-0.34841971 -0.04116990 0.11041982
-0.52114326 -0.45816506 0.15816236
-0.11077182 0.53256646 0.07739124
-0.22847009 -0.33099843 -0.00000021
-0.06631930 -0.18501425 0.00000114
-0.17296498 0.38241730 0.10143633
-0.30147480 0.07216121 0.26637607
-0.01932640 0.69950898 0.00000363
-0.08595917 0.55028994 0.00000160
-0.01915766 -0.66668729 0.00000048
-0.37922944 0.24748208 -0.15428555
-0.60683960 -0.66505003 0.03797076
-0.32194934 0.02272992 0.29178164
-0.39272439 -0.14814142 0.35009273
-0.01205740 0.31100308 -0.00000542
-0.20677687 -0.74574607 0.00000170
-0.22786730 -0.53110123 0.00000239
-0.35157779 -0.24811586 0.00000403
-0.21160927 0.08843455 -0.00000385
-0.17312231 0.39141579 -0.00397778
-0.51587660 -0.01138695 -0.18446962
-0.06366410 0.64629834 0.03167088
-0.05331976 0.68799227 -0.00710181
-0.33090373 -0.09123030 -0.00000023
-0.30748737 0.08009076 -0.00952764
-0.31672821 0.03533361 0.27145358
-0.44446830 0.07380278 -0.14740861
-0.09332599 0.34626134 -0.00000226
-0.53871082 -0.39558319 -0.04461035
-0.24826155 0.36421334 -0.06951511
-0.10192143 -0.49589630 0.00000015
-0.44992309 -0.28622345 0.15198986
-0.30563627 0.06211684 0.23938790
-0.43489596 -0.39610906 0.00000429
-0.28475538 0.11253985 0.08014833
-0.27431406 0.32846820 -0.08105467
-0.15843264 -0.42901896 -0.00000003
-0.13744192 0.19807011 0.00000167
-0.18194385 0.04740883 -0.00000556
-0.40451542 0.20239908 -0.16106981
-0.55476192 -0.30417047 -0.09993236
-0.45928815 -0.00610010 -0.12865460
-0.54011520 -0.50396661 0.13555990
-0.56113103 0.01386892 -0.24163983
-0.53127091 -0.48261430 0.13076991
-0.04717837 0.24752910 0.00000233
-0.09085952 -0.34879035 0.00000181
-0.48750968 -0.47282790 -0.00000212
-0.46720785 -0.32795777 0.27124273
-0.43744178 -0.25609709 0.30065496
-0.46864931 -0.22801187 -0.04394285
-0.49024496 -0.77525937 -0.00000290
-0.26532631 0.15943185 0.21026456
-0.32546818 0.01423516 0.22945326
-0.02705958 0.09782903 0.00000208
-0.14824542 0.02190953 -0.00000709
-0.04361727 0.06261991 0.00001058
-0.19560609 0.32775785 0.07202139
-0.41181222 0.01196538 -0.08761473
-0.06254613 0.53590483 0.00000381
-0.20283390 0.26133580 0.00000418
-0.54403160 -0.51342043 0.10667844
-0.37085314 0.17909741 -0.11662590
-0.16685949 0.12505811 -0.00000446
-0.16181092 0.37869401 0.00000417
-0.12811095 0.63449816 -0.06110748
-0.55510625 -0.54015745 0.11454633
-0.21903069 -0.15394240 0.00000029
-0.48218055 -0.74336966 0.00000378
-0.17529579 0.21025331 0.00000147
-0.18049849 0.36423247 0.03683735
-0.55963538 -0.54475047 -0.00268147
-0.44776065 -0.28100530 0.21017185
-0.18532968 -0.52386277 0.00000209
-0.57546710 -0.22153266 -0.15630031
-0.21821833 0.36726918 -0.03998714
-0.41057574 -0.22756529 -0.00000105
-0.42552215 -0.40010718 -0.00000157
-0.10938890 0.11041320 0.00000892
-0.05916626 0.67063429 -0.00572248
-0.35155816 0.09838889 -0.06252111
-0.39210124 0.14878524 -0.12554261
-0.34485859 -0.03258092 0.33843088
-0.10254522 0.28682905 0.00000727
-0.62600544 -0.53227352 -0.07608548
-0.32043157 -0.54186065 -0.00000129
-0.21631866 0.27776164 0.04134457
-0.32548363 -0.02807197 -0.00000003
-0.35136182 -0.65378232 0.00000302
-0.55495476 -0.53978838 0.03589853
-0.34057560 0.13740670 -0.06783929
-0.28068544 0.12235636 0.09504702
-0.12534300 0.45655655 0.00000409
-0.20599329 0.42557204 -0.05222150
-0.16822394 0.49965125 -0.04495396
-0.11742459 0.51651054 0.03405557
-0.38539256 -0.13043587 0.23487613
-0.31545010 0.16231727 -0.05264600
-0.68959435 -0.69894706 -0.07049273
-0.03547346 -0.01336012 0.00000223
-0.44779729 -0.41918098 0.00000433
-0.03414669 0.14697264 0.00000216
-0.14225841 0.03140006 0.00000911
-0.46554078 -0.36277768 -0.00000172
-0.00644618 0.42095631 0.00000301
-0.04407582 0.08862611 0.00001032
-0.23301550 0.23743964 0.20112173
-0.64478582 -0.07273587 -0.29066862
-0.06746549 0.13718301 0.00000194
-0.05429551 -0.06268663 0.00000152
-0.24833514 0.20045086 0.25608091
-0.25095995 0.19411472 0.22709160
-0.08416862 0.34034548 0.00000349
-0.37344238 -0.10157933 0.08993316
-0.24496917 -0.60289449 0.00000234
-0.36824786 -0.08904419 0.22144432
-0.58036002 -0.56631416 -0.01478162
-0.49892465 -0.45252088 -0.00000214
-0.08585306 0.59272669 0.05848234
-0.21555705 -0.34498038 -0.00000016
-0.23867669 -0.21119120 0.00000003
-0.14570551 0.08484867 -0.00000591
-0.01951624 0.44621639 0.00000326
-0.00769814 -0.77914298 0.00000011
-0.32367123 0.01857568 0.25767887
-0.11960759 -0.49363804 0.00000004
-0.55883106 -0.61611285 -0.00000291
-0.44717093 -0.27958509 0.29291679
-0.25467302 0.40551481 -0.09364673
-0.27042758 -0.68910564 -0.00000135
-0.38924774 -0.51425718 -0.00000163
-0.21048464 -0.49061942 0.00000236
-0.51130956 -0.65349359 0.00000422
-0.31367009 0.08669128 -0.01867225
-0.40478302 -0.17724717 0.19707486
-0.39525163 -0.61064686 0.00000346
-0.06816003 0.69736086 -0.02631073
-0.06373519 -0.33301967 0.00000078
-0.20448881 -0.25106192 0.00000014
-0.53867958 -0.27773942 -0.09466433
-0.06552398 0.56745844 0.00000391
-0.24120082 -0.56019466 -0.00000086
-0.24565406 0.12637037 0.00000083
-0.08527398 0.58998122 0.00000412
-0.45003012 -0.28648068 0.12503959
-0.54922803 -0.73419801 -0.00000315
-0.07739401 0.50067270 0.00000035
-0.54429371 0.08340886 -0.25392002
-0.29117429 0.22373209 -0.05383655
-0.33380469 -0.72492654 -0.00000183
-0.16390752 0.40428081 0.17708280
-0.05120142 0.17291903 0.00000934
-0.05971527 0.34183191 0.00000249
-0.39428350 -0.49594299 -0.00000162
-0.02938831 0.61662229 0.00000122
-0.04484782 -0.73721572 -0.00000011
-0.34346598 -0.02921439 0.20206304
-0.11440497 0.52379960 0.04476596
-0.27730440 0.00799682 -0.00000347
-0.68798417 -0.33900450 -0.22182361
-0.54757986 -0.50160133 -0.00865081
-0.32758370 0.00913277 0.22662802
-0.29202976 0.09496264 0.23708527
-0.09379285 0.42037054 0.00000610
-0.47584184 -0.01389996 -0.14232183
-0.49266094 -0.50637551 -0.00000224
-0.39623148 -0.17860398 0.00000454
-0.49589907 -0.39721716 0.09186669
-0.15464247 0.42665216 0.09555381
-0.32369130 0.01853243 0.05275055
-0.31445721 -0.11857054 0.00000408
-0.55719483 0.02955448 -0.24426783
-0.19190942 0.45892166 -0.05194482
-0.01244449 0.35976456 -0.00000443
-0.22063699 0.51474882 -0.10515072
-0.38960731 0.27206003 -0.17538021
-0.10294068 -0.26705095 0.00000211
-0.41225032 0.16444664 -0.15287423
-0.49700280 -0.64412442 0.00000414
-0.13135936 0.48286424 0.09914156
-0.50852683 -0.42770024 0.01793739
-0.56641726 -0.53110601 -0.01543940
-0.15228817 -0.69936860 -0.00000067
-0.38572999 -0.13125366 0.36022267
-0.19717895 -0.62817478 0.00000192
-0.18654339 -0.43505584 0.00000232
-0.34383838 0.31132045 -0.14510408
-0.15983990 -0.69220312 0.00000148
-0.28729570 0.10639990 0.04397586
-0.32162955 0.02350471 0.17644377
-0.08730525 0.59408418 -0.00205937
-0.20179355 -0.46532404 0.00000236
-0.10911927 0.53655958 0.05289586
-0.02212011 0.35732647 0.00000306
-0.00289628 0.02922182 0.00000209
-0.18354695 -0.38616414 0.00000242
-0.39463141 -0.23190172 0.00000440
-0.35608322 0.24024638 -0.12746034
-0.42899980 0.02170610 -0.10939106
-0.40553408 -0.17906989 0.42064347
-0.21969318 0.17382363 -0.00000189
-0.10830247 0.05809199 0.00000149
-0.17597813 0.03293413 0.00000341
-0.37779127 0.04406581 -0.06634966
-0.00415022 0.63766111 0.00000357
-0.33992030 -0.02064959 0.09051059
-0.44426608 0.22926969 -0.21327775
-0.54243362 -0.38769239 -0.05178400
-0.59964910 -0.36742973 -0.11910374
-0.15856711 0.03694239 0.00000329
-0.19495829 0.46741093 -0.05868150
-0.25319337 -0.32370220 0.00000310
-0.20627754 0.36606658 -0.02722380
-0.43859701 -0.25888285 0.22484936
-0.08436232 0.62247060 -0.01110487
-0.04235228 -0.43785004 0.00000065
-0.53490190 -0.49137566 0.02048602
-0.73392160 -0.73848050 -0.09917284
-0.32772511 0.00878294 0.33204991
-0.30256320 0.06953202 0.24962712
-0.21708245 -0.04763285 0.00000352
-0.55093114 -0.64158905 0.00000455
-0.06412897 0.14452967 -0.00000717
-0.47084050 -0.67151760 0.00000387
-0.08112446 0.11114876 0.00000942
-0.14568918 -0.63887176 -0.00000048
-0.46984439 -0.00903857 -0.13823411
-0.47523437 0.00900605 -0.15143438
-0.58439523 -0.61086821 0.17664604
-0.25345572 -0.10189498 0.00000366
-0.61991178 -0.69661062 0.17475046
-0.33842471 0.29268988 -0.13162973
-0.34624651 -0.03593055 0.28118767
-0.16565230 0.40006967 0.14966964
-0.03515384 0.18996455 0.00000226
-0.52023957 -0.45597693 0.00657089
-0.19288605 -0.29835936 0.00000271
-0.21684599 -0.20390160 0.00000313
-0.06135433 0.57560763 0.00000136
-0.58781738 -0.61912979 0.14223817
-0.09404787 0.21901767 0.00000811
-0.38095803 -0.59343096 -0.00000178
-0.36187506 -0.07365252 0.07238058
-0.18263114 0.45850223 -0.04224611
-0.70593276 -0.75121091 -0.06504379
-0.09992396 0.63296189 -0.03153184
-0.66807203 -0.33373173 -0.20363350
-0.63432332 -0.24010398 -0.20879835
-0.13849876 -0.70635293 0.00000128
-0.38640266 0.20441269 -0.14333895
-0.54095384 -0.02376457 -0.20494243
-0.16434070 0.16877517 -0.00000367
-0.58979100 -0.44541021 -0.07584523
-0.42493709 -0.25805818 -0.00000121
-0.62970516 -0.77347748 -0.00000373
-0.49258935 -0.56824502 0.00000430
-0.15994482 0.15185069 -0.00000414
-0.12096068 -0.24932671 0.00000065
-0.59583727 -0.61921275 -0.00817954
-0.06684128 0.44025862 0.00000639
-0.50420391 -0.53313869 -0.00000238
-0.04026753 0.21139406 0.00000916
-0.22355360 0.26028914 0.11702978
-0.36140958 -0.07254018 0.36529239
-0.44958525 0.17366655 -0.19510240
-0.25281758 0.18963447 0.12143061
-0.17218140 -0.75076359 -0.00000092
-0.16726192 0.40333108 -0.00302880
-0.30428330 -0.52308281 0.00000299
-0.01269444 -0.64118340 0.00000049
-0.36347166 0.01793021 -0.04055253
-0.31946388 -0.68237164 0.00000270
-0.49860973 -0.40376887 0.29065666
-0.07434592 0.07415209 0.00000275
-0.47418501 0.01076522 -0.15110534
-0.08875231 -0.17275729 0.00000224
-0.05109761 -0.36327361 0.00000148
-0.43641622 -0.66250785 -0.00000229
-0.12035223 0.50943822 0.08971190
-0.16410100 0.58585323 -0.07736105
-0.11490675 -0.29754927 0.00000056
-0.08989285 0.58297439 0.06869562
-0.12708616 0.14135494 0.00000331
-0.15074436 -0.74939483 -0.00000078
-0.31426138 0.04129974 0.02010420
-0.37161791 -0.05021019 -0.01995017
-0.22761815 0.29076665 -0.01711367
-0.26617681 0.15111520 -0.00000095
-0.15997065 -0.65684499 0.00000156
-0.65151030 -0.77289429 0.13811119
-0.25703742 0.17944070 0.26615104
-0.38730188 0.22712809 -0.15391649
-0.21945986 0.50277249 -0.09885250
-0.15111808 -0.29886259 0.00000239
-0.02844078 0.73133514 0.01530286
-0.29605736 0.09697450 -0.00497057
-0.08357974 0.07156142 0.00000167
-0.14094092 0.12274834 -0.00000529
-0.65940981 -0.79196487 0.02712568
-0.25495735 0.41361174 -0.09738088
-0.27383801 0.13888046 0.27880757
-0.38700541 -0.21067347 -0.00000086
-0.56719467 -0.02027721 -0.23334984
-0.18434730 0.35493430 0.18494017
-0.24615476 -0.55701598 -0.00000088
-0.32689476 0.01079105 0.23011241
-0.40862005 -0.54777151 -0.00000184
-0.09902808 0.43040843 -0.00000040
-0.00210433 -0.06540204 0.00000185
-0.10306594 0.32601541 0.00000359
-0.25076443 0.19459326 0.16665553
-0.12168533 0.50621659 0.12977397
-0.25103696 -0.30358501 0.00000313
-0.52315545 0.01089654 -0.20141153
-0.09145079 0.59630246 -0.00725726
-0.13397165 -0.04800823 0.00000289
-0.12165311 -0.56803730 -0.00000015
-0.02819152 0.73193680 0.01683352
-0.50113938 -0.58727818 -0.00000249
-0.29096068 0.09754803 0.21882161
-0.09360512 0.57401153 0.07818676
-0.04096138 -0.20202702 0.00000180
-0.05811110 0.04615733 0.00000255
-0.32325690 0.11728278 -0.04151176
-0.27967894 0.12477874 0.27295798
-0.13097426 0.28680604 0.00000193
-0.55044218 -0.52889898 0.15319707
-0.32332190 0.31799255 -0.12688727
-0.43059292 -0.04956638 -0.08073692
-0.45756026 -0.00590724 -0.12696029
-0.33633580 -0.66701967 0.00000287
-0.12864105 0.19919475 0.00000172
-0.17964534 0.20181226 0.00000386
-0.22983342 -0.12597308 0.00000342
-0.42446743 -0.56739038 -0.00000198
-0.45850008 -0.13883007 -0.07143301
-0.05893736 0.27158273 0.00000822
-0.21431671 -0.17438327 0.00000318
-0.43520603 -0.29410310 0.00000455
-0.58744569 -0.20651217 -0.17497533
-0.40942111 -0.31655337 -0.00000126
-0.27565160 0.13450931 0.09164960
-0.01587128 0.54676729 -0.00000059
-0.40485836 0.27581102 -0.19262319
-0.21248649 0.28700669 0.02773448
-0.48929899 -0.79944144 0.00000369
-0.44251468 -0.57645030 0.00000390
-0.13256255 0.45214448 0.00000233
-0.28996816 0.09994191 0.18699486
-0.02755840 0.20545827 0.00000235
-0.31153733 0.27578179 -0.09685404
-0.34134115 0.12584778 -0.06370844
-0.62507699 -0.70908024 0.16048131
-0.62602274 -0.71136340 0.13085778
-0.23774267 0.46842315 -0.10301321
-0.13641861 0.27502310 -0.00000238
-0.47624849 -0.67104086 0.00000392
-0.25864869 -0.72587921 0.00000214
-0.37112329 -0.26325026 -0.00000090
-0.00380667 0.62008332 0.00000358
-0.17393582 0.38007051 0.17123844
-0.03142874 0.62356853 0.00000520
-0.07148074 0.23571425 0.00000835
-0.55573357 -0.21329710 -0.13955240
-0.44408981 -0.27213711 0.06982765
-0.47955646 -0.30072721 -0.02422895
-0.12871597 -0.78981508 0.00000100
-0.04439010 0.24224085 0.00000234
-0.66785827 -0.81236075 0.04526324
-0.32624396 0.01236152 0.24687845
-0.69351584 -0.66930513 -0.08711487
-0.11282802 0.50811826 0.00000412
-0.28851255 0.10345899 0.11819852
-0.07682011 0.52709705 0.00000285
-0.65463446 -0.54436012 -0.10032411
-0.04622620 -0.22648930 0.00000178
-0.04870836 0.00282906 0.00000237
-0.52849857 -0.73235882 0.00000416
-0.06207263 -0.30101365 0.00000172
-0.02780163 0.37002574 0.00000313
-0.45054126 -0.28771195 0.05992152
-0.24522534 0.28034446 -0.03075060
-0.02582965 -0.28382930 0.00000113
-0.44223223 0.01202675 -0.11885478
-0.03545056 0.71441171 0.00823538
-0.21613584 0.11109165 0.00000698
-0.42452933 -0.22491133 0.01207678
-0.02136064 -0.38668838 0.00000119
-0.20438994 0.30655039 0.10259524
-0.19687289 0.06183934 0.00000782
-0.01371526 0.30226784 0.00000286
-0.64272950 -0.71843641 -0.01412265
-0.32533876 -0.05088802 0.00000433
-0.08996211 0.31402830 -0.00000300
-0.33405356 -0.29391825 -0.00000075
-0.44654916 -0.73332064 -0.00000253
-0.46712501 -0.32775315 0.16251063
-0.10561372 0.57632184 -0.01329606
-0.03221725 0.38677900 0.00000277
-0.51088731 -0.21672908 -0.09207786
-0.15853313 -0.52364739 -0.00000027
-0.14415747 0.45196318 0.14528689
-0.08059872 0.12526714 -0.00000706
-0.30162197 -0.07639935 0.00000408
-0.31000842 -0.79947296 0.00000234
-0.32012975 -0.43654946 0.00000332
-0.12084571 0.19094601 -0.00000453
-0.29905993 -0.77386898 0.00000232
-0.67071318 -0.81925299 0.10102800
-0.10780625 0.20202496 -0.00000471
-0.31726128 -0.07284636 0.00000421
-0.62307164 -0.70423901 0.14075182
-0.06288878 0.64817081 0.02281709
-0.13774795 0.46744142 0.09428337
-0.06446969 -0.28254685 0.00000090
-0.22636912 0.25348606 0.19066770
-0.29476339 -0.14468831 -0.00000014
-0.34149783 -0.02444917 0.11011509
-0.27683769 -0.04797323 0.00000021
-0.33440167 0.33225602 -0.14431871
-0.56835289 -0.57213933 0.15090198
-0.42982732 -0.60893135 0.00000372
-0.26706343 0.15524148 0.20458700
-0.61202713 -0.00207079 -0.28708966
-0.32462781 0.01625924 0.34179488
-0.20821282 0.29733339 0.00684641
-0.20320008 0.49466458 -0.07872218
-0.23940957 -0.31441428 0.00000302
-0.46525786 -0.29874987 -0.01039784
-0.32222463 -0.65594532 0.00000279
-0.03610017 -0.47712642 0.00000059
-0.61938095 -0.22732300 -0.19889845
-0.17436684 -0.26286099 0.00000029
-0.14259599 -0.22039669 0.00000252
-0.01540567 -0.75775091 0.00000001
-0.10970251 0.53514639 0.11551519
-0.46555773 -0.32397373 0.26452557
-0.61134835 -0.38570049 -0.12334267
-0.16267793 -0.72425303 0.00000142
-0.05057675 0.69608419 -0.00772649
-0.44927944 0.12786619 -0.17532182
-0.69057315 -0.39794455 -0.19942933
-0.31894032 0.02999167 0.32396251
-0.11593807 -0.28376355 0.00000059
-0.44154899 -0.26600494 0.11545400
-0.00158190 -0.49867595 0.00000077
-0.11761246 0.56794442 -0.02204727
-0.15992752 0.31990389 -0.00000078
-0.32239124 -0.64446035 0.00000282
-0.26274178 -0.47057040 -0.00000076
-0.28793213 0.10486374 0.16580611
-0.35664722 -0.06103025 0.04703053
-0.07278465 -0.65577179 -0.00000008
-0.39396456 -0.35710843 -0.00000127
-0.39795809 -0.61486984 -0.00000194
-0.25983055 -0.44598730 -0.00000068
-0.00938217 -0.07953912 0.00000174
-0.45025625 -0.28703533 0.33036321
-0.08160802 -0.63331091 0.00000103
-0.63403663 -0.73071015 0.09220675
-0.29784554 -0.11535904 -0.00000009
-0.46396816 -0.32012610 0.02757997
-0.40617682 0.25497830 -0.18512141
-0.02235675 -0.69124818 0.00000044
-0.32567867 -0.22236222 -0.00000052
-0.10472402 0.52643372 0.00000268
-0.28836692 -0.57988695 -0.00000119
-0.23890215 0.26341866 -0.01707181
-0.28257406 0.11779503 0.13740523
-0.28591997 -0.18889110 0.00000368
-0.26239615 0.09607257 0.00000422
-0.32600791 0.36632161 -0.15018521
-0.41641435 -0.31919439 -0.00000131
-0.05248538 0.67328440 0.04927285
-0.30992874 -0.09179358 -0.00000010
-0.50460366 -0.19652661 -0.09421679
-0.12396785 0.50070833 0.07675394
-0.36277190 -0.07582036 0.13592808
-0.28671264 0.10779987 0.22475653
-0.40544141 0.11134159 -0.12331863
-0.21716520 0.27570716 0.17627170
-0.29630614 0.08466032 0.00366448
-0.36912748 0.29654579 -0.16477274
-0.18868519 0.41837391 -0.03140431
-0.58098049 -0.54620425 -0.02396540
-0.01922361 0.08783365 0.00001077
-0.10472276 0.09874914 -0.00000686
-0.45467373 -0.00627922 -0.12384371
-0.62504869 -0.70901189 0.10470506
-0.27117881 0.30508687 -0.06790010
-0.48685798 -0.63099575 -0.00000252
-0.52585217 -0.61683407 0.00000443
-0.48711715 0.15317491 -0.22490421
-0.59203033 -0.68832608 0.00000475
-0.34892630 -0.01354338 -0.01225090
-0.22727016 -0.27867399 -0.00000007
-0.61257541 -0.08822094 -0.25103665
-0.38209285 -0.62610895 0.00000332
-0.15800067 -0.58378200 0.00000173
-0.44248702 -0.76322981 0.00000343
-0.38700321 0.18181807 -0.13435351
-0.68095207 -0.66092044 -0.07778729
-0.11621605 -0.76588711 -0.00000062
-0.27029585 0.26608634 -0.05041525
-0.22496327 0.25688459 0.13374623
-0.04364171 -0.27843929 0.00000163
-0.06079044 0.29665648 0.00000793
-0.47285460 -0.34158203 0.07677232
-0.03151800 -0.11336618 0.00000195
-0.22151126 -0.40548647 0.00000266
-0.09036317 0.64499135 -0.02683447
-0.45380960 -0.37033969 -0.00000166
-0.09053724 0.50759302 0.00000272
-0.37703121 -0.61211710 0.00000331
-0.18681676 0.34897246 0.18529844
-0.36895551 -0.03879229 -0.02207117
-0.11133915 0.00860931 -0.00000847
-0.09132888 -0.41577055 0.00000165
-0.05431648 0.61140713 0.00000187
-0.05410636 0.10106579 -0.00000835
-0.09724728 0.43497608 0.00000589
-0.41840688 -0.58378740 0.00000370
-0.17969562 0.06446083 0.00000810
-0.44266255 0.07842026 -0.14751829
-0.28808130 0.10450181 0.18845141
-0.20578090 0.04456917 0.00000366
-0.10232851 0.60860615 -0.02364709
-0.20150243 -0.25432635 0.00000288
-0.05960364 0.07171450 0.00000182
-0.24203648 0.26579454 -0.02129427
-0.24047275 -0.19244608 0.00000333
-0.36049345 0.19890687 -0.11441545
-0.42943256 -0.23675401 0.13501478
-0.20448784 0.30630997 0.20908396
-0.17370055 0.28210892 0.00000166
-0.15477528 0.09642730 0.00000823
-0.11743793 -0.34405715 0.00000043
-0.18485816 -0.61009919 -0.00000064
-0.25436427 0.18591267 0.04094099
-0.13824935 -0.59715106 -0.00000033
-0.64039909 -0.74607013 0.15475188
-0.11480135 0.62795370 -0.04466925
-0.35584875 -0.05911569 0.35618609
-0.12310508 -0.08988583 0.00000103
-0.01513947 0.59933806 0.00000341
-0.14960350 0.19342569 0.00000736
-0.21132994 -0.60623657 0.00000208
-0.58020508 -0.50278594 -0.04162344
-0.27710479 -0.20046947 -0.00000017
-0.40329616 -0.09473639 -0.03353006
-0.22505506 0.28288763 -0.01113482
-0.38043463 -0.11846496 0.20248985
-0.56255386 -0.55813979 0.18877632
-0.37801273 -0.74177147 0.00000300
-0.36666517 -0.08522320 0.30359829
-0.29444859 0.08912792 0.21437467
-0.58267015 -0.12528702 -0.20459760
-0.01884052 0.02281143 0.00000194
-0.10547018 0.33547787 -0.00000211
-0.32906971 -0.04922929 -0.00000011
-0.27881800 0.12687330 0.08597104
-0.05069279 0.27380353 0.00000238
-0.39980315 -0.68587529 0.00000330
-0.54616197 -0.51856676 0.18062240
-0.21508812 0.21369687 0.00000416
-0.54653957 -0.51947422 0.08270544
-0.27247589 -0.43675418 -0.00000074
-0.01612214 0.39209209 0.00000779
-0.01082970 0.75711240 0.00000347
-0.22852206 -0.48020406 -0.00000058
-0.11610704 0.43914259 0.00000240
-0.03394196 -0.28473140 0.00000154
-0.25847168 0.33792108 -0.06881479
-0.35482683 -0.05663689 0.08129849
-0.27601369 0.13364769 0.03256566
-0.58186128 -0.48301180 -0.05172725
-0.22903201 0.20381882 0.00000424
-0.11273722 0.16346878 0.00000326
-0.00798686 -0.40994160 0.00000104
-0.12197465 0.47946029 0.00000246
-0.27712544 0.09821554 -0.00000167
-0.05386534 -0.31179125 0.00000163
-0.41545619 0.18591849 -0.16529132
-0.45936404 -0.30901017 0.01423979
-0.49726221 -0.51189457 -0.00000228
-0.33016525 0.00289968 0.23587539
-0.51266055 -0.14950314 -0.12246975
-0.64514364 -0.57845940 -0.07609286
-0.42097350 -0.21632947 0.07616840
-0.54814887 -0.52336395 0.25468116
-0.05731244 -0.69921531 -0.00000009
-0.33230819 -0.59723165 -0.00000150
-0.57479921 -0.58769716 0.03240110
-0.04735515 -0.14848238 0.00000199
-0.35825293 -0.30320561 -0.00000092
-0.20578134 0.40240455 -0.04215701
-0.21429922 -0.54134192 0.00000226
-0.08653740 -0.05340027 0.00000134
-0.15922784 -0.42134756 -0.00000001
-0.08220179 0.16852130 0.00000304
-0.24852203 0.17096381 -0.00000108
-0.42804887 0.03830515 -0.11547373
-0.15513043 0.42547530 0.06762700
-0.48527356 0.08448576 -0.19381858
-0.02094510 0.24016473 0.00000276
-0.46292782 -0.31761392 0.01433569
-0.13329559 0.47818713 0.12308734
-0.59021719 -0.08580089 -0.22912389
-0.19602161 0.48124398 -0.06565212
-0.27304223 0.14081067 0.16581939
-0.33605431 -0.33291885 0.00000370
-0.56870045 -0.24325733 -0.14012375
-0.24274289 0.21395526 0.16279131
-0.23097059 0.26048135 -0.00768128
-0.04068780 0.52096078 0.00000306
-0.12469485 -0.57536661 0.00000150
-0.14085746 0.36054668 0.00000584
-0.03144446 0.10135919 0.00000206
-0.45822345 -0.30626831 0.29200694
-0.37667517 -0.10938745 0.17085439
-0.06410707 0.61135392 0.00000216
-0.11179186 -0.01338352 0.00000129
-0.50847951 -0.42758618 0.02215681
-0.23197321 0.44380463 -0.08662900
-0.21944170 -0.15549105 0.00000327
-0.10648879 -0.20060034 0.00000086
-0.05691953 0.58783650 0.00000390
-0.19231053 -0.08097046 0.00000325
-0.21158425 0.10231165 0.00000385
-0.03738251 0.58608066 0.00000324
-0.38088676 -0.52449752 0.00000356
-0.22731204 0.25122282 0.02638273
-0.17560317 0.37605018 0.05285760
-0.33770844 0.15447018 -0.07214646
-0.13928019 -0.59993227 0.00000155
-0.53091565 -0.38785435 -0.03989680
-0.65324323 -0.65817680 -0.05052216
-0.62929513 -0.29366303 -0.18087533
-0.05803419 -0.10987701 0.00000138
-0.40081022 0.09829509 -0.11302163
-0.32830371 -0.37356112 -0.00000092
-0.48616890 -0.37372258 0.00257778
-0.17576988 0.09409020 0.00000117
-0.37680758 -0.45736129 0.00000370
-0.19212000 0.33266606 0.00000519
-0.14100487 -0.25038011 0.00000052
-0.22300151 -0.01230782 0.00000062
-0.16381008 0.40452193 0.03844368
-0.47095035 -0.21206242 -0.05308274
-0.63159257 -0.20159225 -0.22236466
-0.48761887 0.04454951 -0.17924935
-0.33778967 0.21320757 -0.09719529
-0.15592632 -0.17307801 0.00000274
-0.00529226 0.36996298 0.00000296
-0.35751218 -0.06311848 0.04756836
-0.23486321 0.23298597 0.11326898
-0.40470033 0.16076878 -0.14356397
-0.08928596 0.59754253 -0.00556169
-0.43219218 -0.12123940 -0.05191538
-0.38703189 -0.71529279 0.00000313
-0.15989338 -0.11545388 0.00000292
-0.16090245 -0.55649088 0.00000182
-0.07649721 -0.01158214 0.00000151
-0.58905298 -0.62211272 0.16055345
-0.04554457 0.69004413 0.00717475
-0.19953757 0.35691765 -0.01641672
-0.37442027 -0.10394423 0.28877553
-0.21381389 0.37586211 -0.03911772
-0.48667909 -0.55384510 -0.00000232
-0.53862988 -0.05999164 -0.18716061
-0.05630907 0.58484477 0.00000513
-0.53725007 -0.49704556 0.04164292
-0.50064339 -0.40867845 0.27894605
-0.42094268 0.21269929 -0.18230329
-0.59654729 -0.18773487 -0.19229505
-0.26378036 0.29253220 -0.05497271
-0.28384657 -0.54670917 0.00000277
-0.67582875 -0.69626307 -0.05750908
-0.57063644 0.04638768 -0.26521532
-0.60697303 -0.31917625 -0.14712740
-0.43533042 -0.44860593 -0.00000175
-0.05330139 -0.57253319 0.00000097
-0.17624341 -0.21676513 0.00000279
-0.25424668 0.11154490 0.00000420
-0.16683545 0.43627406 -0.01659038
-0.56927605 -0.57436234 0.01621724
-0.14986706 -0.72761640 -0.00000072
-0.36456876 0.17544775 -0.10862405
-0.12846145 0.28272517 0.00000368
-0.43958277 0.03962820 -0.12786778
-0.44798615 0.10951486 -0.16619481
-0.12076504 -0.56650306 0.00000149
-0.35193136 0.29494672 -0.14644897
-0.63511583 -0.73331412 0.01386984
-0.37006713 -0.09343944 0.29545434
-0.19915062 0.19264578 0.00000647
-0.14698172 0.31397281 0.00000190
-0.18724755 0.16033714 -0.00000314
-0.37972996 -0.20483930 -0.00000080
-0.02594228 0.45446703 -0.00000213
-0.11439730 0.40976069 -0.00000035
-0.20607439 0.09114331 0.00000736
-0.50038696 -0.37967881 -0.01204667
-0.25950774 0.17348478 0.07799700
-0.31802605 0.03220221 0.22712759
-0.04336767 -0.79062935 -0.00000024
-0.32678603 0.30476938 -0.12482266
-0.39528984 -0.13073259 -0.01001580
-0.24976159 -0.06570013 0.00000372
-0.57171904 -0.58026389 0.10183028
-0.33588001 -0.01090006 0.27677707
-0.42018111 0.16631950 -0.16180951
-0.40178003 -0.16999198 0.07194263
-0.32229676 -0.69974925 0.00000268
-0.15437571 0.07277978 -0.00000589
-0.33327763 -0.00461260 0.21633569
-0.43737742 -0.25593192 0.06960854
-0.42494055 -0.22590476 0.02802854
-0.23773071 0.28615109 -0.02552839
-0.63724897 -0.73846523 0.10228063
-0.25648072 -0.17405995 0.00000350
-0.18675230 0.32603394 0.00000169
-0.35266510 -0.08595828 -0.00000034
-0.07439193 0.41109850 0.00000258
-0.13306783 -0.03999772 0.00000110
-0.26589557 0.32392107 -0.07048399
-0.42116562 -0.21680018 0.23843216
-0.02605199 0.37861893 -0.00000364
-0.40290934 -0.17700968 0.00000460
-0.08276448 0.29969466 0.00000750
-0.00974594 0.60293267 0.00000358
-0.57143908 -0.70369776 -0.00000321
-0.11269122 -0.53210409 -0.00000001
-0.28188239 -0.14570398 0.00000376
-0.13004772 -0.53991844 0.00000163
-0.12063664 -0.52965195 -0.00000005
-0.21745168 0.07741620 0.00000383
-0.29184072 -0.01856631 0.00000416
-0.34239706 -0.19234180 -0.00000055
-0.16278242 0.40699858 0.14128592
-0.38606716 0.24901335 -0.16195242
-0.53953530 0.05015306 -0.23490251
-0.52440119 -0.18264481 -0.12043071
-0.26247490 0.16633396 0.01804300
-0.07547580 -0.52630853 0.00000125
-0.16692210 0.55657270 -0.06781095
-0.32024710 0.02685546 0.09143790
-0.46859227 -0.45028901 0.00000441
-0.39843503 -0.16192151 0.19258040
-0.19625776 0.21780447 0.00000136
-0.20573554 0.30330116 0.16723181
-0.18960278 -0.11633070 0.00000056
-0.30507381 0.06346785 0.32066105
-0.14079911 0.40707586 0.00000039
-0.35574561 -0.05885258 0.19350660
-0.15537878 -0.69980115 -0.00000069
-0.15263112 -0.58394900 -0.00000038
-0.37994938 -0.11729245 0.17883604
-0.48995411 -0.15021389 -0.09886903
-0.33567065 -0.66994799 0.00000286
-0.21323390 0.20364523 0.00000412
-0.09074542 0.24635843 0.00000789
-0.07304670 0.28535194 -0.00000409
-0.42287958 -0.42713252 0.00000412
-0.06293272 0.32682481 0.00000244
-0.46157548 -0.49055702 0.00000426
-0.56413074 -0.56194279 0.07220926
-0.13247659 -0.78192418 -0.00000075
-0.28442118 -0.16486738 0.00000373
-0.03368858 -0.61230477 0.00000027
-0.16158738 0.24848003 -0.00000215
-0.37417512 -0.10335552 0.32784746
-0.36696177 -0.08594126 0.26823901
-0.08238197 -0.14122149 0.00000115
-0.59376988 -0.01439075 -0.26312001
-0.12745120 -0.24460529 0.00000235
-0.13030656 0.59726063 -0.04753312
-0.29667623 0.11124984 -0.01167311
-0.18764901 -0.71995767 0.00000162
-0.50285765 -0.41401648 0.08610026
-0.54173075 0.01342999 -0.22154664
-0.23753000 0.22654411 0.07393315
-0.06854992 -0.66163320 0.00000086
-0.08730824 -0.51024394 0.00000138
-0.19514655 0.40827291 -0.03374106
-0.57735257 -0.59386358 0.08059957
-0.20248920 0.23374333 -0.00000121
-0.40977026 -0.18928649 0.17373914
-0.38889779 -0.13890301 0.34634511
-0.31980407 0.02791106 0.26588823
-0.44236350 -0.72302087 -0.00000248
-0.43171634 -0.24226335 0.03545945
-0.39128588 -0.66692602 -0.00000203
-0.30831684 0.19945055 -0.06110911
-0.36228906 -0.25249562 -0.00000082
-0.21978208 0.26939160 0.07252321
-0.07380329 0.07612180 0.00000174
-0.44430091 -0.62510164 0.00000379
-0.02737681 0.72099580 0.00000429
-0.03067056 0.21806380 -0.00000671
-0.04347996 0.72991639 -0.01482378
-0.25859990 -0.24459235 0.00000334
-0.37522218 -0.10588334 0.25918503
-0.06254572 -0.27161872 0.00000179
-0.41423166 -0.20006334 0.31633133
-0.72081918 -0.53839533 -0.17076923
-0.04141366 -0.76843341 -0.00000017
-0.68073664 -0.77901682 -0.02737284
-0.04225135 0.39668376 -0.00000279
-0.33349605 -0.00514693 0.25359469
-0.14200586 -0.08128400 0.00000094
-0.33593692 -0.21048329 -0.00000055
-0.21244509 0.49131931 -0.08678719
-0.08085476 -0.34121327 0.00000176
-0.44614178 -0.27710253 0.34083336
-0.53333428 -0.58187715 -0.00000267
-0.24040942 0.39749609 -0.07560405
-0.27515147 0.13571445 0.14583989
-0.22013347 -0.75686444 0.00000177
-0.41043403 -0.19088373 0.04983884
-0.25763349 0.29697648 -0.05055181
-0.03707799 0.65420936 0.00000341
-0.23242673 0.23887039 0.08446578
-0.58947034 -0.64566393 -0.00000317
-0.61909977 -0.69465031 0.16102679
-0.31319558 0.01483667 0.00000440
-0.50883500 -0.07447029 -0.15043494
-0.06460285 -0.12696132 0.00000129
-0.06028876 0.35095686 -0.00000316
-0.08733455 0.56023366 0.00000184
-0.00789031 0.28005969 0.00000906
-0.50370232 -0.41605758 0.13023546
-0.31108434 0.04896653 0.21020809
-0.03807097 -0.14886107 0.00000192
-0.53265740 -0.37426346 -0.04746037
-0.40005947 -0.16584550 0.24499707
-0.16236453 -0.05573945 0.00000309
-0.37137220 -0.19789963 0.00000431
-0.34860345 -0.63113216 0.00000305
-0.13114895 0.00165266 0.00000121
-0.54104480 -0.27593118 -0.09785976
-0.23333703 0.23667367 0.07301040
-0.62894487 -0.20916162 -0.21643077
-0.15777449 -0.43728181 0.00000210
-0.14114341 -0.44168303 0.00000196
-0.59692117 -0.56323482 -0.03308347
-0.08594411 0.33605079 -0.00000269
-0.19016566 -0.03894976 0.00000075
-0.36431665 0.09830727 -0.07557790
-0.03910986 -0.61174074 0.00000077
-0.02034921 0.16014332 0.00000228
-0.37604250 -0.38787557 -0.00000124
-0.34747701 -0.03889256 0.07635620
-0.20890709 -0.31233912 0.00000280
-0.15504791 -0.16133866 0.00000066
-0.40958322 0.26347185 -0.19222696
-0.37154909 0.19893642 -0.12577198
-0.58679401 -0.65770471 -0.00000319
-0.02895185 -0.15724786 0.00000143
-0.34296876 -0.02801096 0.13078056
-0.20375636 0.37374287 -0.02789944
-0.11239043 0.17077059 -0.00000519
-0.06705194 -0.71851098 0.00000071
-0.47724712 -0.35218954 0.14739684
-0.35118571 -0.24579434 -0.00000073
-0.40779540 -0.18451945 0.19068085
-0.36451045 -0.08001567 0.23315423
-0.40581757 -0.17975267 0.38279698
-0.27482849 -0.57157631 0.00000264
-0.37573618 -0.10712592 0.29849483
-0.25514638 0.36201559 -0.07564373
-0.27407580 0.17318420 -0.01480713
-0.44843063 -0.60719158 -0.00000222
-0.10743127 0.60414944 -0.02698877
-0.26856599 0.01315582 0.00000041
-0.30971556 0.05511590 -0.00119912
-0.44970884 -0.61488908 -0.00000225
-0.15753474 -0.37838582 0.00000224
-0.33318411 -0.00438852 0.23730016
-0.02039203 -0.38504658 0.00000119
-0.15998488 0.41375773 0.01711556
-0.00222715 -0.10908246 0.00000174
-0.24736746 0.17340750 0.00000430
-0.05298611 -0.46682618 0.00000051
-0.09817397 0.32616697 0.00000356
-0.37512537 -0.10564027 0.03872195
-0.41098783 -0.24211088 -0.00000109
-0.03863390 0.06750595 0.00000246
-0.24577545 0.14876863 0.00000423
-0.02176321 0.46072263 0.00000332
-0.47611202 -0.27812986 -0.03029901
-0.28196971 0.22772637 -0.04608944
-0.21652625 0.27724533 0.22775715
-0.14017074 0.46159346 0.01742491
-0.15704690 0.23053074 0.00000163
-0.44908962 0.03529658 -0.13578453
-0.10217645 -0.51881444 0.00000147
-0.34320678 -0.28326372 -0.00000078
-0.53469151 0.07121097 -0.23888333
-0.55669075 0.03940593 -0.24793853
-0.60745894 -0.68620588 0.00000487
-0.57739661 -0.59397000 0.08325927
-0.03516238 -0.56550251 0.00000037
