ply
format ascii 1.0
element vertex 1381
property float x
property float y
property float z
end_header
-0.34465134 0.11131214 -0.00000025
-0.36263046 -0.74737243 0.02536401
-0.12138845 0.49351288 0.00849046
-0.75181865 -0.21428902 0.05258701
-0.53182353 0.21105892 0.03719852
-0.39704468 0.01336075 -0.00000030
-0.21029384 -0.13364043 0.00000000
-0.35303464 -0.46806586 0.02469284
-0.14878188 0.51015281 -0.00000012
-0.08118975 -0.79133029 0.00000000
-0.04678165 0.43060889 0.00326725
-0.31055904 -0.18329298 0.00000000
-0.38191192 0.38084262 0.02671298
-0.24517652 0.30471279 0.01714516
-0.37918443 -0.69227322 0.02652187
-0.39895615 -0.28603435 0.00000000
-0.26854842 0.10265128 0.00000000
-0.30748078 0.08546418 0.00000603
-0.25577463 -0.34170687 0.01789003
-0.03507294 0.66159971 0.00245316
-0.07488558 0.32334149 0.00000000
-0.30641271 0.34517332 0.00000171
-0.56940941 0.18841362 -0.00000072
-0.22707530 0.11497615 0.01587577
-0.30497469 0.17109913 0.02132662
-0.22635723 -0.56913165 0.01583245
-0.33371557 -0.24877040 0.00000000
-0.68370991 0.08441046 -0.00000118
-0.23724227 0.26503712 -0.00000007
-0.72898140 -0.57785323 -0.00000056
-0.02035158 0.29234046 0.00142348
-0.34166257 -0.22199056 0.02389742
-0.19141092 0.19470652 0.00000000
-0.05261549 -0.52624247 0.00368017
-0.03781396 0.63707255 0.00264299
-0.34607332 -0.38832989 0.00000000
-0.06934556 0.51279750 0.00000000
-0.29195977 -0.47615723 0.00000000
-0.62883711 -0.71559242 -0.00000000
-0.20518615 0.46304795 -0.00000028
-0.32910762 -0.25156278 0.02301927
-0.21236846 0.58460060 0.01485450
-0.59796784 0.13186819 -0.00000032
-0.61737860 -0.72553531 0.00000000
-0.48112763 0.02886720 0.03365293
-0.37627027 -0.78122799 0.00000000
-0.00686608 0.40362070 0.00000584
-0.35946888 0.14672739 0.02513884
-0.59525260 0.09029849 0.00000042
-0.34449567 0.27151997 0.00000221
-0.43746598 -0.65576739 0.00000000
-0.37059190 0.18703823 -0.00000050
-0.35719254 0.11942833 0.02497912
-0.39352010 -0.50906065 0.00000000
-0.45127971 -0.25585639 0.03156461
-0.51892447 -0.45462554 0.00000000
-0.07217396 0.18863311 0.00504004
-0.26388579 0.30296972 0.01845761
-0.58496883 0.20287088 0.04091664
-0.27240633 0.40576533 0.00000135
-0.14417628 -0.62529804 0.00000000
-0.04425955 -0.09426170 0.00000000
-0.40068756 -0.74414922 0.02802590
-0.19494194 0.37123152 0.01363167
-0.11468230 -0.20359881 0.00802140
-0.37867389 -0.12465852 0.02648616
-0.34115035 0.01835644 0.02385504
-0.59740598 -0.10293431 0.04178623
-0.16192578 0.25364752 0.00000000
-0.21669509 0.26418852 0.01515663
-0.68650447 -0.41273028 -0.00000079
-0.15600796 -0.54509911 0.00000000
-0.17983712 -0.72313888 0.00000000
-0.75699025 -0.03840599 -0.00000175
-0.16711580 0.43193247 0.00000294
-0.45551870 -0.53453425 0.00000000
-0.51518912 -0.45305273 0.00000000
-0.38548265 0.37249271 -0.00000089
-0.35855990 -0.15124175 0.00000000
-0.05351720 -0.23318955 0.00374323
-0.38692138 -0.16196402 0.00000000
-0.56406418 0.11506725 0.03945439
-0.12047891 0.19169701 0.00000000
-0.28140334 0.43842041 0.00000064
-0.18394502 -0.73080442 0.00000000
-0.31984766 0.05565788 -0.00000005
-0.41563682 0.23215351 0.02907001
-0.07935955 0.23065130 0.00000000
-0.09556507 0.13161973 0.00668425
-0.63390326 -0.48452713 0.04433850
-0.61129794 -0.43628989 -0.00000042
-0.50615440 -0.25952004 0.03540302
-0.05968260 -0.01340978 0.00417447
-0.26356454 0.34541262 0.01843522
-0.57779576 -0.46187686 -0.00000024
-0.06724886 0.34243150 0.00000585
-0.18973590 -0.42729760 0.00000000
-0.22545747 0.55842612 0.01577005
-0.50420395 0.00057970 0.03526261
-0.32557321 0.39923939 -0.00000068
-0.05856809 0.16469202 0.00409652
-0.71891237 -0.02050528 0.05028559
-0.01305155 -0.77255852 0.00000000
-0.10066797 0.21192597 0.00703382
-0.29052822 0.18941723 -0.00000016
-0.60089792 0.10060866 0.04202938
-0.23816916 -0.68119502 0.01665863
-0.11084777 -0.10365416 0.00775319
-0.03618207 0.41090473 0.00253074
-0.28878988 -0.48020446 0.00000000
-0.63494738 -0.22091073 0.04441199
-0.17161708 0.46840932 0.00000224
-0.18721937 0.32123824 0.00000436
-0.34427416 0.19710165 -0.00000040
-0.20825011 0.26281317 0.00000000
-0.21185332 -0.71595916 0.01481798
-0.43190020 -0.59109328 0.03020905
-0.03366164 -0.19481593 0.00235445
-0.30449160 0.42520327 0.02129710
-0.73055050 -0.58995656 0.05109850
-0.36047286 -0.42066765 0.02521310
-0.41335684 0.07667776 0.00000414
-0.09771013 0.01391791 0.00001032
-0.09549345 0.23366682 0.00000705
-0.69556440 -0.21012273 0.04865210
-0.34972491 -0.17951289 0.00000000
-0.16652829 -0.73417824 0.01164774
-0.78178303 -0.11833815 -0.00000170
-0.63892417 -0.41753166 -0.00000057
-0.32869036 0.32070273 0.02298838
-0.05517022 0.28452081 0.00000690
-0.43458652 0.18085057 0.03039771
-0.60057741 0.11345774 0.04200717
-0.65177346 -0.11979313 0.04558914
-0.43895414 0.27323712 0.03070338
-0.57430885 -0.65240411 0.04016976
-0.70973729 -0.38021295 -0.00000094
-0.04423679 -0.04878055 0.00309412
-0.28939598 0.07768008 0.02023514
-0.47308607 0.21428057 0.00000070
-0.57306152 0.02299908 0.04008053
-0.32062762 0.16523767 0.02242639
-0.77798585 -0.57074206 0.05441637
-0.18564251 0.34005452 0.01298054
-0.58351853 0.20034016 0.04081513
-0.12508686 -0.63085510 0.00000000
-0.46823959 -0.04170974 0.03275130
-0.01214444 0.13139639 0.00084944
-0.45059533 0.31365601 0.03151721
-0.12573464 -0.41677940 0.00000000
-0.32679620 -0.60256773 0.00000000
-0.23451452 0.02402536 0.01639484
-0.19945150 0.51670636 0.01394963
-0.20133567 -0.16163746 0.00000000
-0.68325109 -0.60303190 -0.00000044
-0.56585111 0.11766445 -0.00000121
-0.56638378 0.12314229 0.03961666
-0.66090950 -0.42142934 0.04622766
-0.17295188 0.23167073 0.01209108
-0.72207443 -0.21701205 -0.00000128
-0.11641316 0.13046665 0.00813412
-0.56938942 -0.09914255 0.03982651
-0.19032430 -0.40083198 0.01331214
-0.09511089 0.17447955 0.00000795
-0.20993064 -0.61882632 0.01468350
-0.15651368 0.29245093 0.01094198
-0.09620293 -0.64631457 0.00672887
-0.58460210 -0.56317633 -0.00000009
-0.47036284 -0.55690591 0.00000000
-0.37380986 0.38384372 -0.00000023
-0.00814667 -0.14981567 0.00056981
-0.32532383 0.27359738 0.02275508
-0.41507620 -0.59274265 0.00000000
-0.07383635 -0.24860298 0.00000000
-0.63252459 0.12867821 0.04424258
-0.37551191 0.02969517 0.00000566
-0.49725355 0.26254047 -0.00000117
-0.04377243 -0.62415001 0.00000000
-0.33569957 0.37748955 0.02348103
-0.01162826 0.53950420 0.00000373
-0.10105749 0.54098782 0.00000236
-0.17133358 0.24434416 0.00000575
-0.53989433 0.22876600 0.03776349
-0.61789771 -0.19217412 0.04321944
-0.32331215 0.16606741 0.00000438
-0.26679249 0.40281850 -0.00000044
-0.60927088 -0.60648226 0.04261528
-0.24717408 -0.14230674 0.01728847
-0.06942531 0.35408826 0.00000564
-0.27692450 0.05607470 0.01936231
-0.00855470 0.24853948 0.00059835
-0.59243571 0.18396706 -0.00000109
-0.38236853 -0.77137207 0.00000000
-0.62062733 -0.47497613 0.04340988
-0.67763930 -0.23034423 -0.00000107
-0.21964166 0.37161181 0.00000294
-0.28391511 -0.42118740 0.00000000
-0.11315865 -0.65814844 0.00000000
-0.35905000 0.29571370 0.02511204
-0.45834583 -0.59494646 0.00000000
-0.17540495 0.48870274 0.01226677
-0.54419425 0.02139459 -0.00000095
-0.61540612 -0.58267369 0.04304447
-0.38473130 0.03233416 0.00000544
-0.03346213 -0.16427542 0.00000000
-0.40451312 -0.42289827 0.02829347
-0.34667037 -0.64753997 0.02424769
-0.72644952 -0.58967746 0.05081167
-0.62251130 -0.31885830 0.04354193
-0.06050608 0.72628360 0.00423200
-0.49600624 -0.47956057 0.03469292
-0.60046194 -0.51757421 -0.00000023
-0.28581707 0.07830337 0.00000000
-0.08948308 0.06218363 0.00625885
-0.02927422 -0.49370882 0.00204757
-0.35364323 -0.53946035 0.00000000
-0.36809513 0.12387839 0.02574198
-0.17452033 -0.19846878 0.00000000
-0.21522332 0.31626131 -0.00000006
-0.17807825 -0.32850933 0.00000000
-0.09718270 -0.75922887 0.00000000
-0.55123615 0.04276634 0.00000206
-0.36182091 0.40888649 -0.00000042
-0.34293301 0.15532835 0.00000418
-0.66954925 -0.75696347 0.04683141
-0.73623306 -0.01963105 0.05149716
-0.08817084 -0.19904158 0.00000000
-0.07410339 0.49423601 0.00000347
-0.31678397 -0.17143759 0.00000000
-0.11818029 0.05787470 0.00000935
-0.01267986 0.73286710 0.00000000
-0.74283480 -0.36941889 -0.00000108
-0.01063453 0.31593870 0.00074383
-0.60684122 0.15907285 0.04244618
-0.00925761 -0.61349647 0.00000000
-0.20289574 0.03811426 0.00000000
-0.09536092 -0.04462421 0.00000000
-0.47416429 -0.11504575 0.03316560
-0.54042430 -0.01524468 -0.00000087
-0.15794698 0.29751288 0.01104233
-0.52778623 0.18086672 -0.00000116
-0.03295390 0.57338909 0.00000000
-0.48678112 -0.39301797 0.03404767
-0.54715607 -0.48907475 -0.00000006
-0.63135640 -0.38121578 0.04416053
-0.57167457 0.16062907 -0.00000030
-0.33417304 -0.77563382 0.02337357
-0.06402389 0.54490321 0.00447524
-0.64722655 -0.16505883 0.04527101
-0.69387226 -0.05884996 0.04853400
-0.73988594 -0.14397896 -0.00000149
-0.16351838 0.02860750 0.00000910
-0.76802443 -0.44070936 0.05371996
-0.15648128 -0.29461636 0.01094501
-0.04746387 -0.25043655 0.00331984
-0.02598179 -0.40925815 0.00181728
-0.40927425 0.35335316 -0.00000096
-0.04500615 0.45420581 0.00000000
-0.49539890 -0.70666760 0.03465044
-0.40805098 0.17510063 0.02854157
-0.46779449 -0.33615553 0.00000000
-0.17887240 0.36947904 0.01251115
-0.38353185 -0.39775117 0.02682595
-0.41154048 -0.60568081 0.00000000
-0.53393055 -0.08369794 -0.00000072
-0.06891775 0.13270993 0.00481139
-0.22100493 0.48869071 -0.00000039
-0.11936655 0.58043273 0.00834916
-0.01895392 0.33939862 0.00000662
-0.42836990 0.25172113 0.02996119
-0.07095305 -0.08331010 0.00000000
-0.40778398 -0.50378341 0.02852225
-0.29233208 0.39818703 0.02044756
-0.78088248 -0.40889709 0.05461939
-0.16613159 0.00641199 0.01161999
-0.22811174 0.03583448 0.00000802
-0.00826166 0.18970296 0.00000000
-0.39594262 -0.46492642 0.02769402
-0.10971611 0.16183546 0.00767404
-0.02084484 0.38269193 0.00000000
-0.26756188 0.24650288 0.00000411
-0.63214201 0.08303368 -0.00000016
-0.28627895 -0.43374563 0.02002364
-0.35736383 0.35992047 0.02499515
-0.24137260 0.11576017 0.00000662
-0.74447880 -0.02691230 0.05207392
-0.08346213 0.45249194 0.00000395
-0.28752360 0.40059938 0.02010954
-0.13824470 0.59775678 0.00966969
-0.67047969 0.04618931 -0.00000153
-0.00841407 0.75296167 0.00000000
-0.59379504 -0.62627656 0.04153273
-0.11566129 0.26612461 0.00808357
-0.31983041 -0.33089866 0.02237038
-0.47167021 -0.51377784 0.03299075
-0.71508799 -0.18959002 -0.00000130
-0.32360467 0.31944405 0.02263490
-0.14866761 0.56016427 -0.00000021
-0.17292886 -0.38022262 0.00000000
-0.11565345 0.52539223 0.00000237
-0.20820474 -0.24184673 0.00000000
-0.78966645 -0.77774213 0.05523282
-0.02238644 0.27037117 0.00155816
-0.41643164 -0.47972561 0.00000000
-0.64684439 -0.76008296 -0.00000000
-0.09736534 0.53671601 0.00000248
-0.20622038 0.28618471 0.00000460
-0.21168764 -0.53062496 0.01480639
-0.75113220 0.03811217 0.05253930
-0.40825064 0.20723882 0.00000206
-0.61441876 -0.01039502 -0.00000119
-0.01791742 0.32943082 0.00125323
-0.09773383 -0.76928389 0.00000000
-0.26389021 -0.63209951 0.00000000
-0.44047753 -0.14082975 -0.00000022
-0.07701185 -0.08236084 0.00000000
-0.17166465 0.24717439 0.00000570
-0.51061839 0.05325482 0.00000267
-0.08339287 0.29633212 0.00582654
-0.12512443 0.40370085 0.00875177
-0.44268928 -0.79050113 0.00000000
-0.02481105 -0.49320360 0.00173540
-0.00172571 -0.26950927 0.00000000
-0.13056365 0.45717599 0.00000317
-0.42007434 -0.10421689 -0.00000019
-0.70744917 -0.18004316 -0.00000129
-0.00362620 -0.68492934 0.00025363
-0.01611679 0.61412778 0.00000254
-0.13129295 -0.26269660 0.00918322
-0.33848503 0.04038119 -0.00000010
-0.34032093 0.12144099 0.02379875
-0.05791634 -0.62041954 0.00405093
-0.40062484 -0.55705876 0.00000000
-0.40613092 -0.36175493 0.00000000
-0.07498533 -0.38916892 0.00524481
-0.06209974 0.36164709 0.00000564
-0.03354212 0.27146222 0.00234609
-0.02478805 0.52535489 0.00173002
-0.30895233 0.48502514 0.02161020
-0.22581077 0.55878180 -0.00000054
-0.79522336 -0.75157172 -0.00000012
-0.13231457 0.18982431 0.00000716
-0.31527356 0.21163045 0.02205196
-0.14023609 -0.50702976 0.00980875
-0.18153753 0.22338820 0.01269755
-0.12290362 -0.24255929 0.00000000
-0.73659193 0.02068979 0.05152233
-0.32865599 -0.22786429 0.02298768
-0.37517892 -0.39709957 0.00000000
-0.23723066 0.14888554 0.00000000
-0.15459290 -0.33007247 0.00000000
-0.53389198 0.19309167 -0.00000121
-0.47715966 -0.42690199 0.03337470
-0.18153140 0.05226522 0.01268859
-0.04729492 0.05412436 0.00001047
-0.39492840 -0.57040963 0.00000000
-0.34432787 0.04854516 -0.00000014
-0.70847640 -0.21377523 0.04955527
-0.66413471 0.00620935 -0.00000143
-0.17148793 0.38563919 0.01199464
-0.23125662 -0.70061075 0.01617513
-0.14615770 -0.23818033 0.01022293
-0.42123451 -0.07842521 -0.00000024
-0.35162215 0.39202948 0.00000006
-0.25839036 0.37467133 0.00000214
-0.39013000 0.26446662 0.02728599
-0.06641158 0.24525347 0.00000732
-0.18431929 -0.50724593 0.01289212
-0.05607327 0.03420967 0.00391131
-0.27245733 0.44729497 0.01905744
-0.38150345 0.33196770 0.02668488
-0.16347833 0.12718012 0.00000763
-0.42508108 0.28374185 -0.00000090
-0.16353984 0.13433972 0.01143115
-0.72657103 -0.00262598 -0.00000168
-0.09449228 0.03535863 0.00001004
-0.43621634 -0.29475725 0.03051094
-0.04087704 -0.55570414 0.00285912
-0.00770019 0.32815291 0.00053859
-0.07566661 0.56668302 0.00529009
-0.31133239 -0.48739725 0.00000000
-0.07236691 0.48831193 0.00000000
-0.14346016 -0.18013992 0.00000000
-0.26957681 -0.40684471 0.01885542
-0.06062895 0.34815221 0.00000586
-0.40542832 0.22236437 0.02835561
-0.57544392 -0.38918159 0.04024951
-0.66531623 -0.11479649 0.04653645
-0.25451612 0.52850833 0.01780237
-0.42680428 0.16884419 -0.00000071
-0.27721277 0.52009818 -0.00000065
-0.04164852 -0.25861694 0.00291309
-0.25548965 -0.56853621 0.01787010
-0.77691453 -0.12559129 -0.00000168
-0.55531746 -0.35056355 0.03884175
-0.14879429 0.31535509 0.01040228
-0.56909009 -0.34082842 0.03980515
-0.38692612 0.06093792 0.00000492
-0.52410588 -0.12980630 0.03665893
-0.28210356 -0.50592090 0.00000000
-0.45602102 -0.54446242 0.03189617
-0.39686254 -0.59942547 0.02775836
-0.28062466 0.43427012 0.01962743
-0.25493053 0.43551941 -0.00000044
-0.05127740 0.18101348 0.00358657
-0.09352000 -0.07938852 0.00000000
-0.52555500 -0.71964242 0.00000000
-0.41176988 0.20058965 0.00000211
-0.04722922 -0.43226450 0.00330343
-0.59587605 -0.65522472 0.00000000
-0.43618850 0.30548362 0.03050998
-0.18982461 0.20796814 0.00000602
-0.13817278 -0.37550331 0.00966443
-0.09215407 -0.23883271 0.00644567
-0.74379722 -0.42015257 0.05202547
-0.39211193 0.11732147 0.00000387
-0.04983514 -0.48937070 0.00000000
-0.00488793 0.06634561 0.00033089
-0.07940391 -0.32736718 0.00000000
-0.71217412 -0.72874573 -0.00000018
-0.57478092 -0.60138697 0.04020277
-0.51849615 -0.21903251 0.03626638
-0.41698103 -0.34847166 0.02916554
-0.74323185 -0.66300227 0.05198530
-0.09817547 0.47467895 0.00000340
-0.30047507 -0.05556813 0.00000000
-0.51442332 -0.01116175 0.03598185
-0.06705256 0.01722973 0.00467916
-0.44474629 -0.53086636 0.00000000
-0.06537663 -0.12769094 0.00457274
-0.63829646 -0.66909042 0.04464547
-0.03290212 0.09649648 0.00229121
-0.02871329 0.29599295 0.00000713
-0.25459679 -0.02958064 0.00000000
-0.20289071 0.12344252 0.01419109
-0.02692353 0.64875209 0.00188128
-0.71638514 -0.02866156 -0.00000159
-0.21424470 0.30581333 0.01498107
-0.31809435 0.38264997 0.00000086
-0.04568940 -0.77431382 0.00000000
-0.18559206 -0.65374333 0.01298115
-0.29288892 -0.18222664 0.00000000
-0.39614505 -0.62315526 0.02770817
-0.47199172 0.10622217 0.00000252
-0.22614815 -0.45614523 0.01581782
-0.06144121 0.43220401 0.00000000
-0.65891509 0.11751866 -0.00000125
-0.66187016 0.09634315 0.04629577
-0.46447021 -0.71799261 0.00000000
-0.34119473 0.45860877 -0.00000085
-0.36732885 -0.08666625 -0.00000000
-0.05316465 0.72282822 0.00371831
-0.46227711 0.24052225 -0.00000098
-0.70709841 -0.54086662 -0.00000065
-0.06164261 -0.21356330 0.00431156
-0.15052982 0.01537949 0.01051917
-0.22826995 -0.05617161 0.00000000
-0.79183947 -0.46500723 -0.00000084
-0.44350000 -0.68382056 0.03102039
-0.28897648 -0.66595528 0.02021232
-0.33334946 -0.05776165 0.02331597
-0.20986172 -0.58641848 0.00000000
-0.09755717 -0.03405741 0.00000000
-0.66314011 -0.39183310 0.04638374
-0.71163629 -0.30484197 0.04977614
-0.01525203 0.41223783 0.00106680
-0.09086536 -0.78840648 0.00635553
-0.62814948 -0.30619952 0.04393634
-0.11653680 -0.28118789 0.00000000
-0.35497397 -0.02108696 -0.00000006
-0.42307458 0.25061780 0.00000105
-0.00263890 0.33753363 0.00000000
-0.52240898 -0.31465990 0.03653991
-0.11832830 -0.13141934 0.00000000
-0.41448148 -0.58011490 0.02899071
-0.06822309 0.44311077 0.00476748
-0.06446223 0.47125497 0.00450878
-0.16180790 0.30968877 0.01131263
-0.28899496 -0.68109043 0.02021361
-0.37568018 -0.04145109 0.02627689
-0.01725952 0.15793378 0.00119778
-0.53152200 0.25685330 0.03717836
-0.21551426 -0.66588079 0.01507404
-0.33527271 0.05371112 0.00000603
-0.53826132 -0.00918563 -0.00000087
-0.37693400 0.39361552 -0.00000089
-0.76061995 -0.58906888 0.05320168
-0.25562931 -0.46224053 0.00000000
-0.02024607 0.07014775 0.00140540
-0.10103143 0.15941748 0.00706659
-0.27650334 -0.54651825 0.01933989
-0.30501424 0.12131484 0.02132855
-0.45490606 0.29614768 -0.00000105
-0.37945037 0.07038628 0.00000490
-0.66282696 -0.70137914 -0.00000017
-0.00469232 -0.75106859 0.00032820
-0.16868186 -0.60851062 0.01179837
-0.17913211 0.00858689 0.01252931
-0.51298900 0.11229466 0.03588174
-0.37482899 0.10997246 0.00000433
-0.45838889 0.19128446 0.03206267
-0.29995464 0.24039505 0.02098048
-0.45032393 -0.17854905 -0.00000019
-0.56105097 0.12940157 -0.00000121
-0.70915807 -0.46249451 -0.00000079
-0.30696600 0.26421248 0.00000306
-0.33695102 -0.42155879 0.00000000
-0.70341196 -0.26190137 0.04920094
-0.74120771 -0.36090541 0.05184450
-0.25232850 -0.47199141 0.00000000
-0.49798774 0.14533039 0.03483248
-0.55612157 0.16166327 -0.00000002
-0.27059516 0.27484172 -0.00000023
-0.22135983 0.56719763 0.01548327
-0.10541771 0.11531121 0.00000000
-0.02553507 -0.45308986 0.00000000
-0.11604776 -0.03231146 0.00000000
-0.71201913 -0.48457763 0.04980261
-0.44337504 0.03148629 -0.00000053
-0.07159532 0.58181243 0.00000000
-0.62555942 0.10757539 -0.00000045
-0.54923064 -0.09620421 -0.00000076
-0.28288730 0.20911042 -0.00000016
-0.15929604 -0.16700470 0.01114188
-0.71374133 -0.24700375 0.04992349
-0.70224665 -0.34921419 0.04911927
-0.21246333 0.57386816 -0.00000051
-0.23973920 0.15424233 0.01676233
-0.09306855 0.13998391 0.00650108
-0.67915434 -0.61275605 -0.00000040
-0.76686237 -0.28867645 0.05363908
-0.55791028 -0.56474859 0.00000000
-0.34100011 -0.05667836 0.02385109
-0.14311528 0.22587800 0.01001013
-0.10839945 -0.76171693 0.00758195
-0.64864603 -0.01776929 -0.00000132
-0.30224193 -0.50176498 0.02114017
-0.66172198 -0.66505717 0.04628406
-0.47280574 -0.48855943 0.03307017
-0.74947983 -0.44064733 0.05242288
-0.25980198 0.11657809 0.00000000
-0.61525651 -0.52496034 -0.00000028
-0.46981039 -0.30560264 -0.00000005
-0.27687154 0.45143520 0.01936514
-0.13357994 0.09415561 0.00000857
-0.42305179 -0.20924087 -0.00000002
-0.11769939 0.03345834 0.00000000
-0.22993928 0.08559729 0.01607569
-0.22016500 0.15357809 0.00000000
-0.01510000 -0.75043568 0.00000000
-0.33661206 -0.46486295 0.00000000
-0.06778229 0.47552939 0.00000384
-0.65310893 -0.60523027 -0.00000030
-0.28328963 -0.50797416 0.00000000
-0.00824485 -0.23399111 0.00057668
-0.34511890 -0.51104801 0.00000000
-0.44349536 0.00749222 0.00000472
-0.62775331 -0.42603761 -0.00000051
-0.54002687 -0.07605455 0.03777268
-0.25910693 -0.11493008 0.01812311
-0.43025811 0.11144964 0.03009094
-0.01863521 0.47376382 0.00000000
-0.28828183 0.33372162 -0.00000041
-0.05295661 0.24072484 0.00000759
-0.05838952 -0.14887271 0.00000000
-0.77591904 -0.03845756 -0.00000183
-0.46557717 -0.34323795 0.00000000
-0.48751031 0.20986002 0.03409971
-0.19931783 0.04407960 0.00000833
-0.62050217 -0.72487549 0.04340072
-0.30792052 0.35878671 0.02153589
-0.61501952 -0.56291743 -0.00000022
-0.21352404 -0.63465362 0.01493484
-0.43857586 -0.25795315 0.03067598
-0.24605622 0.13945700 0.01720404
-0.21080261 -0.61740577 0.01474449
-0.66593786 0.06614120 0.04657925
-0.10970671 0.56336138 0.00767152
-0.28000639 -0.74791771 0.00000000
-0.12617493 -0.78977122 0.00882524
-0.26812619 -0.19890766 0.00000000
-0.32229464 -0.23606156 0.02254274
-0.62987523 -0.45985305 -0.00000046
-0.62546411 -0.45270239 0.04374824
-0.56166838 -0.03277056 -0.00000092
-0.60490853 -0.15449026 -0.00000089
-0.33302421 0.06593887 0.02328731
-0.05830962 0.59076885 0.00407616
-0.66200345 -0.60189097 0.04630386
-0.64615250 -0.38090124 -0.00000067
-0.10354643 0.54215028 0.00000231
-0.37653233 0.30233054 0.02633710
-0.12264018 -0.52702640 0.00857801
-0.68351960 -0.78094746 0.04780848
-0.08933283 0.66481932 0.00000054
-0.40795049 0.19393357 -0.00000067
-0.57295049 -0.00776143 0.04007576
-0.74964223 -0.79858368 -0.00000000
-0.29948543 0.21027425 0.02094323
-0.29818395 -0.00306308 0.02085633
-0.08154276 0.46042080 0.00000386
-0.02686884 0.64540276 0.00187740
-0.04450231 0.59081673 0.00311021
-0.56915002 -0.16173569 0.03980965
-0.41590109 0.04339050 -0.00000044
-0.18868620 0.06890625 0.01319757
-0.09844319 0.20374705 0.00687805
-0.25243584 -0.30607053 0.01765650
-0.54732417 0.05559754 0.00000192
-0.44099456 0.35210380 -0.00000109
-0.51741399 -0.16736824 0.03619077
-0.19961927 0.14091538 0.01396227
-0.24377223 -0.53354006 0.01705053
-0.03159235 0.76366030 -0.00000007
-0.08400175 0.30821622 0.00587546
-0.09442834 0.10872780 0.00660474
-0.70355090 -0.47893391 0.04921027
-0.40029247 -0.76105458 0.00000000
-0.06344632 0.14594514 0.00000000
-0.44267078 0.14571878 0.00000243
-0.78670587 -0.50590030 -0.00000074
-0.54213400 -0.70461996 0.03791930
-0.05422858 -0.16982949 0.00379299
-0.72237151 -0.06275477 0.05052748
-0.41276507 0.00009734 0.00000544
-0.45580742 0.04310290 0.03188184
-0.09268731 -0.73861640 0.00000000
-0.31810014 -0.02935138 0.02224936
-0.40546252 0.32229833 0.02836077
-0.19124249 -0.79922641 0.01337636
-0.18597435 0.29998044 0.00000000
-0.50201930 0.13853181 -0.00000097
-0.24596251 0.01489590 0.01720373
-0.17247489 -0.06043611 0.01206367
-0.08248795 -0.60967868 0.00000000
-0.57102268 0.00704067 0.03994094
-0.50126253 -0.42724687 0.03506057
-0.38767257 -0.04848961 0.02711573
-0.31496570 0.34548850 0.00000154
-0.34828972 0.36517267 0.02436167
-0.31600384 -0.07228218 0.00000000
-0.21674266 -0.14238503 0.00000000
-0.07155851 0.30971301 0.00000000
-0.45832156 -0.78983613 0.03205708
-0.53713777 -0.21381229 -0.00000050
-0.25071511 0.21390415 -0.00000003
-0.55562677 0.07347015 0.03886157
-0.09499007 -0.06733623 0.00664403
-0.20044987 -0.21996592 0.01402037
-0.15751568 0.06547431 0.00000000
-0.16655937 0.23907905 0.01164397
-0.63180714 -0.55322533 0.04419175
-0.58682399 -0.40856758 -0.00000037
-0.29365275 0.13648359 -0.00000008
-0.19605354 -0.69175893 0.01371287
-0.70985988 -0.45303970 0.04965162
-0.35631861 0.05173365 0.00000566
-0.30931335 -0.50396356 0.00000000
-0.73393815 0.01347168 -0.00000174
-0.07301593 -0.77582684 0.00000000
-0.28998023 0.15510446 0.00000520
-0.16642352 -0.60126560 0.01164041
-0.13368378 -0.50080198 0.00935045
-0.65559692 -0.62287381 -0.00000028
-0.13309238 -0.53758318 0.00930908
-0.10099262 0.26892363 0.00000644
-0.40404142 0.27963979 0.00000093
-0.00902135 -0.48473746 0.00000000
-0.20241129 0.31724540 0.00000418
-0.47327610 -0.61293548 0.03310307
-0.41456186 -0.53298743 0.02899633
-0.00957005 -0.30370769 0.00000000
-0.02112450 -0.29952799 0.00147754
-0.39073835 -0.12329344 -0.00000004
-0.63500186 -0.68613551 0.04441499
-0.21604960 -0.59087068 0.00000000
-0.58931531 0.09596846 0.04121894
-0.37214917 -0.01928475 0.02602994
-0.21245750 -0.71296156 0.01486024
-0.03757715 0.30715450 0.00262832
-0.02866593 0.53769915 0.00200150
-0.31627752 0.01236658 0.02212188
-0.48893554 -0.36541521 -0.00000003
-0.24252972 -0.66888261 0.00000000
-0.39251858 -0.47484716 0.02745452
-0.55815514 -0.32347761 0.03904029
-0.41994763 -0.71849494 0.00000000
-0.35318517 -0.30586394 0.02470337
-0.40763676 -0.55620179 0.02851196
-0.06883082 0.52971615 0.00481130
-0.27035991 -0.24804489 0.01891019
-0.43909506 -0.64229513 0.03071229
-0.25895933 0.09891048 0.00000661
-0.30148806 -0.50424899 0.02108744
-0.25100683 -0.67635351 0.01755655
-0.14034204 0.26223485 0.00981616
-0.26139940 -0.53529469 0.01828346
-0.02847030 0.11473298 0.00000985
-0.54003316 -0.39725552 0.03777255
-0.31035467 -0.70756091 0.00000000
-0.03583772 0.10887951 0.00249677
-0.27895747 0.39160414 0.01951201
-0.78632780 -0.30556313 -0.00000124
-0.35029158 0.08886498 0.02450122
-0.11165718 0.58614102 -0.00000010
-0.40800073 -0.55018284 0.02853741
-0.25449805 0.29615578 0.01779719
-0.30269811 -0.51555735 0.00000000
-0.34852966 0.31225873 0.00000145
-0.56137044 0.01593381 0.03926579
-0.21322089 0.47461513 0.01491397
-0.16088968 0.09169396 0.00000000
-0.19210664 0.38048865 0.01343346
-0.17602155 0.45495960 -0.00000014
-0.08757076 0.10389643 0.00612509
-0.05647252 0.18314341 0.00000000
-0.30209359 -0.76748837 0.02112979
-0.32326562 0.17366661 0.02261093
-0.16491255 0.20625867 0.01153473
-0.21479825 0.16220550 0.00000633
-0.21641612 0.55220106 0.01513714
-0.11347432 0.45703912 0.00000000
-0.69425878 -0.46698725 -0.00000072
-0.64346246 -0.66187045 -0.00000016
-0.51488277 -0.42487015 0.03601326
-0.00703524 0.22610071 0.00000000
-0.12204397 -0.28281241 0.00000000
-0.22934088 0.09448771 0.01603396
-0.55742646 0.11426567 0.00000075
-0.07670580 0.24755468 0.00000000
-0.65198234 -0.72064540 -0.00000009
-0.51929851 -0.51925195 0.03632208
-0.43356491 -0.72469755 0.00000000
-0.34573689 0.05724446 0.02418257
-0.26633830 0.43910784 -0.00000050
-0.37176138 0.40743827 -0.00000089
-0.70730418 -0.73668128 -0.00000016
-0.17770480 -0.31402904 0.00000000
-0.46228318 0.07829735 0.00000318
-0.06157514 0.56150865 0.00000265
-0.56476455 -0.76379472 0.00000000
-0.07753082 -0.15954464 0.00542286
-0.57605231 -0.74942815 0.00000000
-0.22867514 0.11048057 0.01598763
-0.10489020 0.43580277 0.00000388
-0.07674979 0.47005922 0.00000379
-0.03032266 0.48216079 0.00212090
-0.66124582 -0.07013820 -0.00000128
-0.20535954 0.34564721 -0.00000007
-0.64857352 -0.62785691 0.04536441
-0.47111839 -0.67174532 0.03295215
-0.13608403 0.56751498 0.00000127
-0.18763767 0.20391013 0.00000611
-0.00749573 0.36221580 0.00000000
-0.17864698 -0.32382137 0.01249538
-0.14919677 0.54654121 -0.00000019
-0.27770914 0.34227821 0.00000231
-0.45654155 -0.50727710 0.00000000
-0.25257928 0.25830853 0.00000420
-0.13838328 -0.71677059 0.00967915
-0.44388002 -0.21894106 -0.00000009
-0.05143229 0.11541218 0.00000949
-0.78287134 -0.44528219 0.05475840
-0.15749371 -0.43691592 0.00000000
-0.02860461 -0.22818411 0.00200074
-0.13430158 -0.64384939 0.00939366
-0.10810571 0.60729882 0.00756025
-0.35982137 -0.34730766 0.00000000
-0.48670090 -0.78042030 0.03404206
-0.53357028 -0.37766566 0.03732052
-0.76295610 -0.02587498 0.05336639
-0.10796176 0.27540368 0.00000000
-0.18389263 0.36038042 0.01285844
-0.72232477 -0.32858714 0.05052375
-0.23684781 -0.55775640 0.00000000
-0.34894252 -0.60061955 0.02440662
-0.10527112 0.12471833 0.00000000
-0.14014423 -0.43205513 0.00980232
-0.30361901 -0.20125978 0.00000000
-0.06783057 0.17064993 0.00000842
-0.08759980 0.31396635 0.00612713
-0.79694359 -0.48359077 0.05574257
-0.69689832 0.03906767 0.04874584
-0.12166703 0.17363690 0.00000000
-0.37693100 0.01698238 0.02636448
-0.47560895 -0.32626824 0.03326628
-0.40315886 -0.09469237 -0.00000014
-0.11578767 0.67303436 0.00809882
-0.31055481 0.41508571 0.00000047
-0.64594771 -0.61855781 -0.00000025
-0.02352583 -0.64012029 0.00164550
-0.07206656 -0.16709912 0.00504066
-0.54894635 0.04390254 0.03839369
-0.03555971 0.11355540 0.00248721
-0.03316709 0.08394515 0.00231986
-0.18366570 0.42146761 0.00000280
-0.44634775 0.05688308 0.03122017
-0.15060315 -0.60973770 0.00000000
-0.15145946 -0.79497186 0.00000000
-0.43593475 -0.43126589 0.00000000
-0.64117197 -0.73141675 -0.00000003
-0.00022096 0.23201016 0.00000000
-0.13643151 0.32566160 0.00000000
-0.36254680 0.34587050 -0.00000074
-0.37307818 -0.77701398 0.02609477
-0.00198855 -0.33817229 0.00000000
-0.19566188 0.38421544 0.00000319
-0.30006021 -0.63144881 0.02098757
-0.15693912 0.29832146 0.01097184
-0.22158735 -0.76922711 0.01549882
-0.23429486 -0.14171967 0.00000000
-0.37998704 -0.20884298 0.00000000
-0.27787921 -0.70597653 0.00000000
-0.14754371 -0.56576801 0.01031987
-0.09394800 0.12903408 0.00000000
-0.24836195 0.08110812 0.00000704
-0.60322943 -0.63845225 -0.00000003
-0.39630511 0.34273413 0.00000003
-0.14377051 0.14352935 0.01005596
-0.10779956 0.07443111 0.00000000
-0.27367525 0.51288274 0.01914274
-0.02240704 -0.00993047 0.00000000
-0.14477674 -0.49273806 0.01012634
-0.41489371 0.17215722 0.02901700
-0.40054325 0.03905032 0.02801075
-0.34132426 -0.68619357 0.00000000
-0.14660597 -0.47660071 0.00000000
-0.01990801 0.20631218 0.00138380
-0.11551708 0.02770295 0.00806988
-0.01413933 0.62961320 0.00098661
-0.28830148 0.11192003 0.02015910
-0.73687135 -0.03818645 0.05154177
-0.22629054 -0.53252906 0.00000000
-0.23784816 0.01536832 0.00000818
-0.72742385 -0.16108781 -0.00000141
-0.09175234 0.46846639 0.00000359
-0.07668349 -0.21701028 0.00000000
-0.47646364 -0.06877980 0.03332652
-0.03868889 0.09592362 0.00270608
-0.18157117 -0.48759318 0.01269991
-0.11927666 0.41777480 0.00834275
-0.52625678 -0.71925730 0.00000000
-0.00449170 0.41196941 0.00000000
-0.36403097 0.40928732 0.02546244
-0.29718125 0.08903170 0.02077998
-0.09841472 -0.13875541 0.00000000
-0.24338982 0.47882791 -0.00000047
-0.13776876 -0.61051510 0.00963617
-0.64724192 -0.09001950 -0.00000119
-0.13421464 -0.12653815 0.00938758
-0.09334821 -0.75953918 0.00000000
-0.51165541 -0.13777622 0.03578802
-0.00018450 0.47258590 0.00001290
-0.34194460 -0.27283854 0.00000000
-0.24172051 0.01212583 0.00000817
-0.02633015 0.18461050 0.00000000
-0.60293334 -0.02964602 0.04217299
-0.01691343 0.76590391 -0.00000001
-0.26167528 -0.72884831 0.01830275
-0.40842277 -0.64719563 0.02856693
-0.29477185 -0.64621392 0.00000000
-0.02551954 0.57431267 0.00000300
-0.16732489 0.06600523 0.00000849
-0.33075711 -0.34958720 0.02313465
-0.10259445 -0.62315261 0.00000000
-0.77333284 -0.13056941 -0.00000166
-0.47797174 -0.52908100 0.00000000
-0.32742991 0.12127844 0.02289684
-0.32811707 0.35825153 0.02295061
-0.39604469 -0.11343362 0.02770123
-0.29052032 0.43160330 0.02032089
-0.03746405 0.24538497 0.00261260
-0.23589392 -0.15626286 0.00000000
-0.58064478 -0.52134619 -0.00000014
-0.30673361 -0.26100092 0.00000000
-0.47416092 -0.25331991 -0.00000016
-0.60768222 0.18798749 -0.00000151
-0.12136221 -0.10327423 0.00848862
-0.06026375 -0.54474560 0.00000000
-0.21579156 -0.57367274 0.01509344
-0.12275690 -0.64577129 0.00000000
-0.41835973 0.25056479 0.00000114
-0.11254582 0.63717258 -0.00000019
-0.32184542 -0.04912632 0.00000000
-0.60538561 0.00013590 -0.00000117
-0.14014808 -0.43017000 0.00000000
-0.27409931 -0.23061047 0.00000000
-0.11937375 0.44259921 0.00834954
-0.37761570 0.23855651 0.02641001
-0.05172983 0.27202353 0.00361822
-0.26095356 0.53801281 -0.00000064
-0.13564171 0.51943231 -0.00000008
-0.26944320 0.14034994 0.01884607
-0.16481889 0.27011414 0.01152818
-0.07563729 0.06112625 0.00528041
-0.62728724 -0.74930264 0.00000000
-0.63988728 0.08634243 0.04475808
-0.00931862 -0.72591203 0.00065179
-0.68362745 0.03447181 -0.00000156
-0.15708201 0.23435388 0.01098703
-0.70834179 -0.73944017 0.04954475
-0.41191860 -0.71396929 0.00000000
-0.70784199 -0.58528754 0.04951019
-0.55311960 0.08280365 -0.00000109
-0.00100067 0.25680105 0.00000813
-0.03362032 -0.33977234 0.00235156
-0.40497978 0.24326588 0.00000152
-0.37806714 -0.69918538 0.02644372
-0.49382429 0.24331431 0.03454049
-0.06419376 0.69780800 -0.00000009
-0.48422218 0.02464865 0.03386938
-0.19242146 0.22673197 0.00000000
-0.26626580 -0.77670684 0.00000000
-0.20612794 0.13944676 0.01441752
-0.73068686 -0.38496568 -0.00000102
-0.25837604 0.05608100 0.00000726
-0.14835806 0.31097999 0.01037683
-0.02951339 0.72110372 0.00000000
-0.55470028 0.01799326 0.03879923
-0.12370645 0.37636481 0.00865259
-0.64472542 -0.09596188 -0.00000117
-0.77383114 0.00076919 0.05412678
-0.05212715 0.20761360 0.00000810
-0.23004377 0.50381920 0.01609076
-0.45122316 0.30084609 -0.00000104
-0.23160628 -0.29211422 0.01619959
-0.02403396 -0.55179195 0.00000000
-0.02248721 0.21293980 0.00156434
-0.42239032 -0.01743604 -0.00000036
-0.49607587 -0.08331196 0.03469835
-0.56813694 0.12074459 0.03973929
-0.65192730 -0.73888551 -0.00000006
-0.00087814 0.50663887 0.00005701
-0.36883993 0.08566444 0.00000485
-0.17851084 0.22618806 0.00000000
-0.08396635 0.50311787 0.00000000
-0.25612476 -0.34798819 0.01791452
-0.30643226 -0.03515303 0.02143326
-0.10845219 0.60957676 0.00000110
-0.13388551 0.31793584 0.00936456
-0.04757107 -0.44956346 0.00332734
-0.74175176 -0.72095939 0.05188162
-0.17366014 -0.30291942 0.01214657
-0.62759062 -0.14974615 0.04389752
-0.51585163 0.24205954 -0.00000122
-0.03623173 0.07379712 0.00001035
-0.06676494 0.24380465 0.00000734
-0.30727309 0.30241854 0.00000241
-0.78726602 -0.18835691 0.05506645
-0.76221007 -0.58171280 -0.00000055
-0.56649471 -0.59992908 0.00000000
-0.36071696 -0.37628268 0.00000000
-0.75676940 0.03225529 0.05293360
-0.10480044 0.66573295 0.00733043
-0.04084776 0.23730261 0.00284920
-0.74754435 0.02395244 0.05228804
-0.24183869 0.31985479 -0.00000018
-0.07593299 0.04502791 0.00001018
-0.40649690 0.04357511 0.00000483
-0.36861901 -0.15890918 0.02578288
-0.14086313 0.21309803 0.00000000
-0.04726339 0.16912353 0.00000000
-0.34623886 0.00492738 0.00000663
-0.75767148 0.00738385 0.05299680
-0.05041832 -0.44762634 0.00352649
-0.55455541 0.21317553 -0.00000133
-0.14466940 0.37424331 0.00000420
-0.10946286 -0.61951874 0.00765633
-0.75777190 -0.24648336 0.05300336
-0.18961078 0.54061457 -0.00000035
-0.19179149 -0.30404839 0.01341476
-0.53192798 0.08093173 0.00000180
-0.04223441 -0.39071828 0.00000000
-0.11110885 -0.22244671 0.00000000
-0.74781699 -0.41739366 -0.00000096
-0.45910872 -0.28419537 0.03211219
-0.34091271 0.30379739 0.00000174
-0.71400402 -0.62673171 -0.00000043
-0.29278295 0.31480856 -0.00000039
-0.06680423 0.16499677 0.00000000
-0.04594078 0.05810086 0.00000000
-0.04073756 -0.02282098 0.00000000
-0.02670133 0.18760788 0.00185878
-0.54744650 -0.13452538 0.03829157
-0.74314339 -0.04459664 -0.00000168
-0.36196069 0.29469065 0.02531782
-0.39552755 -0.46841561 0.00000000
-0.21985774 0.05076108 0.00000792
-0.43330871 0.12772905 0.03030823
-0.15377799 0.54215189 0.01075456
-0.23123592 -0.00831398 0.01617368
-0.06672511 0.53057034 0.00466706
-0.06477059 -0.29232964 0.00000000
-0.20869861 -0.17726558 0.00000000
-0.07266226 -0.50635674 0.00508233
-0.35440742 0.07285987 0.02478909
-0.55185874 0.14962742 0.00000027
-0.71517460 -0.66538438 -0.00000034
-0.42402350 -0.54271426 0.02965812
-0.66805913 0.01693679 0.04672683
-0.48310363 0.01127850 0.03378653
-0.41248683 0.30769431 0.02885208
-0.03045142 0.13049635 0.00212991
-0.44138553 0.35111034 -0.00000098
-0.65346991 -0.44476940 -0.00000059
-0.56689677 -0.39114771 -0.00000031
-0.36275128 -0.79479176 0.00000000
-0.31901174 -0.68426747 0.02231312
-0.49422727 0.28231070 -0.00000084
-0.32458753 -0.03638367 0.00000000
-0.57339503 -0.28986367 -0.00000052
-0.33596803 -0.65294755 0.00000000
-0.40872951 -0.77755456 0.02858839
-0.25280299 0.22464583 0.01767739
-0.18409780 -0.64029805 0.00000000
-0.30968932 -0.41537520 0.02166107
-0.45355232 -0.11063946 0.03172383
-0.12238699 -0.61806760 0.00000000
-0.68802901 -0.05637342 0.04812528
-0.26365294 0.13617520 0.01843505
-0.29671898 -0.74532617 0.02075387
-0.43475842 -0.25180849 0.03040897
-0.31772065 -0.39480257 0.00000000
-0.42646877 0.22434735 0.00000143
-0.17491138 -0.30186160 0.01223409
-0.12851121 0.49267450 0.00898597
-0.62454030 -0.79609280 0.00000000
-0.26358279 0.07736839 0.01843617
-0.39626505 -0.41723499 0.02771657
-0.02811228 0.40047193 0.00000000
-0.53062905 -0.69388528 0.00000000
-0.08123637 -0.32714967 0.00568204
-0.58036772 0.03519241 0.04059466
-0.40460858 -0.34896410 0.00000000
-0.03259106 0.06633416 0.00227957
-0.44107410 0.24738098 0.03084995
-0.39475794 -0.34397262 0.02761115
-0.51249809 -0.22323485 -0.00000038
-0.61244151 0.13860291 -0.00000071
-0.55869621 -0.16333671 0.03907842
-0.28835680 0.31079571 0.02016934
-0.35771393 0.38687938 0.02502092
-0.63943212 -0.53261176 0.04472515
-0.20504193 -0.22095155 0.01434156
-0.31831000 0.20887769 0.00000376
-0.68633637 -0.66626544 -0.00000033
-0.39305259 -0.51010822 0.02749187
-0.03772819 -0.61411845 0.00263888
-0.39087278 0.14883677 -0.00000052
-0.17621051 -0.65472421 0.00000000
-0.31708295 -0.31606988 0.00000000
-0.14058304 0.56208629 0.00983319
-0.55867530 -0.42051651 0.03907651
-0.68503505 -0.32167317 0.04791539
-0.51387848 -0.19738489 0.03594342
-0.02000739 0.69415867 0.00000000
-0.24682542 0.24324584 0.01726416
-0.55169720 -0.11262771 0.03858894
-0.41893593 0.37612430 -0.00000104
-0.45945724 -0.49365334 0.00000000
-0.18267168 0.04233552 0.00000861
-0.24963449 0.18236083 0.01745502
-0.54984991 -0.39845924 -0.00000023
-0.25613899 0.47128886 0.01791603
-0.51469057 0.23495005 0.03600024
-0.31304529 -0.73292844 0.00000000
-0.44070446 0.13521892 0.03082220
-0.26592121 0.43574582 0.01859875
-0.48687039 0.21381781 0.03405496
-0.19393900 0.43240598 -0.00000018
-0.24291285 0.29382930 0.01698660
-0.11774410 -0.40327314 0.00000000
-0.31063880 0.32522001 -0.00000049
-0.78816748 -0.74446481 -0.00000014
-0.14850510 -0.34359367 0.00000000
-0.15810357 0.06500991 0.01104978
-0.45615161 -0.11762315 -0.00000032
-0.22441879 0.29060303 0.00000420
-0.32536498 -0.70361173 0.00000000
-0.08076971 0.22615168 0.00564196
-0.63091942 -0.29274327 0.04413012
-0.29608541 0.33239444 -0.00000044
-0.28554187 -0.24985782 0.01997209
-0.59789547 -0.33693405 -0.00000054
-0.24101274 0.24203906 0.01685756
-0.20209303 -0.13142164 0.00000000
-0.29686609 0.19093677 0.00000447
-0.30993006 0.00317611 0.00000000
-0.36111882 0.04424206 -0.00000021
-0.66960688 -0.30645828 -0.00000090
-0.59841851 -0.53107393 -0.00000020
-0.50439396 -0.46959356 0.00000000
-0.04656898 0.35090390 0.00325117
-0.21935395 -0.10777842 0.00000000
-0.75994548 -0.10618505 0.05315566
-0.52895124 -0.47715253 0.00000000
-0.03030220 -0.07444600 0.00000000
-0.26788612 -0.14718725 0.00000000
-0.15501329 0.55016778 0.01084255
-0.40609954 -0.01941807 0.02840472
-0.24258517 -0.59324623 0.01696750
-0.00712903 0.25662963 0.00049055
-0.22712146 0.45998334 0.01588627
-0.09380684 0.47124696 0.00000000
-0.40269888 0.00634409 0.02816101
-0.58080925 0.11604938 -0.00000127
-0.72881652 -0.31778818 -0.00000113
-0.19703592 0.33493433 -0.00000002
-0.00938679 -0.41972878 0.00000000
-0.57785920 -0.40664110 -0.00000033
-0.58719232 -0.68351593 0.00000000
-0.08249708 -0.39467292 0.00577022
-0.47776446 -0.16894745 -0.00000033
-0.03376989 0.39284073 0.00000560
-0.62552952 -0.49399660 0.04375275
-0.13626609 0.06319806 0.00000900
-0.04985230 -0.63816826 0.00000000
-0.52932266 0.14863218 -0.00000111
-0.70948503 -0.33312267 -0.00000102
-0.45252182 0.26529770 0.03165241
-0.12164230 -0.42684473 0.00850821
-0.04358761 0.70633838 0.00304873
-0.61677059 -0.79287682 0.04313972
-0.57273280 -0.60934856 0.04005952
-0.23771050 0.37704631 -0.00000027
-0.27340082 0.29451024 0.01912316
-0.01652504 -0.42178174 0.00115584
-0.21799342 -0.76151682 0.01524744
-0.12402398 -0.39506869 0.00867480
-0.21870811 -0.33275866 0.01529743
-0.15038628 0.42592814 0.01051533
-0.26819360 0.26116331 0.01875887
-0.01546734 0.29134797 0.00107442
-0.10245783 -0.64408121 0.00000000
-0.72214854 -0.77697678 -0.00000006
-0.39363218 -0.33831979 0.00000000
-0.53123644 0.03319337 0.03715799
-0.07901707 0.17015275 0.00000000
-0.37183583 -0.66707626 0.00000000
-0.08767727 -0.76636411 0.00000000
-0.25199063 0.47032282 -0.00000049
-0.30673883 0.43449887 -0.00000066
-0.52269482 0.20256368 0.03655970
-0.35632310 0.05544479 -0.00000020
-0.02817003 0.57178727 0.00197034
-0.77604659 -0.57995644 -0.00000055
-0.26490897 0.30840511 0.01852919
-0.05316860 -0.06302493 0.00371885
-0.06643797 0.21225272 0.00000000
-0.46877735 0.20179586 0.03278935
-0.00370632 -0.57803873 0.00025924
-0.70655910 -0.11425159 0.04942133
-0.33718083 0.06188466 0.00000585
-0.31438117 0.17622306 0.02198482
-0.12334699 -0.22413599 0.00000000
-0.07557888 0.65545521 0.00528536
-0.62035690 0.07985047 0.04339194
-0.38988175 0.01814609 0.00000557
-0.23618256 -0.66845503 0.00000000
-0.78946282 -0.78769913 -0.00000003
-0.39214011 -0.13227888 0.02742808
-0.14470571 -0.30793177 0.00000000
-0.24702722 0.42116834 0.01727661
-0.08180623 -0.32613597 0.00572190
-0.30382325 0.46080078 -0.00000070
-0.68092297 -0.79530703 0.04762683
-0.13164544 0.02600917 0.00000000
-0.28346767 -0.40625964 0.01982701
-0.09260558 -0.68320012 0.00000000
-0.54795473 -0.12263811 -0.00000071
-0.33509083 0.21606727 0.00000332
-0.36613139 0.24041460 0.02560655
-0.13317628 -0.24645894 0.00931495
-0.18290913 0.03611788 0.01278473
-0.03039169 0.56732306 0.00212268
-0.30066106 -0.65740712 0.02102959
-0.21116170 -0.18155669 0.01476960
-0.35851428 -0.76723540 0.00000000
-0.21788933 0.39948265 0.01523764
-0.24580066 -0.68078903 0.01719241
-0.23785754 0.22850016 0.00000498
-0.05735862 0.16832752 0.00401192
-0.38003342 0.10790920 0.02658165
-0.05459421 -0.53769711 0.00000000
-0.36734725 -0.17626191 0.02569393
-0.38292354 -0.61857055 0.02678340
-0.05144197 -0.56967000 0.00359808
-0.52256107 -0.15640869 -0.00000054
-0.56794862 0.01162243 0.03972262
-0.07356823 0.22233207 0.00000755
-0.01730742 -0.58201993 0.00000000
-0.35526658 0.37977896 0.02484876
-0.11790444 -0.04553816 0.00000000
-0.08406664 0.32300738 0.00000589
-0.76310136 -0.74199786 -0.00000015
-0.46461999 0.15639086 0.03249847
-0.72150342 -0.13254253 0.05046664
-0.53330737 -0.19195255 0.03730245
-0.22272173 -0.72814334 0.01557816
-0.24663072 0.49941290 0.01725099
-0.07804888 -0.64043286 0.00000000
-0.14279726 0.03173764 0.00997845
-0.58584308 -0.67946564 0.00000000
-0.11518364 0.66713282 0.00000001
-0.32045989 0.42332157 0.00000014
-0.30894238 -0.69353830 0.02160883
-0.23461498 0.39903615 0.01640782
-0.24752295 -0.75734698 0.01731287
-0.09234460 0.54318198 0.00645652
-0.77461981 -0.27722867 0.05418169
-0.27500585 -0.69270089 0.00000000
-0.25385158 -0.08252916 0.01775553
-0.68218511 -0.09201209 0.04771644
-0.13940325 0.02113161 0.00000958
-0.35542289 0.40852560 0.02486071
-0.76228152 -0.31250344 -0.00000122
-0.58526901 0.04244817 0.04093752
-0.30079701 0.03893852 0.00000688
-0.75590065 -0.50824955 0.05287180
-0.31971822 -0.20895745 0.00000000
-0.04411887 0.29392156 0.00308587
-0.15735027 0.27684256 0.01100028
-0.33447202 -0.15211083 0.00000000
-0.16757062 -0.67522170 0.01172065
-0.61175601 -0.46934038 0.04278935
-0.20081599 0.28229504 0.01404120
-0.69008453 0.05361970 0.04826925
-0.27161996 -0.78630816 0.00000000
-0.18768306 0.61042395 0.01312787
-0.40911132 -0.72962350 0.00000000
-0.34546791 -0.48888626 0.02416359
-0.51016414 -0.36648707 0.03568330
-0.00576821 0.59309255 0.00000302
-0.01888933 0.62722952 0.00000231
-0.30069429 -0.70673347 0.00000000
-0.27401930 0.08849800 0.01915956
-0.24299040 0.22785738 -0.00000003
-0.24112244 0.03761864 0.01685734
-0.03355739 0.16588052 0.00233810
-0.11611836 0.49834197 0.00812184
-0.44007395 0.31077776 0.03078177
-0.30075901 0.39022355 0.02103700
-0.46196561 0.15934375 0.03231012
-0.17908935 -0.34565335 0.01252632
-0.44198525 0.22604319 0.03091334
-0.64095149 -0.09454919 0.04483220
-0.30598515 -0.57788615 0.00000000
-0.52943994 0.00572858 0.03703228
-0.04530600 0.39989506 0.00000000
-0.72542195 -0.05420365 0.05074087
-0.05577546 0.15292993 0.00000886
-0.46310212 0.18170844 0.00000143
-0.10344681 0.54467361 0.00000000
-0.33339228 0.02016085 0.02331229
-0.14280068 0.38448523 0.00998812
-0.03500052 0.59892529 0.00244559
-0.32181149 0.15532780 0.00000459
-0.48135341 -0.43044980 0.03366803
-0.13515322 0.49712169 0.00000246
-0.12570555 -0.02317553 0.00000000
-0.06669744 0.56470230 0.00466512
-0.16767025 -0.23075130 0.00000000
-0.76694654 -0.77618006 -0.00000006
-0.24209604 -0.27223818 0.00000000
-0.49117620 0.22774989 -0.00000108
-0.42600613 -0.48070489 0.00000000
-0.12778843 -0.76698443 0.00000000
-0.59851245 -0.15222520 -0.00000087
-0.20239786 -0.40093656 0.01415662
-0.53394142 0.22361742 -0.00000063
-0.11018156 0.57478001 -0.00000007
-0.00294411 0.79548375 0.00000002
-0.27352816 -0.13417106 0.00000000
-0.24721002 -0.25055022 0.00000000
-0.42165618 -0.05786711 -0.00000028
-0.26853364 0.32449899 0.00000279
-0.41362033 -0.25611954 0.02893047
-0.20992305 -0.46335911 0.01468297
-0.00769950 -0.67644786 0.00053854
-0.30341489 -0.74470455 0.00000000
-0.08208289 0.14998311 0.00574125
-0.36684970 -0.02204602 0.02565924
-0.42175954 0.35365946 0.02950078
-0.14811261 -0.13422925 0.01035967
-0.55556406 0.08065732 0.00000135
-0.01627414 -0.61124547 0.00113829
-0.79645293 -0.18543252 -0.00000154
-0.26984259 -0.13575671 0.00000000
-0.15757979 -0.26108008 0.01102184
-0.27719569 -0.56620836 0.01938832
-0.49078426 0.23989410 -0.00000110
-0.70782277 -0.03931979 -0.00000154
-0.30893796 0.09658824 0.02160859
-0.23060661 -0.41244081 0.00000000
-0.04957194 0.28186919 0.00000702
-0.14249595 -0.66951543 0.00996681
-0.03901828 -0.67803595 0.00272911
-0.50744360 0.03609109 0.03548986
-0.56500436 0.22396859 -0.00000139
-0.78398967 -0.23843430 0.05483716
-0.78008688 0.00138541 0.05456446
-0.24073093 0.34100671 0.01683474
-0.01482097 0.46323651 0.00000483
-0.24319698 0.05562904 0.00000000
-0.13669799 -0.43600106 0.00000000
-0.67691095 -0.55602132 -0.00000049
-0.29342233 0.35069944 0.02052140
-0.58890225 0.10219200 0.04119176
-0.71530709 -0.71178832 -0.00000022
-0.09852751 -0.20397952 0.00689146
-0.50142765 0.13417977 0.00000149
-0.47353298 -0.57763534 0.03312104
-0.05915996 0.07335703 0.00412785
-0.10246942 0.67378499 0.00000014
-0.53615275 -0.54142083 0.00000000
-0.61022361 -0.54456276 -0.00000023
-0.08882721 -0.26758631 0.00621298
-0.29704746 0.31853638 0.00000234
-0.16380429 0.56639346 0.00000076
-0.13461363 -0.49116634 0.00941549
-0.33984237 0.31371077 -0.00000059
-0.35341704 0.33691501 -0.00000069
-0.51520756 0.08662827 0.03603688
-0.21374808 -0.12175154 0.01495051
-0.66324962 -0.04314911 -0.00000134
-0.20731562 0.33548246 -0.00000006
-0.06799155 -0.74965137 0.00475564
-0.10459811 0.06834467 0.00000000
-0.27114962 0.17561182 -0.00000005
-0.39758528 -0.24808336 0.02780891
-0.16877621 -0.19343160 0.01180497
-0.14150130 -0.20732167 0.00000000
-0.19675319 -0.61357855 0.01376181
-0.62352131 0.11988833 -0.00000146
-0.37070137 -0.78648791 0.00000000
-0.12563831 0.62286923 0.00000055
-0.42747575 0.10762445 0.00000336
-0.57947254 -0.37321804 0.04053133
-0.12339783 -0.28593855 0.00863100
-0.52477983 0.19739227 -0.00000001
-0.43221542 0.34494738 -0.00000070
-0.34995279 0.21001129 -0.00000045
-0.53942038 0.20977329 -0.00000050
-0.61631246 0.14806855 0.04310864
-0.17459070 -0.75329302 0.00000000
-0.36410379 0.34346087 0.02546643
-0.54756167 0.13848733 0.00000053
-0.76530508 -0.38710023 -0.00000103
-0.20975464 0.50480181 0.01467028
-0.21406518 0.53564710 0.01497238
-0.25772548 -0.44188977 0.00000000
-0.36418547 -0.40741268 0.00000000
-0.22600783 0.07806360 0.00000000
-0.20021293 0.15398856 0.01400380
-0.23954955 -0.71292632 0.01675518
-0.20521832 0.52319632 -0.00000039
-0.24573482 0.23737929 0.01718786
-0.11605477 0.10639499 0.00810869
-0.00770653 -0.13299233 0.00000000
-0.08645170 0.37005955 0.00604164
-0.17929744 -0.74577304 0.00000000
-0.17099301 -0.18660688 0.00000000
-0.04740615 0.10699778 0.00000968
-0.53560474 -0.41700548 -0.00000013
-0.13291283 0.20785636 0.00000688
-0.50158580 0.05579195 0.00000280
-0.12302014 -0.31529217 0.00000000
-0.56445362 0.22457793 -0.00000139
-0.13148779 -0.42009344 0.00919685
-0.35451063 0.13835089 0.02479642
-0.14338438 0.50635384 0.00000215
-0.25054339 -0.48717719 0.00000000
-0.22197327 0.41494156 0.00000217
-0.49645251 -0.72207779 0.03472413
-0.00999314 -0.70430491 0.00069897
-0.37448870 0.12191178 0.00000414
-0.22815326 -0.14139936 0.01595807
-0.28555353 0.35264494 -0.00000043
-0.18815619 0.34781871 0.01315652
-0.49668264 -0.52375561 0.03474023
-0.21381562 0.56715711 0.01495545
