ply
format ascii 1.0
element vertex 1374
property float x
property float y
property float z
end_header
-0.12330440 0.25555242 0.00000462
-0.28404349 0.12166698 -0.00024426
-0.57153773 -0.57982823 0.17521029
-0.75607540 -0.64721558 -0.01265947
-0.30086706 -0.55620194 0.00000107
-0.20308624 0.07391342 -0.00000412
-0.10146223 0.55503996 0.03100571
-0.14849511 0.42677548 0.00000262
-0.36647368 -0.73759841 0.00000027
-0.25213815 0.19127329 0.17232200
-0.07548077 0.61776140 0.00682094
-0.22445797 0.25809558 0.12130682
-0.62202984 -0.62844388 -0.00245265
-0.12733106 -0.63103281 0.00000074
-0.19638169 0.18136682 -0.00000177
-0.27048136 -0.13994571 0.00000289
-0.61563246 0.02191495 -0.02370855
-0.67789042 -0.04195484 -0.02660429
-0.41227934 -0.64394822 -0.00000181
-0.39251452 -0.59146120 0.00000091
-0.05215783 0.43312197 0.00000508
-0.24874902 0.19945729 0.14731384
-0.25512987 0.18404701 0.12820731
-0.76657561 -0.29415580 -0.02532948
-0.12415624 0.52912745 -0.00095997
-0.03958344 0.49841112 0.00000829
-0.42233503 -0.65255161 0.00000065
-0.28347361 0.11562459 0.17364940
-0.32822574 0.35292835 -0.01155865
-0.14883856 -0.20538479 0.00000170
-0.39735517 -0.76469850 0.00000015
-0.09326961 0.23339185 0.00000452
-0.51560642 -0.49907970 -0.00000180
-0.15409562 0.42796502 0.14787143
-0.32583663 0.37038203 -0.01194987
-0.01762286 0.23660166 0.00000443
-0.28614713 0.14957074 -0.00134569
-0.20505736 -0.78510454 -0.00000117
-0.13520819 -0.71148113 -0.00000043
-0.22160833 -0.44002080 0.00000157
-0.32687141 -0.01697241 0.00000145
-0.40507911 -0.43792201 -0.00000086
-0.05286253 -0.54404743 0.00000080
-0.32498172 -0.36611261 0.00000190
-0.25985691 0.37672022 -0.00682835
-0.32674980 0.01115750 0.07597650
-0.22725359 -0.69875396 0.00000044
-0.30336672 0.04101919 0.00000368
-0.09743776 0.30039285 -0.00000193
-0.10721017 0.10211920 0.00000974
-0.54034288 0.00353411 -0.01700808
-0.14475926 0.45050395 0.14865385
-0.51743549 0.15712740 -0.02029768
-0.12387835 -0.58723924 0.00000093
-0.74775993 -0.17024024 -0.02795741
-0.44220609 -0.26759792 0.24633019
-0.72901564 -0.52574049 -0.01453959
-0.60186403 0.13110745 -0.02625209
-0.31969550 0.02816802 0.25061101
-0.43708366 0.11484435 -0.01238744
-0.28771603 -0.20091955 0.00000262
-0.23716650 0.22741250 0.22711053
-0.13984788 0.46237090 0.03384000
-0.18871899 0.34437841 0.07690831
-0.64959628 -0.41866546 -0.01170457
-0.05206443 -0.05806189 0.00000293
-0.08597280 -0.63874708 0.00000071
-0.61079087 -0.67459134 0.15312360
-0.29945749 0.07703485 0.01034392
-0.54722589 0.18223356 -0.02354690
-0.37156940 0.23972384 -0.01127089
-0.40807634 -0.18520698 0.40645637
-0.68644160 -0.36431414 -0.01650282
-0.19884031 0.46316862 -0.00479017
-0.65683539 -0.37458553 -0.01376559
-0.36228224 -0.46835514 0.00000145
-0.06341934 -0.30675736 0.00000178
-0.51966495 -0.34792252 -0.00356957
-0.09341253 0.11992387 0.00000346
-0.63045651 -0.75391046 0.00000020
-0.32601287 -0.46362061 0.00000147
-0.31550978 0.03829468 0.05200464
-0.33235564 -0.00239761 0.29264309
-0.54341898 -0.51194528 0.25696592
-0.32851056 0.03971281 -0.00109168
-0.47389130 0.26996699 -0.02055608
-0.45740087 -0.30427710 0.12183187
-0.66535106 -0.76783834 -0.00128770
-0.48097779 -0.56317828 0.00000104
-0.10941920 -0.31228420 0.00000213
-0.12361937 -0.02737172 0.00000338
-0.27770811 -0.23301568 0.00000080
-0.09631029 -0.76174336 -0.00000041
-0.19671541 0.04836021 -0.00000492
-0.27677649 0.23215913 -0.00335614
-0.13221840 0.48078105 0.12328017
-0.21557417 0.27954354 0.10303231
-0.38916763 -0.13955615 0.36867534
-0.34228719 -0.62941553 -0.00000132
-0.58176888 -0.37793050 -0.00758530
-0.16543495 0.32419841 0.00000069
-0.27998511 -0.02726853 0.00000169
-0.00106767 0.78111932 0.00000692
-0.20022311 0.00886334 0.00000233
-0.13383633 -0.60357960 0.00000005
-0.40135568 -0.16897089 0.07812243
-0.36935348 -0.37894847 -0.00000039
-0.14220965 0.54727261 -0.00302718
-0.03028537 0.53323243 0.00000565
-0.04947426 0.04245882 0.00000339
-0.63294019 -0.77718572 0.00000010
-0.21856163 0.01773355 0.00000859
-0.36060254 -0.07057829 0.19550419
-0.23432870 -0.32305039 0.00000067
-0.00564299 0.14855230 0.00001099
-0.36603267 -0.12524661 0.00000295
-0.62533529 -0.07005039 -0.02141514
-0.75806452 -0.10863317 -0.03085305
-0.16065824 0.41212029 0.15499188
-0.11266267 0.22116588 0.00000447
-0.03169515 0.11715542 -0.00000826
-0.40540791 -0.17876075 0.28535465
-0.46583629 -0.32464188 0.11903214
-0.21838773 0.21021609 0.00000739
-0.02956248 -0.40819002 0.00000154
-0.33550818 -0.18872070 0.00000267
-0.31409949 -0.52255720 -0.00000068
-0.25864517 0.17557869 0.00310505
-0.28263650 -0.47782603 0.00000141
-0.33002377 0.00324727 0.15117808
-0.33232036 -0.00231268 0.33581463
-0.02149759 0.29696450 -0.00000430
-0.00858458 -0.63711999 0.00000071
-0.31651628 -0.72832874 -0.00000160
-0.44929728 0.04008211 -0.01086927
-0.01419350 0.25856255 0.00000455
-0.38664617 -0.38860585 0.00000180
-0.23834502 -0.55050828 0.00000109
-0.22562106 -0.59261591 0.00000091
-0.48768234 -0.37737892 0.00376122
-0.14794484 -0.75533613 -0.00000070
-0.30079279 0.02098658 0.00000733
-0.42461591 -0.67361914 0.00000055
-0.39085867 0.30924251 -0.01515843
-0.22634558 0.34599913 -0.00309077
-0.13164857 0.52902984 -0.00156243
-0.09290917 -0.14951787 0.00000229
-0.44998784 0.13066899 -0.01395870
-0.13002663 -0.79005450 0.00000004
-0.18751582 -0.19178900 0.00000153
-0.38997254 -0.14149048 0.10407516
-0.20757792 0.29885711 0.07052812
-0.02820373 0.56783164 0.00000598
-0.26109875 0.16963872 0.19976686
-0.15273919 0.57724657 -0.00488278
-0.60539357 -0.03747181 -0.02089381
-0.67198420 -0.52619847 -0.00991413
-0.28294484 -0.38691757 0.00000010
-0.08080487 0.27107490 0.00000420
-0.22596221 0.10201878 -0.00000276
-0.32672526 0.34666102 -0.01122653
-0.26857399 0.39363116 -0.00809921
-0.12654150 -0.40654372 0.00000172
-0.26283921 0.16543777 0.04687394
-0.12598432 0.04501472 -0.00000713
-0.21263835 -0.45593958 0.00000151
-0.27971155 0.12470201 0.23012388
-0.58706713 0.16149261 -0.02607375
-0.37605159 -0.10788481 0.17571765
-0.49974922 -0.06603244 -0.01139742
-0.27356140 0.20753655 -0.00226935
-0.30537867 0.09710723 -0.00114670
-0.18914658 0.05322483 0.00000259
-0.45482574 -0.29806214 0.17939929
-0.15302142 -0.60315540 0.00000086
-0.51306286 -0.43866073 0.24049079
-0.06720545 0.63773831 0.06390983
-0.24622905 0.23998793 -0.00114883
-0.35881999 -0.75599460 -0.00000197
-0.37316439 -0.64107743 0.00000070
-0.04306068 -0.66021382 0.00000035
-0.36263558 -0.07549204 0.06441748
-0.31941366 -0.48005437 -0.00000053
-0.57192633 0.17622915 -0.02534317
-0.31131695 -0.52080399 0.00000122
-0.19888785 0.14182153 0.00000811
-0.43035457 -0.23898986 0.36524249
-0.24716575 0.20328696 0.05985317
-0.16295336 0.40658887 0.05582680
-0.42594296 0.32264910 -0.01844424
-0.26333903 0.16424408 0.03750560
-0.61962796 -0.69592543 0.15026367
-0.22220385 0.29231006 -0.00095843
-0.07986326 0.44707952 0.00000800
-0.37158798 -0.09711425 0.37758405
-0.34601692 -0.04164800 0.00000123
-0.38172236 -0.68599808 -0.00000181
-0.19383491 0.41753500 -0.00285770
-0.20598981 -0.43014583 0.00000162
-0.05881798 -0.33877285 0.00000166
-0.64070786 0.13022021 -0.02936299
-0.53512436 -0.49192048 0.20169052
-0.56669782 -0.56814396 0.21035169
-0.09030039 0.48376569 0.00000761
-0.11301290 0.52715469 0.03333365
-0.60633983 -0.66384377 0.03203548
-0.35798066 0.30463226 -0.01234703
-0.17373207 0.38056918 0.03509838
-0.54070341 0.20332858 -0.02372601
-0.35515047 0.10914333 -0.00557054
-0.09952175 0.12926397 0.00000346
-0.27604253 0.40742279 -0.00916471
-0.33610886 -0.47504235 0.00000142
-0.05267730 -0.75488387 -0.00000012
-0.19105554 0.33873848 0.04779668
-0.47231974 -0.34029666 0.19022137
-0.01616351 -0.29990084 0.00000209
-0.44685129 0.16821328 -0.01496242
-0.66850735 -0.81392777 0.07714450
-0.51045266 -0.45344805 -0.00000156
-0.35259923 -0.73818153 0.00000027
-0.40841394 -0.18601543 0.21042250
-0.36147825 -0.07270595 0.35553313
-0.18362155 -0.34508088 0.00000199
-0.40729913 0.02935807 -0.00711472
-0.50090309 -0.15935389 -0.00836625
-0.24473863 -0.36483275 0.00000043
-0.01027442 -0.45270424 0.00000146
-0.05095847 0.55674847 0.00000563
-0.29021073 -0.59811247 -0.00000087
-0.29748299 -0.32269514 0.00000029
-0.65948264 0.11973105 -0.03052939
-0.33192926 -0.72203818 0.00000034
-0.26554426 0.15890872 0.00242831
-0.33314821 -0.55043624 -0.00000092
-0.29998057 -0.24479735 0.00000243
-0.39944268 -0.34053491 0.00000201
-0.28449187 0.11317603 0.05940679
-0.07807279 0.61150723 0.01226843
-0.12358838 0.24777962 0.00000859
-0.24658500 0.20469315 0.01058438
-0.31754799 0.03335761 0.09959777
-0.42517222 -0.22647148 0.15280130
-0.29132012 -0.55177391 -0.00000067
-0.42238924 -0.79447613 0.00000002
-0.52482936 0.02844456 -0.01658800
-0.14928465 0.43957859 0.15246279
-0.03016539 0.32353353 0.00000952
-0.21734755 0.27527755 0.00175069
-0.79255517 0.00422645 -0.03741983
-0.41232447 0.16889710 -0.01219393
-0.02252788 0.62050912 0.00000342
-0.02957097 0.21751279 -0.00000594
-0.05821554 -0.14555061 0.00000251
-0.16791959 -0.37663555 0.00000084
-0.62263851 0.17338334 -0.02934739
-0.21522993 -0.36626293 0.00000190
-0.36372457 -0.43974351 0.00000158
-0.30576209 0.06180719 0.28712893
-0.42917554 -0.23614343 0.36468248
-0.63009523 -0.72119457 0.04159174
-0.71077420 -0.76995474 -0.00488829
-0.19122333 0.33832985 0.18576851
-0.02280792 -0.09752025 0.00000294
-0.36151095 -0.56988909 0.00000101
-0.26657354 0.06700315 0.00000218
-0.01157867 0.77203523 0.00033505
-0.16299821 0.24808234 0.00000459
-0.46565071 -0.46916547 0.00000145
-0.14634991 0.05976414 0.00000376
-0.14371746 0.26653245 0.00000467
-0.68730269 0.04921272 -0.03041701
-0.47154504 -0.73449428 -0.00000256
-0.15919026 -0.64654140 -0.00000029
-0.46556257 0.23765528 -0.01880066
-0.56413816 -0.56196453 0.16784452
-0.25000592 0.19643466 0.00885520
-0.24828027 0.00437555 0.00000352
-0.22406786 0.26830788 -0.00030551
-0.15580000 0.59388635 -0.00568732
-0.49372480 0.20260400 -0.01990368
-0.15531839 0.42501582 0.11535969
-0.30611978 0.37273559 -0.01043384
-0.30301346 0.35826350 -0.00969914
-0.44734720 -0.28001256 0.33320737
-0.32045388 0.12826457 -0.00340853
-0.05823162 0.19086099 0.00000398
-0.65271858 0.00441367 -0.02612075
-0.41283631 -0.51077292 0.00000127
-0.03289893 0.35132307 -0.00000266
-0.58689425 -0.61690124 0.18798534
-0.35132046 -0.04818097 0.24271710
-0.14860733 -0.57118353 0.00000100
-0.59133563 -0.65644877 -0.00000294
-0.22937772 0.17774596 0.00000743
-0.02778520 0.61561570 0.00000773
-0.13269353 0.44167308 0.00000463
-0.07827159 0.49221880 0.00000565
-0.39906134 0.30777519 -0.01577245
-0.59269677 0.15542760 -0.02632578
-0.35400590 -0.05466872 0.37804573
-0.03833068 0.25325589 0.00000438
-0.36653102 0.30357215 -0.01300274
-0.15465194 0.23284518 0.00000359
-0.31541041 0.03851857 0.08842551
-0.42212193 -0.63619807 -0.00000183
-0.43319799 0.09646704 -0.01145593
-0.55890353 -0.35766289 -0.00641546
-0.76616767 0.00008142 -0.03514767
-0.24504601 0.20839503 0.02407407
-0.21052680 0.29318223 -0.00004134
-0.16625946 0.35768181 0.00000506
-0.19888060 0.31985696 0.03306319
-0.03630710 0.42419067 0.00000536
-0.15781645 0.12933153 -0.00000417
-0.61685562 -0.37894275 -0.01038779
-0.12703149 0.27143480 0.00000392
-0.09142142 0.23063223 0.00000451
-0.32666722 0.01133593 0.32343147
-0.00289044 0.09127035 0.00000390
-0.43095585 0.01982268 -0.00870797
-0.22378986 0.25970578 0.22687329
-0.11262509 -0.71682864 0.00000036
-0.58674299 -0.35706655 -0.00868594
-0.13431796 0.55329142 -0.00259160
-0.13601415 0.47162125 0.00632763
-0.31384954 -0.07757811 0.00000316
-0.70594442 -0.01186360 -0.02987961
-0.18289061 -0.02812539 0.00000338
-0.17583518 -0.18407176 0.00000163
-0.40046730 -0.00664238 -0.00535998
-0.75591985 -0.64912319 -0.01258302
-0.40987880 -0.41077883 0.00000170
-0.67270075 -0.68012953 -0.00481837
-0.67762620 -0.41839464 -0.01397955
-0.03899352 -0.11037594 0.00000302
-0.64325358 -0.75296127 0.07432514
-0.33942802 -0.01946924 0.30747680
-0.42191433 -0.65309144 0.00000064
-0.44369835 -0.51801447 -0.00000144
-0.26950594 -0.36746670 0.00000189
-0.09488750 -0.58421420 0.00000094
-0.05139508 0.26250245 0.00000958
-0.03509739 0.29805686 -0.00000386
-0.63857261 -0.74166074 0.15828304
-0.15128411 0.32665128 0.00000032
-0.10006136 -0.49253626 0.00000135
-0.02535758 0.30084795 0.00000466
-0.19311263 -0.78589164 -0.00000110
-0.19619357 -0.44412159 0.00000156
-0.09544472 0.44286409 0.00000486
-0.21677271 0.14733741 0.00000414
-0.09762672 0.53123358 0.00000356
-0.57233359 -0.58174958 0.22129137
-0.06617408 -0.16563304 0.00000278
-0.57721234 -0.59352622 0.09986736
-0.29396635 0.46862517 -0.01266274
-0.04104970 -0.27405584 0.00000230
-0.49084447 0.12020394 -0.01691137
-0.09396195 0.28812556 0.00000476
-0.13718868 0.03014451 0.00000280
-0.15389584 0.17590906 0.00000427
-0.24652179 -0.54237247 0.00000113
-0.42062202 -0.43471298 -0.00000094
-0.15955024 -0.55014370 0.00000013
-0.07671470 0.20440350 0.00000439
-0.07702193 0.61403840 0.08044963
-0.26514893 0.15986151 0.05059344
-0.04748812 0.21821158 0.00000417
-0.38075170 -0.11922916 0.09558191
-0.24009482 -0.43612355 0.00000159
-0.42610074 0.29354172 -0.01748247
-0.30168612 0.07164811 0.20015813
-0.32555247 0.44201749 -0.01432504
-0.41386276 -0.63001797 -0.00000175
-0.17243600 -0.43501381 0.00000056
-0.21293058 0.16880784 -0.00000157
-0.04571416 0.55345877 0.00000252
-0.04130430 0.40636804 0.00000503
-0.64016336 -0.26167965 -0.01619798
-0.26767307 0.14816083 -0.00000040
-0.30191275 0.07112164 0.03231147
-0.43921823 -0.07868720 -0.00608047
-0.25150629 0.11736734 0.00000250
-0.31303650 0.04425168 0.02823207
-0.39801632 -0.16091043 0.12132203
-0.45007627 -0.28660041 0.31304995
-0.01440336 0.62083021 0.00000790
-0.25948453 0.17353434 0.11651017
-0.00928585 -0.74332963 0.00000019
-0.41881117 -0.21112277 0.39695734
-0.64815234 -0.76478766 0.11974013
-0.45957598 -0.76375544 -0.00000262
-0.41291944 -0.28613616 0.00000225
-0.51208376 -0.43629320 0.12791636
-0.17328408 -0.33652971 0.00000203
-0.60113618 0.01212499 -0.02221018
-0.13365888 0.03006215 0.00000980
-0.49761523 -0.79498296 -0.00000298
-0.40797785 -0.33885089 -0.00000044
-0.70199459 0.05147640 -0.03168096
-0.43431806 0.20107553 -0.01505093
-0.62046288 -0.71816204 0.00000036
-0.35005937 -0.63698792 0.00000071
-0.07961941 -0.16361190 0.00000230
-0.07969244 -0.63012595 0.00000074
-0.43936150 -0.29213044 0.00000222
-0.06642083 0.43704586 0.00000501
-0.43875879 -0.67068489 0.00000057
-0.31919643 0.02939467 0.05031145
-0.54436718 -0.51423086 0.09117678
-0.12600580 -0.02238175 0.00000264
-0.08258678 0.51631904 0.00000576
-0.05430442 0.42701361 0.00000851
-0.04250653 0.09949835 -0.00000835
-0.58522262 0.12042546 -0.02454969
-0.00332571 0.26607253 0.00001029
-0.28891642 -0.63530521 -0.00000102
-0.40727764 -0.18327332 0.24522087
-0.40959519 -0.29595037 -0.00000027
-0.15791163 -0.26127704 0.00000140
-0.04281868 0.53532962 0.00000801
-0.18084277 0.61379781 -0.00837840
-0.43541859 -0.57853419 -0.00000166
-0.25092873 0.19419070 0.19967327
-0.45929684 -0.30886038 0.30092878
-0.01658132 0.17484832 0.00001066
-0.36942048 -0.09187391 0.28724236
-0.73775275 -0.65769214 -0.01082772
-0.21769066 0.27443315 0.19183129
-0.22659927 0.25294012 0.02982115
-0.38374140 -0.10198738 -0.00081568
-0.24839237 0.20031384 0.20001017
-0.27512492 0.13577643 0.07926654
-0.25509956 0.18413667 0.02251446
-0.65280146 0.05736818 -0.02790150
-0.47800876 -0.35402577 0.03049083
-0.33020653 0.36997311 -0.01228866
-0.04030588 0.05154359 0.00001107
-0.32229921 0.02189590 0.14703742
-0.64347286 -0.34968843 -0.01351894
-0.43118311 -0.41858436 -0.00000093
-0.63301092 -0.72869407 -0.00000351
-0.00989996 0.62613698 0.00000317
-0.27003428 -0.45054231 -0.00000010
-0.07745503 -0.59963958 0.00000041
-0.32729100 0.00985506 0.02757516
-0.40550987 -0.16326556 -0.00052380
-0.29901485 0.23025976 -0.00509027
-0.43869188 0.28917561 -0.01835358
-0.34266072 -0.02727275 0.18875853
-0.44981823 0.11388161 -0.01338281
-0.16930670 0.48639126 -0.00317907
-0.59746584 0.04911765 -0.02315200
-0.28659708 -0.07445033 0.00000144
-0.25169047 0.19236741 0.01456544
-0.75863587 -0.46487690 -0.01897157
-0.25948919 -0.23691732 0.00000090
-0.14697627 0.40813650 0.00000529
-0.44560791 -0.10636044 -0.00567049
-0.24173391 -0.76513097 -0.00000131
-0.30618797 -0.71300775 0.00000038
-0.34643011 -0.03637356 0.21039625
-0.21764503 0.05618418 0.00000375
-0.46120763 -0.31346481 0.04437464
-0.27431258 0.33991822 -0.00676333
-0.63681700 -0.37947263 -0.01198370
-0.43345516 0.13458126 -0.01275492
-0.04992878 0.59137160 0.00000355
-0.50850041 -0.13703531 -0.00972764
-0.13508097 -0.78745238 0.00000005
-0.09785532 0.24129599 0.00000902
-0.06550033 -0.48054485 0.00000140
-0.30575869 0.06183410 0.06604324
-0.05505574 0.47296036 0.00000557
-0.31828254 0.25090970 -0.00733741
-0.00080507 0.38602028 0.00000519
-0.24532633 0.12522158 0.00000752
-0.32738924 0.00959221 0.29575166
-0.14521547 0.19390574 0.00000347
-0.17514136 0.40924084 -0.00106884
-0.16775855 0.49791872 -0.00344100
-0.34499166 -0.65889510 -0.00000146
-0.31901753 -0.36079839 -0.00000000
-0.02487339 0.14870831 0.00001070
-0.32884251 0.18017189 -0.00582226
-0.66621170 0.07275673 -0.02950032
-0.02047037 0.62090233 0.00000609
-0.46263895 -0.31691911 0.00834683
-0.04754030 -0.51760579 0.00000124
-0.41204218 -0.37550189 0.00000186
-0.05291912 0.20394510 0.00000439
-0.37956808 0.07811426 -0.00650552
-0.45432605 -0.29685830 0.25446110
-0.07280305 0.61138916 0.00000708
-0.46398176 -0.44749494 0.00000154
-0.27228960 0.13694421 -0.00000053
-0.22473920 -0.48967207 0.00000000
-0.16300095 0.56446897 -0.00528397
-0.39403943 -0.60857763 -0.00000154
-0.35593269 -0.24505469 0.00000243
-0.27198047 0.14336903 0.04195020
-0.08528194 0.59409831 0.07073448
-0.56268710 -0.55846146 0.17538571
-0.47114159 -0.72276489 0.00000034
-0.23171902 0.24056214 0.23331014
-0.16111286 0.41102963 0.08544858
-0.10933747 -0.72879983 0.00000031
-0.45937795 -0.45581171 -0.00000127
-0.00638324 0.61590605 0.00000619
-0.10733761 0.27563152 0.00000406
-0.31740689 -0.41442264 -0.00000023
-0.22016487 0.05365472 0.00000373
-0.21517352 0.28051727 0.10491979
-0.19896083 0.07529644 0.00000853
-0.19581356 0.32725315 0.00227858
-0.70928908 -0.56674359 -0.01157227
-0.27829685 -0.68325191 0.00000051
-0.35997602 -0.06907449 0.29840888
-0.53385294 0.03087250 -0.01739875
-0.24432431 0.33913681 -0.00431440
-0.04471261 0.05726147 0.00000375
-0.39190635 -0.60027610 -0.00000149
-0.26959232 0.15337136 -0.00013456
-0.31105683 0.04904585 0.03928498
-0.26138520 0.16894526 0.13004577
-0.05330958 -0.38756517 0.00000180
-0.09362039 0.12106022 -0.00000630
-0.11814089 0.34714486 -0.00000019
-0.28526564 0.11128855 0.26010513
-0.26879498 0.15106908 0.07881204
-0.21435258 0.28249356 0.07793510
-0.30144069 -0.48344481 -0.00000043
-0.20948135 0.11323082 0.00000813
-0.22688711 0.25223754 0.12069550
-0.37546904 -0.10647630 0.28993899
-0.03137395 0.27574732 0.00000471
-0.17047766 0.34152544 0.00000729
-0.12214729 0.50509892 0.00105506
-0.09395793 -0.07662063 0.00000316
-0.32903970 -0.55835789 -0.00000093
-0.32211711 0.35230151 -0.01104286
-0.22336134 0.26075385 0.06686163
-0.17608839 -0.66724599 0.00000058
-0.33338851 -0.00487046 0.08916123
-0.26116031 0.03305115 -0.00000333
-0.05834780 0.65912443 0.03541099
-0.28173080 -0.43592920 0.00000159
-0.15012614 0.43754779 0.13042148
-0.54166776 -0.50771722 0.18976705
-0.27992869 -0.60616464 0.00000085
-0.20545816 0.30396393 0.15538966
-0.26438852 0.06620265 0.00000219
-0.56914074 -0.37580122 -0.00663575
-0.32340003 0.01922506 0.30414189
-0.03567220 0.71386670 0.03290963
-0.72791166 0.04690125 -0.03362289
-0.50458669 0.16332158 -0.01946735
-0.27987927 0.12429560 0.16338485
-0.09248078 0.32158462 -0.00000157
-0.24605805 -0.15903760 0.00000132
-0.22669990 0.25268005 0.21232783
-0.52907659 0.10840645 -0.01960851
-0.44291002 -0.26930126 0.36880891
-0.05190872 0.00042200 -0.00001042
-0.29232900 -0.48390864 -0.00000038
-0.16357472 0.14404219 -0.00000364
-0.33971819 0.18675586 -0.00692201
-0.12013616 0.32058403 0.00000418
-0.54136815 -0.62738669 0.00000076
-0.59933901 -0.31983329 -0.01095078
-0.16094332 -0.21952881 0.00000254
-0.00557425 0.04042757 -0.00001087
-0.74771848 -0.59364324 -0.01377774
-0.71577783 -0.26600909 -0.02216562
-0.20964167 0.29386282 0.19312385
-0.54043435 -0.16834521 -0.01126088
-0.11735629 -0.48295019 0.00000068
-0.18246629 -0.49898148 0.00000132
-0.32208775 -0.31691544 0.00000017
-0.29298102 0.46060726 -0.01231428
-0.56606386 -0.64236907 -0.00000273
-0.33833594 -0.01683135 0.29044013
-0.60972116 -0.23230125 -0.01472067
-0.12907902 0.10481961 0.00000396
-0.07993008 0.10226540 0.00001015
-0.03382477 -0.36411367 0.00000170
-0.26277072 0.16559746 0.25707560
-0.11944875 0.39708842 0.00000104
-0.15736487 0.02043135 0.00000264
-0.77721612 -0.44371232 -0.02118200
-0.05304628 0.48068109 0.00000102
-0.00067164 0.01180672 -0.00001170
-0.74396002 0.04935583 -0.03500241
-0.35911978 0.38901767 -0.01526438
-0.33754051 -0.01491204 0.30208697
-0.08785473 0.08120014 0.00000332
-0.09851861 0.56214788 0.01255728
-0.50725154 -0.42463154 0.30977180
-0.02694469 -0.29059980 0.00000207
-0.12804548 0.36443475 0.00000509
-0.21631503 0.27775059 0.23265941
-0.31244327 0.04437844 0.00000369
-0.30439081 0.06511597 0.30706402
-0.26374773 -0.25861598 0.00000237
-0.17201661 -0.55013245 0.00000109
-0.73580160 0.04238067 -0.03410920
-0.52585620 -0.46954354 0.15164988
-0.78597561 -0.76343150 -0.01118502
-0.09927187 -0.59531405 0.00000030
-0.79138507 -0.19304091 -0.03072034
-0.16644145 -0.54373422 0.00000112
-0.08699355 0.26174260 0.00000905
-0.35054884 -0.04631155 0.24767138
-0.25448389 0.18560860 0.06627766
-0.23339175 0.26618880 -0.00098829
-0.17381188 0.38036533 0.16707805
-0.17670960 -0.07935602 0.00000315
-0.06731051 0.05656378 -0.00000863
-0.11758214 0.46888043 0.00000268
-0.62110021 -0.69947758 0.00812506
-0.05354374 0.11049858 -0.00000776
-0.24243802 -0.08818424 0.00000165
-0.40381530 -0.17490650 0.00627159
-0.67503877 -0.82969561 0.07942966
-0.03675333 0.07091487 -0.00000921
-0.10658694 0.30924284 0.00000485
-0.17982931 0.36585084 0.01933383
-0.28939769 0.10131147 0.30353919
-0.45084964 -0.28846498 0.23811503
-0.30482718 0.06406873 0.08672546
-0.29421123 -0.71985641 -0.00000143
-0.06267795 -0.47470585 0.00000142
-0.12818116 0.49053084 0.03222872
-0.09848124 -0.71010463 -0.00000020
-0.74884000 -0.52134342 -0.01628916
-0.35078437 -0.04687291 0.16219700
-0.13022249 0.34858005 0.00000503
-0.14078915 -0.27354224 0.00000230
-0.42659593 0.12737545 -0.01195724
-0.74323659 -0.69009169 -0.01018614
-0.22682924 0.00853985 -0.00000495
-0.18116612 -0.47599030 0.00000142
-0.49439693 -0.39359583 0.19726866
-0.65862864 -0.58274676 -0.00694122
-0.52951585 -0.77441608 -0.00000308
-0.02126801 0.46850685 0.00000555
-0.01523725 -0.49476565 0.00000134
-0.15958743 0.00149265 0.00000351
-0.76905510 -0.08197342 -0.03263410
-0.24554002 0.04408135 -0.00000354
-0.15769490 -0.24836791 0.00000146
-0.31062038 -0.42803079 0.00000163
-0.43666987 -0.25422529 0.03665458
-0.13584319 0.20907564 0.00000359
-0.62857072 -0.71751462 0.13649835
-0.47809855 -0.35424554 0.11983635
-0.11289009 0.44031834 0.00000543
-0.28200060 0.25122986 -0.00441485
-0.40376250 -0.17478473 0.17622249
-0.23870720 -0.73083155 0.00000030
-0.12487466 -0.69451046 0.00000046
-0.11070601 0.12660813 0.00000405
-0.45800919 -0.30574470 0.09165560
-0.07850040 0.19747076 -0.00000494
-0.05469002 -0.06051893 0.00000324
-0.41471623 0.34119680 -0.01815767
-0.67414926 -0.26239076 -0.01892156
-0.05063580 0.67774197 0.01791627
-0.09626630 -0.14307248 0.00000287
-0.03714241 -0.53002930 0.00000118
-0.07224276 -0.06082347 0.00000323
-0.30437719 0.36781567 -0.01012819
-0.04698864 0.55298977 0.00000564
-0.60952934 -0.67154579 0.13224881
-0.55400071 -0.51054631 -0.00090052
-0.37618206 0.30183524 -0.01372476
-0.37836929 -0.11348159 0.21626524
-0.34887227 -0.04227290 0.31316438
-0.53035792 -0.48040659 0.00160471
-0.14601286 0.38425453 0.00000430
-0.35275484 -0.69769723 0.00000045
-0.65715606 0.08387201 -0.02914044
-0.55618182 -0.45604049 -0.00290171
-0.15889554 0.41637781 0.09553256
-0.07102900 0.36729720 0.00000863
-0.12891177 0.29602700 0.00000820
-0.69389051 -0.71136222 -0.00548545
-0.31480837 0.03996605 0.31119712
-0.47333136 0.01986876 -0.01213784
-0.44939331 -0.40752579 0.00000172
-0.44181242 -0.24009188 -0.00088628
-0.23376612 0.23562084 0.20899395
-0.59658748 -0.69813906 0.00000045
-0.19995524 0.31725475 0.12577616
-0.29019377 -0.01872468 0.00000342
-0.22379918 0.05824623 0.00000240
-0.43670273 -0.25431121 0.23241688
-0.05133514 0.65248889 0.00000505
-0.54152261 0.09804081 -0.02026633
-0.43161005 0.14897682 -0.01308773
-0.33974123 0.42865997 -0.01502484
-0.04830312 0.68337652 0.00361910
-0.47832632 -0.35479523 0.11366515
-0.14911606 0.43998861 0.12237363
-0.23531943 -0.03684711 0.00000334
-0.07429849 -0.39048152 0.00000179
-0.12535951 0.42236010 0.00000459
-0.42442283 -0.69083970 -0.00000208
-0.21943534 -0.11662361 0.00000167
-0.11101378 0.04290837 0.00001006
-0.66359462 0.12506734 -0.03104061
-0.36758283 -0.08743364 0.24104896
-0.46916194 -0.39578597 0.00000177
-0.20721180 -0.76558405 0.00000015
-0.74831381 -0.69819826 -0.01032509
-0.14387342 -0.68071465 -0.00000035
-0.33141809 -0.70932773 -0.00000160
-0.17621582 -0.33939548 0.00000095
-0.37420175 -0.56286445 -0.00000122
-0.27154571 0.21716512 -0.00242884
-0.27018139 0.14771194 0.05521533
-0.60072383 -0.72698119 0.00000032
-0.38648334 -0.19940282 0.00000263
-0.71772890 -0.49431342 -0.01467957
-0.05441313 0.32230170 0.00000916
-0.20526852 0.54291385 -0.00797972
-0.30270778 0.06918618 0.06358149
-0.37013436 -0.54029175 0.00000114
-0.54834837 -0.66649003 0.00000058
-0.48871462 0.04091493 -0.01408604
-0.17688898 -0.76271295 0.00000016
-0.40593941 -0.18004568 0.33833344
-0.11534646 0.32554343 -0.00000079
-0.73586099 -0.37007465 -0.02030496
-0.25189517 -0.63142268 -0.00000078
-0.55084230 -0.52986166 0.04669790
-0.01426838 0.12832125 0.00000398
-0.06750743 0.33945765 0.00000499
-0.35852052 -0.55508925 0.00000107
-0.06158024 -0.42338017 0.00000128
-0.41322230 -0.54824244 0.00000110
-0.13119708 -0.53138936 0.00000118
-0.21363051 0.28423893 0.14521830
-0.42597597 -0.31911060 -0.00000047
-0.21184577 -0.63887797 -0.00000057
-0.30355619 0.22923938 -0.00542322
-0.29273915 0.09324487 0.29199832
-0.26724405 0.15480181 0.09921111
-0.02617603 0.61876424 0.00000349
-0.09504258 0.05972105 0.00000319
-0.32453219 0.42988935 -0.01383676
-0.06516726 -0.56595084 0.00000063
-0.15925200 0.41552830 0.01123523
-0.23308019 0.23727709 0.23189715
-0.25824456 0.44419007 -0.00895617
-0.13839284 0.41812564 0.00000533
-0.44189243 0.03985089 -0.01026286
-0.15921653 0.11793016 -0.00000439
-0.13229785 0.48059903 0.01970251
-0.27487535 -0.11171925 0.00000135
-0.78396086 -0.15342341 -0.03144675
-0.62404203 -0.39102095 -0.01056435
-0.17175434 0.38533353 0.10960660
-0.25486187 0.05254376 0.00000219
-0.68783981 0.03764031 -0.03007347
-0.18992471 -0.38311099 0.00000182
-0.70075748 -0.12886672 -0.02554299
-0.19235652 -0.03829492 0.00000333
-0.10262952 -0.22975820 0.00000188
-0.18469921 0.35408253 0.09092174
-0.20769791 0.31813071 -0.00064811
-0.74785174 -0.08905366 -0.03068299
-0.60542601 -0.66163975 0.16220531
-0.11970153 -0.24510595 0.00000171
-0.25171863 0.19228367 0.09128107
-0.04274211 0.22808936 0.00000993
-0.11339896 -0.68026084 -0.00000016
-0.55050666 -0.52905602 0.24873423
-0.44430285 -0.27265265 0.02899395
-0.18983899 -0.02931631 0.00000223
-0.69525013 -0.01124463 -0.02903582
-0.46054930 -0.68870182 -0.00000229
-0.60272188 0.16018850 -0.02729532
-0.29446988 -0.01890232 0.00000164
-0.49479003 0.08796197 -0.01615063
-0.32282254 0.00503244 0.00000710
-0.09906067 0.01264120 0.00000356
-0.07938100 0.52483192 0.00000532
-0.68564822 -0.57624866 -0.00934301
-0.04097313 -0.75817479 0.00000018
-0.05490144 -0.22902908 0.00000250
-0.00216089 -0.38872920 0.00000179
-0.79457283 -0.59694514 -0.01745428
-0.17682921 0.55591579 -0.00611551
-0.03550746 -0.11797638 0.00000277
-0.32849415 -0.04328444 0.00000331
-0.43079752 -0.24005553 0.25472657
-0.22908416 0.23345669 0.00000314
-0.41044100 -0.71385428 0.00000038
-0.29156222 0.20939132 -0.00378677
-0.34831195 -0.62759802 -0.00000135
-0.03112375 -0.16347052 0.00000260
-0.07480208 -0.77869511 -0.00000036
-0.53745456 -0.51888830 0.00000123
-0.02765703 0.39498344 0.00000911
-0.24470522 0.13843428 0.00000411
-0.26692358 -0.55212988 0.00000108
-0.47365667 -0.34352725 0.27877275
-0.35966228 -0.15399139 0.00000283
-0.22909796 0.24689687 0.02587996
-0.41244277 -0.76672278 -0.00000234
-0.56969001 -0.57536622 0.11399841
-0.12088437 -0.31862078 0.00000138
-0.03769271 0.40841782 0.00000888
-0.46790467 -0.72367342 -0.00000249
-0.45261518 -0.29272568 0.18798414
-0.07423759 -0.21327100 0.00000257
-0.58263078 -0.60660436 0.00750025
-0.28956337 -0.47462728 0.00000142
-0.16464361 -0.18658582 0.00000169
-0.10667285 0.54245889 0.05277285
-0.69723277 0.03077360 -0.03060288
-0.30851187 0.48269011 -0.01430948
-0.10602980 0.19384514 0.00000919
-0.51749146 -0.16175577 -0.00962682
-0.05046775 0.04511326 -0.00000941
-0.19896576 0.31964066 0.07439389
-0.21107555 0.01643590 0.00000357
-0.66265142 -0.79979066 0.09433831
-0.14562983 0.25313295 0.00000822
-0.32436044 0.01692280 0.11138259
-0.16248836 -0.15951937 0.00000182
-0.00255730 -0.49616042 0.00000133
-0.10701407 -0.21766470 0.00000190
-0.22265229 0.26245689 0.16971242
-0.52723413 -0.33262265 -0.00469370
-0.01519954 0.14099298 0.00001089
-0.54036484 -0.79534428 -0.00000324
-0.28688950 -0.79389354 0.00000003
-0.07784041 0.39384200 0.00000522
-0.14154385 0.50993753 -0.00172423
-0.10885821 0.22907568 0.00000450
-0.27165248 -0.60380429 -0.00000078
-0.30926659 0.43661481 -0.01282787
-0.09978215 0.32991974 0.00000843
-0.03725274 -0.18757450 0.00000268
-0.47457945 -0.34574732 0.04822098
-0.29464230 -0.19513859 0.00000087
-0.19390676 -0.66671837 0.00000058
-0.75498733 0.02276642 -0.03500346
-0.44452169 -0.27318686 0.20431813
-0.51445132 -0.63986398 0.00000070
-0.32927006 -0.53293534 -0.00000082
-0.32805192 0.00799824 0.26193552
-0.29868373 0.07891532 0.05212357
-0.26121544 0.16936554 0.09897502
-0.34386421 -0.03017496 0.09221136
-0.02072852 0.68507568 0.00000637
-0.35624661 -0.06007551 0.29599440
-0.26541516 0.15921702 0.10303336
-0.10925972 0.14138576 0.00000412
-0.65132292 -0.26190641 -0.01709252
-0.01439796 -0.24440541 0.00000243
-0.33425758 0.37850738 -0.01290265
-0.09977664 0.45638748 0.00000489
-0.45282630 0.30013925 -0.01986346
-0.46821000 -0.55995214 0.00000105
-0.66864787 -0.70272874 -0.00373411
-0.09143043 -0.26549929 0.00000179
-0.22566934 -0.47657464 0.00000005
-0.11693559 -0.63463091 0.00000002
-0.73936988 -0.55061047 -0.01454379
-0.38338091 0.16045847 -0.00957335
-0.37184898 -0.13295923 0.00000292
-0.47924150 -0.41589119 -0.00000121
-0.19514576 0.22394378 0.00000330
-0.18925312 0.34309337 0.10132862
-0.09953724 -0.66995408 0.00000057
-0.37450225 -0.22281465 0.00000253
-0.58949557 -0.62318122 0.18425839
-0.33607385 0.07205216 -0.00278614
-0.56910087 0.15967096 -0.02456038
-0.44999099 0.26781716 -0.01855182
-0.22687788 0.21701449 0.00000308
-0.06871744 0.26533979 0.00000930
-0.29242360 -0.61187641 -0.00000094
-0.43823697 -0.33163439 0.00000205
-0.41004343 -0.18994464 0.06967014
-0.04739468 0.65579034 0.00000608
-0.40559878 -0.68478352 0.00000050
-0.28202093 0.01473504 0.00000765
-0.25289279 0.18944472 0.21945431
-0.09478248 0.47323417 0.00000557
-0.48554615 0.05542795 -0.01431378
-0.11339530 0.61353355 -0.00291660
-0.05625721 -0.17793055 0.00000238
-0.03858099 0.55595905 0.00000593
-0.38294520 -0.70501569 -0.00000190
-0.21480639 0.39903110 -0.00393203
-0.46983801 0.16262525 -0.01663499
-0.59924671 -0.08418495 -0.01883293
-0.08494198 -0.41058933 0.00000170
-0.38844983 -0.67377066 0.00000055
-0.21221833 -0.40406254 0.00000045
-0.63177585 -0.25078837 -0.01588459
-0.16191937 -0.54143970 0.00000015
-0.26677934 0.15591946 0.22595359
-0.71308753 -0.10713790 -0.02726722
-0.55375039 -0.53688690 0.26122349
-0.08943318 0.14536437 0.00000360
-0.55895998 -0.54946066 0.08343877
-0.54175959 0.01365445 -0.01745953
-0.23356015 0.28438165 -0.00160879
-0.21569111 0.27927432 0.02717241
-0.32516714 -0.60429655 -0.00000111
-0.51680455 -0.19974897 -0.00829926
-0.19683470 -0.32206980 0.00000209
-0.03861247 0.26009376 0.00000979
-0.68796513 -0.30016725 -0.01877364
-0.21703970 0.40541450 -0.00432775
-0.70782822 -0.69062858 -0.00730621
-0.52919639 -0.43911567 -0.00128689
-0.06812999 -0.10187316 0.00000264
-0.13909069 0.13976594 0.00000327
-0.38878874 -0.58164936 -0.00000139
-0.23520883 0.00133023 0.00000209
-0.36243345 -0.07501485 0.38621146
-0.20080239 -0.71003831 -0.00000082
-0.13173492 0.25300963 0.00000843
-0.50155346 0.07344981 -0.01621320
-0.49352895 -0.76788808 0.00000014
-0.28462090 0.11285946 0.11935937
-0.26345459 -0.13122425 0.00000134
-0.26232887 0.16668513 0.00946913
-0.17908743 0.36764091 0.03050564
-0.23381792 0.23551481 0.01080805
-0.02899652 0.72998439 0.01797657
-0.06897512 0.62924680 0.00000703
-0.49987109 0.23605623 -0.02152134
-0.46545625 -0.32372958 0.27399321
-0.14709166 0.07127428 0.00000292
-0.53003029 -0.47962293 0.27541693
-0.27416837 0.13808365 0.14159363
-0.53275036 0.11746399 -0.02020874
-0.17082474 -0.31192440 0.00000214
-0.30851975 0.05515395 0.09131613
-0.70529213 -0.63925355 -0.00882139
-0.72672295 -0.52918646 -0.01423890
-0.69267175 -0.40278639 -0.01571839
-0.48170779 -0.39472161 0.00000177
-0.44513229 0.22319594 -0.01666575
-0.10915406 -0.36645534 0.00000190
-0.13406278 0.47633157 0.09809757
-0.11317042 -0.03987484 0.00000264
-0.27812083 0.12855187 0.11640848
-0.50104134 -0.40963072 0.01551276
-0.21126531 -0.14839959 0.00000158
-0.27333007 0.46898836 -0.01100624
-0.47765548 0.15034485 -0.01685580
-0.09810492 0.44978036 0.00000488
-0.40199329 -0.17052016 0.37476917
-0.11425963 0.07547352 0.00000383
-0.18037354 0.36452699 0.13741774
-0.14754466 0.37533174 0.00000425
-0.61543063 -0.68579009 0.00929589
-0.10156273 -0.73291158 0.00000029
-0.61792663 -0.22956673 -0.01547555
-0.07168197 0.07365752 0.00000382
-0.08811294 0.20080139 0.00000385
-0.03292911 0.06494208 0.00000359
-0.29724888 -0.66925592 -0.00000122
-0.60722362 0.10307601 -0.02574736
-0.44649794 -0.52817741 0.00000119
-0.36882544 -0.09043560 0.26578764
-0.67678944 -0.42292364 -0.01376027
-0.05531715 0.18249474 0.00000430
-0.00129101 -0.53215236 0.00000117
-0.31166365 0.04756437 0.07814807
-0.14335623 0.45390353 0.00654196
-0.49326307 -0.39085846 0.19720093
-0.45184197 -0.34858676 0.00000197
-0.19075847 0.13899737 0.00000825
-0.12486800 0.05552742 0.00000374
-0.25686860 0.05450116 0.00000219
-0.12641162 0.33914154 0.00000422
-0.14241630 0.45616181 0.10458663
-0.14337589 0.23995713 0.00000455
-0.53805018 0.15215170 -0.02179768
-0.37801308 -0.11262803 0.40757464
-0.23277305 0.23803256 0.06660202
-0.12785974 0.49130764 0.00766360
-0.34741391 -0.27761243 0.00000229
-0.10698727 -0.60981790 0.00000019
-0.14939353 0.31071692 -0.00000011
-0.28282213 -0.61848961 0.00000079
-0.10985389 -0.78086605 0.00000008
-0.42184219 -0.42064025 0.00000166
-0.33306522 -0.02146247 0.00000140
-0.08693323 0.70082022 -0.00370041
-0.47240562 -0.50108196 0.00000131
-0.40083179 -0.16770407 0.01742122
-0.11335877 0.64515777 -0.00397301
-0.45764458 -0.30486861 0.21568811
-0.40672422 -0.27129045 0.00000231
-0.43502830 -0.21315498 -0.00123972
-0.34435928 -0.67936533 -0.00000155
-0.46491099 -0.32240555 0.04596802
-0.24723340 0.20311886 0.11615755
-0.21818568 0.17843434 0.00000759
-0.00803835 0.50773338 0.00000567
-0.70573883 -0.14520454 -0.02539867
-0.00004028 -0.35137736 0.00000196
-0.03546536 -0.59946135 0.00000066
-0.09606144 0.20887348 0.00000383
-0.07771252 0.07314813 0.00000382
-0.08070751 -0.19232382 0.00000217
-0.05788578 0.38024522 0.00000875
-0.01520376 -0.12299673 0.00000296
-0.00764171 0.77427032 0.00000689
-0.08048859 -0.58166404 0.00000047
-0.21211955 0.13581571 0.00000409
-0.17834289 0.48374709 -0.00382215
-0.50289514 -0.69614438 -0.00000258
-0.20079544 0.47733862 -0.00542168
-0.05651196 0.66355563 0.01985694
-0.42587109 -0.19536580 -0.00109505
-0.23348716 -0.54791004 0.00000110
-0.62416121 -0.70686936 0.08536898
-0.17675062 0.20221795 0.00000438
-0.48387809 -0.36819750 0.08828702
-0.69370012 -0.74310595 -0.00440721
-0.15330544 0.21159691 0.00000350
-0.02709411 0.45294438 0.00000876
-0.00132840 0.41598658 0.00000532
-0.74219608 -0.21660728 -0.02595524
-0.06239657 -0.28784012 0.00000224
-0.62479425 -0.10606327 -0.02016567
-0.45329412 -0.12141864 -0.00578768
-0.12322818 -0.07043589 0.00000245
-0.04996240 0.35196597 0.00000504
-0.36223178 0.08871544 -0.00545895
-0.20311053 0.57971119 -0.00903727
-0.36769178 -0.15204137 0.00000283
-0.46233444 -0.31619177 0.24138798
-0.07524732 0.56018293 0.00000358
-0.30506898 0.06349513 0.11371728
-0.19838929 0.11554342 0.00000401
-0.38274538 0.14825991 -0.00911356
-0.22453280 0.25793054 0.01028884
-0.16654106 0.39791795 0.15486779
-0.62583618 -0.62225936 -0.00296741
-0.00642116 0.54904173 0.00000123
-0.36232323 -0.08330944 0.00000314
-0.07209528 -0.18447398 0.00000226
-0.29569139 0.35245781 -0.00891166
-0.40508654 -0.48586417 -0.00000107
-0.39589867 -0.69090208 -0.00000191
-0.33617683 -0.01161546 0.07488520
-0.55137898 -0.24590730 -0.00954882
-0.20373305 0.26246013 0.00000465
-0.68445622 -0.01289089 -0.02810813
-0.50438972 -0.02479909 -0.01315306
-0.29979877 0.07621140 0.19435356
-0.29115706 0.46749793 -0.01239758
-0.65945603 -0.77037329 -0.00072628
-0.00053593 0.54204281 0.00000089
-0.31329937 0.22677028 -0.00612615
-0.44066797 -0.26387973 0.10165760
-0.37246510 -0.09923000 0.28646768
-0.06984057 0.12954118 0.00000407
-0.27818607 -0.56559487 -0.00000065
-0.44114246 -0.32349956 -0.00000058
-0.29862928 -0.49108597 -0.00000045
-0.56432677 -0.26891803 -0.00982509
-0.44984015 0.02599947 -0.01044409
-0.35012156 -0.04528982 0.33933703
-0.21716676 0.23149428 0.00000320
-0.03937326 -0.31903998 0.00000187
-0.14479059 -0.78520854 -0.00000081
-0.25741856 0.17852902 0.13173971
-0.04558348 0.05450475 -0.00000933
-0.00600556 0.26338369 0.00001026
-0.02817922 0.47198666 0.00000006
-0.34838690 -0.04109610 0.16454292
-0.01618786 -0.63864964 0.00000071
-0.16174391 0.24212719 0.00000805
-0.29658026 0.49357899 -0.01370951
-0.13342959 -0.12635934 0.00000214
-0.15362217 0.52753937 -0.00328901
-0.35956078 -0.06806993 0.27349845
-0.14749826 0.44389427 0.06410759
-0.04879728 0.16129714 0.00001026
-0.17432004 0.12401955 -0.00000379
-0.23636028 0.22936102 0.11853735
-0.65864863 -0.79012730 0.07547404
-0.20551473 0.30382858 0.11934910
-0.10496267 -0.20856337 0.00000259
-0.35480637 -0.05659541 0.20503652
-0.21570007 -0.61543287 0.00000081
-0.22723312 0.06142460 0.00000240
-0.48548353 0.19752006 -0.01906805
-0.13564791 0.40427133 0.00000445
-0.37895875 -0.11490327 0.17494012
-0.57091029 -0.79129225 -0.00000341
-0.28419671 -0.56007124 -0.00000067
-0.11627593 0.32667679 -0.00000073
-0.12053489 -0.24362131 0.00000243
-0.63789790 -0.74003183 0.05276257
-0.39933627 0.01557840 -0.00600949
-0.16538989 0.48218857 -0.00272287
-0.02355307 -0.46514773 0.00000146
-0.26119710 0.37098307 -0.00674461
-0.18510898 0.12554052 0.00000842
-0.41463035 -0.36190121 -0.00000059
-0.38948213 -0.14031291 0.29440208
-0.20903695 0.29532180 0.22085684
-0.31695483 -0.40335523 -0.00000018
-0.35790532 -0.35894573 0.00000193
-0.04018041 0.42367302 0.00000875
-0.03886732 -0.17879091 0.00000248
-0.21566337 -0.30122212 0.00000088
-0.09812577 0.23345917 0.00000393
-0.21170940 0.39806300 -0.00364923
-0.73793249 -0.16096716 -0.02747344
-0.64011593 -0.74538654 0.17094517
-0.05167072 -0.14391746 0.00000287
-0.63004517 0.16535734 -0.02967744
-0.68409195 0.08950664 -0.03150681
-0.33701303 -0.21529248 0.00000256
-0.31960908 -0.12988115 0.00000100
-0.11651887 0.24336642 0.00000456
-0.72883292 -0.13473681 -0.02761604
-0.16572652 0.39988675 0.14208511
-0.23522333 0.23211574 0.08400983
-0.60350162 -0.35057898 -0.01025790
-0.19145915 -0.17406601 0.00000158
-0.31237012 0.04585321 0.30095307
-0.27486485 0.13639969 0.21632372
-0.12390310 0.51520652 -0.00047331
-0.31409325 0.04169008 0.33777229
-0.24317007 -0.10918563 0.00000302
-0.09842749 -0.37894373 0.00000125
-0.41468278 0.03899798 -0.00803721
-0.28309372 -0.26505154 0.00000234
-0.31404003 0.04183420 0.15449728
-0.13613558 0.42177684 0.00000213
-0.40654040 -0.78202619 0.00000008
-0.08578876 -0.31959605 0.00000158
-0.30602871 0.06116364 0.21648310
-0.72596705 -0.41344789 -0.01805299
-0.61680164 -0.68910218 0.07463126
-0.39814497 -0.16123066 0.42238302
-0.28161661 0.07847565 0.00000384
-0.10235245 0.55288866 0.05684838
-0.02359067 0.31485766 0.00000968
-0.25546221 -0.35559516 0.00000194
-0.17369032 0.26789241 0.00000770
-0.33543558 0.10929337 -0.00398447
-0.08796045 -0.72721820 -0.00000021
-0.57162954 -0.72338217 0.00000034
-0.40951937 -0.18868701 0.29499600
-0.49229664 0.30588060 -0.02324678
-0.05782257 0.02185956 -0.00000974
-0.59318132 -0.62182506 -0.00034217
-0.40470107 -0.17705551 0.32162395
-0.56391304 -0.56142105 0.18488618
-0.30853963 -0.24104638 0.00000058
-0.63486520 -0.73271047 0.16222021
-0.21589961 -0.67366051 0.00000055
-0.08138051 -0.68894007 0.00000049
-0.15970960 0.35007302 0.00000503
-0.54437003 0.03426884 -0.01836265
-0.34017581 -0.38079363 0.00000183
-0.55881812 -0.54956781 -0.00000228
-0.26008742 -0.10223677 0.00000148
-0.60527323 0.11992853 -0.02615392
-0.05944575 -0.63100840 0.00000038
-0.12695641 -0.49650983 0.00000056
-0.50784867 -0.56801254 -0.00000205
-0.61004511 -0.67279094 0.09589026
-0.22690071 0.02837382 0.00000362
-0.07483559 0.63380944 -0.00047889
-0.01796823 -0.46367857 0.00000136
-0.25972137 -0.43468474 0.00000003
-0.28313215 -0.32271390 0.00000209
-0.58807581 0.16147213 -0.02615460
-0.01968788 0.38293867 0.00000518
-0.41194769 -0.57646752 -0.00000151
-0.13647493 0.40429974 0.00000527
-0.29250081 -0.28287518 0.00000226
-0.16106074 0.41115414 0.10093787
-0.38162228 0.26406125 -0.01289985
-0.10548337 -0.73490928 0.00000028
-0.01388649 -0.56098086 0.00000096
-0.16250790 0.34339700 0.00000740
-0.07102217 0.39987653 0.00000843
-0.15676782 0.32605363 0.00000047
-0.72733117 -0.52547131 -0.01441245
-0.22634757 0.25352995 0.23299590
-0.36235479 0.14644039 -0.00740201
-0.49790896 0.23924167 -0.02146937
-0.04726035 0.01104742 0.00000355
-0.56647389 -0.56759978 0.05276340
-0.27283846 0.14129254 0.25545318
-0.49215339 0.23293764 -0.02079246
-0.20421961 -0.08423200 0.00000313
-0.30570959 0.43729923 -0.01256324
-0.29358156 -0.65703883 0.00000063
-0.36013393 -0.06945790 0.22467254
-0.12353510 0.13965300 -0.00000496
-0.74070309 -0.10131913 -0.02969445
-0.02893769 -0.04980448 0.00000311
-0.33710712 -0.18104909 0.00000271
-0.58933355 0.14453794 -0.02568880
-0.19288886 0.33431044 0.10827229
-0.38487166 -0.12917516 0.08225176
-0.51814363 -0.65676758 0.00000063
-0.42878026 -0.07198730 -0.00546099
-0.67587632 -0.52115439 -0.01039764
-0.13929487 0.25325632 0.00000832
-0.06749761 -0.59948207 0.00000047
-0.43404266 -0.77498999 -0.00000251
-0.04837184 0.24472800 0.00000457
-0.56052926 -0.73017712 0.00000031
-0.47298084 -0.34189257 0.18668896
-0.24652418 0.20483496 0.06969926
-0.05756314 0.63313497 0.00000627
-0.63857395 -0.49522906 -0.00825015
-0.22890807 0.24735260 0.19182059
-0.39522579 -0.15418258 0.39217545
-0.41558628 -0.26403733 -0.00000016
-0.21349255 -0.63626919 0.00000072
-0.12856697 0.48960712 0.00574513
-0.51540985 -0.67465516 -0.00000256
-0.50157860 -0.79557657 0.00000002
-0.58550028 -0.43092376 -0.00611271
-0.05799601 0.08322182 0.00000386
-0.43019417 -0.66213025 -0.00000199
-0.65614036 -0.51602103 -0.00897408
-0.46788439 0.30994280 -0.02140916
-0.32856588 0.34736674 -0.01139994
-0.22580794 0.18932021 0.00000741
-0.25364105 0.16124985 0.00000267
-0.25106049 0.19386904 0.19624898
-0.12454886 0.20517571 -0.00000337
-0.49870786 -0.78394264 -0.00000294
-0.32331603 -0.17621404 0.00000078
-0.29403887 -0.43837807 0.00000158
-0.27060250 0.14669232 0.14394530
-0.45535653 -0.29934903 0.35874797
-0.15352198 0.37345537 0.00000735
-0.28036841 -0.04657347 0.00000330
-0.26444208 0.16156676 0.08688050
-0.11920497 -0.76033056 0.00000017
-0.24906037 0.03500532 -0.00000365
-0.20451362 -0.40573114 0.00000049
-0.38235745 -0.46098153 -0.00000082
-0.16975820 -0.64497401 -0.00000035
-0.41772044 0.07615222 -0.00952431
-0.14554529 -0.33047871 0.00000205
-0.49546088 0.14251642 -0.01803180
-0.23584870 -0.60960585 -0.00000059
-0.16517909 0.38837250 0.00000708
-0.22540497 0.07478927 0.00000383
-0.75106969 -0.61698714 -0.01326699
-0.42934177 -0.70102672 0.00000043
-0.66428480 -0.18431291 -0.02073821
-0.23079487 0.24279662 0.13265873
-0.51946679 -0.59375951 -0.00000223
-0.16765541 -0.17669690 0.00000172
-0.64354881 -0.10905902 -0.02158147
-0.36653252 -0.14325724 0.00000287
-0.01658478 -0.20558610 0.00000250
-0.08585654 0.59271217 0.05841885
-0.36391524 -0.72292900 0.00000034
-0.24339938 -0.34209554 0.00000053
-0.46625518 -0.05315638 -0.00912089
-0.37930037 -0.11572594 0.11332234
-0.05799702 0.25667002 -0.00000415
-0.16150006 0.35244200 0.00000124
-0.35292100 -0.71806978 -0.00000177
-0.45995824 0.00096588 -0.01042123
-0.19381354 0.41955687 -0.00292220
-0.30751448 -0.28785656 0.00000038
-0.09552246 0.18181855 0.00000372
-0.55724985 -0.32470249 -0.00738531
-0.15264765 0.43146313 0.04739905
-0.35227066 -0.70817834 -0.00000172
-0.53815725 -0.49923911 0.10057774
-0.10165616 0.30338639 0.00000857
-0.19470112 0.32994703 0.03097248
-0.11425637 0.52415497 0.00740312
-0.07519817 0.47573747 0.00000513
-0.58625030 -0.32009215 -0.00988403
-0.12464198 0.28912019 -0.00000137
-0.11113914 0.20574460 0.00000440
-0.17017683 0.06477824 -0.00000533
-0.55428471 -0.61714982 0.00000080
-0.65847260 -0.46829430 -0.01076053
-0.15252384 0.41222503 0.00000712
-0.23908508 0.22279352 0.07653430
-0.51524363 -0.44392565 0.26854248
-0.45051802 -0.29137947 0.00000223
-0.64901187 0.03570881 -0.02686910
-0.54128800 0.24006741 -0.02500373
-0.62533144 -0.73234078 0.00000030
-0.26402669 -0.53618003 -0.00000044
-0.20920076 0.19038587 -0.00000117
-0.69753803 0.03776740 -0.03086122
-0.03682747 -0.45987613 0.00000127
-0.45164485 -0.73074045 -0.00000242
-0.60255282 -0.65470290 0.08464380
-0.31632452 0.03630803 0.28523384
-0.37173820 0.04759670 -0.00485350
-0.52431994 -0.12124695 -0.01153508
-0.57284058 -0.11839715 -0.01555285
-0.27866388 0.36692243 -0.00801944
-0.46197918 -0.31533713 0.36422800
-0.35744043 -0.06295780 0.30099033
-0.71018798 -0.51950313 -0.01322665
-0.34765617 -0.03932783 0.04083571
-0.02954117 0.64130712 0.00000613
-0.47944505 0.17675982 -0.01788373
-0.32084101 -0.22463809 0.00000058
-0.15962118 -0.23232097 0.00000248
-0.31170973 0.04745487 0.21382283
-0.45889792 -0.18194767 -0.00421415
-0.09745181 0.65096116 -0.00288141
-0.24838012 0.20034060 0.17929335
-0.01362519 0.45730028 0.00000550
-0.10315339 0.02880195 0.00001026
-0.37714994 -0.11053348 0.08661711
-0.15637020 -0.34302273 0.00000200
-0.13856546 0.05353141 0.00000373
-0.19869191 0.32030113 0.09383885
-0.26782412 -0.14242376 0.00000126
-0.01986551 0.64177884 0.00000384
-0.08030080 0.00956387 0.00000354
-0.76100382 -0.50721023 -0.01774554
-0.04220433 0.59940882 0.00000587
-0.24426658 0.28859502 -0.00261757
-0.30636872 0.20770820 -0.00492971
-0.56956022 0.07286309 -0.02168992
-0.29738055 0.08205666 0.10804919
-0.69166407 0.07271143 -0.03155682
-0.24211704 -0.69425855 0.00000046
-0.37623183 0.33566368 -0.01486138
-0.42538544 -0.22698756 0.19234970
-0.05992895 -0.74690156 0.00000023
-0.28085695 -0.06771098 0.00000151
-0.55094622 -0.65568471 -0.00000269
-0.13213115 -0.37187570 0.00000187
-0.21830917 0.27294127 0.08571706
-0.10290523 -0.20150727 0.00000200
-0.23395946 0.23515278 0.25090381
-0.13352425 -0.57116159 0.00000100
-0.40795879 0.26518216 -0.01506640
-0.28481518 -0.30524598 0.00000045
-0.55147464 -0.75518173 0.00000020
-0.23953806 0.22168824 0.21485223
-0.23532984 -0.10974515 0.00000160
-0.12948973 0.24284075 0.00000378
-0.27680972 -0.25366635 0.00000072
-0.35771675 0.04714435 -0.00370178
-0.51989839 -0.45515813 0.09199635
-0.32028647 0.15338488 -0.00423604
-0.59792018 -0.74154303 -0.00000335
-0.55281943 -0.69864814 0.00000044
-0.40632828 -0.18098320 0.29953213
-0.49428588 -0.63044231 0.00000074
-0.25853653 0.17582207 0.14402917
-0.00039012 0.76505322 0.00000684
-0.33460032 -0.00779798 0.11293885
