ply
format ascii 1.0
element vertex 1374
property float x
property float y
property float z
end_header
0.05732777 0.40247586 -0.00000075
-0.30841191 -0.01108461 -0.00000049
0.55187279 -0.65873898 -0.00000009
0.06853679 0.58812903 -0.00000087
-0.37902727 -0.63712351 -0.00000010
0.13829568 0.10795148 0.05155822
-0.76104916 0.41522895 -0.00000005
0.35223501 0.09621824 0.03273140
-0.73365946 0.19074474 -0.00000008
-0.47156993 -0.61558631 -0.00000012
-0.21345629 0.51820845 -0.00000072
0.45222927 -0.33421412 -0.00000029
-0.41099179 -0.21395953 -0.00000037
0.02034374 0.30240111 -0.00000069
0.33316499 -0.74240045 -0.00000004
0.57850086 -0.41208383 -0.00000049
-0.58284011 -0.46931411 -0.00000015
-0.26541442 0.15974174 -0.00000060
0.31689399 -0.57754124 -0.00000014
0.41104646 0.02534750 -0.00000080
-0.27184821 -0.24139230 -0.00000035
0.12931633 0.08411037 -0.00000055
0.16065463 -0.68064262 -0.00000007
-0.33482559 -0.01708528 -0.00000049
0.53867015 -0.28373616 -0.00000061
0.01443592 0.01355831 0.07187896
-0.78204206 -0.50687966 0.00000000
0.26756089 0.06604910 -0.00000054
-0.38447405 0.05971335 -0.00000045
0.17526429 0.18797586 0.04066533
0.17910800 0.19538816 -0.00000062
-0.66415833 0.41606784 -0.00000017
0.15562110 -0.63471972 -0.00000010
0.17473095 -0.49180611 -0.00000019
-0.00720038 0.71826769 -0.00000095
-0.17133937 0.76007771 -0.00000079
0.78494477 -0.24198420 -0.00000140
-0.58936944 -0.43054721 -0.00000015
0.44507382 0.20986786 -0.00000127
0.25195606 -0.64382507 -0.00000010
-0.48300165 0.50025850 -0.00000040
-0.52844084 0.51597731 -0.00000034
-0.68756331 0.23813854 -0.00000014
-0.59765519 -0.31233019 -0.00000016
0.56579871 0.11885949 -0.00000148
0.09645226 0.37196480 0.03087227
0.29920768 0.11417382 0.03599704
0.10970217 0.20603201 0.04508832
0.66616885 -0.74223966 -0.00000012
-0.23187254 0.19176873 -0.00000062
0.00657887 0.58508961 0.01939628
-0.56360393 0.72162394 -0.00000030
-0.51693613 0.64598729 -0.00000035
0.13148390 0.03307924 0.05916364
0.24754625 0.38271425 0.01580325
-0.79030441 -0.10189929 0.00000000
-0.23103438 -0.57519190 -0.00000014
-0.64150742 -0.13823240 -0.00000014
-0.15435820 -0.01692463 -0.00000049
0.16219074 -0.49283314 -0.00000019
0.21037032 0.02212130 0.05283919
0.14470784 0.12939863 0.04896431
0.44713278 -0.42668316 -0.00000023
0.67214612 -0.36929616 -0.00000087
0.06499830 -0.45018134 -0.00000022
0.12872514 0.39780746 0.02546133
-0.44393226 -0.17297556 -0.00000035
0.07579598 0.52909011 -0.00000083
-0.75115163 -0.62195491 0.00000000
-0.05280186 -0.01154742 -0.00000049
0.27737253 0.19367678 -0.00000070
0.67868542 -0.30353610 -0.00000102
0.03492167 -0.04609453 -0.00000047
-0.46442305 -0.63634918 -0.00000010
0.24569606 0.02568538 -0.00000052
-0.60740882 -0.47325765 -0.00000012
0.05761657 0.49845635 0.02271068
0.53692744 0.08652231 0.01643704
0.53152323 -0.40142203 -0.00000036
-0.19804358 -0.63887035 -0.00000010
0.60000564 -0.23910392 -0.00000089
-0.50097854 0.77835762 -0.00000037
0.30052398 0.37834468 -0.00000114
0.47651613 -0.79751102 -0.00000000
-0.59912024 0.60323302 -0.00000025
-0.52482768 0.56186092 -0.00000034
0.62481116 -0.13192774 -0.00000118
-0.58991081 -0.07319781 -0.00000021
0.06033964 0.31309807 0.03971551
0.17136583 -0.68966063 -0.00000007
-0.67976981 0.44423972 -0.00000015
0.62300118 -0.58936114 -0.00000028
-0.05217605 0.13508471 -0.00000058
-0.55303150 0.34682772 -0.00000031
-0.33379739 -0.14427948 -0.00000041
0.50709577 -0.07310983 -0.00000092
-0.15207491 -0.41403337 -0.00000024
-0.20149626 -0.68808765 -0.00000007
0.37027977 0.25515994 0.01625196
-0.10906202 0.58057176 -0.00000084
-0.08955247 0.67809446 -0.00000088
0.23141508 -0.62664285 -0.00000011
-0.30332404 0.62785639 -0.00000062
-0.47161358 -0.16236752 -0.00000032
0.43624667 -0.35222649 -0.00000028
-0.71807048 -0.11223169 -0.00000007
-0.02929106 -0.00595073 -0.00000050
-0.50470249 -0.77886352 -0.00000001
-0.52410213 -0.77526224 -0.00000002
-0.65799423 0.19287488 -0.00000018
-0.74467684 0.21825992 -0.00000007
0.06279958 0.73554579 -0.00000108
0.15749449 -0.24407477 -0.00000035
0.47536955 -0.27301142 -0.00000043
-0.62992263 0.29908662 -0.00000021
0.16872166 0.22757682 0.03758731
0.40420849 0.09014034 -0.00000091
-0.62738198 -0.13998830 -0.00000016
-0.52406681 0.38574072 -0.00000034
0.20229081 0.33932997 -0.00000075
0.08508035 0.57026987 0.01346723
-0.17982082 -0.14214077 -0.00000041
-0.12270124 -0.14290351 -0.00000041
-0.41846477 0.21782465 -0.00000045
0.56827107 -0.05694704 -0.00000115
0.44096222 0.23283481 0.01174927
-0.39701784 -0.10736739 -0.00000041
-0.78680408 0.36507533 -0.00000002
-0.63954097 0.49089700 -0.00000020
-0.67494694 0.60371489 -0.00000016
0.40966806 -0.58145323 -0.00000014
-0.26166810 0.50386936 -0.00000067
0.33240375 -0.20904130 -0.00000037
0.24069695 0.48083727 0.00730465
0.28296356 -0.11344894 -0.00000043
0.28806902 -0.21017343 -0.00000037
-0.62426414 -0.47635450 -0.00000010
-0.24612318 0.08220865 -0.00000055
0.45381545 -0.19936868 -0.00000050
0.25315398 -0.30209131 -0.00000031
-0.44841514 -0.16812486 -0.00000034
0.42174911 0.04616725 -0.00000088
-0.28828593 0.68249637 -0.00000064
0.44304190 -0.74441690 -0.00000003
-0.46920919 -0.15312836 -0.00000032
-0.09965044 -0.17133266 -0.00000039
-0.16216337 0.00086302 -0.00000050
0.14635926 -0.30484854 -0.00000031
-0.64765297 -0.37960406 -0.00000009
0.50715860 -0.11155666 -0.00000085
0.16261319 0.45459870 0.01701832
-0.00108509 0.62937096 -0.00000089
0.65620950 -0.53450812 -0.00000050
0.03663609 0.17116785 0.05513728
0.19305280 -0.08741124 -0.00000045
-0.21206670 0.65414169 -0.00000073
-0.25655696 -0.47858466 -0.00000020
-0.21155590 -0.36814142 -0.00000027
0.43835554 -0.78925243 -0.00000001
-0.58729131 -0.79238376 -0.00000000
0.21563590 -0.00725466 -0.00000050
-0.76348384 0.37405768 -0.00000005
-0.49116357 -0.27019358 -0.00000028
0.52246410 0.06453228 0.01983128
0.22212896 0.12869093 0.04182190
-0.51886797 0.65830310 -0.00000035
0.22666593 -0.51057720 -0.00000018
0.36704827 -0.73718523 -0.00000004
0.41819913 0.00109711 -0.00000078
-0.24915057 0.33990287 -0.00000065
0.56490659 -0.40018386 -0.00000047
-0.77681571 -0.59665849 0.00000000
0.21349694 0.36964021 0.02019100
-0.06644528 0.41197072 -0.00000076
0.02543751 0.62345816 -0.00000089
-0.11863222 0.30366486 -0.00000069
-0.76780778 0.37698974 -0.00000004
-0.39219992 0.11885695 -0.00000046
0.68099239 -0.45655421 -0.00000073
0.51184303 -0.64298686 -0.00000010
0.50500056 0.27962642 -0.00000160
-0.46851508 0.57524180 -0.00000041
-0.60132861 0.34719277 -0.00000025
0.18103420 -0.70087333 -0.00000006
-0.34504156 0.30087693 -0.00000054
-0.30972131 -0.17289893 -0.00000039
0.53160762 -0.33859882 -0.00000048
-0.38430367 -0.67646497 -0.00000008
0.59988624 -0.48599824 -0.00000041
0.09544231 -0.73886941 -0.00000004
0.07768518 0.10481915 -0.00000057
-0.22008272 0.07348112 -0.00000055
-0.39107172 0.50375556 -0.00000051
0.36747695 -0.26742012 -0.00000033
0.77368746 -0.57531980 -0.00000056
0.00134523 0.71543153 -0.00000095
0.05112936 0.15992158 0.05483501
0.03330181 -0.14871528 -0.00000041
-0.29270859 -0.72341300 -0.00000005
0.38689306 -0.70244708 -0.00000006
0.20729055 -0.63302695 -0.00000010
-0.49540623 0.17836278 -0.00000036
0.51600762 0.01088667 -0.00000111
0.32069696 -0.49499527 -0.00000019
0.76375729 0.00421390 -0.00000189
-0.79119294 0.64583087 -0.00000001
0.31942997 -0.17010131 -0.00000039
0.15362579 -0.56703253 -0.00000015
-0.39269419 -0.11817043 -0.00000041
-0.66119388 0.15719555 -0.00000017
-0.70991887 0.18554476 -0.00000011
-0.54503897 -0.13847383 -0.00000025
-0.16960632 0.01063009 -0.00000051
-0.16016543 0.41725755 -0.00000076
-0.31084139 -0.26551735 -0.00000033
0.70167235 -0.61537515 -0.00000046
0.11067237 -0.36507134 -0.00000027
0.23295157 0.39039596 0.01644694
-0.77901557 -0.13437580 0.00000000
0.44894934 -0.47525636 -0.00000020
-0.61409647 0.18431822 -0.00000023
0.18557083 -0.66064667 -0.00000009
-0.29305831 -0.53316607 -0.00000017
0.64021679 0.14809860 -0.00000178
0.08404883 0.62264047 0.00868707
-0.27838263 -0.43745914 -0.00000023
0.00758623 0.62640970 -0.00000089
0.14298482 -0.55535555 -0.00000015
0.69237769 -0.45872026 -0.00000076
-0.75764734 -0.18197864 -0.00000001
-0.14077693 -0.66273827 -0.00000009
0.44247349 -0.20718238 -0.00000045
0.27313494 0.36184388 0.01536389
0.06768288 0.62854678 -0.00000089
0.42912672 -0.51669387 -0.00000018
0.08036819 0.29588828 -0.00000068
0.01523330 0.28738721 -0.00000068
0.74852014 -0.10559542 -0.00000163
0.25891108 0.21653980 0.03021774
0.31827399 -0.36651782 -0.00000027
-0.48961577 0.65590617 -0.00000039
0.18531627 -0.40102463 -0.00000025
0.21886574 0.13932148 0.04113593
0.15372456 -0.06464143 -0.00000046
0.64928231 0.04103156 0.01021110
-0.43730395 -0.12912495 -0.00000036
-0.63692867 0.02904623 -0.00000018
0.23324127 0.22114180 -0.00000064
-0.25781489 -0.02117431 -0.00000049
-0.00425458 -0.19913362 -0.00000038
-0.18430217 0.57723113 -0.00000076
0.29484587 0.29143904 -0.00000095
0.10140217 0.66924504 0.00273185
-0.24097679 -0.31246266 -0.00000030
0.32100530 0.18323778 -0.00000082
-0.24161329 0.46739558 -0.00000068
-0.28278543 -0.03712395 -0.00000048
-0.04667423 -0.12699651 -0.00000042
0.05864010 -0.10725531 -0.00000043
-0.17705196 0.16233118 -0.00000060
0.00105623 -0.28197488 -0.00000032
0.05168857 -0.19088893 -0.00000038
0.19846644 0.29921355 0.02814796
0.12462597 0.07526809 0.05587402
-0.49353517 0.42266657 -0.00000038
-0.22982956 0.57579944 -0.00000071
-0.66295013 0.75931611 -0.00000017
0.03740768 0.59318964 -0.00000087
-0.76271513 0.70447652 -0.00000005
-0.09633142 -0.49567517 -0.00000019
-0.50051827 0.75761707 -0.00000037
0.12154698 0.52625743 -0.00000086
0.45528006 0.10453039 -0.00000110
0.18727523 -0.26137153 -0.00000034
-0.72790418 0.09826451 -0.00000009
-0.22502213 0.31851247 -0.00000067
0.39207646 -0.46288907 -0.00000021
-0.54616893 0.44206606 -0.00000032
0.34370205 0.43770978 0.00172924
-0.05100942 0.37817634 -0.00000074
0.12623015 0.35178595 -0.00000072
-0.70933905 0.44098544 -0.00000011
-0.01889250 -0.22027497 -0.00000036
0.15882276 0.47923490 -0.00000088
-0.25790683 -0.49928448 -0.00000019
-0.52927982 0.69503953 -0.00000034
0.64316533 0.13952393 0.00160993
-0.25837251 -0.26171267 -0.00000034
-0.23406598 -0.58794068 -0.00000013
-0.17716244 0.25127121 -0.00000066
0.66434212 -0.70864093 -0.00000018
0.05025827 0.34915119 0.03729729
0.46261423 -0.26348635 -0.00000041
-0.77602604 0.03050576 -0.00000003
-0.75374197 0.09008568 -0.00000006
0.25242650 0.26694179 -0.00000077
-0.04986335 -0.25661095 -0.00000034
-0.39845073 -0.39742608 -0.00000025
0.74699254 -0.04303381 -0.00000175
0.34867079 -0.76771192 -0.00000002
0.18370430 0.43652663 0.01673719
0.10572980 -0.21780632 -0.00000036
0.23724762 -0.01804126 -0.00000049
0.53822200 0.06371045 0.01844054
-0.15659588 -0.41502428 -0.00000024
-0.74748466 -0.22447901 -0.00000001
0.45565612 -0.29548834 -0.00000032
-0.09330657 0.44557351 -0.00000078
0.59825251 0.05801475 0.01338129
0.44076303 0.28586017 -0.00000141
0.38230028 0.27363117 0.01341282
-0.76047025 -0.08021271 -0.00000003
0.20367201 -0.03601363 -0.00000048
0.64860967 -0.18196667 -0.00000116
0.47157257 0.02083653 -0.00000099
-0.07205710 -0.59198577 -0.00000013
0.58967396 -0.65411454 -0.00000009
0.18591014 0.12694197 0.04535690
0.04126211 0.33476660 -0.00000071
-0.62801313 0.70688316 -0.00000021
-0.69168583 0.01078075 -0.00000012
0.20654586 -0.09200500 -0.00000044
0.01320636 -0.49640824 -0.00000019
-0.03641615 0.30888975 -0.00000069
-0.18681425 -0.35268637 -0.00000028
-0.06368886 0.63990251 -0.00000090
-0.33469693 0.36407076 -0.00000056
0.10043344 0.20979954 -0.00000063
-0.14628311 -0.56767389 -0.00000015
0.26619170 0.14912169 -0.00000059
0.75211485 0.00535038 0.00395843
-0.14623752 0.45253715 -0.00000078
0.57142459 -0.36763226 -0.00000055
0.70978604 -0.36124085 -0.00000101
0.23157726 0.17490290 0.03663950
0.01647067 -0.28883792 -0.00000032
-0.78913255 -0.12908801 0.00000000
-0.57041048 -0.03317045 -0.00000024
-0.75224828 -0.07007792 -0.00000004
-0.70235293 -0.57118225 0.00000000
0.13227152 -0.04374082 -0.00000047
-0.58521379 0.63453911 -0.00000027
0.10058311 0.68955280 0.00091724
0.66695495 0.00825929 0.01161703
-0.65406601 0.58242077 -0.00000018
-0.30283454 0.22161874 -0.00000057
0.16330007 0.30866546 -0.00000069
-0.56119579 0.03851149 -0.00000026
-0.50124229 0.45124199 -0.00000037
-0.74846376 0.66114130 -0.00000006
0.58537747 0.18077127 -0.00000167
-0.24985053 -0.39087965 -0.00000026
0.72562597 -0.13936255 -0.00000149
0.12649548 -0.63028887 -0.00000011
0.71992468 0.07838509 0.00015539
0.12444661 -0.26945287 -0.00000033
0.67447250 -0.75202596 -0.00000012
-0.68283903 -0.68889559 0.00000000
0.23917755 0.39094057 0.01581651
-0.39060345 0.12275464 -0.00000046
0.25000865 0.04098170 0.04739260
-0.47348461 -0.64384956 -0.00000010
-0.55626534 -0.18736102 -0.00000023
0.19754800 -0.70062753 -0.00000006
0.35981623 -0.33641148 -0.00000029
0.35667022 0.44079214 -0.00000144
-0.04739419 -0.38268606 -0.00000026
0.50645283 0.21170991 0.00761824
-0.66613312 0.78096853 -0.00000017
0.30613816 -0.08152058 -0.00000045
0.14344550 0.41426969 -0.00000076
0.56195054 -0.24677699 -0.00000076
-0.20835758 -0.69955969 -0.00000006
0.67081126 -0.18840528 -0.00000122
-0.27358409 0.11474884 -0.00000057
-0.05078364 -0.73780338 -0.00000004
-0.06658455 -0.36513505 -0.00000027
-0.03737426 -0.08199400 -0.00000045
-0.27144602 -0.34700194 -0.00000028
-0.20811317 0.12029075 -0.00000058
-0.02308749 0.23691106 -0.00000065
-0.05909507 -0.45958108 -0.00000021
-0.15230390 0.58193242 -0.00000080
-0.05616996 -0.60768854 -0.00000012
0.04555222 -0.22902334 -0.00000036
-0.50649936 0.01061471 -0.00000032
-0.79147310 -0.32108372 0.00000000
0.69014223 0.05628464 -0.00000176
0.07844477 -0.48409899 -0.00000020
-0.27505746 0.49107596 -0.00000065
0.44287393 0.23005868 0.01182975
-0.30163469 0.54405755 -0.00000062
0.66450581 -0.57788093 -0.00000044
0.03022101 -0.10842445 -0.00000043
0.11724248 0.65559464 -0.00000109
-0.76241676 0.67776284 -0.00000005
-0.44839548 0.74947782 -0.00000044
0.65730316 -0.05515444 -0.00000144
-0.55967297 -0.40362192 -0.00000018
-0.51683336 0.21226390 -0.00000034
-0.46057452 -0.29385487 -0.00000031
-0.02455499 -0.66040828 -0.00000009
-0.38618877 0.24449715 -0.00000049
-0.77010392 -0.22653923 0.00000000
-0.31051607 -0.23197007 -0.00000036
0.13496079 0.01482903 0.06053917
-0.03932412 -0.25211051 -0.00000034
0.19499082 0.19172506 -0.00000062
0.23615354 -0.48319789 -0.00000020
-0.18539900 -0.14382966 -0.00000041
-0.62743019 -0.77348150 -0.00000002
0.59787182 -0.68456459 -0.00000007
-0.36380342 0.18412201 -0.00000050
0.02293658 -0.65882925 -0.00000009
-0.79227465 0.79655015 -0.00000001
-0.03835932 0.12578070 -0.00000058
-0.59270262 -0.25482400 -0.00000017
0.53033819 0.22014799 -0.00000157
-0.53877444 -0.15933677 -0.00000025
-0.09721686 0.20495395 -0.00000063
-0.28900454 -0.79853317 -0.00000000
0.00972133 0.30968450 -0.00000069
0.23663985 0.17790503 0.03588863
-0.51703972 0.56942921 -0.00000035
0.25714779 -0.03015360 -0.00000048
-0.34584012 -0.16295469 -0.00000040
0.66662886 -0.65055787 -0.00000030
-0.55137011 0.75022307 -0.00000031
0.34835957 -0.68704691 -0.00000007
0.44701695 -0.08511246 -0.00000070
0.25642514 0.36569522 -0.00000097
0.30699244 -0.17560357 -0.00000039
-0.02910569 0.13509082 -0.00000058
-0.72187013 -0.50133871 0.00000000
0.53562140 -0.22796540 -0.00000071
-0.74931411 0.32780893 -0.00000006
-0.61835758 0.44057931 -0.00000023
-0.62681804 -0.26015775 -0.00000014
-0.56053035 -0.28411356 -0.00000020
-0.16312095 0.04303280 -0.00000053
0.72107504 0.02145439 0.00534916
0.30238071 -0.65778866 -0.00000009
0.41882132 0.22375131 0.01465663
-0.41091127 -0.79594404 -0.00000000
0.42912842 -0.74248489 -0.00000004
-0.44058924 0.46776284 -0.00000045
0.26018271 0.37548199 0.01530004
-0.23491442 0.68494324 -0.00000071
0.01780657 0.50343737 -0.00000081
0.64786546 -0.16767620 -0.00000119
-0.56808692 -0.18581323 -0.00000021
0.21166816 0.45822572 0.01211298
-0.72254083 -0.40142472 -0.00000001
0.40281227 0.24781721 0.01390647
-0.42505822 0.04380389 -0.00000041
0.65279941 -0.16784024 -0.00000120
0.64011175 -0.73875543 -0.00000005
-0.67865019 0.63887939 -0.00000015
-0.43705816 -0.68166390 -0.00000007
0.57894211 0.14288036 -0.00000157
-0.01426116 -0.78056653 -0.00000001
0.59501583 -0.22648457 -0.00000090
-0.54091222 0.79135627 -0.00000032
-0.11394263 0.49852404 -0.00000081
0.18883647 0.44223613 -0.00000091
-0.57352416 -0.49169954 -0.00000015
0.42709067 0.19781507 0.01630161
-0.03258945 0.58968100 -0.00000087
-0.51909531 -0.02751412 -0.00000029
0.01600549 0.10060614 -0.00000056
-0.66931804 -0.46455564 -0.00000005
0.27550387 0.41519655 -0.00000113
-0.72118562 0.28872235 -0.00000010
0.22946947 0.28594887 -0.00000073
-0.17384890 0.41200030 -0.00000074
0.20682218 -0.25291149 -0.00000034
0.75919553 -0.53590133 -0.00000066
0.62351144 -0.18770763 -0.00000107
0.00038951 0.27891035 -0.00000067
0.04222981 0.16123354 0.05554145
0.51581007 0.08835240 0.01823293
0.22452945 -0.29636342 -0.00000031
-0.31001913 0.26306895 -0.00000057
-0.43506235 0.12692038 -0.00000041
0.59848673 -0.49534254 -0.00000039
0.54358917 -0.10969253 -0.00000097
-0.43433110 0.05960046 -0.00000040
0.11248504 0.12632761 0.05225035
0.06839483 0.49258832 -0.00000081
0.03264711 0.30753454 0.04281183
0.15414794 0.07646099 0.05301431
-0.15790574 0.47914741 -0.00000077
0.24380469 0.24734535 0.02875599
-0.68049890 0.31586740 -0.00000015
0.58715356 -0.24126411 -0.00000085
-0.44131035 0.49458239 -0.00000045
-0.41236106 -0.24460390 -0.00000035
0.59018031 0.07991170 -0.00000148
0.10102942 0.28234129 -0.00000068
-0.79930174 0.19702673 -0.00000000
0.17323652 -0.54964284 -0.00000016
-0.15320255 0.10422051 -0.00000057
0.23682851 0.16996681 0.03661017
0.02953535 -0.00827992 -0.00000049
-0.79924874 0.71122143 -0.00000000
0.55463888 0.18544725 -0.00000158
0.48156224 0.04857468 0.02512558
0.23497277 0.03654080 0.04920600
0.36311754 0.22283488 -0.00000104
0.02249430 -0.30869761 -0.00000031
0.28757360 0.05906594 -0.00000054
-0.56996550 0.14180382 -0.00000027
-0.61905488 0.50136763 -0.00000023
-0.14408495 0.48130838 -0.00000079
-0.71122057 0.35253602 -0.00000011
0.36927915 -0.28286171 -0.00000032
0.55052500 -0.68175010 -0.00000007
-0.60030682 -0.08065978 -0.00000020
-0.38208176 0.02103305 -0.00000045
0.26469145 -0.32366391 -0.00000030
-0.27059991 -0.13948132 -0.00000041
0.20380600 0.29233749 0.02829103
-0.31746372 0.33772038 -0.00000058
0.38932424 0.29511227 0.01075868
-0.79300713 -0.09428662 0.00000000
0.06453743 -0.27029867 -0.00000033
-0.38183517 -0.57318349 -0.00000014
0.59649531 -0.73767854 -0.00000004
0.31931338 -0.37675082 -0.00000026
0.32701432 0.43174672 -0.00000133
0.03751081 0.53356439 -0.00000083
-0.27244376 0.05219176 -0.00000053
-0.67262123 0.60098508 -0.00000016
-0.23559842 -0.42779114 -0.00000023
-0.33124950 -0.78524283 -0.00000001
-0.29643952 0.44657886 -0.00000062
0.72851358 0.04082877 -0.00000185
0.70965876 -0.03644728 -0.00000164
-0.25860524 -0.18916200 -0.00000038
0.04777814 0.21432333 0.05008178
-0.38148306 -0.48619821 -0.00000020
0.01473406 -0.32392073 -0.00000030
-0.00588701 0.67835109 -0.00000092
-0.07574930 0.05954058 -0.00000054
-0.62085594 -0.16891290 -0.00000016
-0.19351056 0.29967353 -0.00000069
0.39534501 -0.51359967 -0.00000018
0.32322494 0.40037815 -0.00000125
-0.21088763 0.30018686 -0.00000068
0.18138478 -0.75250349 -0.00000003
0.06600651 0.08339120 -0.00000055
-0.37292137 0.07460440 -0.00000047
-0.20028360 -0.14845379 -0.00000041
-0.70595566 -0.44601431 -0.00000002
-0.30418478 0.21481829 -0.00000057
-0.56154917 0.67636394 -0.00000030
-0.38720662 0.26132230 -0.00000049
0.43839581 0.04806730 0.02919215
0.04675128 0.10429149 0.06042224
0.27679839 -0.78140139 -0.00000001
0.24556951 -0.51320074 -0.00000018
-0.16703262 -0.26217177 -0.00000034
0.57783102 0.18753994 -0.00000165
-0.63654209 -0.79606589 -0.00000000
-0.74975984 0.25440852 -0.00000006
0.02670298 0.46879247 -0.00000079
0.71034411 -0.01755599 -0.00000168
-0.54280128 -0.28552715 -0.00000022
0.57186082 0.05864457 0.01578004
-0.68878023 0.14753868 -0.00000014
-0.44532454 -0.61628280 -0.00000011
0.30229246 0.45574354 0.00390585
0.65789469 0.13243889 0.00089814
0.14578809 -0.36621737 -0.00000027
-0.61054143 -0.28918600 -0.00000015
-0.51267785 -0.30132215 -0.00000025
-0.54254288 -0.31749478 -0.00000022
0.56480602 0.16755093 -0.00000157
0.69455296 -0.00284139 -0.00000166
-0.29020575 -0.24050778 -0.00000035
-0.29238807 -0.13491610 -0.00000042
-0.47813157 0.59586761 -0.00000040
0.06435246 0.70544868 0.00281068
-0.12958377 -0.74603299 -0.00000003
0.10594380 0.42337837 0.02520153
-0.40569728 -0.09764704 -0.00000040
-0.65289255 -0.09901636 -0.00000014
-0.46382927 0.78472463 -0.00000042
0.65048516 -0.28120889 -0.00000097
-0.42093124 0.33152681 -0.00000047
0.56371013 -0.21721702 -0.00000082
0.20649689 -0.29123659 -0.00000032
-0.77532439 0.42873604 -0.00000003
-0.79010691 0.62507404 -0.00000001
-0.78293487 -0.12531866 0.00000000
0.33187667 0.26386579 -0.00000102
0.19371200 0.01883530 -0.00000051
0.18415898 -0.01404409 -0.00000049
-0.75143199 0.70117534 -0.00000006
0.29951043 0.22696061 0.02546714
-0.31159104 -0.63820161 -0.00000010
-0.35753320 0.04870361 -0.00000048
0.37052011 0.07197051 0.03328657
-0.39898632 0.50670137 -0.00000050
-0.08227108 -0.35391307 -0.00000028
0.47026867 0.02023029 -0.00000098
-0.31077780 0.42101169 -0.00000060
-0.44926074 0.01069086 -0.00000038
-0.20480058 -0.14263220 -0.00000041
-0.28859655 0.04972062 -0.00000053
-0.68679945 0.36365081 -0.00000014
-0.20510516 -0.79261449 -0.00000000
-0.69770664 -0.71120606 0.00000000
0.01730692 -0.09082110 -0.00000044
0.68887009 -0.40072581 -0.00000086
0.09267398 -0.03186191 -0.00000048
0.05048114 -0.57414509 -0.00000014
-0.74117301 -0.51068248 0.00000000
0.71477784 -0.17508221 -0.00000139
-0.38614321 -0.19451875 -0.00000038
-0.45518031 -0.57698196 -0.00000014
0.14414248 0.18632528 0.04371661
0.18545547 0.33123003 -0.00000071
0.11253461 0.53022550 -0.00000083
0.02042269 -0.11627370 -0.00000043
0.23347218 0.38859603 0.01656606
-0.03274482 -0.32488939 -0.00000030
-0.38749529 0.63191506 -0.00000052
0.31753232 0.05581524 0.03972463
-0.15025078 0.15940900 -0.00000060
0.37066016 -0.79539000 -0.00000000
-0.62272071 0.66884981 -0.00000022
0.13463756 -0.12757084 -0.00000042
-0.28802914 -0.35204227 -0.00000028
0.28017764 0.19969987 -0.00000073
0.30590740 -0.44037869 -0.00000022
-0.31783281 0.23428534 -0.00000056
-0.53091572 0.18247825 -0.00000032
-0.38724391 0.38053060 -0.00000051
-0.79049045 0.46965297 -0.00000001
-0.46920675 -0.74056181 -0.00000004
-0.34221029 -0.03755156 -0.00000048
-0.52729660 -0.79972273 -0.00000000
0.32614888 -0.41155147 -0.00000024
-0.18733911 -0.29765838 -0.00000031
-0.26514223 0.10398588 -0.00000056
0.33925849 0.03287187 0.03983794
-0.23529407 -0.32091277 -0.00000030
0.01495013 0.63957849 0.01354352
0.15022359 0.30603547 0.03200444
-0.35442432 0.29767614 -0.00000053
0.36127272 -0.41721250 -0.00000024
-0.67885387 -0.05826208 -0.00000012
0.00473178 0.58166935 -0.00000086
-0.73061138 0.30858548 -0.00000009
0.01740885 0.44700322 -0.00000078
-0.50557571 -0.31132411 -0.00000026
0.45144661 -0.71203189 -0.00000005
-0.42688268 0.47371785 -0.00000047
0.13688211 0.16197131 -0.00000060
-0.21870544 0.43577032 -0.00000070
-0.11429049 -0.27430156 -0.00000033
-0.39196636 0.23541789 -0.00000048
0.36885412 -0.14993824 -0.00000041
0.37592107 0.41197000 0.00112592
0.43487661 -0.12835098 -0.00000058
0.20896597 0.01210081 -0.00000051
-0.37907549 -0.04428627 -0.00000044
0.16871754 -0.27680386 -0.00000033
0.03434470 0.67313995 0.00861294
0.21905840 0.25475591 -0.00000066
0.33941055 0.01356020 0.04162191
-0.50629179 0.47191243 -0.00000037
0.53411736 0.26038041 0.00051056
-0.05221957 -0.74527542 -0.00000003
-0.00108578 0.60554358 -0.00000088
-0.72044469 0.36480402 -0.00000010
-0.55260321 0.41149569 -0.00000031
0.32347221 -0.24186797 -0.00000035
-0.53264586 -0.28061166 -0.00000023
0.57531221 0.02390662 0.01869316
0.41679207 0.32906134 -0.00000142
0.12309598 0.66595691 -0.00000113
0.07277233 0.39783308 0.03066844
0.35915676 0.23034168 0.01959851
0.48475854 -0.77941385 -0.00000001
-0.63416550 -0.40326489 -0.00000010
0.52215577 0.21756341 -0.00000154
-0.04423377 -0.73870455 -0.00000004
-0.22790187 0.79820684 -0.00000072
-0.00475279 -0.24778170 -0.00000035
-0.57337210 -0.70175752 -0.00000006
-0.05787801 -0.47775902 -0.00000020
-0.39409565 -0.06770061 -0.00000042
0.17002495 0.45075270 0.01668630
-0.74192978 -0.60394291 0.00000000
-0.31059315 -0.06416084 -0.00000046
0.68571170 0.10165543 -0.00000183
0.50636345 0.07453754 0.02039885
-0.51002704 0.57172048 -0.00000036
-0.11695221 -0.38135803 -0.00000026
0.14282744 -0.18512827 -0.00000038
-0.62366452 -0.12782656 -0.00000016
-0.57426377 -0.72453924 -0.00000005
0.75252940 -0.55479455 -0.00000061
0.15701288 -0.18777565 -0.00000038
0.34695299 -0.52517397 -0.00000017
-0.24009385 0.25469611 -0.00000064
-0.07383592 -0.03204789 -0.00000048
0.26412609 -0.42226526 -0.00000024
-0.18320686 -0.59186678 -0.00000013
-0.03990782 -0.36987621 -0.00000027
0.71856246 -0.23647246 -0.00000128
-0.19476716 0.24230449 -0.00000065
0.04850971 0.65638000 0.00885459
-0.36005531 -0.20815158 -0.00000037
0.27419639 0.05064439 0.04424092
0.73449436 -0.23121338 -0.00000134
0.51778425 0.13157609 -0.00000135
-0.19163664 0.34848284 -0.00000071
0.53846145 0.18080106 0.00751580
0.18917034 0.02414321 0.05462476
0.33330578 0.20128951 -0.00000090
-0.77340912 -0.66360773 0.00000000
0.06495860 0.32589541 -0.00000070
0.11805933 -0.45133437 -0.00000022
-0.64867658 -0.34444611 -0.00000010
0.45597477 0.29323264 0.00472770
-0.22427783 0.79911402 -0.00000072
0.27388838 -0.28730757 -0.00000032
-0.40480175 0.76056486 -0.00000049
-0.26117179 0.24900398 -0.00000062
-0.03899308 0.19315957 -0.00000062
-0.45110784 0.33515504 -0.00000043
0.36745157 -0.26343826 -0.00000034
-0.36095087 0.64213774 -0.00000055
-0.20530413 0.55198937 -0.00000074
-0.00578030 -0.79250003 -0.00000000
-0.21861337 -0.78045119 -0.00000001
0.06712414 -0.77631446 -0.00000001
0.27951984 -0.05396333 -0.00000047
-0.11667994 0.06342433 -0.00000054
-0.47688026 0.26008412 -0.00000039
0.16472723 -0.51889539 -0.00000018
-0.02162431 0.44831127 -0.00000078
-0.06897999 0.45578012 -0.00000078
0.47374502 -0.55645366 -0.00000015
-0.03204336 -0.35645317 -0.00000028
0.38431623 0.21600060 -0.00000109
-0.17225914 0.59385066 -0.00000078
0.78352213 -0.07657997 -0.00000180
0.64729933 -0.78131067 -0.00000001
-0.16242677 -0.57032986 -0.00000014
0.06293166 -0.72968531 -0.00000004
0.18227311 0.28309660 0.03115626
-0.62143064 0.29318458 -0.00000022
0.24897468 0.42406507 -0.00000106
-0.35392599 -0.62490777 -0.00000011
0.32862983 0.44240394 -0.00000135
-0.78345272 -0.50711658 0.00000000
0.30778300 0.42920436 -0.00000126
-0.73484292 -0.05867681 -0.00000006
0.31898556 -0.45582256 -0.00000022
-0.75118594 -0.68888681 0.00000000
-0.67855051 0.49567078 -0.00000015
0.59774792 0.01534724 -0.00000138
-0.34103311 -0.74709819 -0.00000003
0.10867279 0.57233422 -0.00000090
-0.67559453 0.49498749 -0.00000016
0.11295757 -0.58912371 -0.00000013
0.18047785 0.04414431 -0.00000053
-0.04357675 -0.33820569 -0.00000029
0.13950860 -0.31916342 -0.00000030
0.15448987 0.23239982 0.03846330
-0.36078109 0.07422303 -0.00000048
0.26153158 0.43869700 0.00928842
-0.66667120 -0.09587374 -0.00000012
0.09602161 0.07259580 -0.00000055
0.28306394 0.11014426 0.03787539
-0.36405321 0.40029470 -0.00000054
-0.27926602 0.44034551 -0.00000064
0.39837616 -0.05632062 -0.00000060
-0.44271054 0.50022847 -0.00000045
-0.25686673 -0.52062350 -0.00000017
0.64952824 -0.02129161 -0.00000148
0.12298068 -0.60474047 -0.00000012
0.65889147 -0.25843878 -0.00000104
-0.51649065 0.68247226 -0.00000035
0.48624567 0.17366868 0.01304184
-0.21940997 0.10290498 -0.00000056
0.00415254 -0.17776969 -0.00000039
-0.17779334 -0.71697600 -0.00000005
0.75755459 -0.14905539 -0.00000157
0.65343480 0.00479288 -0.00000154
-0.43152164 -0.16231363 -0.00000036
0.02224690 0.01361874 0.07114609
0.38936991 0.11302530 0.02770876
0.24937613 -0.69352210 -0.00000007
0.71912068 -0.11319576 -0.00000152
-0.70246285 -0.16643121 -0.00000007
0.63569703 -0.42360251 -0.00000065
-0.17218645 0.44708702 -0.00000075
0.17300133 -0.12437033 -0.00000042
-0.13995741 -0.05680989 -0.00000046
-0.64224322 -0.20283891 -0.00000013
0.20723662 -0.22733350 -0.00000036
-0.19466785 -0.26689363 -0.00000033
0.15693991 0.32462493 -0.00000070
0.23636435 0.44739408 0.01082200
0.27240139 0.26145620 0.02477940
-0.41977828 0.64288918 -0.00000048
0.23853566 -0.03192123 -0.00000048
0.46725607 0.08294418 0.02325748
-0.74207534 -0.48756025 0.00000000
-0.33759435 0.07871668 -0.00000051
0.03221453 0.41488411 -0.00000076
0.76115312 -0.44266352 -0.00000089
-0.21613356 0.60218370 -0.00000073
-0.13639874 0.09579168 -0.00000056
0.09707277 0.14255318 -0.00000059
0.09830950 -0.42310900 -0.00000024
0.55136300 -0.07905041 -0.00000105
-0.15379934 0.40368710 -0.00000075
-0.07876566 0.22429917 -0.00000064
-0.22770515 0.31804977 -0.00000067
0.47020493 -0.59728489 -0.00000013
0.01913356 -0.02681954 -0.00000048
-0.31053647 -0.35671644 -0.00000028
-0.66086985 -0.69859509 -0.00000002
0.52315546 -0.50142356 -0.00000019
-0.65669524 -0.43625636 -0.00000007
0.24147631 -0.70785411 -0.00000006
0.55161602 -0.13722083 -0.00000094
0.40690000 -0.40233990 -0.00000025
0.09472198 0.34383130 -0.00000071
0.12526977 0.37670411 -0.00000074
-0.37576892 0.58497318 -0.00000053
-0.17828998 -0.64579012 -0.00000010
0.41482372 0.18911184 0.01825418
0.01664634 0.20714567 -0.00000063
0.69177115 -0.22642495 -0.00000121
-0.79683087 -0.26466526 0.00000000
-0.11379181 0.68310937 -0.00000086
-0.44911932 -0.17679325 -0.00000034
0.31637062 -0.24853719 -0.00000034
0.26078718 0.29494350 -0.00000085
-0.01876388 0.63510978 -0.00000090
0.06759393 0.62719923 -0.00000089
-0.77943102 0.50778995 -0.00000003
-0.23362190 -0.17462600 -0.00000039
-0.37947228 0.30305058 -0.00000050
0.22420563 0.35301009 0.02074234
-0.37624693 0.38814841 -0.00000052
-0.27906224 0.52843178 -0.00000065
0.50883718 0.03913288 -0.00000114
0.20542952 0.02651769 -0.00000052
-0.35918928 0.49833485 -0.00000055
-0.41665310 -0.52129278 -0.00000017
-0.37657245 -0.76225903 -0.00000002
-0.78492490 0.13269212 -0.00000002
-0.20242463 0.06134310 -0.00000054
-0.78319779 0.56913983 -0.00000002
-0.65292516 -0.37764122 -0.00000009
-0.23666060 0.29860740 -0.00000066
-0.23799093 0.28544750 -0.00000065
-0.69875016 -0.39525218 -0.00000004
-0.09295680 -0.27201395 -0.00000033
-0.38360394 0.49438841 -0.00000052
0.42412657 0.17682507 -0.00000114
0.42292681 -0.11465151 -0.00000057
0.36379440 -0.09733994 -0.00000044
-0.59485040 -0.23331309 -0.00000018
0.67308052 -0.76684944 -0.00000008
-0.72937239 0.50705607 -0.00000009
0.12438925 0.17465571 -0.00000061
-0.36657200 -0.75057290 -0.00000003
0.05707027 0.08882554 0.06090150
0.06385748 0.14818304 0.05474291
-0.20589056 0.44715273 -0.00000072
-0.69511529 -0.77628796 0.00000000
0.38155936 0.29035495 -0.00000123
0.24023793 0.11105436 0.04177797
-0.39176092 0.17490567 -0.00000047
-0.12914079 0.74232694 -0.00000084
0.38955669 0.02655782 0.03574246
0.01645280 -0.21426991 -0.00000037
-0.69007305 -0.25486713 -0.00000007
0.71046969 -0.38646404 -0.00000096
0.19262527 -0.44775320 -0.00000022
-0.26916766 0.23323612 -0.00000061
-0.51627587 -0.25643867 -0.00000026
0.06268490 0.33766578 -0.00000071
0.16547667 -0.21401564 -0.00000037
-0.03455833 -0.50573619 -0.00000018
0.22502048 0.40673154 0.01566440
-0.68525295 -0.25790340 -0.00000008
0.52205656 -0.51512120 -0.00000018
-0.31748531 -0.60061004 -0.00000012
-0.00064758 -0.65441753 -0.00000009
-0.76316418 -0.04056786 -0.00000003
-0.25472205 -0.14319576 -0.00000041
0.60012777 0.02307785 0.01645969
0.76190758 -0.40709272 -0.00000098
-0.03381331 0.11566298 -0.00000057
0.33283615 -0.76887246 -0.00000002
0.42639177 -0.52908382 -0.00000017
0.00073152 0.45115459 -0.00000078
-0.54071236 0.74711399 -0.00000032
-0.79818061 -0.48589128 0.00000000
0.18589226 -0.60390796 -0.00000012
-0.65120865 0.42026094 -0.00000019
0.26023197 -0.60464153 -0.00000012
-0.66218463 -0.66772045 -0.00000002
0.70638470 -0.59441439 -0.00000051
-0.18242033 0.25350913 -0.00000066
0.52451424 -0.17246321 -0.00000078
0.02657380 -0.43622041 -0.00000023
-0.57759846 -0.19056811 -0.00000020
-0.25650398 0.52008291 -0.00000068
-0.64875819 -0.18138134 -0.00000013
0.47185569 0.28878765 -0.00000151
-0.52221127 -0.62151712 -0.00000011
0.47838285 0.11512565 -0.00000120
0.76582284 -0.42939543 -0.00000093
-0.22065490 -0.45925801 -0.00000021
-0.12732842 0.52128498 -0.00000081
-0.39358337 0.37329423 -0.00000050
0.50040346 0.26184834 -0.00000155
0.25342480 -0.09529912 -0.00000044
0.09288030 0.35550637 -0.00000072
0.54376923 0.16567229 0.00843024
0.19096129 0.25217496 -0.00000066
-0.24145798 0.60414129 -0.00000070
0.21319830 0.48455402 -0.00000107
-0.69414510 0.22200052 -0.00000013
-0.15378794 0.64513105 -0.00000081
-0.73761782 -0.42806846 0.00000000
-0.05750477 -0.50745472 -0.00000018
-0.56546046 -0.24363180 -0.00000021
-0.53074927 -0.43952408 -0.00000021
0.10468407 0.11042573 -0.00000057
-0.19906241 -0.13501713 -0.00000042
-0.75067453 0.24303540 -0.00000006
0.78525206 0.01436204 0.00003386
0.58797815 0.07434184 -0.00000147
-0.30255995 -0.51067879 -0.00000018
-0.45051591 0.45206941 -0.00000044
-0.31127505 0.08095894 -0.00000054
-0.34478909 0.51676806 -0.00000057
0.06765909 0.34995109 -0.00000072
0.43862886 -0.23681086 -0.00000038
-0.75104116 -0.34335882 0.00000000
-0.48514081 -0.48063805 -0.00000020
0.06546465 -0.27380085 -0.00000033
-0.29735456 0.23600904 -0.00000058
0.29907931 -0.03846332 -0.00000048
-0.00829983 0.75136711 -0.00000097
-0.78522025 -0.09576624 0.00000000
-0.47511814 0.20633702 -0.00000038
-0.43125106 -0.76694140 -0.00000002
0.58574718 0.04945470 0.01534272
-0.11647528 -0.51193844 -0.00000018
0.49751140 0.04822270 -0.00000113
0.25298381 -0.30484003 -0.00000031
0.50334440 -0.29828407 -0.00000047
-0.53283377 0.38759244 -0.00000033
0.09415223 -0.26109315 -0.00000034
0.18763722 -0.10779629 -0.00000043
0.38374308 -0.22264333 -0.00000036
-0.40959700 0.15379326 -0.00000044
-0.61928050 0.04085937 -0.00000020
0.31048104 0.27487834 -0.00000097
0.03044416 0.38391474 -0.00000074
0.64196797 -0.16081638 -0.00000118
-0.68252160 0.79343819 -0.00000015
0.20309531 -0.61017447 -0.00000012
-0.76629340 -0.39794563 0.00000000
-0.49143817 -0.25767234 -0.00000028
-0.12183516 -0.56235229 -0.00000015
-0.06727482 0.22964566 -0.00000064
0.41549218 0.34768886 0.00342665
-0.41450013 -0.54059818 -0.00000016
0.17975211 -0.26639662 -0.00000033
-0.68194882 0.69369435 -0.00000015
0.75916926 -0.28777204 -0.00000128
0.31762828 0.39444566 -0.00000123
-0.78847230 -0.76485493 0.00000000
0.08051141 0.63678195 0.00769972
0.47661465 0.01782415 0.02844948
0.22420165 -0.00107538 -0.00000050
0.22738607 -0.03889176 -0.00000048
0.05302235 -0.21969440 -0.00000036
0.02019353 0.09534668 0.06372774
0.44727378 0.27519913 -0.00000141
0.49646924 0.07802089 -0.00000118
-0.24951888 0.79301644 -0.00000069
-0.69285953 0.11187883 -0.00000013
0.45280348 -0.32753163 -0.00000030
-0.02022003 0.27462517 -0.00000067
-0.72059997 -0.43882031 -0.00000000
-0.60591040 -0.65694621 -0.00000009
0.62744006 -0.75190313 -0.00000003
-0.60107078 0.37145137 -0.00000025
-0.59308317 -0.34576591 -0.00000016
-0.05132754 -0.61128916 -0.00000012
0.59013717 -0.02795000 -0.00000127
-0.71160624 -0.65512042 0.00000000
-0.47844939 0.58584193 -0.00000040
-0.21084581 0.47082846 -0.00000071
-0.22040409 0.05699929 -0.00000054
0.36644933 -0.49484888 -0.00000019
0.04578621 0.25327075 -0.00000066
-0.63251917 -0.22299868 -0.00000014
-0.29919557 0.77265276 -0.00000063
-0.55134999 0.57298531 -0.00000031
-0.15277323 0.38434623 -0.00000074
-0.48053899 0.07200331 -0.00000035
-0.36165367 0.58141270 -0.00000055
0.32786335 0.41746466 0.00508907
0.50921659 -0.25401170 -0.00000057
-0.16149657 0.03817964 -0.00000052
0.42045768 -0.34608707 -0.00000028
0.41685727 0.02934996 0.03294045
0.59594289 -0.44645121 -0.00000048
0.67871239 -0.15721824 -0.00000131
0.64077005 -0.42927954 -0.00000065
-0.64174063 -0.66164702 -0.00000005
0.12551109 0.03393589 0.05963998
0.70861124 -0.55671291 -0.00000061
0.33568211 0.37791455 0.00804361
-0.37426573 0.68664672 -0.00000053
-0.32419923 -0.53122633 -0.00000017
-0.05727871 0.22742011 -0.00000064
0.71171413 -0.74495927 -0.00000014
0.00261857 0.24624420 0.05131427
-0.09228222 0.31715788 -0.00000070
0.04617542 -0.00777732 -0.00000050
0.70521827 0.08436328 -0.00000186
0.24911725 -0.06501110 -0.00000046
0.33933657 -0.76191345 -0.00000002
0.42746838 -0.42217206 -0.00000024
0.52866910 -0.42766337 -0.00000030
-0.73138013 -0.69546457 0.00000000
-0.07360828 -0.64620992 -0.00000010
-0.20589908 -0.79885843 -0.00000000
-0.29084349 0.10204733 -0.00000056
0.36946672 0.17117247 0.02414784
-0.00539886 0.00891719 -0.00000051
-0.39560253 -0.06194280 -0.00000042
0.10842688 0.18898377 0.04679439
0.05268637 -0.58941090 -0.00000013
0.03004110 0.68877794 -0.00000093
-0.12015638 0.40154299 -0.00000075
-0.23848246 0.41742014 -0.00000068
0.41071616 0.07625564 0.02914482
0.45132751 -0.74679950 -0.00000003
0.22457153 0.24253522 -0.00000065
0.05186893 -0.67929580 -0.00000008
-0.26197078 -0.70061871 -0.00000006
-0.69234537 0.48946710 -0.00000013
0.12927493 0.66862316 -0.00000116
-0.53648584 0.11339423 -0.00000030
-0.66885587 0.36964565 -0.00000016
-0.71804971 -0.24650961 -0.00000004
-0.26378102 0.59213794 -0.00000067
-0.46117918 -0.39786304 -0.00000025
0.18980810 0.10620387 0.04692486
0.19862201 0.49728556 -0.00000105
0.05594494 0.45410973 0.02699534
-0.10070256 0.22480169 -0.00000064
-0.22037754 0.31547471 -0.00000068
0.06848998 0.41036113 0.02990069
-0.23800317 -0.58529584 -0.00000013
0.00715104 0.11341742 -0.00000057
0.56551652 -0.61375308 -0.00000012
0.40302814 -0.11942218 -0.00000050
0.34509123 -0.46422284 -0.00000021
-0.26006295 -0.37390513 -0.00000027
0.19182976 0.06307994 0.05075182
0.02964797 0.34931056 -0.00000072
0.05385886 -0.64816964 -0.00000009
-0.64426175 -0.76658392 -0.00000002
-0.54977305 -0.28393810 -0.00000022
0.52358268 0.13921709 -0.00000139
0.34220352 0.29295271 0.01534728
-0.48412897 -0.41234236 -0.00000024
-0.62377323 0.18622302 -0.00000022
-0.60228905 0.02380998 -0.00000022
-0.05756739 -0.62095707 -0.00000011
0.04764248 -0.44521392 -0.00000022
0.02289677 0.50730981 -0.00000082
0.46685495 0.25578815 -0.00000143
0.01686187 0.01672032 -0.00000051
-0.07460281 -0.18670290 -0.00000038
0.14344831 0.14948946 -0.00000059
-0.02371279 0.54449818 -0.00000084
-0.32646953 0.11081816 -0.00000053
0.13783049 0.64255028 0.00182551
-0.39925697 -0.73467874 -0.00000004
-0.66421618 0.75835561 -0.00000017
-0.22375484 0.35323718 -0.00000068
0.19138341 -0.22920396 -0.00000036
0.51528140 0.25274862 -0.00000158
0.61843911 0.08648759 0.00885052
0.74658731 -0.13579119 -0.00000156
-0.30444766 -0.70944843 -0.00000006
-0.13443048 -0.30806619 -0.00000031
0.50886382 -0.43877546 -0.00000023
-0.22490426 0.11676092 -0.00000057
0.37031754 0.07618563 0.03291296
0.29364177 0.25586533 -0.00000088
-0.09909587 -0.32701070 -0.00000030
-0.69762043 -0.68088182 0.00000000
0.25408166 0.48240045 -0.00000119
-0.70878952 0.65235591 -0.00000011
0.19999466 -0.28595301 -0.00000032
-0.15313691 0.19142751 -0.00000062
-0.59530502 -0.31822829 -0.00000016
0.79335058 -0.21448499 -0.00000146
0.36486468 0.00749746 0.03981632
-0.56152468 0.01525015 -0.00000026
-0.61302499 0.21073789 -0.00000023
-0.29211700 -0.31244864 -0.00000030
-0.11816307 0.53662930 -0.00000083
-0.75121839 -0.06099507 -0.00000004
0.32292227 -0.72483166 -0.00000005
-0.71652262 0.63266560 -0.00000010
0.67525840 -0.43147732 -0.00000076
-0.33026365 0.65428975 -0.00000059
-0.20844908 -0.25759807 -0.00000034
0.70700855 -0.25363412 -0.00000121
0.66634550 -0.10370972 -0.00000137
0.06906487 0.35410814 -0.00000072
-0.11011339 -0.79414496 -0.00000000
-0.21103751 -0.01644001 -0.00000049
-0.25817899 0.08116250 -0.00000055
-0.36291770 -0.53430052 -0.00000017
0.09697787 0.08376051 -0.00000055
0.61667766 -0.04110298 -0.00000133
-0.26974543 -0.73168490 -0.00000004
0.08468815 0.39855720 -0.00000075
-0.78394984 0.64254912 -0.00000002
-0.04764097 0.13237645 -0.00000058
-0.27478799 -0.65428827 -0.00000009
0.76381031 -0.44640887 -0.00000088
-0.47483587 0.07345333 -0.00000036
-0.04071852 0.79179433 -0.00000095
-0.23432807 0.41959061 -0.00000068
0.43477005 -0.50550977 -0.00000018
-0.18964313 -0.55492363 -0.00000015
-0.19001476 -0.12030953 -0.00000042
-0.71941423 0.48296679 -0.00000010
0.52130963 -0.69244416 -0.00000007
0.35158045 -0.44761785 -0.00000022
-0.68930386 -0.76304124 0.00000000
0.69813007 -0.50518093 -0.00000069
-0.66687208 0.04676113 -0.00000015
-0.11361786 -0.11344971 -0.00000043
0.79066213 -0.47983765 -0.00000080
-0.38181402 0.19000218 -0.00000048
-0.78344127 0.01053909 -0.00000002
0.48467055 0.21485741 0.00935337
-0.27273306 0.24794732 -0.00000061
-0.56167484 0.11270078 -0.00000027
0.34280849 0.37949528 -0.00000128
0.18344051 -0.02649734 -0.00000048
0.45532041 0.24660137 -0.00000138
-0.76637450 0.42668525 -0.00000004
0.54459468 -0.37793587 -0.00000045
-0.51941068 0.11885345 -0.00000032
0.51805790 0.16025574 0.01132862
-0.07629985 -0.55988962 -0.00000015
-0.30505162 0.61334118 -0.00000062
-0.51330462 -0.26272924 -0.00000026
0.54013179 0.11628398 0.01336753
-0.34376291 0.41177942 -0.00000056
0.79765877 0.00224875 -0.00000200
0.34232946 -0.27239701 -0.00000033
-0.34001081 -0.58202197 -0.00000014
-0.17168101 -0.25116867 -0.00000034
0.02546512 0.04971962 -0.00000053
0.13415264 0.12701179 0.05016928
-0.63516470 0.13629403 -0.00000020
0.75870615 -0.38730566 -0.00000103
-0.77590172 -0.76259895 0.00000000
0.08590095 0.43410584 0.02606881
-0.60791814 0.65423754 -0.00000024
-0.35431912 0.38532977 -0.00000055
-0.26127986 -0.63562958 -0.00000010
0.09180017 -0.07522892 -0.00000045
0.23271796 0.18126152 0.03594126
-0.63139333 -0.64705307 -0.00000006
0.57648148 -0.76579459 -0.00000002
-0.41009227 0.60065429 -0.00000049
-0.42721272 0.77505591 -0.00000047
-0.73569474 0.23818182 -0.00000008
-0.36335579 0.49080028 -0.00000055
-0.74363130 0.02911470 -0.00000007
-0.76523267 -0.11001641 -0.00000002
-0.24365942 -0.67983733 -0.00000008
0.12985397 0.58752480 -0.00000100
0.41367161 -0.37151396 -0.00000027
-0.22070479 0.05457618 -0.00000053
-0.06677765 0.30344162 -0.00000069
0.39438443 0.25131251 0.01436576
-0.31736538 0.54628229 -0.00000060
0.61465010 -0.61510742 -0.00000021
-0.37147804 -0.71380819 -0.00000005
-0.05219746 -0.58970127 -0.00000013
-0.72292228 0.64561976 -0.00000010
0.34462685 -0.12566440 -0.00000042
-0.11282829 0.43080842 -0.00000077
-0.23025685 0.09196817 -0.00000056
-0.15844607 0.72368813 -0.00000080
0.16022950 -0.17605506 -0.00000039
0.75556573 -0.28530726 -0.00000129
-0.56292824 0.31780126 -0.00000030
-0.08230753 0.79103337 -0.00000090
0.24070199 0.34194679 -0.00000088
-0.44132671 0.44251165 -0.00000045
0.19299504 0.34939264 0.02398526
-0.38859312 0.67825729 -0.00000051
0.08565423 -0.12519388 -0.00000042
0.77631710 -0.06313701 -0.00000180
-0.32340849 -0.12735729 -0.00000042
0.38709333 -0.04931648 -0.00000058
0.33065877 -0.08221121 -0.00000045
0.62080185 -0.23015341 -0.00000098
0.02866741 0.42988542 -0.00000077
-0.44670169 0.58221721 -0.00000044
-0.47598334 -0.24720374 -0.00000030
-0.40791354 0.44242066 -0.00000049
-0.50555199 0.43577060 -0.00000037
-0.29939338 -0.52550665 -0.00000017
-0.18541067 0.62050767 -0.00000077
-0.48509914 -0.69146198 -0.00000007
0.73552816 -0.25166457 -0.00000130
0.01328371 0.59218536 -0.00000087
0.46302398 0.25774213 -0.00000142
0.48175157 -0.78496706 -0.00000001
-0.77151159 -0.41692831 0.00000000
-0.21299635 0.14013405 -0.00000059
-0.71315738 -0.35093929 -0.00000003
-0.36723293 -0.04404259 -0.00000045
-0.15464421 0.16055999 -0.00000060
-0.08067827 0.79428991 -0.00000090
0.00161654 -0.48836651 -0.00000019
0.18666632 0.13975032 -0.00000059
-0.57643071 -0.06584120 -0.00000023
-0.58933153 0.23365401 -0.00000026
-0.53330946 -0.28100406 -0.00000023
-0.12247122 0.04882636 -0.00000053
-0.34596310 0.61176643 -0.00000057
0.02730765 0.25248172 -0.00000066
0.35164480 -0.60358974 -0.00000012
0.18621355 -0.26656853 -0.00000033
-0.35939286 -0.26157840 -0.00000034
0.75622276 -0.37836627 -0.00000105
0.56671324 -0.79812291 -0.00000000
-0.14671773 0.17602745 -0.00000061
-0.64960787 -0.01986563 -0.00000016
0.19957847 0.25560936 0.03210433
-0.22482567 0.12173021 -0.00000058
0.78640104 -0.43369857 -0.00000092
0.12673610 0.22357705 0.04186879
0.26125923 -0.72774520 -0.00000005
0.44282451 -0.55319059 -0.00000015
0.24325791 0.22604954 -0.00000066
-0.41000923 -0.40183969 -0.00000025
0.79779324 -0.04542854 -0.00000189
0.09206288 -0.62459420 -0.00000011
-0.63939616 0.30778297 -0.00000020
0.29099683 -0.76980257 -0.00000002
0.06160366 -0.64521341 -0.00000010
-0.34342001 -0.42496704 -0.00000023
-0.11137982 -0.13822933 -0.00000041
0.46935956 -0.31910629 -0.00000032
-0.56399874 0.08475334 -0.00000027
-0.66229997 -0.36874807 -0.00000008
0.37296583 0.31357610 0.01056266
-0.75784921 0.14984649 -0.00000005
-0.14303298 0.08456248 -0.00000055
-0.00554087 0.66874113 -0.00000092
0.32458407 0.35571195 -0.00000117
0.36795956 0.13454372 0.02769872
-0.66549608 0.27583403 -0.00000017
-0.03583638 -0.28719029 -0.00000032
0.47081048 -0.76566074 -0.00000002
-0.15140270 0.75182356 -0.00000081
-0.06137387 0.43541489 -0.00000077
0.02752956 -0.78007062 -0.00000001
0.61632621 -0.74814800 -0.00000003
0.09718566 0.68004217 -0.00000108
-0.63390219 -0.20487993 -0.00000014
0.27747365 0.05283818 -0.00000053
0.01556597 0.55548539 0.02131593
0.20391035 -0.24773750 -0.00000035
-0.44136336 -0.09164328 -0.00000037
0.61794512 0.15236766 0.00276235
0.40980596 -0.40275970 -0.00000025
-0.56655816 -0.77347742 -0.00000002
-0.70625031 -0.17061911 -0.00000007
-0.62285182 -0.34583442 -0.00000013
0.37556225 -0.01923925 -0.00000060
-0.39962559 -0.02936195 -0.00000042
-0.30706311 -0.08160970 -0.00000045
0.66110671 -0.36543465 -0.00000084
-0.41323990 0.01662281 -0.00000042
0.33837209 0.31437495 0.01370938
0.01311505 0.72434192 -0.00000095
0.08337742 0.51053286 0.01918779
-0.51948097 -0.44683662 -0.00000022
0.04698229 0.28192091 -0.00000068
0.48176965 0.16266443 0.01448323
0.60204792 -0.51279484 -0.00000037
0.63036902 0.07318769 -0.00000160
0.46676348 -0.40012742 -0.00000025
0.31204238 -0.26339050 -0.00000034
0.50145729 0.15311724 -0.00000134
-0.72135498 0.03512066 -0.00000009
0.69656307 -0.77509316 -0.00000006
-0.52749846 -0.45488839 -0.00000021
-0.27844971 -0.22025158 -0.00000036
0.68879485 -0.10768403 -0.00000143
0.20715671 -0.19948759 -0.00000038
0.45727310 -0.09423894 -0.00000072
0.02226022 -0.49632591 -0.00000019
0.59287160 -0.41818645 -0.00000052
-0.14303554 0.29945596 -0.00000069
-0.14157853 0.03419857 -0.00000052
0.07890265 0.32892728 0.03651337
0.14907776 0.51740233 0.01243092
0.44359760 -0.32659432 -0.00000030
0.12802029 0.15602952 -0.00000060
0.63322236 -0.39203558 -0.00000070
0.16132542 0.24728989 -0.00000065
-0.26895712 0.27200649 -0.00000062
-0.37623468 -0.24173977 -0.00000035
0.49374234 -0.53149357 -0.00000017
0.19122734 -0.67251867 -0.00000008
0.06084915 0.68071446 0.00543991
-0.61561783 -0.44012282 -0.00000012
-0.04359696 0.21373834 -0.00000063
-0.65807053 0.63860477 -0.00000018
0.29543515 0.28565540 -0.00000094
-0.71831016 0.04661258 -0.00000010
0.01975282 0.25988482 -0.00000066
-0.08770962 -0.73193865 -0.00000004
0.26017350 0.51080993 0.00270035
-0.75156070 -0.24500020 -0.00000001
-0.39487393 0.41511701 -0.00000051
-0.56299058 -0.43349236 -0.00000017
0.26222299 -0.49143196 -0.00000019
-0.55574353 -0.55635196 -0.00000015
-0.40848144 0.05893054 -0.00000043
0.14245993 -0.56554570 -0.00000015
0.31858079 0.16256076 -0.00000078
-0.21999060 0.08912893 -0.00000056
0.00504759 0.43268437 0.03372902
-0.54670020 0.46760639 -0.00000032
0.55111548 -0.33794844 -0.00000054
-0.76013873 -0.58568139 0.00000000
-0.05164918 -0.50207495 -0.00000019
-0.54547608 0.05440051 -0.00000028
-0.45232476 -0.12290448 -0.00000035
-0.76436615 0.21575881 -0.00000004
0.24270572 0.10979512 -0.00000057
0.30115624 0.26791958 -0.00000093
-0.12997346 0.79890440 -0.00000084
-0.06202764 0.18301889 -0.00000061
0.10040498 0.05289935 -0.00000053
0.78752202 -0.59018666 -0.00000052
0.11674544 -0.15131185 -0.00000041
0.29905572 0.02942655 -0.00000052
