ply
format ascii 1.0
element vertex 1373
property float x
property float y
property float z
end_header
-0.03268594 0.10638043 0.00001084
-0.54778357 -0.09656153 -0.03762695
-0.41959740 -0.17383484 -0.00345713
-0.23486025 0.23298640 0.04304794
-0.31164128 -0.22369442 0.00000299
-0.09118547 0.39551803 0.00000537
-0.30410835 0.20972094 -0.01270807
-0.29774384 0.08116271 0.30564598
-0.32045501 0.02634131 0.23134519
-0.28005608 0.29684181 -0.01527524
-0.78234779 -0.04337489 -0.09235962
-0.41082565 -0.19183334 0.09863154
-0.28531649 0.00716564 -0.00000322
-0.41543020 -0.20295615 0.27870438
-0.19654051 0.32549545 0.12463400
-0.37039626 -0.77458130 0.00000067
-0.01131425 0.67498969 0.00000647
-0.31760470 0.03321734 0.29173459
-0.74563098 -0.46200738 -0.04754103
-0.27387481 0.13879455 0.11099200
-0.06811131 0.30832386 0.00000905
-0.06913066 0.34408402 0.00000881
-0.03722334 0.47544513 0.00000042
-0.03964866 -0.43253772 0.00000167
-0.24959055 0.00210681 0.00000200
-0.51763145 -0.52101163 -0.00000190
-0.09167998 0.45461984 0.00000494
-0.58558946 -0.61375075 0.11323038
-0.08688940 0.58400293 0.00000704
-0.11489066 0.52261670 0.09119766
-0.24447131 -0.03266669 0.00000188
-0.21740485 0.24261430 0.00000032
-0.14396400 -0.09522954 0.00000221
-0.19826120 -0.04630111 0.00000210
-0.05901586 0.14990934 -0.00000666
-0.57618103 -0.67783798 -0.00000294
-0.17069826 -0.42027071 0.00000063
-0.24954235 0.19753812 0.11518062
-0.08003826 -0.27373539 0.00000242
-0.33466069 -0.39725009 -0.00000026
-0.29937998 0.29639719 -0.01935942
-0.21467633 -0.31855053 0.00000081
-0.19393305 0.43741316 -0.00932473
-0.46153784 -0.76861195 -0.00000265
-0.40819799 -0.18548733 0.03441604
-0.31333514 0.16005478 -0.01029021
-0.23907851 -0.34104035 0.00000237
-0.31295789 0.39390800 -0.03087014
-0.21573241 -0.54603630 -0.00000019
-0.65913512 -0.79348164 0.00000102
-0.37012481 -0.09357398 0.28414543
-0.49934604 0.06120666 -0.04123390
-0.21475421 -0.35506135 0.00000065
-0.77338720 -0.69042143 -0.03328025
-0.11938963 0.03375358 0.00000293
-0.11626955 0.34217079 -0.00000036
-0.12612958 0.23306782 0.00000471
-0.00223390 -0.18759991 0.00000268
-0.06473394 0.64370701 0.05336918
-0.51147939 -0.73039392 -0.00000278
-0.07043306 0.58309438 0.00000563
-0.78835174 -0.78327337 -0.02826837
-0.15822346 -0.02820337 0.00000362
-0.63462962 -0.73214175 0.17057084
-0.06690625 0.41672905 0.00000492
-0.29478395 0.30572953 -0.01920358
-0.15955965 -0.33691845 0.00000227
-0.18055421 0.36408920 0.14083050
-0.06867512 0.45591087 0.00000090
-0.09997559 0.08243356 0.00000326
-0.18896201 0.34378929 0.18830370
-0.09195792 0.19739035 -0.00000454
-0.42167509 0.07188508 -0.02560977
-0.42515094 -0.22642703 0.36164840
-0.46551187 0.04699391 -0.03276121
-0.49257164 -0.38918903 0.19778276
-0.31568094 -0.75623186 0.00000067
-0.40026314 -0.51828226 0.00000184
-0.58578709 0.12345653 -0.06517138
-0.42196530 -0.21873312 0.27425938
-0.43606503 -0.49950213 0.00000197
-0.73456516 -0.76517305 -0.01839534
-0.33671408 -0.41178917 -0.00000033
-0.52022192 -0.72363446 0.00000112
-0.30350113 0.01094519 0.00000735
-0.19337167 -0.63733960 0.00000100
-0.31007393 0.05139856 0.21290804
-0.38466578 -0.12868420 0.35598102
-0.48249584 0.23957993 -0.05339853
-0.42136666 0.31173501 -0.04673440
-0.37999484 -0.47480981 -0.00000087
-0.51019064 -0.43172273 0.13338918
-0.42869824 -0.23499183 0.39536280
-0.19888343 0.31984094 0.15512952
-0.32971662 -0.20844355 0.00000060
-0.06178830 -0.78866906 -0.00000032
-0.02319819 0.40122782 0.00000529
-0.14139559 -0.66537702 -0.00000026
-0.16614526 0.39887610 0.12263627
-0.00018823 -0.46040457 0.00000148
-0.27032383 0.23033601 -0.00732293
-0.39666550 -0.74756083 -0.00000216
-0.00563946 -0.40760072 0.00000173
-0.03683908 0.16402430 0.00000427
-0.60401469 0.07767451 -0.06501514
-0.38710888 -0.13458730 0.41330552
-0.05856183 0.53119280 0.00000591
-0.64169784 0.00514196 -0.06664381
-0.10533378 -0.72650437 -0.00000031
-0.22040729 0.26787938 0.14917574
-0.50301475 -0.41440106 0.20167213
-0.22032545 -0.29566998 0.00000088
-0.25741536 0.17854557 0.03421318
-0.16912383 0.39169024 0.09691143
-0.43001937 -0.23817519 0.21403179
-0.44733995 -0.54223742 -0.00000157
-0.46144550 -0.31926118 -0.00000068
-0.46025214 -0.31116181 0.16673621
-0.06104753 0.59371310 0.00000573
-0.33792756 -0.27758555 0.00000280
-0.37241915 -0.20681318 0.00000316
-0.28039354 0.12307155 0.04637450
-0.29527846 -0.20710722 0.00000081
-0.12701371 0.09884837 0.00000412
-0.29652249 -0.32512182 0.00000029
-0.59107640 -0.37969093 -0.02184690
-0.54382053 0.03535856 -0.04843681
-0.02710862 -0.67715147 0.00000037
-0.18858978 0.19099852 0.00000320
-0.34100229 -0.17402300 0.00000325
-0.14840434 0.44171741 0.01314398
-0.06017932 -0.48652364 0.00000146
-0.26444059 -0.47239704 -0.00000016
-0.08830116 -0.53699122 0.00000062
-0.53186106 -0.48996064 0.00000216
-0.12792351 0.49115115 0.13588679
-0.26844791 0.08652956 0.00000226
-0.14580829 -0.05133961 0.00000350
-0.00411863 -0.37747501 0.00000185
-0.10277889 -0.67190437 -0.00000006
-0.05464954 0.33612977 0.00000907
-0.01223344 0.46497288 -0.00000059
-0.30525925 -0.65467057 0.00000110
-0.38333014 0.08674296 -0.01874332
-0.03883611 -0.07958239 0.00000321
-0.35582116 -0.09285067 0.00000363
-0.68567337 0.01285040 -0.07670541
-0.53410339 -0.41312083 -0.00674075
-0.44555538 -0.27568093 0.17250866
-0.41983793 -0.08912264 -0.01099279
-0.10482925 0.54690679 0.10738658
-0.11894615 -0.43921295 0.00000086
-0.56451421 -0.61666169 -0.00000261
-0.07672849 0.45015259 0.00000803
-0.56789338 0.19236766 -0.06744349
-0.69080236 -0.18774473 -0.06007743
-0.20083044 -0.12573098 0.00000325
-0.28073335 -0.64730882 0.00000109
-0.43560733 -0.05313002 -0.01753644
-0.09370455 -0.50094098 0.00000074
-0.56714978 -0.56922993 0.01460379
-0.43303257 0.33800221 -0.05154379
-0.20311755 0.00061505 0.00000893
-0.12693776 0.27537771 0.00000490
-0.04428447 0.68788368 0.00000567
-0.09225398 0.57726706 0.07373465
-0.12392203 0.31026039 0.00000504
-0.28055513 0.12267028 0.01509746
-0.15827258 0.38052284 0.00000540
-0.36657980 -0.51365778 0.00000181
-0.17565632 0.07260981 -0.00000497
-0.28561700 0.13838975 -0.00246369
-0.60375020 -0.35795736 -0.02647045
-0.10618521 -0.13969328 0.00000225
-0.69622251 -0.41851944 -0.04084452
-0.05436602 0.47136667 0.00000523
-0.38938468 0.07251967 -0.01877815
-0.50803222 -0.31579786 -0.00977818
-0.60322629 -0.65632755 0.05056094
-0.41060947 -0.35631935 -0.00000054
-0.06107666 -0.30211163 0.00000181
-0.40356572 -0.73881682 -0.00000217
-0.54596853 0.03103151 -0.04851270
-0.11651350 0.11218629 -0.00000582
-0.39998446 -0.16567183 0.41733926
-0.26602790 -0.09193875 0.00000149
-0.01947031 0.44252261 0.00000894
-0.02006351 0.05855128 0.00000364
-0.36566511 0.38057735 -0.04093569
-0.09024731 0.21938576 -0.00000407
-0.40628022 -0.54254420 -0.00000133
-0.19454594 0.15907950 0.00000807
-0.42544127 -0.74645989 0.00000088
-0.40040625 -0.56933122 0.00000161
-0.57597424 -0.59053864 0.15080558
-0.31764444 0.03312802 0.03744987
-0.01228729 0.23059146 0.00000443
-0.09660384 -0.56697613 0.00000117
-0.30014208 -0.56052061 0.00000150
-0.39405444 -0.05046871 -0.00890815
-0.13423148 0.56051230 -0.00746644
-0.57999570 -0.57030226 -0.00264274
-0.31668976 0.02060311 -0.00000195
-0.37822884 0.18053019 -0.02594134
-0.11647152 0.57277452 -0.00476149
-0.51742817 -0.44919946 0.26365588
-0.08839765 -0.15103792 0.00000231
-0.37039354 -0.50037149 0.00000187
-0.28473699 -0.33584461 0.00000031
-0.53082961 0.14762144 -0.05558427
-0.13933164 0.62321639 -0.01409475
-0.70121148 -0.57577325 -0.02801521
-0.35440282 -0.70815478 0.00000094
-0.16476308 0.43991037 -0.00332308
-0.16773121 0.39505094 0.02041777
-0.15692201 0.42114317 0.11707666
-0.00860567 -0.03165663 0.00000337
-0.47787325 -0.35369978 0.07978182
-0.32809164 -0.07692886 0.00000118
-0.52952292 -0.55557795 -0.00000213
-0.02517421 0.69828101 0.00000640
-0.35146470 -0.04852031 0.01132252
-0.62839794 -0.30609360 -0.03631011
-0.02069633 -0.07317417 0.00000305
-0.70714836 -0.12755392 -0.06888199
-0.57780608 0.19923392 -0.07016455
-0.54069278 -0.69037934 -0.00000278
-0.28599916 0.46277826 -0.03120474
-0.26997260 -0.04601769 0.00000371
-0.32207515 0.02242210 0.29606746
-0.05575367 0.19555777 0.00000994
-0.15359151 0.42918389 0.11242291
-0.09659690 0.56678244 0.07083157
-0.20150858 0.57928896 -0.02347662
-0.58315973 -0.24924905 -0.03168283
-0.56284942 -0.55885335 0.23708894
-0.61336665 -0.25079902 -0.03798917
-0.35670972 0.15742490 -0.01930781
-0.29876578 0.07870122 0.14623990
-0.43415870 -0.24816281 0.05772443
-0.56391317 -0.39479914 -0.01471804
-0.01895292 0.31327724 0.00000976
-0.30569612 -0.66754011 0.00000104
-0.04064021 -0.39775460 0.00000151
-0.15214647 -0.39643367 0.00000200
-0.12276376 0.27569253 0.00000842
-0.42152015 -0.24261588 0.00000307
-0.14517106 -0.55740501 0.00000019
-0.39286008 -0.70710370 -0.00000196
-0.14198845 0.45719885 0.10333697
-0.11247326 0.19764809 0.00000453
-0.44837925 -0.72770986 0.00000099
-0.32340906 -0.45725430 0.00000199
-0.42023071 0.03535325 -0.02207163
-0.19134698 0.13427875 0.00000438
-0.48570409 -0.37261061 0.23418877
-0.42629741 0.04797834 -0.02448357
-0.26197158 0.16753334 0.05909701
-0.11596232 0.37535344 0.00000532
-0.48302867 -0.36615092 0.21562400
-0.30794019 0.05654868 0.29581822
-0.11601504 0.47527012 0.00000728
-0.10803359 0.00459861 0.00001034
-0.47877715 0.01816945 -0.03304196
-0.37113898 -0.13470075 0.00000347
-0.17945544 0.59511065 -0.02017028
-0.16377495 -0.56062400 0.00000006
-0.27729795 0.13053102 0.09285866
-0.03526773 0.71484766 0.00887703
-0.08925442 0.29523048 0.00000881
-0.39618331 -0.78131419 0.00000068
-0.11018174 -0.39737034 0.00000110
-0.45650334 0.23497786 -0.04744739
-0.39322996 -0.29938672 0.00000278
-0.54246273 -0.50963632 0.18719605
-0.23488045 0.29139184 -0.00515915
-0.17655002 -0.09170950 0.00000337
-0.07027777 -0.30446000 0.00000174
-0.04883795 0.30027879 0.00000939
-0.33065030 0.24724337 -0.02168518
-0.66874653 0.02550738 -0.07421374
-0.30984902 0.12287272 -0.00626155
-0.24905394 -0.21642727 0.00000293
-0.50518101 -0.69396602 -0.00000259
-0.33062119 0.16119798 -0.01407620
-0.50308097 0.21395100 -0.05552561
-0.09234526 0.17223410 -0.00000512
-0.23792384 0.22558423 0.21148044
-0.20025963 0.19365543 0.00000465
-0.47912697 -0.44765344 -0.00000135
-0.11175284 0.08121352 -0.00000670
-0.23463333 0.51171527 -0.02457212
-0.49128444 -0.36723667 -0.00166116
-0.15793396 0.41869957 0.15442925
-0.28848462 -0.13967757 0.00000332
-0.33980917 -0.50832068 0.00000179
-0.25377037 0.20686317 -0.00171787
-0.13084446 0.51894884 -0.00307149
-0.43626296 -0.14397236 -0.00965033
-0.42357073 0.05138724 -0.02420082
-0.51173158 -0.43544703 0.27248956
-0.53456968 -0.51823705 0.00000204
-0.52891397 0.10519578 -0.05142619
-0.04125732 -0.21385982 0.00000263
-0.26503375 0.26381509 -0.00915457
-0.10582928 -0.16396901 0.00000214
-0.08001299 0.57077635 0.00000551
-0.49157836 -0.38679184 0.22013793
-0.10950602 0.30319460 0.00000417
-0.30588805 -0.48205805 -0.00000046
-0.34980003 0.18661413 -0.02041299
-0.27824702 0.12823911 0.11107261
-0.10012744 0.09674485 -0.00000668
-0.62975609 -0.77159594 -0.00000368
-0.04703642 0.10620373 0.00000404
-0.69051828 0.03783947 -0.07994687
-0.17465135 0.27557530 0.00000497
-0.38993895 -0.14141846 0.37924939
-0.01291056 -0.37638147 0.00000187
-0.10930497 0.31886660 -0.00000113
-0.61918514 0.10055909 -0.07027242
-0.40590168 0.35727524 -0.04745958
-0.15971950 0.43854716 -0.00212822
-0.63032706 -0.73336481 -0.00000351
-0.26764390 -0.03092247 0.00000377
-0.31776063 0.03286354 0.02071045
-0.04647631 0.59779940 0.00000756
-0.14770932 0.35595687 0.00000755
-0.16401190 0.40402471 0.17243684
-0.15049665 -0.74673159 0.00000046
-0.57823725 0.07590735 -0.05935957
-0.49475384 -0.39445560 0.14946047
-0.40042559 -0.51011915 -0.00000115
-0.33288824 -0.69574444 0.00000096
-0.44387837 -0.27162635 0.00746865
-0.45428372 -0.41423852 -0.00000105
-0.12206273 0.02008215 0.00000285
-0.69160562 0.05111670 -0.08135196
-0.14569381 0.07142999 0.00000403
-0.15251310 0.20461066 -0.00000254
-0.38205370 -0.12237325 0.14043821
-0.47756006 -0.35295156 0.30014598
-0.14410029 0.45209898 0.07675651
-0.50906558 -0.43875432 0.00000235
-0.71419471 0.05774408 -0.08675606
-0.31401640 -0.67415444 0.00000102
-0.69876320 0.04050324 -0.08194097
-0.01634789 -0.31280163 0.00000216
-0.26448273 -0.75063973 -0.00000138
-0.13097445 0.17821688 0.00000891
-0.14111666 -0.51849085 0.00000038
-0.60670263 -0.16284235 -0.04433871
-0.55344786 -0.15722819 -0.03347524
-0.35872066 -0.40866371 0.00000225
-0.46664123 -0.32658561 0.14395365
-0.40257388 -0.65312649 -0.00000179
-0.68061217 -0.03903077 -0.07104276
-0.34503070 -0.03299321 0.17726642
-0.21714587 -0.02392009 0.00000372
-0.22357399 -0.19677566 0.00000298
-0.25411181 0.18651018 0.01148260
-0.14407431 0.59918674 -0.01298361
-0.28785994 0.10503263 0.07930296
-0.12051689 -0.56657339 0.00000120
-0.32486308 -0.06160708 0.00000127
-0.23014620 -0.01236095 0.00000379
-0.19658091 0.02241520 -0.00000554
-0.26431409 -0.67150307 0.00000096
-0.22762791 0.25044031 0.22450754
-0.27250635 0.36430959 -0.01962725
-0.26674790 0.10287180 0.00000733
-0.12836448 0.49009126 0.07981299
-0.28580673 0.16632465 -0.00497222
-0.13716743 0.45385860 0.00000709
-0.24701912 -0.08303789 0.00000165
-0.41899309 0.29689224 -0.04491662
-0.00957038 0.37017580 0.00000513
-0.29989229 -0.54511738 0.00000157
-0.23146418 0.24118812 0.12693852
-0.55794131 -0.73062273 0.00000115
-0.22687939 0.06151726 0.00000819
-0.40814363 0.05395106 -0.02113897
-0.14329175 0.20454190 0.00000353
-0.21691027 0.27631682 0.20830677
-0.50302422 -0.41442613 0.30377281
-0.20747252 0.47898710 -0.01588624
-0.07145160 -0.22549952 0.00000262
-0.19158109 -0.69782984 -0.00000071
-0.26839827 -0.69014311 0.00000089
-0.11371281 -0.08927612 0.00000328
-0.39871584 -0.38572693 -0.00000059
-0.31029328 0.05088478 0.09426932
-0.35831152 -0.06505421 0.12965408
-0.07552573 0.33054271 0.00000449
-0.40651927 -0.18144766 0.40107983
-0.02049313 -0.04097340 0.00000335
-0.31546959 -0.08562901 0.00000360
-0.73152562 -0.45456101 -0.04519037
-0.41948181 -0.64852050 -0.00000187
-0.26209648 -0.58407897 0.00000134
-0.28844568 0.27878326 -0.01546923
-0.26927141 0.03028179 -0.00000315
-0.32583203 0.01337513 0.05386507
-0.23685724 -0.37593928 0.00000221
-0.17623373 0.37452556 0.09982324
-0.73190999 -0.21185578 -0.06671565
-0.70192637 -0.31637319 -0.05108585
-0.28944004 -0.63701661 0.00000115
-0.42095177 -0.21628558 0.25607347
-0.23823733 0.34521283 -0.01063030
-0.37217940 -0.64646058 0.00000123
-0.15081891 0.58084371 -0.01280165
-0.18673309 0.17789271 -0.00000214
-0.30454882 -0.01936708 0.00000387
-0.01375145 0.64941972 0.00000626
-0.28280460 0.06504657 -0.00000192
-0.04398209 0.52046412 0.00000551
-0.20243620 0.06647067 0.00000257
-0.03882681 -0.26154804 0.00000212
-0.39042316 -0.14258643 0.35101811
-0.24227744 -0.46956206 0.00000181
-0.15550787 0.05597749 -0.00000598
-0.16831071 -0.45792678 0.00000048
-0.26618820 0.15735140 0.11806703
-0.06759129 0.04263421 0.00000379
-0.19333884 0.33323855 0.01045766
-0.20584896 0.11893607 -0.00000296
-0.03104554 -0.07583825 0.00000322
-0.02740060 0.46213994 0.00000536
-0.36940306 -0.52350958 0.00000177
-0.06958489 0.29209452 0.00000912
-0.10279616 0.53849766 0.00000524
-0.39437749 -0.30332693 0.00000277
-0.10802744 -0.39516864 0.00000112
-0.32925811 0.42379869 -0.03698824
-0.23119938 -0.68779473 0.00000084
-0.66449213 -0.50584949 -0.02636064
-0.24481607 0.20895028 0.17790208
-0.16297447 0.10055623 0.00000891
-0.42013818 -0.16223298 -0.00459751
-0.31163269 -0.02251138 0.00000152
-0.29528951 0.08686519 -0.00000103
-0.03151882 -0.45482322 0.00000132
-0.37941371 -0.65747727 -0.00000167
-0.60977549 -0.67214003 0.10988029
-0.77297100 -0.24060021 -0.07293430
-0.78098811 -0.02843632 -0.09338943
-0.63645740 -0.72901834 -0.00066364
-0.03347375 0.11370213 0.00000405
-0.25887564 0.33698340 -0.01430402
-0.09508947 0.23718735 0.00000908
-0.07285715 0.14289981 -0.00000641
-0.06428183 0.43683629 0.00000830
-0.07498620 0.03301940 0.00000319
-0.09900251 0.68966017 -0.01136296
-0.34039236 0.05276473 -0.00658251
-0.61032775 -0.09608842 -0.05100971
-0.00683555 -0.71800274 0.00000032
-0.45531808 -0.54886480 0.00000179
-0.34149781 -0.74633498 0.00000075
-0.59708460 -0.28791037 -0.03123733
-0.20646612 0.44603545 -0.01276108
-0.31741905 -0.08710650 0.00000360
-0.37719446 -0.12481286 0.00000068
-0.19228970 -0.70097788 0.00000072
-0.31422235 0.04538796 -0.00034859
-0.23226991 -0.33470639 0.00000063
-0.26346766 0.43257683 -0.02372997
-0.44931017 0.02534317 -0.02739015
-0.11345243 0.41091393 0.00000772
-0.29154359 0.09614096 0.03854173
-0.50052010 0.04981563 -0.04047617
-0.35274562 -0.05161150 0.20842066
-0.16683815 0.19318105 0.00000828
-0.03675548 0.08112270 0.00000391
-0.77875736 -0.69003199 -0.03446007
-0.30719329 -0.78758970 0.00000052
-0.52866781 -0.27080223 -0.01815523
-0.65538524 -0.51024097 -0.02403011
-0.45875827 -0.30756084 0.32191247
-0.26321168 0.29275345 -0.01132263
-0.17580670 -0.13031878 0.00000187
-0.34625430 -0.22789083 0.00000303
-0.50996423 -0.43117418 0.07912826
-0.21643052 -0.27473044 0.00000262
-0.07245851 0.06563442 0.00000390
-0.26087900 0.17016669 0.18110309
-0.11546845 -0.41590339 0.00000098
-0.14035508 -0.24182561 0.00000265
-0.28814568 -0.64960109 0.00000109
-0.00592678 0.34307889 0.00000501
-0.38774186 -0.13610616 0.15336437
-0.14103255 0.41639673 0.00000553
-0.18575524 0.20133830 0.00000326
-0.21475267 0.24509412 0.00000328
-0.30392718 -0.74349362 0.00000071
-0.43306576 -0.24552367 0.04243303
-0.34535076 0.30812667 -0.03020048
-0.34602862 -0.03540672 0.29843841
-0.77235140 -0.70241858 -0.03199935
-0.31506576 0.03935886 0.14703796
-0.32831668 0.17915383 -0.01517116
-0.43898353 -0.25981086 0.05443162
-0.10481176 0.63709375 -0.00795783
-0.44767127 -0.28078343 0.01330061
-0.13908764 -0.02493487 0.00000360
-0.55474101 -0.77364278 0.00000095
-0.65388084 -0.03686289 -0.06553238
-0.06337011 0.25102331 0.00000469
-0.60064788 0.10523524 -0.06673138
-0.22637278 -0.14460605 0.00000321
-0.08364565 -0.66099369 0.00000073
-0.56822182 -0.18200385 -0.03443765
-0.37110195 -0.59873190 0.00000144
-0.22110089 0.12861334 -0.00000227
-0.42568190 -0.44771659 -0.00000103
-0.67617206 -0.01744679 -0.07200262
-0.16827635 0.09906421 -0.00000457
-0.26791229 0.15318768 0.23322507
-0.71066353 -0.27399753 -0.05669343
-0.06564116 -0.16964301 0.00000286
-0.08032242 0.03319844 0.00001058
-0.39118737 -0.78914692 0.00000064
-0.03806380 -0.59764212 0.00000066
-0.26667990 0.15616406 0.12557047
-0.43244036 -0.30629074 -0.00000045
-0.01495253 0.52267674 0.00000851
-0.36535896 -0.23389453 0.00000027
-0.03715585 -0.10053745 0.00000312
-0.14885826 -0.00075737 0.00000260
-0.07091877 0.56612106 0.00000359
-0.07370724 0.33972361 0.00000876
-0.05616031 0.30594361 0.00000450
-0.12916908 0.20282127 0.00000458
-0.11545291 0.64580109 -0.01099667
-0.12256631 -0.46674189 0.00000072
-0.34409304 -0.03073009 0.19339927
-0.04545427 -0.77469685 -0.00000016
-0.15830228 -0.26335200 0.00000139
-0.45236891 -0.16392994 -0.01132254
-0.31736852 0.03378537 0.28298340
-0.58229647 -0.71437234 -0.00000314
-0.07249901 0.46312604 0.00000801
-0.29899299 0.07815173 0.17329673
-0.19333356 0.28296147 0.00000357
-0.38405260 -0.31618378 -0.00000020
-0.02287865 0.74475643 0.00025371
-0.34643585 0.37447158 -0.03629403
-0.08024276 0.59066090 0.00000445
-0.50465423 -0.58303810 0.00000171
-0.60055325 -0.64987617 0.20064161
-0.00005999 -0.06102245 0.00000323
-0.38909814 0.09685522 -0.02086709
-0.47986696 -0.05818262 -0.02653082
-0.23799393 0.22542401 0.13000743
-0.32252207 -0.15546023 0.00000087
-0.48963506 -0.43765638 0.00000232
-0.15175056 0.61331438 -0.01586917
-0.10169901 0.35525519 0.00000444
-0.23283882 -0.02440626 0.00000199
-0.46648518 -0.51817692 -0.00000158
-0.04022232 -0.72199833 0.00000010
-0.29300128 0.36451809 -0.02401733
-0.01511662 0.72181016 0.00000726
-0.02856640 0.11646790 0.00000384
-0.10012713 -0.31343212 0.00000152
-0.39622426 -0.15658489 0.16520741
-0.00727891 0.55191555 0.00000844
-0.62948223 -0.24621665 -0.04183155
-0.20320381 0.28240417 0.00000084
-0.44288129 -0.02353522 -0.02170273
-0.40918207 -0.24319937 0.00000305
-0.42289763 -0.74897022 0.00000086
-0.15869497 0.06891646 0.00000284
-0.12614903 -0.53448860 0.00000135
-0.31961426 -0.39823668 -0.00000017
-0.06644564 0.08518275 0.00001047
-0.56303189 -0.55929354 0.15672519
-0.25672724 0.45110930 -0.02393028
-0.43631167 0.32953304 -0.05149495
-0.32495286 0.01547276 0.35012697
-0.07480007 0.35064731 0.00000868
-0.46613516 -0.71832988 -0.00000246
-0.02950010 0.32744285 0.00000475
-0.03021248 0.67714014 0.00000499
-0.30918047 0.05355396 0.30191952
-0.37219526 -0.28180284 0.00000283
-0.19991676 0.11233190 0.00000429
-0.24890184 0.19909830 0.03744533
-0.28566347 0.11033805 0.00422821
-0.39934061 -0.61159408 0.00000143
-0.35258208 -0.05122335 0.16327300
-0.77526970 -0.68888911 -0.03381716
-0.21979047 -0.63464645 -0.00000060
-0.29849917 0.07934743 0.07475634
-0.52717855 -0.62001287 -0.00000239
-0.11856937 -0.69355840 -0.00000025
-0.17517120 -0.70414729 0.00000068
-0.14472530 0.03794666 -0.00000673
-0.38978909 0.08619007 -0.02006989
-0.20907727 0.29523977 0.05458825
-0.39475593 -0.15303605 0.05422128
-0.32311411 -0.18358017 0.00000318
-0.11993940 -0.46550474 0.00000164
-0.14977203 0.43840798 0.10403548
-0.26081177 -0.13411685 0.00000134
-0.30973202 0.05222860 0.08465021
-0.48362212 -0.36758652 0.33820412
-0.32414171 -0.36685223 0.00000238
-0.19333445 -0.15464581 0.00000166
-0.27101517 -0.75934320 0.00000059
-0.15243328 0.25073804 0.00000813
-0.22308132 0.26141726 0.21023637
-0.34997537 -0.04492464 0.21988375
-0.05293187 -0.60915101 0.00000091
-0.37039599 -0.59687417 -0.00000135
-0.36339650 0.39170338 -0.04143450
-0.13331965 0.07211856 0.00000954
-0.37864369 -0.76200890 -0.00000212
-0.13641797 0.21487010 0.00000465
-0.72646782 -0.61139745 -0.03025470
-0.11073021 -0.70129691 -0.00000024
-0.27924525 -0.78666852 0.00000048
-0.45356436 0.25821462 -0.04887420
-0.03691955 0.54477603 0.00000804
-0.12277762 -0.47396046 0.00000161
-0.19743885 -0.11188136 0.00000182
-0.58202994 0.00818107 -0.05418446
-0.10348740 0.29445543 0.00000860
-0.49577337 -0.39691866 0.19672051
-0.27593795 0.26200779 -0.01131894
-0.31001398 0.37336074 -0.02842747
-0.35658619 -0.06088688 0.07276364
-0.26828413 0.15229401 0.04468958
-0.62921997 -0.47398104 -0.02165252
-0.23148903 -0.66582962 -0.00000081
-0.07741893 -0.55784909 0.00000059
-0.38947522 -0.14028672 0.03802665
-0.22056533 -0.66428298 -0.00000074
-0.20118723 -0.28894951 0.00000102
-0.11984196 -0.30189321 0.00000146
-0.44005712 -0.22629134 -0.00318672
-0.47841291 -0.35500693 0.19929716
-0.62609874 -0.71154686 0.07880627
-0.22792893 0.06776745 -0.00000351
-0.12096048 -0.55505756 0.00000125
-0.00555687 -0.63219537 0.00000070
-0.29547714 0.00513550 -0.00000296
-0.41064357 -0.19139329 0.08510681
-0.50410585 -0.41702939 0.03888014
-0.55421566 -0.78312908 0.00000091
-0.67634218 -0.45870513 -0.03305353
-0.62800353 -0.71614503 0.05005134
-0.10095141 0.01376544 0.00000295
-0.12136778 0.50698851 0.00692587
-0.14980771 -0.65348098 0.00000087
-0.57391551 -0.12035125 -0.04109918
-0.43649007 0.22296379 -0.04211775
-0.27242864 -0.28273761 0.00000267
-0.20226405 0.31169017 0.02825262
-0.48936273 -0.49275009 0.00000208
-0.00981182 0.19421614 -0.00000709
-0.30022805 -0.30545467 0.00000262
-0.03580497 -0.40304656 0.00000152
-0.36573001 -0.08296353 0.11587682
-0.17082161 0.13021708 0.00000861
-0.15100953 0.43541951 0.05114110
-0.13320440 0.24771219 0.00000378
-0.11121864 0.34652689 0.00000518
-0.00427686 -0.67209759 0.00000053
-0.27846900 0.22383624 -0.00848609
-0.37047596 -0.11208497 0.00000357
-0.34688859 -0.43732674 -0.00000051
-0.74218057 -0.58839118 -0.03563876
-0.11506014 0.52420704 -0.00017027
-0.26291462 0.16524900 0.27280991
-0.17273503 0.59915692 -0.01909426
-0.28641115 0.10852308 0.28155749
-0.12204099 0.50536314 0.00838604
-0.07206768 0.62600319 0.01418858
-0.44427544 -0.52239556 0.00000188
-0.12611366 0.05854409 0.00000299
-0.24657721 0.20471064 0.03363520
-0.20541071 -0.66153569 0.00000092
-0.40573993 0.04854321 -0.02014600
-0.30635268 0.39377190 -0.02944983
-0.73358052 -0.25560780 -0.06320647
-0.50972467 -0.78710361 0.00000083
-0.25194845 -0.22439208 0.00000290
-0.36481673 0.24879839 -0.02911200
-0.45589634 0.06425703 -0.03223538
-0.18466111 0.59533574 -0.02130072
-0.40789816 -0.18476389 0.04609858
-0.25474270 0.18498154 0.16668575
-0.03739057 0.14262194 0.00000390
-0.28084546 0.13179665 -0.00086061
-0.16957009 -0.53776386 0.00000140
-0.59442576 -0.63508345 0.16359578
-0.01307534 0.55458981 0.00000157
-0.37406234 -0.10308966 0.40235521
-0.40102417 0.38843176 -0.04917188
-0.46147929 -0.31412204 0.10036471
-0.37911876 -0.11529401 0.37046395
-0.29736086 -0.36549821 0.00000011
-0.40168393 0.07358852 -0.02149607
-0.63164128 -0.72492575 0.00553069
-0.74781833 -0.79132206 -0.01891180
-0.06051183 0.25269531 0.00000951
-0.02201269 -0.48795918 0.00000123
-0.14014802 0.10730633 0.00000312
-0.29730502 0.30745339 -0.01989364
-0.34313202 -0.02840438 0.03703681
-0.77612268 -0.78824217 -0.02522100
-0.12193309 -0.78960912 -0.00000069
-0.33652947 -0.19710398 0.00000061
-0.10042718 0.05392726 0.00000389
-0.00767226 0.08381748 0.00000388
-0.07002297 0.44912977 0.00000814
-0.12033503 0.30978353 0.00000413
-0.18919688 0.27979952 0.00000501
-0.34367663 -0.02972581 0.30796320
-0.15720023 0.24308598 0.00000361
-0.68728245 -0.79019767 -0.00609933
-0.54307214 0.24302438 -0.06662452
-0.01713366 0.31606431 0.00000478
-0.01257353 -0.27201676 0.00000233
-0.01257450 0.13027308 -0.00000853
-0.27521940 -0.42852517 0.00000204
-0.25595038 -0.73251768 -0.00000125
-0.05500945 -0.56441288 0.00000111
-0.67105895 -0.26463925 -0.04907240
-0.72561980 -0.38331700 -0.05022525
-0.18707599 -0.27830304 0.00000115
-0.18845861 -0.58387484 0.00000123
-0.07044284 -0.39308457 0.00000136
-0.48327694 -0.36674366 0.02995993
-0.10850459 -0.06904282 0.00000254
-0.74337068 0.01187757 -0.08892698
-0.25351456 0.18795050 0.05539901
-0.30014909 0.07535984 0.19597454
-0.42908047 -0.23591460 0.39168658
-0.08241949 -0.75353629 0.00000033
-0.11957139 -0.58907812 0.00000020
-0.53418178 0.12928388 -0.05467917
-0.46885503 -0.55147491 0.00000179
-0.06000837 0.49684464 0.00000799
-0.08405294 0.44909607 0.00000496
-0.19769555 0.32373028 -0.00008256
-0.25597484 0.18200854 0.12053869
-0.21726378 0.39947386 -0.01095053
-0.39662286 -0.15754583 0.12740275
-0.23068381 -0.39420850 0.00000212
-0.30266534 -0.19701421 0.00000309
-0.08435894 0.50164115 0.00000759
-0.15822622 0.11146096 0.00000303
-0.25137666 0.19311549 0.13555006
-0.62505584 0.03381175 -0.06562801
-0.35025100 -0.04560148 0.32722821
-0.34158442 -0.02467530 0.31299500
-0.16343231 -0.60553891 0.00000110
-0.04601242 -0.75728483 -0.00000009
-0.17163107 0.38564369 0.02096202
-0.33110121 -0.11235363 0.00000351
-0.36046872 -0.47595578 0.00000196
-0.16035682 0.52106117 -0.00955432
-0.38970746 -0.61475689 0.00000140
-0.16110955 -0.49285026 0.00000037
-0.13626220 -0.73073387 0.00000051
-0.61936791 0.13085727 -0.07298877
-0.49220522 -0.66863083 -0.00000240
-0.63583119 -0.58105873 -0.01360236
-0.62689641 0.10496067 -0.07230624
-0.47654103 -0.31846152 -0.00282563
-0.25912105 0.17441299 0.11875275
-0.34669830 -0.23140820 0.00000040
-0.27865582 -0.77518593 0.00000053
-0.65016181 -0.65687842 -0.00996044
-0.30100663 0.07329090 0.15815448
-0.34971753 -0.31432596 0.00000001
-0.39214587 -0.75462718 0.00000079
-0.26576006 -0.59177244 -0.00000069
-0.05400014 0.31865930 0.00000919
-0.37766911 -0.20131581 0.00000034
-0.06318063 0.45914960 0.00000560
-0.47279274 0.00431968 -0.03054168
-0.25555806 -0.56986308 0.00000139
-0.10108831 0.67556513 -0.01056257
-0.13501086 0.58722064 -0.00999258
-0.22219490 0.26356201 0.17049522
-0.02365240 0.45279246 0.00000881
-0.23840477 0.35722787 -0.01172755
-0.16619993 0.39874387 0.15826254
-0.18712869 0.34822048 0.04344683
-0.29035603 -0.68255064 0.00000095
-0.53878731 -0.55558597 0.00000188
-0.74331601 0.00372172 -0.08819469
-0.54303056 -0.51100658 0.17043979
-0.05881631 0.01788027 0.00000322
-0.37831336 -0.54704316 0.00000168
-0.47972798 -0.43861948 0.00000230
-0.27486253 0.01016862 0.00000189
-0.58604922 -0.61485837 0.04777258
-0.03287459 0.67464358 0.00000650
-0.17703414 0.30144871 0.00000375
-0.75664885 -0.34872078 -0.05990020
-0.27255154 -0.10118993 0.00000347
-0.12568984 0.38661889 0.00000538
-0.14183160 0.31158872 0.00000401
-0.10304055 0.46128488 0.00000567
-0.19094636 -0.31833732 0.00000240
-0.21986394 -0.54649252 -0.00000022
-0.24408275 -0.25394074 0.00000092
-0.33753985 -0.01491028 0.22086591
-0.04288559 0.28134357 0.00000447
-0.53743143 -0.67648253 -0.00000270
-0.06419972 0.05829025 0.00001067
-0.49502768 -0.39511852 0.19990922
-0.33539871 -0.17200393 0.00000072
-0.18211141 -0.66520466 -0.00000051
-0.30105960 0.04364802 0.00000187
-0.01551059 0.22112079 0.00001038
-0.05793478 -0.16976751 0.00000241
-0.22666398 -0.67443036 -0.00000082
-0.30160820 0.06681500 0.00000425
-0.07320105 -0.37566753 0.00000141
-0.16423831 0.40090126 0.00000426
-0.06485997 0.32262266 0.00000452
-0.49523203 -0.39560534 0.01775465
-0.16631745 0.39847093 0.02942412
-0.27404403 -0.52279160 -0.00000044
-0.30619156 0.06077518 0.10809110
-0.49250453 0.19027970 -0.05117745
-0.48018661 -0.35928549 0.10105223
-0.29994662 -0.66274000 0.00000105
-0.09692776 0.32803477 0.00000508
-0.25373703 -0.35927452 0.00000231
-0.67128092 -0.59238208 -0.02016352
-0.30522819 0.01020780 0.00000401
-0.76284913 -0.30727871 -0.06488418
-0.57367649 -0.79625853 -0.00000345
-0.33025009 -0.44861322 -0.00000046
-0.10985090 0.51354367 0.00000508
-0.05594051 -0.77403748 0.00000020
-0.39418678 0.17368666 -0.02874061
-0.39389186 -0.63761236 -0.00000167
-0.43381476 0.05761997 -0.02693889
-0.62787419 -0.71583312 0.16666505
-0.28349761 0.11556085 0.17322241
-0.23663175 0.22870434 0.19106601
-0.33437032 0.01085417 -0.00159190
-0.23763837 0.22627509 0.21745532
-0.26643437 -0.24755373 0.00000081
-0.12261622 0.44135026 0.00000218
-0.54482479 -0.69456022 0.00000128
-0.24247647 0.21459730 0.19158222
-0.36761867 -0.08753196 0.36200359
-0.64243441 -0.58546201 -0.01462182
-0.06741518 0.42724447 0.00000831
-0.52887799 -0.47683777 0.12826546
-0.37550434 -0.10655738 0.01927392
-0.14192030 -0.76856389 0.00000035
-0.76941752 -0.15493487 -0.07974512
-0.13060387 0.48468096 0.12843478
-0.02103060 -0.52811622 0.00000122
-0.72914948 -0.75502642 -0.01813670
-0.35594687 -0.51304588 -0.00000089
-0.50194909 -0.18923868 -0.01966218
-0.12372699 0.43343343 0.00000558
-0.16004338 0.41360646 0.14703508
-0.02365238 0.31410868 0.00000968
-0.66930048 -0.15859491 -0.05806638
-0.31921078 -0.18051322 0.00000078
-0.31757149 -0.74249430 0.00000073
-0.54913676 -0.15780169 -0.03250500
-0.29355833 -0.67917937 -0.00000124
-0.50195488 -0.41184238 0.20376767
-0.14530069 0.38321741 0.00000540
-0.31036927 -0.17686898 0.00000319
-0.05444427 0.29731904 0.00000488
-0.04712390 -0.44482937 0.00000162
-0.16845320 -0.05487539 0.00000224
-0.08394490 0.59935737 -0.00017281
-0.35726119 -0.06251559 0.24192361
-0.78007699 -0.57442342 -0.04495584
-0.04531140 -0.56084312 0.00000111
-0.46292520 -0.67147693 -0.00000223
-0.13914456 0.16749346 -0.00000382
-0.15711489 0.42068745 0.02846866
-0.38320639 -0.69806510 -0.00000187
-0.24072570 0.21883243 0.09011587
-0.19177306 -0.73191124 -0.00000086
-0.13800178 -0.37778466 0.00000101
-0.12827324 0.00565922 0.00000372
-0.17748803 0.37149592 0.02030879
-0.13391161 0.28685067 0.00000496
-0.48419541 -0.44775634 -0.00000138
-0.44078785 -0.26416976 0.13530084
-0.07907070 0.57323232 0.00000400
-0.08124304 0.66655150 -0.00553313
-0.38729712 0.34610277 -0.04250406
-0.38388629 0.15172802 -0.02460341
-0.14298294 0.31291651 0.00000401
-0.52504359 -0.46758253 0.17893986
-0.43197702 -0.24290409 0.29006767
-0.02260057 -0.39200445 0.00000182
-0.20254182 0.46455794 -0.01356048
-0.74089657 -0.19587111 -0.07004478
-0.35831669 -0.06506524 0.08910016
-0.23708871 0.02106962 0.00000216
-0.27858439 -0.74770769 -0.00000145
-0.16243460 -0.79290648 -0.00000095
-0.46551634 -0.38779936 -0.00000101
-0.12312028 0.26568363 0.00000392
-0.52524486 -0.68592883 -0.00000267
-0.06194460 0.36411549 -0.00000148
-0.12434431 -0.22274706 0.00000177
-0.05708039 0.32847146 0.00000459
-0.02554768 0.54136464 0.00000823
-0.06372784 0.45495716 0.00000819
-0.55103075 -0.00246736 -0.04663285
-0.32418922 0.01732739 0.04182800
-0.03814099 0.22059804 0.00000452
-0.22434637 -0.65521177 0.00000097
-0.29158677 0.09603921 0.16706145
-0.50160503 0.21421713 -0.05523429
-0.37988140 0.11059834 -0.02011312
-0.06696184 -0.42486596 0.00000174
-0.05351744 0.47210529 0.00000565
-0.20708545 0.30003814 0.11323940
-0.70924751 -0.64121462 -0.02394732
-0.69958964 -0.38931072 -0.04414335
-0.15028608 0.16685352 0.00000332
-0.17497833 -0.61670060 0.00000107
-0.34211825 0.37877737 -0.03575401
-0.06372212 0.19776063 -0.00000538
-0.14492164 0.20902435 0.00000851
-0.27490084 0.13976241 -0.00029916
-0.05503709 0.28439302 0.00000483
-0.02786070 0.69529289 0.00000535
-0.02567056 -0.67497309 0.00000039
-0.01620445 0.13020214 0.00000397
-0.29175810 0.09561716 0.26819810
-0.69551517 -0.13843634 -0.06543911
-0.43899947 -0.25984831 0.02573353
-0.24863571 -0.77759267 0.00000047
-0.28197660 0.10670428 -0.00000096
-0.00939884 0.30687319 0.00000994
-0.40730308 -0.18333555 0.27853713
-0.11294550 -0.18246336 0.00000202
-0.56197265 -0.13584487 -0.03718284
-0.59338548 -0.79369111 0.00000092
-0.30511849 0.06336095 0.24347157
-0.40038556 -0.76179631 0.00000077
-0.02559635 0.26503530 0.00000470
-0.17241889 0.35791281 0.00000716
-0.38366287 -0.76564596 -0.00000217
-0.50663218 -0.77734433 0.00000086
-0.22540801 -0.76793459 -0.00000122
-0.46911850 -0.33256809 0.19490598
-0.12818800 -0.10874123 0.00000322
-0.27521943 -0.38778492 0.00000222
-0.07290864 0.37458939 -0.00000090
-0.24861919 0.08385428 0.00000424
-0.37608494 -0.61434875 0.00000138
-0.28333718 0.05320953 0.00000202
-0.11989244 0.34868977 0.00000801
-0.28314522 0.11641378 0.11230977
-0.11423088 -0.12086030 0.00000228
-0.02727272 -0.48649032 0.00000121
-0.55713355 -0.54504895 0.02393188
-0.79495893 -0.76569906 -0.03123036
-0.28261133 0.11770512 0.04466067
-0.26329216 0.13397936 0.00000448
-0.76671452 -0.07053795 -0.08662511
-0.43219634 -0.07631187 -0.01476074
-0.34143746 -0.18924816 0.00000061
-0.54258295 -0.53623591 0.00000197
-0.76826625 -0.35975921 -0.06140282
-0.19339135 0.33310132 0.03720106
-0.40581147 -0.17973024 0.15996426
-0.53227784 0.04806748 -0.04709755
-0.38768776 -0.31545425 0.00000270
-0.15148242 0.00478080 0.00000375
-0.07965092 -0.49205900 0.00000087
-0.36090617 -0.45733733 0.00000204
-0.66089487 -0.33973041 -0.04027002
-0.11432940 -0.45143354 0.00000170
-0.30532132 0.06287001 0.30842292
-0.67017816 0.06669716 -0.07815825
-0.25254792 0.10452755 0.00000434
-0.21974263 0.26948924 0.08625263
-0.25152531 0.33650887 -0.01269418
-0.09999850 0.55857471 0.03869559
-0.26865740 0.06165525 0.00000418
-0.53206142 -0.48452637 0.23711442
-0.28610392 0.31497522 -0.01816754
-0.44693368 -0.27901318 0.30525972
-0.44626861 -0.29368282 0.00000289
-0.15643161 0.39887577 0.00000219
-0.36851254 -0.74045029 0.00000082
-0.15105033 0.04422505 -0.00000639
-0.39233473 -0.14719145 0.07334408
-0.21768814 0.07660704 0.00000252
-0.69092916 -0.37507392 -0.04355386
-0.38506859 -0.12966125 0.41105521
-0.29355901 0.09126870 0.22376531
-0.14961096 -0.62937884 0.00000097
-0.15072358 0.31512448 0.00000776
-0.79126348 -0.72600484 -0.03394923
-0.47340695 -0.34291572 0.03868714
-0.18762840 -0.43413181 0.00000188
-0.23008330 0.24451943 0.15522867
-0.17928400 0.36715947 0.03699475
-0.55405161 -0.15754843 -0.03357573
-0.17981871 -0.34192850 0.00000228
-0.21135794 0.28972638 0.03129855
-0.54776705 -0.52244216 0.20413867
-0.57806675 -0.59559009 0.13498011
-0.60280111 -0.21124964 -0.03922969
-0.18605293 0.11581191 0.00000288
-0.05195817 0.14470481 -0.00000700
-0.45337293 -0.29455793 0.27812050
-0.32764766 -0.27286128 0.00000033
-0.19942052 0.31854533 0.14297729
-0.13553609 0.47277405 0.12524644
-0.25892229 0.13460207 0.00000725
-0.12688539 0.28088238 0.00000396
-0.50097953 -0.62966144 0.00000150
-0.29954645 -0.08459036 0.00000132
-0.57342467 -0.58437963 0.03675648
-0.66488586 0.09451591 -0.07948718
-0.34485765 0.17450071 -0.01828841
-0.32633266 -0.06931326 0.00000123
-0.35207515 -0.04619116 -0.00033170
-0.14975683 -0.26059289 0.00000259
-0.10702360 -0.20431044 0.00000196
-0.43002245 0.24854092 -0.04299793
-0.02215191 -0.49024881 0.00000122
-0.12892705 0.48873191 0.03450061
-0.46581189 0.10692544 -0.03811859
-0.58229319 -0.48156390 -0.01097288
-0.72884213 -0.62427261 -0.02962357
-0.20217853 0.31189127 0.09243150
-0.11680148 -0.70347222 0.00000060
-0.09843723 0.39541156 0.00000036
-0.24657931 0.03153879 0.00000808
-0.34621427 -0.75622325 0.00000071
-0.03382081 0.13643312 0.00001064
-0.20573510 0.30330041 0.05050172
-0.74957737 -0.20447476 -0.07113630
-0.27070599 0.14644299 0.16082000
-0.27557670 0.13468619 0.10104590
-0.68232847 -0.47080506 -0.03326140
-0.14469199 -0.60896507 -0.00000004
-0.48850352 -0.64751994 -0.00000228
-0.27128803 -0.68585517 -0.00000114
-0.05168975 0.48126656 0.00000099
-0.00087406 0.44671922 0.00000545
-0.34641854 -0.74492466 -0.00000185
-0.06243592 0.42142287 0.00000544
-0.06071746 0.49175983 0.00000574
-0.54748168 -0.65457617 -0.00000267
-0.64282141 -0.12339300 -0.05552838
-0.10539139 0.50715117 0.00000724
-0.05749754 0.38712833 0.00000528
-0.78806125 -0.15158316 -0.08401780
-0.27868071 0.06307579 0.00000740
-0.40958981 0.09143505 -0.02475706
-0.33752113 -0.10768317 0.00000099
-0.47170784 -0.33882288 0.29455170
-0.26550995 0.14082677 0.00000452
-0.38880600 0.04653506 -0.01635896
-0.48582363 -0.37290128 0.31771169
-0.48868008 0.16763662 -0.04836194
-0.47207885 -0.19138197 -0.01310136
-0.38444451 0.12261237 -0.02215010
-0.14974447 -0.75029273 -0.00000069
-0.35390755 -0.45700429 -0.00000064
-0.30458822 0.27511525 -0.01859009
-0.39221414 -0.14690900 0.31598021
-0.49481796 -0.15303827 -0.02133940
-0.17956593 0.36648817 0.01517999
-0.36914066 -0.48046545 -0.00000083
-0.34588251 0.31152389 -0.03061408
-0.53500222 -0.79578613 -0.00000321
-0.04484979 -0.37014560 0.00000195
-0.09320776 0.46139860 0.00000496
-0.46577567 0.25388736 -0.05109609
-0.18312781 0.16784078 0.00000313
-0.39575459 -0.15545181 0.18801811
-0.08268960 0.58776092 0.00000445
-0.46510307 -0.32287708 0.28130217
-0.44811715 -0.28186433 0.13757487
-0.50166525 -0.41113928 0.09549349
-0.00899796 -0.41497336 0.00000170
-0.11235859 0.08284295 0.00000979
-0.37145357 -0.07736600 -0.00171090
-0.21766807 0.02881820 0.00000231
-0.05707208 0.07043160 0.00000389
-0.18947630 -0.63036640 0.00000103
-0.20917584 -0.08602346 0.00000344
-0.07698952 0.72106314 -0.00944195
-0.33233817 -0.00233708 0.11771909
-0.23278514 -0.60056548 -0.00000053
-0.28427722 0.09974032 0.00000437
-0.14804642 -0.45438327 0.00000062
-0.02474910 0.11293280 0.00000403
-0.28243967 0.11812586 0.11819272
-0.39318579 -0.33076625 0.00000265
-0.38047940 0.13547914 -0.02244111
-0.75349832 -0.48866849 -0.04686349
-0.42129910 0.29224490 -0.04499846
-0.15513195 0.42547546 0.01806059
-0.13689716 -0.21412801 0.00000174
-0.08947569 -0.44836949 0.00000100
-0.33391273 -0.62054264 -0.00000123
-0.54653229 0.14151581 -0.05839354
-0.01222133 0.46735361 -0.00000053
-0.01772385 0.65752030 0.00000640
-0.35598327 -0.05942892 0.00653566
-0.55014212 0.06949067 -0.05279959
-0.06840820 0.47239091 0.00000128
-0.44100179 0.10811545 -0.03293322
-0.76752301 -0.13854169 -0.08078940
-0.19104132 -0.19762514 0.00000292
-0.08054560 0.14445765 0.00000425
-0.16313334 0.40615034 0.04384590
-0.31796181 -0.27231568 0.00000279
-0.41602861 -0.20439362 0.07666540
-0.25571573 0.18263834 0.15881746
-0.46164671 -0.31453233 0.27147745
-0.58159709 -0.67554313 0.00000142
-0.72122015 -0.47740160 -0.04097428
-0.24000967 0.22055264 0.09797158
-0.29581942 -0.63201578 -0.00000105
-0.34859466 -0.04159152 0.01402167
-0.47749791 -0.35279681 0.16859476
-0.41983430 0.04554909 -0.02288795
-0.04553909 0.23300228 0.00000986
-0.39895749 -0.16318116 0.10064590
-0.62109752 -0.69947194 0.03501194
-0.23915033 -0.63897582 0.00000107
-0.25730410 0.17879738 0.23533586
-0.00612388 0.48068724 0.00000557
-0.30777449 -0.60995993 0.00000130
-0.21854053 -0.65852767 -0.00000070
-0.43818692 -0.59957274 0.00000154
-0.21966918 -0.13596353 0.00000158
-0.74112978 -0.57820759 -0.03631438
-0.74118312 -0.00038303 -0.08737736
-0.36022115 -0.06966800 0.22791721
-0.05556307 0.34512337 0.00000509
-0.06809489 -0.15297408 0.00000242
-0.36704904 -0.23232443 0.00000304
-0.13845390 0.46573704 0.04081436
-0.37294583 -0.10039076 0.30360600
-0.02126181 0.14327076 0.00000416
-0.01083358 0.51940247 0.00000571
-0.17223888 0.60663446 -0.01964925
-0.14651933 -0.40457308 0.00000195
-0.31763392 0.03315078 0.11153143
-0.14039338 0.62739559 -0.01469050
-0.37708911 0.40436724 -0.04547425
-0.63425522 -0.73123789 0.15404624
-0.15955863 -0.78723071 -0.00000091
-0.07071355 -0.15568323 0.00000239
-0.19776316 0.52728439 -0.01808308
-0.11754067 -0.56756607 0.00000031
-0.19371134 -0.24846520 0.00000124
-0.59880051 -0.64564267 0.04742331
-0.25139048 0.19308932 0.04938147
-0.23530709 0.23190892 0.14855742
-0.41603865 -0.20442161 0.18168721
-0.31770995 0.13704056 -0.00918758
-0.40420640 -0.20531032 0.00000321
-0.05019735 -0.66264150 0.00000068
-0.37051828 -0.09453150 0.34121170
-0.63962529 0.02081454 -0.06758650
-0.17904180 0.39334672 -0.00225628
-0.11192839 -0.57735392 0.00000030
-0.69136238 -0.30455163 -0.04987694
-0.31241881 -0.79233399 -0.00000185
-0.30631722 0.16008266 -0.00879571
-0.25407662 0.07766185 0.00000231
-0.09094013 0.55895729 0.00000402
-0.62706791 -0.71388570 0.03461741
-0.64699473 -0.76199299 0.10748096
-0.04148998 0.69982457 0.00503568
-0.13686667 -0.47260343 0.00000061
-0.46633426 -0.32584630 0.19404709
-0.38829560 -0.13744699 0.26528380
-0.28274231 0.08431769 0.00000430
-0.23663774 0.18919751 -0.00000037
-0.27729211 0.33134952 -0.01773603
-0.58281421 -0.45682091 -0.01327007
-0.15479375 -0.32554162 0.00000231
-0.00707256 0.37716428 0.00000516
-0.03302630 -0.67747387 0.00000034
-0.59694988 -0.23136269 -0.03620460
-0.22502941 -0.42975852 0.00000196
-0.47922202 0.27485220 -0.05581703
-0.34770271 -0.56398391 -0.00000107
-0.11341015 0.00457887 0.00000369
-0.68413327 -0.53894162 -0.02762648
-0.27715144 0.13089421 0.09758058
-0.56525853 -0.56466379 0.00793541
-0.23797841 -0.34981296 0.00000053
-0.43052338 0.06526107 -0.02691192
-0.35255354 -0.05115102 0.06734276
-0.30499588 0.18712384 -0.01090297
-0.25209855 0.11467038 0.00000438
-0.03148623 0.08805972 0.00000393
-0.21803422 0.02289459 0.00000228
-0.61103247 -0.68998746 -0.00000321
-0.19953348 0.31827045 0.16895367
-0.23761344 0.13326963 0.00000265
-0.17877645 0.36838027 0.18075657
-0.02404308 0.04791889 0.00000356
-0.00726292 -0.06714018 0.00000322
-0.09360521 -0.47275496 0.00000087
-0.05534268 0.65386339 0.00000644
-0.25301828 0.18914999 0.01721597
-0.18426170 0.25313905 0.00000489
-0.02223835 -0.48368633 0.00000142
-0.32035048 -0.42371557 0.00000213
-0.20993492 -0.69701774 0.00000077
-0.36448137 0.02080022 -0.00889375
-0.03336242 0.46667148 0.00000534
-0.10148190 0.55498834 0.08921961
-0.68509988 -0.59138853 -0.02319895
-0.25799142 -0.23294516 0.00000287
-0.19375883 0.23336803 0.00000481
-0.61453919 -0.68364035 0.16518038
-0.25949929 0.17349842 0.15828076
-0.31535938 0.03864242 0.23769968
-0.20440817 0.27052758 0.00000059
-0.25171369 -0.64790179 0.00000105
-0.14809576 -0.67091497 0.00000079
-0.44240188 -0.67742020 -0.00000213
-0.72390645 -0.25718728 -0.06100340
-0.01112525 0.36816746 -0.00000292
-0.07468645 0.11568762 0.00000412
-0.52161283 -0.62612914 -0.00000239
-0.07025170 0.12395965 0.00000362
-0.28696807 -0.64934366 -0.00000107
-0.32500771 0.01535880 0.13015946
-0.45186583 -0.46649374 0.00000214
-0.30638231 0.06031140 0.19921056
-0.05410307 -0.02616346 0.00000306
-0.06600257 -0.15320762 0.00000243
-0.13865891 0.58566037 -0.01063289
-0.07780608 0.28563944 0.00000487
-0.36921946 -0.09139660 0.36148992
-0.39377511 -0.15067122 0.14032414
-0.35426507 -0.59643841 -0.00000125
-0.39275687 -0.14821242 0.12482979
-0.13409914 0.04649601 0.00000391
-0.50072848 -0.58778108 0.00000168
-0.45788120 -0.30543704 0.14407131
-0.48711521 0.06806118 -0.03923060
-0.58632666 -0.61553098 0.16815218
-0.65288835 -0.77622098 0.01441415
-0.02433885 -0.37047107 0.00000192
-0.43616754 -0.73041837 -0.00000233
-0.20988057 0.03101225 -0.00000493
-0.15791906 0.59017623 -0.01514068
-0.62350782 -0.01558230 -0.06093383
-0.30347183 -0.22617968 0.00000068
-0.10705606 -0.34448189 0.00000215
-0.04193719 0.35757089 0.00000913
-0.15659051 0.18617729 0.00000455
-0.45465615 -0.29764644 0.01421171
-0.27923496 -0.09768959 0.00000349
-0.30968626 0.05234216 0.19093074
-0.12875591 0.22168049 0.00000867
-0.48913879 -0.38089823 0.10894841
-0.35900154 -0.06671857 0.25953857
-0.66653314 -0.71318097 -0.00847816
-0.74072278 -0.77814925 -0.01856223
-0.74680142 -0.16395007 -0.07412455
-0.20604192 0.30255972 0.04976921
-0.15176086 0.35004565 0.00000089
-0.24913236 0.08023350 0.00000774
-0.24505588 -0.05779716 0.00000177
-0.07784207 -0.34323492 0.00000153
-0.71503012 -0.27401206 -0.05762356
-0.39907626 -0.51425464 0.00000185
-0.25427241 -0.71539034 0.00000075
-0.04490379 -0.48198104 0.00000112
-0.05570201 0.11798871 0.00000410
-0.17569405 0.17365319 0.00000452
-0.02715427 0.73443337 0.02676424
-0.09865817 -0.04902370 0.00000343
-0.62123548 -0.71493145 0.00000131
-0.25637662 0.18104267 0.00535593
-0.23360694 -0.17751310 0.00000308
-0.39920008 -0.16376498 0.04916264
-0.31910326 -0.57835461 0.00000145
-0.28314272 -0.28823349 0.00000267
-0.39445973 -0.15232366 0.12951193
-0.26650120 -0.53419137 0.00000157
-0.45345156 0.01842221 -0.02766437
-0.31425066 0.07193163 -0.00269977
-0.09392799 0.03977607 0.00001033
-0.21981715 -0.62070006 -0.00000054
-0.46102658 -0.31303388 0.23407025
-0.25732735 0.17874047 0.19938998
-0.00777843 0.63979947 0.00000343
-0.30910047 0.28457319 -0.02038673
-0.59493893 -0.53323673 -0.00910495
-0.58241482 -0.60608720 0.16200788
-0.32211578 0.27219246 -0.02207057
-0.21928732 -0.01511036 0.00000211
-0.45634438 -0.31253793 -0.00000062
-0.18321477 0.35767250 0.09643894
-0.20468714 0.50317859 -0.01742960
-0.37714477 -0.11052057 0.09886140
-0.14550818 0.45035363 -0.00013852
-0.44726131 0.10772799 -0.03423417
-0.13250378 -0.11628822 0.00000319
-0.25483449 -0.69333340 0.00000085
-0.17889942 0.36808514 0.11517313
-0.48977415 0.14715352 -0.04678561
-0.01731459 0.33955986 0.00000501
-0.61963263 -0.27176772 -0.03747313
-0.34871092 0.03529135 -0.00681013
-0.22943573 -0.10249824 0.00000340
-0.00694478 0.09556785 0.00000388
-0.22798251 0.24958577 0.21879189
-0.01873850 0.32969752 -0.00000360
-0.10480428 0.42047540 0.00000471
-0.51165749 -0.43525955 0.00828633
-0.41411129 -0.14057167 -0.00522573
-0.13368504 0.38405506 0.00000437
-0.43791231 -0.25723172 0.25028997
-0.62301202 -0.59670750 -0.00948540
-0.22226323 0.26156976 0.00000330
-0.24702912 0.44265170 -0.02111363
-0.29691402 0.08317590 0.03090187
-0.06487812 0.08125456 0.00000395
-0.69743228 0.08284964 -0.08539875
-0.46839961 -0.03524609 -0.02611124
-0.18679187 0.12576967 0.00000433
-0.38125384 -0.71147750 -0.00000191
-0.08813324 0.47124315 0.00000772
-0.23101687 -0.27821955 0.00000263
-0.26388117 -0.63266891 -0.00000086
-0.31183609 0.04716706 0.01202641
-0.10983499 -0.43808082 0.00000092
-0.49267713 -0.34819439 -0.00364062
-0.37631751 -0.77487686 -0.00000216
-0.05048186 0.23720868 0.00000461
-0.04683670 -0.26872088 0.00000240
-0.41504900 -0.70781430 0.00000103
-0.13328709 0.47820436 0.07619211
-0.28781530 -0.72412238 -0.00000141
-0.12835503 0.49011401 0.00270634
-0.35011953 -0.47288374 -0.00000068
-0.24471490 0.51219956 -0.02676507
-0.03802207 -0.07655034 0.00000322
-0.29871903 -0.63103989 -0.00000106
-0.74240125 -0.30750107 -0.06050317
-0.00795845 0.25178154 0.00000455
-0.02108859 0.72958877 0.00000712
-0.51093994 -0.07813934 -0.03139565
-0.05752359 0.12711367 0.00001034
-0.24447573 -0.09062485 0.00000163
-0.19503259 0.10471609 0.00000425
-0.20321724 0.30937319 0.21449417
-0.03051777 -0.16771633 0.00000258
-0.36319287 -0.13912133 0.00000344
-0.31437229 0.04103082 0.17306137
-0.27796388 -0.11903882 0.00000130
