ply
format ascii 1.0
element vertex 1382
property float x
property float y
property float z
end_header
-0.22710767 0.21152521 0.00000316
-0.42230520 0.00116114 0.00000163
-0.04489351 -0.54726265 0.00000106
-0.22578109 -0.67569063 0.00000039
-0.32733158 0.33205534 0.12552357
-0.29477965 0.06553428 -0.00000260
-0.27152795 0.42564892 0.00000370
-0.08808292 -0.52763759 0.00000085
-0.29886667 -0.23623991 0.00000357
-0.41201446 -0.46645847 0.00000104
-0.20204785 0.56801010 0.00000355
-0.16945965 -0.68801536 0.00000137
-0.16552498 -0.56871010 0.00000072
-0.17576151 0.45162207 0.02958379
-0.09786616 0.09269740 -0.00000737
-0.29456638 -0.26542955 0.00000167
-0.09463582 0.44769420 0.00000447
-0.15447278 -0.03156977 0.00000240
-0.43073355 0.16066627 0.15599515
-0.03492858 0.04167053 0.00000284
-0.05331908 0.12605905 -0.00000787
-0.32392033 0.30996457 0.11371344
-0.58676842 -0.29381780 0.12570398
-0.79803440 -0.50550483 -0.00000074
-0.47699022 0.11543325 0.18186946
-0.28362285 0.25377894 0.05394087
-0.58395457 -0.54572636 0.00000054
-0.64253560 -0.44510614 -0.00000011
-0.05263085 0.14003785 -0.00000759
-0.66358655 -0.15225734 -0.00000056
-0.36411417 0.26858534 0.13538839
-0.67695159 -0.09882638 0.28642904
-0.44149925 -0.57936181 0.00000335
-0.38000425 -0.23379854 0.00000177
-0.07346457 -0.29729801 0.00000201
-0.09109487 0.37409631 0.00000422
-0.14342017 -0.13213271 0.00000209
-0.32092556 -0.77234709 0.00000009
-0.35089322 -0.39657156 0.00000338
-0.13374533 -0.74314924 0.00000098
-0.16511277 0.17033465 0.00000802
-0.03077191 0.19893374 0.00000331
-0.15188803 0.22798982 -0.00000303
-0.23965363 0.21669745 0.00000649
-0.21772838 -0.03325956 0.00000371
-0.27921276 -0.72772067 0.00000023
-0.15685652 0.25250048 -0.00000237
-0.43078779 -0.14254500 0.03796494
-0.14793607 0.59610235 0.00000429
-0.03659117 -0.79492424 0.00000002
-0.00215934 -0.06948702 0.00000230
-0.32691370 -0.24527082 0.00000173
-0.66587050 -0.72178902 -0.00000010
-0.17778693 -0.79124769 0.00000003
-0.05217688 0.00804435 0.00001114
-0.24392305 -0.05297498 0.00000233
-0.31860209 0.32225593 0.11350003
-0.24311635 -0.44747580 0.00000110
-0.06832504 -0.30242050 0.00000197
-0.77301652 -0.08840776 -0.00000167
-0.17700504 0.49319259 0.04693975
-0.74216054 -0.76029443 0.09013862
-0.13301726 -0.07641418 0.00000226
-0.10812581 0.46939977 0.00000626
-0.40093123 -0.06558212 0.03986645
-0.38583705 -0.24038800 0.00000408
-0.12678240 0.50946618 0.00606111
-0.00322176 0.35226987 0.00000887
-0.24508112 -0.40056602 0.00000125
-0.26587483 -0.32783927 0.00000308
-0.00487293 -0.00640543 0.00000251
-0.24729841 -0.55021541 0.00000227
-0.00171215 -0.18249578 0.00000193
-0.27782487 0.33012248 0.07822239
-0.49334344 0.07685748 0.00000309
-0.51388453 -0.59578588 0.00000374
-0.02464773 0.55911445 0.00000425
-0.39644805 0.07747217 0.09135595
-0.37610466 -0.32955127 0.00000147
-0.02420995 0.76347746 0.00854528
-0.14367455 -0.74030116 0.00000019
-0.28663444 0.18800261 0.03115507
-0.73353397 -0.80960850 0.06282338
-0.17377945 0.54641614 0.06463647
-0.19209933 -0.00728567 0.00000364
-0.38919693 0.12798825 0.10421724
-0.13460527 -0.72004103 0.00000106
-0.04541202 0.08940197 0.00000305
-0.79213419 -0.74614283 -0.00000013
-0.40571023 -0.10600589 0.02861712
-0.26924985 -0.62878983 0.00000216
-0.66150096 -0.06093019 0.28666077
-0.31335785 -0.72836428 0.00000212
-0.47195781 -0.45256476 0.00000393
-0.25912684 -0.65774903 0.00000044
-0.45315013 0.16456543 0.00000119
-0.11428367 0.52643003 0.00000567
-0.30596692 -0.33565813 0.00000145
-0.19588590 0.26079015 0.00000331
-0.35157189 0.00583496 0.00000655
-0.08564044 0.28464392 0.00000391
-0.43008263 0.17597168 0.16134364
-0.13422173 0.18981612 -0.00000432
-0.34493309 0.02137982 0.02108413
-0.28697328 -0.41969670 0.00000119
-0.46570340 -0.12453005 0.00000132
-0.03111336 0.47113591 0.00000741
-0.56726634 -0.50746142 0.02416810
-0.22417645 0.43714924 0.00000316
-0.30645809 -0.47507032 0.00000287
-0.16633021 0.20758421 0.00000767
-0.02547891 0.33996695 -0.00000408
-0.43240253 0.09854683 0.13337279
-0.61370352 0.06572831 0.00000089
-0.36218052 0.28371286 0.00000196
-0.07709282 -0.40114742 0.00000171
-0.08757845 0.24369337 -0.00000444
-0.13510769 -0.63407832 0.00000133
-0.29479508 -0.67563893 0.00000039
-0.49562194 -0.20709676 0.00000110
-0.27228115 -0.77354211 0.00000173
-0.50163766 -0.45467733 0.00000411
-0.12970266 0.27163908 0.00000767
-0.25906286 -0.37503859 0.00000133
-0.57114632 0.04618583 0.00000191
-0.13412107 -0.72361764 0.00000024
-0.40984117 0.24337420 0.16856077
-0.42049941 0.08546560 0.00000157
-0.52803578 -0.50493664 0.00000092
-0.22648398 -0.04371356 0.00000373
-0.27178139 -0.46171856 0.00000106
-0.03429861 -0.37712983 0.00000132
-0.40829551 -0.79076291 0.00000003
-0.48249189 0.17595268 0.21060987
-0.50330355 -0.12110394 0.11449279
-0.37112960 -0.72018658 0.00000249
-0.33874765 0.11523557 0.05181266
-0.34094718 0.37174893 0.00000293
-0.01194561 0.65986611 0.00000463
-0.71876301 -0.15868042 -0.00000108
-0.12508983 0.39770587 -0.00000015
-0.24736552 -0.77865767 0.00000156
-0.48839356 0.05020092 0.16718325
-0.20745087 0.35619754 0.02221105
-0.01431815 0.15534154 -0.00000831
-0.04326293 0.74748126 0.00000472
-0.63035723 -0.12765332 -0.00000026
-0.61083472 -0.76055557 0.00000012
-0.55256491 0.06860215 0.00000203
-0.32140619 -0.79589931 0.00000195
-0.67618739 -0.56009393 0.10607668
-0.64839382 -0.63544213 0.05060238
-0.46465998 -0.04275856 0.10867131
-0.10322270 0.15303729 0.00000298
-0.20521158 0.37277851 0.02656772
-0.12358724 0.47501475 0.00000473
-0.26947960 0.17254352 0.00000638
-0.59138213 0.02664658 0.25484098
-0.18096273 -0.71943915 0.00000134
-0.42803165 -0.42033187 0.00000119
-0.06799983 -0.64696627 0.00000048
-0.13131553 0.35991837 0.00000362
-0.41562186 0.27783431 0.00000248
-0.55922686 0.01294407 0.21927155
-0.16405490 -0.15783953 0.00000300
-0.50712151 0.12083489 0.21230072
-0.44533754 -0.01298295 0.00000142
-0.74583360 -0.72533938 0.10720471
-0.57405515 0.02468198 0.00000015
-0.45525395 0.09548519 0.15366142
-0.54796999 -0.09155148 0.00000050
-0.23138625 0.46003970 0.00000411
-0.25617069 0.13978797 0.00000294
-0.52758719 0.11717386 0.23011761
-0.57345853 -0.51728443 0.02616445
-0.64911049 -0.68142628 0.00000003
-0.30892665 0.47324572 0.00000231
-0.10286626 0.56777534 0.00628327
-0.55670506 -0.26057016 0.11038679
-0.31375336 0.14304348 0.03914280
-0.52768612 0.22599599 0.00000042
-0.48848854 -0.00335562 0.00000099
-0.20229999 0.41599268 0.04065601
-0.14263098 -0.53373188 0.00000169
-0.52776204 -0.74291903 0.00000336
-0.26885852 0.26630742 0.00000287
-0.11496910 0.43374229 0.00000034
-0.04976125 -0.53890102 0.00000112
-0.54014602 -0.01736565 0.18952703
-0.45243557 0.13618592 0.00000122
-0.36926054 -0.10662997 0.00000217
-0.27663705 0.44240389 0.00000265
-0.21294609 0.05689722 0.00000396
-0.36013223 0.02038376 0.03497761
-0.16874384 0.45734423 0.00000534
-0.59910594 0.14885517 0.00000030
-0.01405075 0.16185845 0.00000309
-0.34068190 -0.56423722 0.00000279
-0.42152211 -0.47201088 0.00000102
-0.60793430 -0.24809958 0.00000006
-0.54999834 -0.21233083 0.12286735
-0.20752217 0.49812036 0.00000326
-0.52738096 0.20984694 0.00000044
-0.18323904 0.42340070 0.00000356
-0.49351324 0.13756388 0.20602254
-0.70375843 -0.11533281 -0.00000098
-0.38927662 -0.43294410 0.00000115
-0.44168657 0.05376775 0.12465786
-0.70841697 -0.54777738 0.14117499
-0.15068944 -0.66084360 0.00000134
-0.52074756 -0.26225871 0.00000091
-0.24569967 -0.65331348 0.00000046
-0.14228773 -0.57504641 0.00000156
-0.08482708 0.17523609 -0.00000597
-0.62105278 -0.57091191 0.05002722
-0.10324805 0.50677298 0.00000601
-0.15543006 0.03702582 0.00000355
-0.75910829 -0.71571026 -0.00000021
-0.37269041 0.24583811 0.00000189
-0.36902832 -0.65514742 0.00000268
-0.67259053 -0.76551091 -0.00000009
-0.21200916 0.47712854 0.07359475
-0.71787012 -0.69175195 -0.00000027
-0.39813310 -0.11188024 0.00000195
-0.35874728 -0.26657215 0.00000167
-0.14113848 0.58968451 0.00000449
-0.61378775 -0.04127005 -0.00000018
-0.29160521 -0.69215932 0.00000034
-0.14169302 0.58355297 0.04893079
-0.50102208 0.05849866 0.18228840
-0.29231799 -0.27371935 0.00000164
-0.41595718 -0.39397322 0.00000378
-0.51039587 -0.62676704 0.00000054
-0.38025185 -0.33201171 0.00000146
-0.60401134 -0.02280394 0.24745784
-0.09882377 -0.15776603 0.00000260
-0.53195996 0.11876358 0.23484746
-0.13619947 0.35266075 0.00000442
-0.36985530 0.19189134 0.00000425
-0.12002276 0.43077499 0.00000457
-0.22633629 -0.49471297 0.00000095
-0.55743450 -0.14111272 0.00000045
-0.57458233 -0.62662846 0.00000401
-0.11641937 0.63082270 0.04357791
-0.36065767 -0.18255726 0.00000411
-0.46036000 0.23854081 0.00000203
-0.42090671 0.26859871 0.00000141
-0.10875777 0.67279785 0.00000406
-0.22626509 -0.58187764 0.00000068
-0.52625257 -0.32854837 0.05528281
-0.36261427 0.21330704 0.00000417
-0.50350783 0.07340081 0.00000078
-0.63128271 -0.25719323 0.18181837
-0.67343341 0.07799836 -0.00000085
-0.15107841 0.09495245 0.00000889
-0.03287602 -0.61822605 0.00000057
-0.41445000 0.27061136 0.18350187
-0.10350175 -0.24150780 0.00000175
-0.13315452 0.65290044 0.00000398
-0.63870713 -0.48810299 -0.00000004
-0.34727626 0.25813426 0.11548488
-0.14318421 0.21809364 -0.00000348
-0.58019642 -0.43889440 0.06302714
-0.05574637 0.34915363 -0.00000307
-0.46110848 -0.48236704 0.00000378
-0.74344806 -0.43746093 -0.00000091
-0.07047997 0.35370023 -0.00000257
-0.17628733 -0.79752020 0.00000001
-0.10856906 0.50652765 0.00000593
-0.03056069 0.43217141 0.00000403
-0.19948225 0.23757107 0.00000691
-0.52243547 0.11970496 0.22625977
-0.24319291 -0.06993362 0.00000375
-0.53955286 -0.48844650 0.00551750
-0.41364166 -0.14402967 0.00000183
-0.28403121 0.03231943 0.00000743
-0.40535974 -0.64490255 0.00000293
-0.05868202 0.24868461 0.00000363
-0.30441666 0.16472528 0.03881514
-0.77252548 0.00843146 -0.00000156
-0.40181221 -0.43103548 0.00000115
-0.03440931 -0.35096085 0.00000161
-0.73961211 -0.32327595 -0.00000114
-0.29745852 0.33651395 0.09917144
-0.41932933 0.04439044 0.00000485
-0.71240210 -0.02337344 -0.00000114
-0.46367336 -0.68380115 0.00000316
-0.03689958 -0.24811456 0.00000172
-0.19185758 0.06040088 -0.00000551
-0.06906880 0.70260882 0.00000469
-0.06379252 0.23700214 0.00000363
-0.47442237 -0.59055338 0.00000352
-0.16317459 0.58059912 0.06797805
-0.07751155 -0.57068814 0.00000072
-0.43809949 -0.15178247 0.04124187
-0.28314293 0.21599495 0.03877425
-0.16591219 -0.47249880 0.00000202
-0.63800443 -0.76954608 0.00000010
-0.45590845 -0.10387901 0.00000139
-0.66639683 -0.11073523 -0.00000062
-0.62446180 -0.26097743 0.17393178
-0.36895991 0.27054843 0.14070698
-0.12261861 0.20834954 -0.00000424
-0.71188365 -0.61654131 -0.00000046
-0.16737310 0.16652494 0.00000802
-0.37384849 -0.29156786 0.00000159
-0.13208537 -0.20011824 0.00000187
-0.04814457 -0.28772236 0.00000189
-0.40966264 0.21013521 0.00000157
-0.56233691 -0.35586715 0.07856972
-0.52912707 -0.09877925 0.14746560
-0.25271944 -0.36090344 0.00000290
-0.60573574 -0.64211671 0.00000041
-0.30305158 0.18607943 0.04584168
-0.52447475 0.02935430 0.00000062
-0.46992063 -0.23158871 0.00000137
-0.61924335 0.12347478 0.00000018
-0.01300743 0.47183678 0.00000405
-0.07879929 -0.43546835 0.00000114
-0.18819116 0.00480086 0.00000365
-0.12284571 -0.56851986 0.00000146
-0.04064388 0.07582310 -0.00000928
-0.48326734 -0.26494352 0.03963890
-0.22871376 -0.40779938 0.00000123
-0.20637708 0.20409241 -0.00000206
-0.30599832 -0.61869053 0.00000241
-0.51559322 -0.54911348 0.00000390
-0.01052160 0.22311032 0.00000989
-0.28093271 0.11662627 -0.00000189
-0.13233446 0.05440362 -0.00000725
-0.68235549 0.11689503 -0.00000097
-0.44768549 0.03618202 0.00000439
-0.26783392 0.23209367 0.00000579
-0.48886324 -0.75498034 0.00000309
-0.64379776 -0.22413855 0.20645744
-0.64720561 -0.65535785 0.00000003
-0.03135012 0.57389850 0.00000429
-0.05930943 0.12693262 -0.00000769
-0.58447648 -0.16465766 0.00000021
-0.69567465 -0.80047640 0.03078493
-0.06293481 0.46077063 -0.00000050
-0.10449420 0.37507623 -0.00000119
-0.70658589 -0.73680220 -0.00000016
-0.38359455 0.21615665 0.13328588
-0.17369521 -0.68748677 0.00000035
-0.34705486 0.12848891 0.06479105
-0.20980364 0.29105117 0.00000468
-0.28845847 -0.71665442 0.00000200
-0.38117708 0.20901268 0.00000184
-0.66885710 -0.23675795 -0.00000054
-0.36898268 -0.78631157 0.00000227
-0.19483463 0.30038963 0.00000461
-0.34023474 0.12993788 0.05894317
-0.10786281 0.02103965 -0.00000862
-0.17448458 0.42657274 0.01862815
-0.66013447 -0.56529497 0.08895851
-0.11563154 0.48856335 0.00000472
-0.43291467 -0.32690259 0.00000148
-0.31386462 -0.63014652 0.00000053
-0.09521739 0.53320195 0.00000192
-0.36708215 0.07299289 0.00000555
-0.29825866 -0.48371255 0.00000099
-0.23032552 0.34012107 0.03746140
-0.05813798 0.02157779 0.00000257
-0.53855310 -0.50916776 0.00000091
-0.06172579 0.48287420 -0.00000006
-0.23989909 0.36031768 0.00000307
-0.10035449 0.21710068 0.00000318
-0.16631822 0.46598458 0.02629867
-0.20842482 0.01543239 0.00000255
-0.35132707 -0.67264946 0.00000040
-0.13125186 -0.52631964 0.00000165
-0.68377676 -0.20245420 -0.00000071
-0.33323478 0.00528774 0.00380895
-0.17949871 -0.13877301 0.00000315
-0.02151993 0.38777497 0.00000384
-0.18741422 -0.27586497 0.00000164
-0.08250884 0.50756045 0.00000631
-0.61203573 0.17474781 -0.00000022
-0.19801910 -0.69870310 0.00000151
-0.04449368 0.58492869 0.00000433
-0.58556211 0.16819314 0.00000036
-0.15520048 0.37555723 0.00000367
-0.29991306 -0.73426988 0.00000202
-0.13748509 -0.47018055 0.00000186
-0.02953196 0.45149709 -0.00000160
-0.41027096 -0.44899710 0.00000110
-0.29519827 0.00580638 0.00000252
-0.75758662 -0.36805767 -0.00000108
-0.45085706 0.03302740 0.12520251
-0.70311387 -0.71399052 0.07145983
-0.24372912 0.05971418 0.00000416
-0.61619364 0.02661535 0.00000125
-0.12830251 -0.18870701 0.00000268
-0.23630619 -0.03972246 0.00000238
-0.32500900 -0.02764633 0.00000438
-0.00464084 -0.53230471 0.00000086
-0.77001728 -0.65667179 -0.00000036
-0.15486949 0.31126897 -0.00000118
-0.23870439 0.40424521 0.07030873
-0.21586324 -0.69648715 0.00000163
-0.01699857 -0.26847651 0.00000166
-0.16210426 -0.60017251 0.00000160
-0.63307779 0.10750304 0.00000008
-0.67869389 0.02016895 0.00000012
-0.44083808 -0.41967727 0.00000385
-0.20551512 0.32914619 0.00985558
-0.23934116 -0.03591947 0.00000383
-0.05872678 0.10376216 -0.00000820
-0.04026818 0.22927469 0.00000322
-0.27604924 0.01639932 -0.00000415
-0.01857109 -0.14697264 0.00000215
-0.09260120 0.39887928 0.00000431
-0.11780710 -0.75776112 0.00000013
-0.59421039 -0.15065940 0.00000010
-0.46591625 -0.62739700 0.00000335
-0.05318572 -0.02662922 0.00000242
-0.45022361 -0.41435598 0.00000121
-0.20806720 -0.26661576 0.00000292
-0.67765427 -0.28585717 0.21425328
-0.36080731 -0.72829723 0.00000240
-0.06277223 0.19815531 0.00000312
-0.20943950 0.24463392 0.00000670
-0.57280464 -0.27295671 0.12069954
-0.30694787 0.02760714 0.00000444
-0.47550831 -0.76810818 0.00000297
-0.18774360 -0.66749972 0.00000041
-0.26751513 -0.20961157 0.00000346
-0.66693077 -0.06576328 0.28988360
-0.26961063 0.08216892 0.00000438
-0.05718548 0.49684104 0.00000011
-0.36971297 -0.06074281 0.01240023
-0.07239874 0.07741126 0.00000274
-0.34748606 0.15210520 0.07438792
-0.01958404 0.46408711 0.00000395
-0.70605831 -0.38974179 -0.00000077
-0.58411521 0.02252874 0.24640477
-0.27089589 -0.26986533 0.00000329
-0.33654023 0.30904350 0.12521791
-0.42226598 0.22946924 0.17482841
-0.23084566 0.03074587 0.00000399
-0.15340807 -0.73526639 0.00000113
-0.48995314 -0.32208374 0.02367234
-0.20339459 0.36057400 0.00000569
-0.64437747 -0.09804120 -0.00000042
-0.10431714 0.13816521 0.00000356
-0.44636747 -0.25279153 0.00967876
-0.20777959 -0.28892844 0.00000285
-0.35939804 0.25579212 0.00000379
-0.37397946 0.25432984 0.00000187
-0.37934891 -0.27566392 0.00000393
-0.23145841 -0.36735195 0.00000275
-0.41281575 -0.02318589 0.06755064
-0.04830592 -0.36874097 0.00000164
-0.27072453 -0.79598285 0.00000001
-0.04990750 0.06579980 -0.00000925
-0.68328566 0.06562634 -0.00000094
-0.28999423 0.32485968 0.08761745
-0.36437084 -0.04565728 0.00000222
-0.01797766 0.27340096 0.00000346
-0.41480702 0.03840427 0.00000500
-0.62566750 -0.21999801 -0.00000014
-0.55741945 0.03370221 0.22565670
-0.09055041 -0.56275634 0.00000074
-0.05986194 0.00779899 0.00000289
-0.38674549 0.07453628 0.08109006
-0.50750137 -0.28077137 0.05625935
-0.25537364 0.53705100 0.00000284
-0.65658903 -0.41596727 0.14377865
-0.12030614 -0.42840238 0.00000116
-0.09772948 -0.39471102 0.00000186
-0.05451633 -0.15470745 0.00000202
-0.44931011 0.07794329 0.14124522
-0.26242999 -0.35453580 0.00000298
-0.14366855 -0.47132648 0.00000103
-0.72275393 -0.11312761 -0.00000116
-0.25530956 0.53633048 0.00000285
-0.13273651 -0.00553732 0.00000328
-0.79553334 -0.79219976 -0.00000002
-0.06429971 -0.41279701 0.00000121
-0.07886388 -0.49402351 0.00000143
-0.14312854 0.52641318 0.02802674
-0.35959289 -0.71501304 0.00000027
-0.65268407 -0.50406883 0.10579742
-0.10277879 -0.63352870 0.00000114
-0.40110866 0.39384544 0.00000154
-0.32482215 -0.02316256 0.00000439
-0.27133852 -0.25971073 0.00000169
-0.53933086 -0.65329571 0.00000371
-0.51449609 0.15102400 0.23099189
-0.72353491 -0.00423367 -0.00000126
-0.48590709 0.11443230 0.18986108
-0.36209443 0.11967259 0.00000516
-0.75187983 -0.59672082 -0.00000051
-0.59968520 -0.33637879 0.12127333
-0.00842183 0.11768346 0.00000287
-0.06292028 0.66697065 0.00735557
-0.03607509 -0.02386174 0.00000243
-0.25276362 0.32507126 0.05269634
-0.31167330 -0.39474567 0.00000315
-0.49278978 -0.20072618 0.07360022
-0.70294695 -0.32425282 0.22308051
-0.60925596 -0.12955162 -0.00000006
-0.11305339 0.34482946 0.00000426
-0.41768123 -0.48855935 0.00000349
-0.08480654 -0.55724829 0.00000076
-0.22088062 0.19693631 -0.00000182
-0.25149348 0.51747772 0.00000312
-0.33655452 0.27360306 0.11143141
-0.28841206 0.34595686 0.00000421
-0.51192179 -0.35879817 0.03002894
-0.08319517 0.19850837 -0.00000552
-0.23339421 0.36055649 0.04830096
-0.49117464 0.18236170 0.22126969
-0.02031920 0.27957212 0.00000350
-0.17606117 0.26591998 0.00000439
-0.62692872 -0.40943738 0.11843556
-0.19915833 -0.75776434 0.00000133
-0.40098403 0.34065791 0.00000154
-0.05409100 -0.70198509 0.00000063
-0.57774358 -0.69253010 0.00000034
-0.70694228 -0.29870052 -0.00000085
-0.10393092 -0.25938924 0.00000169
-0.36017004 0.31023801 0.00000196
-0.09227869 0.09412957 0.00000978
-0.68251264 -0.74277773 -0.00000014
-0.74067457 -0.07615963 -0.00000137
-0.53908961 0.14573902 0.00000038
-0.63109475 -0.13361150 0.22976875
-0.52184698 -0.76106670 0.00000327
-0.59951270 0.19968373 -0.00000024
-0.08656164 -0.51562421 0.00000089
-0.28747226 -0.55634734 0.00000076
-0.09074696 -0.24330970 0.00000229
-0.24975650 0.00046308 0.00000823
-0.03862389 0.19309452 -0.00000685
-0.43095080 0.14501053 0.15009948
-0.29618862 0.24269854 0.00000263
-0.16547400 0.56079792 0.06242777
-0.37165279 -0.48364070 0.00000323
-0.08278033 0.69051309 0.03519712
-0.36872225 0.26835626 0.13962976
-0.29301286 0.14447956 0.00000275
-0.19057253 0.16418476 0.00000769
-0.17873623 -0.16806439 0.00000305
-0.03775062 0.21356760 -0.00000644
-0.15182722 0.34062936 -0.00000064
-0.38446442 -0.71088981 0.00000028
-0.07354265 0.68265810 0.02345252
-0.78357888 -0.01839686 -0.00000183
-0.63332511 -0.76193596 0.00000012
-0.17499690 -0.20686538 0.00000291
-0.28619322 0.14093423 0.00000281
-0.36374302 0.13363513 0.08247955
-0.32727991 -0.65910842 0.00000044
-0.17275055 -0.37634136 0.00000132
-0.43765038 0.25899326 0.00000126
-0.20045801 0.26309947 0.00000667
-0.67871039 -0.43192560 0.15836203
-0.20031166 -0.30521842 0.00000155
-0.45212557 0.14271203 0.00000122
-0.07550067 0.69855344 0.00000461
-0.49005651 -0.19132993 0.07468968
-0.49226971 0.04897505 0.00000340
-0.46924065 0.15177473 0.18873450
-0.18783743 0.14875598 0.00000410
-0.61145028 0.01170977 -0.00000020
-0.19411216 -0.20269959 0.00000187
-0.43721882 0.12988405 0.15010158
-0.76327649 0.01538891 -0.00000166
-0.05594883 -0.65474480 0.00000045
-0.25581342 0.47859923 0.00000282
-0.38084836 -0.37646765 0.00000132
-0.55748556 0.07866716 0.00000183
-0.15688552 -0.42107690 0.00000118
-0.32652693 -0.17319639 0.00000196
-0.76099169 -0.52297721 -0.00000069
-0.58384394 0.19559770 -0.00000009
-0.69889502 -0.77193051 0.04492945
-0.31061515 0.28571800 0.09175842
-0.34855871 0.25864782 0.11689067
-0.14757042 -0.30592818 0.00000154
-0.45527872 -0.72211250 0.00000299
-0.44686591 -0.18059315 0.03826399
-0.13078815 0.12521842 0.00000368
-0.63350652 -0.29466388 -0.00000015
-0.68351937 -0.29659463 -0.00000063
-0.30200555 -0.74944306 0.00000016
-0.56119860 -0.17251390 0.14890375
-0.42322288 0.11061695 0.00000152
-0.02948779 0.25490424 -0.00000578
-0.42372103 -0.45316549 0.00000364
-0.33658539 -0.32567436 0.00000351
-0.50992408 -0.71106557 0.00000336
-0.06808222 -0.12419676 0.00000252
-0.16559861 0.37894164 0.00000368
-0.48485199 0.12254650 0.19202922
-0.32674083 0.35415810 0.13357477
-0.11242159 0.57571482 0.01835892
-0.01992350 -0.76745181 0.00000010
-0.45597857 -0.13884834 0.06308845
-0.08984682 0.06416709 0.00000324
-0.66471750 -0.38234955 -0.00000038
-0.56518845 -0.62742218 0.00000395
-0.12592700 0.50200316 0.00235052
-0.02755087 0.40029248 0.00000808
-0.03032752 0.58209539 0.00000119
-0.36183354 0.07519078 0.05792950
-0.16233767 -0.64071449 0.00000148
-0.23730758 0.25850952 0.00000318
-0.03109026 0.26315614 -0.00000556
-0.22482638 -0.42184721 0.00000254
-0.15234920 0.59972163 0.00000371
-0.28394304 -0.23480509 0.00000177
-0.20858472 -0.14977876 0.00000203
-0.22223282 -0.73372944 0.00000155
-0.05827653 0.48090097 -0.00000020
-0.11734941 0.61305858 0.03753390
-0.33162407 -0.40413938 0.00000124
-0.07638992 0.45646628 0.00000393
-0.00366322 -0.28192628 0.00000162
-0.64297593 -0.23344722 -0.00000029
-0.76186300 -0.45180867 -0.00000087
-0.30252932 -0.61611129 0.00000240
-0.66342137 -0.44433557 0.13915466
-0.40206236 0.11945733 0.00000172
-0.11676345 0.01862663 0.00001008
-0.42528212 -0.17645602 0.00000175
-0.10807415 0.08046834 -0.00000735
-0.47980215 -0.19590923 0.06326539
-0.17549191 -0.44335540 0.00000217
-0.16835018 -0.70510440 0.00000131
-0.60340394 -0.12774714 0.20601817
-0.01662883 0.10873480 0.00000284
-0.14402353 0.22758791 0.00000321
-0.61247230 -0.40232129 0.00000014
-0.35999477 -0.21249536 0.00000401
-0.24959580 0.48268346 0.00000352
-0.46047975 0.07412822 0.00000120
-0.24914885 0.27267858 0.02889425
-0.71200547 -0.34147352 0.22489086
-0.17310084 -0.30849784 0.00000258
-0.38710388 0.17796845 0.12170986
-0.29249173 -0.04796044 0.00000235
-0.50486624 -0.71313971 0.00000027
-0.50188626 -0.17625541 0.00000101
-0.50992600 -0.51146910 0.00000398
-0.00623414 -0.39769509 0.00000129
-0.25195132 -0.52845571 0.00000237
-0.62526834 0.13325254 -0.00000044
-0.06200580 0.29788435 0.00000381
-0.28781052 0.49306629 0.00000250
-0.15994331 0.56935840 0.00000366
-0.01689233 0.27701510 0.00000337
-0.21118617 -0.59101538 0.00000193
-0.28851085 -0.56006123 0.00000249
-0.31613068 0.07504373 0.00000258
-0.78661254 -0.16541539 -0.00000159
-0.11382713 0.45215141 0.00000460
-0.27731522 -0.37027337 0.00000134
-0.10982939 0.18825636 0.00000375
-0.21124337 -0.67918868 0.00000165
-0.08767348 0.12659602 0.00000290
-0.08655491 0.09661222 0.00000332
-0.00727991 0.52104981 0.00000413
-0.06866937 -0.34965686 0.00000141
-0.02085256 0.61123792 0.00000441
-0.26187082 0.05068593 0.00000761
-0.51657579 -0.01724566 0.16741272
-0.15195367 0.15370037 0.00000298
-0.70772960 -0.41751818 0.19125627
-0.11945354 0.20499504 0.00000386
-0.36299663 -0.39164753 0.00000128
-0.63645454 -0.70845314 0.00000017
-0.22094256 0.49795282 0.00000391
-0.62712982 -0.52508106 0.07358889
-0.79090439 0.00278689 -0.00000185
-0.04368594 0.35902976 0.00000362
-0.08953793 0.31562998 0.00000403
-0.48978733 -0.47789174 0.00000101
-0.07792848 0.05106165 -0.00000880
-0.17247991 -0.38925818 0.00000232
-0.69449356 -0.63825607 -0.00000040
-0.07245940 -0.17890249 0.00000194
-0.49291240 -0.02974176 0.14030289
-0.15249795 0.02637278 0.00000350
-0.72718810 0.03992749 -0.00000133
-0.27655064 0.18708749 0.02131775
-0.29590949 -0.70301538 0.00000030
-0.17749445 0.24783263 0.00000327
-0.44506577 0.14190459 0.16216357
-0.06232266 0.44781489 0.00000390
-0.24307550 0.47768665 0.00000370
-0.43830313 -0.39295368 0.00000392
-0.55326672 -0.29509187 0.09371014
-0.42235228 0.18225275 0.15652178
-0.62766712 -0.32708357 0.15120129
-0.33995152 0.05468163 0.00000626
-0.51949018 0.00081214 0.17718568
-0.32834027 0.00193902 0.00000703
-0.24589306 0.24419689 0.01474143
-0.03166733 0.19043995 0.00000329
-0.25069050 -0.49824968 0.00000246
-0.04656250 0.33360049 0.00000838
-0.14493336 0.25376730 0.00000759
-0.63974824 -0.51963526 0.08757327
-0.39067811 0.09636761 0.00000185
-0.03560316 0.72790368 0.00000472
-0.49098690 -0.32436630 0.02375534
-0.20951286 0.58937835 0.00000317
-0.07028365 0.51908912 0.00000094
-0.61526291 -0.73643702 0.00000020
-0.18988836 0.12612214 0.00000404
-0.18625592 0.28533756 0.00000339
-0.16212530 0.09528662 0.00000280
-0.37134773 -0.17718899 0.00000419
-0.05756793 -0.11794973 0.00000248
-0.42564355 0.07519716 0.00000153
-0.20567275 0.18972356 0.00000309
-0.47462473 -0.51753671 0.00000088
-0.08520410 0.70642534 0.00000434
-0.36939573 -0.60153998 0.00000285
-0.31304388 0.18547531 0.05500709
-0.29979576 0.30275997 0.00000444
-0.77934907 -0.46586989 -0.00000084
-0.24132062 -0.54355904 0.00000226
-0.48943903 0.00868431 0.00000097
-0.57536658 -0.64260525 0.00000049
-0.00558433 0.47168655 0.00000779
-0.23891148 -0.04421778 0.00000236
-0.09447390 -0.68171238 0.00000037
-0.67663420 -0.33882378 0.19266716
-0.36369743 0.01811110 0.03744455
-0.51639779 -0.37668962 0.02726963
-0.01532129 0.25172634 -0.00000623
-0.60148113 -0.00537129 0.25186787
-0.31134424 -0.60184153 0.00000250
-0.50795000 -0.55840331 0.00000075
-0.40757463 -0.01744129 0.00000178
-0.64395658 -0.32661817 0.16669757
-0.37425243 0.13406228 0.00000197
-0.43347775 -0.71956135 0.00000287
-0.69744820 0.03375985 -0.00000038
-0.64878562 -0.25941993 -0.00000033
-0.12538287 -0.44157771 0.00000112
-0.30500499 0.19378017 0.05067744
-0.62877182 -0.54715297 0.06653708
-0.06956534 0.08088858 -0.00000839
-0.19216823 0.06554538 0.00000270
-0.15258417 -0.19598397 0.00000189
-0.22108736 -0.48268763 0.00000233
-0.06110951 -0.71398998 0.00000027
-0.31381305 -0.35546148 0.00000139
-0.65634190 -0.10589927 0.26429776
-0.52054092 -0.52688540 0.00000085
-0.40462684 0.11724476 0.11454025
-0.34598183 -0.51111405 0.00000090
-0.23069201 -0.78686683 0.00000143
-0.48402917 -0.70523800 0.00000322
-0.27264262 -0.22517332 0.00000344
-0.03314726 0.50299653 0.00000710
-0.31010885 0.45119913 0.00000269
-0.01370256 0.06288203 0.00000270
-0.40328764 -0.44656036 0.00000354
-0.24251793 0.37195360 0.06131794
-0.28887417 0.17660798 0.02882313
-0.17236869 0.06642736 0.00000375
-0.15635744 0.05919580 0.00000268
-0.74898055 -0.78734720 0.08601539
-0.70265900 -0.73923593 0.06120072
-0.41139076 0.14731585 0.00000161
-0.10114649 0.26311146 0.00000817
-0.43799976 -0.07596308 0.07067486
-0.42914824 -0.19472733 0.00000173
-0.05865365 0.25788080 -0.00000493
-0.04535354 0.60945347 0.00000598
-0.09614583 -0.22695172 0.00000179
-0.04843866 0.64401852 0.00000563
-0.51740172 -0.37467078 0.02899971
-0.05333630 0.72319821 0.00000478
-0.28733942 -0.33133568 0.00000320
-0.14814636 0.48126928 0.01516623
-0.51180254 -0.47810699 0.00000101
-0.04515788 0.32706353 0.00000379
-0.60429101 -0.40468587 0.00000022
-0.06257107 -0.03275811 0.00000240
-0.61996898 -0.10573920 0.23016298
-0.03387676 -0.16352400 0.00000199
-0.07458218 0.65684402 0.01437761
-0.07575180 0.48066763 0.00000400
-0.40894623 -0.02012349 0.06510519
-0.34251736 0.34107743 0.00000322
-0.55807393 -0.53799905 0.00000078
-0.22656599 -0.07831818 0.00000362
-0.14612710 0.52918791 0.00000383
-0.00177191 0.65176813 0.00000454
-0.48305939 -0.48037409 0.00000100
-0.19493195 0.44024315 0.04317311
-0.25027689 0.04181466 -0.00000431
-0.38559709 -0.63001999 0.00000053
-0.66432967 -0.29009074 0.20007703
-0.18103781 0.56594179 0.00000397
-0.30367176 0.28104711 0.00000253
-0.34789965 -0.59484732 0.00000274
-0.67685405 -0.76884879 0.02540695
-0.55129914 -0.66080535 0.00000376
-0.16175234 -0.37104831 0.00000134
-0.63565898 -0.18284359 -0.00000027
-0.56485967 -0.22389549 0.13233601
-0.05020445 -0.33596992 0.00000145
-0.49026110 -0.64792197 0.00000048
-0.60229585 0.13173488 -0.00000021
-0.43440106 -0.70039593 0.00000293
-0.50810917 -0.68498143 0.00000343
-0.12926663 0.50154691 0.00530914
-0.22801611 -0.29448652 0.00000158
-0.30897637 0.00358247 0.00000251
-0.60205445 -0.61983680 0.01311226
-0.39521366 -0.74525194 0.00000256
-0.42552538 0.03835823 0.10346148
-0.12012570 0.61236019 0.00000465
-0.13862531 0.28654695 -0.00000215
-0.72730443 -0.05568857 -0.00000125
-0.46027318 0.10261478 0.00000117
-0.10507310 -0.17549316 0.00000259
-0.00561896 -0.10137812 0.00000218
-0.36618867 0.20380557 0.11211126
-0.28795458 0.25414106 0.05815948
-0.25846772 0.29918292 0.04797739
-0.44034119 -0.11820058 0.05642745
-0.53319204 0.10756266 0.23164356
-0.35135178 0.42723908 0.00000215
-0.00357121 -0.23661834 0.00000178
-0.48928960 -0.10624602 0.10710333
-0.06404785 0.01395561 0.00000254
-0.10344792 -0.12450522 0.00000211
-0.10454998 0.62752756 0.00000480
-0.53075343 0.02084656 0.19557817
-0.62080087 -0.57537569 0.04805202
-0.29506880 -0.76169664 0.00000190
-0.12312917 0.56387395 0.00000402
-0.79260505 -0.03347398 -0.00000190
-0.14604049 0.46813099 0.00806594
-0.41778662 0.10971635 0.12398099
-0.17379271 0.49264883 0.04371004
-0.10460908 0.23281536 0.00000386
-0.13046640 -0.18857008 0.00000270
-0.27847025 -0.09290463 0.00000221
-0.37500242 -0.21018069 0.00000411
-0.54895067 -0.13579640 0.15168757
-0.62518881 -0.19982571 0.19842994
-0.54176749 0.10535909 0.00000039
-0.14554558 0.58156851 0.05178109
-0.18709726 0.04800493 0.00000265
-0.00567695 0.14925975 0.00000297
-0.42385422 0.04745537 0.10543901
-0.13687535 0.20915569 -0.00000384
-0.60265051 -0.08479013 0.22203879
-0.00157316 -0.57968464 0.00000069
-0.75633665 -0.71824364 -0.00000020
-0.65696549 -0.64410049 0.05528943
-0.50775171 -0.02298940 0.15688414
-0.09596561 0.23636204 -0.00000437
-0.46997987 0.25841150 0.00000095
-0.60814949 0.10766296 0.00000056
-0.03650188 -0.67647763 0.00000039
-0.12198558 -0.50356750 0.00000093
-0.13408117 0.20624417 -0.00000398
-0.48088874 0.09800519 0.00000098
-0.28488389 0.36328216 0.00000264
-0.03862407 -0.75849215 0.00000013
-0.29422141 0.45242560 0.00000247
-0.54274769 -0.21892162 0.11348374
-0.60196006 -0.22726470 0.00000010
-0.64395811 -0.79146133 0.00000391
-0.70332327 -0.80050941 0.03796320
-0.76745181 0.00496984 -0.00000169
-0.04936158 0.61293664 0.00000589
-0.45674706 0.14283790 0.17350731
-0.34974476 0.31688062 0.14068523
-0.47834638 -0.54193734 0.00000369
-0.46252132 -0.71197215 0.00000307
-0.44305578 -0.23927641 0.01182844
-0.46060099 -0.18360356 0.05000509
-0.59783480 0.02746958 0.26122838
-0.13024887 -0.72165625 0.00000024
-0.79885207 -0.12526057 -0.00000169
-0.24007867 -0.10003068 0.00000219
-0.30841939 0.06519015 0.00000266
-0.31390621 -0.56863049 0.00000072
-0.33835857 -0.01104113 0.00000244
-0.14774468 0.24782903 0.00000327
-0.13220679 -0.48539266 0.00000098
-0.08228997 -0.38101752 0.00000181
-0.14498190 0.35312439 0.00000672
-0.36140507 0.07896525 0.05898958
-0.51606779 -0.75955763 0.00000324
-0.79408412 -0.48661043 -0.00000078
-0.59527553 0.04196450 0.26446771
-0.32269539 0.38862455 0.00000225
-0.46583849 0.27535130 0.00000154
-0.31568899 -0.48748913 0.00000288
-0.11294990 0.53528336 0.00000560
-0.42481844 -0.33240416 0.00000146
-0.58517232 -0.11796219 0.19268775
-0.07866150 -0.65180594 0.00000094
-0.38126455 -0.48873314 0.00000327
-0.00022887 0.32644710 -0.00000506
-0.51809711 0.02005174 0.00000069
-0.12329976 0.56242539 0.02340883
-0.48148384 -0.05204600 0.00000110
-0.43225081 0.05032631 0.00000149
-0.13916759 0.17846552 0.00000306
-0.55963217 0.18401509 0.00000069
-0.10325851 -0.75436024 0.00000077
-0.68483040 -0.60900950 0.09515327
-0.55338578 -0.43506046 0.03931336
-0.39391556 -0.15500319 0.00000439
-0.16530416 0.33518517 0.00000455
-0.47541040 -0.15046419 0.00000125
-0.50281658 0.27858527 0.00000062
-0.19931584 0.02408966 0.00000258
-0.60591316 -0.33110331 0.00000015
-0.19215701 0.38365657 0.01853036
-0.44085419 -0.56437902 0.00000340
-0.10083929 -0.13795779 0.00000268
-0.64580499 0.01092076 0.00000085
-0.56445440 -0.37829112 0.07182786
-0.21950879 -0.17718758 0.00000327
-0.42297059 -0.22765018 0.00000179
-0.03476097 0.65795272 0.00000293
-0.25975565 -0.69756510 0.00000189
-0.10807133 0.17008948 0.00000303
-0.35115082 -0.46216935 0.00000318
-0.17710471 -0.10347707 0.00000325
-0.72573774 -0.03871198 -0.00000125
-0.72354599 -0.73927358 0.08082372
-0.63115350 -0.75913663 0.00000013
-0.58290265 -0.02616115 0.00000011
-0.20875980 0.17416190 -0.00000263
-0.07814977 0.45536054 0.00000439
-0.59652360 -0.44681594 0.07529271
-0.27229846 -0.55354830 0.00000077
-0.53174919 -0.01689297 0.00000059
-0.40870418 -0.64463519 0.00000049
-0.55196668 0.07830682 0.23790255
-0.04143954 -0.08106095 0.00000250
-0.58019172 -0.13353123 0.00000022
-0.66822140 -0.19254693 0.24172297
-0.11320547 0.62579558 0.00000406
-0.07147702 0.65129964 0.00929903
-0.09278619 0.44387723 0.00000445
-0.00492899 -0.09785158 0.00000219
-0.23088024 0.46934685 0.08830693
-0.38862531 0.40496384 0.00000160
-0.18685479 -0.55862675 0.00000188
-0.10030802 0.09215991 0.00000339
-0.09239596 0.14918167 0.00000930
-0.59080864 -0.02479508 0.23426948
-0.22322437 0.03502656 -0.00000519
-0.06761201 0.23412562 -0.00000519
-0.66767367 -0.39732746 -0.00000039
-0.69299582 0.06489328 -0.00000062
-0.26281961 -0.40546181 0.00000123
-0.56776073 -0.30312157 0.00000049
-0.45196684 0.03649216 0.00000430
-0.03844092 0.51027126 0.00000409
-0.18118023 0.51133375 0.05793222
-0.10141717 0.43645403 0.00000386
-0.36555284 -0.07493943 0.00296028
-0.50006057 0.02403040 0.00000351
-0.47678807 0.13411376 0.18895242
-0.12903362 0.32837839 0.00000353
-0.73227771 -0.10389564 -0.00000126
-0.48488602 -0.45833595 0.00000107
-0.24885397 -0.61581589 0.00000058
-0.44525115 -0.17274561 0.03980193
-0.26883040 0.46597566 0.00000333
-0.30009573 -0.06253800 0.00000230
-0.22473717 -0.47507044 0.00000102
-0.48710369 0.12042042 0.19332012
-0.15677160 -0.47248809 0.00000102
-0.37260651 -0.41415927 0.00000345
-0.24567663 0.31439612 0.00000536
-0.20467608 0.14821564 0.00000296
-0.01798534 -0.04495233 0.00000236
-0.31645999 0.43989882 0.00000269
-0.56599360 0.08540204 0.25385352
-0.35937398 -0.08463060 0.00000224
-0.46854461 0.20995372 0.00000100
-0.37524455 -0.07396904 0.01245015
-0.64146942 -0.17770576 0.22235095
-0.60861651 -0.71549848 0.00000026
-0.39199210 -0.56115071 0.00000311
-0.07678399 -0.55170093 0.00000124
-0.04221506 -0.28270361 0.00000187
-0.05961404 0.44932078 0.00000717
-0.34276638 0.33260816 0.14024934
-0.31624039 -0.29028903 0.00000350
-0.11495161 -0.31523005 0.00000221
-0.01549882 -0.06275591 0.00000240
-0.47979801 0.12318905 0.18752765
-0.63908097 -0.36951232 0.14540911
-0.01829539 0.42791457 0.00000384
-0.52502456 -0.13837768 0.12818746
-0.03362606 -0.76434076 0.00000031
-0.33633757 0.12158564 0.05202647
-0.50941211 -0.78609750 0.00000004
-0.45878810 -0.69993612 0.00000308
-0.10184489 0.08667624 0.00000277
-0.20281882 -0.79267153 0.00000002
-0.21811271 0.28373648 0.00402099
-0.17588034 0.48624664 0.04317955
-0.45622655 -0.04229593 0.00000134
-0.02788168 0.63052754 0.00000606
-0.19491554 -0.62397043 0.00000055
-0.36454518 0.06192640 0.00000213
-0.12780716 0.62141394 0.00000392
-0.15588328 0.30963051 0.00000347
-0.63163263 0.08928230 -0.00000046
-0.09971673 0.34510137 0.00000358
-0.57953925 0.02231575 0.00000200
-0.22501042 0.47423649 0.00000312
-0.50445343 -0.79163089 0.00000003
-0.17301232 -0.11586053 0.00000318
-0.27173442 -0.19844753 0.00000188
-0.09428978 0.41771930 0.00000692
-0.42763484 -0.60968893 0.00000059
-0.25679720 0.45465955 0.10695490
-0.70224136 -0.41996057 -0.00000070
-0.69896575 -0.19883394 -0.00000086
-0.12562162 -0.00898591 0.00000323
-0.54937870 -0.14749151 0.14753551
-0.43090612 0.06927654 0.12056201
-0.53928794 -0.64545535 0.00000048
-0.27865728 0.14583084 0.00723057
-0.35203312 0.24153734 0.11349657
-0.12543718 0.02245034 0.00000257
-0.31138264 -0.14257771 0.00000393
-0.46255786 0.05468337 0.00000391
-0.02564529 -0.70800426 0.00000029
-0.33383034 -0.39287038 0.00000329
-0.28957544 0.15877185 0.00000277
-0.74328832 -0.53737036 -0.00000066
-0.43863217 -0.27291761 0.00000165
-0.65694341 -0.50991408 0.10752562
-0.24614968 0.08527350 0.00000425
-0.26289207 -0.20349826 0.00000186
-0.62965167 -0.27002391 0.17528817
-0.32440584 -0.59450490 0.00000064
-0.08528416 0.43098974 -0.00000053
-0.44917384 0.16302963 0.00000123
-0.48206158 -0.01901308 0.13427367
-0.68470738 0.00732252 -0.00000090
-0.21507802 0.04383310 0.00000837
-0.19815055 -0.59288343 0.00000065
-0.15091212 0.47453325 0.00000550
-0.15191511 0.50799480 0.00000379
-0.39327982 -0.54241625 0.00000318
-0.62680030 0.10683103 0.00000021
-0.02758995 0.57481675 0.00000430
-0.12605963 0.22999681 0.00000322
-0.11283527 0.53042855 0.00000415
-0.14929514 -0.34141013 0.00000143
-0.12559628 0.25774089 -0.00000311
-0.43828795 -0.21136111 0.01821702
-0.69841008 -0.07167983 -0.00000096
-0.53085667 -0.12303142 0.00000069
-0.56398618 -0.42970579 0.00000063
-0.24951014 0.23885828 0.00000607
-0.31348352 -0.41499183 0.00000310
-0.25084840 -0.41574134 0.00000271
-0.03751441 0.17620944 0.00000305
-0.21624220 0.36402823 0.00000541
-0.01207104 0.35062263 0.00000875
-0.09335995 -0.40637535 0.00000123
-0.19277243 -0.18183412 0.00000310
-0.06684317 0.34138229 0.00000397
-0.13392127 0.44175743 0.00000388
-0.68000843 -0.11620147 0.28253655
-0.19227196 -0.01265804 0.00000246
-0.05317454 0.08876663 0.00000310
-0.45618898 0.15564665 0.00000117
-0.08355755 -0.64475479 0.00000099
-0.65459973 -0.28986209 0.19101817
-0.70865583 -0.61925126 -0.00000045
-0.33467461 -0.19965704 0.00000390
-0.45916524 -0.08168629 0.08834542
-0.64084234 -0.05784376 0.26843989
-0.30820746 -0.48182188 0.00000099
-0.07744288 0.11839587 -0.00000738
-0.15888038 -0.05660610 0.00000328
-0.19726272 0.35688086 0.00000584
-0.28217135 -0.54584673 0.00000079
-0.39396305 -0.59091215 0.00000065
-0.32788284 0.02512592 0.00650319
-0.24178340 0.11720159 0.00000287
-0.21797058 0.47437918 0.00000318
-0.18165790 0.46923062 0.04198486
-0.03435321 0.17120542 0.00000998
-0.07655166 -0.79357749 0.00000002
-0.41204018 -0.43107452 0.00000115
-0.45909311 0.14601161 0.17695123
-0.74965504 -0.28214515 -0.00000128
-0.47072644 0.32813603 0.00000089
-0.20249460 -0.53803224 0.00000082
-0.04479365 -0.12161590 0.00000239
-0.63074644 0.03194510 -0.00000040
-0.15359438 0.49302588 0.00000526
-0.77708416 -0.52322740 -0.00000069
-0.32878648 0.36981028 0.00000221
-0.10458463 0.47805084 0.00000463
-0.33328271 0.05942818 0.02494803
-0.77402942 -0.29747323 -0.00000126
-0.26046512 0.27315388 0.03971868
-0.45112800 -0.27025311 0.00735436
-0.30611146 0.18607876 0.00000554
-0.63355831 -0.72589230 0.00142982
-0.78263593 -0.62328381 -0.00000044
-0.04384086 0.42180546 0.00000408
-0.31593934 -0.56900079 0.00000072
-0.17546980 0.48687886 0.04303734
-0.36148218 0.04688553 0.04657609
-0.64397760 0.04033520 0.00000057
-0.06100680 0.64851333 0.00000453
-0.62284575 -0.03334773 0.26105802
-0.77123325 -0.48941205 -0.00000078
-0.00852268 0.12368720 -0.00000914
-0.64160675 -0.11820144 0.24565315
-0.62373232 0.01407962 0.28036289
-0.53842896 -0.12410496 0.14634833
-0.13738903 0.42955952 0.00000467
-0.49746166 -0.33591006 0.02534724
-0.21066914 -0.63142170 0.00000180
-0.45035177 -0.60159499 0.00000062
-0.01556947 0.46159507 -0.00000177
-0.18098849 0.31469108 0.00000458
-0.23644712 -0.59007462 0.00000208
-0.29531732 0.41082976 0.12610139
-0.21118066 0.50997954 0.08560999
-0.03601915 -0.64829993 0.00000069
-0.19651746 0.09113096 0.00000278
-0.75269023 -0.55857397 -0.00000060
-0.13240294 0.61010073 0.00000444
-0.16664816 0.54830028 0.00000443
-0.24286776 0.35688900 0.05578340
-0.00076922 0.58517844 0.00000433
-0.24157295 -0.00708886 0.00000248
-0.76018527 -0.59742186 -0.00000051
-0.26283188 -0.27624759 0.00000164
-0.16117213 -0.48884451 0.00000195
-0.17872549 0.11706470 0.00000394
-0.21278108 0.32899232 0.01663253
-0.01101321 0.05911507 0.00000268
-0.32513230 -0.39837613 0.00000322
-0.60129793 -0.06234627 -0.00000004
-0.43765150 0.06001921 0.12330375
-0.03139332 -0.35886784 0.00000157
-0.34036052 -0.20827465 0.00000390
-0.26458968 -0.60828477 0.00000220
-0.61388872 -0.44791046 0.00000017
-0.58364692 -0.14572468 0.00000020
-0.46833011 0.01404583 0.13423832
-0.34353335 -0.32604460 0.00000355
-0.70355085 0.09019471 -0.00000109
-0.28754054 -0.74851619 0.00000016
-0.45279133 -0.78186842 0.00000279
-0.47935004 0.07276833 0.16746954
-0.49768217 -0.18051012 0.08607280
-0.77749467 -0.15375444 -0.00000162
-0.36729620 0.31388391 0.15602023
-0.24125796 -0.14131456 0.00000351
-0.46435995 -0.43273037 0.00000395
-0.22117904 -0.45804515 0.00000240
-0.54056761 -0.35842022 0.05710838
-0.28779539 0.39287475 0.00000258
-0.18839949 -0.53906651 0.00000195
-0.24111293 0.17446615 -0.00000174
-0.06783431 0.38183252 0.00000369
-0.10657748 0.17067788 0.00000303
-0.28216965 0.17133313 0.02047226
-0.07939510 0.60294290 0.00000486
-0.06978477 -0.70379868 0.00000072
-0.42033390 0.04298405 0.00000484
-0.11907309 -0.32312383 0.00000149
-0.19957951 0.11684729 0.00000287
-0.07100747 0.18865658 0.00000928
-0.06491465 0.06803184 0.00001043
-0.35074305 -0.36667394 0.00000135
-0.41036978 -0.28394848 0.00000161
-0.65937070 -0.61933149 -0.00000012
-0.32597283 0.08136643 0.00000248
-0.09575183 0.25962648 0.00000331
-0.23742860 0.21813254 0.00000318
-0.34069038 0.00530650 0.01082612
-0.48170833 -0.78304510 0.00000296
-0.27414990 -0.18612890 0.00000192
-0.19774872 -0.78424785 0.00000124
-0.09926970 0.01085171 0.00000313
-0.42099481 0.10836007 0.00000155
-0.18426140 0.02827134 0.00000897
-0.10257088 0.64172792 0.03480531
-0.28965464 -0.12126920 0.00000387
-0.15980945 -0.77802441 0.00000007
-0.20604849 -0.22968507 0.00000178
-0.69037148 -0.68382983 0.07122524
-0.18686516 0.04560562 0.00000878
-0.40300464 -0.04627653 0.04933410
-0.61783852 -0.60063747 0.03542905
-0.14716728 0.21332938 0.00000791
-0.31420539 0.06661266 0.00980096
-0.62216421 0.09009385 -0.00000037
-0.57912031 -0.32013486 0.10826457
-0.20193578 0.09278916 -0.00000454
-0.25504645 0.40862894 0.08738294
-0.06528925 0.13205273 0.00000291
-0.13214102 0.49950690 0.00721718
-0.06677224 0.58151867 0.00000590
-0.43271852 0.11336133 0.13943537
-0.10689715 -0.10236782 0.00000218
-0.55404181 -0.76622404 0.00000345
-0.14935404 0.56674491 0.04958770
-0.42337890 -0.41805579 0.00000119
-0.77504541 -0.26955926 -0.00000133
-0.24561574 0.09636489 0.00000428
-0.32175553 -0.06448346 0.00000424
-0.31614182 -0.01543235 0.00000245
-0.53942568 -0.07554505 0.00000057
-0.23003602 -0.11344007 0.00000353
-0.09271829 -0.12671223 0.00000266
-0.50008271 0.06614886 0.18438465
-0.17615142 -0.63241512 0.00000052
-0.01131936 0.52714298 0.00000722
-0.28830864 -0.70177220 0.00000205
-0.33617627 0.21448438 0.00000467
-0.08781185 0.52644203 0.00000157
-0.56749086 -0.16735136 0.15683009
-0.38213729 -0.25628847 0.00000401
-0.27278170 -0.08345940 0.00000389
-0.09166611 -0.12122429 0.00000267
-0.01079378 0.18168173 0.00001025
-0.00977291 0.66487072 0.00000458
-0.64824639 0.13276512 -0.00000047
-0.16911447 0.22762713 0.00000321
-0.29521022 0.26992631 0.07112425
-0.52042743 -0.65767862 0.00000044
-0.14564189 0.47583037 0.01068978
-0.36924801 0.43035797 0.00000177
-0.64019494 -0.45729195 0.11227195
-0.12710859 -0.37515879 0.00000133
-0.44889177 0.02828423 0.00000445
-0.18136044 -0.79038141 0.00000003
-0.59105981 -0.71897853 0.00000382
-0.79920336 -0.68475577 -0.00000029
-0.25781213 0.03784222 0.00000778
-0.06879523 0.34693532 0.00000358
-0.50666467 0.27593157 0.00000058
-0.04842870 0.59275108 0.00000464
-0.47034734 0.09023408 0.00000339
-0.13688416 -0.03736880 0.00000238
-0.34698371 -0.29258317 0.00000159
-0.40396784 -0.04391692 0.00000184
-0.25820415 -0.16878244 0.00000353
-0.27702905 -0.59434496 0.00000064
-0.02180599 0.21692575 0.00000977
-0.07012648 0.03257411 0.00000260
-0.59788003 0.14559737 0.00000036
-0.08020622 0.55550396 0.00000472
-0.05531542 0.12987160 -0.00000774
-0.07058976 0.69689676 0.00000472
-0.59356566 0.04785959 0.26515560
-0.40232466 -0.22224875 0.00000423
-0.03321108 0.61986147 0.00000207
-0.41547339 0.12122965 0.00000412
-0.26650429 -0.70926631 0.00000028
-0.35584662 0.19447286 0.09874920
-0.28236858 0.32866755 0.08193089
-0.37103797 -0.22262179 0.00000404
-0.18243446 0.22474820 0.00000728
-0.64918086 -0.02465555 0.28920391
-0.43570296 0.06412691 0.00000144
-0.26134822 -0.58534749 0.00000225
-0.31425603 0.45271480 0.00000260
-0.36857539 0.12627697 0.08415730
-0.01350236 0.17443966 -0.00000793
-0.24659233 0.12121915 -0.00000273
-0.54637655 -0.27703670 0.00000067
-0.10902017 0.39962028 0.00000441
-0.45082489 -0.60560927 0.00000061
-0.24048728 -0.02481695 0.00000387
-0.74617854 -0.75115396 0.09747590
-0.07966380 -0.55684875 0.00000076
-0.07134707 -0.37997124 0.00000174
-0.37747017 0.21503628 0.00000387
-0.59461100 -0.55206088 0.03250842
-0.21811117 0.01212277 0.00000860
-0.41922781 0.07340501 0.11118979
-0.07021085 0.55761799 0.00000176
-0.10175072 -0.72796051 0.00000023
-0.55529176 -0.09164295 0.17484427
-0.30717619 -0.24952433 0.00000357
-0.45177718 -0.49591478 0.00000095
-0.11365564 0.59934480 0.02872150
-0.03087989 -0.35478218 0.00000139
-0.59715076 -0.01200419 -0.00000004
-0.04717977 0.18018004 0.00000335
-0.03203398 -0.48560617 0.00000118
-0.60445262 -0.55392522 0.04103528
-0.05928582 0.28153414 0.00000338
-0.16655645 0.25785964 0.00000431
-0.07539756 0.37451746 -0.00000199
-0.06580745 0.07758651 0.00000314
-0.59952288 0.04565381 0.00000137
-0.34274794 -0.40901560 0.00000122
-0.76080463 -0.47830100 -0.00000080
-0.16210475 0.42346281 0.00000376
-0.67655931 -0.52261566 0.12102171
-0.72710099 -0.70297294 0.09830284
-0.58877622 -0.39478245 0.00000036
-0.41307461 -0.12320074 0.00000182
-0.45001845 0.02167605 0.11999874
-0.31864536 0.17711622 0.05701234
-0.28685849 0.24692694 0.05431953
-0.62354117 0.02057155 -0.00000032
-0.50590755 0.02912316 0.17544477
-0.41814442 0.15168226 0.00000154
-0.72872810 -0.75744323 0.07861997
-0.14685723 0.60451141 0.00000376
-0.65125265 -0.71341436 0.00000004
-0.11988894 0.66458701 0.00000411
-0.29170767 -0.12664012 0.00000386
-0.58790268 0.00267211 0.00000003
-0.32319964 0.29647322 0.10777927
-0.65908066 -0.43110216 0.14022717
-0.03790981 -0.02110496 0.00000243
-0.00637600 0.15236553 -0.00000859
-0.09812311 0.28996242 0.00000400
-0.07794806 -0.03583200 0.00000239
-0.05630529 -0.32289597 0.00000183
-0.32216970 0.08961334 0.00000624
-0.18878836 0.05221117 0.00000380
-0.00320952 -0.16916719 0.00000199
-0.21131715 0.37907879 0.00000534
-0.24953337 0.04393022 0.00000785
-0.36536510 0.33181230 0.00000189
-0.34109817 -0.32088996 0.00000356
-0.20655316 0.41106848 0.04274052
-0.08094905 -0.52337726 0.00000086
-0.44301858 -0.06519252 0.07958789
-0.35058056 0.07622707 0.00000225
-0.24592754 0.11030549 0.00000284
-0.62219092 -0.20827655 0.19232032
-0.27818273 0.37290685 0.09522378
-0.10999392 -0.55011565 0.00000078
-0.30215437 0.18504665 0.04459588
-0.09611849 -0.21710939 0.00000182
-0.25262170 -0.02632855 0.00000394
-0.30839757 0.08991310 0.00000264
-0.43258364 -0.38640666 0.00000129
-0.65795560 -0.54989528 -0.00000017
-0.43551887 0.22178670 0.00000131
-0.12912049 -0.68479364 0.00000114
-0.14805098 0.20923332 0.00000794
-0.44601720 0.02382455 0.11706785
-0.63847508 -0.78049513 0.00000006
-0.40197648 -0.56582192 0.00000073
-0.64211571 -0.06498630 0.26685553
-0.14285371 0.20770670 0.00000803
-0.48768639 -0.27748487 0.03890956
-0.40528701 0.22556265 0.15734198
-0.21857923 -0.69788987 0.00000032
-0.29218193 -0.06506524 0.00000230
-0.07793102 0.47891282 0.00000447
-0.02988226 0.08848408 -0.00000931
-0.22468439 -0.46455084 0.00000240
-0.30328854 -0.39497761 0.00000127
-0.23752239 -0.66042264 0.00000187
-0.50460849 -0.68834937 0.00000339
-0.06781597 0.35675271 0.00000402
-0.20822527 -0.38329010 0.00000256
-0.17125035 0.18530490 0.00000779
-0.06200424 -0.11837529 0.00000213
