ply
format ascii 1.0
element vertex 1394
property float x
property float y
property float z
end_header
-0.06446551 0.46016976 0.00170329
0.42435082 0.21836262 -0.00000078
0.78659041 -0.70112831 -0.00000025
-0.44544010 -0.49154419 0.00000000
0.33953067 -0.57894967 0.00000000
-0.76914590 0.01912692 0.00007064
-0.36207824 -0.00520422 -0.00000012
-0.04744489 -0.10436763 0.00000000
0.21227842 0.24454140 0.00000000
0.15497724 0.53994588 0.00000137
-0.31389191 0.28463812 0.00124593
0.17120779 0.29289127 0.00000502
-0.13489237 0.62429471 -0.00000027
0.09569428 -0.42723805 0.00000000
-0.64159504 -0.74940735 0.00000000
0.28348439 0.21908438 0.00000426
0.07233855 -0.49108768 0.00000000
-0.03721982 0.05385454 0.00438493
0.42184365 -0.22460261 0.00000000
-0.23290143 0.14021572 0.00000000
0.22960961 0.48701357 0.00000082
-0.61101783 -0.04503606 -0.00000111
-0.00141664 0.23484619 0.00348685
-0.38076792 -0.14788588 0.00000000
0.79187341 -0.43521297 -0.00000091
0.13735833 0.51803832 -0.00000009
-0.61048276 -0.01748131 -0.00000116
-0.28718234 -0.70778921 0.00000000
-0.02940705 0.00236777 0.00000000
0.09768642 0.61225647 -0.00000009
0.11314855 0.13359892 0.00000000
-0.26421749 0.48116401 -0.00000056
0.13380362 0.36707534 0.00000000
-0.09299101 -0.20408858 0.00000000
-0.29566590 -0.74729237 0.00000000
0.50665470 -0.01187872 -0.00000073
0.52041738 -0.13736018 -0.00000056
0.16576671 -0.35529034 0.00000000
-0.77498453 -0.44622450 -0.00000088
-0.34270639 -0.54165584 0.00000000
0.69931434 -0.70571948 -0.00000024
0.02855741 0.08313853 0.00001032
-0.29599638 -0.00940163 0.00000000
-0.16453157 0.53952948 0.00059327
-0.73646619 0.03274549 -0.00000179
-0.51888133 -0.37032427 -0.00000015
-0.73504475 -0.25366734 -0.00000127
-0.04837168 0.41842791 0.00206100
0.23550622 -0.79574361 0.00000000
-0.48407048 -0.58127079 0.00000000
0.34627241 0.01325502 0.00000649
0.71223541 -0.14303808 -0.00000137
0.78399531 -0.54709069 -0.00000063
-0.39965580 -0.77947884 0.00000000
0.28059940 -0.58821296 0.00000000
0.66176541 -0.45137322 -0.00000061
0.14206142 -0.38461162 0.00000000
0.09557879 -0.35404929 0.00000000
0.01537848 -0.74222034 0.00000000
0.58777475 -0.18121106 -0.00000077
0.34492016 0.38607097 -0.00000074
0.40302860 -0.01003203 -0.00000029
0.00525677 0.49308719 0.00000000
-0.19542589 0.42046886 0.00113877
-0.04704918 0.61643511 0.00000000
-0.33937240 0.30410676 -0.00000057
-0.36702666 -0.74263724 0.00000000
0.68962029 -0.78959878 -0.00000003
-0.75963381 -0.66786147 -0.00000033
0.38642658 -0.62646508 0.00000000
-0.25302256 0.21072079 0.00208015
0.61852770 -0.17692572 -0.00000091
0.09780788 0.17488695 0.00000790
-0.52478806 -0.66526942 0.00000000
-0.55071351 0.22981439 -0.00000134
-0.73730210 -0.13354531 -0.00000150
-0.37841254 0.19026690 0.00143048
-0.64928507 -0.74711561 -0.00000004
-0.14382934 -0.77279802 0.00000000
0.34110351 0.26485144 -0.00000051
-0.28302052 0.38409024 0.00082162
0.10351694 0.59511837 0.00000143
-0.55864120 0.12412074 -0.00000119
0.47575383 0.17531733 0.00000130
0.00971167 0.27023801 0.00000000
0.45312006 -0.27826646 -0.00000003
0.36840327 0.20182076 0.00000292
0.14310432 0.38882538 0.00000000
-0.32494787 0.19752279 -0.00000032
0.74277967 -0.63448630 -0.00000041
-0.22128814 -0.78287260 0.00000000
0.18751793 0.47357865 -0.00000022
-0.35115167 -0.34597868 0.00000000
-0.69497149 0.05565462 0.00030379
-0.01550496 0.32197496 0.00000000
-0.23353739 0.22301917 0.00000000
0.53545964 -0.61019420 0.00000000
0.62081780 -0.38193387 -0.00000056
0.07420054 0.63876977 0.00000127
0.27912833 -0.11460981 0.00000000
-0.72017654 -0.62414397 -0.00000044
0.01020280 0.71655224 0.00000000
-0.56545955 0.21826126 0.00009932
0.78820429 -0.62744943 -0.00000043
0.70696911 -0.47237209 -0.00000077
0.20592777 -0.68420932 0.00000000
-0.13157844 0.08923431 0.00358261
-0.61707266 -0.14408032 -0.00000096
0.41917202 -0.48344176 0.00000000
0.15972515 -0.63333481 0.00000000
0.50002257 0.07084730 0.00000258
0.08558287 0.26857844 0.00000668
-0.26652749 -0.76230160 0.00000000
-0.32834030 0.38871180 -0.00000067
-0.20066136 0.02110097 0.00000000
-0.20160952 0.09416583 0.00311906
-0.16886491 0.37686658 0.00000000
0.39537778 0.08824855 0.00000430
0.59259972 0.20096215 -0.00000137
0.03315910 0.12253208 0.00000000
0.66381656 -0.75637291 -0.00000008
-0.00506304 0.55261694 0.00149881
-0.45864101 -0.25966205 -0.00000008
0.70866742 -0.60049215 -0.00000050
-0.07988954 0.26637569 0.00000000
0.67129280 -0.09474402 -0.00000128
-0.02290796 -0.03433509 0.00000000
0.00112996 0.34895794 0.00000675
-0.12924376 0.52380276 0.00090904
-0.40192923 -0.01135256 -0.00000028
0.79896747 -0.78577769 -0.00000004
-0.31764207 -0.63160345 0.00000000
0.25931552 -0.14942965 0.00000000
0.29959093 0.00507895 0.00000740
-0.02775808 0.53088695 0.00000000
0.28894842 0.41411936 0.00000090
0.28713272 0.20126952 -0.00000017
0.65072881 -0.45895809 -0.00000055
0.62981037 -0.16138254 -0.00000099
0.03600642 0.42950591 0.00000501
0.70377943 -0.41033978 -0.00000086
-0.00936321 0.16455188 0.00000000
-0.15704218 0.39799467 0.00151539
-0.71694392 -0.26568201 -0.00000118
0.53205988 0.05256180 -0.00000095
-0.05778166 0.48833143 0.00000000
0.00316286 -0.32476598 0.00000000
0.33204452 0.15251298 -0.00000027
0.54838208 -0.07264672 -0.00000080
-0.67470452 0.05393940 0.00043987
0.29570891 0.00890577 0.00000000
0.09067350 0.05407141 0.00000000
0.73485051 -0.52592890 -0.00000069
-0.28634465 -0.51489736 0.00000000
0.13008247 -0.12531377 0.00000000
0.28916934 0.14106251 0.00000545
0.11309975 0.25979865 0.00000000
0.09895249 -0.79451780 0.00000000
0.59113315 0.00629588 0.00000191
-0.51221243 -0.61960478 0.00000000
-0.32653385 0.10754014 -0.00000017
0.22143723 -0.44333561 0.00000000
-0.43140712 0.20736009 -0.00000079
0.29388731 0.40442421 0.00000096
0.06229088 0.21536486 0.00000000
-0.39748759 0.06260232 0.00210240
-0.12287654 -0.66588089 0.00000000
0.48557911 -0.10736284 -0.00000047
-0.21925978 -0.42977905 0.00000000
-0.70863894 -0.71222140 -0.00000022
0.40722969 0.06075129 0.00000453
0.49080164 -0.52089028 0.00000000
0.17854618 -0.03225196 0.00000000
0.30379928 -0.05373073 0.00000000
-0.12143345 0.05576079 0.00385238
-0.14162624 0.37660971 0.00174299
-0.36463067 -0.72104803 0.00000000
-0.31421036 0.24243044 0.00150514
-0.21123524 0.43473734 0.00095261
-0.55722180 0.16048665 0.00050783
0.03056845 0.02411238 0.00000000
-0.27672125 -0.69730424 0.00000000
-0.52375083 -0.39415729 -0.00000012
-0.56890929 0.15564635 -0.00000129
-0.64434999 -0.41727352 -0.00000060
-0.16263779 0.13607185 0.00000000
0.66773472 -0.58885038 -0.00000039
0.10451600 0.45069423 0.00000000
-0.64576893 -0.73716674 -0.00000004
0.71403957 0.07587904 -0.00000162
-0.24451963 0.11150675 0.00274645
-0.60172545 0.01933575 0.00110578
-0.47943927 -0.46282509 0.00000000
-0.25708425 -0.03615821 0.00000000
-0.19826259 -0.25211649 0.00000000
0.48328194 -0.03029958 -0.00000059
-0.32746579 0.47250469 -0.00000082
0.58730790 -0.47203144 -0.00000026
0.51162795 -0.60823723 0.00000000
0.42346327 0.10391503 -0.00000058
0.56600230 0.21289991 -0.00000138
0.22030338 -0.68084768 0.00000000
-0.15479895 0.46784012 0.00109714
-0.75046687 -0.51340316 -0.00000072
-0.03594273 0.39417575 0.00000000
-0.23299160 -0.27950473 0.00000000
0.15532988 -0.20960914 0.00000000
-0.48846309 -0.18358386 -0.00000035
0.78119527 -0.15037966 -0.00000162
-0.02903644 0.34928902 0.00000000
-0.45069439 0.06960921 -0.00000063
0.11299384 0.51660050 0.00000000
-0.74439771 -0.66257615 -0.00000034
-0.65081419 -0.27102224 -0.00000088
-0.03738358 -0.35502747 0.00000000
0.21081198 0.06986280 0.00000777
-0.71244404 -0.13341959 -0.00000139
0.39813375 0.14501596 -0.00000054
0.06823100 0.32560807 0.00000609
0.01188427 -0.00341518 0.00000000
0.08777707 0.32133342 0.00000586
0.18973245 0.53829126 0.00000073
0.28591775 -0.06954938 0.00000000
-0.00838809 0.12408051 0.00412885
0.07884808 -0.77172273 0.00000000
0.37434697 0.41897988 -0.00000082
-0.79346923 -0.11168323 -0.00000172
-0.18850923 0.18401087 0.00000000
0.09172026 0.38037647 0.00000000
-0.22251453 -0.16510168 0.00000000
0.52546440 -0.04962424 -0.00000074
0.62901793 -0.27219033 -0.00000079
0.42076774 -0.37679047 0.00000000
0.67347685 -0.04943371 -0.00000137
0.02543857 0.44294608 0.00000000
-0.39804065 -0.33236436 0.00000000
-0.14776128 -0.51118062 0.00000000
-0.33495437 -0.33347292 0.00000000
-0.16046916 0.18947056 0.00278397
0.38235211 0.38025121 -0.00000033
-0.26264958 0.16378691 0.00231098
0.08514224 -0.39764167 0.00000000
-0.25631030 0.17084944 0.00230650
-0.21694914 -0.75098863 0.00000000
0.60554041 -0.18820595 -0.00000084
0.06913392 -0.64952517 0.00000000
-0.47107914 0.24429978 0.00052246
-0.12749852 0.62833176 -0.00000024
0.26127641 0.25043629 0.00000416
-0.70133272 -0.21202091 -0.00000120
0.62023487 0.05656791 0.00000051
-0.52023131 0.17223079 0.00066415
-0.72409161 -0.08509672 -0.00000153
0.60370479 0.06816558 -0.00000128
-0.13581847 -0.21878969 0.00000000
-0.43929260 0.14543682 0.00133101
-0.17862109 0.30017210 0.00198701
0.08477244 -0.64253003 0.00000000
-0.31106149 -0.21439795 0.00000000
-0.46632453 -0.61669226 0.00000000
-0.26450462 0.18391871 0.00217492
0.01173354 0.37203058 0.00000624
0.13905138 0.01687679 0.00000000
-0.63276165 0.13732777 -0.00000153
0.14376094 0.20953143 0.00000669
0.24565671 0.01685412 0.00000804
0.71580776 0.02407361 -0.00000168
-0.05047513 -0.42651947 0.00000000
-0.06473257 0.24018293 0.00000000
-0.43227469 0.25084500 0.00072218
0.30624866 0.25491767 0.00000322
-0.00890017 0.74502264 0.00028501
0.14710048 -0.66680200 0.00000000
0.39516618 -0.16477512 0.00000000
-0.53702804 0.03590921 0.00140374
0.45949397 -0.15386037 -0.00000027
0.26487030 0.52155993 -0.00000044
0.46101850 0.06302749 -0.00000066
0.11528972 -0.05165642 0.00000000
-0.73557642 -0.11117292 -0.00000153
-0.09580085 0.70101335 0.00001947
-0.12055198 -0.15885001 0.00000000
-0.38571728 0.18435167 0.00142187
-0.26939632 0.15713484 -0.00000001
0.10896794 0.09707187 0.00000890
-0.32093235 0.12769154 0.00217354
-0.08190519 0.16538050 0.00341879
0.23110983 0.00718994 0.00000840
0.70861156 -0.18482364 -0.00000128
-0.21189471 0.15226471 0.00000000
-0.24636172 -0.51157528 0.00000000
0.39974225 0.09879471 0.00000404
0.28684262 0.34052717 -0.00000041
0.77420705 -0.68118671 -0.00000030
-0.29386183 -0.68637838 0.00000000
0.62659033 -0.12023914 -0.00000105
-0.65876883 -0.68697062 -0.00000018
0.07078600 -0.05008702 0.00000000
-0.05280673 -0.39749548 0.00000000
-0.44574397 -0.67276344 0.00000000
0.27092115 -0.16924040 0.00000000
-0.41970239 -0.61540866 0.00000000
-0.31599863 -0.49511960 0.00000000
-0.07825634 0.71128562 -0.00000018
0.21173208 0.16690882 0.00000630
0.36680160 0.35372613 -0.00000078
-0.37001308 -0.64240631 0.00000000
-0.24932755 0.36540983 -0.00000030
-0.47545930 -0.26829617 -0.00000014
-0.35022883 0.22611255 -0.00000048
-0.25277595 -0.40913017 0.00000000
0.38496053 0.06223370 -0.00000034
0.01246222 -0.29929447 0.00000000
0.63043678 -0.29760015 -0.00000075
-0.26469291 -0.66076890 0.00000000
-0.49685416 -0.63896556 0.00000000
-0.16926861 0.46882591 0.00100146
-0.23103140 0.06930213 0.00309091
0.42253990 0.16458768 -0.00000068
-0.35467243 0.30267916 0.00088183
-0.03952954 0.62281571 0.00000000
-0.46267242 -0.34729869 0.00000000
-0.04871519 0.19178696 0.00346070
0.48141378 -0.13054782 -0.00000041
0.37377427 -0.46503691 0.00000000
-0.11722469 0.03194097 0.00402574
0.26676677 0.12238330 0.00000614
0.13578717 0.51070975 0.00000222
-0.01782560 -0.46121353 0.00000000
-0.47205153 0.31432178 0.00008314
0.05685834 -0.24179305 0.00000000
-0.18053076 -0.35505394 0.00000000
0.00000124 0.59392793 0.00000000
0.30197298 0.32709258 -0.00000045
0.35525011 -0.09935221 0.00000000
0.22066384 0.14971257 0.00000642
0.73508392 -0.54154199 -0.00000065
-0.05893451 -0.01362539 0.00000000
-0.04827685 -0.68127999 0.00000000
-0.03584696 0.67380039 0.00000000
-0.49678804 0.22252504 0.00049805
-0.69133395 -0.65455751 -0.00000036
-0.43309469 -0.05733476 -0.00000033
0.47739218 0.25870375 -0.00000108
-0.28428139 -0.05269547 0.00000000
0.45698127 -0.64558005 0.00000000
-0.16328994 0.03368840 0.00373008
0.46131007 0.32276778 -0.00000089
0.38699052 -0.01213515 -0.00000022
0.03004329 0.38094329 0.00000000
0.48569128 0.29934936 -0.00000119
-0.12430152 -0.69889376 0.00000000
0.56278032 -0.78540007 0.00000000
0.52706059 0.10176434 -0.00000102
0.09450214 -0.08027656 0.00000000
0.24057360 -0.01308741 0.00000000
-0.55922544 -0.19592990 -0.00000063
0.01462128 0.78036791 -0.00000003
-0.32538236 0.25461052 -0.00000042
0.62297261 -0.38525733 -0.00000056
-0.65564741 -0.10936574 -0.00000119
-0.03763304 0.12172551 0.00396257
-0.03709976 -0.75406979 0.00000000
0.05635722 0.26477521 0.00000000
-0.34107504 0.13216203 0.00202118
-0.19087351 0.39127570 -0.00000009
-0.45511090 -0.03666769 -0.00000046
-0.29284031 -0.28960262 0.00000000
-0.05435250 0.51336319 0.00000000
0.24814771 -0.24780415 0.00000000
-0.38491830 -0.65733557 0.00000000
0.69048222 -0.54151597 -0.00000058
-0.62756448 -0.36005604 -0.00000063
-0.54864577 0.18563342 -0.00000126
-0.62838376 0.15553121 -0.00000154
-0.39584251 -0.14289089 -0.00000002
0.43562793 0.28047147 0.00000031
-0.49565139 0.19501756 0.00067531
-0.05034794 0.25001182 0.00000000
0.22461615 0.51981206 0.00000037
-0.74104818 -0.29732865 -0.00000122
0.26052625 0.51315151 -0.00000060
-0.60766038 0.02372026 -0.00000122
-0.04397000 -0.72537247 0.00000000
0.01341152 -0.33969389 0.00000000
-0.03962821 -0.34871103 0.00000000
0.78868190 -0.48636112 -0.00000078
0.67744690 0.08754110 -0.00000163
-0.43050831 0.04754856 -0.00000051
0.13869085 0.36309280 0.00000446
-0.16303270 0.42200235 -0.00000003
-0.25982378 -0.77639216 0.00000000
0.15697626 0.17350431 0.00000000
-0.67372798 -0.05013853 -0.00000137
0.23549066 0.46591151 0.00000106
-0.49603320 0.11362586 0.00117660
-0.20830600 0.31478676 0.00171300
-0.41851134 0.09441334 0.00177540
0.16131132 -0.73947716 0.00000000
-0.66898553 -0.22470297 -0.00000104
0.70264119 0.00358311 -0.00000159
0.11162616 0.31956959 0.00000552
-0.15401860 -0.73574308 0.00000000
0.27896538 0.11712845 0.00000000
-0.57473767 0.15720388 -0.00000132
-0.50860144 -0.66646137 0.00000000
-0.59250408 -0.03540469 -0.00000105
0.03475794 -0.29000919 0.00000000
-0.50245617 -0.32464408 -0.00000016
-0.18803783 0.42127198 -0.00000013
0.57571165 0.15223011 -0.00000024
0.57478254 -0.35360410 -0.00000041
-0.00162421 0.38066657 0.00000000
-0.35264206 0.37374552 0.00045464
0.61939075 -0.71081554 0.00000000
0.34771512 -0.25686020 0.00000000
0.45997618 -0.60560269 0.00000000
0.56646620 0.09616869 -0.00000117
-0.46998831 0.16845152 -0.00000089
-0.29875562 -0.05533002 0.00000000
-0.43937523 0.31771974 0.00026440
0.49706578 -0.04247494 -0.00000063
-0.66628388 -0.79183155 -0.00000002
-0.30429635 0.29523478 -0.00000041
-0.01384235 0.25596164 0.00327941
0.63128749 -0.73463355 0.00000000
-0.48050044 -0.74629459 0.00000000
-0.68195981 0.09665317 -0.00000167
0.04777984 0.32878303 0.00000000
-0.51042057 -0.64011553 0.00000000
-0.30593775 0.10942137 0.00237942
0.22926698 0.10290642 0.00000700
0.22623924 0.52662408 0.00000022
0.36456491 0.34278100 0.00000064
0.02117071 0.31268557 0.00000000
0.74411766 -0.79463464 -0.00000001
-0.03629757 0.01061010 0.00000000
0.32450137 0.12860317 0.00000498
0.45459500 -0.15136239 -0.00000026
-0.02730790 0.10519463 0.00412867
-0.19048249 -0.02221115 0.00000000
0.27823949 0.46394256 0.00000027
-0.39309395 -0.52663054 0.00000000
-0.48391851 -0.02562787 -0.00000061
0.21313223 0.12484283 0.00000691
0.36958174 -0.42351605 0.00000000
-0.46577702 0.01209880 0.00199216
-0.47137522 0.21481327 -0.00000098
0.64246367 0.12404563 -0.00000155
0.05331755 -0.47961411 0.00000000
-0.14979367 0.45998849 -0.00000004
-0.73425337 -0.19654181 -0.00000137
-0.29647018 0.44825206 0.00034132
-0.36829576 0.01339045 -0.00000018
-0.60290180 0.04762679 0.00092343
-0.19282877 -0.77977809 0.00000000
-0.05184508 0.19105500 0.00344587
-0.27865269 0.42920753 -0.00000053
0.32219032 -0.37871497 0.00000000
-0.24927764 0.50950637 -0.00000055
-0.34682167 -0.18802272 0.00000000
-0.56017526 -0.48062315 -0.00000013
-0.42595884 0.17862031 0.00120821
0.51087564 -0.53477533 0.00000000
-0.46347945 0.22076783 -0.00000095
-0.14621702 0.51347700 -0.00000012
-0.53743964 0.18953857 0.00045052
0.04119969 0.07440178 0.00000000
-0.16785054 -0.71321741 0.00000000
-0.28248984 0.26469490 -0.00000026
0.37557775 0.37969561 -0.00000019
0.14774456 0.09151592 0.00000840
0.03161976 -0.38796305 0.00000000
0.39878829 0.04311190 -0.00000036
0.79428341 -0.36524011 -0.00000109
-0.37054803 -0.21596239 0.00000000
-0.21960843 -0.38731555 0.00000000
0.40216166 0.13895738 0.00000332
-0.20610822 0.40146966 -0.00000018
0.72889602 -0.15349858 -0.00000143
0.72242302 -0.32319596 -0.00000110
0.24244362 0.30975845 0.00000353
-0.23371100 0.35370057 -0.00000021
-0.13156942 -0.46854432 0.00000000
-0.48845051 -0.49529485 0.00000000
0.47524942 0.10219074 -0.00000079
-0.62943315 -0.43666233 -0.00000050
0.44069101 -0.02254831 -0.00000043
-0.00028158 0.50887864 0.00000000
0.51747858 -0.54456169 0.00000000
0.13009193 0.24067746 0.00000000
0.34328703 0.14023803 -0.00000030
0.46023953 0.18957838 -0.00000089
-0.30323501 0.09152559 0.00250690
-0.27327034 -0.60101033 0.00000000
0.19320175 0.12373513 0.00000723
-0.17954121 0.48222412 -0.00000020
0.07301362 0.56769622 0.00000000
0.03640528 0.64245228 0.00000181
0.17465136 -0.42871923 0.00000000
-0.04948381 -0.42104113 0.00000000
-0.01101101 0.30233291 0.00301010
0.77685470 -0.03414335 -0.00000184
0.09722017 0.62731915 0.00000102
-0.30110570 0.11946129 0.00234721
0.50596074 -0.03323850 -0.00000069
-0.38179047 0.23872356 0.00110972
-0.23984621 0.42324387 -0.00000036
0.08509420 0.16697684 0.00000821
0.36716118 0.28554769 -0.00000066
-0.19798717 0.36793771 -0.00000008
0.71610035 -0.11900685 -0.00000143
0.36146660 0.11379203 0.00000452
-0.42381996 0.26909602 -0.00000087
0.59452774 -0.78258235 0.00000000
-0.34878978 0.21691008 -0.00000046
0.55277707 -0.24596365 -0.00000051
0.13237208 -0.55919700 0.00000000
0.45381140 0.27400595 0.00000007
0.27675897 -0.53886855 0.00000000
-0.59247543 -0.32364154 -0.00000054
-0.44963474 0.21721705 -0.00000089
-0.68634523 -0.70443446 -0.00000024
0.49791656 -0.24038872 -0.00000029
-0.26324689 -0.08603114 0.00000000
-0.19796852 0.49434645 0.00066587
0.18326897 0.39283325 0.00000328
-0.27060535 0.42408237 0.00065100
-0.16214152 -0.77017619 0.00000000
-0.12517324 -0.18646163 0.00000000
-0.37440048 0.04092528 -0.00000026
-0.54214225 -0.17671467 -0.00000059
-0.12590551 0.63642300 -0.00000025
-0.19097315 -0.07232207 0.00000000
0.01983355 0.30340255 0.00000000
0.26181910 0.03306153 0.00000000
0.71048372 -0.64409447 -0.00000039
0.06823891 -0.61047990 0.00000000
0.64498657 0.00972889 0.00000081
-0.24563106 0.30801291 -0.00000018
-0.07687447 -0.35801644 0.00000000
-0.10321631 0.06423837 0.00391260
0.72495205 -0.59411189 -0.00000051
0.10745250 0.00447885 0.00001031
-0.27519891 0.31417123 -0.00000032
-0.23559198 0.53258475 0.00019633
-0.03892117 -0.51835004 0.00000000
-0.03104711 0.53092163 0.00147233
0.53719475 0.03112645 -0.00000093
0.13673115 0.10325999 0.00000839
-0.56531600 0.21940258 -0.00000139
-0.31518761 0.40542779 -0.00000065
0.37684753 0.03094142 -0.00000025
-0.13039878 -0.22002199 0.00000000
-0.63634588 0.02596312 -0.00000135
0.00908174 -0.37905113 0.00000000
-0.67010857 -0.73064226 -0.00000015
0.39134210 -0.78924037 0.00000000
0.10754280 -0.18075350 0.00000000
0.26320082 -0.29980245 0.00000000
-0.18428002 0.25544542 0.00222866
0.05695188 -0.65059689 0.00000000
-0.34347369 -0.50582008 0.00000000
0.69918093 -0.47873745 -0.00000072
0.07072234 0.27395644 0.00000000
0.42963944 -0.60964072 0.00000000
0.36211843 -0.68134109 0.00000000
0.00756670 0.17241217 0.00000930
0.42772754 0.31739329 -0.00000015
0.27638733 -0.13439506 0.00000000
-0.67594284 0.04970621 -0.00000156
0.57900824 -0.55907499 -0.00000007
0.61506537 0.07995175 0.00000022
0.06048306 0.05153145 0.00000000
0.50463741 -0.15051354 -0.00000047
0.26533642 -0.16116505 0.00000000
-0.06507950 0.14278225 0.00366261
-0.36161177 0.07484810 0.00224871
-0.32382898 -0.50840308 0.00000000
0.32579926 -0.08164430 0.00000000
-0.02677580 0.34836760 0.00262788
-0.32398756 0.32152498 -0.00000054
-0.12167833 -0.60045181 0.00000000
-0.07949389 -0.32363370 0.00000000
-0.61188502 -0.52890216 -0.00000026
0.06276936 0.19132785 0.00000818
-0.51918536 -0.75189231 0.00000000
-0.29084911 0.24945999 0.00160626
0.73686612 -0.51996685 -0.00000070
-0.00490535 0.18274783 0.00000000
-0.04546947 0.12126267 0.00000000
-0.12412088 -0.05631273 0.00000000
0.06252845 -0.51682710 0.00000000
-0.16151225 -0.79536590 0.00000000
0.75298370 -0.58826385 -0.00000053
0.35172546 -0.30244404 0.00000000
0.09970896 0.43406135 0.00000000
-0.00150333 -0.17327044 0.00000000
-0.41130939 -0.74918564 0.00000000
0.60427361 0.10185496 0.00000006
0.69565633 -0.07293849 -0.00000143
-0.54489068 -0.31640771 -0.00000035
0.11658495 -0.68178057 0.00000000
-0.06573532 0.33635346 0.00246127
0.20494601 -0.35848026 0.00000000
0.59207905 -0.54984494 -0.00000014
0.48442621 -0.17700898 -0.00000034
0.71619031 -0.69918080 -0.00000025
0.01071819 0.31992745 0.00000704
0.47657246 0.06157740 0.00000318
-0.35751280 -0.25164914 0.00000000
-0.54911881 0.11767236 0.00082293
-0.54101953 0.08603288 -0.00000105
-0.46531178 -0.24661135 -0.00000014
-0.45621608 -0.72071401 0.00000000
-0.02131050 -0.53919910 0.00000000
-0.05413894 0.19644475 0.00000000
0.22588535 0.01026408 0.00000844
0.36575435 -0.41318547 0.00000000
0.27600641 0.37337245 -0.00000042
0.01195753 0.01466914 0.00001160
0.73919714 -0.30604179 -0.00000120
-0.00732259 0.52318901 0.00166686
0.66639685 -0.78923612 -0.00000003
0.13847421 -0.07255550 0.00000000
-0.22091047 -0.29100277 0.00000000
-0.43822030 0.08931313 -0.00000061
-0.27998049 0.34436946 -0.00000039
-0.14565581 -0.64080405 0.00000000
-0.29850963 0.02990240 0.00291734
0.16123447 0.13121334 0.00000760
0.39511885 0.32870900 0.00000028
0.37285311 -0.06863381 -0.00000006
0.11414149 -0.42191016 0.00000000
0.55163019 0.09768761 0.00000114
0.08776611 0.28712226 0.00000000
-0.46992695 0.27121897 -0.00000107
-0.00720911 0.61239043 0.00111583
-0.07545389 0.05349946 0.00415069
0.05994483 0.68842586 -0.00000006
0.09979322 -0.11481751 0.00000000
0.02994876 0.00690986 0.00001144
0.02858434 0.50798340 0.00000000
0.19432002 -0.78667800 0.00000000
-0.32152607 -0.65180940 0.00000000
-0.21206298 0.17299044 0.00000000
-0.27573332 -0.09871072 0.00000000
-0.10551920 0.29852884 0.00244922
-0.37128208 -0.56312496 0.00000000
0.06828809 0.11629664 0.00000923
-0.05948715 -0.41786807 0.00000000
-0.45579760 -0.24720701 -0.00000009
0.50378196 0.02292075 -0.00000078
-0.50475478 -0.73740006 0.00000000
-0.49547059 0.18092275 0.00076365
-0.33413551 -0.09028978 0.00000000
-0.30014712 0.15587592 0.00212781
-0.57512012 0.16162440 0.00038999
-0.14737754 -0.53971496 0.00000000
0.08136344 0.21964288 0.00000748
0.42605853 0.26635099 0.00000073
0.71110415 -0.69302975 -0.00000027
0.20344254 0.03894830 0.00000835
-0.12906815 0.35814058 0.00193488
0.68288333 0.03210069 -0.00000029
-0.09885742 0.26107831 0.00272205
0.43449758 -0.78989982 0.00000000
0.70525871 -0.27509182 -0.00000111
0.13223832 0.47272130 0.00000291
0.05094012 -0.76885099 0.00000000
0.21797301 0.34549181 0.00000341
-0.11435497 0.44575590 0.00148395
-0.48794737 -0.77309669 0.00000000
-0.35272106 -0.53329818 0.00000000
-0.08187194 0.43608779 0.00174461
0.25141157 -0.60678354 0.00000000
-0.08339518 0.02983406 0.00000000
0.06733217 -0.45906491 0.00000000
-0.58034671 0.18708074 0.00020011
-0.17691497 0.07355375 0.00339925
0.59452765 -0.23689906 -0.00000070
0.04963250 0.06605005 0.00000000
-0.14130403 0.25340874 0.00250701
0.04504795 0.03112866 0.00000000
-0.25169768 0.02376872 0.00324475
0.39947575 -0.17807665 0.00000000
-0.55378998 0.07006447 0.00108862
0.02728411 0.24009133 0.00000000
0.09978244 0.25289653 0.00000000
0.59854591 -0.34296230 -0.00000053
-0.37636532 -0.04091956 -0.00000012
0.20687818 0.11303312 0.00000718
-0.24724347 0.26750698 0.00176453
-0.76278042 -0.49097453 -0.00000077
0.17833606 -0.28585643 0.00000000
0.66291606 -0.64331943 -0.00000028
0.50418049 -0.22394726 -0.00000034
-0.10896661 -0.37704576 0.00000000
-0.30114112 -0.73676092 0.00000000
0.60523381 0.04805857 0.00000094
0.00223521 0.70891665 0.00000133
-0.59774382 -0.50124280 -0.00000025
-0.22442900 0.20126318 0.00231552
0.11823923 0.67801218 -0.00000029
0.01595895 0.38008530 0.00000606
-0.35395305 0.27440401 0.00106125
-0.38129143 0.28001120 0.00085732
0.09292402 0.31170407 0.00000592
-0.04784323 0.55638069 0.00000000
0.21291974 -0.76534938 0.00000000
0.66482778 0.02531422 -0.00000147
-0.36804650 0.30428131 -0.00000069
-0.42645946 -0.77496219 0.00000000
0.68974188 -0.60967799 -0.00000045
0.00072047 0.25749668 0.00000000
-0.28473486 -0.55527723 0.00000000
0.18291364 -0.55738997 0.00000000
-0.05056396 0.43247356 0.00196056
0.05824446 0.53191515 0.00000000
0.14438952 0.23066255 0.00000636
-0.65965132 0.09454392 -0.00000157
-0.47560269 -0.47278948 0.00000000
0.74319208 -0.36008458 -0.00000110
-0.21567485 -0.45775108 0.00000000
0.29351703 -0.41995952 0.00000000
0.78096590 -0.02928373 -0.00000187
0.34185469 0.06077946 -0.00000015
-0.73808511 -0.02833711 -0.00000169
0.29596550 0.02874372 0.00000710
-0.70299821 -0.78719001 -0.00000003
-0.09094274 -0.15471780 0.00000000
0.70775755 0.01939620 -0.00000055
-0.08879090 -0.58924022 0.00000000
-0.49029969 0.30681631 0.00001662
-0.70490533 -0.27808549 -0.00000110
-0.25527788 -0.04875957 0.00000000
0.06445668 0.61806424 0.00000176
0.11379572 0.32045963 0.00000000
-0.20135040 0.20943070 0.00000000
0.21692399 0.49706314 0.00000089
-0.25056246 0.09839601 0.00000000
0.10681357 -0.37540530 0.00000000
0.65467333 -0.56912231 -0.00000037
-0.06939164 0.70842962 0.00013707
0.10051096 0.11773243 0.00000000
0.19876432 -0.50658295 0.00000000
-0.55260036 -0.63427601 0.00000000
-0.03725117 0.14377163 0.00382857
-0.09995463 -0.42758556 0.00000000
0.60837990 0.06718095 -0.00000130
0.29659124 -0.32387158 0.00000000
0.58223093 -0.18387259 -0.00000075
-0.45353658 -0.23492825 -0.00000011
-0.68625971 -0.21774415 -0.00000113
-0.07009301 -0.59432835 0.00000000
0.35270929 -0.51463237 0.00000000
-0.12131441 -0.76739034 0.00000000
-0.36905610 0.35893161 0.00044469
-0.29528423 -0.77037017 0.00000000
0.77283842 -0.23136295 -0.00000142
0.38741572 0.25715561 0.00000163
0.02881797 0.22795962 0.00000000
0.00173135 -0.07586862 0.00000000
-0.42465739 -0.57043875 0.00000000
0.11812081 0.27062553 0.00000000
0.00061288 0.06047040 0.00000000
0.46966398 -0.75711777 0.00000000
-0.41129007 -0.38636010 0.00000000
0.06526336 0.07027104 0.00000996
0.01706765 -0.05815156 0.00000000
0.32485975 0.10811527 0.00000532
-0.36481204 -0.71271109 0.00000000
-0.18592454 -0.03210976 0.00000000
-0.39979012 0.04193501 0.00221603
-0.17773689 0.36251171 0.00160689
-0.78207299 -0.69944194 -0.00000025
0.04322404 -0.40082202 0.00000000
-0.14218466 -0.70676317 0.00000000
0.08728937 0.49151078 0.00000000
0.42533055 -0.53461233 0.00000000
0.50373452 -0.43954397 0.00000000
-0.12911100 0.43269630 0.00147347
-0.24324691 -0.62435345 0.00000000
-0.66161681 -0.25539763 -0.00000096
0.10380334 0.03977654 0.00000000
0.02288897 -0.73587342 0.00000000
-0.16024543 0.23725248 0.00000000
-0.27967701 -0.65760857 0.00000000
0.71888673 -0.06285386 -0.00000154
0.30626212 -0.75608561 0.00000000
0.02447150 -0.49014630 0.00000000
0.04677463 -0.33998108 0.00000000
-0.41727021 0.28260792 -0.00000087
0.02914135 -0.03898770 0.00000000
-0.73007208 -0.21954271 -0.00000131
0.29334844 0.44156634 0.00000035
-0.31798367 0.06028134 0.00260894
-0.07964604 0.31510553 0.00250668
-0.58323841 0.18508429 -0.00000140
-0.36413190 -0.44242313 0.00000000
0.24181121 0.46189857 0.00000100
-0.16137670 0.09116097 0.00338643
-0.00992690 0.04287663 0.00462160
0.38000246 -0.79839969 0.00000000
0.54972521 -0.73715254 0.00000000
0.06444120 0.17557951 0.00000000
-0.01971765 0.26661463 0.00000000
0.13396452 0.49639149 0.00000250
-0.55376151 -0.71364981 0.00000000
0.12073400 -0.14682108 0.00000000
-0.14565583 0.54739854 -0.00000018
-0.21807979 0.35747923 -0.00000015
0.11206532 0.24189890 0.00000000
-0.35114329 -0.11883371 0.00000000
0.37677001 -0.28819028 0.00000000
0.21342057 -0.26609132 0.00000000
-0.54707222 -0.02275411 -0.00000088
-0.54473472 -0.47160153 -0.00000008
-0.10007917 0.51168617 0.00116443
0.00509766 -0.66439666 0.00000000
0.57450175 -0.36186655 -0.00000040
-0.42904228 0.13982877 0.00142917
-0.44751502 -0.72555111 0.00000000
0.32779803 0.01623317 0.00000680
-0.02428736 0.38834538 0.00239599
-0.24640737 0.01978711 0.00330209
0.77140582 -0.38995328 -0.00000103
-0.06715220 0.70321184 0.00018322
0.00100364 0.77171170 0.00000000
-0.38322838 0.38705838 0.00018291
-0.78176732 0.00045947 0.00010802
0.10237577 0.67463049 -0.00000022
0.12058153 0.31334081 0.00000000
0.64084461 -0.31273707 -0.00000077
0.08830061 0.54763845 0.00000245
-0.33958309 0.16205211 -0.00000032
-0.33888251 0.14370703 0.00196331
-0.61379308 -0.58551605 -0.00000017
-0.55303253 -0.57765729 0.00000000
-0.12796422 0.27644882 0.00000000
-0.34459512 -0.19645273 0.00000000
0.78211450 -0.07236897 -0.00000180
-0.63128794 -0.55477366 -0.00000030
-0.20753014 0.50687472 0.00052915
-0.35689999 -0.61957318 0.00000000
0.41488159 -0.14566935 -0.00000010
-0.38959118 -0.05507753 -0.00000015
-0.04213797 0.63851897 0.00000000
-0.59198907 -0.79001344 0.00000000
0.32503217 -0.27357651 0.00000000
-0.68641717 -0.60543461 -0.00000044
0.18271647 0.01547096 0.00000000
0.26066710 0.44382023 -0.00000048
-0.44403172 0.03265052 -0.00000054
-0.39702066 0.13266929 -0.00000051
-0.52369985 -0.53445377 0.00000000
0.32529364 0.22231606 0.00000340
-0.69470841 -0.38793129 -0.00000086
0.18632494 0.37518378 -0.00000004
0.43658122 0.15640112 -0.00000073
-0.09996585 0.47386008 0.00000000
-0.46889474 0.24232288 -0.00000102
0.00721385 0.76399654 0.00000043
-0.36531868 -0.33293604 0.00000000
-0.50953499 -0.27302756 -0.00000028
-0.12069784 -0.75445500 0.00000000
0.16368538 0.08496783 0.00000000
0.23848061 0.48514775 0.00000068
0.18632060 -0.61766853 0.00000000
0.14632301 0.39734701 0.00000000
-0.57205021 -0.54524311 -0.00000006
0.43767209 0.17701995 -0.00000077
-0.00837462 -0.47019056 0.00000000
-0.63279669 -0.15576675 -0.00000101
0.05004607 0.48565929 0.00000396
-0.40816855 0.21256216 -0.00000070
-0.77095747 -0.71032748 -0.00000022
0.23643867 -0.68315842 0.00000000
0.28596957 0.14863166 0.00000539
0.72197921 -0.04317400 -0.00000159
0.42311829 -0.61522174 0.00000000
-0.40620257 -0.12146773 -0.00000010
-0.28132277 0.22365767 -0.00000018
0.50529612 0.29246134 -0.00000126
-0.41533997 0.36063319 -0.00000100
-0.59862091 -0.76967901 0.00000000
0.44439900 -0.63655449 0.00000000
0.46439034 -0.73221092 0.00000000
-0.09262807 0.59747510 -0.00000004
0.09211059 -0.48061961 0.00000000
-0.56601867 0.14102784 0.00057379
-0.44836671 -0.76017641 0.00000000
0.00766572 0.11110498 0.00000000
-0.58296961 -0.72516321 0.00000000
0.07832548 0.68570561 -0.00000013
-0.58205865 0.02692461 -0.00000112
-0.38649647 0.38035221 -0.00000091
0.17006362 0.33454408 0.00000442
0.15909413 0.40536569 0.00000000
-0.68129906 -0.53582687 -0.00000055
0.27843073 -0.31258950 0.00000000
-0.26192335 -0.38599883 0.00000000
0.24240629 0.24282220 -0.00000005
-0.30235647 0.26809269 0.00141972
-0.27503093 0.46587187 -0.00000058
0.65450508 -0.32689543 -0.00000080
-0.23189607 0.30929354 0.00160096
0.66220447 -0.71031730 -0.00000016
0.05615413 0.44364383 0.00000000
0.46919381 0.08589152 -0.00000074
-0.23636708 0.23459153 -0.00000001
0.53175573 -0.52921091 0.00000000
-0.07186592 0.67471136 -0.00000009
0.41335669 -0.69446051 0.00000000
0.06114302 -0.01556033 0.00000000
-0.24254504 0.11059832 0.00276428
-0.15862297 -0.14241364 0.00000000
-0.23336818 0.20381357 0.00000000
0.49250883 0.11095565 0.00000205
-0.19734920 -0.25648007 0.00000000
0.69400041 -0.58847249 -0.00000051
0.24885041 -0.40420742 0.00000000
-0.04433029 -0.57151156 0.00000000
-0.66210101 0.02024564 0.00072639
-0.05989472 -0.49118181 0.00000000
-0.40592906 0.16852636 -0.00000062
-0.12797680 -0.62687577 0.00000000
-0.68661809 -0.11595046 -0.00000131
0.29427009 -0.28775527 0.00000000
0.66610414 -0.28008462 -0.00000093
0.58036221 -0.55790743 -0.00000008
-0.17720163 0.30929381 0.00193937
0.21850988 -0.30374803 0.00000000
0.49016689 -0.29493627 -0.00000016
-0.11373087 -0.78846394 0.00000000
-0.22605461 0.27782775 -0.00000004
-0.44017035 0.19389357 -0.00000081
-0.53691163 -0.52025149 0.00000000
0.45378467 -0.63426877 0.00000000
-0.07581495 -0.46219356 0.00000000
-0.08482864 0.53110131 0.00113865
0.14160902 0.54514539 0.00000154
-0.23279360 0.39548558 0.00106204
0.46380049 -0.28838031 -0.00000006
-0.53375739 -0.16090658 -0.00000058
0.00285995 -0.27719238 0.00000000
-0.65752086 -0.10555999 -0.00000121
0.52798971 0.22492506 -0.00000053
-0.42710769 0.23592695 0.00084648
-0.01632876 0.69240854 0.00056451
0.59318001 -0.07130283 -0.00000099
0.24584736 0.50237294 0.00000025
0.00226982 0.20793013 0.00000000
-0.33671504 0.30259761 -0.00000056
0.04973714 0.60795582 0.00000000
-0.46409328 0.26781155 0.00042022
-0.18846081 -0.44073259 0.00000000
0.26529640 -0.68429913 0.00000000
0.22818415 -0.29814686 0.00000000
0.71967137 -0.46663013 -0.00000083
0.23317360 0.15038843 0.00000623
0.41847994 0.18990666 0.00000215
-0.27044592 -0.06464635 0.00000000
0.19495433 -0.05551458 0.00000000
0.62763821 -0.25390243 -0.00000082
-0.05546968 0.53073686 0.00000000
-0.64281791 -0.36469622 -0.00000068
-0.26250564 0.11808998 0.00259452
0.37949180 0.40966416 -0.00000093
-0.15255541 -0.35639301 0.00000000
-0.09596826 0.13014959 0.00000000
0.08717431 -0.01543748 0.00000000
0.37231463 0.00222634 0.00000618
-0.05785711 -0.46563112 0.00000000
-0.13689992 -0.15702949 0.00000000
-0.39072099 0.28488430 -0.00000076
0.33281589 -0.21207873 0.00000000
-0.31759629 0.25517032 -0.00000039
0.20075701 0.29490676 0.00000455
-0.28699479 -0.77640610 0.00000000
0.75744904 -0.32404929 -0.00000119
-0.07009873 0.23400042 0.00306737
-0.36043641 0.00476835 -0.00000013
-0.08333282 -0.19299615 0.00000000
-0.01286553 -0.67144387 0.00000000
0.14075127 -0.05306447 0.00000000
-0.01295845 -0.61029743 0.00000000
-0.05243364 -0.09458398 0.00000000
-0.14193906 0.62313816 -0.00000029
-0.27538121 0.11898959 0.00000000
-0.43668559 -0.74937712 0.00000000
0.65150830 0.13571731 -0.00000161
0.18801656 0.32914345 0.00000000
-0.77995942 -0.14663502 -0.00000163
0.52673306 0.06321913 0.00000219
0.03607424 0.69336197 0.00000000
-0.46200344 0.15355470 0.00114018
0.02245886 -0.07588302 0.00000000
-0.23519256 0.32331256 0.00149380
-0.03086251 0.10919363 0.00408195
-0.01640417 -0.21934285 0.00000000
0.11163187 0.03741086 0.00000975
-0.61101662 -0.57998719 -0.00000017
-0.10977880 -0.15616679 0.00000000
-0.26540501 -0.08165464 0.00000000
-0.21186934 -0.30677753 0.00000000
-0.38886923 0.27546181 0.00083856
-0.60673245 0.12604776 0.00041444
-0.31718979 0.32757420 0.00095982
0.22744540 0.36175380 0.00000295
-0.72898687 -0.65417722 -0.00000036
0.01314268 0.44577820 0.00000512
-0.64229823 -0.63046798 -0.00000021
0.41151760 0.30692229 -0.00000088
0.05349744 0.71944363 0.00000032
0.10187576 -0.61248431 0.00000000
0.59413753 -0.38798931 -0.00000044
-0.11581501 0.16280067 0.00000000
-0.41702208 -0.72652055 0.00000000
-0.25854323 0.00864186 0.00000000
-0.24535272 -0.68422396 0.00000000
-0.01470078 0.52773274 0.00000000
-0.43277064 -0.14111900 -0.00000018
0.31720394 0.44776902 -0.00000073
-0.25051292 -0.11769397 0.00000000
0.39398959 0.34490689 -0.00000088
-0.17919687 0.07488645 0.00000000
0.73179235 -0.17082064 -0.00000141
-0.23306287 -0.68568388 0.00000000
-0.07987959 -0.64773288 0.00000000
-0.10039584 0.55979500 0.00086490
0.23105265 -0.27893644 0.00000000
0.17780506 0.13336973 0.00000000
0.22732037 -0.48386526 0.00000000
0.40912597 0.27180708 -0.00000081
-0.68236669 -0.06947544 -0.00000138
-0.15369113 -0.13728268 0.00000000
0.14666003 0.25983906 0.00000000
0.63285766 -0.57519823 -0.00000027
0.17622285 -0.03469937 0.00000000
0.62755956 -0.04337242 -0.00000119
-0.36949592 -0.24897440 0.00000000
-0.02618937 0.73415756 0.00000000
0.39250440 0.17780039 0.00000286
0.05767513 0.50915339 0.00000349
-0.12697650 0.57002602 -0.00000014
-0.66544181 -0.30770665 -0.00000088
-0.13858970 0.09960808 0.00000000
-0.32561461 0.18892551 -0.00000031
-0.08240829 0.37708106 0.00210626
0.30635708 0.26746420 -0.00000037
0.32853502 -0.56572162 0.00000000
0.74902365 -0.19620998 -0.00000144
-0.39590955 -0.28514201 0.00000000
-0.08999698 -0.49843462 0.00000000
-0.02312786 -0.54823981 0.00000000
-0.47954762 -0.72305776 0.00000000
0.08687697 -0.35433873 0.00000000
-0.05161416 -0.51581172 0.00000000
0.56419124 0.13282728 -0.00000123
-0.18551162 0.13060402 0.00299322
-0.58018894 0.02340977 0.00121389
-0.35421956 -0.50017099 0.00000000
-0.27794540 -0.41299880 0.00000000
0.46750520 0.23585933 0.00000045
0.77894293 -0.30876369 -0.00000123
-0.25462267 0.25585383 0.00179096
0.09546825 0.37719384 0.00000490
-0.72934778 -0.24795839 -0.00000126
0.39929096 -0.74248720 0.00000000
-0.19609778 0.53083415 0.00045166
-0.74946409 -0.66815875 -0.00000033
-0.34217125 0.33086342 0.00078481
-0.23978278 0.04207763 0.00000000
0.79320560 -0.73139612 -0.00000017
0.15176363 -0.22178148 0.00000000
0.55437850 0.07924435 -0.00000109
0.13711542 0.35897824 0.00000455
-0.57545623 0.14157651 0.00051197
0.57443258 -0.50723478 -0.00000014
-0.53769738 -0.31860928 -0.00000032
0.03018941 0.75634526 0.00000015
0.06550712 -0.72265097 0.00000000
-0.18482664 0.14820556 0.00000000
0.68293588 -0.27896465 -0.00000101
0.45052263 -0.06306640 -0.00000040
0.01856765 -0.04370475 0.00000000
-0.28407266 -0.14117469 0.00000000
-0.14643145 0.38345033 0.00000000
-0.10236498 0.34340733 0.00000000
0.77357934 -0.18495774 -0.00000154
0.59029734 -0.58547348 -0.00000007
-0.41042451 -0.66599272 0.00000000
-0.09620420 0.28284889 0.00260380
0.14514323 0.26415499 0.00000000
-0.52664668 0.17489734 -0.00000114
0.09010771 -0.70546581 0.00000000
0.30007534 0.47670005 -0.00000071
-0.03694547 -0.79515711 0.00000000
0.17599422 -0.28769779 0.00000000
0.20448538 -0.24626076 0.00000000
-0.03309121 0.18062271 0.00362637
-0.11575360 0.61413357 0.00043357
-0.22328839 -0.62654231 0.00000000
0.05804066 0.05492530 0.00000000
0.42697694 -0.68665806 0.00000000
0.72977520 -0.73075559 -0.00000017
-0.61908708 -0.07562976 -0.00000109
-0.29741867 -0.49011829 0.00000000
-0.28725614 0.06428775 0.00000000
0.40227357 -0.62226470 0.00000000
-0.26571403 0.04682880 0.00000000
-0.12504322 -0.73470088 0.00000000
-0.28912561 -0.56061844 0.00000000
0.20647294 -0.11099198 0.00000000
-0.43968185 -0.46377246 0.00000000
-0.34353283 0.32714342 0.00079941
0.74363236 -0.29359745 -0.00000124
-0.76761009 -0.07087773 -0.00000174
0.53774828 -0.27732382 -0.00000039
0.14358447 0.07244208 0.00000000
-0.46286249 -0.23915518 -0.00000014
0.69735498 0.07719254 -0.00000132
-0.24379802 -0.34832666 0.00000000
-0.23858770 0.52311408 -0.00000053
-0.08375314 0.63205837 0.00052076
0.28257531 0.47787441 -0.00000064
0.28894226 0.05743060 0.00000000
-0.65564281 -0.15261275 -0.00000111
-0.46577010 -0.37003548 0.00000000
0.27441231 -0.30651216 0.00000000
0.13394644 0.30215608 0.00000545
-0.22049345 0.19245701 0.00239433
0.05828796 0.51165237 0.00000345
-0.18721797 0.26493092 0.00215183
0.71037019 -0.14721092 -0.00000136
-0.66820481 -0.34414260 -0.00000083
-0.71475953 -0.16475867 -0.00000134
0.01198122 0.62088740 0.00000000
0.02825886 -0.28333907 0.00000000
-0.37042673 -0.73321300 0.00000000
0.09559284 -0.09444269 0.00000000
0.14776370 0.15075753 0.00000751
-0.33926862 0.41324264 0.00029301
0.68145220 -0.67392748 -0.00000030
0.41245899 0.05218487 0.00000457
0.00752081 0.36978963 0.00000634
0.62120272 -0.51237686 -0.00000033
-0.66400222 -0.36630930 -0.00000077
-0.08288918 -0.15946860 0.00000000
0.06353108 0.58661913 0.00000224
0.18614315 0.43622440 0.00000250
0.45120325 0.11276069 -0.00000071
0.28834032 -0.52590138 0.00000000
-0.22261794 -0.47852809 0.00000000
0.57264479 -0.00036601 -0.00000103
-0.41059522 0.33460024 0.00033811
-0.52458502 -0.65008062 0.00000000
-0.43185647 0.32867135 -0.00000101
-0.02660261 0.55158212 0.00000000
0.77939697 -0.13745718 -0.00000166
0.20779582 -0.20155627 0.00000000
0.01422534 0.05260772 0.00000000
0.06031882 0.15050710 0.00000000
-0.15239983 -0.53953571 0.00000000
0.17788118 -0.42710539 0.00000000
-0.19238311 -0.73421335 0.00000000
0.52644610 0.14367199 -0.00000109
-0.27592293 -0.43129940 0.00000000
-0.60508528 0.09384907 -0.00000133
-0.79143178 -0.67343542 -0.00000032
0.20765694 -0.75665328 0.00000000
-0.46510173 -0.32632485 0.00000000
0.43317339 -0.13161207 -0.00000020
-0.40860450 -0.26851215 0.00000000
0.02713850 -0.13964559 0.00000000
0.52033126 -0.35713627 -0.00000018
0.58146383 0.19279156 -0.00000102
-0.55303571 0.16103288 -0.00000123
-0.05566203 0.21171602 0.00000000
0.47703385 0.08368073 -0.00000077
-0.27195325 0.17546780 0.00218111
0.02160758 -0.46068774 0.00000000
-0.30916897 0.47280275 -0.00000074
0.28711571 0.36119548 0.00000182
-0.11343871 0.23780043 0.00000000
-0.11422080 0.66943999 0.00010082
-0.35926643 0.25075770 0.00117469
0.10281347 0.19894581 0.00000746
0.32820119 -0.27986891 0.00000000
0.51096350 -0.68672641 0.00000000
-0.21052393 0.38165700 0.00128547
0.77052663 -0.59713602 -0.00000051
-0.57529350 0.08014453 0.00089312
-0.13611880 0.02301250 0.00396413
0.24637800 -0.24699885 0.00000000
0.04610216 0.36633442 0.00000000
0.23540486 0.41232502 -0.00000032
0.09870214 0.07279715 0.00000000
0.52036905 -0.11628432 -0.00000060
0.67721536 0.06454839 -0.00000159
0.02171102 -0.11913799 0.00000000
0.73365187 0.05533915 -0.00000165
0.40128202 -0.49243556 0.00000000
-0.09113556 -0.08977797 0.00000000
-0.06723785 0.46328900 0.00000000
0.48947686 -0.54247331 0.00000000
-0.54973828 -0.19373134 -0.00000059
-0.43502842 0.13384896 0.00142912
0.04609184 -0.47736551 0.00000000
-0.56391567 0.15060934 -0.00000126
0.06191623 0.39833033 0.00000509
0.41378812 0.19768204 0.00000211
0.05399950 0.11525621 0.00000000
0.08369939 0.53785233 0.00000267
0.58205145 0.08634565 -0.00000122
-0.44560413 -0.42411466 0.00000000
-0.29995730 -0.33117767 0.00000000
-0.49271976 -0.21133637 -0.00000032
0.06726938 -0.52854781 0.00000000
-0.03436331 -0.38348309 0.00000000
-0.26980198 -0.23831517 0.00000000
0.79253816 -0.63562200 -0.00000041
0.48770247 -0.51405925 0.00000000
-0.51177421 0.01975525 0.00166004
0.01862930 0.71807432 0.00000095
-0.55189750 0.02835522 -0.00000099
0.09746245 0.56261556 0.00000209
0.76880022 -0.31134651 -0.00000122
-0.41734755 -0.60189415 0.00000000
-0.15232877 0.58090520 0.00041277
-0.76829686 -0.74531105 -0.00000014
0.29339593 0.17908490 -0.00000015
0.08572198 0.16614435 0.00000821
-0.30655525 0.01320611 0.00297086
-0.49332106 0.00290718 0.00187853
-0.62319973 0.12178575 -0.00000146
-0.04558397 -0.26816464 0.00000000
0.20289747 0.35022517 0.00000362
-0.48993150 -0.30568351 -0.00000014
-0.68578374 -0.08967773 -0.00000135
-0.01580713 0.03928913 0.00460743
0.61483611 -0.08618174 -0.00000106
0.29660844 0.39778480 0.00000102
-0.21270891 0.17386124 0.00000000
0.31968097 0.02678441 0.00000000
0.44422289 0.15828989 -0.00000076
0.16201993 0.29642326 0.00000000
-0.33247660 0.08592974 0.00236050
-0.01589781 0.16142237 0.00000000
0.16744018 -0.08084700 0.00000000
-0.31965724 -0.29331224 0.00000000
0.03556641 0.33279711 0.00000647
0.39663889 0.23153262 0.00000188
0.56489349 0.10821528 0.00000071
-0.22796972 0.25146733 -0.00000000
-0.39102221 -0.02361175 -0.00000021
0.24781323 -0.33908782 0.00000000
0.37888557 0.24755203 -0.00000064
0.57022273 -0.06311124 -0.00000091
0.16623163 -0.11420286 0.00000000
-0.01342094 0.41648909 0.00000000
0.75970525 -0.26562580 -0.00000134
-0.55672098 -0.75472882 0.00000000
0.29010356 -0.27359884 0.00000000
0.11489565 -0.65578818 0.00000000
0.03314979 0.55551201 0.00000317
0.22318137 0.42982404 0.00000190
-0.30451591 0.07103528 0.00262576
0.50965167 -0.41048980 -0.00000004
0.65959095 -0.01628470 -0.00000137
0.63439266 -0.57588876 -0.00000028
0.27377038 0.31732834 -0.00000032
-0.25568620 -0.02629307 0.00000000
0.19765682 -0.39692713 0.00000000
-0.59289314 0.15302801 -0.00000139
0.21133181 0.07374156 0.00000771
0.32503549 -0.20784181 0.00000000
0.49440373 0.09161022 -0.00000086
0.68706872 -0.09745968 -0.00000135
0.00391573 0.70793871 0.00000000
-0.09196582 0.47177989 0.00146143
-0.70132124 -0.77005259 -0.00000007
0.12017835 0.14739981 0.00000798
0.47875909 -0.58292659 0.00000000
-0.14573671 0.44023324 0.00000000
0.19822075 -0.30456688 0.00000000
0.07355956 -0.33663355 0.00000000
0.52136724 0.16256408 0.00000064
0.36355276 0.02604573 -0.00000018
-0.12879909 0.44297143 0.00000000
-0.59564902 0.19105135 0.00008081
-0.37697765 -0.35925006 0.00000000
-0.76314531 -0.43085666 -0.00000092
-0.47545997 -0.35810032 0.00000000
-0.61577696 -0.56563965 -0.00000021
0.61381472 -0.54245386 -0.00000025
0.56661280 0.16548422 -0.00000028
-0.67834309 -0.47084291 -0.00000065
0.15678442 0.56840818 -0.00000026
-0.38027932 0.23273470 -0.00000062
0.16539796 -0.43817085 0.00000000
-0.11996749 0.43379274 0.00000000
0.25021815 0.10094527 0.00000000
0.51319466 0.18383790 -0.00000110
-0.70777290 -0.17861604 -0.00000129
0.31854223 -0.50079145 0.00000000
0.08953854 0.11307396 0.00000000
-0.67859239 -0.05962565 -0.00000138
-0.07045093 0.13512768 0.00000000
-0.28347898 -0.79656916 0.00000000
0.52126191 -0.52902528 0.00000000
0.09501102 -0.11397311 0.00000000
0.21352291 0.06792940 0.00000000
0.26796257 0.02639656 0.00000756
-0.19502650 -0.38583155 0.00000000
-0.10597624 -0.76494142 0.00000000
0.07517637 0.24415897 0.00000000
-0.43933251 -0.74714866 0.00000000
0.51944011 0.20752958 -0.00000008
0.74190630 0.02061205 -0.00000179
-0.25215222 0.00989083 0.00332777
0.19177577 -0.76560193 0.00000000
0.44761401 -0.38805437 0.00000000
-0.74760250 -0.46400962 -0.00000084
0.46350969 0.05243397 -0.00000066
-0.34149754 -0.29012705 0.00000000
-0.68675631 -0.16359105 -0.00000123
0.35904003 0.13270389 -0.00000035
0.24993349 0.35275706 -0.00000028
-0.59542537 0.08863448 -0.00000128
-0.56763858 -0.35891710 -0.00000037
-0.01042385 0.20101577 0.00000000
-0.01637776 0.09769043 0.00424267
0.40939027 -0.74456873 0.00000000
0.78958606 -0.76543567 -0.00000009
-0.59059277 0.06600075 0.00088593
-0.57837225 -0.51649334 -0.00000014
0.20190052 0.19738180 0.00000000
-0.31923674 -0.11474174 0.00000000
-0.60082186 -0.50008514 -0.00000027
-0.30663577 -0.03316597 0.00000000
0.39488598 -0.52400795 0.00000000
0.32830734 0.15371110 -0.00000026
0.09323279 -0.17960129 0.00000000
-0.01586402 0.20038812 0.00000000
-0.53250557 -0.20095256 -0.00000050
0.26692886 -0.48783552 0.00000000
0.71478340 -0.07235494 -0.00000151
0.46485508 0.00235910 -0.00000057
0.40646686 0.19884915 0.00000224
-0.11685676 0.19508159 0.00301895
0.53353566 -0.20064613 -0.00000051
-0.24459311 -0.78280920 0.00000000
-0.53696192 -0.16009158 -0.00000059
0.09349399 -0.72211712 0.00000000
-0.20622295 0.08442746 0.00315076
-0.53805533 -0.01466713 -0.00000086
0.14272030 -0.16948856 0.00000000
-0.69359749 -0.40366417 -0.00000083
0.42433774 -0.17728934 -0.00000008
-0.31346440 -0.52936413 0.00000000
-0.04249383 0.32124581 0.00269844
-0.13685559 -0.36894560 0.00000000
-0.02592043 -0.55048221 0.00000000
0.40110968 -0.05242113 -0.00000020
-0.60872334 -0.54310881 -0.00000022
0.52683861 0.11199512 0.00000138
-0.07836785 0.13802465 0.00360987
-0.14785799 -0.65375976 0.00000000
-0.50769427 -0.33199626 -0.00000017
-0.71790291 0.01641640 -0.00000168
-0.45758686 0.26576856 0.00047314
-0.53132184 0.02725291 -0.00000090
-0.36238408 -0.09851239 0.00000000
-0.56215851 -0.71127026 0.00000000
-0.14242976 0.30277740 0.00219469
0.21890635 -0.43428673 0.00000000
-0.44108360 -0.11226917 -0.00000027
-0.38215236 0.27538223 -0.00000070
-0.48859582 -0.36889054 -0.00000002
-0.08532165 -0.26732513 0.00000000
-0.16741835 -0.79697411 0.00000000
-0.25252958 0.31238983 -0.00000022
0.11520407 0.06675156 0.00000926
-0.38572206 -0.70475414 0.00000000
0.57527122 0.21480864 -0.00000142
0.76672020 -0.36715080 -0.00000108
0.10058902 0.17203611 0.00000000
0.21261967 -0.05371747 0.00000000
-0.79809331 -0.56186961 -0.00000060
0.56071496 0.02559131 0.00000217
-0.69828800 -0.65607851 -0.00000036
0.01295481 -0.78662701 0.00000000
