ply
format ascii 1.0
element vertex 1401
property float x
property float y
property float z
end_header
-0.19258013 0.38810765 -0.00000009
-0.22002734 -0.01668392 0.00000000
0.54650305 -0.08271801 0.47506237
0.42856482 -0.26853073 0.37254191
-0.48150009 -0.01973082 -0.00000061
0.08094379 0.58088060 0.07036491
-0.04895380 0.33117947 0.00000000
0.22852384 -0.40822804 0.19865093
0.57024182 -0.44308773 0.49569834
0.49972565 -0.50433208 0.43440052
-0.59126227 -0.33235649 -0.00000052
-0.72499847 -0.04627540 -0.00000160
-0.48863313 -0.23309279 -0.00000026
0.15325741 0.49464837 0.13322317
0.23144359 0.39756526 0.20118856
-0.49002150 -0.46963142 0.00000000
-0.05794925 0.56250346 0.00000269
0.36096404 -0.08827772 0.31377803
0.24073320 0.29310684 0.20926392
-0.00813416 0.35982597 0.00000000
0.20692946 -0.25602582 0.17987939
0.21996051 0.38426548 0.19120912
0.11660020 -0.56088387 0.10135808
0.46702109 -0.56920057 0.40597137
-0.79886322 -0.41618921 -0.00000096
0.02390925 0.09290955 0.02078380
0.39727011 0.16999096 0.34533971
-0.00638955 0.71576762 0.00000117
-0.67107062 -0.70796215 -0.00000020
0.02891312 -0.52830607 0.02513356
0.49799512 -0.20297347 0.43289582
-0.28345512 0.13143206 0.00000572
0.20933582 0.52024762 0.18197068
0.19824673 0.06908975 0.17234107
0.50358505 -0.38830284 0.43775525
0.18275378 -0.77364489 0.15886398
0.10278656 0.40921582 0.08935018
-0.39670774 -0.15832799 0.00000000
0.01202610 0.20553304 0.01046557
-0.24573375 0.12748803 0.00000000
0.43487488 -0.02912064 0.37802677
-0.39107294 0.27754668 0.00000122
0.32719233 -0.64316804 0.28442136
-0.11724205 -0.29281345 0.00000000
0.04275776 -0.59865035 0.03716841
-0.49711221 0.10114428 -0.00000089
0.12404135 0.31640891 0.10783292
-0.27125868 0.34692800 0.00000236
0.07128500 -0.17468384 0.06196654
-0.03203972 -0.74095740 0.00000000
0.45123839 0.06360160 0.39225103
-0.17841139 0.00161588 0.00000928
0.55252926 -0.20087216 0.48030096
0.18418345 -0.19326349 0.16010677
-0.19118581 -0.19522059 0.00000000
0.19156262 0.31635992 0.16652115
-0.63235412 -0.37645383 -0.00000062
-0.33878999 0.08303431 -0.00000018
0.00870601 0.76699630 0.00756838
-0.11250772 0.02550888 0.00000992
0.36197671 -0.36254399 0.31465868
-0.38670168 0.39046201 -0.00000059
-0.11817223 0.08335207 0.00000000
-0.30616299 0.38252873 -0.00000057
-0.63479454 0.03811998 0.00000054
-0.31255199 -0.75638884 0.00000000
0.01517837 0.07483148 0.01319423
-0.12471579 -0.03702360 0.00000000
-0.18335985 -0.15337459 0.00000000
-0.50371524 -0.32538661 -0.00000016
-0.30885899 0.34061023 -0.00000051
-0.51682999 0.07196749 -0.00000092
-0.36756928 0.01366818 0.00000608
0.11605256 -0.48347061 0.10088203
-0.19340881 -0.68861112 0.00000000
-0.16277109 -0.51275428 0.00000000
-0.06659202 0.12203681 0.00000916
-0.20897522 0.44557813 -0.00000027
-0.25088497 0.05805678 0.00000734
0.03635403 0.63008747 0.03160179
-0.58659752 -0.76472461 0.00000000
0.02936727 -0.12665079 0.02552834
-0.08961801 0.15190321 0.00000837
-0.11574338 0.01713527 0.00000000
-0.79603043 -0.32986235 -0.00000118
0.04007249 0.17446377 0.03483417
0.13339411 0.03501547 0.11595668
0.22459612 -0.70044230 0.19523665
-0.00814034 0.19871186 0.00000000
0.37718594 0.22527763 0.32787890
-0.56073875 -0.68522562 0.00000000
0.04889916 -0.22643204 0.04250700
0.04810853 -0.21454013 0.04181972
-0.08890262 0.18758633 0.00000000
0.50135578 -0.74086615 0.43581787
-0.42725701 -0.15203110 -0.00000014
0.35020030 0.15487985 0.30442106
-0.45601155 -0.13914564 -0.00000029
-0.17438668 -0.58305098 0.00000000
0.41265088 -0.48324955 0.35870861
0.45338355 0.09370754 0.39411784
-0.09813100 0.01339118 0.00000000
-0.21846366 0.39726785 0.00000253
-0.16952902 0.07125115 0.00000837
-0.15741157 0.01176796 0.00000000
0.27924251 0.20559620 0.24273920
-0.04559357 0.07139783 0.00000000
-0.53112313 0.14811282 -0.00000111
-0.11769156 0.39634733 0.00000000
-0.22183523 -0.15049193 0.00000000
-0.16662585 0.19968668 0.00000649
-0.11079025 0.22948926 0.00000000
-0.20752008 0.42078911 -0.00000022
-0.41101209 -0.60096301 0.00000000
-0.31502678 -0.36668998 0.00000000
-0.64056427 -0.64707256 -0.00000018
-0.49701471 -0.13263695 -0.00000047
-0.15474186 0.16594672 0.00000000
-0.03876145 0.19971363 0.00000842
-0.66854295 0.01744451 0.00000023
0.19078852 -0.34427538 0.16584841
0.24977693 -0.01340533 0.21712579
-0.74041500 -0.24848571 -0.00000131
-0.64851431 0.01644947 -0.00000138
0.00866946 0.44084232 0.00753617
-0.42352921 0.15180659 -0.00000066
0.19166096 -0.22162377 0.16660681
0.06314476 0.07515503 0.05490320
0.41439565 -0.75934236 0.36022535
0.53907934 -0.62250738 0.46860983
0.59583184 -0.40215029 0.51794303
0.44833503 -0.76517497 0.38972814
0.04338690 0.72582241 0.03771556
0.55063727 -0.05221182 0.47865610
-0.27771611 0.39829743 -0.00000048
0.02251541 -0.41403805 0.01957217
0.00730949 0.72398068 0.00635531
-0.41219100 0.11041002 0.00000360
0.12573506 0.29123175 0.10930567
-0.74387274 -0.57052516 -0.00000057
0.05370456 0.03078190 0.04669817
0.05576463 0.37148796 0.04847501
0.58884172 -0.67517003 0.51186705
0.18303469 0.53197268 0.15910827
-0.68541124 -0.78346359 -0.00000004
-0.40578876 -0.25655224 0.00000000
0.37956174 0.17110990 0.32994673
0.07790041 0.06232795 0.06771718
0.22224431 0.39481817 0.19319409
0.35591734 0.32356945 0.30939062
-0.30443570 -0.23604568 0.00000000
0.53108566 -0.46231366 0.46166092
-0.70028105 -0.64433501 -0.00000039
0.43960276 0.06711368 0.38213646
0.07245192 0.05202396 0.06298091
0.07979036 0.33790149 0.06936719
0.35098337 0.01935885 0.30510195
0.16709242 0.23265184 0.14525684
0.06675368 -0.44604911 0.05802756
0.01751632 0.12312157 0.01522657
-0.03175574 0.54535414 0.00000334
0.48258838 -0.44160081 0.41950344
-0.43021805 0.29268365 0.00000021
-0.20144445 -0.07252869 0.00000000
0.05962213 0.54536862 0.05182825
0.04207400 0.28249528 0.03657404
0.06159939 0.49578914 0.05355150
-0.33080728 0.34584268 0.00000123
-0.21129071 -0.26449205 0.00000000
-0.11500146 -0.09330560 0.00000000
0.13033283 -0.17149752 0.11329557
0.05050582 0.57144381 0.04390687
0.44670269 0.00481069 0.38831242
0.06847745 0.38039533 0.05952600
-0.13684676 -0.74696585 0.00000000
0.29278817 0.24415551 0.25451404
-0.41860808 0.26632646 -0.00000084
0.18176977 0.54110021 0.15800854
-0.08242694 0.63823435 -0.00000007
-0.04060126 0.32315999 0.00000654
-0.21555008 -0.26960288 0.00000000
-0.22522120 0.56799280 -0.00000045
-0.67858954 -0.03584994 -0.00000142
-0.60652692 -0.46049488 -0.00000036
-0.12586421 0.56839351 0.00000145
0.02466002 0.25759191 0.02143643
-0.08642693 0.46384710 0.00000374
-0.00959488 0.12305391 0.00001001
0.33165584 -0.74971868 0.28830139
0.35690265 0.17686278 0.31025023
-0.55504018 0.12091431 0.00000068
-0.29779535 -0.63133813 0.00000000
-0.38069140 -0.46775981 0.00000000
0.22728991 -0.32796391 0.19757830
-0.64954320 -0.09240632 -0.00000119
0.50535047 -0.77034395 0.43929038
0.25863270 0.21426846 0.22482360
0.43558246 -0.76307783 0.37864259
0.42196897 -0.12190290 0.36680812
-0.37984703 -0.24568640 0.00000000
0.37169436 -0.37051329 0.32310600
0.23284959 0.13174415 0.20241833
-0.44173236 -0.70849738 0.00000000
0.42256067 0.23124521 0.36732199
-0.10963309 0.18876622 0.00000751
0.48420410 -0.57939997 0.42090814
-0.61978046 0.02227934 0.00000109
-0.69677580 -0.66479010 -0.00000034
0.32355182 0.15998816 0.28125622
0.30883302 -0.40588756 0.26846200
0.45426916 0.09825920 0.39488756
0.16623944 -0.09749851 0.14450842
-0.57573748 -0.52004298 -0.00000012
0.18049548 0.41903371 0.15690063
0.07340652 -0.79304658 0.06381074
0.40154899 -0.65067275 0.34905803
0.03310464 0.59232183 0.02877716
0.27960881 -0.06223779 0.24305796
0.19097325 0.20505008 0.16600897
-0.08997153 0.30935048 0.00000000
-0.68683080 -0.44408474 -0.00000073
-0.26403130 0.43496828 0.00000103
-0.12231175 0.39448037 0.00000424
0.20580008 0.47629815 0.17889720
-0.10874576 0.66752856 0.00000012
-0.68113921 -0.41165870 -0.00000077
0.12679667 0.11019251 0.11022166
-0.23628282 0.33806777 -0.00000019
-0.26357954 -0.78805909 0.00000000
0.26780253 0.06001649 0.23279491
0.26190397 0.42580303 0.22766750
-0.54190714 -0.33617509 -0.00000030
0.23757867 -0.19062311 0.20652210
-0.33970984 0.12327118 0.00000478
0.49534302 0.09161438 0.43059002
-0.58475109 0.04404120 -0.00000116
0.11400869 0.20376433 0.09911424
0.55334006 -0.22400488 0.48100579
0.42516637 -0.19902722 0.36958763
0.49268119 -0.21148181 0.42827656
0.09276322 0.11099476 0.08063710
0.41955725 -0.70438582 0.36471222
-0.02522892 0.11342198 0.00000000
0.10121765 -0.74899608 0.08798636
0.25352639 -0.08580039 0.22038511
0.14220512 0.14803106 0.12362518
-0.25189374 -0.33276126 0.00000000
0.15096312 0.50396044 0.13123072
-0.79282198 -0.10270506 -0.00000174
0.57608634 -0.04241548 0.50077832
0.07764874 -0.41032021 0.06749841
0.08555157 -0.75938739 0.07436816
0.13728466 -0.26594989 0.11933864
-0.41963623 -0.10824154 -0.00000019
0.02959981 -0.25597046 0.02573049
-0.38627719 0.23991740 0.00000194
-0.42593197 -0.05248916 -0.00000031
-0.44831375 -0.45232317 0.00000000
0.19222020 0.54161426 0.16709247
-0.62063223 -0.64052538 -0.00000010
0.29041591 0.35401412 0.25245176
-0.29810498 -0.23378112 0.00000000
0.08552923 0.10501942 0.07436037
0.46776995 -0.66252331 0.40662245
-0.43203594 0.04667746 0.00000429
-0.08556007 -0.50697153 0.00000000
-0.24971457 -0.64376267 0.00000000
-0.09894865 0.31706537 0.00000575
-0.16635506 0.06723308 0.00000000
0.26471935 -0.33168006 0.23011491
0.24117388 -0.02309752 0.20964734
0.37393988 -0.21654319 0.32505777
0.01047088 0.61233939 0.00910558
-0.79454638 -0.61446074 -0.00000046
-0.43389628 -0.16491092 -0.00000015
0.36090597 -0.22419773 0.31372773
-0.16605962 0.29344996 0.00000509
-0.07143394 -0.33466703 0.00000000
-0.12857237 -0.48765516 0.00000000
0.04158403 0.23470293 0.03614812
0.29726657 -0.22627753 0.25840752
-0.00919566 0.67238747 0.00000000
0.56716155 -0.70353669 0.49302108
-0.69065317 -0.17830503 -0.00000122
0.12510568 -0.47160429 0.10875172
0.11227972 0.09098501 0.09761359
0.35356895 0.10619214 0.30734941
0.40795786 0.06559939 0.35463225
0.04072156 -0.33545226 0.03539839
-0.24067203 -0.40426040 0.00000000
0.11017857 0.13259043 0.09578632
0.35598821 0.25182868 0.30945375
-0.26636591 0.10785838 0.00000000
0.12700599 0.43200452 0.11040757
-0.31499757 -0.57881507 0.00000000
0.05580336 -0.11825421 0.04850867
0.06837289 0.50401561 0.05943922
0.23925294 0.41813448 0.20797830
-0.08807639 -0.07803231 0.00000000
0.31887364 -0.68088591 0.27719010
-0.55917002 -0.63314658 0.00000000
-0.36625380 0.37453394 0.00000007
0.13811538 -0.05927673 0.12006077
-0.58509850 -0.75468474 0.00000000
-0.21103458 -0.65975145 0.00000000
-0.11543022 -0.03999005 0.00000000
0.16997365 -0.43556099 0.14775449
-0.60420105 -0.31802068 -0.00000060
-0.44728723 0.09428162 0.00000320
-0.39548070 0.25056986 0.00000158
-0.76543313 -0.36499230 -0.00000109
0.59601367 -0.15712374 0.51810079
0.43008674 0.17301613 0.37386429
0.04378161 0.10798836 0.03805843
0.20697553 0.14275133 0.17991943
-0.10231170 -0.34271173 0.00000000
-0.08776703 0.67713806 -0.00000016
-0.14207199 -0.40382151 0.00000000
0.00333315 0.24374762 0.00290844
-0.21913086 -0.32069996 0.00000000
0.46903624 -0.46339953 0.40772294
0.06222827 0.24686615 0.05409371
-0.09580903 -0.15987563 0.00000000
-0.23685218 -0.21866175 0.00000000
-0.10039296 0.06008809 0.00000958
0.53000163 -0.40704752 0.46071853
0.29043799 0.30567209 0.25247102
0.40101167 -0.03711508 0.34859035
-0.58606189 -0.17640974 -0.00000078
-0.06300969 -0.50487645 0.00000000
-0.50004551 -0.21523569 -0.00000034
-0.60709158 0.17573300 -0.00000149
0.48891728 -0.61766516 0.42500523
-0.20465852 0.03054352 0.00000845
-0.69203790 -0.62107182 -0.00000044
0.07657860 0.46031024 0.06656815
-0.53326911 -0.53940480 0.00000000
-0.41731648 -0.06036436 -0.00000026
0.10464259 0.10855172 0.09097464
-0.56575333 -0.11380254 -0.00000080
0.59313353 -0.35695366 0.51559741
0.25104393 0.00102211 0.21823653
0.32411352 0.23981012 0.28174438
0.12004726 0.42168063 0.10435893
-0.05925247 0.16605083 0.00000000
-0.13477451 -0.36036401 0.00000000
0.18628775 0.49793516 0.16193560
-0.27828586 0.21272501 0.00000447
0.15586167 0.08701501 0.13548724
-0.07160381 -0.52730691 0.00000000
-0.58057896 -0.35436638 -0.00000044
-0.23624157 0.32948426 -0.00000018
-0.22490222 0.27678481 -0.00000003
0.13492498 -0.12992994 0.11728743
-0.61630858 -0.00687096 -0.00000120
-0.08019508 0.14922888 0.00000855
-0.40637452 0.13630695 -0.00000056
-0.14192866 -0.52581665 0.00000000
-0.76395060 -0.00241021 -0.00000184
-0.74267438 -0.01430793 -0.00000173
-0.21975915 0.05498436 0.00000786
0.11625587 0.45015739 0.10106267
0.54870380 -0.54854535 0.47697604
-0.53390438 -0.33460355 -0.00000027
0.11942443 -0.07508113 0.10381313
-0.10830601 -0.71558836 0.00000000
0.34291247 -0.16639137 0.29808636
-0.21008022 0.06733259 0.00000782
0.19219542 0.36725867 0.16707116
0.10648994 -0.70651253 0.09256944
-0.12729918 0.24383738 0.00000000
-0.35076622 -0.50173701 0.00000000
-0.10905543 -0.69730445 0.00000000
0.32499967 0.30720237 0.28251584
0.52464545 0.05428693 0.45606295
0.10521631 0.17088116 0.09147210
-0.76042291 -0.28690312 -0.00000128
0.36133339 -0.20407457 0.31409926
0.31054329 -0.52551391 0.26994869
-0.40701970 0.33803925 -0.00000092
0.00352007 0.21819804 0.00305992
-0.16570323 0.50541774 0.00000174
-0.54869032 0.16485297 -0.00000122
-0.22963590 0.47117040 0.00000108
-0.36656689 -0.00730332 -0.00000014
0.43396167 0.22151098 0.37723261
-0.34761341 -0.48879857 0.00000000
0.25722316 0.44331707 0.22359802
0.05419485 -0.32544584 0.04711043
-0.08483780 -0.68437939 0.00000000
-0.75345963 -0.39378735 -0.00000102
-0.62197674 -0.21237774 -0.00000086
0.43525157 -0.77869021 0.37835496
0.01308029 0.69820040 0.01137042
0.55749008 -0.25349924 0.48461334
-0.07556019 -0.06353456 0.00000000
-0.02784209 0.27042155 0.00000000
0.40909543 0.13973914 0.35561949
-0.59404374 -0.28458763 -0.00000062
0.02159792 0.63081729 0.01877461
0.29158665 -0.67652693 0.25347009
0.18079555 0.41356497 0.15716444
-0.26706214 -0.26230800 0.00000000
0.35350968 -0.37118177 0.30729847
0.06449436 -0.68392813 0.05606358
-0.36710225 -0.37120061 0.00000000
0.55822926 -0.25388556 0.48525589
0.37650185 -0.76800457 0.32728507
-0.28957409 -0.00296782 0.00000000
0.10583580 0.23502441 0.09200931
0.24591210 -0.61783024 0.21376617
0.32926984 0.02190899 0.28622693
0.57517720 -0.71414982 0.49998889
0.36374130 -0.38697678 0.31619259
0.40230599 0.21397846 0.34971620
-0.22734510 0.32746180 -0.00000013
-0.00356539 0.63568307 0.00000241
-0.34107774 0.41018082 -0.00000077
0.58145691 -0.55050796 0.50544747
-0.13919256 -0.58177187 0.00000000
0.41391139 -0.40965004 0.35980425
0.03053397 0.51015054 0.02654751
-0.20020387 -0.78338750 0.00000000
-0.08088044 -0.58431626 0.00000000
-0.50421308 -0.79001416 0.00000000
-0.65299838 0.12217329 -0.00000122
0.24326532 0.25392345 0.21146957
-0.12097893 0.04716601 0.00000000
0.07316312 0.65979794 0.06359903
-0.49896016 -0.47286205 0.00000000
0.47244456 0.08772704 0.41068498
-0.63130857 -0.63781243 -0.00000015
0.21765798 0.28990254 0.18920522
-0.23373058 0.55293480 -0.00000056
-0.06936611 0.68977027 0.00000051
-0.19501331 -0.12726709 0.00000000
-0.47639577 0.08202577 0.00000284
0.29569655 0.34386455 0.25704209
-0.40781635 -0.48404283 0.00000000
0.09621377 0.27049456 0.08364463
0.49198645 0.07601285 0.42767371
0.07800584 -0.23549334 0.06780882
-0.07966822 0.07704127 0.00000964
0.13281587 0.37229002 0.11545907
0.00296867 0.37492838 0.00258061
0.02326878 -0.32773425 0.02022706
-0.18583771 0.07413264 0.00000000
-0.28887119 -0.57674334 0.00000000
-0.49175335 0.17751661 -0.00000100
-0.25640429 0.19906428 0.00000511
0.04648091 0.34097207 0.04041280
-0.22764398 0.15543739 0.00000000
0.34133577 -0.58034121 0.29671595
-0.45601771 0.08747087 0.00000314
0.23590565 0.14070725 0.20506765
0.33345168 0.13712124 0.28986638
0.36162349 -0.10499712 0.31435130
-0.63020128 0.02791978 0.00000079
-0.23465756 0.38095260 -0.00000026
-0.01353278 -0.52430612 0.00000000
0.19199102 0.43768727 0.16689556
-0.05827965 -0.05743758 0.00000000
-0.08161655 0.70345713 0.00000005
0.04924246 -0.25956951 0.04280543
-0.68697027 -0.45264852 -0.00000072
0.27502915 0.23954234 0.23908053
-0.03675402 0.31544652 0.00000000
0.08468236 -0.07349513 0.07361258
0.10576382 0.39574998 0.09194354
0.36238100 0.04034721 0.31500959
-0.14439286 -0.01303317 0.00000000
0.42925633 -0.45742721 0.37314327
-0.71753948 -0.47325844 -0.00000081
0.14993626 -0.72883828 0.13033641
0.43606579 -0.42355820 0.37906252
0.01726442 0.14332560 0.01500760
0.20180359 -0.29641526 0.17542358
-0.26662219 -0.09252602 0.00000000
-0.43479192 0.23838465 0.00000103
-0.68613232 -0.78175136 -0.00000005
-0.55900866 -0.75338576 0.00000000
0.06485202 0.51974675 0.05637448
0.47567323 -0.44322084 0.41349228
-0.30935988 -0.01222869 0.00000000
0.31845927 0.31963644 0.27683035
-0.63968041 0.12000197 -0.00000153
-0.02287034 0.16952265 0.00000911
-0.06479725 0.38213586 0.00000529
-0.54821219 0.11671904 -0.00000113
-0.40051678 0.01200949 0.00000547
0.00596977 -0.46186527 0.00518939
0.20482773 0.46837553 0.17805198
-0.73492386 -0.50564423 -0.00000074
-0.44410708 -0.06990452 -0.00000036
0.28007569 -0.70047828 0.24346386
-0.32558116 0.18404918 0.00000404
0.10546351 0.57775943 0.09167870
0.04604593 0.29789945 0.04002675
0.06315045 -0.08682416 0.05489535
-0.17728475 -0.52950956 0.00000000
0.40954434 -0.27111499 0.35600790
0.30083225 -0.40915533 0.26150710
-0.20986531 -0.07952449 0.00000000
0.47806048 -0.01261334 0.41556689
0.24597846 -0.63066921 0.21382386
-0.27129090 0.48441086 0.00000006
-0.07718845 -0.69069304 0.00000000
-0.30435788 0.03524393 0.00000688
-0.32150811 0.27773057 -0.00000045
-0.35899527 0.40406660 -0.00000028
-0.05118712 0.41654228 0.00000498
0.40363760 -0.04161119 0.35087302
0.22669469 -0.16516004 0.19706089
0.27278364 0.21455207 0.23712915
0.12118405 -0.39946590 0.10534273
-0.17657456 -0.75061062 0.00000000
-0.14289377 -0.77921510 0.00000000
0.33645516 -0.21351610 0.29247326
0.02198385 -0.30022239 0.01911009
-0.64045386 -0.62278121 -0.00000022
0.41928391 0.09541595 0.36447377
0.09073781 -0.45568483 0.07887646
-0.12467545 -0.07458600 0.00000000
0.40443299 -0.12033160 0.35156453
-0.16539990 0.38235430 0.00000000
0.35553367 -0.14461197 0.30905763
-0.32775094 0.08167134 0.00000571
0.00452623 -0.63605231 0.00393455
0.07154175 0.06427033 0.06220252
0.29334921 0.31108187 0.25500366
0.54743592 -0.05647161 0.47587325
0.13989184 -0.18283326 0.12160501
0.08525840 0.01059452 0.07412683
0.47921073 -0.18858045 0.41656701
0.13038195 -0.25809021 0.11333826
0.20044247 -0.75471843 0.17424039
-0.10168579 0.07219984 0.00000938
-0.32208049 0.18618494 0.00000407
0.02532063 0.51176545 0.02201068
-0.17303907 -0.14747195 0.00000000
-0.44360297 0.26523476 0.00000041
0.09767534 -0.71917116 0.08490710
-0.74539047 -0.26910914 -0.00000129
-0.25074172 -0.42405253 0.00000000
-0.13796740 -0.20508056 0.00000000
-0.05926358 -0.36004522 0.00000000
-0.28953450 -0.76482356 0.00000000
-0.48830236 0.30246731 -0.00000120
0.31743710 0.03070923 0.27594802
0.12172634 -0.02881756 0.10581412
0.35171060 0.08205477 0.30573403
0.17634776 0.14367602 0.15329537
-0.78667059 -0.34873760 -0.00000113
0.03857361 -0.24678357 0.03353123
0.28145649 -0.75440954 0.24466416
0.28556060 0.11480253 0.24823148
-0.15416580 0.10607018 0.00000808
-0.50616588 -0.20086141 -0.00000039
0.17555818 -0.47300319 0.15260901
-0.11384594 0.12229463 0.00000845
-0.34711570 0.16070000 0.00000401
-0.31478426 0.11015218 -0.00000012
0.56170717 -0.67831458 0.48827969
-0.09201278 0.13917796 0.00000852
-0.20814582 0.02086865 0.00000000
0.25968529 -0.48336130 0.22573891
-0.10414971 -0.63459661 0.00000000
0.52038085 -0.14072978 0.45235508
-0.51463173 -0.70060183 0.00000000
0.36328450 -0.76689254 0.31579551
0.02370119 0.39460372 0.02060294
0.29649206 -0.71760861 0.25773426
0.22203930 -0.20799377 0.19301406
-0.06553824 0.48349183 0.00000000
-0.03029766 0.37920843 0.00000585
-0.22260445 0.06685807 0.00000764
0.08010781 0.04743587 0.06963602
-0.28032538 0.23199887 -0.00000019
-0.30062343 -0.14388561 0.00000000
0.35459408 0.20030508 0.30824302
-0.42120068 -0.75374033 0.00000000
-0.20937041 -0.10145102 0.00000000
0.10501315 0.32652232 0.09129240
-0.22886648 0.18334807 0.00000580
-0.30524066 0.06961621 -0.00000001
-0.18196730 0.56471649 -0.00000036
-0.26127476 0.08379435 0.00000000
-0.10471341 0.19173957 0.00000754
0.11649066 0.28589713 0.10126286
-0.17185430 0.23756606 0.00000000
-0.08814752 0.63282752 0.00000110
0.00173851 0.21277234 0.00152292
-0.23413056 0.15315886 0.00000000
-0.73626456 0.03623933 -0.00000179
-0.65974419 -0.04914426 -0.00000131
-0.37015128 -0.64467126 0.00000000
0.36350293 0.04768931 0.31598484
0.53908982 -0.50486477 0.46861879
0.46941671 -0.65563199 0.40805393
-0.15667920 0.12433517 0.00000777
-0.46445133 -0.27989931 -0.00000007
0.14222302 0.36137121 0.12363646
0.59568031 0.00388243 0.51781093
-0.07220058 0.52887480 0.00000000
-0.78736619 -0.59145690 -0.00000052
-0.14059202 0.03184573 0.00000000
-0.40914958 -0.70706705 0.00000000
0.06424014 0.44930896 0.05584791
0.13696409 0.01030603 0.11905998
0.55000207 -0.70972113 0.47810479
-0.03993981 0.48700996 0.00000409
-0.22735255 0.41537049 -0.00000029
0.29061676 0.35861794 0.25262747
0.43794166 0.11431164 0.38069457
0.11433833 0.39877078 0.09939690
0.03110437 0.20690150 0.02704938
0.48806178 0.11901573 0.42426128
0.17821640 0.29572828 0.15491965
0.36829125 0.18770975 0.32014703
0.33083380 0.32434801 0.28758603
-0.67308529 -0.12081442 -0.00000124
0.07489411 0.64023540 0.06510497
-0.62219522 0.04457515 0.00000067
0.14556446 -0.08705961 0.12653610
0.16978004 0.54330565 0.14758645
0.24465318 -0.56810392 0.21267182
0.14256945 0.05654852 0.12393260
0.15763612 0.04163328 0.13704073
0.29058190 -0.32388250 0.25259668
-0.45359652 0.30345907 -0.00000106
0.42041725 0.00517787 0.36545908
-0.04883501 0.41054580 0.00000510
-0.11757689 -0.18963867 0.00000000
0.30891841 0.17888812 0.26853999
-0.17140671 0.33271473 0.00000442
-0.42459833 0.26848757 0.00000072
0.14937510 -0.34919685 0.12984861
0.05683159 0.52836386 0.04940642
0.03727329 -0.05258341 0.03240088
-0.55006612 0.16371001 -0.00000122
0.44954117 -0.71686293 0.39077661
0.48363331 -0.63754707 0.42041204
-0.05154134 0.43743216 0.00000466
0.14622636 -0.46256808 0.12711147
-0.53080181 -0.26256080 -0.00000039
0.07759125 0.01685416 0.06744843
-0.50105142 0.06069695 0.00000273
-0.23153964 0.49513790 0.00000065
0.08384290 -0.54175505 0.07288285
0.29607520 0.13323174 0.25737152
-0.30245272 0.22966024 0.00000372
0.27054830 0.43947855 0.23518127
0.41648299 0.04462070 0.36204315
-0.37229874 0.05608161 0.00000528
-0.78753438 -0.58212119 -0.00000054
-0.06740591 0.23369833 0.00000000
0.26536821 0.25167955 0.23067856
-0.20021200 -0.31407527 0.00000000
0.09428934 0.51367002 0.08196695
-0.19585957 -0.26139561 0.00000000
-0.27671252 0.42105025 -0.00000051
0.22371479 0.29657051 0.19447025
0.55621999 -0.04610077 0.48350901
0.17142193 0.22838341 0.14901345
-0.23705166 -0.17312948 0.00000000
-0.28212144 -0.00607042 0.00000000
-0.61252510 -0.20232364 -0.00000084
0.20158724 -0.02257779 0.17523551
-0.62060490 -0.64896329 -0.00000009
-0.00802137 0.61723708 0.00000000
-0.14585102 -0.53262911 0.00000000
-0.26030245 0.47416453 -0.00000053
-0.06075933 -0.29264299 0.00000000
0.31788668 0.36167400 0.27633173
0.32420749 0.23296424 0.28182884
0.07404294 0.39306973 0.06436396
-0.22917312 -0.38480011 0.00000000
0.21167541 0.37724982 0.18400461
-0.13971545 0.60836159 -0.00000026
-0.01042252 0.06761978 0.00000000
0.40297946 0.22790339 0.35030055
0.33223542 -0.05349092 0.28880493
-0.19210457 -0.22684440 0.00000000
-0.12606692 0.08880882 0.00000000
0.40096289 0.00069947 0.34855328
0.48141843 -0.43015824 0.41848642
0.32145438 -0.43980031 0.27943348
-0.25345181 0.35965679 0.00000249
0.08099035 0.62738688 0.07040308
0.35163379 -0.16843424 0.30566759
-0.00613333 0.12786097 0.00000000
0.10352379 -0.77105075 0.08999104
-0.30477190 0.20676456 0.00000406
0.33198773 0.13307370 0.28858937
0.24803563 0.17158817 0.21561189
0.00164116 0.66571782 0.00142662
-0.14410062 0.59830915 0.00000060
0.38173695 -0.29445162 0.33183567
-0.31841518 0.28731608 -0.00000045
-0.76412388 -0.59750036 -0.00000051
-0.33643959 0.10245604 -0.00000020
0.15848390 0.38270694 0.13776657
0.09940725 0.65535968 0.08641264
-0.71988312 -0.65256317 -0.00000037
0.45003205 -0.51513592 0.39120315
0.05045840 -0.57932940 0.04386242
0.42107484 -0.61169732 0.36603143
-0.33598676 -0.71223970 0.00000000
0.18347576 0.51869347 0.15949119
0.20395477 0.18587711 0.17730041
-0.33405027 0.30903502 0.00000179
-0.18317594 0.32431744 0.00000000
0.00995653 0.62353081 0.00865500
-0.10951448 -0.58084052 0.00000000
-0.00610929 -0.35161466 0.00000000
-0.27370849 -0.40159280 0.00000000
0.03310165 -0.32783017 0.02877456
0.26405445 -0.33814859 0.22953694
-0.37418597 0.31522615 -0.00000074
-0.06020571 -0.58880486 0.00000000
0.38341360 -0.42047209 0.33329331
0.21773837 -0.64790873 0.18927535
-0.44011516 0.01696306 0.00000463
-0.65854395 -0.08677328 -0.00000124
0.21020650 0.27022277 0.18272786
0.38418905 -0.67242042 0.33396739
-0.10699486 0.65361226 -0.00000020
-0.28088533 0.45529568 0.00000036
-0.75233245 -0.77558872 -0.00000006
-0.48289258 0.05654173 -0.00000075
0.11805921 -0.56559157 0.10262637
-0.33810471 -0.66820789 0.00000000
-0.06037387 0.28276524 0.00000685
-0.19063826 -0.73871487 0.00000000
0.49372769 0.07052071 0.42918740
-0.49888388 -0.27027504 -0.00000024
-0.57839883 0.19504657 -0.00000140
0.40785860 0.17499668 0.35454363
0.17312448 -0.36242775 0.15049344
-0.41703990 0.17876586 -0.00000068
-0.54549500 -0.65174845 0.00000000
0.21817069 0.27081279 0.18965575
-0.66508221 -0.58456020 -0.00000039
-0.68321287 0.03215346 -0.00000156
0.04923502 0.47057678 0.04279896
0.22205244 0.29785369 0.19302938
-0.28711250 0.48915551 -0.00000032
0.04775757 0.46472471 0.04151464
0.30391219 -0.17247454 0.26418442
-0.18300546 -0.48429220 0.00000000
0.41912724 -0.13730104 0.36433789
-0.60096508 -0.28402181 -0.00000065
-0.36906588 0.33020864 -0.00000074
0.49181134 0.02655670 0.42752255
-0.51292422 0.11525210 -0.00000098
-0.17571379 0.02651140 0.00000000
-0.49843875 -0.56471569 0.00000000
-0.38908949 -0.25574224 0.00000000
-0.32109773 -0.12576105 0.00000000
0.05925144 -0.47561910 0.05150602
0.02226915 0.41500725 0.01935810
0.11560344 -0.56034139 0.10049162
0.23267212 -0.36763820 0.20225694
0.29051713 0.13607524 0.25254003
0.11635282 0.00464053 0.10115585
-0.35093189 0.02775144 -0.00000013
-0.63566417 0.15170159 -0.00000157
-0.77337341 -0.61853495 -0.00000045
0.29965199 0.23009418 0.26048061
-0.70541305 -0.11780785 -0.00000139
0.00715018 -0.15401671 0.00621550
0.32199913 0.13753257 0.27990653
-0.48284556 0.12113809 -0.00000086
0.42021935 -0.04190583 0.36528710
-0.16733163 0.20649877 0.00000000
0.13081269 -0.60513772 0.11371270
-0.14594391 0.44612612 0.00000000
-0.66765344 -0.45646928 -0.00000063
0.09707626 0.09588998 0.08439783
-0.05937068 0.16024616 0.00000870
-0.13438878 0.06824319 0.00000895
-0.02432664 0.39448578 0.00000572
0.07250712 -0.78642939 0.06302890
0.17290520 -0.12711101 0.15030282
0.18071864 0.24442112 0.15710120
-0.35677779 -0.35848713 0.00000000
-0.08496080 0.12799071 0.00000880
0.14766000 0.06169981 0.12836856
-0.10975173 0.03650868 0.00000000
0.50800439 -0.43944978 0.44159693
-0.65001347 0.05310280 -0.00000145
0.12166288 0.31440394 0.10575896
0.31102542 -0.14243892 0.27036773
0.34200502 0.14279700 0.29730123
-0.49167052 0.01355926 0.00000369
0.17023996 -0.15268363 0.14798599
-0.03041594 0.57260861 0.00000295
0.37237040 -0.71253824 0.32369369
0.04110592 -0.00336100 0.03573250
-0.12621125 0.21059075 0.00000694
-0.18346721 0.11852770 0.00000745
0.15590055 0.49454603 0.13552079
0.16697172 0.42362321 0.14514477
-0.74548236 -0.19625959 -0.00000142
-0.66262248 -0.71977867 -0.00000014
-0.28879430 0.08962655 0.00000000
0.56638695 -0.32974018 0.49234726
0.49089285 -0.34482818 0.42672219
0.16988539 -0.70347723 0.14767776
-0.19753233 -0.40631126 0.00000000
-0.00661377 0.32052984 0.00000000
-0.55415451 0.10419529 0.00000098
-0.10451570 -0.54465057 0.00000000
0.16465970 -0.66206474 0.14313518
0.05272301 -0.52295245 0.04583100
0.25480562 0.17946943 0.22149687
-0.28814914 0.12895683 0.00000568
0.32947545 -0.62330155 0.28640603
0.48320501 -0.67550455 0.42003978
-0.15658362 0.43386391 0.00000311
-0.46173972 -0.66425745 0.00000000
0.03712990 -0.12134873 0.03227623
0.16778760 0.29071281 0.14585417
0.29085432 0.37663827 0.25283283
0.29022513 0.32327010 0.25228781
-0.03619007 0.09789587 0.00000000
-0.13105279 -0.29707698 0.00000000
0.04689889 0.62817734 0.04077041
0.33388928 -0.37938869 0.29024288
-0.07967458 0.54324124 0.00000265
0.36678734 -0.47346856 0.31884046
-0.06557449 -0.65709380 0.00000000
0.43091517 0.04438606 0.37458459
-0.42421837 0.04447868 0.00000447
0.17526345 0.05711968 0.15236303
0.32216005 -0.68214036 0.28004690
0.13459678 -0.46199144 0.11700213
-0.49583722 0.07434409 -0.00000083
0.36893979 -0.39870107 0.32071154
-0.04431073 -0.08822564 0.00000000
-0.27923220 -0.62844567 0.00000000
-0.16293827 -0.53567753 0.00000000
0.27166314 -0.65337763 0.23615101
0.55996297 -0.53174038 0.48676332
0.31231057 0.02446066 0.27149192
0.05585288 0.65928299 0.04855302
-0.04380388 -0.71008892 0.00000000
0.47672679 -0.05068064 0.41440760
-0.43084741 -0.71507184 0.00000000
-0.01828997 -0.37843033 0.00000000
0.00516651 -0.36577765 0.00449114
-0.72947751 -0.38140557 -0.00000102
0.41065913 -0.02790817 0.35697663
0.13534673 -0.74977440 0.11765405
-0.05610355 0.42133682 0.00000000
-0.14244670 0.65158846 -0.00000035
-0.75375334 -0.49611236 -0.00000076
-0.33944696 -0.75789939 0.00000000
0.29213848 0.00896419 0.25395771
0.45965863 -0.77681744 0.39957150
0.33148843 0.34773790 0.28815506
0.20148485 -0.65390615 0.17514651
-0.66464157 0.08929160 -0.00000089
-0.76007369 -0.73582949 -0.00000016
-0.43378878 -0.23116496 -0.00000003
0.17507840 0.09955502 0.15220133
0.21024375 0.23576417 0.18276603
0.00499290 0.08066589 0.00434022
-0.27637450 0.38605923 -0.00000045
-0.47552452 0.18462853 -0.00000094
0.25137681 -0.53595023 0.21851653
0.21581101 0.29281709 0.18760413
0.25305492 -0.31381920 0.21997527
-0.42530475 0.01192640 0.00000500
-0.65860984 -0.25257379 -0.00000095
-0.40954114 -0.29584614 0.00000000
0.08972830 0.17572060 0.07799891
0.51568481 0.01938457 0.44827272
-0.58763837 -0.68794293 0.00000000
0.26681894 0.02125625 0.23193994
0.00752545 0.06130996 0.00655625
-0.79273420 -0.15641086 -0.00000161
0.02019675 0.00554711 0.01757192
-0.40582787 -0.20682497 0.00000000
-0.39192868 -0.74494251 0.00000000
0.04092877 0.20006927 0.03557851
0.32909359 -0.53954959 0.28607408
0.18713069 -0.24235900 0.16266874
-0.09337432 0.57411721 0.00000000
-0.39688920 -0.58130089 0.00000000
-0.65580458 -0.21968353 -0.00000100
-0.71989965 -0.04710542 -0.00000157
0.00865123 -0.73157976 0.00752033
0.17996957 -0.61742497 0.15644373
0.13298540 -0.24639191 0.11560139
-0.47567837 -0.71049190 0.00000000
-0.50754838 -0.51014678 0.00000000
-0.04759020 -0.78082636 0.00000000
0.17367301 0.27033030 0.15097625
-0.02560695 0.67287680 0.00000152
0.22140221 -0.60494797 0.19246025
0.40324250 -0.14720982 0.35052970
-0.36762161 -0.11926954 0.00000000
0.57569890 -0.48904130 0.50044210
0.55801399 -0.41923112 0.48506898
0.56994210 -0.78203486 0.49543824
0.20216886 -0.76400039 0.17574110
-0.45729091 0.25927065 0.00000025
0.36065803 0.13855238 0.31351173
0.18568308 -0.30169983 0.16141037
0.02336403 0.72612460 0.02031072
-0.19405267 0.15159730 0.00000680
0.56540763 -0.27603446 0.49149589
-0.27888950 0.31715825 0.00000271
-0.19861383 0.02235362 0.00000867
-0.60043809 -0.32549071 -0.00000057
-0.24411634 0.43840079 -0.00000040
-0.32511670 -0.72233986 0.00000000
-0.44174417 -0.40990535 0.00000000
0.14654938 0.29631017 0.12739227
0.43747138 -0.56682035 0.38028455
-0.00403518 0.27280495 0.00000000
0.40194720 -0.60777077 0.34940418
-0.11844880 -0.27583754 0.00000000
0.09800321 -0.58846547 0.08519211
0.18763898 0.21894643 0.16311056
0.31748419 -0.65254082 0.27598227
-0.41740553 0.37730175 -0.00000096
0.41472591 -0.21816581 0.36051203
0.40627175 -0.00837489 0.35316277
-0.78207268 -0.24401717 -0.00000139
-0.24599749 0.09497134 0.00000686
0.01741916 0.37040494 0.01515021
0.14052672 -0.62508653 0.12215689
0.50983960 -0.10944191 0.44319180
0.35163166 0.19492307 0.30566526
-0.06350400 0.41454587 0.00000482
-0.74052944 -0.27141476 -0.00000127
0.36400613 -0.02027111 0.31642236
0.19855427 0.06558195 0.17259902
0.15039835 0.47109006 0.13073790
-0.17697397 -0.02954778 0.00000000
0.05394689 0.06241937 0.04690818
0.01197972 0.06594139 0.01041372
0.28184234 -0.13191451 0.24499957
-0.48941646 0.09674916 -0.00000085
-0.71658743 0.07799552 -0.00000178
0.17228510 -0.63481081 0.14976378
-0.09764663 0.64267130 -0.00000014
-0.34305734 -0.03211316 0.00000000
-0.34368218 -0.24665380 0.00000000
-0.09686947 0.28137139 0.00000632
-0.31180814 0.42994381 -0.00000068
0.12958341 0.40205030 0.11264408
0.10147134 0.05161435 0.08821915
0.30998671 0.03294386 0.26947173
-0.05635012 -0.53113232 0.00000000
-0.09532314 0.42092930 0.00000425
0.41288952 -0.54469814 0.35891611
-0.06762278 0.09685966 0.00000000
-0.06458891 0.25174644 0.00000725
-0.09905143 0.58017992 0.00000177
-0.66926443 0.10721554 -0.00000163
-0.38730253 -0.21503163 0.00000000
-0.14911967 0.04514035 0.00000907
-0.72340452 -0.03622753 -0.00000161
-0.22118213 0.32828422 0.00000363
0.37599004 -0.67079877 0.32684017
-0.70656083 -0.72390399 -0.00000019
-0.57180930 -0.64899238 0.00000000
-0.77053447 -0.30315443 -0.00000124
-0.56277812 -0.50495500 -0.00000009
-0.28715565 -0.47688918 0.00000000
-0.18255000 -0.78432870 0.00000000
0.05840250 0.62503112 0.05076804
0.19566036 0.53318023 0.17008308
0.08765580 -0.42380068 0.07619732
-0.16559861 -0.17336630 0.00000000
0.45167337 -0.35912469 0.39262971
0.31155662 0.01397254 0.27083678
0.57879703 -0.59957152 0.50313537
-0.25152696 0.02126898 0.00000000
0.13047172 -0.79254427 0.11341630
-0.11887869 0.33527279 0.00000518
-0.00035780 0.33549089 0.00000696
0.50148780 -0.14014115 0.43593183
0.15464132 -0.64449741 0.13442642
0.05990364 0.19905015 0.05207296
-0.04480008 -0.00432358 0.00000000
-0.05254268 0.19724605 0.00000825
0.33814360 -0.55143072 0.29394106
-0.02422122 -0.60310780 0.00000000
-0.22158168 0.12712476 0.00000000
0.06541513 0.48961240 0.05686398
0.44529417 -0.34159772 0.38708441
0.17192458 0.49192199 0.14945169
-0.14280248 -0.14108435 0.00000000
0.44645210 -0.67671988 0.38809134
-0.00060901 -0.34093066 0.00000000
0.52089313 0.04607984 0.45280014
0.34421152 0.32847948 0.29921525
0.09300244 0.37379312 0.08084505
-0.76372694 -0.08589136 -0.00000169
-0.14151166 -0.27386140 0.00000000
0.48583478 -0.65923267 0.42232575
0.38835039 -0.39559536 0.33758470
0.45836339 -0.02155225 0.39844473
0.51792214 -0.69392820 0.45021852
0.50357391 0.11754532 0.43774489
0.07521499 -0.27635225 0.06538279
-0.31979800 0.09821657 0.00000558
-0.36929507 0.03652700 0.00000566
0.36272013 0.04611509 0.31530438
0.50801252 -0.32635924 0.44160385
0.58451858 -0.44469430 0.50810876
0.50153564 -0.57310119 0.43597399
0.21453956 0.01428430 0.18650474
0.58949470 -0.46711032 0.51243440
-0.03075669 -0.28178642 0.00000000
-0.76961221 -0.07686002 -0.00000173
0.03278393 0.08360549 0.02851180
0.42013275 -0.47627733 0.36521240
0.13551601 -0.00916088 0.11780119
-0.56313148 0.15257327 0.00000000
-0.37566587 -0.78185983 0.00000000
-0.33829740 -0.75357926 0.00000000
0.12435411 0.20971257 0.10809839
-0.49952296 0.29415067 -0.00000114
0.24143004 0.11156833 0.20986990
0.09456580 0.25779714 0.08220405
-0.05367608 0.69444744 0.00000073
0.51935389 0.03038508 0.45146214
-0.42782682 0.17048743 0.00000230
0.55361566 -0.55297144 0.48124579
-0.70030948 -0.47510909 -0.00000073
-0.15756410 0.50761655 0.00000186
-0.22768061 -0.70485141 0.00000000
0.40711700 -0.08572623 0.35389763
0.51569398 -0.04579661 0.44828077
0.24658563 0.45057758 0.21435153
-0.07227476 0.33067162 0.00000595
0.54210327 0.04980492 0.47123758
0.21520053 -0.37974851 0.18706925
0.14404338 0.51839958 0.12521544
0.58180889 0.00755533 0.50575315
-0.39544023 -0.08377970 -0.00000013
0.04026088 0.15739940 0.03499793
0.04657342 0.14349239 0.04049716
-0.38066041 -0.12108789 0.00000000
0.02342520 0.30799909 0.02037223
0.33735164 -0.58403259 0.29325262
-0.60626086 -0.79734434 0.00000000
-0.11446428 0.21480803 0.00000000
-0.23719950 -0.47454291 0.00000000
0.21235465 0.13806240 0.18460301
0.30258484 0.34881056 0.26302990
0.27504237 -0.35097448 0.23908850
0.39256218 0.24991654 0.34124504
-0.74932277 -0.05001790 -0.00000170
0.30500718 -0.02745291 0.26513608
-0.20071869 0.28357373 0.00000000
0.05832242 0.48380447 0.05070322
0.37700478 0.01078493 0.32772753
0.13630267 -0.22431121 0.11848502
0.03337598 -0.33466980 0.02901303
0.46646767 -0.13188348 0.40548971
-0.23755098 -0.12176818 0.00000000
-0.04034251 -0.32810071 0.00000000
0.33899274 0.33103435 0.29467838
-0.44691134 -0.55443050 0.00000000
-0.34272633 -0.33828696 0.00000000
-0.59230290 -0.60254679 -0.00000005
-0.44873722 -0.39755662 0.00000000
0.17904109 0.55597194 0.15563619
0.34469445 -0.54294721 0.29963557
-0.08115348 0.01510487 0.00001055
-0.67599425 -0.77868588 -0.00000005
-0.44844963 0.31302969 -0.00000048
0.20262710 -0.54710962 0.17613944
-0.07322232 -0.64190576 0.00000000
-0.42301595 0.14288287 -0.00000064
0.26075314 -0.75850581 0.22666717
-0.41586815 -0.07855156 -0.00000022
-0.05217400 0.07046491 0.00001016
0.07917792 0.16391702 0.06882769
0.39303222 -0.10801287 0.34165411
-0.11448066 0.44437805 0.00000361
-0.38495349 -0.74884086 0.00000000
0.44333779 -0.51644214 0.38538401
0.42021037 -0.72025199 0.36527996
-0.24215359 -0.10703140 0.00000000
-0.62562178 0.08432999 -0.00000140
0.06802261 0.35121500 0.05913061
-0.24447823 -0.09453834 0.00000000
-0.16800330 0.11246161 0.00000778
-0.66345457 -0.60293475 -0.00000035
-0.12709556 -0.78340344 0.00000000
-0.14252635 -0.17028163 0.00000000
0.04908792 0.14476882 0.04268287
0.32871171 -0.32934777 0.28574212
0.26378393 0.01806501 0.22931038
0.45047408 0.16921610 0.39158649
-0.01292574 0.60604610 0.00000271
0.24024336 -0.53082803 0.20883846
0.36380249 -0.74260723 0.31624579
0.34525450 -0.71683842 0.30012242
0.24329630 -0.79232392 0.21149232
-0.19125166 -0.08085626 0.00000000
0.47422018 -0.24028877 0.41222891
0.52143081 0.06922800 0.45326831
0.22119000 -0.56983566 0.19227577
-0.78170504 -0.64183736 -0.00000040
-0.24999462 -0.40732877 0.00000000
-0.04103845 -0.13402532 0.00000000
-0.14494527 -0.55219643 0.00000000
0.02704554 0.10678359 0.02352323
-0.71627534 -0.42610924 -0.00000089
-0.18450751 0.21457205 0.00000000
0.58185458 -0.70148124 0.50579334
-0.09738271 0.45997908 0.00000363
-0.21961297 0.19293746 0.00000000
0.12011708 0.08416749 0.10441523
0.51851463 -0.76462929 0.45073364
0.31831912 -0.59771003 0.27670806
0.08279357 -0.05900498 0.07197069
-0.34097299 0.05748383 -0.00000014
0.43542737 -0.48192431 0.37850763
0.41102070 0.22662260 0.35729117
0.04887258 0.27170051 0.04249316
0.11589142 0.15894907 0.10075171
0.50924324 0.07274787 0.44267316
-0.16466612 0.18251120 0.00000000
0.18009460 -0.25944624 0.15655241
0.13409642 -0.38509951 0.11656717
-0.00343531 0.42110809 0.00000000
-0.52836830 -0.02594608 -0.00000079
0.12966113 -0.73053411 0.11271167
-0.62439605 -0.55787070 -0.00000026
0.28078506 0.13713108 0.24408603
0.07330608 0.33693223 0.06372342
0.42593888 0.23385158 0.37025862
-0.23941331 -0.23007393 0.00000000
-0.43440041 -0.61239575 0.00000000
-0.06995282 -0.18603435 0.00000000
0.55316076 -0.30961353 0.48085005
-0.23911099 -0.23291182 0.00000000
0.37843732 0.06743533 0.32897154
0.09367746 0.31420156 0.08143906
0.28669662 -0.39461968 0.24921929
-0.79112764 -0.08927745 -0.00000178
-0.50789154 0.24653107 -0.00000051
-0.31908160 0.17186753 -0.00000025
-0.58548296 0.13913921 -0.00000133
-0.16322349 0.33586350 0.00000000
-0.68352747 -0.72947295 -0.00000018
-0.22618998 0.11856713 0.00000000
-0.37922772 0.00470821 0.00000600
-0.49080920 -0.37432562 -0.00000002
-0.26479230 0.20395439 0.00000487
0.43020817 -0.20847113 0.37397036
0.57795380 -0.64790514 0.50240242
-0.60854066 -0.50235600 -0.00000029
0.58369476 -0.16424605 0.50739229
-0.66821563 -0.64135933 -0.00000030
0.43332632 0.19718891 0.37668092
-0.07322107 0.39795634 0.00000000
0.40343264 0.21436096 0.35069451
-0.19153373 0.25489003 0.00000529
-0.14456958 0.55175196 -0.00000018
-0.30661067 -0.30132379 0.00000000
0.54074139 -0.15312667 0.47005400
0.31329703 -0.65159947 0.27234246
-0.16616545 0.35174401 0.00000422
0.21922682 0.04188744 0.19057861
0.05794150 0.61212524 0.05036732
0.34154139 0.21792537 0.29689401
0.06015288 0.71686001 0.05228955
0.08426481 -0.50377233 0.07324962
0.28492317 -0.18093600 0.24767767
0.09498825 -0.16110776 0.08257127
-0.52108177 -0.52405370 0.00000000
-0.22251498 -0.35094247 0.00000000
-0.01360345 -0.41169972 0.00000000
-0.27379146 -0.79863776 0.00000000
-0.05061055 -0.22854037 0.00000000
-0.72799139 -0.23304676 -0.00000128
-0.08201805 0.49108782 0.00000340
0.00539552 -0.46851862 0.00469021
-0.03392101 0.04127833 0.00001087
-0.01907382 0.12004401 0.00000000
-0.33862746 0.03711696 -0.00000010
0.39792217 -0.75724635 0.34590531
0.49377353 -0.06342098 0.42922591
0.45879927 -0.45407507 0.39882420
0.56436538 -0.20877371 0.49058981
0.01878959 0.11902348 0.01633339
-0.15575999 0.57908004 -0.00000027
-0.10228735 -0.39503977 0.00000000
-0.15828265 0.28167869 0.00000000
-0.15262318 0.61422192 -0.00000032
-0.09195962 0.35351384 0.00000000
0.11313719 0.11316171 0.09834776
-0.07672165 -0.23582663 0.00000000
0.08461423 0.04977632 0.07355336
0.30343838 0.08225500 0.26377855
-0.21194665 -0.63670188 0.00000000
-0.01723965 0.77067627 0.00000016
0.19742507 0.16570921 0.17161743
0.07835903 0.52020580 0.06811937
0.47480462 0.02151923 0.41273961
-0.72875601 -0.23820450 -0.00000127
0.28400539 -0.37582574 0.24687987
0.26880833 0.38575400 0.23366879
-0.05333226 -0.71348966 0.00000000
-0.04762882 -0.61034936 0.00000000
-0.17894178 -0.03357371 0.00000000
0.04907445 0.37275957 0.04266661
0.22182590 -0.49962573 0.19282855
-0.04926512 0.20453465 0.00000819
-0.13908014 -0.03038922 0.00000000
-0.68109001 -0.15797561 -0.00000121
-0.32350181 -0.61117226 0.00000000
0.22101698 0.29454899 0.19212938
-0.43836396 0.03087469 -0.00000051
-0.55823245 -0.14939105 -0.00000070
0.33408490 0.14092315 0.29041673
0.44096755 -0.46683361 0.38332355
-0.68223343 -0.33220292 -0.00000091
-0.38082798 -0.09059784 -0.00000005
0.10349416 0.09873746 0.08996528
0.53426158 0.08489902 0.46442110
-0.42141655 -0.43470824 0.00000000
-0.37020126 -0.24339309 0.00000000
-0.61355900 0.09261850 0.00000003
-0.20272294 -0.03043707 0.00000000
0.13009459 0.30318245 0.11308847
-0.12027334 0.08804765 0.00000886
0.35658305 0.17266917 0.30996941
-0.18116283 0.27784728 0.00000510
0.35256290 0.11133895 0.30647932
-0.19164701 -0.22622949 0.00000000
-0.36710692 -0.66884367 0.00000000
-0.12125635 -0.60901769 0.00000000
-0.51725623 0.02265939 0.00000305
-0.37755385 0.31045006 0.00000093
-0.28315046 -0.46274133 0.00000000
0.49959346 0.11330139 0.43428530
0.25490161 0.26129972 0.22158020
0.20231449 0.45446885 0.17586885
-0.58911788 -0.28276329 -0.00000060
-0.43829686 -0.19637952 -0.00000011
-0.51844729 -0.36309128 -0.00000016
0.35487799 -0.33069243 0.30848791
-0.08955808 0.45810734 0.00000378
-0.21028159 0.40135552 0.00000262
-0.25205687 0.13574871 0.00000616
-0.05410170 -0.74567539 0.00000000
-0.23298862 -0.29489773 0.00000000
-0.28549353 0.38481119 -0.00000048
0.19412724 -0.68606046 0.16875069
-0.46612000 0.12340400 -0.00000079
0.55202288 -0.23347683 0.47986081
0.52655970 0.01451110 0.45772776
0.20758774 -0.28767550 0.18045162
0.08673089 0.53089752 0.07539641
0.51873395 -0.22850575 0.45092359
0.18081879 0.01669561 0.15718194
0.01861296 0.28566497 0.01617985
0.17795112 -0.73341404 0.15468914
0.02961432 -0.38748745 0.02574310
-0.36951927 0.26279298 -0.00000063
-0.58725974 -0.56429884 -0.00000009
-0.68574186 -0.16881132 -0.00000121
0.45025735 0.16337236 0.39139891
-0.13820239 -0.32346389 0.00000000
0.28705407 -0.49269977 0.24953001
0.30749865 0.08704132 0.26730784
0.02883474 0.63398395 0.02506798
-0.33249759 0.29799211 -0.00000053
0.41264632 0.19059283 0.35870376
0.14181211 0.49078117 0.12327651
0.25536026 -0.37915834 0.22197926
0.23382959 -0.36410913 0.20326311
-0.53900211 -0.16859917 -0.00000059
-0.04148229 -0.14674673 0.00000000
-0.07197449 0.53153330 0.00000000
-0.06531282 0.55929113 0.00000263
0.44944698 0.11527721 0.39069552
0.24730211 -0.06487559 0.21497448
0.41700283 0.03530761 0.36249096
0.57963562 -0.06731581 0.50386365
-0.31031122 0.10695194 0.00000562
-0.40309136 -0.68954384 0.00000000
0.05107875 0.35423451 0.04440167
0.29335817 -0.71895926 0.25501004
-0.03632798 -0.27360759 0.00000000
-0.24927052 -0.29926412 0.00000000
0.56877866 -0.62680652 0.49442669
0.11921416 -0.15379631 0.10363035
0.04764768 -0.28265611 0.04141912
0.23753681 -0.66610761 0.20648571
0.16514980 0.45568928 0.14356350
-0.30941601 0.34490662 0.00000166
-0.10246319 0.14410996 0.00000829
-0.03585699 -0.73286983 0.00000000
-0.36019601 0.09389107 0.00000488
-0.28037194 -0.11026365 0.00000000
0.36755759 -0.51186950 0.31951002
0.50543297 -0.27719425 0.43936145
0.36364096 0.06202417 0.31610996
0.26741031 -0.17175044 0.23245411
-0.42800433 0.36951269 -0.00000107
-0.14063745 -0.54983214 0.00000000
0.01118079 0.41470252 0.00971922
-0.30936033 -0.10685182 0.00000000
0.07521767 -0.52799581 0.06538513
-0.42465999 -0.71433717 0.00000000
0.28325648 -0.40092949 0.24622885
-0.15462370 -0.44848859 0.00000000
0.16779023 0.11644308 0.14586573
-0.29667291 0.39403524 0.00000108
-0.65985366 -0.52603234 -0.00000047
-0.11934804 -0.43293148 0.00000000
0.34792109 -0.12845953 0.30244019
0.21662920 0.05876617 0.18831117
0.34297324 0.17511600 0.29814217
0.15346369 -0.66029956 0.13340273
-0.51487724 0.04143554 0.00000278
0.30989096 -0.63727561 0.26938164
0.32727299 -0.50671240 0.28449147
0.46347104 -0.70268018 0.40288554
-0.51828314 0.04787307 -0.00000088
0.44504630 -0.31214247 0.38686890
-0.33654238 -0.70872366 0.00000000
0.08561468 -0.76969459 0.07442302
-0.19180970 -0.02553579 0.00000000
-0.02723091 0.54586686 0.00000340
0.09530877 -0.28610953 0.08284989
0.09143298 -0.57842000 0.07948075
-0.56492627 -0.16731634 -0.00000070
-0.73949731 -0.36500171 -0.00000109
0.27794479 0.28303365 0.24161400
0.11002621 -0.13332743 0.09564345
0.49941082 0.09330568 0.43412696
0.09165362 -0.36223829 0.07967255
-0.76041132 -0.57489799 -0.00000056
-0.40604012 -0.19864760 0.00000000
-0.55304611 -0.17175440 -0.00000064
-0.54826722 -0.50589770 -0.00000003
0.31255158 -0.52352375 0.27169446
-0.60686875 -0.23038824 -0.00000077
-0.25034395 0.37305901 0.00000232
-0.47108377 0.14883619 0.00000183
-0.00836556 -0.18943529 0.00000000
0.10837438 0.26037023 0.09420755
0.14708357 0.45590617 0.12785946
0.28217062 0.31524748 0.24528661
-0.50113971 0.00358399 -0.00000073
-0.28004186 0.44976809 0.00000047
0.07613161 0.02158465 0.06619313
-0.07686057 0.59313309 0.00000000
0.32364850 0.19956347 0.28134365
-0.48848619 0.27839053 -0.00000116
-0.53256194 -0.01514065 -0.00000083
-0.31363807 -0.05039847 0.00000000
-0.53447532 0.15887879 0.00000045
-0.52413946 -0.74578842 0.00000000
0.17837933 -0.45889570 0.15506137
0.54587903 -0.36108633 0.47452030
0.22836439 0.12832134 0.19851966
0.11420609 -0.09276331 0.09927693
-0.00370257 0.25070528 0.00000818
0.13106968 -0.62832029 0.11393610
-0.53114394 -0.67498197 0.00000000
0.00868067 -0.39255223 0.00754593
-0.26497761 0.08644903 0.00000671
0.00247593 0.78201312 0.00215227
-0.32366341 -0.23437367 0.00000000
-0.16436495 0.60238286 -0.00000035
-0.04651695 -0.21345054 0.00000000
-0.09444690 0.48061132 0.00000337
-0.02972436 0.71833168 0.00000078
-0.23273293 0.16011747 0.00000609
-0.17846878 -0.22334307 0.00000000
-0.48454555 -0.66791089 0.00000000
-0.19106434 -0.26034949 0.00000000
0.46457912 -0.52607279 0.40384857
-0.16736219 0.48788141 0.00000200
-0.72272584 -0.54087942 -0.00000065
0.45771321 0.08312755 0.39787940
-0.53140364 -0.15872090 -0.00000057
0.47970495 -0.17482137 0.41699660
-0.08689643 0.10373242 0.00000000
-0.77451442 -0.43516337 -0.00000091
-0.03369645 -0.57729036 0.00000000
0.59086157 -0.05546087 0.51362207
-0.63420411 -0.68693579 -0.00000008
-0.27450511 0.42852162 0.00000093
-0.03187673 0.03364437 0.00000000
-0.59722475 -0.06539997 -0.00000102
-0.12672445 -0.28243982 0.00000000
