ply
format ascii 1.0
element vertex 1380
property float x
property float y
property float z
end_header
-0.23933155 0.24492678 0.00000468
-0.05495706 0.42637601 0.19817765
-0.17008617 -0.75314626 0.61333514
-0.16538711 0.02562171 0.59639640
-0.38411517 -0.48793546 0.00000000
-0.13385085 -0.27033655 0.48267085
-0.26889603 -0.56021710 0.00000000
-0.49213413 -0.74443500 0.00000000
-0.18637517 0.06227620 0.67208184
-0.02419009 0.68890584 0.08723103
-0.02199390 0.26546089 0.00000000
-0.10303968 -0.51892971 0.00000000
-0.15102715 0.58731336 0.00000065
-0.06841606 0.14301778 0.24671011
-0.29787007 -0.25631719 0.00000000
-0.10298035 -0.17732679 0.00000000
-0.01657950 0.73273945 0.05978681
-0.17012577 -0.17986745 0.61348273
-0.04074072 0.34127302 0.14691211
-0.17307404 0.09521027 0.00000796
-0.05455096 0.42722791 0.19671322
-0.14526392 -0.74669899 0.52382548
-0.20689530 -0.20291411 0.00000000
-0.33988729 -0.23083085 0.00000000
-0.07740707 0.05291271 0.00000000
-0.34221388 -0.43716125 0.00000000
-0.30119717 0.13965993 -0.00000012
-0.20695041 -0.27428377 0.74627520
-0.05574491 -0.45743455 0.20101759
-0.42266794 0.21697604 -0.00000077
-0.52597374 0.21928705 -0.00000122
-0.14062858 -0.20812392 0.50711258
-0.48979321 -0.16484361 -0.00000038
-0.10966373 0.45028470 0.00000000
-0.21236375 0.36684648 0.00000316
-0.30402712 -0.71235466 0.00000000
-0.30366073 -0.77771700 0.00000000
-0.76076002 -0.35555464 -0.00000111
-0.28777527 -0.10772129 0.00000000
-0.73797224 -0.71776244 -0.00000021
-0.06978659 0.18864530 0.25163342
-0.06194815 0.42827325 0.22338825
-0.40394697 -0.11524607 -0.00000011
-0.18503246 -0.59291971 0.66723425
-0.07278633 -0.40019747 0.00000000
-0.12785618 0.06843668 0.46104262
-0.18131346 -0.76276102 0.65382160
-0.44060641 0.21395734 -0.00000084
-0.39819592 -0.64293826 0.00000000
-0.28976668 -0.01333969 0.00000000
-0.16387148 -0.01809558 0.59093053
-0.04328096 0.19722042 0.00000839
-0.28310454 -0.66824784 0.00000000
-0.09720923 0.09565755 0.00000000
-0.14794533 -0.27473353 0.53349697
-0.16672022 0.05987383 0.60120404
-0.12099964 -0.37080554 0.43632784
-0.00153329 -0.42989646 0.00000000
-0.62400732 0.09994216 -0.00000143
-0.06810491 -0.42142759 0.24558809
-0.16557284 -0.15472717 0.00000000
-0.58084010 -0.53850561 -0.00000011
-0.03015890 -0.14272560 0.10875377
-0.65621342 -0.32709615 -0.00000081
-0.05704403 0.66475124 -0.00000000
-0.19112615 -0.35801480 0.00000000
-0.04351872 0.29407754 0.00000000
-0.63409794 -0.46401391 -0.00000047
-0.67458094 -0.68265472 -0.00000026
-0.03476332 -0.46565888 0.12535743
-0.52339663 -0.76127402 0.00000000
-0.17510969 -0.26828923 0.63145452
-0.03550219 0.03209306 0.12798776
-0.54567976 -0.42988882 -0.00000015
-0.07694122 -0.54097777 0.27745203
-0.59324600 0.16362667 -0.00000076
-0.20834400 -0.28950705 0.00000000
-0.25233528 0.12518698 0.00000631
-0.69625083 -0.78045738 -0.00000005
-0.71776586 -0.52747087 -0.00000068
-0.02331838 0.61442430 0.08408691
-0.20760519 0.01902493 0.74863913
-0.43401413 -0.29991248 0.00000000
-0.17634061 -0.43304467 0.00000000
-0.01940421 0.47762304 0.06997210
-0.04976391 0.33113801 0.17943462
-0.08046094 -0.77575051 0.29014425
-0.12352875 -0.08417116 0.44544989
-0.14739703 -0.32484034 0.53151930
-0.09184020 0.21625567 0.00000000
-0.40788084 0.29537803 0.00000060
-0.38431277 0.19573185 0.00000271
-0.06610542 0.47142984 0.23837576
-0.05270743 0.51977258 0.19006603
-0.10150656 -0.37769023 0.36603530
-0.10739986 0.25748542 0.38729036
-0.25151299 -0.24666634 0.00000000
-0.04708691 0.44953308 0.16979728
-0.41467375 -0.01954029 -0.00000032
-0.32692285 -0.70603584 0.00000000
-0.06571748 -0.49575600 0.23697893
-0.16458705 -0.28732758 0.59350861
-0.09412231 -0.12563769 0.33940752
-0.09138542 -0.11547142 0.00000000
-0.06818080 0.47954575 0.24586072
-0.05187908 0.10816505 0.18705049
-0.32391395 -0.76881314 0.00000000
-0.18788748 0.56581746 0.00000030
-0.16018170 -0.20543364 0.57762318
-0.11421436 -0.78195165 0.41185994
-0.73833225 -0.57816214 -0.00000055
-0.71483272 -0.12978745 -0.00000141
-0.10316731 -0.67233149 0.37202401
-0.29346333 -0.63951093 0.00000000
-0.14144596 -0.37059850 0.51005874
-0.71484766 -0.08125663 -0.00000149
-0.02403007 0.03321489 0.08665307
-0.09806051 -0.15391027 0.00000000
-0.41550704 0.03302119 0.00000483
-0.08310103 0.02357043 0.00000000
-0.00256509 0.62083641 0.00924072
-0.00309345 0.60496823 0.01114528
-0.15176417 0.00824608 0.00000959
-0.05251987 0.62992357 0.00000000
-0.72584328 -0.24387919 -0.00000125
-0.04108745 0.54042270 0.00000327
-0.63215071 0.02837114 -0.00000133
-0.18974391 -0.45581813 0.68422543
-0.57948041 -0.64734478 0.00000000
-0.11460633 0.53453968 0.00000223
-0.17883396 -0.69082096 0.64488097
-0.03046143 0.06403651 0.10981139
-0.14351315 0.21988093 0.51751596
-0.05324518 0.58149984 0.19200470
-0.13200073 0.54640637 0.00000170
-0.03290394 -0.49905633 0.00000000
-0.49717220 0.17895016 0.00000083
-0.13450506 0.34835203 0.00000000
-0.06708457 -0.00517460 0.24190870
-0.08273716 -0.20086916 0.00000000
-0.00997979 0.32725653 0.03596410
-0.10580395 0.21927706 0.38153503
-0.07328515 -0.45323411 0.00000000
-0.05428877 -0.78337721 0.19576673
-0.02659669 -0.41234632 0.09590834
-0.04528204 0.20560224 0.16328820
-0.03480927 0.07629088 0.12549131
-0.01591985 0.11247962 0.05740739
-0.01447165 -0.48210844 0.05218515
-0.26752539 0.37542013 0.00000195
-0.34134692 -0.78960346 0.00000000
-0.07328837 -0.39925469 0.00000000
-0.16611557 -0.59026276 0.59901801
-0.00592611 0.36145559 0.02136971
-0.20694322 -0.09772706 0.00000000
-0.15930216 0.20244790 0.57445497
-0.02794017 0.42810038 0.10073856
-0.09480395 -0.37362197 0.34186550
-0.12284747 0.22670728 0.44299577
-0.00341217 0.27522808 0.01230438
-0.16156746 0.55238531 0.00000103
-0.29192951 -0.37438302 0.00000000
-0.19958318 -0.58987020 0.71970526
-0.08816282 -0.34292975 0.31791743
-0.04062162 0.41665797 0.00000000
-0.05001800 0.47912275 0.18036734
-0.09042904 0.07528322 0.32609025
-0.10224317 0.38030908 0.36869586
-0.14437068 -0.55167302 0.00000000
-0.08399085 0.09432481 0.30287365
-0.14040916 -0.76082086 0.50631907
-0.02690236 0.05430085 0.09701060
-0.08957198 -0.18038930 0.32299887
-0.23278020 -0.62848365 0.00000000
-0.09052468 -0.76906092 0.32643434
-0.05634299 -0.32019458 0.20317429
-0.07146013 0.11690989 0.25766457
-0.02421470 0.48017215 0.08731884
-0.47415113 0.31453682 -0.00000117
-0.10396110 -0.47435093 0.00000000
-0.49282030 -0.06933836 -0.00000057
-0.17963239 0.05841992 0.00000841
-0.18493887 0.06563796 0.66690011
-0.12454921 0.40132984 0.00000000
-0.62721582 0.06471848 0.00000024
-0.00165088 0.37385069 0.00593069
-0.06897990 -0.73118464 0.00000000
-0.04777205 -0.14423759 0.17226724
-0.00464097 0.48368860 0.01673545
-0.13939980 -0.48361077 0.50267932
-0.02256738 0.12246725 0.00000000
-0.06727272 0.12050797 0.24258716
-0.67850505 -0.35799665 -0.00000085
-0.06092855 0.37510936 0.21971101
-0.01422091 -0.72556452 0.05128098
-0.10148513 0.36623196 0.36595922
-0.04283262 0.33987622 0.15445556
-0.03894250 0.17839464 0.14040207
-0.00108672 -0.76278121 0.00391874
-0.04631981 -0.62497282 0.16703046
-0.05727295 -0.28270319 0.20652776
-0.77142680 -0.27017537 -0.00000132
-0.01042764 0.30959698 0.03760235
-0.09479207 0.13977007 0.34180778
-0.02873152 0.16750517 0.10357845
-0.18832315 -0.62291521 0.67910047
-0.09087831 0.03439197 0.32768691
-0.38968070 0.36227785 -0.00000089
-0.09546893 0.03082489 0.34426425
-0.17887884 -0.75211218 0.64504231
-0.12346966 0.06560421 0.00000000
-0.34280568 -0.05131773 0.00000000
-0.57134480 0.10883869 0.00000057
-0.04985402 0.50456333 0.17977030
-0.07952251 0.10903252 0.28673911
-0.47467300 -0.45544939 0.00000000
-0.06194150 -0.32738983 0.22336267
-0.19002442 -0.39247184 0.68523752
-0.49719508 -0.10646367 -0.00000052
-0.34094785 -0.52035365 0.00000000
-0.19787999 0.32862731 0.00000407
-0.28612646 -0.07059865 0.00000000
-0.33170084 0.11910264 -0.00000021
-0.03235524 0.60633736 0.00000242
-0.12348503 -0.07811820 0.44529229
-0.24750007 0.54673380 -0.00000061
-0.15506154 0.64400968 -0.00000037
-0.04273178 0.11561140 0.00000000
-0.02767621 -0.07567617 0.09980112
-0.14134062 -0.71809475 0.50967795
-0.09287168 -0.14961991 0.33489771
-0.13088158 0.17012579 0.47195953
-0.03418591 -0.23176158 0.12327527
-0.36115609 0.25971377 0.00000209
-0.18647212 -0.31601195 0.67242820
-0.18018111 0.11726425 0.64974544
-0.03045427 -0.06589470 0.10981890
-0.03112200 0.34257545 0.11222675
-0.02559977 0.24576200 0.09231345
-0.06498400 -0.53380377 0.23433399
-0.19283443 -0.24864532 0.00000000
-0.15686683 -0.07556849 0.00000000
-0.20389020 -0.47898545 0.73523780
-0.14882978 0.40987261 0.00000361
-0.68069295 -0.31685228 -0.00000093
-0.52900923 0.15327607 -0.00000111
-0.26298445 0.44853036 -0.00000050
-0.11268629 -0.36305716 0.40634970
-0.56517735 -0.58423355 0.00000000
-0.74073954 -0.43222095 -0.00000092
-0.70480142 -0.32480569 -0.00000102
-0.00890463 -0.57719071 0.03211032
-0.08225891 0.06752990 0.29662787
-0.18394526 0.07122724 0.66331723
-0.23639235 -0.45131565 0.00000000
-0.09997178 0.03785958 0.36048097
-0.54003157 0.21626384 -0.00000127
-0.06105865 0.16971095 0.22017908
-0.26976870 0.50644645 -0.00000063
-0.74172355 -0.74283908 -0.00000014
-0.02070049 0.61731012 0.07464083
-0.04537462 0.35858513 0.16360734
-0.01941681 -0.75846477 0.00000000
-0.11228140 0.32480581 0.40489428
-0.16443164 0.48148787 0.00000216
-0.66105606 0.06572030 -0.00000043
-0.05090861 -0.00010188 0.18357778
-0.39508034 0.05838490 0.00000480
-0.15122018 0.47390451 -0.00000007
-0.00521644 0.67468051 0.01880495
-0.04861329 -0.70050490 0.17530079
-0.00554440 0.73617773 0.01999323
-0.27881891 -0.17903284 0.00000000
-0.14250886 -0.29773338 0.51389230
-0.75456133 0.03791468 -0.00000187
-0.09967421 -0.03075120 0.35942840
-0.18892117 -0.28550786 0.68125999
-0.08318662 0.11763177 0.29995357
-0.61036256 -0.20282843 -0.00000083
-0.08290522 -0.60807996 0.00000000
-0.16840072 -0.12801427 0.60726248
-0.66557460 0.05890451 -0.00000153
-0.01836865 -0.52253178 0.06623782
-0.19767080 -0.19490803 0.00000000
-0.08755155 -0.55160658 0.31571316
-0.19798224 -0.41539097 0.71393391
-0.06850045 0.35161479 0.24700546
-0.31818001 0.18086850 0.00000423
-0.15970394 -0.46711267 0.00000000
-0.11303185 0.26340959 0.40759997
-0.09786267 0.06303672 0.00000958
-0.01052201 0.31573929 0.03794264
-0.38879449 0.16903666 -0.00000054
-0.00779490 -0.52996194 0.02810862
-0.25407137 -0.79768834 0.00000000
-0.01894712 0.26875873 0.06832380
-0.02577931 0.41270207 0.00000542
-0.20724036 -0.15573697 0.00000000
-0.07308754 0.32150147 0.26354599
-0.03815610 -0.08336270 0.13759190
-0.03964284 0.56463715 0.14295417
-0.10592958 -0.24825235 0.38198483
-0.02838423 -0.17937463 0.10235428
-0.49026091 -0.56737098 0.00000000
-0.12088603 -0.27204631 0.43591835
-0.13022767 0.08147703 0.46960829
-0.36316503 0.19795503 0.00000308
-0.15038950 -0.57596024 0.54230844
-0.26708759 0.31177187 0.00000303
-0.34219908 0.25280180 0.00000257
-0.40371171 0.03074299 -0.00000036
-0.20105056 -0.07283495 0.72500165
-0.03725570 0.15572702 0.00000000
-0.24054256 -0.54589697 0.00000000
-0.03001583 -0.65450607 0.10823785
-0.03815075 0.69495846 0.00000000
-0.12054586 0.26763829 0.00000617
-0.11773177 -0.58260529 0.42454384
-0.01293980 -0.12640587 0.00000000
-0.09656197 -0.11475489 0.34820496
-0.52586919 -0.06511725 -0.00000071
-0.16311267 0.18306435 0.58819554
-0.15366177 0.41388909 0.00000000
-0.61459725 -0.35642610 -0.00000058
-0.49872686 -0.62577813 0.00000000
-0.37675455 -0.02056017 -0.00000016
-0.06177393 0.17313579 0.22275840
-0.48548982 -0.78024552 0.00000000
-0.14852904 -0.04209860 0.00000000
-0.15018932 0.00648205 0.54159143
-0.14133766 -0.06790457 0.50967080
-0.63711878 -0.15499214 -0.00000103
-0.13988078 0.11550308 0.50440998
-0.21479121 0.12174506 0.00000693
-0.00491119 -0.51635035 0.01770987
-0.34974844 -0.04774393 0.00000000
-0.01936366 -0.16169995 0.06982586
-0.62743535 -0.71666158 0.00000000
-0.00190464 -0.38382316 0.00686817
-0.21518624 0.44555616 -0.00000029
-0.11540572 -0.39318938 0.41615603
-0.38817557 0.17188032 0.00000304
-0.78401295 -0.06920080 -0.00000181
-0.17731654 0.01495559 0.63940847
-0.00402358 0.53894752 0.01450912
-0.04451144 -0.53253620 0.16050940
-0.23391863 0.19074945 0.00000000
-0.01639484 -0.59501130 0.05912020
-0.12645419 0.27501235 0.45599959
-0.18621960 0.31824643 0.00000442
-0.13578320 0.00343750 0.48964145
-0.13347994 -0.67175553 0.48133213
-0.15459040 -0.79139742 0.55745701
-0.77881243 -0.23512823 -0.00000141
-0.07867520 -0.56692234 0.28370480
-0.68476061 -0.57802690 -0.00000049
-0.14674960 -0.55251423 0.52918286
-0.31741926 0.45487116 -0.00000033
-0.09506050 0.02318839 0.00000000
-0.37652045 -0.05657357 -0.00000009
-0.04999608 0.53957966 0.18028882
-0.42338685 0.23983726 0.00000123
-0.42806431 -0.68010318 0.00000000
-0.51646199 0.06849839 -0.00000091
-0.02965497 0.51764274 0.00000000
-0.11846322 -0.24681799 0.42718166
-0.08164012 -0.66705773 0.29439639
-0.08204329 0.56130780 0.00000234
-0.14650028 0.00559691 0.52827502
-0.04771558 0.49195855 0.17205763
-0.16439718 -0.05074304 0.59282597
-0.56646279 0.06888683 0.00000133
-0.17743536 0.50458912 0.00000153
-0.09696295 0.23921056 0.34964289
-0.20055414 -0.50592076 0.72320747
-0.07696222 -0.74116112 0.00000000
-0.36428289 0.14028887 -0.00000039
-0.18300303 -0.20051793 0.65991929
-0.01546145 -0.24399393 0.00000000
-0.05576577 0.51321508 0.20109046
-0.18831275 0.01911846 0.67906444
-0.14191937 0.23969438 0.51177115
-0.02715432 0.07710637 0.09788590
-0.10684758 -0.57322091 0.38529514
-0.33916163 0.24059522 -0.00000046
-0.10638503 0.20607223 0.38363035
-0.04281378 -0.67904417 0.15438762
-0.15483424 -0.32686316 0.55833864
-0.00024932 0.44753953 0.00089906
-0.13391012 0.65746094 -0.00000032
-0.08656413 -0.06033041 0.31215249
-0.11164936 -0.29379849 0.40261049
-0.43614244 0.26660654 0.00000053
-0.00107889 0.07121987 0.00389051
-0.19123364 -0.00902686 0.68960139
-0.12243829 0.24926311 0.00000000
-0.16291245 0.32289620 0.00000470
-0.11255643 0.54816518 -0.00000004
-0.09060409 0.23608031 0.32671068
-0.16972898 -0.20737964 0.61205165
-0.38859599 -0.60510884 0.00000000
-0.15720600 -0.10461442 0.56689338
-0.02484546 0.56631585 0.08959338
-0.16704782 -0.75499148 0.60237877
-0.63665254 -0.27081087 -0.00000082
-0.07283633 0.05999050 0.26262439
-0.75903092 -0.61093211 -0.00000047
-0.14137797 0.32390280 0.00000501
-0.12823960 0.05685269 0.46243890
-0.32600646 -0.65732388 0.00000000
-0.27714387 0.11750810 0.00000606
-0.18754428 -0.27152857 0.00000000
-0.17653605 0.08681633 0.63659831
-0.23996437 0.02834391 0.00000795
-0.05181777 0.15817219 0.18683207
-0.01433531 0.73062083 0.00000000
-0.08345650 0.28372555 0.30093728
-0.01651521 -0.69575001 0.00000000
-0.41931476 -0.28436880 0.00000000
-0.57936305 -0.52637769 -0.00000013
-0.08821002 -0.56631561 0.31808762
-0.18887913 0.06325930 0.00000000
-0.12173384 0.07451757 0.00000905
-0.08989504 0.16989398 0.32414946
-0.11274733 0.20847210 0.40656427
-0.03766931 0.34595171 0.13583650
-0.68620497 -0.64021679 -0.00000038
-0.69888803 -0.20538711 -0.00000121
-0.51531208 -0.39207923 -0.00000009
-0.62209411 -0.49179330 -0.00000037
-0.00093005 0.64526995 0.00334572
-0.19138218 -0.23487199 0.69013509
-0.53064248 -0.40097650 -0.00000014
-0.19579473 -0.47679167 0.70604498
-0.01202178 0.00328364 0.00000000
-0.55819868 -0.08117108 -0.00000082
-0.19802085 -0.68560615 0.71407041
-0.03452132 0.46601233 0.12447369
-0.09325165 -0.43189816 0.33626789
-0.04898108 0.14608383 0.00000000
-0.29034928 -0.38434873 0.00000000
-0.19641904 -0.61823386 0.70829485
-0.27103183 0.15070515 -0.00000001
-0.02940776 -0.75253917 0.10604514
-0.01338705 -0.16095761 0.04827405
-0.08343196 0.41893324 0.30085729
-0.13131764 -0.44938265 0.47353483
-0.06026815 0.17628214 0.00000000
-0.39744651 -0.70731740 0.00000000
-0.29206627 0.13602158 -0.00000007
-0.07415451 0.38177589 0.26739762
-0.56470928 -0.75705860 0.00000000
-0.03788393 0.09706193 0.00000997
-0.06463281 0.37811084 0.23305920
-0.18473269 -0.31313734 0.66615566
-0.15012414 -0.52357048 0.54135185
-0.03498254 -0.60903994 0.12614796
-0.04282050 0.24898241 0.15439076
-0.14796135 0.55871119 0.00000119
-0.05588514 0.41975213 0.20152435
-0.32762458 0.17101762 -0.00000029
-0.14156162 0.15822008 0.51048036
-0.19250658 0.11088031 0.00000743
-0.06744453 0.45868660 0.24320905
-0.69158214 -0.12900756 -0.00000131
-0.11181580 -0.28003924 0.40321067
-0.06285279 0.38786003 0.22665012
-0.07876003 -0.04437967 0.28401070
-0.64750211 0.13245607 -0.00000128
-0.03727471 0.63565372 0.13441371
-0.59733172 -0.23293544 -0.00000072
-0.33397180 0.29455499 0.00000203
-0.43494898 -0.78612789 0.00000000
-0.18800687 -0.58890357 0.67796030
-0.03970978 0.38315234 0.00000000
-0.62410329 0.04496239 0.00000063
-0.46254369 -0.06863644 -0.00000044
-0.16535487 0.09482858 0.59627606
-0.11839233 -0.42459387 0.42692581
-0.17869420 0.13043968 0.00000000
-0.12399248 0.33478208 0.44712568
-0.01337196 0.03093710 0.00000000
-0.01218687 -0.39482836 0.04394615
-0.14802074 -0.09127323 0.00000000
-0.76509352 -0.10702960 -0.00000166
-0.05077828 -0.79187290 0.18310781
-0.04188549 -0.68974248 0.15104016
-0.08652739 0.05973519 0.31202037
-0.41009054 0.30195633 -0.00000087
-0.04397959 0.40697854 0.00000523
-0.08322515 0.70305566 0.00000002
-0.00834591 0.55428622 0.03008410
-0.04562301 0.22137006 0.16451777
-0.57577198 -0.30985628 -0.00000050
-0.69729105 -0.33064343 -0.00000098
-0.17284196 0.10387214 0.62328006
-0.05891073 -0.50287314 0.00000000
-0.00240627 0.13384633 0.00000996
-0.30609387 -0.73529875 0.00000000
-0.00025444 0.12101108 0.00091753
-0.38394029 -0.24686142 0.00000000
-0.11956495 -0.61117017 0.43115434
-0.18736851 0.13193486 0.00000000
-0.20264686 -0.40600027 0.73075495
-0.07782391 -0.17643132 0.28063505
-0.32008755 0.35971489 0.00000121
-0.01500036 0.26662600 0.05406615
-0.05230481 -0.47400174 0.18861250
-0.20185370 -0.60870607 0.72789269
-0.11546640 -0.42662336 0.41637483
-0.03014589 0.48738437 0.10869603
-0.35648512 0.36680111 -0.00000076
-0.02752927 -0.17236199 0.09927127
-0.68010386 -0.70353161 -0.00000024
-0.12179070 -0.14152359 0.43918180
-0.16264292 -0.22481108 0.58649842
-0.43532078 0.19262196 -0.00000078
-0.13596375 0.35256271 0.00000000
-0.15623850 -0.18792877 0.56340374
-0.00030578 -0.44537776 0.00000000
-0.10976966 0.06195833 0.39581666
-0.13041153 0.33551553 0.00000500
-0.02802318 -0.08204419 0.00000000
-0.15847608 0.12201915 0.57147535
-0.15052605 -0.24724046 0.54280354
-0.16934059 0.03959575 0.61065318
-0.26985095 0.35009207 0.00000233
-0.07646009 0.28943104 0.27571863
-0.23849910 -0.25632591 0.00000000
-0.03902102 0.36096564 0.00000000
-0.00365746 0.73265669 0.01318888
-0.42126525 0.37674715 -0.00000102
-0.07349396 0.40976365 0.26501724
-0.11988104 -0.35245865 0.43229415
-0.07249568 0.12848648 0.26142129
-0.17019416 0.05814675 0.00000000
-0.12179418 0.21904895 0.43919745
-0.56300878 -0.30393689 -0.00000045
-0.16346100 0.02881130 0.58945069
-0.75378077 -0.26411879 -0.00000134
-0.54027638 -0.18194264 -0.00000057
-0.03901719 -0.19244257 0.14069699
-0.13201808 -0.74917390 0.00000000
-0.32332335 -0.27584667 0.00000000
-0.09030767 -0.75863883 0.00000000
-0.43788447 -0.75686507 0.00000000
-0.21302611 -0.79519560 0.76817930
-0.06543547 0.44302953 0.23595793
-0.26419368 0.45316294 0.00000072
-0.76723100 -0.31073855 -0.00000122
-0.67325771 -0.26005100 -0.00000100
-0.10488917 0.16312878 0.00000000
-0.06420669 0.47574884 0.23152864
-0.13664146 0.01620438 0.49272172
-0.10420892 -0.21874505 0.37578007
-0.48668106 0.19602552 -0.00000101
-0.12326534 -0.33928351 0.44449801
-0.60953246 0.00743156 -0.00000120
-0.23218028 -0.31568890 0.00000000
-0.51487682 -0.28766871 -0.00000027
-0.09941449 0.04989383 0.35849252
-0.38058486 -0.00784749 -0.00000020
-0.36395202 0.37763124 0.00000007
-0.49654146 0.19062502 -0.00000104
-0.12960609 0.32380500 0.00000000
-0.14457117 -0.17961334 0.52133021
-0.01396333 -0.49450971 0.05035213
-0.00652925 -0.25338232 0.02354463
-0.12047126 0.09711051 0.00000873
-0.54144885 -0.22697449 -0.00000050
-0.10609346 -0.64624875 0.38257579
-0.09680359 0.17047086 0.34907838
-0.10203273 0.30489368 0.00000000
-0.12691923 0.58979575 -0.00000017
-0.00424932 0.67985935 0.01531758
-0.09465471 -0.08119917 0.34132735
-0.19650855 -0.63204033 0.70861749
-0.30533022 -0.18668867 0.00000000
-0.20258034 -0.54006411 0.73051373
-0.18701084 0.09227392 0.67437441
-0.03361168 -0.17511694 0.12120459
-0.05052906 0.39046852 0.18220950
-0.22159328 -0.39316891 0.00000000
-0.16665724 0.10698941 0.00000000
-0.30261559 0.10653108 -0.00000007
-0.08216371 -0.72948509 0.00000000
-0.68856340 0.05707286 -0.00000081
-0.14905156 0.56382046 0.00000108
-0.01551551 0.49206131 0.05593591
-0.11641650 -0.14517519 0.00000000
-0.19977508 0.06651204 0.00000799
-0.06945245 -0.48504827 0.25044734
-0.10135881 -0.75542887 0.36550250
-0.09938788 0.18884621 0.00000767
-0.45115434 0.18928261 0.00000154
-0.19746576 -0.13139951 0.71207398
-0.22579045 0.37733659 0.00000272
-0.60045566 -0.63122252 -0.00000003
-0.72466086 -0.66384123 -0.00000034
-0.22398230 -0.20200635 0.00000000
-0.10236747 0.02669598 0.36911987
-0.02162980 0.27730470 0.07797396
-0.34699553 -0.37117800 0.00000000
-0.53715556 0.15088418 0.00000053
-0.17914010 -0.62671424 0.64598552
-0.42366165 -0.42543520 0.00000000
-0.05508710 -0.72005977 0.19864552
-0.78154642 -0.61815229 -0.00000045
-0.43133006 0.19146021 0.00000188
-0.03173174 0.25677677 0.11440267
-0.08191020 -0.04001992 0.29537033
-0.02860257 0.11777328 0.10314163
-0.12557591 0.28323229 0.45283276
-0.10921120 -0.12959130 0.39381893
-0.06593430 -0.53961357 0.23776081
-0.03160187 0.19266766 0.11395715
-0.11216761 0.32405020 0.40448392
-0.78120690 -0.08448323 -0.00000177
-0.41388675 0.06288753 -0.00000046
-0.67269320 -0.36687879 -0.00000081
-0.15806099 0.25142720 0.00000584
-0.00662696 -0.00355010 0.02389699
-0.37113615 0.14828492 -0.00000043
-0.27205319 -0.06434463 0.00000000
-0.68763161 0.02839706 -0.00000032
-0.14128906 0.13546576 0.50948992
-0.09046637 0.37004523 0.32622741
-0.64548817 -0.02272014 -0.00000130
-0.24304373 -0.49964451 0.00000000
-0.00659102 0.42986037 0.02374893
-0.34986269 0.20963356 -0.00000045
-0.06725822 0.27228387 0.24252058
-0.06032246 0.64013392 0.00000149
-0.01873893 -0.15643069 0.00000000
-0.53491927 0.03009251 0.00000259
-0.08702271 0.62618194 -0.00000006
-0.08525247 -0.29166918 0.30742263
-0.00573187 0.72299499 0.02066627
-0.27407958 0.29437347 -0.00000028
-0.40849915 -0.32411407 0.00000000
-0.01266600 -0.03441986 0.00000000
-0.14618502 -0.03057224 0.52715121
-0.23560117 -0.31866938 0.00000000
-0.10898597 0.14940816 0.00000811
-0.01582901 0.00345264 0.00000000
-0.39703683 0.11075462 -0.00000048
-0.00038054 -0.01286791 0.00137224
-0.03315168 -0.31704849 0.00000000
-0.33791239 -0.43312684 0.00000000
-0.21589492 0.17172247 0.00000617
-0.01208906 -0.47769762 0.04359346
-0.07459507 0.48174956 0.26899271
-0.17810789 -0.16416150 0.00000000
-0.09343276 0.34280172 0.00000545
-0.64601060 -0.67721799 -0.00000015
-0.05751710 0.18168861 0.20740817
-0.62898296 -0.79832586 0.00000000
-0.01437069 -0.50935652 0.05182107
-0.07578705 -0.70023747 0.27329006
-0.03853627 -0.05134119 0.13896280
-0.10337707 0.05440548 0.37276253
-0.51064931 0.22544445 -0.00000116
-0.01026181 0.50076865 0.03700434
-0.15467112 0.33511829 0.00000464
-0.25690211 0.22197205 0.00000472
-0.01481029 0.30711219 0.05338288
-0.26761854 -0.50383888 0.00000000
-0.12025391 -0.45933573 0.43363872
-0.44907347 0.27574822 0.00000013
-0.55542411 -0.41938733 -0.00000021
-0.18120778 -0.01501050 0.65344704
-0.00586680 0.67167132 0.02115014
-0.20965987 -0.55419557 0.75604286
-0.72593605 0.05675482 -0.00000178
-0.23473730 0.38885898 0.00000236
-0.02596710 0.24801375 0.09363803
-0.19087755 -0.72183020 0.68831080
-0.04839528 0.67451177 0.00000115
-0.02762313 0.50272369 0.09960971
-0.06369689 0.22361776 0.22967428
-0.03243253 -0.34956037 0.11695254
-0.01180847 -0.51663796 0.04258166
-0.16537020 -0.00233550 0.00000000
-0.05202175 -0.21340623 0.18759178
-0.73774035 -0.03137626 -0.00000168
-0.05153942 0.44007526 0.00000462
-0.04428204 -0.76391119 0.15968219
-0.02808392 0.45470790 0.10125838
-0.09691539 -0.24843037 0.34947941
-0.09527473 -0.28479535 0.34356316
-0.41185206 0.07200026 -0.00000047
-0.77034731 -0.71907065 -0.00000020
-0.00727832 0.16607094 0.02621340
-0.19460330 0.49956462 0.00000128
-0.65233972 -0.12216017 -0.00000115
-0.08852807 0.64581311 -0.00000011
-0.54479436 0.10936510 0.00000107
-0.23458871 0.19505694 0.00000553
-0.32739828 0.26453095 -0.00000045
-0.05066713 -0.72441361 0.18270699
-0.20223023 -0.42354506 0.72925240
-0.14944185 -0.43404279 0.53889218
-0.49919500 -0.26366783 -0.00000025
-0.10681720 -0.78349712 0.38518562
-0.15612413 0.23151011 0.00000000
-0.22175320 0.32218914 -0.00000010
-0.05629035 -0.61292163 0.20298446
-0.00391696 0.59987980 0.01412466
-0.26397334 0.41718801 0.00000133
-0.19092145 -0.59661106 0.00000000
-0.35854622 0.06728708 0.00000535
-0.00654404 -0.38762810 0.02359797
-0.21122036 0.46050197 -0.00000030
-0.08340927 0.29799282 0.30076786
-0.16063195 0.03194374 0.57924887
-0.04760111 -0.13867838 0.17165086
-0.16440314 -0.07131594 0.59284730
-0.44851348 -0.25469310 -0.00000005
-0.19922908 0.22848291 0.00000000
-0.00966674 0.20388547 0.03485853
-0.19741652 -0.65773730 0.71189143
-0.01467486 -0.72437474 0.05291793
-0.68862561 0.07728242 -0.00000115
-0.06733641 -0.59358471 0.24281686
-0.33235012 -0.45024857 0.00000000
-0.79548800 -0.17490846 -0.00000156
-0.33019433 -0.41644601 0.00000000
-0.69068749 -0.52642120 -0.00000060
-0.01500050 0.26997709 0.05409219
-0.47101367 -0.34086940 0.00000000
-0.69104730 -0.28136379 -0.00000104
-0.00303624 0.36268914 0.01094878
-0.15419442 -0.16516735 0.55603277
-0.31453517 -0.66636269 0.00000000
-0.09368814 -0.24525141 0.33784189
-0.06151957 -0.56649655 0.00000000
-0.12337790 0.11117256 0.44489525
-0.37653735 0.41500161 -0.00000080
-0.04549569 -0.45468617 0.16405865
-0.51715359 -0.32393722 -0.00000022
-0.61894952 0.08079825 0.00000013
-0.15549060 -0.38830647 0.56070500
-0.43703845 0.13340841 0.00000274
-0.67958046 -0.48038417 -0.00000064
-0.02934954 0.14906986 0.10580619
-0.06290849 -0.00452172 0.22684967
-0.11949317 -0.75624993 0.43089548
-0.01134574 0.12919195 0.04091305
-0.40704881 -0.00619824 -0.00000031
-0.08768703 0.03849490 0.31620199
-0.02739831 0.11013650 0.09879902
-0.05947835 0.31847345 0.21446691
-0.10562069 0.01884014 0.38085149
-0.20962097 -0.21999494 0.75590599
-0.69186309 -0.62774801 -0.00000043
-0.71866758 -0.49641628 -0.00000076
-0.14328262 -0.18772700 0.51668348
-0.09352121 -0.66790432 0.00000000
-0.02724464 0.14421358 0.09821522
-0.11720994 -0.09091539 0.00000000
-0.03661119 0.16996078 0.13202090
-0.08315789 0.02999249 0.29986952
-0.13324787 -0.33048896 0.48049590
-0.10421519 -0.23636747 0.00000000
-0.18469373 0.07082844 0.66601641
-0.12390518 0.01509882 0.44680818
-0.09825713 0.21297107 0.00000732
-0.16389419 -0.72760520 0.00000000
-0.29158549 -0.04859558 0.00000000
-0.02815156 0.21054436 0.10148929
-0.08601764 -0.68232985 0.31018184
-0.13144481 0.14476045 0.47398909
-0.02615576 0.24640318 0.00000791
-0.07430881 -0.75158993 0.26795951
-0.31575758 -0.19286934 0.00000000
-0.67178246 -0.10075038 -0.00000127
-0.09620539 -0.14952227 0.34691914
-0.73097511 -0.51276113 -0.00000072
-0.64437214 -0.23859709 -0.00000091
-0.14577275 -0.23394122 0.52566278
-0.04465671 0.56499582 0.16103103
-0.09590715 0.24891855 0.00000000
-0.18247489 0.10168607 0.00000772
-0.14497110 -0.53355212 0.00000000
-0.10260771 -0.36068993 0.37000608
-0.14605728 0.08211919 0.52669151
-0.02505600 -0.43105545 0.09035258
-0.12171274 0.11159579 0.43890283
-0.03156645 0.11564118 0.11382942
-0.35528141 0.06613863 0.00000544
-0.02599263 -0.52318377 0.09373012
-0.06159120 0.28562271 0.22209984
-0.15734009 -0.55467966 0.00000000
-0.17530548 -0.21999011 0.63216096
-0.20605036 -0.65349090 0.74302568
-0.68265540 0.06181542 -0.00000161
-0.00312986 0.65434723 0.00000214
-0.61557085 -0.15297994 -0.00000094
-0.17372845 0.27283762 0.00000529
-0.10807295 0.38930812 0.38971839
-0.29416921 0.48876937 -0.00000071
-0.36853376 -0.77580815 0.00000000
-0.48373594 -0.39779574 0.00000000
-0.68303424 -0.29403296 -0.00000098
-0.14308878 0.36778681 0.00000432
-0.21488406 0.30317918 0.00000417
-0.12676424 0.30847140 0.45711982
-0.07536672 -0.29347289 0.27177434
-0.10613247 0.15250990 0.00000000
-0.63892930 -0.74530259 0.00000000
-0.08369606 -0.07596153 0.30181017
-0.16795362 -0.65104533 0.60564569
-0.04360936 -0.59330809 0.15725650
-0.16392785 -0.45041669 0.59113009
-0.25961644 -0.64629036 0.00000000
-0.02152713 -0.76916580 0.07762738
-0.12125999 0.02013459 0.43725169
-0.69287982 -0.44336389 -0.00000076
-0.09048062 0.26756950 0.32626741
-0.04124271 0.42950760 0.00000494
-0.02576541 0.71829743 0.00000084
-0.44408825 -0.09234547 -0.00000032
-0.04204147 0.55753175 0.00000300
-0.00536970 -0.00050030 0.01936329
-0.63101240 -0.04949832 -0.00000119
-0.04592789 0.18458567 0.16559328
-0.61232291 -0.37941977 -0.00000053
-0.04924827 0.19897923 0.17759053
-0.46876670 -0.39038653 0.00000000
-0.01036834 0.17138217 0.03738851
-0.33038743 0.19507819 -0.00000034
-0.59433914 -0.70373488 0.00000000
-0.08799520 -0.44086430 0.00000000
-0.19454220 -0.34539666 0.70152949
-0.30738178 0.42397072 -0.00000065
-0.77696298 -0.24479662 -0.00000139
-0.00043626 0.50101718 0.00155732
-0.09454022 -0.48806825 0.00000000
-0.07827608 0.07764883 0.28226560
-0.09593748 -0.74727529 0.34595305
-0.12611309 -0.33440589 0.00000000
-0.36932039 -0.36456288 0.00000000
-0.05807033 0.42613373 0.20939591
-0.01191064 -0.48411019 0.04295009
-0.22157840 -0.26981553 0.00000000
-0.38992964 0.19231344 -0.00000059
-0.40145860 -0.44844518 0.00000000
-0.08481636 -0.08452377 0.30585001
-0.13861984 0.25104399 0.49987117
-0.09648929 -0.74944138 0.34794289
-0.06118096 0.35825609 0.22060953
-0.14559569 0.24363138 0.52502836
-0.03000933 0.60235852 0.10821041
-0.04889165 0.19075377 0.17628158
-0.31443895 -0.25472880 0.00000000
-0.01596514 0.49291976 0.00000000
-0.26559063 0.24488383 0.00000417
-0.11212032 0.15469639 0.00000000
-0.63144260 0.13653714 -0.00000152
-0.14015002 -0.17944608 0.50538710
-0.23588129 -0.40184303 0.00000000
-0.75616944 -0.03915685 -0.00000174
-0.05225823 0.03817742 0.18844455
-0.00194101 -0.61983001 0.00000000
-0.19577237 -0.49506344 0.70596416
-0.04177872 -0.36054846 0.00000000
-0.01198470 -0.69669008 0.00000000
-0.34856643 -0.38094933 0.00000000
-0.16581953 -0.48424603 0.59795138
-0.11672743 -0.60028273 0.00000000
-0.31022923 -0.62515722 0.00000000
-0.14522790 0.08135912 0.52370070
-0.09066662 0.11923503 0.32692885
-0.62772554 0.01893623 -0.00000130
-0.33688273 0.11118535 0.00000504
-0.48333769 0.26833939 -0.00000040
-0.76958859 0.02555601 -0.00000192
-0.08125034 0.36774517 0.00000526
-0.04249915 0.57791813 0.00000000
-0.13258550 -0.42648535 0.47810678
-0.05205017 0.36714419 0.18769461
-0.36448346 0.43477880 -0.00000091
-0.77921144 -0.31704075 -0.00000121
-0.03728344 -0.59776939 0.00000000
-0.12443064 0.20674025 0.44869777
-0.20515252 0.02169608 0.73979398
-0.10487036 -0.44663979 0.37816523
-0.01260363 0.28151103 0.04542381
-0.20169839 -0.62691258 0.72733246
-0.10561231 0.32240857 0.38084485
-0.05912238 0.01881971 0.21319683
-0.11939363 -0.02258842 0.43053874
-0.45984158 0.07106660 0.00000335
-0.10598648 -0.41339839 0.38219001
-0.19220757 -0.35303262 0.69311053
-0.18730275 0.08308192 0.67542697
-0.14381165 -0.37981665 0.00000000
-0.74267316 -0.72579700 -0.00000019
-0.18258822 -0.74715605 0.00000000
-0.14468420 0.49122780 0.00000238
-0.29987442 -0.10159958 0.00000000
-0.30965112 0.10376040 -0.00000009
-0.53296859 0.20011458 -0.00000121
-0.17584909 0.29335824 0.00000495
-0.03739904 0.06416129 0.00000000
-0.10921528 0.25087775 0.39383692
-0.01768265 -0.16310302 0.06376410
-0.60039660 0.11033878 -0.00000134
-0.01068952 0.23763794 0.03854669
-0.21037148 -0.32048491 0.75861134
-0.00427572 0.58395256 0.01541835
-0.11899147 -0.78376158 0.42908634
-0.19386906 -0.21869588 0.00000000
-0.13495772 0.17015305 0.00000741
-0.03372084 0.31970100 0.12159824
-0.06286294 0.44749727 0.22668726
-0.17153859 -0.53945336 0.00000000
-0.05284540 0.59955040 0.19056413
-0.33237841 0.06318850 0.00000593
-0.18224904 0.36707789 -0.00000001
-0.17452700 -0.17805303 0.00000000
-0.41329591 0.02582698 -0.00000040
-0.67241778 -0.44073263 -0.00000068
-0.08654352 -0.10364628 0.31207818
-0.07220525 0.11904084 0.26035172
-0.18118818 -0.07605114 0.65337581
-0.19809827 0.52525943 0.00000079
-0.55280811 -0.17691433 -0.00000063
-0.07210798 0.29378459 0.26002449
-0.18892258 -0.08704774 0.68126680
-0.12123397 -0.07727611 0.00000000
-0.32809655 0.24405518 0.00000299
-0.75324123 -0.72929963 -0.00000018
-0.03211289 0.27603627 0.00000000
-0.19453174 0.29972316 0.00000000
-0.17073237 -0.29431689 0.00000000
-0.69289187 -0.61601006 -0.00000045
-0.39709041 -0.49448094 0.00000000
-0.68018221 -0.54792220 -0.00000052
-0.33145541 0.43184803 -0.00000022
-0.04747058 0.36392951 0.17118014
-0.02608970 -0.30297514 0.09408014
-0.13152403 -0.24775101 0.47428027
-0.27945137 0.05817514 0.00000691
-0.26357868 0.08186717 0.00000679
-0.24689185 -0.19762834 0.00000000
-0.02432512 0.61833388 0.08771242
-0.65557170 -0.56147295 -0.00000039
-0.08488117 0.41885188 0.30608704
-0.49237297 -0.14540827 -0.00000043
-0.09625235 0.38918046 0.34708966
-0.01775126 0.51593566 0.06399980
-0.11647559 -0.47533401 0.42001401
-0.38420116 -0.50695422 0.00000000
-0.14132606 0.14997222 0.50962426
-0.16632368 -0.50771978 0.00000000
-0.01582057 0.62983618 0.05704938
-0.05057304 0.40808565 0.18235723
-0.12433341 0.00705559 0.44835236
-0.18614530 -0.73982918 0.67124581
-0.23134377 -0.41408161 0.00000000
-0.47369488 0.20799999 0.00000079
-0.52562777 0.17795483 0.00000030
-0.21999445 -0.13544780 0.00000000
-0.20187103 0.52274036 -0.00000037
-0.07826429 0.37216272 0.28222548
-0.32613083 0.26765329 0.00000263
-0.13921218 0.55549398 -0.00000016
-0.02530707 0.52014196 0.09124793
-0.06535372 0.14351909 0.23564491
-0.34268051 0.29514638 0.00000185
-0.60849578 -0.63650966 -0.00000006
-0.01931408 -0.57612611 0.06964707
-0.29888821 0.36893850 0.00000146
-0.04146774 0.17219378 0.14953376
-0.18656951 -0.08613624 0.67278139
-0.06655467 -0.55534613 0.23999788
-0.70929437 -0.21268898 -0.00000124
-0.11842788 0.61616416 -0.00000018
-0.07146792 0.49506120 0.00000000
-0.50406481 -0.41421517 -0.00000000
-0.15037496 0.15372494 0.54226212
-0.19449760 -0.43951360 0.70136781
-0.37179796 -0.22047830 0.00000000
-0.22885625 0.20125939 0.00000553
-0.02419367 0.10496014 0.00000000
-0.00864965 -0.50331144 0.03119088
-0.09289846 -0.74066832 0.00000000
-0.03758268 0.62342037 0.13552358
-0.61005147 -0.18430463 -0.00000086
-0.17801443 -0.60428753 0.64192643
-0.21296594 -0.52826483 0.76796505
-0.18437226 -0.48968087 0.66485440
-0.50855527 0.12734133 0.00000147
-0.12145322 -0.35472116 0.00000000
-0.78339082 -0.65877358 -0.00000035
-0.66529047 -0.62945614 -0.00000031
-0.44815036 0.26415034 -0.00000097
-0.47159279 0.29827366 -0.00000113
-0.03387551 0.61763401 0.00000000
-0.42985407 -0.70051254 0.00000000
-0.15018455 -0.11477107 0.54157320
-0.43220311 0.01756019 -0.00000046
-0.46678026 0.28255082 -0.00000108
-0.05153811 0.39286951 0.00000533
-0.04325365 0.21812979 0.15597378
-0.13324744 -0.08833451 0.48049644
-0.13732562 -0.16646841 0.49520210
-0.28609201 0.13586243 0.00000560
-0.06307457 0.73457819 -0.00000012
-0.76030946 -0.31615816 -0.00000121
-0.06043323 -0.55410840 0.21792379
-0.11571398 -0.05523572 0.41726924
-0.00957761 0.29803160 0.03453713
-0.15801924 -0.16021171 0.56982551
-0.14007365 -0.50630146 0.50510922
-0.14709607 0.11176307 0.53043026
-0.38035202 0.11666194 -0.00000042
-0.03297859 -0.38996592 0.11892166
-0.21911731 -0.38208562 0.00000000
-0.33679910 -0.30078765 0.00000000
-0.03322419 -0.10929172 0.00000000
-0.11759815 -0.42975446 0.42406199
-0.01618044 -0.24102615 0.05834710
-0.45505146 -0.14879023 -0.00000026
-0.18556682 -0.68612615 0.66916029
-0.02830662 -0.40037710 0.10207441
-0.03372177 -0.27058027 0.00000000
-0.21303123 -0.48787516 0.00000000
-0.34060084 -0.04364646 0.00000000
-0.07392458 0.00895183 0.26657395
-0.34642467 0.13109560 -0.00000030
-0.13480027 0.25739545 0.48609910
-0.03321743 0.24110878 0.11975957
-0.04606817 -0.75877777 0.16612300
-0.16362937 -0.50203088 0.59005328
-0.05148044 -0.72405744 0.18563981
-0.12714204 -0.17792673 0.45847898
-0.02816568 0.04605940 0.10156616
-0.03365613 -0.03985208 0.12136490
-0.20800869 -0.66058154 0.75008748
-0.62111218 -0.36815227 -0.00000059
-0.02394175 -0.62669848 0.08633456
-0.12222638 0.30854537 0.44075492
-0.31324350 -0.58660726 0.00000000
-0.06739153 0.38533613 0.24301728
-0.00819526 -0.39264288 0.02955232
-0.40785410 -0.19912681 0.00000000
-0.48934598 0.17780931 0.00000100
-0.06458133 0.55109520 0.23288483
-0.13822336 0.01932469 0.49844105
-0.15527059 0.04068339 0.55991533
-0.47475448 -0.67163777 0.00000000
-0.04509914 -0.27891226 0.16262869
-0.06619551 0.26661326 0.23868778
-0.40652564 -0.65815124 0.00000000
-0.09708082 0.11917036 0.35007765
-0.05048862 0.19109836 0.18204062
-0.17125650 -0.47733857 0.61755770
-0.09592056 0.00127101 0.34589262
-0.49879633 0.16009770 -0.00000100
-0.12043909 0.06754685 0.43429425
-0.06544582 -0.04394221 0.23599931
-0.10788033 -0.13617890 0.38901961
-0.04625094 -0.01435500 0.16678209
-0.00151489 -0.53083226 0.00546275
-0.57170639 0.06571032 -0.00000114
-0.17822728 -0.42178545 0.64269557
-0.54182880 0.02156757 0.00000260
-0.10701523 -0.35954282 0.00000000
-0.08067022 -0.21145401 0.29089890
-0.08602002 -0.41907127 0.00000000
-0.18384941 0.06485210 0.00000825
-0.03608099 -0.17972260 0.13010900
-0.04232675 -0.59406247 0.15263138
-0.01385074 -0.70716496 0.04994614
-0.20290005 0.37388014 0.00000322
-0.01569271 -0.10553078 0.00000000
-0.33683879 0.24438322 0.00000281
-0.26068716 -0.61086533 0.00000000
-0.05897409 -0.33132293 0.21266212
-0.00228572 0.09435907 0.00820518
-0.15893396 -0.38529790 0.57312215
-0.47060553 0.05711732 0.00000337
-0.00426611 -0.34009162 0.01538370
-0.20149596 -0.34721030 0.72660533
-0.05550252 0.24417535 0.20012468
-0.07938553 -0.47863773 0.00000000
-0.11123178 -0.76358417 0.40110469
-0.14723493 -0.64357962 0.53093299
-0.01146771 0.09224022 0.04135288
-0.28338597 0.37024959 -0.00000045
-0.03414098 -0.08429602 0.12311327
-0.04119057 0.55315290 0.00000000
-0.02762029 -0.78835927 0.09959949
-0.01774675 0.25123307 0.06396942
-0.01859489 0.49464081 0.00000000
-0.20052095 -0.69935954 0.72308580
-0.05920408 0.44085435 0.00000000
-0.09290904 0.69811615 -0.00000008
-0.58920843 -0.30087001 -0.00000057
-0.16373428 0.15222898 0.00000000
-0.05329061 -0.76311635 0.19216732
-0.10943066 0.34158192 0.39461173
-0.01888253 -0.31821117 0.06809088
-0.05360123 0.24060057 0.19326802
-0.53337748 -0.33331479 -0.00000027
-0.03980285 0.53353282 0.14353091
-0.59056237 -0.72701398 0.00000000
-0.07924299 -0.14139730 0.28575229
-0.58331142 -0.46264738 -0.00000026
-0.53757411 0.18465122 -0.00000121
-0.41426354 0.26735829 -0.00000083
-0.08900333 0.22575633 0.32095030
-0.00242318 0.30483531 0.00873807
-0.48972860 0.15760349 -0.00000095
-0.30630678 0.40762210 -0.00000061
-0.29557928 0.29114121 -0.00000036
-0.12222122 0.10876556 0.00000852
-0.02889856 0.43843393 0.10419528
-0.04474022 0.23668880 0.16131304
-0.00193097 0.51172913 0.00696313
-0.18225273 -0.08851812 0.65721461
-0.29887823 0.28062087 0.00000294
-0.02180778 -0.05640283 0.00000000
-0.06578322 0.51425513 0.23721650
-0.16209220 -0.36930364 0.58451124
-0.10441063 0.22141345 0.37651058
-0.60358569 0.19186413 -0.00000143
-0.14907813 -0.25448550 0.53758213
-0.37615403 0.00638360 0.00000603
-0.16617293 -0.28694242 0.59922748
-0.00441911 -0.18028060 0.01593543
-0.42114868 0.02130878 -0.00000042
-0.67555933 0.08821155 -0.00000162
-0.11355860 0.08266074 0.00000905
-0.06562393 -0.77728595 0.23664160
-0.11740657 -0.46320313 0.42337114
-0.10535482 -0.65091314 0.37991222
-0.20053401 0.01815535 0.72313971
-0.40499929 0.30839017 -0.00000086
-0.71832810 -0.39508508 -0.00000095
-0.05089600 0.41493636 0.18353295
-0.16042179 0.47557904 -0.00000011
-0.14150220 0.09895923 0.51025628
-0.21348680 -0.65596258 0.00000000
-0.34310045 -0.16977515 0.00000000
-0.01268211 0.10278100 0.04569728
-0.19070686 0.37707263 0.00000340
-0.04273288 0.53070573 0.15409093
-0.10859740 0.20393952 0.39159804
-0.11086928 -0.58358135 0.00000000
-0.03475205 0.58882825 0.12531769
-0.15014162 -0.36836157 0.54141621
-0.09065208 -0.38633644 0.32689377
-0.16408355 -0.45079280 0.59169153
-0.12627683 -0.25725663 0.45535826
-0.14805276 -0.25136318 0.53388456
-0.02696721 0.65732112 0.09724305
-0.06646119 0.12912789 0.23966077
-0.34587715 -0.44898617 0.00000000
-0.73732735 -0.15242476 -0.00000146
-0.10771676 0.13475607 0.38843209
-0.03774074 0.20629007 0.13609408
-0.07365640 -0.28683725 0.26560688
-0.31799324 0.34844019 -0.00000056
-0.00685859 -0.24761934 0.02473226
-0.10462874 -0.18107545 0.00000000
-0.14572140 -0.62020320 0.52547515
-0.13755506 -0.34418830 0.49602799
-0.33515714 -0.54332290 0.00000000
-0.63404569 -0.37564219 -0.00000063
-0.12350874 0.48249162 0.00000000
-0.28798154 -0.67104789 0.00000000
-0.38334218 0.19606775 -0.00000057
-0.17905025 0.22983231 0.00000000
-0.07803239 0.07658648 0.28138683
-0.29826544 0.31682892 -0.00000042
-0.13570789 -0.68511642 0.48936620
-0.69156128 -0.49475866 -0.00000066
-0.04319966 -0.31035268 0.00000000
-0.17711975 -0.58584201 0.63870028
-0.14720296 -0.50476568 0.53081793
-0.09835704 0.23668020 0.00000697
-0.21601610 -0.15972485 0.00000000
-0.64207650 -0.20500124 -0.00000096
-0.43180326 0.28770538 0.00000027
-0.14728644 -0.26857324 0.53112098
-0.15860858 0.64002970 -0.00000037
-0.29195201 -0.15045883 0.00000000
-0.00353131 -0.47689734 0.01273401
-0.30637803 0.36636007 -0.00000054
-0.45716705 0.33497124 -0.00000113
-0.10606389 0.21604603 0.38247237
-0.42874439 -0.60717431 0.00000000
-0.13632618 -0.58795723 0.00000000
-0.61531618 -0.36957802 -0.00000056
-0.02989695 0.61403967 0.10780991
-0.08309988 -0.26033520 0.29966034
-0.07848496 0.14934749 0.28299994
-0.19666162 -0.47167735 0.00000000
-0.01006590 0.59254716 0.03628879
-0.08029841 -0.72330635 0.00000000
-0.13942447 0.00248055 0.50277225
-0.04894595 -0.63796459 0.00000000
-0.76567391 -0.12947324 -0.00000162
-0.01882442 0.48338288 0.06786811
-0.21915810 -0.25174827 0.00000000
-0.11024115 -0.57494641 0.39753246
-0.06137499 0.07146038 0.22131982
-0.42457604 -0.16856058 -0.00000010
-0.12069860 0.67174173 -0.00000029
-0.15487640 -0.44525275 0.55848966
-0.56925690 -0.34091259 -0.00000041
-0.71829313 -0.53577371 -0.00000066
-0.59713026 0.16531028 -0.00000143
-0.52586760 -0.68231936 0.00000000
-0.09262208 -0.18597728 0.33399763
-0.40705292 0.29938904 -0.00000085
-0.03103505 0.54124313 0.00000000
-0.09070104 0.24352508 0.32706076
-0.55018171 0.11135555 0.00000094
-0.05106895 0.45274489 0.18415695
-0.36081976 -0.34097059 0.00000000
-0.18236071 -0.25463291 0.65760258
-0.75461838 -0.72250137 -0.00000019
-0.04609255 -0.14069638 0.16621092
-0.19915445 -0.55016459 0.71815962
-0.14870611 0.15075882 0.53624407
-0.62134528 -0.11926508 -0.00000103
-0.60180845 0.02630143 -0.00000120
-0.02752810 0.25675268 0.09926705
-0.36359512 0.31631817 0.00000110
-0.11464894 0.16602803 0.41343052
-0.15743647 0.21054073 0.56772718
-0.28738326 0.21776618 0.00000421
-0.75278079 -0.73159229 -0.00000017
-0.45453170 0.26650293 0.00000018
-0.11010076 0.21800295 0.00000000
-0.29344608 -0.15587548 0.00000000
-0.04046896 0.23783823 0.14593211
-0.78032536 -0.50756085 -0.00000073
-0.20078026 -0.71603665 0.72402071
-0.13568976 -0.69278670 0.48930082
-0.04394155 -0.02244691 0.00000000
-0.01529110 0.39224083 0.00000000
-0.08629772 0.24367475 0.00000000
-0.17020313 -0.45170479 0.61375937
-0.64853786 -0.43284895 -0.00000059
-0.02716775 0.21327909 0.09794159
-0.18085930 0.01386594 0.65218470
-0.23902832 -0.72016995 0.00000000
-0.16083235 0.30455821 0.00000000
-0.32736209 0.22333088 -0.00000038
-0.32038863 0.41467295 0.00000028
-0.02758127 -0.52507638 0.00000000
-0.35669928 -0.78299499 0.00000000
-0.01146374 -0.58498465 0.04133853
-0.45691815 0.05121143 -0.00000063
-0.27750732 0.38251343 0.00000164
-0.25020987 0.42816930 -0.00000041
-0.01539121 0.48184788 0.05548713
-0.19627756 0.17969948 0.00000634
-0.57913349 -0.43315386 -0.00000029
-0.17000516 -0.45173583 0.61304547
-0.02566687 -0.74479646 0.00000000
-0.04213734 0.21863528 0.15192554
-0.07013051 -0.62612795 0.25289245
-0.09935054 0.17347024 0.35824914
-0.77898068 -0.36633986 -0.00000108
-0.11375733 0.29205052 0.00000000
-0.10947608 0.21263372 0.00000000
-0.04047514 0.53380895 0.14595528
-0.04570591 -0.59664701 0.16481670
-0.05768819 -0.00014881 0.00000000
-0.13268486 0.08606955 0.00000871
-0.05884425 0.63812807 0.00000154
-0.71064939 -0.14185664 -0.00000137
-0.02622504 -0.04341654 0.09456817
-0.04197880 0.08069443 0.15134644
-0.03640147 -0.16427721 0.13126464
-0.43936177 0.33701033 -0.00000106
-0.07583304 -0.64302887 0.27345590
-0.08744992 -0.43932871 0.31534668
-0.61609430 0.18015690 -0.00000153
-0.02599176 0.68612739 0.09372800
-0.04327694 0.05945723 0.15602668
-0.07260956 -0.43646079 0.00000000
-0.16804152 -0.35589129 0.60596522
-0.79037036 -0.12265645 -0.00000169
-0.04881734 -0.64097694 0.00000000
-0.14797794 -0.20009083 0.53361520
-0.13166644 -0.40300768 0.47479262
-0.02059635 0.09944834 0.07427096
-0.01041018 0.27419432 0.03753937
-0.03599215 0.62897555 0.12978797
-0.07869291 -0.52418102 0.28376867
-0.50199540 -0.74179768 0.00000000
-0.19318813 -0.72063601 0.69664294
-0.17115303 -0.58352047 0.00000000
-0.16425642 0.23299047 0.00000000
-0.16253895 0.17246591 0.58612692
-0.30835652 -0.25847712 0.00000000
-0.14439291 -0.54643138 0.52068459
-0.07170590 0.28149441 0.00000000
-0.02014884 0.11868080 0.07265722
-0.51706041 -0.07541885 -0.00000066
-0.19613717 -0.61876664 0.70727840
-0.01031666 0.59805955 0.03720213
-0.15636475 0.05778356 0.56386112
-0.09886830 -0.14679420 0.35652165
-0.17723724 0.07402124 0.63912964
-0.06578530 -0.07737946 0.23722352
-0.36243383 -0.54510237 0.00000000
-0.04606586 0.49802338 0.16610863
-0.10774648 0.06841670 0.00000935
-0.12966950 0.25408907 0.46759696
-0.05856790 0.43015275 0.00000466
-0.07000032 0.48947868 0.25242574
-0.16343015 -0.11550722 0.58933819
-0.10964422 0.01355027 0.39538167
-0.06470713 0.51577089 0.23333818
-0.03253524 -0.58703289 0.11732291
-0.14721955 -0.14296290 0.00000000
-0.06017175 -0.71788743 0.21698088
-0.17081872 -0.64926670 0.61597757
-0.02866470 0.43627029 0.10335181
-0.02591094 0.48915150 0.09343553
-0.10492048 0.33153972 0.37834599
-0.09633496 -0.44564996 0.34738636
-0.24195833 -0.53556769 0.00000000
-0.10633521 0.42745611 0.00000398
-0.41969039 -0.63971246 0.00000000
-0.16192260 0.06029520 0.00000865
-0.35557848 0.17268334 0.00000365
-0.19518299 0.46804896 -0.00000025
-0.00161684 0.11063359 0.00579392
-0.02301127 -0.67858713 0.08297924
-0.28043589 -0.08408703 0.00000000
-0.62880948 -0.08206694 -0.00000112
-0.01758895 0.25366446 0.06340047
-0.03417299 0.60085422 0.12322578
-0.05758269 -0.56264210 0.20764469
-0.14143221 -0.70578800 0.51000824
-0.47247323 0.14748057 -0.00000086
-0.23318226 -0.48024518 0.00000000
-0.39395888 0.32206774 0.00000042
-0.18297730 0.08467722 0.00000797
-0.03725588 0.11612788 0.13434567
-0.06593295 0.45804578 0.23775810
-0.05415083 0.53770713 0.19526801
-0.04635110 -0.73479774 0.00000000
-0.10226259 -0.31760944 0.36876157
-0.15574430 0.19818879 0.00000000
-0.13898872 -0.08614679 0.00000000
-0.05888760 0.55335673 0.21235123
-0.18565286 -0.73768748 0.66947006
-0.00447729 0.57272176 0.01614521
-0.53473787 -0.28950490 -0.00000036
-0.23660310 -0.60493793 0.00000000
-0.22088419 0.16382804 0.00000621
-0.17647999 -0.16214048 0.63639686
-0.44780157 0.11942165 0.00000277
-0.31834230 -0.45235268 0.00000000
-0.05561745 0.56583651 0.00000000
-0.01963767 -0.06649813 0.07081396
-0.19056447 -0.04897151 0.68718792
-0.01568674 0.30621616 0.05654350
-0.09453676 -0.16075263 0.34090202
-0.40435170 -0.16266317 -0.00000002
-0.06777560 0.36701070 0.24439238
-0.14501604 0.09569054 0.52293682
-0.40779425 -0.12203706 -0.00000011
-0.13022362 0.66115838 -0.00000031
-0.11216630 0.08684884 0.00000000
-0.66580048 -0.40084170 -0.00000072
-0.27446408 -0.34204541 0.00000000
-0.10868210 -0.71670678 0.39191047
-0.19990850 -0.29742978 0.00000000
-0.12162609 -0.30705311 0.00000000
