ply
format ascii 1.0
element vertex 1409
property float x
property float y
property float z
end_header
-0.69950627 0.62814360 0.00000000
0.00003918 0.40725107 0.00000000
0.19960885 -0.68739473 0.00000000
-0.18007451 -0.07661660 0.00000000
0.01473729 0.40891675 0.00000000
-0.54585283 -0.69125537 0.00000000
0.31625786 0.31105149 0.00000000
0.47597277 0.59072671 0.39536851
-0.43292937 -0.50882514 0.00000000
-0.04795344 0.26899651 0.00000000
0.44362913 -0.73916466 0.00000000
-0.78350872 0.03091782 0.00000000
-0.77957811 -0.26917943 0.00000000
-0.43445043 0.66044192 0.00000000
0.22166428 0.70652103 0.19002902
0.58054689 0.27225446 0.07827626
-0.64180179 0.38379665 0.00000000
0.53888945 0.47490637 0.31694130
0.44126630 -0.23177324 0.00000000
0.17719999 -0.06913116 0.00000000
0.68070599 -0.68108633 0.00000000
0.08274361 0.50302332 0.00000000
-0.72515951 -0.69235546 0.00000000
0.18917132 -0.76034439 0.00000000
0.65697573 0.06987289 0.00000000
0.32521631 0.52760798 0.07831028
-0.06511996 -0.47908973 0.00000000
0.41401963 -0.11589713 0.00000000
0.75438099 -0.65927819 0.00000000
0.17135590 -0.63052256 0.00000000
0.35092182 -0.70940559 0.00000000
0.57951489 -0.59225547 0.00000000
0.44802134 -0.52749314 0.00000000
0.14632544 -0.09021474 0.00000000
-0.49153668 0.22706801 0.00000000
0.43336689 0.59569798 0.33957724
-0.70379585 0.55388488 0.00000000
-0.16877142 -0.47801353 0.00000000
0.00125830 -0.77319752 0.00000000
0.66796149 0.32459686 0.28545752
-0.35760960 -0.76412342 0.00000000
-0.48375688 0.48039333 0.00000000
0.59523978 -0.75242438 0.00000000
-0.67191265 0.30017577 0.00000000
-0.03381272 0.13785404 0.00000000
-0.20853507 -0.44692137 0.00000000
-0.26947738 0.73445116 0.00000000
-0.46096063 -0.40344312 0.00000000
-0.05190880 0.14718679 0.00000000
-0.18986099 -0.15703356 0.00000000
0.20867001 0.60904288 0.02625975
0.67429135 -0.31763414 0.00000000
0.67764710 0.00790781 0.00000000
0.57135327 -0.57174408 0.00000000
-0.16563096 0.21416253 0.00000000
-0.01336964 -0.04498067 0.00000000
-0.71889757 -0.01041587 0.00000000
-0.56296848 -0.40019259 0.00000000
0.17802668 -0.64339481 0.00000000
-0.51059882 0.69578553 0.00000000
0.60448514 -0.72491737 0.00000000
0.39229488 -0.62677604 0.00000000
0.18009395 0.15903728 0.00000000
-0.14903593 0.13387369 0.00000000
0.66135965 0.01677915 0.00000000
0.52754005 0.47308500 0.29741636
-0.36880113 -0.64724497 0.00000000
-0.30706573 -0.20472006 0.00000000
-0.20041632 -0.59256378 0.00000000
0.20805799 -0.01335333 0.00000000
0.79137574 -0.60504346 0.00000000
0.17170443 0.29028299 0.00000000
-0.76554904 -0.31444916 0.00000000
-0.31216074 -0.26199950 0.00000000
0.09272616 0.62840316 0.00000000
-0.30208028 -0.16151193 0.00000000
0.41489561 0.09638404 0.00000000
0.74040624 -0.64290314 0.00000000
0.27954694 -0.26665940 0.00000000
0.48438414 0.49974869 0.27296759
0.41867175 0.51851540 0.20337320
-0.11773701 0.77933709 0.00000000
-0.03256029 0.15887648 0.00000000
0.49137112 0.59671328 0.42707051
-0.69713480 -0.72057578 0.00000000
-0.60697044 -0.17191958 0.00000000
0.47154384 -0.37846099 0.00000000
0.65305318 0.22021361 0.10861505
-0.08084362 -0.77989239 0.00000000
-0.53353933 -0.71392649 0.00000000
0.03496704 -0.27470663 0.00000000
-0.55731870 0.70807420 0.00000000
-0.58005181 -0.04740759 0.00000000
-0.15261842 -0.32257651 0.00000000
-0.71120468 0.60076316 0.00000000
0.06792036 0.32907364 0.00000000
-0.34521427 0.63067110 0.00000000
-0.16929103 0.36495206 0.00000000
0.45439214 -0.63133435 0.00000000
-0.48061432 -0.68975511 0.00000000
-0.51372155 0.37138931 0.00000000
0.65900507 0.33523063 0.28794410
-0.79249621 0.72689868 0.00000000
0.51445165 0.34552214 0.08890897
0.70931572 -0.23676287 0.00000000
0.04492899 0.47562752 0.00000000
-0.78543066 0.01355808 0.00000000
0.69890335 -0.72605360 0.00000000
0.54440993 0.26629339 0.01586848
-0.68005717 -0.76510083 0.00000000
-0.48487036 0.31546415 0.00000000
0.02820322 0.33798507 0.00000000
-0.29896977 -0.74752295 0.00000000
-0.13686524 -0.50567205 0.00000000
-0.68139205 -0.43575754 0.00000000
0.68046385 0.28956661 0.25206130
-0.66587477 -0.41905474 0.00000000
0.33242928 -0.10732893 0.00000000
0.04634762 -0.53549617 0.00000000
-0.62498072 0.50338985 0.00000000
-0.58727943 -0.63781675 0.00000000
0.76702121 0.00428171 0.00000000
-0.55840650 -0.17464415 0.00000000
0.07410880 -0.42503382 0.00000000
0.12202750 0.46433221 0.00000000
-0.48451389 -0.35223010 0.00000000
-0.09413926 -0.43761505 0.00000000
0.74569329 0.05934757 0.00747423
-0.57022714 -0.36241632 0.00000000
0.69020731 0.18463257 0.11094705
0.35283344 0.48943906 0.06266789
-0.69065300 0.43267314 0.00000000
-0.38788045 0.04489076 0.00000000
0.66498871 -0.12845162 0.00000000
-0.04899664 0.55032812 0.00000000
0.64802497 0.07183369 0.00000000
0.19652261 0.72031837 0.17321170
-0.21991390 0.30679859 0.00000000
-0.31313972 0.54554919 0.00000000
-0.31517978 -0.28406385 0.00000000
-0.60879868 0.17060056 0.00000000
-0.72466085 -0.07780873 0.00000000
0.26814713 0.69183453 0.23716537
-0.63580977 -0.60764060 0.00000000
0.36131650 0.61442986 0.26053544
-0.46776063 -0.10528457 0.00000000
-0.38173758 0.52419443 0.00000000
-0.59155962 -0.05360218 0.00000000
0.72638171 -0.48818964 0.00000000
0.45839489 0.48475751 0.21221625
-0.47257036 0.54474798 0.00000000
-0.39954570 -0.62296276 0.00000000
0.00611062 0.29255663 0.00000000
0.43364307 0.49631510 0.19265657
-0.61320795 -0.64722898 0.00000000
-0.33471647 -0.64348563 0.00000000
-0.12155089 0.30737434 0.00000000
-0.67834541 0.77848062 0.00000000
-0.07027588 -0.67139834 0.00000000
-0.02537560 0.46027658 0.00000000
0.35043561 0.03874868 0.00000000
-0.43606122 0.53942505 0.00000000
0.26944359 -0.78191182 0.00000000
0.40344382 -0.07000885 0.00000000
-0.29686076 0.38626812 0.00000000
-0.04328212 -0.18684561 0.00000000
0.64828536 0.25641469 0.15521294
0.38521622 -0.29866058 0.00000000
-0.57014194 -0.23438884 0.00000000
0.61343030 0.33129067 0.21454153
0.04009267 -0.35865537 0.00000000
-0.24053342 0.23743698 0.00000000
-0.24423152 0.31872616 0.00000000
-0.72580104 -0.54163789 0.00000000
0.55783275 0.54791493 0.45325525
0.09759684 -0.77139835 0.00000000
0.63915809 -0.34632250 0.00000000
0.22495563 0.64299057 0.10072759
-0.50534620 0.19258603 0.00000000
0.42562932 0.02822341 0.00000000
-0.52988715 0.49022692 0.00000000
-0.52109367 0.72712615 0.00000000
0.02040772 -0.56961203 0.00000000
-0.18831924 0.51804288 0.00000000
0.00028141 0.64266189 0.00000000
0.01575221 0.65596088 0.00000000
-0.11245330 0.23015585 0.00000000
-0.70751678 0.63804694 0.00000000
-0.58731409 -0.25491885 0.00000000
-0.70571197 -0.49147891 0.00000000
0.27686186 0.66762016 0.21418791
-0.63937431 0.53474874 0.00000000
0.50281892 0.45927262 0.24029244
0.60049316 -0.50881143 0.00000000
-0.50628477 0.45904465 0.00000000
0.09359884 -0.28672321 0.00000000
0.37012497 -0.76786258 0.00000000
0.74088923 -0.09363363 0.00000000
-0.19372858 0.02257847 0.00000000
-0.30805260 -0.11955394 0.00000000
0.10556310 0.38118506 0.00000000
0.04520882 0.42730452 0.00000000
0.75145383 -0.50535562 0.00000000
0.45280801 0.47648013 0.19166330
-0.55573588 -0.58749286 0.00000000
0.04585095 0.16166296 0.00000000
0.59450058 0.24328920 0.05602252
0.58672390 -0.35511991 0.00000000
0.02982084 0.27985919 0.00000000
-0.48382569 0.52175020 0.00000000
0.04070036 0.13627877 0.00000000
0.30917625 -0.31570405 0.00000000
0.09943309 0.74221334 0.06173990
0.52128926 -0.23109784 0.00000000
-0.45778727 0.63788897 0.00000000
0.52359023 0.42088520 0.21417752
0.37525112 0.63290424 0.30858012
0.64465509 -0.25339905 0.00000000
-0.60229495 -0.71566955 0.00000000
-0.00248111 0.39220514 0.00000000
0.00831363 -0.43390921 0.00000000
0.62391935 -0.01278315 0.00000000
0.25429074 0.14013562 0.00000000
0.37871191 -0.43453106 0.00000000
0.36992477 -0.43992404 0.00000000
-0.49405915 0.00968180 0.00000000
0.06102548 0.33339681 0.00000000
-0.73523165 -0.36578593 0.00000000
-0.29318099 0.00649733 0.00000000
0.51516803 0.59057960 0.45325529
0.20846933 0.54736270 0.00000000
-0.19337270 0.44938419 0.00000000
-0.04193273 0.02176348 0.00000000
-0.49455495 0.68241088 0.00000000
0.07579679 -0.38192857 0.00000000
0.14978632 -0.51485547 0.00000000
0.60258872 0.06685846 0.00000000
-0.76662471 -0.51910669 0.00000000
-0.05256798 0.66824414 0.00000000
0.57547460 0.36892434 0.21406414
-0.25789708 0.39034787 0.00000000
0.65105795 -0.37089973 0.00000000
-0.30366910 0.34592485 0.00000000
-0.57522795 0.22026191 0.00000000
-0.24923193 -0.33560014 0.00000000
0.40944295 0.04697581 0.00000000
0.07316830 -0.48250951 0.00000000
-0.34701240 0.69224604 0.00000000
0.44114541 -0.62431018 0.00000000
0.39831752 -0.18291887 0.00000000
0.73395701 0.06497354 0.00000000
0.18238106 -0.54942068 0.00000000
0.10487868 -0.45519893 0.00000000
-0.20670994 0.62755606 0.00000000
0.24259775 -0.03307737 0.00000000
0.76665271 -0.25991437 0.00000000
-0.15453642 0.72548669 0.00000000
0.45314609 -0.55435895 0.00000000
0.22060636 0.30753284 0.00000000
-0.38159307 -0.62653133 0.00000000
0.56856904 -0.01930373 0.00000000
0.54684822 0.33395897 0.11979322
0.14130693 0.26537726 0.00000000
-0.64506707 0.34790658 0.00000000
-0.74890058 0.30460531 0.00000000
-0.66196041 0.51063529 0.00000000
0.18789644 -0.05511434 0.00000000
0.05872811 0.32329735 0.00000000
-0.34529978 0.46172983 0.00000000
-0.49507004 -0.49681699 0.00000000
0.05897134 0.57389893 0.00000000
-0.27508644 -0.52139928 0.00000000
-0.49053671 0.13397236 0.00000000
0.32815883 0.62351811 0.22485385
0.47906866 -0.73147705 0.00000000
0.46395649 -0.79303297 0.00000000
0.39051909 0.12936835 0.00000000
0.59823313 -0.53768901 0.00000000
0.05376119 -0.46048200 0.00000000
-0.48279938 0.19681031 0.00000000
0.56889540 -0.50114692 0.00000000
-0.40211873 0.04908129 0.00000000
-0.29175700 -0.55140780 0.00000000
0.16636073 -0.47272535 0.00000000
0.25521973 0.59776344 0.07854579
0.29896763 0.64281015 0.21017894
-0.07778430 -0.28603949 0.00000000
0.55943764 0.25497953 0.02137404
-0.14979275 -0.52519728 0.00000000
0.60482731 0.06847183 0.00000000
0.39509846 -0.78500194 0.00000000
-0.16329624 0.45807565 0.00000000
0.61367027 0.36629817 0.26679376
-0.01748795 0.31299399 0.00000000
-0.36714652 -0.62830634 0.00000000
-0.01808179 -0.16734786 0.00000000
-0.70512287 -0.76054609 0.00000000
-0.10331438 -0.73187817 0.00000000
0.35686299 0.59944432 0.23171806
0.16807386 -0.57541457 0.00000000
0.52756057 0.34318463 0.10487693
0.16571585 0.67308381 0.05751961
-0.09636993 -0.44591807 0.00000000
-0.22361027 -0.46484973 0.00000000
0.37581224 0.45940054 0.05220227
0.16972541 -0.79196032 0.00000000
-0.23970376 -0.38226767 0.00000000
0.60541847 -0.41514867 0.00000000
0.39285695 0.16925544 0.00000000
0.48941659 0.52471990 0.31744649
-0.47426342 0.19466289 0.00000000
-0.21731620 -0.76810629 0.00000000
0.75752145 -0.49925023 0.00000000
0.43619894 0.08995226 0.00000000
-0.22584433 0.02400536 0.00000000
0.54679601 0.30675952 0.07939429
-0.11478127 0.35532129 0.00000000
0.55637717 0.30757420 0.09480549
0.63545486 -0.76997462 0.00000000
0.19570411 -0.50347349 0.00000000
-0.10608155 -0.03111602 0.00000000
0.25235427 -0.50353648 0.00000000
0.35722625 0.14178211 0.00000000
-0.76531142 0.30564406 0.00000000
-0.65093352 -0.18200012 0.00000000
-0.48031803 -0.39577452 0.00000000
0.34101224 0.34012373 0.00000000
0.48334490 -0.43875973 0.00000000
0.74030673 -0.09396700 0.00000000
-0.61029634 0.01887234 0.00000000
0.39907638 0.55209723 0.22410749
-0.53202422 0.21869713 0.00000000
0.32330615 0.40266222 0.00000000
-0.46098295 0.38464093 0.00000000
0.78669692 -0.72997880 0.00000000
-0.11153563 0.06611879 0.00000000
-0.03437380 -0.25374023 0.00000000
-0.42560364 0.40157908 0.00000000
0.10936929 -0.57818674 0.00000000
0.12819950 -0.79147637 0.00000000
0.52402413 -0.56910748 0.00000000
0.63789392 -0.73781868 0.00000000
0.08914664 -0.60608500 0.00000000
-0.25144468 -0.34867050 0.00000000
-0.13667273 -0.25307500 0.00000000
-0.38784338 -0.66639710 0.00000000
-0.13326929 0.09301893 0.00000000
0.67364196 -0.35363708 0.00000000
0.57064623 -0.15292938 0.00000000
0.47811666 0.46212561 0.20790213
-0.65751342 0.35551489 0.00000000
-0.39330483 0.57223135 0.00000000
0.66001021 -0.45740818 0.00000000
-0.15293202 -0.05920119 0.00000000
0.49814376 0.36041927 0.08681759
0.44052930 -0.29791417 0.00000000
0.54767333 -0.52097027 0.00000000
0.32852678 0.58319258 0.16561877
-0.39173320 -0.71673884 0.00000000
-0.60884963 0.17645782 0.00000000
-0.25123098 -0.50212961 0.00000000
0.32125841 0.19424165 0.00000000
-0.00777656 -0.72914368 0.00000000
0.01206077 -0.77476950 0.00000000
0.47553184 0.35161410 0.04024367
-0.39339211 0.79053283 0.00000000
-0.41094953 -0.38782184 0.00000000
0.43674707 -0.76500849 0.00000000
-0.61217851 -0.31737246 0.00000000
0.58132435 0.33607251 0.17403519
0.14510264 -0.76412463 0.00000000
-0.45588820 0.60649564 0.00000000
-0.65871457 0.01213728 0.00000000
-0.66967436 0.75271883 0.00000000
0.12644126 0.74875478 0.11147541
-0.24072464 0.20846347 0.00000000
0.12612852 -0.69146554 0.00000000
-0.25477096 0.18976484 0.00000000
-0.67489881 0.09539185 0.00000000
0.25444495 -0.77367183 0.00000000
-0.26780677 -0.19324090 0.00000000
0.25863348 0.59460861 0.07892964
-0.44735197 -0.06033622 0.00000000
0.76551598 0.05435082 0.02945280
0.31360174 -0.29466848 0.00000000
0.62817356 -0.08280602 0.00000000
0.03007486 0.31387818 0.00000000
-0.47672372 0.15744806 0.00000000
0.68014459 -0.51975097 0.00000000
0.42377170 0.50930862 0.19728502
-0.36417351 -0.64331721 0.00000000
-0.22980459 -0.11179655 0.00000000
-0.45662846 -0.59646086 0.00000000
-0.78408298 -0.09901148 0.00000000
0.43202578 0.32818453 0.00000000
0.57653701 -0.04239912 0.00000000
0.59411149 0.46316928 0.38140539
0.23249768 0.12471251 0.00000000
-0.33537773 -0.44774228 0.00000000
-0.66276005 0.49582606 0.00000000
0.27805421 0.23296749 0.00000000
-0.46213329 0.71411582 0.00000000
0.19195855 0.68935997 0.12055147
-0.57527147 -0.27544174 0.00000000
0.15966680 0.51323030 0.00000000
0.08463916 -0.04027929 0.00000000
0.09353622 -0.06713255 0.00000000
0.48024995 -0.07857081 0.00000000
-0.74404287 -0.19249848 0.00000000
0.50168121 -0.56355932 0.00000000
0.33890546 0.34516160 0.00000000
0.51502291 -0.17799150 0.00000000
-0.46634435 -0.14927895 0.00000000
0.63235793 -0.73113896 0.00000000
0.41588697 0.30718281 0.00000000
-0.48495472 -0.40924637 0.00000000
0.46907175 0.28902500 0.00000000
-0.42797865 -0.52087746 0.00000000
-0.72256855 0.58555587 0.00000000
-0.01725452 -0.18095501 0.00000000
-0.28369998 -0.35366915 0.00000000
0.15837808 0.00783299 0.00000000
0.46053755 -0.29104822 0.00000000
-0.34208143 -0.32956556 0.00000000
0.57854968 -0.75076431 0.00000000
-0.73284448 -0.29893176 0.00000000
0.74357700 -0.66495244 0.00000000
0.61660610 -0.50031739 0.00000000
0.38400662 -0.21774205 0.00000000
-0.49083954 0.53320373 0.00000000
0.32973415 -0.58112233 0.00000000
-0.09709543 -0.76040341 0.00000000
0.09528258 0.02695691 0.00000000
0.51517104 -0.75798600 0.00000000
-0.52701050 0.42233527 0.00000000
0.11765082 0.48703395 0.00000000
-0.49481301 0.08216296 0.00000000
-0.75448977 -0.08183301 0.00000000
-0.58762989 -0.25080789 0.00000000
-0.70411848 0.65825135 0.00000000
-0.32844242 -0.43605852 0.00000000
-0.72049132 -0.12905776 0.00000000
-0.16864622 0.03426765 0.00000000
-0.20787137 -0.04803780 0.00000000
-0.74154138 -0.07122724 0.00000000
0.64563142 -0.35723576 0.00000000
0.59915254 -0.64578392 0.00000000
-0.51127135 -0.78591451 0.00000000
-0.60754073 0.67945704 0.00000000
0.21312994 -0.47678266 0.00000000
0.78667658 -0.00330844 0.00000000
0.75214190 0.08394159 0.05349305
0.69168927 -0.20807571 0.00000000
-0.04677103 -0.06548041 0.00000000
-0.66308415 0.46872055 0.00000000
-0.17529502 0.70018991 0.00000000
0.58471664 -0.48489564 0.00000000
-0.08321686 0.33318937 0.00000000
0.31714573 -0.07023009 0.00000000
-0.33225967 0.55062471 0.00000000
0.45100271 -0.09628990 0.00000000
0.02708269 -0.16797236 0.00000000
-0.76424150 -0.49426627 0.00000000
-0.10369199 -0.58201582 0.00000000
0.45404597 0.26263827 0.00000000
0.11122660 0.46641490 0.00000000
0.49247626 0.08361139 0.00000000
-0.57612429 0.12739134 0.00000000
0.70531912 -0.53178357 0.00000000
-0.54310456 -0.11653630 0.00000000
-0.71092150 -0.45471672 0.00000000
0.32850482 0.00323668 0.00000000
0.51846976 0.58043609 0.44311269
0.38159556 0.39451173 0.00000000
0.36115980 0.04734091 0.00000000
-0.10305949 0.70995964 0.00000000
0.12593846 0.15776716 0.00000000
-0.61125271 -0.13956174 0.00000000
-0.39447425 0.15910456 0.00000000
-0.52428595 0.40369072 0.00000000
0.56744619 -0.39484406 0.00000000
-0.27565904 -0.61136075 0.00000000
-0.66669562 0.30480072 0.00000000
0.60247375 -0.49462257 0.00000000
0.42342990 -0.06648757 0.00000000
0.00187505 -0.73527295 0.00000000
0.48867595 0.44047066 0.19145349
0.30080976 -0.02768078 0.00000000
0.11746617 0.75272495 0.10405590
-0.50280844 0.23257658 0.00000000
-0.35715901 0.00016044 0.00000000
0.73630068 -0.54333249 0.00000000
0.71149942 -0.38360726 0.00000000
0.42802483 0.29562159 0.00000000
0.58826189 0.34983657 0.20472406
-0.08382820 0.11812894 0.00000000
-0.69728731 0.34899640 0.00000000
-0.39242481 0.01475099 0.00000000
-0.65585146 0.41431293 0.00000000
0.34581727 -0.14044067 0.00000000
-0.78010669 -0.01984504 0.00000000
-0.79755145 0.20026442 0.00000000
-0.40069398 0.35552343 0.00000000
0.15398235 0.69717277 0.07583587
-0.42713603 0.06943203 0.00000000
0.07797866 -0.25444550 0.00000000
0.66861971 -0.46802316 0.00000000
0.27364592 -0.09687953 0.00000000
-0.46561036 -0.24607788 0.00000000
0.49177903 0.17128870 0.00000000
0.59320998 -0.17859225 0.00000000
-0.64262804 0.41403840 0.00000000
-0.76287278 -0.70630148 0.00000000
0.45559376 0.02688466 0.00000000
0.18576567 -0.52967428 0.00000000
0.19522443 0.14793328 0.00000000
-0.62300539 -0.71366246 0.00000000
-0.10091808 -0.59641234 0.00000000
0.03760348 -0.69677594 0.00000000
-0.75452511 0.75217593 0.00000000
0.13854422 -0.17479072 0.00000000
0.23265755 0.45098205 0.00000000
-0.17849494 0.32516788 0.00000000
0.58260217 -0.69209516 0.00000000
-0.71229227 -0.45835286 0.00000000
-0.48694744 -0.21046740 0.00000000
0.51085254 0.19631232 0.00000000
0.55327199 0.14388572 0.00000000
-0.73989001 0.32505227 0.00000000
-0.19582614 0.18004354 0.00000000
-0.26855344 -0.36063085 0.00000000
-0.49432158 0.61610861 0.00000000
-0.46851723 0.65718450 0.00000000
0.02507342 -0.12284352 0.00000000
-0.29276676 0.08708996 0.00000000
0.42442286 0.46928503 0.13891772
0.22001102 -0.42926986 0.00000000
-0.62539395 0.43714473 0.00000000
0.01576040 -0.35313335 0.00000000
-0.60431849 -0.34768026 0.00000000
-0.13241693 -0.59140730 0.00000000
-0.75101777 0.76681530 0.00000000
-0.25295041 0.17500227 0.00000000
-0.31382854 0.32007910 0.00000000
0.35434265 0.29889533 0.00000000
0.51338070 -0.46968679 0.00000000
0.52256785 -0.34603505 0.00000000
-0.53496671 -0.04597260 0.00000000
-0.58946106 0.05501977 0.00000000
-0.05331744 0.67268799 0.00000000
-0.75167532 0.39756587 0.00000000
0.20407310 -0.07026335 0.00000000
0.21609845 0.63504882 0.07582418
0.60394497 0.36661138 0.25284091
0.00449358 0.61882714 0.00000000
0.45796142 -0.62845875 0.00000000
0.43724227 -0.14575795 0.00000000
0.74158538 0.11775620 0.08797176
0.18029272 -0.66816573 0.00000000
-0.26273909 0.33784141 0.00000000
-0.33693106 0.52526715 0.00000000
-0.39941969 0.34998305 0.00000000
-0.66386451 0.42526447 0.00000000
0.23964512 0.08590632 0.00000000
0.50415505 -0.05458566 0.00000000
0.09722720 0.22791448 0.00000000
0.36715544 -0.01277965 0.00000000
-0.15169268 -0.36458091 0.00000000
-0.61909672 0.74512961 0.00000000
-0.53207210 -0.28448533 0.00000000
-0.12382594 -0.20055499 0.00000000
0.67430782 0.18031615 0.08097819
0.17508311 -0.29092033 0.00000000
0.24259290 0.19379498 0.00000000
0.13699573 -0.20233263 0.00000000
-0.14813607 0.64705349 0.00000000
-0.03963661 0.13164993 0.00000000
-0.18333397 0.08753285 0.00000000
-0.56620902 -0.24366626 0.00000000
0.34497348 0.27020677 0.00000000
-0.49269012 -0.75559537 0.00000000
-0.39707934 0.05847950 0.00000000
0.61188229 0.46427792 0.40939313
0.42413738 -0.68056066 0.00000000
-0.46288429 -0.64170555 0.00000000
0.62844408 -0.42613175 0.00000000
-0.19716962 0.54333030 0.00000000
0.39102120 0.35400022 0.00000000
-0.14789286 -0.57875579 0.00000000
0.76385937 0.02630202 0.00000000
0.06278737 0.60333326 0.00000000
0.74302973 -0.00440366 0.00000000
-0.14970711 -0.74342849 0.00000000
0.61176128 0.26279379 0.11052483
-0.60351309 0.16579906 0.00000000
0.28916808 -0.26618065 0.00000000
0.40182835 -0.69914156 0.00000000
-0.29230484 -0.13588311 0.00000000
0.71483099 0.00389785 0.00000000
0.29161417 0.61404093 0.15662892
-0.63418632 0.48633957 0.00000000
-0.48309681 -0.33467337 0.00000000
0.00176914 0.04326851 0.00000000
0.79979057 -0.72108441 0.00000000
0.18769035 0.33705085 0.00000000
-0.76903277 -0.19978645 0.00000000
-0.55607356 0.61736465 0.00000000
0.37686945 0.29465042 0.00000000
0.62707113 0.35790139 0.27421201
-0.65198155 -0.43593549 0.00000000
0.41015172 -0.39520369 0.00000000
-0.10182609 0.63888847 0.00000000
-0.13217811 0.64986550 0.00000000
-0.33769376 -0.48211834 0.00000000
-0.33712691 0.34816025 0.00000000
-0.20229954 -0.40897745 0.00000000
0.15737142 0.65070234 0.01197031
-0.78303363 0.09294645 0.00000000
0.05069942 -0.32346642 0.00000000
-0.25384340 0.40283435 0.00000000
0.49747183 0.35066186 0.07135674
0.02546916 -0.32623013 0.00000000
0.03430122 0.18880201 0.00000000
0.51684186 -0.40474232 0.00000000
0.00104320 -0.70072776 0.00000000
0.02663679 -0.34795843 0.00000000
-0.75502066 -0.46747242 0.00000000
0.28120074 -0.29392249 0.00000000
-0.01330111 -0.24394889 0.00000000
0.08120913 0.17504936 0.00000000
-0.24228762 0.67224698 0.00000000
-0.16116714 -0.20010089 0.00000000
0.39676733 0.40745818 0.00626552
-0.72621904 0.23829342 0.00000000
0.43512354 -0.32409535 0.00000000
-0.74746163 -0.18102091 0.00000000
-0.55127675 -0.72119635 0.00000000
0.29146801 -0.62290871 0.00000000
0.18666697 0.58491389 0.00000000
-0.32596300 -0.22933196 0.00000000
0.56806357 0.28778428 0.08279251
0.47144702 -0.57504256 0.00000000
0.03558377 0.00062761 0.00000000
0.24701667 0.08692308 0.00000000
-0.30761660 -0.59739189 0.00000000
-0.43782735 0.50595775 0.00000000
0.18862638 -0.03517679 0.00000000
-0.46078190 0.74817266 0.00000000
-0.25026605 0.18937097 0.00000000
0.44020336 -0.08237521 0.00000000
-0.33820971 0.24864512 0.00000000
0.57992916 0.22541016 0.00791668
0.14188860 0.68548410 0.04057984
-0.36207475 0.52251089 0.00000000
0.61696889 0.27127036 0.13081081
0.20918079 -0.26607993 0.00000000
0.59262302 0.30799634 0.14916356
0.27163169 0.21028926 0.00000000
-0.04498928 0.38590150 0.00000000
-0.01522428 0.67721890 0.00000000
0.17312638 0.65569238 0.04272353
-0.36164371 -0.46456948 0.00000000
0.63043829 -0.24832600 0.00000000
0.01371768 -0.59876859 0.00000000
0.07692550 -0.32036844 0.00000000
-0.44807676 -0.79612673 0.00000000
-0.16262563 0.63949033 0.00000000
-0.50453301 0.65937973 0.00000000
0.01389274 -0.65261394 0.00000000
0.06275863 0.56375631 0.00000000
-0.01827512 -0.00286007 0.00000000
0.44873042 -0.44279205 0.00000000
-0.00038357 0.18765086 0.00000000
-0.19413394 0.66416457 0.00000000
-0.47174798 0.14351426 0.00000000
-0.62212984 0.45390115 0.00000000
-0.39543332 0.50258760 0.00000000
-0.57445517 0.11221029 0.00000000
0.27585705 0.23004935 0.00000000
0.32838891 -0.02544740 0.00000000
0.16196293 0.69519200 0.08473027
-0.07256051 -0.03842457 0.00000000
-0.03467576 0.29685173 0.00000000
0.11323097 -0.74565710 0.00000000
-0.33279793 -0.19326560 0.00000000
0.34939886 -0.48756059 0.00000000
0.69350553 0.24509056 0.20546176
0.27588498 -0.53001168 0.00000000
-0.21090972 -0.79059543 0.00000000
0.46689002 0.43139245 0.14569925
-0.60957986 0.40718413 0.00000000
0.31146689 0.48023053 0.00000000
-0.32480058 0.36951531 0.00000000
0.62267502 -0.62271372 0.00000000
0.08535555 -0.62549669 0.00000000
0.07824965 0.02478874 0.00000000
0.27069241 0.09030286 0.00000000
-0.53729447 0.59042725 0.00000000
-0.52190013 0.06798118 0.00000000
-0.59957905 0.54160055 0.00000000
-0.72633335 0.23698772 0.00000000
-0.23533213 -0.72361910 0.00000000
0.53681141 -0.54774875 0.00000000
0.46340419 -0.50934695 0.00000000
-0.42770862 -0.24500791 0.00000000
0.47398955 0.51303831 0.27725937
0.59251107 0.38189895 0.25855375
0.33376210 0.46802235 0.00264681
-0.61269595 -0.79596662 0.00000000
-0.07029709 0.61046466 0.00000000
0.68458787 0.13705587 0.03208700
-0.70603148 -0.74551628 0.00000000
-0.47043333 0.47992107 0.00000000
-0.16954925 0.10431782 0.00000000
-0.41865030 0.04605325 0.00000000
-0.49457096 0.24734144 0.00000000
-0.54991555 -0.56997347 0.00000000
0.53059544 0.43104458 0.23962300
-0.23416753 0.64054101 0.00000000
0.65763775 -0.30156232 0.00000000
-0.29036987 0.31980194 0.00000000
0.01043345 0.76032030 0.00000000
-0.15973030 0.29610829 0.00000000
0.74038554 -0.30524853 0.00000000
-0.20995476 -0.17674116 0.00000000
0.05429581 0.49914740 0.00000000
0.27354483 -0.07238549 0.00000000
-0.53775755 -0.01074431 0.00000000
-0.32673144 -0.51698093 0.00000000
0.59044739 -0.21106310 0.00000000
-0.43766184 0.68235745 0.00000000
-0.04242954 -0.51987326 0.00000000
0.50498014 0.50567727 0.31228887
-0.02989782 -0.25296831 0.00000000
0.32658905 -0.57961064 0.00000000
-0.47994029 0.62531746 0.00000000
-0.39839034 0.25598644 0.00000000
0.24801164 0.61822811 0.09819788
-0.53374529 0.11799877 0.00000000
-0.52600329 -0.33394403 0.00000000
0.11746174 0.53298959 0.00000000
0.29317559 0.67394735 0.24775189
-0.46653955 0.68284614 0.00000000
-0.66702483 0.60485491 0.00000000
-0.45163648 0.50947979 0.00000000
-0.09192515 0.46103863 0.00000000
0.34045976 -0.08195072 0.00000000
-0.33937967 0.44903470 0.00000000
-0.66116429 -0.12749653 0.00000000
-0.71130658 0.30722200 0.00000000
0.38314463 0.45072192 0.05020657
0.10789056 -0.75558224 0.00000000
-0.74661315 -0.20939737 0.00000000
0.79152930 -0.55539276 0.00000000
-0.32653558 -0.41191669 0.00000000
-0.02140721 -0.48513992 0.00000000
0.35638119 0.36830308 0.00000000
0.31233110 0.36443670 0.00000000
-0.28774117 -0.77480467 0.00000000
-0.33322871 0.04561692 0.00000000
-0.18744638 -0.76093953 0.00000000
-0.56621172 -0.51100831 0.00000000
0.29092700 -0.00595506 0.00000000
-0.41352622 -0.11247746 0.00000000
-0.11280552 -0.75213532 0.00000000
0.11308769 -0.65552392 0.00000000
-0.02097669 -0.30188481 0.00000000
0.07681810 -0.08708121 0.00000000
-0.38956065 -0.00796871 0.00000000
-0.30532751 0.41023980 0.00000000
0.34777741 -0.60521535 0.00000000
-0.10902596 -0.16019466 0.00000000
-0.02305202 0.46380929 0.00000000
0.39480763 -0.10495619 0.00000000
-0.05265609 -0.21978618 0.00000000
0.19136121 -0.63119766 0.00000000
0.53986717 0.45749117 0.29257358
0.74520444 -0.74666767 0.00000000
0.64998947 -0.18862496 0.00000000
0.36090500 -0.78885515 0.00000000
-0.25420314 0.05647904 0.00000000
0.72780471 0.16142814 0.13228375
0.49359258 -0.45479768 0.00000000
-0.01690967 0.71979332 0.00000000
0.42877709 0.10241836 0.00000000
-0.56693469 0.19173091 0.00000000
0.57592716 0.24023034 0.02395397
-0.18926171 0.22321230 0.00000000
-0.10706470 0.78303424 0.00000000
0.74753779 -0.78685249 0.00000000
0.70039520 0.13139186 0.04712384
-0.31501425 0.67676333 0.00000000
0.70129095 -0.35129607 0.00000000
0.00854278 0.53060886 0.00000000
-0.73255002 -0.49946860 0.00000000
0.01999228 -0.63791526 0.00000000
0.21433838 -0.22688613 0.00000000
-0.75463476 -0.66639975 0.00000000
-0.20338369 0.54276146 0.00000000
-0.61288159 -0.70487729 0.00000000
-0.01300624 0.52530383 0.00000000
-0.55088931 0.25349683 0.00000000
0.02893481 0.49607733 0.00000000
0.02585025 -0.09952563 0.00000000
0.47804983 0.56743708 0.36392194
0.26666592 -0.47132567 0.00000000
0.74745056 0.09836263 0.06791675
0.57480538 -0.20485909 0.00000000
0.61168192 0.06146064 0.00000000
-0.05709734 0.25488954 0.00000000
0.11844499 0.48301360 0.00000000
-0.66193419 0.50817517 0.00000000
-0.41906757 -0.37142322 0.00000000
-0.05940368 -0.19123422 0.00000000
-0.66858634 -0.41263484 0.00000000
0.46242575 0.52238026 0.27396562
0.05120438 -0.05247001 0.00000000
-0.07937254 -0.05964081 0.00000000
0.39756651 -0.11230270 0.00000000
-0.44397761 -0.31142478 0.00000000
-0.13631800 0.71987276 0.00000000
0.12056920 -0.68048640 0.00000000
0.36579631 0.24634049 0.00000000
0.50962046 -0.20085300 0.00000000
0.62944539 -0.79633666 0.00000000
-0.66293087 0.71157301 0.00000000
0.04658601 -0.38368156 0.00000000
-0.03067571 0.71657899 0.00000000
-0.53528288 0.29363279 0.00000000
-0.31394029 -0.07431416 0.00000000
0.61253817 -0.57681722 0.00000000
-0.68481196 0.06996228 0.00000000
-0.46160071 -0.26495371 0.00000000
-0.25111673 0.23031491 0.00000000
0.20942769 -0.27515091 0.00000000
-0.56303559 0.05251941 0.00000000
-0.45588332 0.31587131 0.00000000
0.43666520 0.35027202 0.00000000
0.45704435 0.60473889 0.38808049
0.39352336 0.63721698 0.34206115
0.16207407 0.72575676 0.13020574
-0.70923491 -0.45482706 0.00000000
-0.61691550 -0.53071763 0.00000000
-0.24614954 -0.16792881 0.00000000
0.05873554 0.63438482 0.00000000
0.42710773 -0.62224962 0.00000000
0.48321334 -0.60480423 0.00000000
-0.52409665 0.74763039 0.00000000
-0.71755178 0.24491734 0.00000000
0.54211701 0.55685790 0.44321501
0.35485584 0.40434818 0.00000000
-0.53485661 0.11596473 0.00000000
0.47710166 0.29358588 0.00000000
-0.64246039 0.66138800 0.00000000
0.02367477 0.15394361 0.00000000
0.63050150 -0.12520773 0.00000000
0.21361177 0.43347415 0.00000000
-0.00847255 0.54041790 0.00000000
0.23707223 0.52095141 0.00000000
0.47900930 0.41850055 0.14455390
0.39985938 -0.07371010 0.00000000
0.29411465 0.54135936 0.05258953
-0.79109721 -0.02505188 0.00000000
0.64274782 0.16483155 0.01123742
0.53931186 -0.23596089 0.00000000
-0.59661796 -0.17222690 0.00000000
0.59462781 -0.57077983 0.00000000
0.42836514 0.10241520 0.00000000
-0.46120500 -0.27472319 0.00000000
-0.01831971 -0.71359333 0.00000000
-0.52030785 0.33629283 0.00000000
0.17290673 0.32758371 0.00000000
-0.04061750 -0.78712101 0.00000000
0.43802106 0.59241294 0.34160689
0.63166278 -0.38465418 0.00000000
0.33304376 -0.33852740 0.00000000
0.66732813 -0.38204190 0.00000000
-0.30498831 -0.17185869 0.00000000
-0.71845113 -0.56167580 0.00000000
-0.35333179 0.04208998 0.00000000
0.29600218 -0.17249324 0.00000000
0.28055888 0.49381003 0.00000000
-0.10114734 0.33080340 0.00000000
-0.21041907 -0.11654819 0.00000000
0.37756777 -0.56521387 0.00000000
0.33979940 0.65042687 0.28200126
-0.65174053 -0.47148358 0.00000000
0.42839196 0.10704150 0.00000000
-0.54270676 -0.11409651 0.00000000
-0.54901824 0.69480774 0.00000000
0.71011466 -0.22641034 0.00000000
-0.48881495 -0.55312107 0.00000000
-0.26064481 -0.60055748 0.00000000
0.65561177 0.00077586 0.00000000
-0.75773089 0.77708752 0.00000000
-0.57174976 0.54710503 0.00000000
-0.36730570 0.16308239 0.00000000
-0.32435768 -0.73964106 0.00000000
0.57597502 -0.01627760 0.00000000
0.55140624 -0.38960310 0.00000000
-0.48861562 0.65065341 0.00000000
0.50898356 -0.08790538 0.00000000
0.07458630 0.39370810 0.00000000
-0.66281877 -0.51163389 0.00000000
0.79502787 -0.44569985 0.00000000
-0.66527997 -0.57119549 0.00000000
-0.51320968 0.64249979 0.00000000
-0.38133591 -0.03298474 0.00000000
0.54774911 -0.07146203 0.00000000
-0.24101310 -0.13223055 0.00000000
0.64292656 0.09396650 0.00000000
-0.55824765 -0.06164540 0.00000000
-0.75077319 -0.53925523 0.00000000
-0.21950579 0.47948261 0.00000000
0.30510233 -0.10893831 0.00000000
-0.19532215 0.44563287 0.00000000
-0.25545831 0.77523187 0.00000000
0.33132317 0.52224549 0.07941375
0.31201353 0.64240860 0.22892351
0.21335825 -0.59296430 0.00000000
-0.68860194 -0.18851988 0.00000000
0.42683590 -0.04026086 0.00000000
-0.11486654 -0.15606659 0.00000000
0.73802304 -0.69560539 0.00000000
0.57432802 0.33071954 0.15572810
-0.34706937 0.27364135 0.00000000
0.50426798 0.13696059 0.00000000
-0.64755972 -0.36864363 0.00000000
0.27037006 -0.15265260 0.00000000
-0.07236218 -0.18679875 0.00000000
-0.36152966 -0.39403600 0.00000000
-0.30106920 -0.14875499 0.00000000
-0.42033347 0.52363401 0.00000000
0.60018777 -0.37243053 0.00000000
-0.15237553 -0.66575250 0.00000000
-0.41665303 0.19515043 0.00000000
-0.30646462 -0.01461252 0.00000000
0.16198116 -0.61045622 0.00000000
0.49466997 0.30978287 0.00660253
-0.09238643 0.71492119 0.00000000
0.25232724 0.68197811 0.19910158
0.00012320 0.41798688 0.00000000
-0.58460401 -0.19589114 0.00000000
0.24194360 -0.31436194 0.00000000
0.24964947 0.58410224 0.05003633
0.53440844 -0.38503703 0.00000000
-0.61195429 -0.74368677 0.00000000
-0.62610004 -0.72912190 0.00000000
-0.13965798 -0.71991871 0.00000000
0.56715234 0.39960448 0.24720834
0.50089002 0.49254984 0.28676474
-0.24607661 -0.07533395 0.00000000
-0.12245667 -0.57440760 0.00000000
-0.56548827 0.34830863 0.00000000
-0.57419523 0.11502927 0.00000000
0.35676648 0.64608361 0.30071539
0.47874117 0.50139427 0.26704168
0.08150708 -0.36893181 0.00000000
0.50084164 -0.03364508 0.00000000
0.59785244 0.32977354 0.18919923
-0.73745527 0.28981158 0.00000000
-0.28860815 -0.56635380 0.00000000
0.16709699 0.47092204 0.00000000
0.07727065 -0.56095090 0.00000000
0.29610712 0.63830597 0.19926117
-0.09602747 -0.39245911 0.00000000
0.73755379 -0.61965935 0.00000000
0.16976195 -0.46523169 0.00000000
-0.70200521 -0.01879977 0.00000000
0.12074552 0.59316029 0.00000000
0.28980288 -0.31067343 0.00000000
-0.19360628 -0.44388175 0.00000000
0.09613947 -0.08326286 0.00000000
0.47588758 -0.00821604 0.00000000
0.62201903 -0.72710260 0.00000000
0.47091191 0.39352054 0.09551866
-0.57716865 -0.40936121 0.00000000
0.29896404 -0.79651073 0.00000000
-0.28703813 0.44801895 0.00000000
0.60674820 0.13694493 0.00000000
-0.25841221 0.43444817 0.00000000
0.08979805 0.73376527 0.03493265
0.42616600 0.05473346 0.00000000
-0.19508523 0.31977792 0.00000000
0.51199141 0.08543547 0.00000000
0.47779990 0.52002677 0.29326804
0.36669301 -0.12568800 0.00000000
0.45977705 -0.35384561 0.00000000
0.12494192 0.35846502 0.00000000
0.03372228 -0.39902398 0.00000000
-0.25768322 0.43296593 0.00000000
-0.25858964 -0.19226179 0.00000000
-0.77917571 0.66291823 0.00000000
-0.43583953 0.61818656 0.00000000
-0.08660925 -0.13268354 0.00000000
0.64484272 -0.52170948 0.00000000
-0.55748246 -0.66009934 0.00000000
-0.13994065 -0.54407902 0.00000000
0.74992387 -0.74905576 0.00000000
-0.23033956 -0.10344500 0.00000000
-0.60759922 -0.12879400 0.00000000
0.52208576 0.29238084 0.02144732
-0.01350012 0.69704678 0.00000000
-0.09316594 -0.38285052 0.00000000
-0.36446789 -0.50553215 0.00000000
-0.69436486 0.22099537 0.00000000
0.61307755 -0.15860795 0.00000000
0.44048766 -0.61388716 0.00000000
0.10020641 0.72054018 0.03075702
-0.43292949 -0.02695554 0.00000000
-0.50157848 0.31510870 0.00000000
-0.50130160 0.22128562 0.00000000
-0.41929516 0.65730417 0.00000000
0.43260724 0.13612097 0.00000000
0.47374707 -0.76231233 0.00000000
0.63514843 0.22563262 0.09010568
0.65471934 -0.71097963 0.00000000
0.12504749 0.37623519 0.00000000
0.07014578 0.35513110 0.00000000
0.54664875 0.46417707 0.31253841
0.29402224 -0.79404103 0.00000000
0.45140267 -0.45286469 0.00000000
0.40134594 0.47802269 0.11766064
-0.26046405 -0.24821065 0.00000000
-0.49959369 0.00383423 0.00000000
0.55511812 -0.64133374 0.00000000
-0.36022458 -0.47924219 0.00000000
0.36053698 -0.43374048 0.00000000
-0.66236899 0.42710770 0.00000000
-0.64389240 -0.23445568 0.00000000
0.68054364 0.22060880 0.14995381
0.44768883 0.59343452 0.35745327
0.01097926 0.50274711 0.00000000
-0.56582285 -0.34462179 0.00000000
-0.14023564 0.18173304 0.00000000
-0.72823149 -0.74059697 0.00000000
0.11552323 -0.73435499 0.00000000
0.04086332 0.18817563 0.00000000
-0.27005052 -0.30469177 0.00000000
0.49748847 -0.49771703 0.00000000
-0.10880213 -0.48096597 0.00000000
0.41230431 -0.48687241 0.00000000
-0.65128780 0.22800926 0.00000000
0.50369683 0.23460741 0.00000000
-0.61123449 0.71269226 0.00000000
-0.71564789 0.48423459 0.00000000
-0.02523867 0.63921659 0.00000000
0.44141421 -0.06451876 0.00000000
-0.33265828 -0.78856975 0.00000000
-0.10138881 0.57307067 0.00000000
0.48382095 -0.25881578 0.00000000
0.07093180 0.72711228 0.00000000
0.24360727 0.49139519 0.00000000
-0.49662457 0.24435321 0.00000000
0.05347519 0.58798197 0.00000000
-0.57909728 0.54085030 0.00000000
-0.07153026 -0.09604299 0.00000000
0.45461197 -0.61224429 0.00000000
-0.60974398 0.68999834 0.00000000
0.50913187 0.10829522 0.00000000
0.47995790 0.42182386 0.15088675
-0.10940685 -0.79339415 0.00000000
-0.34526378 0.46595543 0.00000000
-0.44578623 0.19590073 0.00000000
-0.56530242 -0.25127704 0.00000000
-0.07831992 -0.10643106 0.00000000
-0.04736397 -0.09528547 0.00000000
0.49549392 0.42181253 0.17390116
-0.20321260 -0.78356063 0.00000000
-0.09801619 0.77961313 0.00000000
0.28707807 -0.71017300 0.00000000
-0.31492600 -0.10052604 0.00000000
-0.73012833 -0.22855798 0.00000000
0.53712444 -0.76685433 0.00000000
0.53880875 -0.44404125 0.00000000
0.39284298 0.54179789 0.19959854
0.12866758 0.27384080 0.00000000
-0.57121417 -0.60233862 0.00000000
0.21323563 -0.74733517 0.00000000
-0.63009484 -0.66998686 0.00000000
-0.18324187 -0.44245711 0.00000000
0.75189354 -0.53794189 0.00000000
0.70628731 0.15554507 0.09166422
0.12901013 0.45646993 0.00000000
0.61195847 0.37336302 0.27472934
-0.17107370 0.42886180 0.00000000
0.59763358 0.48269925 0.41557889
0.07467619 -0.25892472 0.00000000
-0.31758728 -0.26596236 0.00000000
-0.19705528 -0.57196971 0.00000000
0.61719337 -0.42392284 0.00000000
-0.61609631 0.12252421 0.00000000
-0.24375671 0.47520137 0.00000000
-0.27498983 -0.48853778 0.00000000
-0.66166556 -0.58986626 0.00000000
0.52112799 -0.71523968 0.00000000
0.17900824 0.63864335 0.02616889
-0.50425777 -0.19026360 0.00000000
0.58589571 0.23191184 0.02640008
0.35153943 0.61914749 0.25303512
-0.76143128 -0.02611215 0.00000000
-0.33667303 0.73315863 0.00000000
0.75311518 0.10608626 0.08776400
-0.51161676 -0.69558973 0.00000000
0.10322754 -0.64742332 0.00000000
0.03043457 0.26968291 0.00000000
-0.73049384 0.39356970 0.00000000
-0.73739438 -0.54747174 0.00000000
-0.21034888 -0.68529067 0.00000000
-0.56833755 0.08621903 0.00000000
-0.76450138 0.45408474 0.00000000
-0.24171512 -0.24751081 0.00000000
0.19196618 0.61768485 0.01430854
0.70997812 -0.78020280 0.00000000
-0.20798620 -0.00095729 0.00000000
0.13972553 0.68272839 0.03328805
0.21566209 0.29502906 0.00000000
0.67700791 -0.55893074 0.00000000
0.53360161 0.50834137 0.35866807
-0.43350971 -0.28675118 0.00000000
-0.09716144 0.09986467 0.00000000
-0.27114824 -0.43669635 0.00000000
0.36125156 -0.49329043 0.00000000
0.39580675 0.53932574 0.20032734
-0.37810588 0.02230229 0.00000000
-0.52781511 -0.52070281 0.00000000
0.59107305 0.17285016 0.00000000
-0.33187677 0.51581666 0.00000000
-0.26208209 0.16058660 0.00000000
-0.42121393 0.78670213 0.00000000
-0.53526156 0.22344262 0.00000000
-0.27273116 0.22387905 0.00000000
0.66499682 0.23579671 0.14942176
-0.50594980 -0.44170518 0.00000000
0.33590477 0.62550478 0.23928194
-0.34445380 0.67498818 0.00000000
0.18305158 -0.57729008 0.00000000
-0.20143786 0.72115524 0.00000000
0.03423482 0.76849114 0.00404255
0.58699126 0.39192780 0.26523813
-0.19519007 0.67479718 0.00000000
0.43143889 -0.53614329 0.00000000
-0.79524320 -0.41122624 0.00000000
0.70206890 0.12334351 0.03767382
0.44006485 -0.03006851 0.00000000
0.62930371 -0.06062041 0.00000000
0.50870542 -0.26772436 0.00000000
0.12288971 0.62426333 0.00000000
-0.31447122 0.46336660 0.00000000
-0.64848195 -0.62090915 0.00000000
0.24206642 -0.31428884 0.00000000
0.72312542 0.11907340 0.06255866
0.44358202 -0.73036403 0.00000000
-0.70565615 0.76063353 0.00000000
-0.36861681 -0.06250065 0.00000000
-0.77261712 -0.39576868 0.00000000
0.42761814 -0.52539868 0.00000000
0.26531537 0.57609057 0.06138326
0.61194453 -0.67424460 0.00000000
0.11637478 -0.36638302 0.00000000
0.04661745 0.00108505 0.00000000
0.43786906 -0.53217837 0.00000000
-0.73871470 -0.73103735 0.00000000
0.67124765 -0.28160187 0.00000000
-0.68139843 0.05202467 0.00000000
0.08572080 -0.70345215 0.00000000
-0.40607666 -0.27915929 0.00000000
-0.54355575 -0.72947509 0.00000000
0.35828711 0.54663279 0.15553885
0.37942251 0.14498947 0.00000000
-0.48143055 0.37347119 0.00000000
0.44943205 -0.20150659 0.00000000
0.01357544 -0.72882097 0.00000000
0.36771651 -0.71252232 0.00000000
-0.36963097 0.64072563 0.00000000
0.79302628 -0.33629124 0.00000000
0.23365490 -0.62092257 0.00000000
0.69979595 -0.25377882 0.00000000
0.39920446 0.51586127 0.17057943
0.38027093 0.40481729 0.00000000
-0.72845902 -0.66980439 0.00000000
0.39194662 0.19614515 0.00000000
-0.22552511 0.40085910 0.00000000
-0.68862144 -0.19444585 0.00000000
0.32784372 -0.39269074 0.00000000
-0.31934788 0.74225439 0.00000000
0.10242141 0.44614954 0.00000000
0.36342175 0.23746939 0.00000000
0.03045278 0.73068617 0.00000000
0.19175834 0.38017911 0.00000000
-0.30061531 0.21102057 0.00000000
0.10277577 0.17737793 0.00000000
0.37576596 0.57923357 0.22977927
-0.26552264 0.23146341 0.00000000
-0.71012593 -0.47756658 0.00000000
-0.34385604 -0.32620032 0.00000000
0.42004951 0.49083045 0.16437428
0.69246822 -0.70334289 0.00000000
0.27766272 -0.67363500 0.00000000
-0.63759020 -0.57400592 0.00000000
0.13126835 -0.03850882 0.00000000
0.65461231 0.31998516 0.25883162
0.79417652 -0.39914541 0.00000000
-0.19615185 0.25485027 0.00000000
0.16908801 -0.29947889 0.00000000
-0.54629439 0.56263539 0.00000000
0.38254177 0.54759692 0.19292433
0.08144984 -0.20127507 0.00000000
-0.13702701 -0.75913989 0.00000000
0.62557983 0.19131144 0.02504174
0.21464245 -0.02975814 0.00000000
0.75454821 -0.64371916 0.00000000
0.66947598 0.12392040 0.00000000
-0.36939926 0.05412075 0.00000000
-0.22185747 -0.58764886 0.00000000
0.18451769 -0.69382658 0.00000000
0.22192454 0.46066234 0.00000000
0.73216840 -0.02393868 0.00000000
0.43998656 0.41707964 0.08459864
0.31686602 0.56024863 0.11431925
-0.01131786 0.79957842 0.00000000
0.67379570 -0.66661604 0.00000000
0.72894103 -0.26314695 0.00000000
-0.45313268 -0.31253732 0.00000000
0.03431147 0.77535457 0.01433078
-0.77156725 -0.20127063 0.00000000
0.39340213 0.57037243 0.24278777
-0.72504488 -0.03733515 0.00000000
-0.59147913 -0.59676748 0.00000000
-0.40797000 -0.44441201 0.00000000
-0.39266015 -0.19459735 0.00000000
0.24437728 0.59848080 0.06353597
-0.69765268 0.65547350 0.00000000
-0.28803104 0.19769292 0.00000000
0.43005773 -0.10529073 0.00000000
-0.74481536 0.08491181 0.00000000
0.37569191 0.01443398 0.00000000
0.07024698 0.72661708 0.00000000
-0.73080020 0.35294306 0.00000000
0.44203679 0.40604215 0.07127558
0.00535613 -0.45456100 0.00000000
-0.22695835 -0.27106882 0.00000000
0.12296740 0.40459931 0.00000000
0.24620924 0.67252904 0.17602421
-0.34338709 -0.00536084 0.00000000
0.50982119 -0.48460605 0.00000000
0.32017702 0.45351291 0.00000000
0.17682776 -0.59472320 0.00000000
0.10002012 -0.42268651 0.00000000
-0.79224189 -0.38796270 0.00000000
-0.52787222 0.68843391 0.00000000
-0.01730457 -0.77039660 0.00000000
0.20078596 -0.63736144 0.00000000
-0.30389232 0.54976699 0.00000000
-0.06726045 0.43373605 0.00000000
-0.02259239 -0.48517673 0.00000000
0.13107038 0.27608423 0.00000000
-0.16024121 -0.40728036 0.00000000
0.66868043 0.20514562 0.10944411
0.31660855 0.16919667 0.00000000
0.06717804 0.59079268 0.00000000
-0.78315811 0.23044055 0.00000000
-0.36803248 0.11672119 0.00000000
-0.47904361 -0.42237248 0.00000000
0.39021944 -0.76624662 0.00000000
-0.36630019 0.10032482 0.00000000
-0.13743572 -0.12686716 0.00000000
-0.51136245 -0.79990642 0.00000000
0.39277019 0.61308420 0.30516898
-0.39137744 0.07207974 0.00000000
0.53500076 0.29845999 0.04960500
0.29459198 0.63952919 0.19882842
0.54052328 -0.17558581 0.00000000
0.54310729 0.50094441 0.36179411
-0.52171952 0.45877783 0.00000000
0.13947173 -0.67762967 0.00000000
0.30249589 0.52863805 0.04615564
0.10955634 -0.34895894 0.00000000
-0.42482871 -0.65830605 0.00000000
0.78362019 -0.40582727 0.00000000
-0.35922759 0.12288014 0.00000000
-0.32631661 -0.40722841 0.00000000
0.30368569 -0.46607392 0.00000000
0.28312147 0.00486292 0.00000000
0.17629712 0.26097433 0.00000000
0.73507613 0.02432928 0.00000000
0.62920931 0.16736705 0.00000000
0.44281688 -0.08390106 0.00000000
-0.57140600 0.74554223 0.00000000
0.37056639 -0.07039227 0.00000000
-0.15746102 0.04708568 0.00000000
-0.79766931 -0.66249145 0.00000000
-0.73813925 0.40109318 0.00000000
-0.64544323 -0.61075797 0.00000000
-0.13786926 0.14931888 0.00000000
0.45821715 0.33151041 0.00000000
-0.62700392 0.70653640 0.00000000
0.49163441 0.02104417 0.00000000
-0.24956829 -0.30828809 0.00000000
-0.60299745 0.71153669 0.00000000
-0.31597923 -0.51321387 0.00000000
-0.07468330 0.47825235 0.00000000
-0.35199087 -0.12757800 0.00000000
-0.02409205 0.34569866 0.00000000
0.46877096 0.21613834 0.00000000
0.09567120 0.66798182 0.00000000
-0.59265642 -0.13134863 0.00000000
0.12206933 -0.00273309 0.00000000
-0.10514946 0.03730060 0.00000000
-0.17820509 -0.27601039 0.00000000
-0.52121738 0.30628877 0.00000000
0.59635927 -0.32892831 0.00000000
0.15859936 -0.48331236 0.00000000
-0.62394782 -0.69785665 0.00000000
0.71152747 -0.19865536 0.00000000
-0.08537850 0.65746454 0.00000000
0.22340746 -0.51179992 0.00000000
-0.65164699 0.51550657 0.00000000
0.26762007 -0.53277937 0.00000000
-0.30439274 0.37336086 0.00000000
-0.30985791 -0.06921215 0.00000000
0.46280342 0.01763969 0.00000000
0.69060597 -0.54466080 0.00000000
-0.30757090 -0.35403376 0.00000000
-0.50583754 0.73362965 0.00000000
-0.32545284 -0.06101821 0.00000000
-0.40845847 -0.34583711 0.00000000
0.70392166 -0.05740376 0.00000000
0.67740694 -0.06200539 0.00000000
-0.69022305 -0.16104760 0.00000000
0.14256712 -0.07073562 0.00000000
0.40939741 0.17487442 0.00000000
-0.17115673 0.79441122 0.00000000
-0.70285539 0.05026292 0.00000000
-0.35720103 -0.12666590 0.00000000
0.05079608 0.73084356 0.00000000
-0.77414437 -0.27391671 0.00000000
0.00038319 0.51782551 0.00000000
0.12578257 -0.03032424 0.00000000
-0.00914084 -0.69609568 0.00000000
0.37793725 0.54850008 0.18743725
0.16523895 0.71902168 0.12491310
-0.57658886 0.52714589 0.00000000
-0.69171393 0.37629181 0.00000000
-0.59465192 0.18037414 0.00000000
0.43249174 0.41833769 0.07535301
0.31321812 -0.36592002 0.00000000
0.57121023 0.18409501 0.00000000
-0.62219938 -0.49707502 0.00000000
0.67575356 0.15731149 0.04901840
-0.38826354 -0.18673426 0.00000000
-0.39272625 0.62458556 0.00000000
-0.34893996 -0.36641269 0.00000000
0.00358725 -0.60590495 0.00000000
0.25382640 0.27230638 0.00000000
0.45924522 0.10194510 0.00000000
-0.34798715 0.36805914 0.00000000
-0.75872537 -0.18463356 0.00000000
0.00764820 -0.73531875 0.00000000
0.07827101 -0.16826666 0.00000000
0.54020705 0.47946158 0.32564744
0.19312596 -0.36757157 0.00000000
0.32679675 0.59417949 0.17934163
0.69631385 -0.03125047 0.00000000
0.69009252 -0.56569374 0.00000000
0.31225967 0.41742280 0.00000000
-0.26220847 -0.57633588 0.00000000
0.75223942 -0.33482679 0.00000000
-0.37864727 -0.05868129 0.00000000
0.26635330 -0.53959713 0.00000000
0.66900578 0.07764994 0.00000000
0.13382885 -0.71896835 0.00000000
-0.38885572 -0.30305480 0.00000000
0.06252346 0.73293099 0.00000000
0.50316971 0.10740855 0.00000000
0.41698206 0.43776227 0.08115662
0.04646579 -0.75942448 0.00000000
-0.42105255 0.54636222 0.00000000
0.44984379 0.01401931 0.00000000
-0.27198359 0.48393031 0.00000000
-0.65343771 0.02466881 0.00000000
-0.62848976 -0.61259914 0.00000000
-0.63007550 0.33973174 0.00000000
-0.37322540 -0.22713428 0.00000000
0.10296193 0.74625012 0.07295552
0.08808256 -0.34714406 0.00000000
-0.22829892 -0.49567867 0.00000000
0.15594151 -0.69732730 0.00000000
-0.43770749 0.49271955 0.00000000
-0.46500102 -0.13426694 0.00000000
-0.68385146 -0.64458927 0.00000000
0.09866491 0.50064479 0.00000000
0.43331705 0.08751090 0.00000000
-0.38067338 0.42418638 0.00000000
0.67367335 0.00575158 0.00000000
-0.62540908 0.71690783 0.00000000
-0.77066673 -0.09380294 0.00000000
-0.68092873 -0.13244641 0.00000000
0.15391377 -0.08762980 0.00000000
0.24718975 0.12703715 0.00000000
-0.40290968 0.14256813 0.00000000
-0.71632140 0.18349061 0.00000000
-0.39606896 -0.34715903 0.00000000
-0.43704141 -0.57878912 0.00000000
-0.65396554 0.57464955 0.00000000
-0.25006764 0.42638962 0.00000000
0.03954283 -0.79726409 0.00000000
-0.22036713 -0.31170167 0.00000000
0.36200760 0.37004298 0.00000000
