ply
format ascii 1.0
element vertex 1401
property float x
property float y
property float z
end_header
-0.68314381 -0.75485583 -0.00000011
-0.33754991 -0.56477555 0.00000000
0.24135441 -0.21119437 0.03822656
0.75040265 -0.26358992 0.11885015
-0.09663743 0.57981350 0.00000182
-0.49457794 -0.43675601 0.00000000
-0.08704803 -0.74109695 0.00000000
-0.10725121 0.47106203 0.00000000
-0.09953769 0.59135664 0.00000157
0.13580808 -0.34519549 0.02150976
0.34495519 -0.20073886 0.05463521
0.12684618 0.39350293 0.02009480
-0.51735211 -0.31083037 -0.00000024
-0.15381489 0.52902771 0.00000157
-0.07054981 0.15491288 0.00000000
-0.06152041 0.68347036 0.00000077
-0.07138488 0.17721280 0.00000000
-0.08172504 0.38885988 0.00000000
-0.52204363 0.19488073 -0.00000116
-0.03237295 0.04449799 0.00000000
-0.05243213 0.59520747 0.00000000
-0.24364936 0.17471070 0.00000000
0.21838963 0.15023665 0.03458932
0.01987591 -0.19323886 0.00314802
-0.68753216 0.01918003 -0.00000155
0.02527325 -0.63492323 0.00400287
-0.14053319 0.44686566 0.00000000
-0.32511252 0.04807587 -0.00000006
-0.48517540 -0.05147603 -0.00000057
0.28791074 0.24191502 0.04560443
-0.07142453 0.31823857 0.00000615
0.62382699 0.16653945 0.09880242
-0.73294970 -0.56689339 -0.00000058
-0.47479539 0.05054581 0.00000340
-0.26410807 0.45818456 -0.00000052
0.22941909 0.14886462 0.03634296
-0.29385252 0.40705033 -0.00000056
-0.05114419 -0.42955023 0.00000000
-0.04914008 0.74943277 -0.00000010
0.64374146 -0.64017523 0.10195781
0.62257496 -0.76034516 0.09860561
-0.43863717 0.04716560 0.00000415
-0.23618200 0.47295279 -0.00000043
0.07508489 0.22795574 0.01189995
0.28782657 0.13667061 0.04559299
0.30707270 0.22373859 0.04863496
-0.03103357 0.58795689 0.00000000
0.59353298 0.05828852 0.09400696
-0.64061553 -0.44596932 -0.00000053
0.44893039 -0.40855197 0.07110317
-0.64420818 0.13129891 -0.00000157
-0.50073207 -0.32716617 -0.00000014
-0.07427269 -0.00715103 0.00000000
-0.34895694 0.43277080 -0.00000057
0.03641616 -0.04498626 0.00576772
0.55646556 -0.55996762 0.08813497
-0.12591243 -0.78743661 0.00000000
-0.31994213 0.30516878 0.00000212
-0.67270274 -0.66571316 -0.00000028
-0.14898765 0.29528934 0.00000532
0.00078997 -0.60765566 0.00012512
0.41781066 -0.56141546 0.06617432
0.50106555 0.13968792 0.07936208
-0.71909745 -0.40970484 -0.00000093
0.37039923 -0.58719248 0.05866513
0.32405658 0.30743452 0.05132472
0.12209673 -0.63769901 0.01933811
-0.04587923 -0.30927342 0.00000000
0.68175540 0.08172161 0.10797769
-0.13809323 0.27656588 0.00000000
-0.41271034 0.01042620 -0.00000037
0.07132246 0.01732500 0.01129630
0.44012346 0.32563823 0.06970730
0.36923221 -0.66187611 0.05848029
0.18529689 0.31209128 0.02934797
0.74174558 -0.77677731 0.11748028
0.12960937 0.41230803 0.02053211
0.07747898 0.46036854 0.01227552
-0.04895935 -0.38800573 0.00000000
0.54222007 0.01092474 0.08588175
0.52073243 -0.05526168 0.08247474
0.42627715 0.26633836 0.06751609
0.35267338 -0.37657567 0.05585765
-0.65444376 -0.15957862 -0.00000110
0.29372865 0.29931097 0.04652474
0.10615549 -0.30334548 0.01681328
0.63482449 0.09314701 0.10054537
0.50735174 0.05516084 0.08035910
0.02153363 -0.63459161 0.00341057
-0.17280366 0.44475125 -0.00000011
0.30851236 0.05835436 0.04887027
-0.00278490 0.67863688 0.00000178
0.55623369 -0.21428144 0.08809767
0.18380338 -0.42261354 0.02911142
0.38695324 -0.51853618 0.06128701
-0.78222904 -0.16521817 -0.00000159
-0.09910944 0.16742032 0.00000799
-0.79864798 -0.68482417 -0.00000029
0.71833956 0.01703236 0.11377152
-0.02085790 0.42405243 0.00000532
-0.47243546 0.25909771 -0.00000004
0.78999769 -0.38840296 0.12512169
0.37728721 -0.01919626 0.05975590
-0.75388382 0.03981097 -0.00000178
0.42744110 -0.06256712 0.06769932
0.65749832 0.10248563 0.10413538
-0.66141931 -0.69043616 -0.00000019
-0.17811885 -0.62248074 0.00000000
0.50884580 -0.25063093 0.08059246
0.06676563 0.45295808 0.01057457
0.17166512 0.20781742 0.02719560
-0.33159929 0.22539148 -0.00000040
0.03110146 0.08277620 0.00492596
-0.62650651 -0.20342143 -0.00000090
0.13563683 0.18799476 0.02149013
-0.06100222 0.72476160 0.00000009
0.20933788 0.39667455 0.03315549
0.60007445 0.03685742 0.09504072
-0.09888225 0.47679781 0.00000000
-0.61473082 0.17098797 -0.00000151
0.17322614 0.42779243 0.02743930
0.66234199 -0.66996975 0.10490380
0.27302214 -0.00913009 0.04324221
0.24262820 0.10663723 0.03843553
0.15137495 -0.05589312 0.02397530
0.52803550 0.22389378 0.08363160
0.42208282 0.35386952 0.06684998
0.16930104 -0.12960975 0.02681449
0.22658215 0.55805526 0.03588656
-0.41753642 -0.70866751 0.00000000
0.12460767 0.32428386 0.01974135
-0.20793710 0.32217785 0.00000399
0.35771712 0.06832883 0.05665626
0.11613977 0.61967828 0.01839445
0.14366134 0.11947250 0.02275359
-0.03362368 0.26022526 0.00000000
-0.23321458 0.26626028 0.00000444
0.18311528 0.19427274 0.02900244
-0.24346368 0.05918131 0.00000744
-0.43122198 -0.57155857 0.00000000
-0.68466284 -0.24896263 -0.00000107
0.00967655 -0.74438249 0.00153261
0.65467264 -0.07680367 0.10368815
0.14077659 0.10779655 0.02230534
0.08780534 -0.15851182 0.01390692
0.49913271 -0.02675113 0.07905374
-0.04360980 0.22939344 0.00000000
0.03968449 -0.66765359 0.00628537
0.73803226 -0.78733122 0.11689218
-0.23519790 0.19736480 0.00000549
-0.33919125 0.29556571 -0.00000056
-0.55650574 0.02007591 -0.00000100
-0.16988725 0.03838274 0.00000886
0.48514022 -0.34069340 0.07683814
-0.38270064 0.02125008 -0.00000026
0.08429052 0.12630737 0.01335023
0.34840181 0.24191751 0.05518397
-0.35702159 0.09443101 0.00000493
0.26859274 -0.69680308 0.04254066
0.56328554 0.01160282 0.08921772
-0.15672877 -0.17156677 0.00000000
0.50721566 -0.42323758 0.08033457
-0.45933126 -0.73575640 0.00000000
-0.32755882 -0.64406636 0.00000000
0.41265589 -0.56317435 0.06535789
-0.76511734 -0.17343175 -0.00000154
0.34776020 0.30960684 0.05508114
0.49738398 0.05278268 0.07878062
-0.68224067 -0.13141379 -0.00000127
0.71520336 -0.07530299 0.11327496
-0.30139585 0.14438340 -0.00000013
-0.03120505 -0.72265810 0.00000000
0.37148211 0.04232700 0.05883639
0.40216369 -0.25962363 0.06369610
-0.54686156 0.19314725 -0.00000037
-0.09464204 0.44277561 0.00000000
-0.74156326 0.01119114 -0.00000177
0.38609141 -0.79801737 0.06115051
0.28911493 0.43416934 0.04579166
-0.52160365 -0.37270453 -0.00000015
-0.64540418 -0.57517290 -0.00000032
0.19720133 -0.43073371 0.03123344
-0.28879105 -0.10748475 0.00000000
-0.37601569 -0.19049746 0.00000000
0.24185922 0.00203657 0.03830651
-0.10471370 0.58677195 -0.00000007
-0.51057024 0.08326218 0.00000217
0.21069416 -0.08482259 0.03337048
-0.11052191 -0.32058741 0.00000000
0.30323178 -0.58834292 0.04802691
-0.03734171 -0.29450079 0.00000000
0.32731734 0.05613318 0.05184158
0.58441489 0.08161268 0.09256050
-0.19079029 0.60184665 -0.00000035
-0.56698677 -0.61641176 0.00000000
-0.07880743 -0.33967218 0.00000000
0.57088156 0.07982559 0.09041710
0.60158781 -0.72434821 0.09528159
0.05209995 0.65735723 0.00825323
0.00085380 -0.76892184 0.00013523
0.75616801 -0.79256816 0.11976461
-0.28289230 -0.09664360 0.00000000
0.66601211 -0.31705207 0.10548449
0.26263232 -0.55748760 0.04159663
-0.30027254 -0.65862252 0.00000000
-0.64832100 -0.63825904 -0.00000022
-0.30710470 -0.17534320 0.00000000
0.19466937 0.13154663 0.03083242
0.33568049 -0.18971978 0.05316625
0.45856121 -0.75650866 0.07262854
-0.00924677 0.05772638 0.00000000
-0.03877344 -0.18797152 0.00000000
0.32614960 0.25922585 0.05165629
0.66966161 0.00686740 0.10606383
0.13137936 -0.48164409 0.02080832
-0.18831407 0.12196406 0.00000733
0.02915474 -0.56485018 0.00461763
-0.07208431 -0.06471322 0.00000000
0.30503854 0.45597059 0.04831298
-0.63681021 -0.17555962 -0.00000099
-0.61268821 -0.43270608 -0.00000044
-0.53891501 0.20130887 -0.00000124
-0.04337451 0.71008984 0.00000067
-0.41629908 0.23869995 0.00000138
0.36785859 0.02299353 0.05826253
-0.16387489 -0.69184357 0.00000000
0.04271880 0.52855345 0.00676952
0.28004482 -0.75148072 0.04435448
0.25366295 0.30050653 0.04017583
-0.01143038 0.17367751 0.00000000
-0.48737407 -0.07003670 -0.00000054
-0.29050918 -0.65960805 0.00000000
0.06478310 0.64163771 0.01026209
0.21629647 -0.29420822 0.03425780
0.37131452 0.29476547 0.05880943
0.06054963 0.17282939 0.00959006
0.44606117 0.22512338 0.07064989
-0.04005200 0.62420169 0.00000203
0.15348285 -0.55308042 0.02430915
-0.04548959 0.19234188 0.00000000
0.67026490 -0.46338378 0.10615828
0.68862033 -0.17636298 0.10906493
0.04325549 0.25839487 0.00685096
0.37226943 0.25060952 0.05896356
-0.29089653 0.19491292 -0.00000017
0.20324942 0.27831832 0.03219650
-0.67525159 -0.24727710 -0.00000103
-0.68622217 -0.56035664 -0.00000052
0.13073588 0.01318772 0.02071666
-0.21035526 -0.72836264 0.00000000
0.59124482 -0.11412213 0.09364255
-0.27435771 0.00896579 0.00000773
0.24923242 0.06679603 0.03948205
0.08639220 0.18115349 0.01369140
-0.21846556 -0.13428954 0.00000000
-0.00486771 0.69654509 0.00000148
0.39190127 0.31017008 0.06207144
0.00331913 -0.45864138 0.00052570
0.40916170 -0.51851485 0.06480447
0.42342979 -0.06070334 0.06706401
-0.42361288 0.03734187 -0.00000046
-0.22458359 0.49826552 -0.00000043
0.30906076 -0.01409683 0.04895013
-0.62559300 -0.63966146 -0.00000012
0.69873400 0.00730615 0.11066642
0.41482463 0.34062903 0.06570046
0.17476176 -0.50347080 0.02767938
-0.11758877 0.08744794 0.00000000
-0.29731091 0.16023994 -0.00000014
-0.24269803 0.04319341 0.00000769
-0.19922453 0.57563054 -0.00000045
-0.59766195 -0.70893860 0.00000000
-0.39791518 0.22848658 0.00000191
0.19745639 0.00134352 0.03127384
-0.20786813 -0.17761897 0.00000000
-0.28456661 0.06361469 0.00000675
-0.06594177 0.31357680 0.00000000
-0.44741725 -0.02429342 -0.00000045
-0.12006069 -0.28510032 0.00000000
-0.34167151 0.26646424 0.00000235
0.14525529 -0.24174871 0.02300604
-0.52502834 -0.69406510 0.00000000
-0.13826644 0.47572636 0.00000276
0.47248198 0.30148166 0.07483226
0.61454972 -0.06934663 0.09733349
-0.17879364 -0.79007591 0.00000000
0.39147975 -0.15000120 0.06200393
-0.37984692 -0.24063462 0.00000000
-0.76619737 -0.32571882 -0.00000119
0.52653591 0.10319323 0.08339630
0.12413532 0.57284843 0.01966086
-0.58859498 -0.10632828 -0.00000091
0.54914017 -0.60408942 0.08697475
-0.20573650 0.32190645 -0.00000003
-0.59264051 -0.79345717 0.00000000
-0.06042857 -0.70808535 0.00000000
0.19141033 -0.14087776 0.03031624
0.20646560 0.57012874 0.03270029
-0.00565729 0.41171429 0.00000000
-0.08104563 0.09019328 0.00000942
-0.21559249 -0.21077237 0.00000000
-0.61313367 -0.18962358 -0.00000087
0.27638038 -0.08838540 0.04377409
0.78456766 -0.46947540 0.12426186
0.29957343 0.32240825 0.04744707
0.10261755 0.27098764 0.01625293
0.06613396 0.67468600 0.01047447
0.09817617 0.68498887 0.01554953
0.41171848 0.34905999 0.06520849
0.07132175 0.40605048 0.01129619
0.40925419 -0.14992870 0.06481903
0.35122012 -0.68199254 0.05562748
-0.47126072 0.04807097 0.00000351
-0.32513417 -0.63593200 0.00000000
0.66694509 -0.44049764 0.10563246
-0.20813029 -0.10332308 0.00000000
-0.01059343 0.25439944 0.00000802
0.54092221 0.22223531 0.08567192
0.00348770 0.45794627 0.00055239
-0.65733226 -0.60760238 -0.00000032
-0.63371212 -0.47358122 -0.00000045
0.35069742 0.13325262 0.05554437
0.22145375 0.22524686 0.03508032
0.29489917 -0.32324779 0.04670717
-0.18111202 0.27307083 0.00000000
-0.06200805 0.56508485 0.00000000
-0.03675091 -0.77551379 0.00000000
-0.64183391 -0.38008722 -0.00000065
-0.37488575 0.29641304 0.00000121
0.74021861 -0.59062298 0.11723797
0.62041978 -0.64188985 0.09826414
0.59683577 0.12681802 0.09452876
-0.00778058 0.25483520 0.00000000
0.39347531 -0.27369644 0.06232000
-0.74830409 0.01567610 -0.00000127
-0.06408009 -0.79013379 0.00000000
-0.14314468 0.53984233 -0.00000015
0.49838160 0.00352855 0.07893472
-0.01963807 0.32565971 0.00000000
-0.35259787 -0.26480849 0.00000000
-0.04726002 0.73136856 0.00000024
-0.54815567 -0.58658277 0.00000000
-0.26515446 0.22987092 -0.00000012
-0.43022900 -0.43190856 0.00000000
0.16753246 -0.49751361 0.02653438
-0.33036971 0.13060635 0.00000484
0.69216754 0.05637679 0.10962634
0.45495113 0.05309308 0.07205615
0.54277924 0.03179974 0.08596635
0.36526502 0.13356902 0.05785643
-0.20181545 0.46442593 -0.00000027
0.43898007 0.30111099 0.06952625
-0.72562673 0.06340379 -0.00000179
0.36906694 -0.26443509 0.05845412
-0.40582416 -0.36127855 0.00000000
-0.07589803 0.60902691 0.00000000
0.58120312 -0.58243189 0.09205293
-0.27009462 -0.55864142 0.00000000
-0.41883934 -0.21337639 0.00000000
0.21130711 0.20003829 0.03346756
0.15639545 -0.53721123 0.02477046
-0.09815934 -0.04107453 0.00000000
-0.46229734 0.11692156 0.00000253
0.55654127 -0.48857905 0.08814684
0.01203370 0.23986968 0.00190594
0.36964307 -0.09971128 0.05854536
-0.27326501 -0.68340979 0.00000000
-0.21572412 0.04577957 0.00000806
0.68910632 0.04751030 0.10914242
-0.31156006 0.36364135 0.00000131
-0.35305101 0.15637074 0.00000397
0.10634548 0.61049684 0.01684459
0.58045347 0.16905436 0.09193365
-0.43083498 0.05451129 0.00000418
-0.64283956 0.07077970 -0.00000145
-0.17156251 -0.14165474 0.00000000
-0.75948766 -0.44298300 -0.00000089
-0.03729176 0.60297818 0.00000000
0.78862317 -0.00902632 0.12490304
0.08085824 0.14872073 0.01280661
0.33212983 -0.41704994 0.05260389
-0.10714642 0.21997556 0.00000708
-0.22250745 0.07959496 0.00000000
-0.08906101 0.31193074 0.00000598
-0.37563970 -0.00068059 -0.00000019
-0.74497902 -0.33852485 -0.00000115
0.19460556 0.57174408 0.03082190
0.36995775 -0.13540319 0.05859521
-0.36804434 -0.12007546 0.00000000
0.32828252 0.01815149 0.05200185
-0.62201583 -0.72218179 0.00000000
0.31384244 -0.66450864 0.04970747
-0.09975014 -0.53474043 0.00000000
-0.04605737 0.65379726 0.00000000
0.13292443 0.04870870 0.02105304
0.08481318 -0.76170845 0.01343301
-0.70091667 0.03180876 -0.00000063
0.72437530 -0.02125259 0.11472752
-0.44444425 -0.36522771 0.00000000
0.40447642 0.07825473 0.06406705
-0.36852675 0.23293087 -0.00000057
0.30710988 -0.50663562 0.04864114
0.42108084 0.19587145 0.06669155
0.01578599 0.17975994 0.00250956
-0.68144287 -0.62380795 -0.00000039
-0.49552183 -0.16214438 -0.00000041
0.13070312 0.46359559 0.02070122
0.39991164 -0.18948422 0.06333941
-0.33925249 -0.00907584 -0.00000002
0.28201236 0.39610942 0.04466563
0.48234362 0.12135981 0.07639444
-0.23267793 0.00958022 0.00000000
-0.38431383 -0.08692693 -0.00000007
0.55725727 -0.18407330 0.08825973
-0.29606911 -0.20507569 0.00000000
-0.25557667 0.53139582 -0.00000042
-0.21080151 -0.26645493 0.00000000
0.24882095 -0.35825918 0.03940914
0.40759641 -0.70153593 0.06455655
0.60917067 0.04395265 0.09648364
0.53415559 0.14255317 0.08460226
0.58061029 -0.33629169 0.09195863
0.03499746 0.76278709 0.00554294
0.16965414 -0.65406946 0.02687042
0.50655970 -0.26704044 0.08023042
0.52221364 -0.22840259 0.08270962
-0.42473337 0.05858567 0.00000423
0.46531577 0.05887961 0.07370210
0.28251414 0.26098100 0.04474533
0.73794135 -0.79031540 0.11687779
0.27206240 -0.09051153 0.04309020
-0.48850196 0.19906333 0.00000066
-0.60170492 0.19766110 -0.00000149
-0.50770041 0.17889164 -0.00000107
-0.19166721 -0.14252563 0.00000000
0.39165275 0.02387146 0.06203104
-0.31658123 -0.56944228 0.00000000
0.13697715 0.52630155 0.02169703
-0.69734124 -0.40713113 -0.00000084
0.46350220 -0.22468383 0.07341093
-0.55118054 -0.48757310 -0.00000008
-0.23805253 0.53951344 -0.00000056
-0.27908215 -0.56394724 0.00000000
0.07512658 0.24103423 0.01189881
0.45346110 0.04542518 0.07182017
-0.09381477 -0.75284862 0.00000000
-0.04700954 0.52986166 0.00000000
-0.41419179 -0.57064963 0.00000000
-0.00632546 -0.30075493 0.00000000
0.61142419 -0.64846102 0.09683943
-0.04109886 0.26129300 0.00000000
-0.03985639 0.38314074 0.00000565
-0.22245085 0.36817011 0.00000294
0.11838239 0.01972168 0.01874982
-0.09008900 0.67303054 -0.00000016
-0.00704374 0.12374099 0.00000000
-0.59859714 -0.36031204 -0.00000050
0.55003476 -0.24915695 0.08711595
-0.45313025 -0.35930607 0.00000000
-0.00992974 0.74297871 0.00000071
-0.29369221 0.06669101 0.00000657
0.09757268 -0.46956610 0.01545390
-0.28320920 0.28969186 -0.00000031
-0.28368899 0.42133913 -0.00000054
0.36153440 0.25360459 0.05726053
0.56599262 0.21379282 0.08964278
0.54614787 -0.04679080 0.08650000
-0.14623432 0.07590286 0.00000865
0.26989000 0.16812499 0.04274608
0.21974929 0.45514413 0.03480434
0.11244665 -0.15639620 0.01780970
0.43886115 -0.71267597 0.06950837
-0.64147668 -0.04628815 -0.00000124
0.40088182 0.21413348 0.06349536
0.67618225 -0.72325499 0.10709595
0.69545046 -0.56219320 0.11014733
-0.15512790 0.63196218 -0.00000017
0.20127693 -0.25687200 0.03187895
-0.56644038 -0.14506238 -0.00000075
-0.11668730 0.20888859 0.00000711
-0.54888111 -0.11733872 -0.00000072
-0.09701966 0.45874722 0.00000365
-0.53670661 -0.33960036 -0.00000028
0.28049416 0.46174412 0.04442507
-0.08787949 -0.03920966 0.00000000
0.12566732 0.00018201 0.01990363
0.09438460 -0.58210806 0.01494897
0.52123205 0.10965772 0.08255359
-0.06832008 0.52420608 0.00000311
-0.39287665 -0.53974076 0.00000000
-0.46219991 0.20895404 0.00000100
-0.29734344 0.07846920 0.00000000
-0.07503366 -0.68937706 0.00000000
-0.10152620 -0.33551377 0.00000000
-0.34165303 0.38333772 -0.00000072
-0.06075610 0.58696978 0.00000000
0.37027455 -0.55927506 0.05864538
0.22924755 0.31139125 0.03630891
-0.21943838 0.08477165 0.00000742
-0.05222723 0.46317259 0.00000000
-0.31816052 0.00728830 0.00000000
0.16065265 0.09438094 0.02544473
-0.40991543 0.02119304 0.00000514
0.29093642 0.42213915 0.04607898
0.40516124 -0.24103676 0.06417086
0.75472914 -0.72072670 0.11953654
-0.71334039 0.02144072 -0.00000167
-0.13241670 -0.24384898 0.00000000
0.36456359 -0.19269042 0.05774086
-0.49503585 -0.35332831 -0.00000007
-0.01219756 -0.29441475 0.00000000
0.05311191 0.07638627 0.00841205
-0.46123697 -0.16722762 -0.00000026
-0.09607663 -0.57318810 0.00000000
0.27487814 -0.00304087 0.04353617
0.59789252 -0.11496014 0.09469541
0.69271783 -0.43454125 0.10971432
-0.04464908 0.07086372 0.00000000
-0.14878400 0.14294084 0.00000761
0.47814331 -0.72592219 0.07573002
-0.08899111 0.70109244 -0.00000006
0.42130975 -0.71737752 0.06672852
0.04529222 0.70478366 0.00717352
0.03339039 0.73949859 0.00528845
0.12642581 0.11237659 0.02002376
0.45045869 0.27052005 0.07134548
-0.62248705 -0.07846611 -0.00000110
-0.62441800 -0.19896662 -0.00000090
0.32517081 0.01367350 0.05150168
0.67932633 -0.30002853 0.10759315
-0.35409919 0.17778215 -0.00000041
0.11954848 -0.12018383 0.01893451
-0.48555954 -0.60247068 0.00000000
-0.51971298 0.11500259 -0.00000101
-0.17565898 -0.36694271 0.00000000
-0.14118205 -0.33421982 0.00000000
-0.18447690 0.22072454 0.00000000
0.21948166 0.09640500 0.03476228
-0.53156532 -0.04838941 -0.00000077
-0.73129594 -0.41673307 -0.00000096
-0.03140162 0.44685501 0.00000000
0.12226432 -0.48892657 0.01936465
-0.36741455 0.32708493 -0.00000073
-0.20840373 -0.70536314 0.00000000
-0.34076325 0.14595410 0.00000438
-0.58677127 -0.48690488 -0.00000023
-0.07038667 -0.34519544 0.00000000
-0.28085415 0.07069779 0.00000000
-0.15142865 0.14212052 0.00000000
0.42708363 0.09073948 0.06764697
-0.21118115 0.01658656 0.00000856
-0.27151103 0.15262645 -0.00000001
-0.53740115 -0.47083092 -0.00000005
0.49669169 -0.39446204 0.07866774
-0.47975013 0.29289095 -0.00000074
0.50252786 0.00427115 0.07959610
-0.16542960 0.12219633 0.00000767
0.69928447 -0.62866227 0.11075474
-0.72058180 -0.73384369 -0.00000017
-0.09322118 -0.55545760 0.00000000
-0.57427621 -0.29901658 -0.00000051
-0.57427843 -0.75116018 0.00000000
-0.10358331 0.49525718 0.00000000
-0.06388868 0.35043042 0.00000000
-0.13403664 0.49730480 -0.00000004
0.36062240 -0.29326261 0.05711664
-0.11604783 0.25334821 0.00000645
-0.25704290 0.22609660 -0.00000008
-0.22001158 0.45247178 -0.00000032
0.06743086 0.25297044 0.01067994
0.08091405 0.21946716 0.01281545
0.55430275 0.20642210 0.08779115
0.30495039 0.31227261 0.04830161
-0.03653052 -0.20828634 0.00000000
0.30167579 0.29535043 0.04778334
-0.48536723 0.22027736 0.00000036
0.37894258 0.29012889 0.06001962
0.24839334 0.00778268 0.03934141
0.32138174 -0.61854138 0.05090157
-0.26056845 0.46906960 0.00000052
-0.04355428 0.27367334 0.00000000
0.22752793 -0.50024151 0.03603667
-0.09646725 0.43180121 0.00000407
0.72975814 -0.30928343 0.11558053
0.02012509 0.72862842 0.00318829
0.16039295 0.07240482 0.02540360
-0.20492857 0.13174727 0.00000000
0.09674675 0.46304260 0.01532690
0.05833774 0.16100823 0.00924874
-0.16028832 -0.73873776 0.00000000
0.29495234 0.30840113 0.04671521
-0.60391297 -0.62014456 -0.00000007
0.02869297 -0.48439914 0.00454449
-0.71820498 -0.26652521 -0.00000118
-0.48416036 -0.12673664 -0.00000043
-0.11598525 -0.13343487 0.00000000
0.45378075 0.30541449 0.07187094
-0.01053062 0.13327165 0.00000984
0.55732115 0.13234749 0.08827101
0.25674146 0.49240666 0.04066308
-0.23858432 -0.11794283 0.00000000
-0.12776839 0.57963613 -0.00000016
0.22256973 0.14608246 0.03525828
-0.35337171 0.05472432 0.00000566
-0.76038943 -0.24088654 -0.00000140
-0.47784315 -0.29541924 -0.00000010
0.42842192 0.22590642 0.06785647
0.42777502 0.15495598 0.06775531
-0.09180284 0.65895686 -0.00000014
0.18032753 0.37122640 0.02856089
-0.37382749 0.41576504 -0.00000092
-0.21483387 0.16616240 0.00000000
-0.45803581 -0.30406848 -0.00000000
-0.17812280 0.26933114 0.00000000
0.21562875 -0.45713526 0.03415204
-0.06444358 -0.79543128 0.00000000
-0.22538221 0.54493463 -0.00000007
0.56964694 -0.45349255 0.09022245
-0.41255854 -0.11419414 -0.00000014
0.27574609 0.19256497 0.04367352
0.71329806 -0.60336707 0.11297421
-0.49771179 -0.67550746 0.00000000
0.05015744 0.62178098 0.00794614
-0.27463259 0.06906298 0.00000000
-0.04298652 0.73142565 0.00000032
-0.27916608 0.17998099 0.00000500
0.22864464 0.52690336 0.03621307
0.34605892 -0.56837057 0.05481003
0.32460742 -0.21443986 0.05141246
-0.45440411 -0.25917292 -0.00000007
0.26082583 0.26003511 0.04131486
-0.59756328 0.19309230 -0.00000148
0.51040539 -0.70348307 0.08083980
0.50218362 0.12940768 0.07953933
-0.38269739 0.07897104 0.00000470
-0.09486500 -0.32837039 0.00000000
-0.34453507 0.40380925 0.00000000
-0.57660007 -0.07921512 -0.00000091
-0.26054012 0.30567555 0.00000325
-0.32480499 0.25034173 -0.00000041
0.13121940 -0.53699015 0.02078299
-0.24982166 0.21268975 -0.00000003
-0.32468637 0.47165351 -0.00000081
-0.44430273 0.23666970 0.00000088
-0.24686889 -0.57841268 0.00000000
-0.74337127 -0.11877160 -0.00000155
0.51856452 -0.50197626 0.08213207
-0.00020036 0.41209098 0.00000582
0.02311342 0.21774051 0.00366079
-0.29015983 -0.74958130 0.00000000
-0.14357555 0.12615505 0.00000794
-0.01144455 -0.60858023 0.00000000
-0.25450212 0.07122693 0.00000000
0.75236937 -0.35394319 0.11916187
0.54378283 -0.47061669 0.08612614
0.29264324 0.31152249 0.04635263
0.18231694 0.55898843 0.02887566
-0.41426317 -0.67878913 0.00000000
0.16011828 -0.05917046 0.02536010
0.41890867 -0.63853635 0.06634823
-0.26614729 -0.39809254 0.00000000
0.64755925 -0.29301591 0.10256189
0.12260980 0.33185436 0.01942483
0.70826571 0.03300097 0.11217682
0.39122707 0.05383551 0.06196929
0.69303743 -0.35711970 0.10976481
-0.41620963 0.26916292 0.00000087
0.27429503 0.46860383 0.04344412
-0.13954752 0.32251444 0.00000000
-0.55017143 -0.64781960 0.00000000
-0.10166864 0.59603935 -0.00000007
0.12057075 -0.28704006 0.01909642
-0.27381690 0.47090806 -0.00000059
0.42410157 0.30921816 0.06717079
0.11207064 0.33605696 0.01775569
-0.17479364 -0.44963959 0.00000000
-0.53938683 -0.07166727 -0.00000076
0.17041433 0.54816375 0.02699184
0.08150578 -0.02292504 0.01290917
0.65419838 -0.39884427 0.10361357
0.06176701 0.09910807 0.00979279
-0.48700521 -0.74561964 0.00000000
-0.12317020 0.44058649 0.00000000
-0.14650589 0.03015087 0.00000934
0.31669064 0.29618738 0.05016112
-0.72298948 -0.65478011 -0.00000036
-0.56526759 -0.19223006 -0.00000066
0.04829216 0.44512527 0.00765346
0.43565278 -0.75247801 0.06900022
0.10126666 -0.52217580 0.01603897
0.41918278 -0.18354977 0.06639157
0.19486444 0.47965516 0.03086507
-0.31698046 0.05190029 -0.00000003
0.17787037 0.43792740 0.02817459
0.39743442 0.08787828 0.06294663
0.42116533 0.36393094 0.06670466
0.19932292 -0.26762183 0.03156946
-0.66369204 -0.28836138 -0.00000091
-0.63552390 0.08596857 -0.00000145
-0.24538491 0.11253193 0.00000000
-0.21882493 0.04868058 0.00000797
-0.18310892 0.35633721 0.00000389
-0.43427760 0.15137262 -0.00000071
0.35983071 0.34427210 0.05699054
-0.40885032 0.29251714 -0.00000085
-0.22857888 0.21609646 0.00000000
-0.15519196 0.49160905 0.00000217
0.14342653 0.33109275 0.02272158
-0.58679184 -0.17330010 -0.00000078
0.34273554 0.24909649 0.05428318
0.27425033 0.50978203 0.04343610
0.19765922 -0.37396873 0.03130596
-0.71565615 -0.32605427 -0.00000106
0.62282307 0.08774474 0.09864489
-0.11641939 0.16617582 0.00000000
0.05401940 -0.14443114 0.00855578
0.30410526 0.15124139 0.04817067
-0.71470157 -0.47833916 -0.00000079
0.46548480 -0.58044407 0.07372512
0.70820622 -0.78817932 0.11216820
0.10210773 -0.62326154 0.01617218
0.19038967 0.06991405 0.03015458
-0.18707860 0.20653223 0.00000608
0.05262107 0.06950958 0.00833431
0.48454173 0.01990039 0.07674275
0.27185287 0.22840540 0.04305686
0.10708606 0.09392427 0.01697001
0.12284438 -0.14733713 0.01945652
0.72958845 -0.59083368 0.11555432
0.17414196 -0.69462759 0.02758121
-0.52271900 -0.52992588 0.00000000
-0.68962239 0.09233023 -0.00000142
0.03623791 0.07947815 0.00573949
-0.34616950 0.45282312 -0.00000086
0.70366099 -0.05838027 0.11144686
0.10942191 0.66426082 0.01733041
-0.11716023 0.39871068 0.00000425
0.46066724 0.02825345 0.07296649
-0.21936688 -0.00398186 0.00000000
-0.21783360 0.36014774 0.00000316
-0.01884491 0.49333431 0.00000000
-0.48049208 0.23489819 0.00000021
0.18068760 -0.37442779 0.02861794
0.02407577 -0.01660231 0.00381321
-0.15981823 0.33005734 0.00000000
0.37917438 -0.49851659 0.06005497
-0.34203023 -0.04804563 0.00000000
0.26191595 -0.34785706 0.04148317
0.02757497 -0.17787351 0.00436742
-0.41487082 0.34414859 -0.00000035
0.46331749 -0.58191405 0.07338185
0.21879308 0.03709996 0.03466185
0.01130074 0.61875835 0.00178985
-0.53546106 -0.00515886 -0.00000086
-0.07556433 0.47315238 0.00000000
-0.55760712 0.09753744 -0.00000114
-0.03127859 0.03987678 0.00000000
0.52947427 0.08856742 0.08386189
-0.75071783 -0.47711318 -0.00000081
0.49850998 -0.05057427 0.07895515
0.49698997 -0.17958131 0.07871463
0.74126501 -0.62217429 0.11740378
0.17255516 0.01230642 0.02733956
-0.32837049 -0.21536965 0.00000000
0.12488564 -0.49951933 0.01977983
0.09095263 0.07246437 0.01441530
-0.14193423 0.23938287 0.00000000
-0.60453457 -0.45016710 -0.00000037
0.17419171 0.00178090 0.02758910
-0.18708591 0.47856836 0.00000178
0.18812279 0.47022127 0.02979533
-0.65739238 0.12191925 -0.00000161
-0.12521006 -0.12639777 0.00000000
0.01891464 -0.52215097 0.00299577
0.08710251 0.29088666 0.01380220
0.57205305 -0.46213280 0.09060354
-0.46751715 0.24313014 0.00000032
0.09340053 -0.53216736 0.01479310
0.19491732 0.53852350 0.03087238
-0.44403725 0.32630712 -0.00000106
0.72666452 -0.58039953 0.11509119
-0.61726819 -0.74517236 0.00000000
0.10561491 0.67944792 0.01672765
0.70455670 -0.18264792 0.11158893
-0.00243886 -0.52508612 0.00000000
-0.12478876 0.64193454 -0.00000025
-0.59647055 -0.41418785 -0.00000040
0.03777002 0.41966899 0.00598215
0.48264209 0.04555167 0.07644184
-0.14412099 -0.38275642 0.00000000
-0.37993664 0.40419016 -0.00000068
0.07606771 0.40452131 0.01205288
0.74798898 -0.35529039 0.11846809
0.28438048 0.31377949 0.04504407
-0.30001789 0.09125333 0.00000608
0.55679761 -0.57009571 0.08818756
0.03056903 -0.78132897 0.00484163
0.43213213 0.03641444 0.06844745
0.36629848 0.37719908 0.05801570
0.21353138 0.06602141 0.03382811
0.37381056 0.25917185 0.05920481
0.45122207 -0.57776340 0.07146614
-0.39576396 0.38907748 -0.00000096
-0.45918329 0.01484923 -0.00000057
0.06880311 0.40791316 0.01090234
-0.50295224 -0.47670280 0.00000000
-0.52094289 -0.77066876 0.00000000
-0.64392109 0.04945906 0.00000017
0.46759850 -0.41480709 0.07405989
0.04078868 -0.18134140 0.00646026
0.60201865 -0.16186880 0.09534898
0.31282165 -0.26371370 0.04954579
-0.25909955 -0.37231074 0.00000000
0.40381454 -0.01057170 0.06395727
0.37600074 0.25846757 0.05955432
0.28597443 -0.17458096 0.04529363
-0.09739800 -0.40226538 0.00000000
-0.77925150 -0.78126081 -0.00000005
-0.10625384 -0.58870931 0.00000000
0.01843361 0.09087121 0.00293023
0.75658479 -0.60221265 0.11983015
-0.13531101 0.43178870 0.00000000
0.07770555 0.64327165 0.01230722
-0.45264449 0.23348017 0.00000077
0.65982636 -0.12883954 0.10450448
0.72548414 0.01652307 0.11490387
0.35906934 0.19812074 0.05687020
0.62746800 -0.56858482 0.09938031
0.64210799 -0.48413015 0.10169884
0.52521146 0.07857763 0.08318700
0.12761936 0.27811070 0.02021280
-0.06503554 0.12081248 0.00000921
-0.46422385 -0.37413046 0.00000000
0.27847723 0.39416290 0.04410777
-0.30774857 -0.53050044 0.00000000
0.33186680 0.06751327 0.05256858
0.02905739 -0.68973960 0.00460221
0.00997352 0.78856704 0.00157964
-0.13916063 0.34672822 0.00000470
-0.18637409 -0.38310994 0.00000000
0.50597910 -0.77315641 0.08013875
-0.46872719 -0.49346076 0.00000000
0.31014799 -0.20577753 0.04912233
-0.55725224 -0.79932160 0.00000000
-0.24161660 0.55392648 -0.00000060
0.39718833 0.14661785 0.06291166
-0.12273813 0.29913897 0.00000566
-0.07195234 -0.58400565 0.00000000
-0.26043189 -0.23472846 0.00000000
0.46238200 0.22459798 0.07323451
-0.09227700 -0.64588467 0.00000000
0.22230183 -0.60749860 0.03520895
0.62160512 -0.19759753 0.09845113
-0.10670152 0.31529421 0.00000000
0.32608873 -0.61300292 0.05164708
0.38353709 0.17228117 0.06074935
0.12309490 0.44307227 0.01949995
0.17412460 0.39376743 0.02757843
-0.10239125 0.29137793 0.00000000
0.67798568 -0.05885063 0.10738042
0.13116036 0.55074399 0.02077352
0.32763507 0.37238298 0.05189294
-0.43959309 -0.77792613 0.00000000
-0.46293987 0.29412338 -0.00000108
-0.41068314 0.00037161 -0.00000034
0.29385642 0.37184867 0.04654366
-0.51156582 -0.29162731 -0.00000025
0.39266770 -0.67438495 0.06219209
0.45608673 0.26384612 0.07223687
-0.04151409 0.43102440 0.00000491
0.18223002 0.43886423 0.02886498
0.20201636 -0.29603951 0.03199606
-0.31050845 0.25207416 -0.00000036
0.34946489 -0.47155333 0.05534948
-0.43031679 -0.22544283 -0.00000002
0.24298687 0.14071405 0.03849181
-0.33523934 0.44147333 -0.00000045
-0.49285821 0.09214487 0.00000236
0.30063576 0.12354669 0.04762173
0.46668789 -0.77726598 0.07391567
-0.50302610 -0.04965435 -0.00000064
0.48040384 -0.45800733 0.07608805
-0.21860948 0.07816029 0.00000753
-0.00122777 0.22925950 0.00000000
0.41786202 -0.45224788 0.06618245
0.01027980 0.69192334 0.00162967
0.14188898 -0.23615665 0.02247287
0.33822994 -0.48141768 0.05357005
0.24994666 -0.42950405 0.03958743
0.13825005 -0.01266158 0.02189653
0.65294877 -0.44007722 0.10341573
-0.09214119 0.39325443 0.00000471
-0.64567465 0.11510933 -0.00000154
-0.20689101 -0.18623362 0.00000000
0.71504272 -0.51346462 0.11325031
0.52312124 0.02602854 0.08285294
-0.33903957 -0.01414961 -0.00000001
-0.04646726 0.43447764 0.00000000
-0.76668448 -0.76657636 -0.00000008
-0.00880387 0.57117597 0.00000000
-0.15453384 0.20700805 0.00000656
0.00315692 -0.58923688 0.00050000
-0.64620202 -0.67140701 -0.00000016
0.62282751 -0.60869871 0.09864542
0.72094404 -0.78467035 0.11418566
-0.51708128 -0.01587435 -0.00000076
0.26666084 -0.51838543 0.04223468
0.37145016 -0.49853990 0.05883158
0.67747084 -0.25272810 0.10729921
-0.08903851 -0.27758233 0.00000000
-0.27301530 0.34636104 0.00000233
-0.20201010 0.48179700 -0.00000030
-0.28543619 -0.58976538 0.00000000
-0.78415832 -0.49875540 -0.00000075
-0.69807077 -0.33293841 -0.00000098
0.42150241 -0.16402090 0.06675892
-0.10511872 -0.11134546 0.00000000
0.28900852 -0.20540920 0.04577418
0.11918842 0.18572467 0.01887748
0.09828693 0.61843326 0.01556693
0.17682516 -0.36369723 0.02800619
-0.55903877 0.22904427 -0.00000138
0.33078339 0.33550301 0.05239218
-0.21400677 0.01146867 0.00000860
-0.10483203 0.45531746 0.00000359
-0.31898998 -0.37801928 0.00000000
-0.15248940 0.22851414 0.00000627
-0.03236900 0.03863651 0.00000000
0.19416853 -0.24583269 0.03075309
-0.30828911 0.23094752 0.00000359
-0.14847854 0.46445818 0.00000275
0.02908631 -0.58077758 0.00460679
0.52749297 -0.76133383 0.08354619
-0.33523985 -0.21131019 0.00000000
-0.15952230 -0.53669497 0.00000000
-0.24337133 0.51243541 -0.00000053
0.35257044 0.05379636 0.05584115
0.25437528 0.12409535 0.04028885
-0.02805268 0.37787738 0.00000591
-0.16786809 -0.40516507 0.00000000
0.70732462 -0.09454579 0.11202717
0.19320746 -0.47709624 0.03060088
0.11682418 0.59749224 0.01850426
-0.41303160 0.23221624 -0.00000076
-0.31029758 -0.35320510 0.00000000
0.72447011 -0.77394235 0.11474411
-0.32809674 0.21323401 -0.00000036
-0.18929200 0.02542281 0.00000876
0.45358678 -0.43614662 0.07184067
0.16391238 0.18933904 0.02596809
-0.28587662 -0.65385191 0.00000000
-0.69021230 -0.42419121 -0.00000078
0.12172453 0.22068327 0.01927916
0.57544863 0.00634027 0.09114400
-0.70846482 -0.56663580 -0.00000058
-0.00738150 0.42092616 0.00000557
-0.55849242 -0.51443890 -0.00000006
0.28424460 0.19675507 0.04501951
0.32207154 0.03351388 0.05101079
-0.42557630 -0.68209840 0.00000000
-0.04375654 0.14919563 0.00000910
-0.51621682 -0.14587906 -0.00000053
0.52842227 0.02887181 0.08369637
0.17857705 0.58999110 0.02828328
0.20146402 0.12723812 0.03190858
0.14132332 -0.50095270 0.02238328
-0.01133277 -0.67921722 0.00000000
0.13276503 0.58779794 0.02102760
-0.65747430 -0.25518622 -0.00000094
0.32813360 0.40233206 0.05197028
0.01672723 0.45987398 0.00265432
0.43088681 -0.67819615 0.06824537
0.41415920 -0.14955378 0.06559588
-0.01702861 0.54004057 0.00000000
0.18115626 0.41807585 0.02869531
-0.23226477 0.20139484 0.00000547
-0.04767758 0.46494142 0.00000000
0.12804547 0.13776122 0.02028867
0.22728003 0.46775853 0.03599871
-0.50031153 -0.10638840 -0.00000053
0.36663601 0.38459933 0.05806830
0.03312318 0.58016918 0.00524616
0.51612873 -0.60062315 0.08174628
0.33300515 0.22821591 0.05274212
0.23983412 -0.10445183 0.03798577
0.73374539 0.04441497 0.11621144
0.34051905 0.29502117 0.05393206
0.29169672 -0.11412533 0.04619995
0.03395490 0.05064800 0.00537790
-0.18347740 0.32064990 0.00000442
0.02413401 0.62593316 0.00382477
-0.11656584 0.50144271 0.00000000
-0.20581808 0.15548447 0.00000656
0.00838626 -0.15630460 0.00132824
0.07731790 -0.11975470 0.01224588
0.64465471 -0.13361684 0.10210161
0.28533062 0.13758116 0.04519161
-0.75585469 -0.14107549 -0.00000156
0.39768978 -0.00759486 0.06298723
0.51408562 0.03014919 0.08142187
0.07028263 0.56092241 0.01113429
0.09192208 -0.26748059 0.01455894
0.38572553 -0.33908729 0.06109257
0.34644643 0.38427139 0.05487068
0.62874771 -0.46577960 0.09958282
-0.01490220 0.54541961 0.00000359
-0.16270823 0.34762393 0.00000433
-0.47346044 0.11384897 -0.00000081
0.05231901 0.60845913 0.00828647
0.15773746 0.34510427 0.02498301
0.17775211 0.01319610 0.02815300
0.48642356 -0.40222206 0.07704147
0.52631439 -0.37270530 0.08335933
-0.48432504 0.13883190 -0.00000090
-0.75035734 -0.60061795 -0.00000050
-0.69615965 -0.12602340 -0.00000133
-0.13749623 0.29780108 0.00000000
0.10619722 0.44867556 0.01682379
0.04800230 0.14661169 0.00761215
0.03739791 0.23808532 0.00593133
0.71779375 -0.03122473 0.11368516
0.59005261 0.17976033 0.09345361
0.40276498 0.07344747 0.06379090
-0.16671092 -0.52595768 0.00000000
-0.72138014 -0.57654759 -0.00000056
-0.40590332 -0.74567652 0.00000000
0.00852852 -0.27838280 0.00135078
-0.24208727 0.53621159 -0.00000057
0.67084561 -0.57240754 0.10625044
0.51189216 0.14939476 0.08107644
-0.46281574 -0.62830908 0.00000000
-0.09917426 0.07101447 0.00000944
0.31355782 -0.13395150 0.04966239
-0.13576636 0.18837587 0.00000713
-0.51800686 -0.38690569 -0.00000011
-0.12352549 0.42814635 0.00000000
0.42926141 -0.12101857 0.06798772
0.01229251 0.75567888 0.00194693
-0.62029715 0.17158037 -0.00000142
0.54027079 -0.76921883 0.08556999
-0.22514839 0.26372376 -0.00000001
-0.07280233 -0.09256480 0.00000000
-0.39204239 -0.67245351 0.00000000
-0.34625461 0.34859196 -0.00000068
0.59848990 -0.12350876 0.09479003
0.52763286 0.23572129 0.08356763
-0.60760746 0.10628738 -0.00000137
0.17647263 0.47102776 0.02795018
0.14333674 0.33017049 0.02270218
-0.09996006 0.34634301 0.00000530
0.52274823 -0.51873659 0.08279470
-0.08308583 0.30881886 0.00000611
0.62337452 -0.32448883 0.09873158
0.29789319 0.27972091 0.04718102
-0.55835697 -0.76723777 0.00000000
-0.76489680 -0.42059960 -0.00000095
0.18027414 0.09024613 0.02856081
0.10723154 0.19824907 0.01699145
0.35034430 -0.20900901 0.05548876
-0.61799074 0.13381832 -0.00000074
0.19015396 0.41267517 0.03012031
0.13772146 0.24241190 0.02181943
0.06863910 -0.07597402 0.01087130
-0.22056745 0.57161217 -0.00000054
0.01064058 -0.59397744 0.00168529
-0.53950797 -0.59609801 0.00000000
-0.26310212 -0.32428116 0.00000000
0.42985306 0.26358638 0.06808078
-0.00441548 0.61458955 0.00000000
-0.64467230 -0.52079180 -0.00000042
-0.00786982 -0.07207255 0.00000000
-0.42409467 -0.01365463 -0.00000037
-0.68496144 -0.76989052 -0.00000008
-0.28186811 0.31822394 0.00000263
0.46922758 0.17225401 0.07431954
-0.05064677 0.51735065 0.00000348
0.36559534 0.40203426 0.05790345
-0.56978842 -0.68871773 0.00000000
0.75019493 -0.07117210 0.11881690
0.61238472 -0.25475508 0.09699091
-0.30130787 -0.07724641 0.00000000
0.01889445 -0.41860318 0.00299257
0.14529909 0.49330673 0.02301290
0.72427330 -0.74013348 0.11471286
0.03033286 0.11533049 0.00481433
0.01253463 0.58901832 0.00198835
-0.09726209 -0.66826983 0.00000000
-0.29772370 0.01745419 0.00000725
0.00916403 -0.18169952 0.00145143
-0.54180840 0.09045150 -0.00000106
-0.39153275 0.04090869 0.00000516
0.35878644 -0.71798912 0.05682586
-0.35816751 0.42662308 -0.00000087
0.33124665 0.00771529 0.05247145
-0.64111422 0.10603060 -0.00000151
0.06398923 0.09990790 0.01014471
0.49276164 0.05473870 0.07804455
-0.03397962 -0.76862698 0.00000000
0.77830222 -0.76287553 0.12327025
0.75639530 -0.61397744 0.11980016
0.10213451 -0.12517130 0.01617642
-0.47598586 0.12193100 -0.00000083
-0.13545689 -0.24258303 0.00000000
-0.32844847 0.28041394 0.00000237
-0.37689147 -0.00468598 -0.00000019
-0.75285734 -0.55803759 -0.00000060
0.40194180 0.29214057 0.06366181
0.19509402 0.56471146 0.03089989
-0.03520970 0.07471176 0.00000000
0.18463880 0.33087888 0.02924374
0.07585768 0.66709191 0.01201544
-0.23964228 -0.24683402 0.00000000
-0.33761213 0.31294462 0.00000165
-0.04584497 -0.57494005 0.00000000
0.59202373 -0.62579576 0.09376676
0.47430423 -0.56741328 0.07512197
-0.70885989 -0.48711461 -0.00000075
0.05469857 -0.39300463 0.00866335
-0.43239354 0.00489862 0.00000498
-0.70874921 0.02050600 -0.00000059
0.11686740 0.51736741 0.01851255
-0.19433020 -0.69847566 0.00000000
-0.65590230 -0.67239165 -0.00000020
0.46067247 -0.59239646 0.07296292
0.29250345 -0.67913345 0.04632772
0.16678770 0.27583706 0.02642212
-0.04191229 -0.13876108 0.00000000
0.73193806 -0.29801919 0.11592577
0.48428268 0.10572721 0.07670158
0.61899915 0.09403092 0.09803791
-0.49594375 0.21766034 -0.00000109
0.34647464 0.22992747 0.05487541
-0.47210476 -0.12805837 -0.00000037
0.73380259 -0.29666911 0.11622107
-0.65662736 -0.26207378 -0.00000092
0.05485710 0.49744490 0.00868846
0.09297724 -0.33811127 0.01472606
0.34761539 -0.36432418 0.05505655
0.03206548 -0.20371066 0.00507864
0.57343238 0.13644876 0.09082236
-0.38987473 0.21765585 0.00000224
0.08822721 -0.64321005 0.01397374
-0.03629468 -0.49822560 0.00000000
0.03053543 0.39427674 0.00484212
-0.59980757 -0.32012000 -0.00000058
0.13967477 -0.17707627 0.02212218
-0.10602268 0.47869396 0.00000000
-0.05458237 -0.46115763 0.00000000
-0.15211410 0.35502922 0.00000000
0.59427675 -0.26076880 0.09412299
-0.39006065 -0.28459867 0.00000000
0.71005769 -0.75871539 0.11246137
-0.38504260 0.26864189 0.00000148
-0.13793625 0.28193920 0.00000569
0.56801439 -0.52012362 0.08996400
-0.45999822 -0.39488899 0.00000000
-0.40684160 0.39296304 -0.00000102
-0.31758566 -0.03603296 0.00000000
0.01724407 -0.52231550 0.00273118
-0.09621734 -0.33567652 0.00000000
-0.37208775 0.17978530 -0.00000049
0.13895841 0.41953376 0.02200872
-0.47935912 -0.71001394 0.00000000
0.74653826 -0.58744632 0.11823890
-0.66151122 -0.68863959 -0.00000019
0.16828497 0.61432159 0.02665319
0.30791241 -0.59831585 0.04876825
-0.32794438 -0.49742534 0.00000000
0.22220259 -0.39369201 0.03519323
0.45597291 0.08138906 0.07221793
0.22551007 -0.76609536 0.03571708
-0.05697100 0.69348322 -0.00000005
-0.72216877 -0.17501065 -0.00000136
0.66411094 -0.01282070 0.10518287
-0.57752233 -0.24435517 -0.00000062
-0.03773787 0.18382872 0.00000867
0.15136097 -0.31276401 0.02397308
0.62512222 -0.29717047 0.09900834
0.11185281 0.55518146 0.01771774
0.13495511 0.38621117 0.02137911
-0.73150047 -0.32449714 -0.00000113
0.28756089 0.47791519 0.04554427
0.62368925 -0.62733568 0.09878193
-0.52756587 -0.27932139 -0.00000034
-0.05793478 0.70512399 -0.00000008
-0.00655198 0.47328475 0.00000000
0.35939894 0.33007409 0.05692392
-0.08960850 -0.23667192 0.00000000
-0.19398857 -0.63217297 0.00000000
0.00524933 0.03779722 0.00084307
0.46919923 0.07088349 0.07431272
-0.16391395 -0.14139854 0.00000000
-0.35965924 -0.51410017 0.00000000
-0.12084954 0.20365814 0.00000712
0.22894094 0.56645887 0.03625996
-0.08528449 0.04269301 0.00000000
0.55595935 0.19326666 0.08805354
-0.21416607 -0.06931027 0.00000000
-0.56218190 0.08271576 0.00000119
-0.38265385 0.31750941 0.00000071
0.29945282 -0.00680602 0.04742839
-0.21161806 0.31675809 0.00000401
-0.18058868 0.05169707 0.00000850
0.08644817 -0.41150614 0.01369197
0.14068273 -0.57046613 0.02228183
-0.36057258 -0.79159918 0.00000000
0.31246987 -0.14607292 0.04949008
-0.55731554 -0.22643335 -0.00000056
0.68226660 -0.51475415 0.10805919
0.65077302 -0.06046568 0.10307050
0.18142934 -0.35429736 0.02873542
0.16021203 -0.41505456 0.02537494
-0.72288541 -0.43680740 -0.00000090
-0.15747827 0.28101862 0.00000000
-0.21134906 0.40655354 -0.00000021
0.10881049 0.35045247 0.01723916
0.76900770 -0.17170572 0.12179666
-0.51113857 0.11454497 -0.00000097
-0.36930231 0.28457322 0.00000152
0.39222444 -0.74781067 0.06212188
-0.53012492 -0.58488165 0.00000000
0.17259309 0.02308045 0.02733590
-0.43009235 0.23521740 -0.00000084
-0.24982304 0.02843738 0.00000780
-0.55353409 0.14714704 -0.00000121
-0.38556642 0.21566873 0.00000236
0.66133155 -0.12597698 0.10474286
0.41195350 -0.63736701 0.06524664
-0.11757644 -0.37315986 0.00000000
0.40085329 0.20359450 0.06348791
0.19864952 0.15052563 0.03146998
-0.63624063 -0.35496239 -0.00000067
0.24378860 -0.67922017 0.03861209
-0.30848078 0.41756821 -0.00000064
0.51698183 -0.40601689 0.08188130
-0.08197581 0.66815226 -0.00000012
0.33779393 -0.12901257 0.05350099
-0.15440352 -0.25133790 0.00000000
0.08366921 0.00651278 0.01325182
-0.11350713 -0.50387417 0.00000000
-0.09878641 -0.19091242 0.00000000
0.63364261 0.12802771 0.10035758
-0.02769576 0.31616065 0.00000000
0.14061143 0.57119957 0.02227175
-0.27581529 0.07315810 0.00000674
0.25603229 -0.47138562 0.04055129
0.11246917 -0.67620134 0.01781326
0.50442008 -0.72875232 0.07989182
-0.38369230 -0.14022353 0.00000000
-0.34563404 0.11236475 0.00000485
0.13107455 -0.59599589 0.02076005
-0.40198520 -0.00205410 -0.00000030
-0.69619919 -0.36353235 -0.00000091
-0.36964195 -0.43041024 0.00000000
-0.75873245 -0.07655287 -0.00000169
0.18879676 0.37007485 0.02990614
0.13573934 0.16977952 0.02150664
-0.75312118 -0.70736681 -0.00000023
0.20011905 -0.00907773 0.03169556
-0.23993513 0.34950586 0.00000292
0.07380503 0.58135433 0.01169182
0.03876013 0.06514176 0.00613897
-0.30544940 0.46361989 -0.00000025
-0.21762737 0.19977905 0.00000572
-0.15739329 -0.53649675 0.00000000
-0.21099801 0.03082759 0.00000835
0.59184041 -0.48032177 0.09373748
0.51878248 0.11525305 0.08216823
-0.08261688 -0.04674808 0.00000000
-0.00036783 0.29757250 0.00000000
0.47539077 -0.02968860 0.07529351
-0.43699885 -0.39749600 0.00000000
-0.55021866 0.15017848 0.00000029
0.65907187 -0.38196636 0.10438540
-0.19934658 0.20554983 0.00000000
-0.42843044 0.26123521 -0.00000088
-0.15347989 -0.15990707 0.00000000
-0.17944081 -0.14591691 0.00000000
0.36748987 -0.42318665 0.05820434
-0.48022781 0.01794546 0.00000384
-0.57491661 0.06045565 -0.00000115
-0.43521674 -0.31039799 0.00000000
-0.16525675 0.31023248 0.00000485
-0.42599337 0.25958092 0.00000085
-0.07155761 0.56480229 0.00000000
-0.03530438 0.75518842 -0.00000007
0.54809265 0.05846407 0.08681089
-0.65614150 -0.77925402 -0.00000001
0.60857092 0.17071954 0.09638638
0.41968861 -0.78018367 0.06647176
-0.04481512 0.20054869 0.00000000
-0.48500974 0.21152780 -0.00000103
-0.61416307 0.00940536 -0.00000122
-0.56917329 -0.48278154 -0.00000016
-0.20298314 0.33018542 -0.00000004
0.77959910 0.00977365 0.12347380
-0.07687751 0.32383779 0.00000000
0.00158209 0.33697870 0.00025768
0.23856680 -0.17009038 0.03778505
0.32329175 -0.72458950 0.05120408
0.24683358 -0.24299688 0.03909437
0.13227540 0.13725372 0.02095024
0.51481107 0.11610798 0.08153929
0.33501678 0.02478200 0.05306106
-0.08837916 -0.59557371 0.00000000
0.16390409 0.46820030 0.02595959
-0.28573596 -0.51645696 0.00000000
-0.14054328 0.26790923 0.00000000
-0.06257522 0.32829218 0.00000613
0.19586481 0.17275961 0.03102176
-0.25167815 0.17978663 0.00000551
-0.64120762 -0.25842016 -0.00000087
-0.05640607 0.42871108 0.00000472
-0.44947448 -0.68616315 0.00000000
-0.36915695 0.11222090 -0.00000036
-0.22700612 0.53680905 -0.00000050
-0.79752492 -0.14913847 -0.00000163
-0.13364029 0.47618452 0.00000284
-0.48713705 -0.70170333 0.00000000
0.51848414 -0.61158627 0.08211934
0.34816338 -0.47201212 0.05514334
0.44137323 0.25732297 0.06990691
0.64438221 -0.28243432 0.10205870
-0.23468427 0.04927562 0.00000000
-0.38103311 -0.59576900 0.00000000
-0.42864743 -0.78053391 0.00000000
0.26043436 -0.02388291 0.04124851
0.25382799 0.29179475 0.04020609
-0.41002194 -0.10529798 -0.00000015
-0.64654781 -0.72112648 -0.00000007
0.30447843 -0.25210879 0.04822436
0.45725776 -0.20204802 0.07242190
-0.12673187 0.51312640 -0.00000003
-0.32593483 0.33853267 0.00000145
0.12003406 -0.13569069 0.01901142
0.17780465 -0.16514313 0.02816133
-0.20377800 -0.36330321 0.00000000
-0.67241654 -0.09996081 -0.00000128
0.04631802 0.68560369 0.00733601
-0.63025214 -0.17173295 -0.00000097
0.17541273 0.52840240 0.02778376
0.00934655 -0.75202762 0.00148034
-0.03913376 0.09914267 0.00000992
-0.04266636 0.05486949 0.00001053
-0.29414523 -0.44272415 0.00000000
0.01301809 0.36967930 0.00206185
0.50676744 -0.27887092 0.08026334
-0.14005863 -0.26271278 0.00000000
0.38300118 -0.52434913 0.06066107
-0.20694442 -0.22964033 0.00000000
-0.70308244 -0.37130623 -0.00000093
0.64133684 -0.00487041 0.10157591
-0.49964417 0.20097151 0.00000041
-0.47767934 -0.09939725 -0.00000045
-0.64227683 -0.14761441 -0.00000107
-0.15865550 0.04522752 0.00000000
-0.02486562 -0.49885565 0.00000000
-0.26593712 0.22718088 -0.00000012
0.03681279 0.58476130 0.00583054
-0.23435643 -0.33101408 0.00000000
-0.39374797 -0.65348101 0.00000000
0.04071206 -0.74935130 0.00644812
0.56353371 -0.57537442 0.08925445
-0.14304330 0.58569996 -0.00000023
-0.71376420 -0.31031456 -0.00000108
0.61598973 -0.68466096 0.09756258
0.14642400 -0.72839911 0.02319115
0.75937313 -0.36831525 0.12027119
0.39990237 -0.14991412 0.06333790
-0.37521441 0.13568270 -0.00000043
0.49774033 -0.48762015 0.07883386
-0.19822824 0.42681956 0.00000243
0.41302118 -0.56628212 0.06541574
-0.21640021 0.57332264 -0.00000037
-0.01177785 0.73919627 0.00000000
0.03362479 0.36829243 0.00532561
0.05631803 -0.51297294 0.00891985
0.26599868 0.03987289 0.04213772
0.46026203 0.20621990 0.07289703
-0.37380374 -0.63077625 0.00000000
0.28003081 0.02900305 0.04435226
0.22332670 -0.55519593 0.03537127
0.20611354 -0.51198357 0.03264499
-0.30394784 -0.33999008 0.00000000
0.31719909 -0.29393768 0.05023911
0.14507616 0.03953538 0.02297767
0.18519546 0.08885817 0.02933191
0.36630368 -0.48527446 0.05801646
0.05860925 -0.65401354 0.00928274
-0.66137364 -0.08404094 -0.00000126
0.20535672 0.21668706 0.03253118
0.11420877 0.37466755 0.01809371
0.61577795 -0.17601684 0.09752819
0.73955406 -0.11681072 0.11713168
-0.28732962 -0.78200843 0.00000000
0.28855513 0.40122367 0.04570361
0.18307282 0.14503285 0.02900320
-0.51659743 0.15726361 -0.00000107
0.03543402 0.07046381 0.00561216
0.02581514 0.69278901 0.00408998
-0.39199720 0.21557188 -0.00000064
