ply
format ascii 1.0
element vertex 1393
property float x
property float y
property float z
end_header
-0.61878153 -0.75780565 0.00000000
0.44090021 0.34002139 -0.00000078
-0.20849607 -0.55362952 0.00000000
0.16037690 0.30575780 0.00000000
-0.02755551 -0.67349314 0.00000000
0.16624126 -0.31686453 0.00000000
-0.15639670 -0.60215863 0.00000000
-0.28001912 -0.38561375 0.00000000
0.50736206 -0.14719486 -0.00000049
-0.25325482 0.53776922 -0.00000031
-0.51517978 -0.01941908 -0.00000038
-0.62598469 -0.19738070 -0.00000045
0.07748065 0.51787594 0.00000306
0.00004580 0.52494870 0.00000000
0.26766914 -0.67149336 0.00000000
-0.12009883 0.59859165 -0.00000008
-0.33513628 -0.59660213 0.00000000
-0.31957663 0.09323754 0.26439756
0.21789590 0.17707925 0.00000000
-0.71635896 -0.28442194 -0.00000057
-0.19789168 0.51396108 -0.00000017
0.21480984 0.05968621 0.00000000
0.61222201 -0.51996439 -0.00000028
-0.28981267 -0.72614065 0.00000000
-0.13749414 0.11620476 0.37305114
-0.23371276 0.33348876 0.15897152
-0.46399524 -0.13329684 -0.00000017
0.21860287 -0.41516503 0.00000000
0.44753303 -0.19734307 -0.00000015
-0.57646888 -0.20274301 -0.00000034
-0.09059222 -0.28621695 0.00000000
-0.27916180 0.09251044 0.29249179
0.13223171 -0.11778863 0.00000000
0.64908006 -0.08773999 -0.00000120
0.15500300 -0.40470885 0.00000000
0.35013183 0.22462964 0.00000289
-0.20164572 0.12465815 0.32347198
-0.63798439 0.16158360 0.00029381
0.35155657 -0.00313553 -0.00000008
-0.19338498 0.23165616 0.25604772
0.42958081 0.28732085 -0.00000093
-0.44331903 0.05940127 -0.00000029
0.09928500 -0.74048701 0.00000000
-0.04058644 0.04553905 0.00000000
-0.42155427 -0.06564791 -0.00000013
0.68185345 0.08085817 -0.00000164
-0.73638745 -0.67877762 -0.00000015
0.16360148 -0.32354390 0.00000000
-0.13518835 -0.32913554 0.00000000
-0.31000523 -0.29316739 0.00000000
-0.12441505 0.41366668 0.00000000
0.13329227 0.45670660 0.00000314
0.22214616 0.28732846 0.00000430
-0.01266157 0.12812604 0.00000000
0.71719647 -0.62897523 -0.00000043
-0.27146553 -0.72905524 0.00000000
0.23049188 -0.52188312 0.00000000
0.70269185 0.07805532 -0.00000144
0.01715368 0.74694832 0.00000054
-0.57841740 -0.23542307 -0.00000032
-0.70216528 -0.70182880 -0.00000012
0.25772965 0.11725929 0.00000635
-0.75463816 -0.14639991 -0.00000077
-0.22363157 -0.36822343 0.00000000
-0.34210746 0.22979678 0.15576011
0.13082584 0.60652470 0.00000072
-0.23905365 -0.12980901 0.00000000
0.31383550 0.16353630 0.00000460
-0.72144193 -0.09721350 -0.00000075
0.44307367 -0.56273993 0.00000000
0.42838432 -0.73614073 0.00000000
-0.65449655 -0.13864151 -0.00000057
0.40529818 -0.65798132 0.00000000
-0.35262019 -0.40043764 0.00000000
-0.58799468 0.18264351 -0.00000071
0.41699218 -0.09915789 -0.00000019
-0.63532575 -0.04167213 -0.00000061
-0.14151810 0.59035531 -0.00000012
-0.09955817 0.65459252 0.03130965
-0.36999571 -0.16701938 0.00000000
0.08126304 0.60566658 -0.00000000
0.62547816 -0.02316463 -0.00000121
-0.49477358 0.05424816 0.17138549
-0.30518702 -0.59901065 0.00000000
-0.75163249 -0.25756200 -0.00000067
-0.58113069 -0.74669039 0.00000000
-0.34766055 0.16517447 -0.00000018
0.05421391 0.48470562 0.00000391
-0.12282029 0.15607842 0.35584301
0.16209583 0.37707114 0.00000390
0.37062394 0.16594079 -0.00000046
-0.45902528 0.12357572 0.14845523
-0.38124642 -0.74786330 0.00000000
-0.02640414 0.73599197 0.00000000
0.15888110 -0.66645680 0.00000000
0.10181292 0.63394155 -0.00000014
0.13423209 0.44962830 0.00000000
0.62230149 -0.44595632 -0.00000045
-0.31374665 0.27754567 0.14252059
-0.70096152 -0.25453198 -0.00000056
0.40781007 -0.24672998 0.00000000
-0.36319584 -0.42744247 0.00000000
-0.18023926 0.55955582 -0.00000017
-0.37477691 -0.79046680 0.00000000
-0.23981305 -0.47043916 0.00000000
-0.23815631 0.34131187 0.15059506
-0.04241976 -0.36676010 0.00000000
-0.24527238 -0.60893930 0.00000000
-0.42338870 -0.11689003 -0.00000009
-0.21721969 -0.05491086 0.00000000
0.22852274 0.50747199 -0.00000046
-0.06165611 -0.72851427 0.00000000
0.44501897 0.19917292 0.00000149
-0.39419977 -0.56415634 0.00000000
0.19551763 0.34388874 0.00000386
-0.34093624 0.24660996 0.14507864
-0.74939807 -0.49227645 -0.00000038
-0.12850012 0.50160545 -0.00000001
0.77156836 -0.58644583 -0.00000053
-0.11172524 -0.42461842 0.00000000
0.14216243 -0.63723017 0.00000000
0.49859984 -0.03660719 -0.00000065
-0.73992996 -0.53843727 -0.00000033
-0.59789088 0.04997895 -0.00000061
0.34395609 -0.52129478 0.00000000
0.32457702 -0.77764479 0.00000000
-0.71091976 -0.29989597 -0.00000054
0.08878301 0.26217728 0.00000673
0.33495250 -0.06292241 0.00000000
0.00578277 0.26882621 0.00000788
0.64520465 -0.15101292 -0.00000107
-0.44053958 0.05010823 -0.00000028
0.55592738 0.17361765 -0.00000127
0.08093909 0.34250814 0.00000564
-0.53881966 -0.32168368 -0.00000016
0.08225671 0.15751976 0.00000840
-0.17560149 0.54435053 0.05466277
-0.47404584 -0.07279750 -0.00000024
0.32553888 0.30683618 -0.00000052
-0.65404732 -0.40702913 -0.00000033
0.14541857 0.54395171 0.00000148
-0.59052281 -0.54252830 -0.00000007
0.35135656 -0.54422484 0.00000000
-0.14795767 -0.11310020 0.00000000
-0.43589600 0.04858822 -0.00000027
-0.72887535 -0.78927623 -0.00000001
0.44161387 -0.39624351 0.00000000
0.34651085 0.37600268 -0.00000073
0.11592316 -0.50902696 0.00000000
0.07349140 -0.29050487 0.00000000
0.20494099 0.10791633 0.00000729
0.31090653 0.42712355 -0.00000067
0.43455498 -0.21684816 -0.00000006
0.75591939 -0.02849260 -0.00000176
0.40069054 -0.35572669 0.00000000
0.75954142 -0.52876810 -0.00000068
-0.46112606 0.22387120 -0.00000047
-0.02485418 0.69774620 0.00000000
-0.05093322 -0.78780618 0.00000000
-0.32314025 0.13786596 0.23148891
0.14241837 0.50987158 0.00000211
0.24294239 -0.24276116 0.00000000
-0.22611469 0.51213354 0.04216864
0.33834913 -0.01787331 0.00000000
0.15693654 -0.17815819 0.00000000
-0.10333168 -0.13672696 0.00000000
-0.07897993 0.51552884 0.14032377
-0.48536153 -0.02559311 -0.00000031
-0.29721022 0.20710553 0.20191425
0.62807756 -0.52525121 -0.00000034
0.13347327 0.52916096 -0.00000009
0.17416444 -0.69074450 0.00000000
-0.13325553 0.17460772 0.00000000
0.44660273 -0.11959162 -0.00000028
0.70565756 -0.28922469 -0.00000109
-0.28042819 -0.76151276 0.00000000
-0.50322061 -0.70695027 0.00000000
0.16547079 -0.14686694 0.00000000
0.74250583 -0.78652496 -0.00000003
0.04078493 0.71905248 0.00000057
-0.47075945 0.12695846 -0.00000041
0.53257005 0.24263065 -0.00000092
0.54866712 0.11844404 0.00000085
0.09721512 0.25997310 0.00000000
0.00254670 0.10964076 0.00000000
-0.59652212 -0.76531484 0.00000000
0.69065319 -0.35464454 -0.00000091
-0.10279553 -0.78077389 0.00000000
-0.14085063 0.39061888 0.18337131
0.46854359 -0.29963121 -0.00000006
0.19773145 0.09034148 0.00000766
0.03111350 0.58703862 0.00000272
-0.31749785 0.02466282 0.00000000
0.53545463 -0.19914611 -0.00000052
0.09495714 -0.79907296 0.00000000
-0.34561000 0.07704842 -0.00000010
-0.18016158 0.19549487 0.00000000
0.11982774 0.19213523 0.00000000
0.16419669 -0.11762605 0.00000000
0.54271614 -0.07492966 -0.00000077
-0.16638185 0.22904600 0.00000000
0.47825683 0.01538623 0.00000392
-0.66445194 0.08915031 0.03168250
0.08556462 0.41518031 0.00000448
0.76909961 -0.18921236 -0.00000153
-0.32666622 0.07975397 -0.00000006
-0.00717784 -0.14359172 0.00000000
0.02144683 0.57732023 0.00000302
-0.05190039 -0.48939307 0.00000000
-0.23151427 -0.44020980 0.00000000
0.22723864 0.50730875 -0.00000045
0.00286473 0.22209683 0.00000000
0.14590499 0.44124669 0.00000000
-0.17023366 0.17379164 0.31137051
-0.18234539 0.04580352 0.00000000
0.12805612 -0.13789348 0.00000000
-0.23524914 0.22545029 0.00000000
-0.56142187 -0.25456031 -0.00000027
0.32568000 -0.29418304 0.00000000
-0.24394611 0.32812825 -0.00000010
-0.48578508 0.21520340 0.06761154
-0.29157288 0.31793704 0.13008035
-0.44983911 0.12790152 0.15177427
-0.77525302 -0.17964253 -0.00000078
-0.38323109 -0.62768434 0.00000000
0.03657891 0.45928137 0.00000000
-0.11673127 -0.31322452 0.00000000
0.65616904 0.06424710 -0.00000031
0.10656716 0.24443433 0.00000673
0.44580636 -0.36277913 0.00000000
-0.19354610 -0.67910306 0.00000000
0.00796935 0.56006220 0.00000348
0.31340300 -0.74983935 0.00000000
0.58714797 -0.32279881 -0.00000052
-0.09774823 0.69406139 0.00559340
-0.48898362 -0.76136034 0.00000000
0.00057751 0.59028480 0.00000000
0.12234791 0.57828261 -0.00000013
0.73071212 -0.38764181 -0.00000102
0.57119478 -0.40654716 -0.00000030
0.41888069 0.30945209 -0.00000092
-0.74274583 -0.08715406 -0.00000080
0.26496053 -0.24417429 0.00000000
-0.38403089 0.39336962 -0.00000046
0.32394465 0.43881674 -0.00000019
0.29827321 -0.25296703 0.00000000
-0.37430543 -0.08129103 -0.00000002
0.02017250 0.76292178 0.00000023
-0.67265400 0.10890146 -0.00000082
0.59432977 0.18769050 -0.00000145
-0.27598827 0.20461129 -0.00000006
-0.19097792 0.59265765 0.01117495
0.16487182 0.17369050 0.00000000
-0.36620198 0.03852507 -0.00000011
0.49340239 -0.57608164 0.00000000
0.27586282 -0.34218795 0.00000000
0.77091135 -0.26913457 -0.00000133
-0.52726897 0.04407893 -0.00000046
0.14857980 0.41954752 0.00000000
0.33327287 0.38918732 -0.00000070
0.39818903 -0.42459916 0.00000000
0.20779114 -0.72996149 0.00000000
-0.44426674 0.06139118 0.20099762
0.06316764 0.61493950 0.00000182
-0.60885626 0.08741414 0.07083303
0.58269760 -0.68720818 0.00000000
0.32587868 -0.05005201 0.00000000
0.47224217 0.28418886 -0.00000045
-0.42060666 0.17434778 -0.00000034
0.38435000 0.11832863 -0.00000044
-0.52300264 -0.70105218 0.00000000
0.25638553 -0.62154488 0.00000000
0.15258497 -0.32040637 0.00000000
-0.30161568 -0.33516558 0.00000000
0.40615473 0.25380326 -0.00000077
-0.31659470 -0.39624350 0.00000000
-0.48663711 -0.58993092 0.00000000
-0.22424095 0.20197719 0.00000000
-0.34016655 0.30893251 0.10304586
-0.27626356 -0.74872439 0.00000000
0.38672191 0.21987222 -0.00000062
-0.34200521 0.04976339 -0.00000007
0.47871222 0.20780744 0.00000070
-0.22826780 0.40712556 -0.00000014
0.60702032 -0.18601974 -0.00000085
0.01163298 0.07686293 0.00000000
-0.18645845 -0.61299706 0.00000000
-0.44439753 0.08034924 0.18796236
0.30053259 0.02373758 0.00000711
-0.78296628 -0.73869763 -0.00000008
0.24251179 -0.62897237 0.00000000
0.07017946 0.09707889 0.00000000
-0.35064599 -0.07640612 0.00000000
-0.35913917 0.26044456 -0.00000029
0.04466572 0.23638765 0.00000778
0.47746738 0.13857023 -0.00000087
-0.08397619 0.31242691 0.00000000
-0.01695737 -0.47676888 0.00000000
-0.17995753 0.02202261 0.00000000
-0.77772767 -0.06612691 -0.00000089
0.08453141 0.37266564 0.00000513
0.16323113 0.56875540 -0.00000029
-0.00030495 -0.24549599 0.00000000
-0.50661979 -0.16710948 -0.00000023
0.46513408 0.01061796 -0.00000059
-0.19238412 -0.53669240 0.00000000
-0.55166524 0.23103828 -0.00000067
0.66014075 -0.73170919 -0.00000011
0.26637670 -0.73777024 0.00000000
0.03392095 0.27148308 0.00000742
-0.66737076 0.09563011 0.02526442
-0.13091036 -0.52734459 0.00000000
-0.15799049 0.18325846 0.31326635
-0.44751218 -0.30579868 0.00000000
-0.29089789 0.20799517 -0.00000010
-0.26905955 0.13060137 0.00000000
-0.70141826 -0.34580131 -0.00000048
0.11490432 0.63839971 0.00000049
0.45496873 0.29904052 -0.00000106
0.24374349 0.36586686 0.00000257
-0.63245771 -0.77404210 0.00000000
0.50261897 0.01461156 0.00000347
-0.13092648 0.60894040 0.04106358
0.47063022 0.20078880 0.00000097
-0.25014782 -0.52375328 0.00000000
-0.26567245 -0.47044311 0.00000000
0.49268702 0.30287103 -0.00000122
-0.37790080 0.39852459 0.01609804
-0.37099913 0.42087610 -0.00000046
0.34313274 -0.02163076 -0.00000001
0.33277564 -0.23823895 0.00000000
0.22178916 -0.35342967 0.00000000
-0.19277633 0.42329193 0.12560197
0.65757724 -0.71107445 -0.00000014
0.61924980 -0.79382308 0.00000000
0.07964712 -0.27429227 0.00000000
-0.31958156 0.10345612 -0.00000007
0.16898531 0.26436473 0.00000000
0.37646982 -0.37703329 0.00000000
0.69557654 -0.25531337 -0.00000110
-0.46452839 -0.78806616 0.00000000
-0.38882543 -0.04639334 -0.00000008
0.13628792 -0.46689054 0.00000000
0.00345384 0.33138325 0.00000000
0.29639199 -0.51980781 0.00000000
-0.17333155 -0.23595378 0.00000000
0.08262984 0.63224586 0.00000122
-0.05608103 0.46523094 0.19030722
0.01708469 -0.64266107 0.00000000
-0.22643820 0.10987038 0.31664021
-0.73939494 -0.53963036 -0.00000033
-0.52828120 -0.47832874 0.00000000
-0.29117205 0.31591141 -0.00000019
0.61181978 0.09286854 -0.00000136
-0.78833821 -0.52410527 -0.00000034
-0.37288807 -0.38350381 0.00000000
-0.53507353 -0.41779704 -0.00000007
0.09945344 0.52540569 0.00000000
0.56859435 0.03395557 -0.00000107
-0.08922375 -0.07349796 0.00000000
0.43810657 0.13105137 -0.00000069
0.16003065 0.27924732 0.00000540
0.36411425 -0.66417163 0.00000000
0.20322001 0.05917215 0.00000000
-0.30887229 0.17958106 -0.00000011
0.21406205 -0.74804464 0.00000000
-0.49882015 -0.43012948 0.00000000
-0.59359136 0.03821533 0.11485360
-0.57151239 0.11226325 0.07936547
-0.41544052 0.17032065 0.14629736
-0.33842670 -0.56976565 0.00000000
-0.19418207 0.36439175 -0.00000003
-0.18852591 0.46302890 0.10136933
0.74441403 0.03611431 -0.00000154
0.08436419 0.69544251 0.00000013
0.75569729 0.04121691 -0.00000184
-0.71149485 -0.26972842 -0.00000057
0.76277441 0.00767887 -0.00000185
-0.11485169 0.65329211 0.02175409
-0.18353966 -0.79786111 0.00000000
0.54146724 -0.27785853 -0.00000041
0.41043362 0.26697730 -0.00000081
-0.54982277 -0.58748305 0.00000000
-0.19652128 0.14441853 0.00000000
-0.16023264 0.53004521 0.07492651
0.65315115 -0.31728129 -0.00000081
-0.03897719 0.07137714 0.00000000
0.38501643 0.21530801 0.00000237
0.40492523 -0.16378825 -0.00000002
0.30719392 0.07258600 -0.00000003
-0.11297832 0.12883343 0.38116836
0.03911349 0.00613374 0.00000000
0.19422251 -0.57862511 0.00000000
0.29109647 -0.49199660 0.00000000
-0.17113793 -0.25085840 0.00000000
0.10591548 0.45999351 0.00000000
0.13583951 0.03896076 0.00000937
-0.73252811 -0.24088935 -0.00000064
0.37085745 0.25856764 -0.00000063
0.41038957 -0.47786703 0.00000000
-0.09396664 0.58263277 -0.00000001
-0.08775705 -0.20641366 0.00000000
-0.49539192 0.02185553 -0.00000037
-0.06659662 0.18299143 0.00000000
0.41165574 0.02645684 0.00000502
-0.32896172 -0.20929541 0.00000000
0.65476990 -0.44954338 -0.00000059
0.77315350 -0.67705155 -0.00000031
0.04951589 -0.09201886 0.00000000
-0.46068071 -0.51513458 0.00000000
0.00089348 0.21439147 0.00000000
0.56852296 -0.24699877 -0.00000058
-0.60346476 -0.13307389 -0.00000046
0.19019052 -0.16898465 0.00000000
-0.68269475 0.09769637 -0.00000084
-0.66498523 0.12596076 0.00618146
0.16068186 0.22127061 0.00000626
0.05044081 -0.05396513 0.00000000
0.05665170 -0.09591325 0.00000000
0.53699958 -0.14230148 -0.00000063
-0.76343332 -0.52545197 -0.00000034
-0.55455462 -0.45018129 -0.00000008
0.72868652 0.02079463 -0.00000173
-0.19805195 -0.27717534 0.00000000
-0.28674913 -0.48311662 0.00000000
0.63713859 -0.63185046 -0.00000019
-0.27953013 -0.47698928 0.00000000
0.07758636 0.27956835 0.00000664
0.15765453 -0.03270229 0.00000000
-0.41041884 0.28787696 0.06945052
0.34813778 0.19939828 -0.00000042
-0.11512206 0.06252907 0.00000000
0.44773534 0.22478144 -0.00000089
0.46077046 0.26178992 0.00000014
0.25657936 0.28899492 0.00000361
0.00600260 0.51440392 0.00000000
0.00635461 0.69174752 0.00000000
0.77491753 -0.41835369 -0.00000095
0.38512994 -0.43368133 0.00000000
-0.48281823 -0.26798183 -0.00000009
0.24959855 -0.52052303 0.00000000
-0.47187810 -0.18121312 -0.00000014
0.12709656 0.50890936 -0.00000003
0.17997311 -0.61483840 0.00000000
-0.13313958 0.33067295 0.00000000
-0.39095778 -0.55290730 0.00000000
0.75193163 -0.23637080 -0.00000138
-0.22775672 0.10966266 0.31588169
-0.33362060 0.18322928 -0.00000017
-0.22714946 0.52189647 0.03479518
0.78815717 -0.55910405 -0.00000060
0.41411194 -0.11196069 -0.00000016
0.03881543 0.21452035 0.00000000
0.36453575 -0.52484932 0.00000000
-0.62615082 0.13544821 -0.00000075
0.46031341 0.21384460 -0.00000093
-0.28774603 0.47771707 -0.00000033
-0.61443844 -0.37032555 -0.00000028
-0.27906834 -0.35945365 0.00000000
0.21626971 0.18340670 0.00000599
0.26774602 -0.62233478 0.00000000
0.66251277 -0.62765009 -0.00000030
-0.13996823 0.60619952 -0.00000013
0.59061418 -0.10150932 -0.00000093
-0.00175876 0.35675459 0.00000000
0.47682699 -0.01109060 -0.00000060
0.79377950 -0.68231894 -0.00000029
0.44801212 0.15817049 -0.00000078
-0.40855454 0.38948685 -0.00000051
0.23589844 0.40451550 0.00000208
0.62728139 -0.07983505 -0.00000112
-0.25788747 0.24813828 -0.00000006
-0.29718429 -0.00724370 0.00000000
0.23746529 0.42794908 -0.00000036
-0.45321447 -0.29592735 0.00000000
-0.17814327 -0.73861435 0.00000000
-0.67495361 0.06137106 0.04348086
-0.14245867 -0.27331965 0.00000000
0.07662642 0.40308840 0.00000000
0.06834188 -0.28879359 0.00000000
0.73883792 -0.06537798 -0.00000162
0.07646922 -0.15526141 0.00000000
-0.05217422 -0.14165325 0.00000000
0.33398333 -0.44823499 0.00000000
-0.27377857 0.31856735 -0.00000016
0.20504358 0.48580495 0.00000131
-0.27473646 0.49351709 -0.00000032
-0.38519671 -0.47503348 0.00000000
0.68836170 -0.65077349 -0.00000037
-0.36648920 0.21575980 0.14869588
-0.29708286 0.21337994 -0.00000012
-0.51447865 0.05955401 0.15430616
-0.79909238 -0.15712219 -0.00000080
0.29767191 -0.75744104 0.00000000
0.43435674 0.21546820 -0.00000082
-0.40072985 -0.76617058 0.00000000
0.09929498 -0.30604903 0.00000000
0.38257153 -0.54689266 0.00000000
-0.26549479 0.27979900 -0.00000011
-0.54503455 0.11050362 -0.00000055
-0.19731497 0.32440832 0.19002687
0.26306065 -0.54543535 0.00000000
-0.10125616 0.42174345 0.00000000
-0.71659695 -0.60574731 -0.00000024
-0.39400741 0.19677611 -0.00000031
0.47685614 0.14691078 0.00000175
0.10526958 -0.07577835 0.00000000
-0.06210928 0.05443665 0.00000000
0.18906072 0.06340546 0.00000820
-0.61544431 -0.20790613 -0.00000042
-0.20267894 -0.74945066 0.00000000
0.43117445 0.14140459 -0.00000068
0.37001888 0.40516325 -0.00000088
0.03600274 -0.52578773 0.00000000
-0.48866404 -0.37731345 -0.00000000
-0.08767718 -0.14164470 0.00000000
0.35257762 0.38478607 -0.00000077
-0.12652389 0.26497076 0.27895519
-0.36520247 0.40501378 0.02033813
-0.05214818 -0.55844942 0.00000000
0.09971496 0.23150203 0.00000702
0.17943936 0.28366703 0.00000504
0.00004716 0.62599965 0.00000261
-0.35063150 -0.52065182 0.00000000
0.23350488 -0.74465564 0.00000000
0.43267771 -0.02958441 -0.00000038
0.24616592 0.46062693 -0.00000045
0.26938071 -0.42756784 0.00000000
-0.05545693 0.10339234 0.00000000
0.38624408 0.09264204 0.00000440
-0.15109113 0.64053625 -0.00000018
-0.12905325 0.29554949 0.25634685
-0.01224741 -0.31719781 0.00000000
0.49681861 -0.10474320 -0.00000052
0.46879074 0.19431098 0.00000111
-0.20350305 0.59287925 -0.00000025
0.07187920 0.67155728 0.00000077
0.48703294 -0.04498101 -0.00000058
-0.58778327 -0.33549626 -0.00000025
0.41314795 -0.33273160 0.00000000
0.06483240 0.36506523 0.00000555
-0.51959154 -0.29243817 -0.00000014
-0.15927205 -0.06254272 0.00000000
0.01238182 -0.24747966 0.00000000
-0.53354385 -0.10842929 -0.00000034
-0.76547514 -0.22604214 -0.00000072
0.23740406 0.16757430 0.00000000
-0.36660835 -0.78110220 0.00000000
-0.01188002 0.75233149 0.02443944
0.15777104 -0.33022990 0.00000000
0.49867369 0.18428148 -0.00000104
0.07121073 0.71748125 -0.00000016
0.19871525 -0.22008863 0.00000000
0.68284815 -0.48586895 -0.00000064
0.14968716 0.41172794 0.00000000
0.00203128 0.51226277 0.00000429
0.40416744 0.24486322 -0.00000074
0.38792072 0.38326161 -0.00000049
0.20798620 0.04383781 0.00000820
-0.36115602 -0.06630416 -0.00000000
-0.26161715 0.46499512 0.05011442
-0.20283295 0.25395715 0.00000000
-0.28478283 0.40233451 0.07708436
0.26248786 0.02287027 0.00000770
-0.06505233 0.16989689 0.00000000
-0.05770525 -0.59931520 0.00000000
-0.03920146 0.60096221 0.10914749
-0.30706401 -0.27558625 0.00000000
-0.20522841 0.51949095 -0.00000019
0.46468623 -0.57878449 0.00000000
0.28975719 -0.21603689 0.00000000
0.01719171 0.27173598 0.00000766
0.22664935 -0.24279211 0.00000000
0.08501920 -0.36700382 0.00000000
0.69588340 -0.19002279 -0.00000122
-0.77863967 -0.51059220 -0.00000036
0.33771127 -0.57591777 0.00000000
0.13731413 0.42455600 0.00000000
-0.23645962 -0.10751426 0.00000000
0.04714005 -0.21373601 0.00000000
-0.51119411 0.19375998 -0.00000055
-0.38984539 -0.69038826 0.00000000
-0.24911901 0.13753883 0.28225854
0.37061194 0.13086034 -0.00000040
0.02485949 0.00706204 0.00001152
0.07123593 0.15145728 0.00000865
0.13375931 0.50295255 0.00000239
0.05892688 0.22485158 0.00000774
0.29099601 -0.14995187 0.00000000
0.11207516 0.19597370 0.00000737
-0.08097278 0.68510042 0.02316814
-0.11365191 -0.38077109 0.00000000
0.27658404 0.35477187 0.00000213
-0.23541287 -0.29935839 0.00000000
-0.60439703 -0.69102291 0.00000000
0.03312796 -0.02297011 0.00000000
0.15804607 -0.69632167 0.00000000
0.48265115 -0.50731455 0.00000000
0.24378662 0.00865844 0.00000000
-0.33267439 0.45956862 0.00529675
-0.01355675 0.13231893 0.00000000
0.00534216 0.61277164 0.00000273
0.11195930 -0.46520165 0.00000000
-0.33716469 0.19541377 -0.00000019
0.08861252 -0.61856368 0.00000000
-0.12714464 0.39612913 0.18896784
-0.43401479 -0.45795707 0.00000000
-0.27824461 -0.58528472 0.00000000
0.16625002 -0.47198296 0.00000000
0.05360546 0.20764695 0.00000000
0.34109354 -0.25386910 0.00000000
0.31186658 0.38783972 0.00000090
-0.35518767 -0.25311655 0.00000000
-0.09499308 0.39017790 0.00000000
-0.09191345 -0.48654274 0.00000000
-0.53944135 -0.69983749 0.00000000
0.49577514 -0.40780562 0.00000000
-0.03120649 0.46656490 0.00000000
-0.68511125 -0.23390917 -0.00000055
-0.11781468 -0.48347384 0.00000000
-0.70666394 -0.37810033 -0.00000047
-0.11391940 0.33000316 0.24315396
-0.51071573 -0.64793565 0.00000000
0.18683158 0.01119198 0.00000901
-0.18093149 0.20069122 0.28569660
-0.20293260 -0.74433848 0.00000000
-0.39905049 0.22290072 -0.00000034
0.34379151 0.34974791 0.00000092
0.66147886 -0.23372571 -0.00000100
0.34111871 -0.65230165 0.00000000
0.50198246 0.06056032 -0.00000084
0.18583140 0.01431472 0.00000898
-0.15059952 0.57209174 0.05279229
-0.22731006 0.18791243 0.26275266
0.02576094 0.08101073 0.00000000
0.35000312 -0.75170533 0.00000000
-0.24707566 0.12751998 0.29049538
0.18785878 0.29332085 0.00000000
-0.18830055 -0.04274461 0.00000000
0.09743172 -0.06733671 0.00000000
0.63912490 -0.48236801 -0.00000046
-0.51840414 -0.28193365 -0.00000015
0.24867100 0.26805010 -0.00000012
0.55686418 -0.54322845 -0.00000000
0.06384319 0.73380259 -0.00000016
0.11028592 -0.18743988 0.00000000
0.57034822 0.18227461 -0.00000134
-0.13478135 0.66311702 -0.00000017
0.38392916 -0.47785772 0.00000000
-0.00866213 0.36779653 0.00000000
-0.14555458 0.50254066 0.10373169
0.76512715 -0.00319447 -0.00000185
0.05937697 -0.56722959 0.00000000
0.63247691 0.15147857 -0.00000131
0.76910370 -0.09716071 -0.00000170
0.04331222 -0.22320378 0.00000000
0.35055260 0.08942523 -0.00000024
0.04746687 0.27531564 0.00000715
0.06992515 0.44453042 0.00000428
0.72923251 -0.33682111 -0.00000110
0.18580315 -0.41910152 0.00000000
-0.42092346 -0.36588221 0.00000000
-0.33612858 0.39099256 -0.00000036
-0.20652927 0.22723909 0.25008825
0.05930125 0.30981169 0.00000646
-0.15090415 -0.09798508 0.00000000
-0.39579132 -0.10489753 -0.00000004
-0.11667576 -0.12237686 0.00000000
-0.10933963 -0.60871150 0.00000000
0.75720822 -0.70574277 -0.00000024
0.39540668 0.27201730 -0.00000075
-0.65479503 -0.71134251 -0.00000006
-0.36573657 -0.52067600 0.00000000
0.41834649 -0.24266364 0.00000000
-0.02801666 0.74336704 -0.00000001
-0.07175595 0.61978608 0.07406312
0.07692279 -0.25080991 0.00000000
0.28998378 -0.77560720 0.00000000
0.54428741 -0.34017606 -0.00000031
-0.24799992 0.20731486 0.23537511
-0.09484687 0.42302574 0.00000000
-0.55741446 -0.53310540 -0.00000001
-0.52363975 -0.45685581 -0.00000001
0.70295504 0.08675342 -0.00000159
0.42846141 0.32328614 -0.00000027
0.07019925 -0.78807670 0.00000000
-0.23653067 0.07367482 0.00000000
-0.63331743 0.12473527 -0.00000075
-0.12975982 0.21558048 0.31047240
-0.23066769 0.55234392 0.01160093
0.01468128 -0.58176389 0.00000000
0.54581916 -0.21053096 -0.00000054
-0.04363963 0.68643767 0.04774863
0.25059325 -0.63708710 0.00000000
0.29034601 -0.41640631 0.00000000
-0.79423392 -0.10926533 -0.00000086
0.39982068 -0.12485026 -0.00000007
-0.16553534 0.54462595 -0.00000013
-0.71400373 0.01738602 -0.00000083
0.05366504 -0.14697798 0.00000000
0.02074257 0.18917377 0.00000885
-0.48823747 0.29964365 -0.00000060
-0.63747928 -0.72406239 -0.00000001
0.42074593 0.06114521 -0.00000049
0.27567142 0.20089644 0.00000471
0.76991898 -0.32393958 -0.00000119
0.36421324 -0.55425046 0.00000000
-0.34825755 0.32400428 0.08722861
0.52275269 -0.41612215 -0.00000008
0.15685862 -0.39884322 0.00000000
-0.74395840 -0.65358676 -0.00000018
0.71999358 -0.02586682 -0.00000161
0.09627319 -0.39349178 0.00000000
0.18132870 -0.23977575 0.00000000
0.31600766 0.05296376 0.00000641
-0.63812582 0.01700207 -0.00000067
-0.16426594 0.48615228 0.10214548
-0.69954022 -0.08432301 -0.00000071
-0.06073068 -0.06964817 0.00000000
-0.23880471 0.32300216 0.16265535
0.27920378 -0.36436257 0.00000000
-0.05366496 0.67642441 0.04774042
0.11848909 0.12731837 0.00000000
0.65740003 0.03393727 0.00000017
0.22955636 0.11987550 0.00000674
0.13315279 0.09204469 0.00000861
-0.00190269 0.27609843 0.00000000
0.45610533 0.24417219 -0.00000096
0.10633758 0.39336747 0.00000000
0.04122778 0.68533876 0.00000000
0.04474553 -0.16006971 0.00000000
-0.07019957 0.28024133 0.00000000
-0.04478471 -0.56669782 0.00000000
0.34970708 0.16613513 -0.00000037
-0.26250668 0.50505763 -0.00000030
0.70222705 -0.00233190 -0.00000158
0.64386153 -0.44044076 -0.00000056
0.01345079 -0.40467373 0.00000000
0.10190741 -0.53611850 0.00000000
-0.54435496 0.21581671 0.02719677
-0.06219188 -0.75515217 0.00000000
0.65511788 -0.62616698 -0.00000027
-0.05908095 -0.63144088 0.00000000
-0.59465954 0.12008534 -0.00000067
-0.62615718 -0.09927921 -0.00000054
-0.73623689 -0.15075887 -0.00000073
0.17248128 -0.02780624 0.00000000
-0.17647022 0.37573803 0.16920968
-0.15601034 0.39013057 0.17335278
-0.79571981 -0.27204367 -0.00000066
0.16142938 0.33434730 0.00000000
0.10301156 -0.17900326 0.00000000
0.49737573 -0.71451662 0.00000000
-0.45619322 -0.52425657 0.00000000
-0.32286021 -0.54031353 0.00000000
0.22423337 0.19977356 0.00000562
-0.75680162 -0.11304369 -0.00000081
0.35672907 0.22594414 -0.00000051
0.45425987 -0.45777543 0.00000000
0.62089636 -0.47244661 -0.00000040
0.11075247 -0.32629233 0.00000000
0.28196098 0.25869153 -0.00000025
-0.37274936 0.37295930 0.03707368
-0.48128848 -0.34592447 -0.00000001
-0.73498852 -0.39118337 -0.00000051
0.05929387 0.35619211 0.00000576
-0.39026569 0.14123413 0.18335104
0.59482581 0.10800047 0.00000014
0.57545008 -0.12839440 -0.00000081
0.38019219 -0.67727348 0.00000000
-0.36357017 0.23824632 -0.00000028
0.07082568 0.66539412 0.00000089
-0.09818295 0.65870660 0.02943936
0.38148638 0.26515180 0.00000161
-0.63770387 -0.33354627 -0.00000036
0.11725759 0.52113871 -0.00000001
0.31555524 0.36681607 -0.00000058
-0.55684231 -0.60472264 0.00000000
-0.76719080 -0.63797588 -0.00000020
0.77056736 -0.64195322 -0.00000040
-0.73033902 -0.04759491 -0.00000081
-0.15843591 0.24784381 0.26885910
-0.22790869 -0.63030023 0.00000000
-0.57080555 0.15910117 0.04786381
-0.17565059 0.57042150 0.03682609
0.42138065 0.29936045 -0.00000091
0.46883757 0.18605771 -0.00000092
-0.53129591 0.06120331 0.14169579
-0.08117765 0.48263641 0.00000000
-0.25704616 0.38753415 0.10613183
-0.27278237 -0.10762126 0.00000000
-0.09738807 0.50920283 0.00000000
-0.37925657 -0.78094119 0.00000000
0.18925397 -0.77015506 0.00000000
-0.22023409 0.08208232 0.00000000
-0.43956184 0.13230400 0.15578603
-0.15981247 0.13338868 0.00000000
0.27341105 -0.30091547 0.00000000
-0.01111140 -0.23372579 0.00000000
-0.72774986 -0.49977172 -0.00000038
0.32469040 0.39164862 0.00000059
0.62871591 -0.12489294 -0.00000105
-0.20006694 -0.16295928 0.00000000
0.36318286 -0.65483113 0.00000000
0.12034553 0.41227941 0.00000400
-0.64636088 -0.13983408 -0.00000055
0.54990380 0.10837805 0.00000099
0.12379697 0.66039511 -0.00000005
0.32705758 0.25787682 0.00000277
0.46612920 0.13375895 0.00000218
-0.17707884 0.25290455 0.25267277
-0.27681003 0.28851001 0.16025647
-0.25236638 0.46012353 -0.00000024
0.44825420 -0.69718809 0.00000000
-0.62128296 -0.32519841 -0.00000033
-0.13373137 -0.27236855 0.00000000
-0.37485623 -0.63679327 0.00000000
-0.31524692 0.26647960 0.14905281
0.02399726 -0.13024072 0.00000000
0.65200185 -0.31330237 -0.00000081
-0.34861600 -0.67133472 0.00000000
-0.45250640 -0.26288363 -0.00000003
0.73498898 -0.18335949 -0.00000140
0.30486901 -0.01812368 0.00000000
0.25530150 -0.77768597 0.00000000
-0.68785726 -0.06161410 -0.00000071
0.08795130 -0.08179571 0.00000000
0.50734913 -0.00215253 -0.00000075
0.59220762 -0.04916442 -0.00000103
-0.36733081 0.19064847 0.16526901
0.37222216 -0.26433850 0.00000000
0.24493763 -0.68194616 0.00000000
-0.32849607 0.08740372 -0.00000007
0.77699022 -0.01888576 -0.00000187
-0.22049096 -0.48472159 0.00000000
-0.79027926 -0.65399048 -0.00000018
-0.11586752 0.50238830 0.12410788
0.38324269 0.24077694 -0.00000065
0.74505204 -0.39606669 -0.00000101
-0.12432344 0.19605710 0.32751653
-0.16365062 -0.64039932 0.00000000
-0.20195728 0.28050502 0.21683685
-0.05100212 0.61556148 0.00000000
0.07028385 -0.48567256 0.00000000
-0.59218002 -0.34784420 -0.00000025
0.21765796 -0.12030119 0.00000000
-0.36838426 0.39514323 -0.00000043
-0.04852401 -0.17220617 0.00000000
0.18397513 -0.57616826 0.00000000
0.34298581 -0.29055016 0.00000000
-0.77929093 -0.10405475 -0.00000086
0.59826220 -0.27333404 -0.00000066
0.74312327 -0.58003654 -0.00000055
-0.65682888 0.07864693 -0.00000076
0.54584912 -0.50248491 -0.00000003
-0.79622215 -0.68254842 -0.00000015
0.28212824 -0.38714993 0.00000000
0.69731157 -0.68105955 -0.00000030
0.04368219 -0.69094443 0.00000000
-0.18469545 0.21278565 0.00000000
-0.34236316 -0.25357297 0.00000000
0.08096940 -0.47774153 0.00000000
-0.28283588 0.30636426 -0.00000017
-0.38215778 -0.48518670 0.00000000
0.15712527 -0.02821863 0.00000000
0.15514365 0.26051169 0.00000575
0.21499399 0.32792364 -0.00000008
0.15041537 0.58996828 -0.00000027
0.47625881 0.24982867 0.00000004
-0.21385589 0.14237940 0.00000000
0.66438055 0.02364934 -0.00000146
0.24332482 0.19691306 0.00000537
0.34828092 -0.66184552 0.00000000
-0.59195918 -0.11279487 -0.00000046
-0.18656783 -0.70191945 0.00000000
-0.11405150 0.63944339 0.03175743
-0.39399134 -0.58794801 0.00000000
-0.08260232 -0.25851078 0.00000000
-0.08267816 -0.35561703 0.00000000
-0.57718172 -0.69255038 0.00000000
-0.12802107 0.56771109 -0.00000007
0.03377518 0.58139452 0.00000000
0.72403524 -0.58720818 -0.00000053
0.37407427 -0.35512867 0.00000000
0.00222251 0.20670481 0.00000887
0.22617206 0.42072442 -0.00000029
-0.50674670 -0.16733473 -0.00000023
0.20914087 0.07891531 0.00000766
-0.71054899 -0.42323986 -0.00000044
-0.43982536 -0.10926004 -0.00000013
0.77447018 -0.45970487 -0.00000085
-0.13687425 0.37303906 0.19809127
-0.14950591 0.39273518 0.17601581
-0.69446832 -0.31104296 -0.00000050
-0.03486923 0.12172851 0.00000000
0.02827250 -0.13138068 0.00000000
-0.36686963 -0.05841794 -0.00000002
0.36343418 0.17579852 -0.00000045
-0.22371211 -0.15357098 0.00000000
0.37611630 -0.18859946 0.00000000
0.01462573 0.09491235 0.00000000
-0.12831215 -0.01557524 0.00000000
-0.20425944 -0.46546517 0.00000000
0.63223506 -0.41846280 -0.00000054
0.08561437 0.07740250 0.00000955
-0.46698989 -0.77910829 0.00000000
-0.03997716 0.71465402 -0.00000001
0.38824388 -0.30249266 0.00000000
-0.32019001 -0.37077099 0.00000000
0.10726127 0.01819725 0.00001011
-0.19750250 -0.62919628 0.00000000
0.01080427 0.66322018 0.00000000
-0.16074270 0.23606137 0.00000000
-0.00109355 0.21365466 0.00000000
-0.43404691 -0.65650731 0.00000000
-0.11935275 0.47879449 0.13783933
-0.21932455 0.39051047 0.12985853
-0.00373852 -0.47975614 0.00000000
-0.38874584 0.02847078 -0.00000015
-0.23633296 0.17341212 0.26649302
-0.62197290 0.09141703 0.05914253
-0.36504439 0.13913798 0.20200547
0.40094476 -0.49075677 0.00000000
-0.05826364 0.43412836 0.00000000
0.73673437 -0.27140271 -0.00000125
-0.22661330 0.54091225 -0.00000025
0.73161267 -0.66951914 -0.00000033
0.41381526 -0.12835695 -0.00000012
0.60957347 0.03010590 -0.00000124
0.31579667 -0.77558933 0.00000000
-0.69366978 -0.56443878 -0.00000027
0.09529601 0.00818999 0.00001044
-0.70296412 -0.04656625 -0.00000075
-0.25144780 -0.52936880 0.00000000
-0.31741067 -0.31225839 0.00000000
-0.33102534 -0.50081836 0.00000000
0.54645034 -0.64464871 0.00000000
-0.25920625 0.42737439 0.07745094
0.22096013 -0.51106263 0.00000000
-0.13279342 0.31170107 0.00000000
0.07970184 -0.23866938 0.00000000
0.47518993 -0.04150755 -0.00000054
0.44361546 0.15106142 0.00000232
-0.17993875 0.44244319 0.12129053
0.17965151 -0.52217991 0.00000000
-0.26774436 -0.26697228 0.00000000
-0.44076511 0.33877478 -0.00000053
-0.24715044 -0.01807472 0.00000000
0.26197604 -0.13078885 0.00000000
-0.52397010 -0.32794251 -0.00000012
-0.59952107 0.10791187 0.06321046
0.37444638 -0.06719310 -0.00000007
-0.00550949 -0.06648604 0.00000000
-0.05643547 -0.78605080 0.00000000
-0.60318238 -0.77097021 0.00000000
-0.35908381 0.31183611 -0.00000033
-0.26629826 -0.70508583 0.00000000
-0.17194597 0.56121985 -0.00000016
0.65413258 0.07417526 -0.00000044
-0.16844737 -0.20631834 0.00000000
0.46258378 -0.77629841 0.00000000
0.42294977 0.04182869 0.00000454
0.61742525 -0.10895916 -0.00000103
0.13360735 0.45894691 0.00000000
0.18750641 -0.62714331 0.00000000
0.30278674 0.49137666 -0.00000075
-0.04463631 0.27529131 0.00000000
-0.18265207 0.14540347 0.32227575
-0.64315628 -0.42026358 -0.00000029
0.53423031 -0.54136527 0.00000000
-0.28057889 0.37787452 0.09665820
0.61087283 -0.06093939 -0.00000109
-0.32187260 -0.79764090 0.00000000
0.59756983 -0.76204186 0.00000000
0.27081696 -0.01742834 0.00000000
-0.36971602 -0.39866745 0.00000000
-0.33084646 -0.38005658 0.00000000
-0.41106905 0.00206376 -0.00000017
0.19693561 0.04717003 0.00000832
0.27184242 0.09111698 0.00000000
-0.36347442 0.20324560 -0.00000025
-0.20688578 -0.11657761 0.00000000
-0.15979113 -0.77343360 0.00000000
-0.30493042 0.23409527 0.17821207
0.38385310 0.26781469 -0.00000070
-0.01350840 -0.46428217 0.00000000
0.71928806 -0.10771050 -0.00000147
0.01870279 0.33732602 0.00000666
0.08568435 0.13440791 0.00000869
-0.43899095 0.00420092 -0.00000023
-0.22736431 0.25521135 0.21675953
0.32834028 -0.19927995 0.00000000
0.56375180 0.20729333 -0.00000093
0.23366022 0.16031740 0.00000607
-0.24388803 0.37819992 -0.00000015
-0.03050928 0.47826803 0.00000000
-0.04340286 -0.58206729 0.00000000
0.22297768 0.07378858 0.00000000
0.29045468 -0.52789457 0.00000000
0.67868376 0.06489852 -0.00000075
-0.55870631 0.14502537 0.06573807
-0.18356165 0.25925550 0.00000000
0.79903024 -0.40595915 -0.00000099
-0.49342610 -0.56878416 0.00000000
-0.59961519 -0.67332797 0.00000000
-0.78097833 -0.12944640 -0.00000084
0.73656936 0.03413588 -0.00000179
-0.15022123 -0.02647086 0.00000000
0.27361463 0.28414659 0.00000336
0.58758280 -0.72365419 0.00000000
-0.19227853 0.24395365 0.00000000
-0.18922972 0.34167188 0.00000000
0.42973654 0.15837077 -0.00000070
0.15647272 0.09998138 0.00000000
0.39668055 0.34277865 0.00000002
-0.23057270 0.24459005 0.22182156
0.43151353 0.09723525 -0.00000060
-0.10385146 -0.68201088 0.00000000
-0.54020087 -0.72494716 0.00000000
0.53282442 -0.69184213 0.00000000
-0.09953936 -0.08052818 0.00000000
0.47392215 -0.29049854 -0.00000009
0.27940807 0.04294288 0.00000714
-0.60021969 -0.76372702 0.00000000
0.33020222 0.24442404 -0.00000043
-0.27728939 -0.37875739 0.00000000
-0.20820635 0.18801266 0.27572940
0.11762233 0.23584807 0.00000669
0.13747443 -0.45350436 0.00000000
-0.22635461 -0.31515912 0.00000000
-0.10228081 0.54221799 0.10618741
-0.11083989 -0.37733353 0.00000000
0.57156381 -0.29545333 -0.00000050
0.06543075 0.66850583 -0.00000005
0.03646136 0.61934641 0.00000216
0.52184744 -0.16852776 -0.00000051
0.22247726 0.09617814 0.00000720
0.04840300 -0.63800510 0.00000000
0.58360860 -0.53000162 -0.00000014
-0.40963607 -0.46854940 0.00000000
0.34205214 -0.39208939 0.00000000
-0.55722537 -0.67407500 0.00000000
-0.22485518 -0.50153026 0.00000000
-0.79074343 -0.52934497 -0.00000034
0.03553886 0.62535187 0.00000208
0.08712548 0.27661025 0.00000000
0.16150647 0.14629846 0.00000737
-0.21924236 -0.64714957 0.00000000
-0.35628316 -0.25883316 0.00000000
0.39276949 -0.50083714 0.00000000
-0.51137047 0.11248085 0.12028634
0.62080515 -0.76352320 0.00000000
0.22007712 0.05167620 0.00000000
0.16102903 -0.35615351 0.00000000
-0.07385522 0.70952274 -0.00000008
0.42332122 -0.39016577 0.00000000
0.45318973 -0.09028563 -0.00000036
0.31929337 -0.11994385 0.00000000
-0.31582522 -0.78698244 0.00000000
-0.46833257 0.18244838 -0.00000045
-0.13067544 0.53284414 -0.00000004
0.19484221 0.22623991 0.00000000
-0.69072700 -0.31976308 -0.00000048
0.49287384 -0.54458503 0.00000000
0.40004231 -0.59431398 0.00000000
-0.06406756 0.71283834 0.01577084
-0.59366137 -0.66613182 0.00000000
0.13722622 0.17583942 0.00000000
0.52408546 -0.10303449 -0.00000064
-0.56549879 -0.69453663 0.00000000
-0.54886887 -0.36654285 -0.00000014
-0.39318576 -0.37654678 0.00000000
0.24605750 0.50109130 -0.00000052
-0.15422615 0.53627306 0.07477536
-0.11154906 -0.49363188 0.00000000
-0.66139786 -0.34175224 -0.00000040
-0.56740219 0.19336126 0.02679259
-0.08379000 -0.77417400 0.00000000
-0.30623248 -0.63809981 0.00000000
-0.01180534 -0.49017846 0.00000000
-0.55606363 -0.52362845 -0.00000002
0.72022113 -0.73956317 -0.00000015
0.08184968 -0.61281372 0.00000000
0.45315567 0.07727970 0.00000337
-0.14808583 0.35645224 0.00000000
-0.75519886 -0.52718471 -0.00000034
-0.08973055 0.18194177 0.00000000
-0.12732259 0.04050397 0.00000000
-0.05989667 -0.11489323 0.00000000
0.38218477 0.09557026 0.00000443
-0.41468008 -0.31766513 0.00000000
0.16708817 -0.39818816 0.00000000
0.54016635 -0.34321527 -0.00000028
-0.18923067 0.50528622 0.07203169
0.26121505 0.31656549 0.00000306
-0.23924966 0.35779531 0.13859248
-0.11101689 0.18242052 0.00000000
-0.68330128 -0.43197649 -0.00000037
-0.66424654 -0.18902276 -0.00000054
0.46756893 -0.16300317 -0.00000029
-0.72971983 -0.43726911 -0.00000045
-0.40924730 -0.79489091 0.00000000
-0.17702247 0.18253701 0.30076279
0.28558008 0.08292894 0.00000645
-0.29940795 0.18415901 -0.00000009
0.36773329 0.39113736 -0.00000023
0.02434586 0.68277711 0.00000139
0.66677328 -0.14856864 -0.00000117
0.71362133 -0.43507655 -0.00000086
-0.64336619 0.06523852 0.06241016
-0.61211100 0.08917154 0.06741036
0.32340601 -0.68619858 0.00000000
0.23225062 -0.52798948 0.00000000
-0.25439010 -0.07202283 0.00000000
0.73252562 -0.19517803 -0.00000137
0.03089562 -0.67715598 0.00000000
0.65724660 -0.14946601 -0.00000113
0.33310693 0.27885772 -0.00000050
-0.48277509 -0.60020731 0.00000000
0.23224225 -0.51430801 0.00000000
0.39379405 0.18540227 -0.00000059
-0.43174307 0.09099896 -0.00000029
0.47008829 0.20266316 -0.00000095
0.47787959 0.16108632 0.00000150
-0.01264604 -0.29047146 0.00000000
-0.11127892 0.53856865 0.10253496
-0.24933201 0.49449758 0.03835721
-0.00136749 0.24373510 0.00000000
-0.55413052 -0.36627929 -0.00000015
-0.71566189 -0.68749688 -0.00000014
-0.08856855 -0.51239240 0.00000000
0.03720891 0.45380196 0.00000000
0.71715750 -0.72274943 -0.00000019
0.10657445 0.67337799 -0.00000023
0.28304044 -0.54569600 0.00000000
0.00172676 0.52471566 0.00000000
-0.33054372 -0.49259034 0.00000000
-0.17744535 -0.33022929 0.00000000
-0.24376617 0.52928222 0.01840450
-0.10824194 0.25888625 0.29559414
0.23055397 0.26158192 0.00000457
0.54313158 0.16811610 -0.00000120
-0.17512698 0.59968393 -0.00000020
-0.29913440 0.12763860 0.25486549
-0.70668920 0.03532916 -0.00000083
-0.57918036 -0.21280727 -0.00000034
0.38254086 -0.74477811 0.00000000
0.40055262 0.32114719 0.00000031
0.53974227 0.03063762 -0.00000094
0.69497616 -0.75206929 -0.00000012
0.15666815 0.58056870 -0.00000028
0.27410349 0.48387325 0.00000002
0.25687456 -0.48906857 0.00000000
0.68361715 -0.22732755 -0.00000110
0.14872475 0.21508569 0.00000653
-0.55960017 -0.79463284 0.00000000
-0.42344822 -0.10499099 -0.00000010
0.09730192 -0.31947625 0.00000000
-0.60928490 -0.74064872 0.00000000
0.58394002 0.06664800 0.00000104
0.12821889 -0.04942095 0.00000000
-0.53394090 0.08944579 0.12060356
0.63946471 0.11540891 -0.00000084
0.42017767 0.31463050 -0.00000094
-0.72898272 -0.25747232 -0.00000062
0.33214517 -0.78594300 0.00000000
-0.12091109 0.46302446 0.14754401
-0.33683976 -0.46667027 0.00000000
0.64726715 -0.65417856 -0.00000019
0.18995337 -0.31928025 0.00000000
0.66336493 0.01221428 0.00000042
-0.12970377 0.26830215 0.27450889
0.47557730 0.03611710 -0.00000068
-0.26019587 0.35221688 0.12809818
-0.33161405 0.38946643 0.05389171
0.09944113 0.40025015 0.00000000
0.36339612 0.39146071 -0.00000083
0.09708483 0.57605817 -0.00000002
-0.45439707 0.23552074 0.07517150
-0.00898690 -0.52202039 0.00000000
-0.07086546 -0.72806019 0.00000000
0.60820508 -0.33398736 -0.00000059
0.75094193 -0.70000678 -0.00000025
-0.59860557 0.07797234 0.08428053
0.51808624 -0.77091469 0.00000000
-0.15847964 -0.22045014 0.00000000
-0.08325054 0.50245663 0.14633409
-0.21570982 0.57274918 0.00788109
0.48984858 -0.41469010 0.00000000
0.20858568 0.25839808 0.00000000
0.54113132 -0.43278554 -0.00000013
-0.58616602 -0.46220822 -0.00000014
0.22579400 -0.65719603 0.00000000
-0.22868897 0.34744912 -0.00000009
0.59511870 -0.71176663 0.00000000
-0.07570712 0.58914409 0.09228936
0.08061439 -0.33430538 0.00000000
0.11550936 0.10893794 0.00000862
-0.37118265 -0.08387904 -0.00000001
-0.65516572 -0.51590510 -0.00000023
-0.52923100 0.07906993 0.13090523
0.22181125 0.28383816 -0.00000003
0.03248612 0.75399330 0.00000014
-0.61925457 0.15074076 -0.00000075
0.22430920 0.17445873 0.00000600
0.46968883 0.02473785 0.00000393
-0.02708979 0.06307387 0.00000000
0.53149624 0.16839631 -0.00000115
-0.20414373 0.39010543 0.14050151
0.24040681 -0.63735854 0.00000000
0.17377069 -0.27795192 0.00000000
0.60427529 -0.33955016 -0.00000056
0.24256576 0.33401803 -0.00000021
-0.26028532 -0.75801568 0.00000000
0.02061891 0.68327685 0.00000000
-0.59831871 -0.31864913 -0.00000029
0.03635849 -0.17457065 0.00000000
-0.04906165 -0.58800361 0.00000000
0.40456073 0.36152557 -0.00000044
-0.11615463 0.13582754 0.37422335
0.04777125 -0.74568397 0.00000000
0.41517989 0.00712696 -0.00000037
0.02306149 -0.39263173 0.00000000
0.33405750 0.44004189 -0.00000079
-0.48488095 -0.34369089 -0.00000002
-0.60303539 0.16140899 0.02427888
-0.04057771 -0.26477797 0.00000000
0.15371866 0.62624354 -0.00000035
-0.11133909 -0.37728849 0.00000000
-0.03504940 -0.66040261 0.00000000
-0.72587570 -0.38272644 -0.00000050
-0.34542423 -0.05818089 0.00000000
-0.30176550 -0.51561384 0.00000000
-0.12054809 0.03565299 0.00000000
0.72081066 0.05519725 -0.00000176
0.36640378 -0.45447989 0.00000000
0.37995116 0.28576783 0.00000129
0.39067885 0.38595901 -0.00000094
-0.59709351 -0.35994720 -0.00000025
0.77310380 -0.16338434 -0.00000159
-0.03680092 0.76194871 0.00085442
-0.35357924 -0.32319766 0.00000000
-0.61804016 -0.09848971 -0.00000052
-0.32406923 0.32092318 0.10585022
-0.56148727 0.18600926 0.03585223
-0.49788081 -0.71711346 0.00000000
-0.25208863 -0.43243330 0.00000000
-0.04441624 0.26404303 0.00000000
0.42802726 -0.78933907 0.00000000
-0.45566255 -0.79881373 0.00000000
0.49608056 0.26198635 -0.00000117
0.41885728 -0.51029445 0.00000000
-0.23017479 -0.57026782 0.00000000
0.02798160 0.22982060 0.00000813
0.65862820 -0.29032742 -0.00000088
-0.13485335 0.51131877 0.10504488
-0.58102620 0.17841230 0.02769732
0.10621597 0.06174343 0.00000000
0.21699810 -0.23169034 0.00000000
-0.42884322 0.34672197 0.01668529
0.16740163 -0.14951572 0.00000000
0.49546883 -0.71290130 0.00000000
0.65582811 -0.52156895 -0.00000046
0.79592512 -0.03131118 -0.00000192
-0.59316932 -0.72965776 0.00000000
0.32126319 -0.71122699 0.00000000
-0.09725859 -0.38812824 0.00000000
-0.27799343 0.14584764 0.25686752
0.16013519 -0.29128098 0.00000000
0.04728671 -0.12058067 0.00000000
0.31400529 0.12893936 -0.00000015
-0.39820100 0.38009868 0.01481807
0.09014456 0.44924069 0.00000390
-0.48670904 -0.10344424 -0.00000024
0.44743058 0.00540931 -0.00000050
0.63130045 0.16483268 -0.00000157
-0.47787980 0.13995097 0.12439772
-0.49446565 -0.08347727 -0.00000027
0.29175869 -0.07346762 0.00000000
0.54932720 -0.51024205 -0.00000003
0.59895349 0.05194057 0.00000099
-0.25116620 0.36058716 0.12854849
-0.31270488 -0.01937909 0.00000000
0.23366511 0.44235984 -0.00000037
0.23862500 0.37828832 -0.00000027
0.16679490 0.25190795 0.00000570
-0.50789532 0.14657847 0.09937511
0.60139161 -0.57994210 -0.00000013
-0.17453212 0.33533276 0.19812448
-0.59183787 -0.31980800 -0.00000027
0.26085484 -0.52941378 0.00000000
-0.59487528 0.16119799 -0.00000070
0.50728088 0.20022786 -0.00000110
-0.48789288 0.09782221 -0.00000042
-0.57191664 -0.15404928 -0.00000038
-0.04118465 0.63297660 0.08593173
0.56328522 -0.16640111 -0.00000070
-0.26015444 0.25779434 -0.00000008
0.62925043 -0.51712262 -0.00000036
-0.53728022 0.18376093 -0.00000060
0.22558131 0.37675707 0.00000274
0.33241711 0.11634627 -0.00000021
0.33367736 0.19848117 0.00000364
-0.64678386 -0.11674030 -0.00000057
0.11326491 -0.75525267 0.00000000
0.34030653 -0.45060047 0.00000000
0.33028912 0.19504559 0.00000376
-0.20636335 0.49253854 0.06903725
-0.40858215 -0.41267349 0.00000000
-0.49265489 -0.31246476 -0.00000007
-0.35061861 -0.09562403 0.00000000
-0.15064952 -0.13132316 0.00000000
0.18618397 -0.22866260 0.00000000
0.27605344 -0.00283655 0.00000000
-0.21776095 -0.19264680 0.00000000
0.04290162 -0.20780847 0.00000000
-0.38589907 -0.51394251 0.00000000
-0.11341771 0.16930530 0.00000000
-0.04010213 0.20527507 0.00000000
0.12914516 0.26772128 0.00000000
-0.23543551 0.30957429 0.17412547
0.63401720 0.11511331 -0.00000074
-0.15185624 0.19935402 0.30646409
-0.16639131 -0.63182039 0.00000000
0.32195505 0.24501985 -0.00000039
0.01324894 0.20378341 0.00000000
0.31180435 0.35723386 0.00000141
-0.37651469 -0.01425466 -0.00000008
0.32331493 0.18377087 -0.00000029
0.14067537 -0.46030924 0.00000000
0.38383475 -0.19336576 0.00000000
-0.35147952 0.21208611 0.16145429
0.64250987 -0.45624629 -0.00000052
0.18173617 -0.43955138 0.00000000
0.46009989 -0.03948659 -0.00000048
0.06104751 0.32763613 0.00000616
0.07543623 0.56598455 0.00000000
-0.09061641 -0.35958011 0.00000000
-0.03979027 -0.38735548 0.00000000
0.33100740 -0.13955308 0.00000000
-0.69537559 0.04708813 0.03928860
-0.66607562 -0.37597474 -0.00000038
0.00791675 0.28079184 0.00000767
0.57059393 -0.13429340 -0.00000078
0.11621715 0.17342770 0.00000000
0.06513818 0.14374922 0.00000886
-0.24142264 0.24112929 0.21677579
-0.14086065 0.35475255 0.00000000
-0.09604668 0.58104435 -0.00000001
-0.37110342 -0.45850585 0.00000000
0.22965116 0.26763073 0.00000448
0.57271561 -0.27000321 -0.00000055
0.44539404 -0.60383982 0.00000000
0.30636262 -0.63997109 0.00000000
0.75946861 -0.04592154 -0.00000175
-0.31578126 0.33337451 -0.00000026
-0.08633213 0.57298219 0.09607034
0.75546441 0.02937357 -0.00000186
-0.16859186 -0.27312579 0.00000000
-0.36568646 -0.72403333 0.00000000
0.61322742 -0.26569683 -0.00000073
-0.76475353 -0.18290133 -0.00000076
0.61812739 -0.40361654 -0.00000051
-0.03474950 0.00718030 0.00000000
-0.28102264 -0.00528873 0.00000000
0.08572020 0.26426592 0.00000000
-0.09495496 0.28574852 0.28632399
0.75843334 -0.14303430 -0.00000157
0.34177164 -0.71407518 0.00000000
-0.03803951 -0.51206487 0.00000000
0.46903943 -0.69028655 0.00000000
-0.55494446 0.13818399 0.07297874
-0.79618375 -0.68839914 -0.00000014
0.00929454 -0.43015073 0.00000000
0.58093860 -0.50234345 -0.00000018
-0.45203866 -0.38887600 0.00000000
-0.18885572 0.24425887 0.25053463
0.08161648 0.66121750 0.00000075
0.15327613 -0.19023345 0.00000000
-0.24503397 -0.77679766 0.00000000
0.59963362 -0.46330971 -0.00000033
-0.42836817 0.18688087 0.12616085
-0.15055406 0.25153118 0.27172334
-0.56476332 0.07926719 -0.00000057
0.43993390 -0.71935611 0.00000000
-0.76965930 0.02837502 -0.00000096
0.00410521 -0.42099327 0.00000000
-0.12058018 -0.57580400 0.00000000
-0.28183325 -0.11593336 0.00000000
-0.01932385 -0.00690812 0.00000000
-0.22500042 -0.55020994 0.00000000
-0.06671343 -0.11668081 0.00000000
0.67029350 -0.01377385 -0.00000142
