ply
format ascii 1.0
element vertex 1370
property float x
property float y
property float z
end_header
-0.16565491 -0.08489433 0.00000034
-0.05007587 -0.47743969 0.00000098
-0.48778794 -0.37763977 0.20234324
-0.71150863 -0.77751441 -0.08929027
-0.61116627 -0.67549762 0.15300541
-0.02193564 -0.34633270 0.00000072
-0.02469698 0.00882268 0.00001138
-0.52435528 -0.50162097 -0.00000261
-0.26156234 0.01673121 0.00000629
-0.11568487 0.52071070 0.03200297
-0.05004796 0.66351562 0.00000195
-0.12824014 0.49039573 0.03774014
-0.10901257 0.42648803 0.00000164
-0.66569092 -0.68169767 -0.07986730
-0.35221068 -0.05032131 0.09051475
-0.35089510 0.08972606 -0.08715949
-0.46198023 0.01970893 -0.21336773
-0.30195252 -0.30486501 -0.00000089
-0.27085926 0.15607533 -0.00634844
-0.41963346 0.05325766 -0.16962185
-0.25845107 0.24087698 -0.04128588
-0.06731762 -0.74191542 0.00000062
-0.27264766 0.14175590 0.22372466
-0.32834323 -0.11761479 0.00000376
-0.19283444 0.33444874 0.08393006
-0.28338194 0.20480283 -0.05663969
-0.53997303 -0.04793944 -0.29020674
-0.15352401 -0.33672633 0.00000203
-0.27524486 0.13548830 0.22585862
-0.20550116 0.30387301 0.09192423
-0.09164352 0.21781962 -0.00000515
-0.16225182 0.08316691 0.00000288
-0.55109712 -0.06652066 -0.29547672
-0.36550200 -0.08241085 0.25068474
-0.20285189 -0.07335604 0.00000289
-0.13448015 -0.76491177 -0.00000075
-0.48390006 -0.36825244 0.17564809
-0.19794225 0.32211989 0.11339289
-0.06763267 0.03144875 -0.00000937
-0.12709858 -0.21524351 0.00000206
-0.32723145 0.28334686 -0.17409123
-0.34486487 -0.23260097 -0.00000102
-0.17397562 0.50277510 -0.07820025
-0.14709787 0.04683231 0.00000270
-0.33115607 -0.64648944 0.00000279
-0.02177671 0.36051857 -0.00000458
-0.14892785 0.42958199 0.00000141
-0.20195836 -0.59250087 -0.00000083
-0.32855638 0.18310576 -0.11228535
-0.13197223 -0.02112044 0.00000066
-0.09552644 0.64861391 -0.05046187
-0.27463107 -0.52460300 0.00000259
-0.02990862 0.16352434 0.00000163
-0.43130849 -0.24129338 0.39385344
-0.07760339 0.10604132 -0.00000767
-0.56496214 -0.56395376 0.21409240
-0.00124773 0.23357626 -0.00000758
-0.51529101 -0.71334784 0.00000405
-0.32446158 0.01666905 0.23985059
-0.53694650 -0.49631160 0.01653983
-0.38139901 -0.46258721 -0.00000167
-0.63092649 -0.35924544 -0.23178485
-0.33768662 0.02362308 -0.02474876
-0.19766749 -0.28863193 0.00000245
-0.45415047 -0.50507441 -0.00000219
-0.23441590 0.23539338 -0.00083162
-0.11612795 0.51963920 0.05473332
-0.60317491 -0.65620524 0.14216588
-0.45848881 -0.69481110 0.00000366
-0.17001626 0.38954290 0.05594483
-0.59010956 -0.62466350 0.21715841
-0.56586793 -0.79119198 -0.00000340
-0.12526361 0.00814270 -0.00000807
-0.06722124 0.01503225 0.00000204
-0.11438388 -0.61448676 -0.00000034
-0.11060019 0.57350851 -0.02580434
-0.55018465 -0.38497798 -0.09124667
-0.28934844 0.15887237 -0.03655961
-0.71479713 -0.81044828 -0.07337093
-0.17577237 0.37564361 0.00763470
-0.22175775 0.17234498 0.00000048
-0.40531840 -0.17853184 0.01208685
-0.33995572 -0.50144553 -0.00000149
-0.40646820 0.16180838 -0.21851741
-0.56992189 -0.56378044 -0.00771459
-0.01546538 0.11307052 0.00000183
-0.16376609 -0.30409077 -0.00000006
-0.05239208 0.15619513 0.00000914
-0.15228042 0.43235270 0.14237733
-0.34081564 -0.44120744 0.00000324
-0.38435796 0.19262174 -0.20414577
-0.37135210 -0.09653683 0.18198642
-0.27677697 0.10905156 0.00000379
-0.14667583 0.44588326 0.14625328
-0.14935578 -0.46911056 0.00000175
-0.07674466 0.43251869 0.00000551
-0.16039493 0.43924038 -0.01685000
-0.20186801 0.31263963 0.14774458
-0.64646405 -0.39332581 -0.23396938
-0.34790124 0.26579864 -0.19469759
-0.18112943 0.33139841 0.00000445
-0.21005754 -0.39971414 -0.00000052
-0.04059467 0.08790660 0.00000142
-0.50549454 -0.03825228 -0.24335988
-0.13908793 0.53583452 -0.04561248
-0.04554542 -0.73837675 -0.00000016
-0.26391705 0.20927572 -0.02956340
-0.30295262 -0.12130599 0.00000356
-0.19749362 -0.24342102 -0.00000015
-0.61517234 -0.23681156 -0.28553996
-0.29208070 -0.69767884 -0.00000157
-0.05565793 0.66562534 0.03800987
-0.31995880 0.02753330 0.29409658
-0.09000306 0.62308307 -0.02570838
-0.45853504 -0.34901789 -0.00000192
-0.57758656 -0.04928163 -0.34718663
-0.60350034 -0.09273253 -0.35935768
-0.48526084 -0.37154229 0.28488189
-0.09180865 -0.23108292 0.00000051
-0.12615586 0.49542575 0.10801424
-0.45703958 0.12819197 -0.27486666
-0.03959178 0.22043571 -0.00000667
-0.22694577 0.05297043 -0.00000416
-0.06057196 0.26811516 0.00000770
-0.58328739 -0.55203854 -0.03574391
-0.10879987 -0.41692427 0.00000006
-0.03537306 0.67999713 0.00000360
-0.27763403 0.08067704 -0.00000002
-0.21859364 -0.64332764 -0.00000103
-0.08241900 -0.69898889 0.00000081
-0.03486328 -0.23185463 0.00000085
-0.17049383 -0.53281458 -0.00000053
-0.07826792 0.21629780 0.00000791
-0.33978212 -0.02031783 0.24375602
-0.40322590 -0.17348210 0.05926108
-0.05473619 0.11399672 0.00000956
-0.02921629 -0.24385754 0.00000087
-0.43389691 -0.22271466 -0.01578843
-0.17289301 0.38259729 0.06363106
-0.42361076 -0.70282037 -0.00000237
-0.05844425 -0.09035438 0.00000177
-0.01351909 0.40283034 -0.00000404
-0.58783675 -0.18782155 -0.27471061
-0.37689050 -0.10990215 0.04942081
-0.40694767 -0.12701159 -0.03530491
-0.53683623 0.01214854 -0.32365372
-0.15894187 -0.74320895 0.00000131
-0.25312886 0.05473079 0.00000604
-0.41931103 -0.43707732 -0.00000185
-0.20209567 0.31208780 0.17549597
-0.15426485 0.25852718 0.00000105
-0.31366466 -0.42697066 -0.00000119
-0.32904816 0.00559275 0.21833432
-0.21332180 0.28498789 0.07859099
-0.35796463 -0.06421254 0.22909230
-0.33122490 0.00034566 0.18373397
-0.46949022 -0.33346992 0.32539104
-0.29579927 0.04049989 -0.00000231
-0.32256113 0.02126303 0.16565796
-0.18204757 0.36048592 0.19528671
-0.08880726 -0.29905288 0.00000040
-0.10157447 0.25624568 0.00000137
-0.13089028 0.59980026 -0.07374782
-0.19433983 -0.12710237 0.00000273
-0.17828080 0.15142630 0.00000313
-0.03408594 0.71770576 0.01865545
-0.38317744 0.08048840 -0.13090971
-0.29720904 -0.15657836 -0.00000059
-0.25835353 0.41328499 -0.15094315
-0.22973773 0.24535485 0.17549190
-0.28011615 0.12372297 0.27886004
-0.03990730 0.70365218 0.00697190
-0.66393210 -0.80288236 0.00841664
-0.15180370 -0.49119737 0.00000172
-0.47193061 -0.33934929 0.02919813
-0.19334586 0.07435796 0.00000708
-0.60890017 -0.57833959 -0.05837497
-0.26764771 0.15383586 0.01221303
-0.07098049 0.12009604 0.00000915
-0.12374693 -0.24657680 0.00000029
-0.57791154 -0.79641452 -0.00000348
-0.62664148 -0.71285693 0.05543455
-0.55093951 -0.53009433 0.02806981
-0.10571928 0.18589431 0.00000768
-0.25282637 0.00071700 0.00000665
-0.05446711 -0.62670686 -0.00000000
-0.22410233 0.25896438 0.11734123
-0.04923952 0.68112189 0.01256033
-0.18577765 0.38200555 -0.01942497
-0.31154344 0.04785375 0.20184947
-0.15780382 0.55161716 -0.08444215
-0.41818736 -0.20960495 0.11943125
-0.18802364 0.22066219 0.00000333
-0.15729411 0.42025033 0.13296324
-0.06591718 -0.65420470 0.00000077
-0.06056029 0.50396364 0.00000505
-0.35230718 0.03803755 -0.05641004
-0.04616224 0.37259440 0.00000683
-0.31925010 -0.35911293 -0.00000110
-0.27843646 0.12779116 0.12642760
-0.51833976 -0.77784666 -0.00000309
-0.06871600 0.19331337 0.00000145
-0.67199261 -0.75596828 -0.04225349
-0.19375012 0.31902642 0.00000356
-0.14709993 -0.70384689 0.00000129
-0.06615355 -0.78843774 0.00000052
-0.15490680 0.48593370 -0.03815357
-0.37033459 0.18041282 -0.17480671
-0.27060796 -0.74571977 0.00000214
-0.04240057 0.63265942 0.00000399
-0.10261799 -0.78030162 -0.00000058
-0.62450059 -0.73732329 0.00000483
-0.48772131 -0.37748105 0.25270457
-0.11741479 0.27732913 0.00000640
-0.30245282 -0.45018794 -0.00000117
-0.67241459 -0.69137806 -0.08404009
-0.57514183 -0.58852907 0.16826662
-0.30820987 0.05590741 0.06805533
-0.10433818 0.04613471 0.00000237
-0.07771689 0.18254658 0.00000830
-0.60444365 -0.56166501 -0.06214273
-0.09639755 0.49171015 0.00000443
-0.31868216 -0.00392026 -0.00000043
-0.62621029 -0.64370085 -0.04336219
-0.56126020 -0.47793531 -0.04907152
-0.57366532 -0.74337883 -0.00000336
-0.55581210 -0.58378385 -0.00000295
-0.11850212 -0.09209743 0.00000222
-0.67783147 -0.62922878 -0.13195218
-0.16072776 0.04889461 0.00000280
-0.12586520 0.42153411 0.00000153
-0.11037522 0.24241338 -0.00000412
-0.56809838 -0.52591570 -0.02902699
-0.26413142 0.16233047 0.07235473
-0.28559449 -0.77366105 0.00000220
-0.24221120 -0.27394450 0.00000281
-0.09824571 -0.23112632 0.00000047
-0.29200036 -0.44357557 -0.00000109
-0.30920707 -0.29087755 -0.00000091
-0.04347335 0.68064833 0.00000251
-0.54147483 -0.39528338 -0.07129086
-0.23469041 -0.37610504 -0.00000062
-0.71213675 -0.67070430 -0.15828385
-0.65189832 -0.67675536 -0.06180764
-0.41740595 -0.51135143 -0.00000198
-0.48642191 -0.37433683 0.08338203
-0.38953853 -0.14044424 0.21260003
-0.12729832 0.49266924 0.04341005
-0.50732183 -0.42479563 0.12468014
-0.00533915 -0.50056512 0.00000053
-0.34453802 -0.03180504 0.26169397
-0.03050254 0.35840945 -0.00000436
-0.01382121 0.49580678 0.00000235
-0.33800683 -0.01601787 0.06775874
-0.60505892 -0.66075356 0.19234497
-0.14571449 -0.11264672 0.00000041
-0.29924896 -0.02930642 -0.00000036
-0.00331583 -0.55808210 0.00000048
-0.63238380 -0.77625288 -0.00000377
-0.21205656 0.28803785 0.20725778
-0.06895289 -0.69628066 -0.00000022
-0.71467172 -0.69413697 -0.14725725
-0.03225524 0.70416634 0.00000340
-0.42214833 -0.21917937 0.40786781
-0.31117122 -0.09606927 -0.00000056
-0.32063275 0.02590789 0.29817126
-0.20197440 0.31237919 0.19283686
-0.27888317 0.06006246 0.00000372
-0.08975191 -0.18125500 0.00000062
-0.32930097 -0.04303202 -0.00000057
-0.41798405 -0.39336289 0.00000392
-0.37176068 -0.09752691 0.26824086
-0.38905601 0.20133612 -0.21692087
-0.06919471 -0.07654702 0.00000094
-0.04209673 0.69836627 0.01035158
-0.19255502 0.33512632 0.10507425
-0.45214987 -0.62705897 -0.00000240
-0.13693193 0.06928310 0.00000080
-0.47103182 -0.32519328 -0.00761809
-0.18795889 0.15064992 0.00000633
-0.10077889 0.14387956 -0.00000626
-0.37554720 0.10200008 -0.13288205
-0.41435066 0.04065623 -0.15347623
-0.05987283 0.14521740 0.00000910
-0.55255640 -0.62862061 0.00000449
-0.36792962 -0.08827199 0.12968111
-0.59373834 -0.63341909 0.00070054
-0.20586752 -0.41916096 -0.00000053
-0.56713141 -0.56919070 0.17243409
-0.40855297 -0.45384071 -0.00000182
-0.01803921 0.14182119 -0.00000880
-0.11012051 0.52886471 0.00000332
-0.22247047 -0.07842607 0.00000001
-0.41614466 -0.59235986 0.00000353
-0.02178722 0.51980643 0.00000264
-0.10021059 -0.00728929 0.00000224
-0.20907446 0.01352468 -0.00000544
-0.37275621 -0.46538861 -0.00000162
-0.01218054 0.55952193 0.00000248
-0.34708098 -0.71431131 0.00000278
-0.04974214 0.27495744 0.00000172
-0.01569032 -0.06289365 0.00000150
-0.39596265 -0.51076310 -0.00000185
-0.33916175 -0.01882727 0.33288782
-0.44698057 -0.15053097 -0.08188005
-0.17367069 -0.26822032 0.00000231
-0.11037708 -0.36062946 0.00000016
-0.54638667 -0.29042339 -0.14562916
-0.30902602 -0.58702767 0.00000273
-0.10267482 0.37488430 0.00000158
-0.25354490 0.18788771 0.07894364
-0.20580325 0.30313761 0.16826449
-0.39308222 -0.24703386 0.00000400
-0.06836193 -0.75820109 -0.00000033
-0.25865277 0.03383404 0.00000000
-0.24456675 0.42449826 -0.13688612
-0.04116612 0.31277014 0.00000761
-0.43311253 -0.01398174 -0.14752113
-0.44474538 0.08645831 -0.22938286
-0.04297890 0.04991342 0.00000133
-0.14342786 -0.19058898 0.00000222
-0.28651437 -0.74436730 0.00000227
-0.25822446 0.05569174 0.00000355
-0.01152491 0.74979819 0.00000284
-0.70240244 -0.75353192 -0.09056318
-0.04762612 -0.65915183 -0.00000002
-0.41877097 0.08461334 -0.18826696
-0.69345425 -0.65875404 -0.13716892
-0.40228496 -0.17122497 0.40160981
-0.51137268 -0.43457466 0.10998235
-0.12521041 0.49770944 0.05464275
-0.30028449 -0.36501375 0.00000308
-0.19271569 0.41522977 -0.05125460
-0.25060702 -0.40140711 -0.00000077
-0.03321312 -0.46232764 0.00000043
-0.04723389 -0.23072095 0.00000142
-0.07907714 -0.04070259 0.00000202
-0.02711609 -0.21080208 0.00000094
-0.29671084 -0.62515917 -0.00000146
-0.52598972 -0.67685562 0.00000420
-0.34993700 -0.04482883 0.01255347
-0.28374216 0.27435859 -0.10149557
-0.18945049 0.32291441 0.00000096
-0.34168773 -0.02491334 0.01437345
-0.56644486 -0.36230860 -0.13068669
-0.14114556 -0.66073607 0.00000133
-0.19265577 -0.54591115 -0.00000069
-0.11789170 -0.25515346 0.00000031
-0.01672245 0.12551786 0.00000186
-0.13956755 0.26424126 0.00000115
-0.59888377 -0.64584233 0.02507063
-0.35515286 -0.05742496 0.23571692
-0.39269882 -0.14806849 0.08575012
-0.29349944 0.09142429 0.00593505
-0.44848829 -0.24682989 -0.02286508
-0.33185047 -0.00117100 0.17969730
-0.21379517 -0.00405486 0.00000311
-0.46404015 -0.63097738 -0.00000248
-0.33762053 -0.50703131 0.00000310
-0.42188465 -0.74437740 -0.00000244
-0.18456437 0.48581256 -0.08367696
-0.54439484 -0.32757822 -0.11890243
-0.14347235 -0.04436194 0.00000250
-0.37424682 -0.33364495 -0.00000138
-0.06769245 0.63656996 0.06994547
-0.04105380 0.29417976 0.00000236
-0.50818086 0.01090712 -0.27880261
-0.03743251 0.28977198 0.00000233
-0.17877855 0.53182561 -0.10408767
-0.03856904 -0.01876776 0.00000123
-0.05365794 0.67045607 0.01873216
-0.05358923 0.36745465 0.00000187
-0.18007512 0.04398891 0.00000050
-0.29219208 0.28265456 -0.11977243
-0.39910880 0.09370116 -0.16382485
-0.06433508 0.05326723 0.00000121
-0.24383841 0.21132300 0.05360872
-0.62728397 -0.67717260 -0.02369475
-0.30438822 -0.41686360 0.00000301
-0.06280114 -0.71263157 -0.00000022
-0.32661199 0.01146867 0.34926424
-0.45227367 -0.04991472 -0.15410174
-0.45090288 -0.59304864 -0.00000233
-0.39109687 -0.06502760 -0.05041055
-0.20237592 0.31141334 0.14896181
-0.03519097 0.45831316 0.00000610
-0.35906065 -0.06686613 0.26659719
-0.33949779 -0.55625913 -0.00000159
-0.09707431 0.10963893 0.00000244
-0.07539725 0.60963056 0.00000321
-0.51795271 -0.14883177 -0.19208938
-0.01372095 -0.05065126 0.00000151
-0.45151757 -0.74020798 0.00000352
-0.08655613 0.48986923 0.00000190
-0.43635396 -0.33711952 -0.00000177
-0.66814582 -0.61804334 -0.12418364
-0.19161696 0.13284800 0.00000319
-0.50863176 -0.69555101 0.00000403
-0.40912238 -0.18771734 0.05540254
-0.31682185 -0.14693612 0.00000361
-0.34924067 -0.04314932 0.20425162
-0.19450716 0.20118454 -0.00000236
-0.30970993 -0.16215662 0.00000353
-0.46346078 -0.31891201 0.28308711
-0.11193631 0.51925590 0.00000332
-0.05411159 0.17413283 -0.00000710
-0.02286117 0.50583270 0.00000583
-0.43829086 0.02574373 -0.18078579
-0.11239001 0.25005310 -0.00000392
-0.17824768 0.32101373 -0.00000060
-0.22781506 0.25000220 0.10437452
-0.24855181 0.22114427 -0.01349188
-0.14531022 -0.48392796 -0.00000028
-0.25679019 0.25651794 -0.04869390
-0.57810472 -0.42952340 -0.10580551
-0.13155119 0.48240302 0.01618377
-0.27251211 0.14209185 0.01873505
-0.36782292 -0.08801824 0.30403624
-0.02972099 0.40249882 0.00000248
-0.08827020 -0.28274245 0.00000044
-0.31630248 -0.04800289 -0.00000050
-0.42017833 -0.14494293 -0.04422787
-0.16298123 0.40652139 0.07554322
-0.60458474 -0.34993397 -0.19721220
-0.39609567 -0.15628049 0.35067839
-0.44726261 -0.27979758 0.08399928
-0.62307435 -0.20107043 -0.32045375
-0.20311462 0.29888723 0.00000435
-0.54056906 -0.21666640 -0.18366018
-0.19111923 -0.04681829 0.00000285
-0.45413521 -0.44267518 0.00000410
-0.03163157 0.63512364 0.00000086
-0.33794485 -0.01588587 0.28823293
-0.40030109 -0.04620524 -0.07655105
-0.08430336 -0.10079185 0.00000080
-0.16727660 0.45266767 -0.03598612
-0.17207374 0.47331194 -0.05650891
-0.34839603 -0.14830237 0.00000385
-0.60776296 -0.72996122 0.00000472
-0.30723181 0.12063712 -0.03970466
-0.46484203 -0.05143971 -0.17245563
-0.20831299 -0.63318438 -0.00000094
-0.02023918 -0.75902816 -0.00000005
-0.28724464 -0.41180461 0.00000289
-0.32540148 -0.57743971 0.00000287
-0.21767344 -0.11296224 -0.00000003
-0.00416244 0.16379864 -0.00000880
-0.42660071 -0.53593324 -0.00000208
-0.20014275 -0.33145115 0.00000239
-0.48572219 -0.37264602 0.04776543
-0.41236233 -0.01864880 -0.11264226
-0.29844041 0.07949681 0.14102045
-0.02648399 0.24114998 0.00000179
-0.20294720 0.22938226 0.00000071
-0.05004187 -0.69361551 0.00000058
-0.34805748 -0.13847764 -0.00000086
-0.35843669 0.07449072 -0.08904731
-0.27626816 0.22262405 -0.05705209
-0.68355887 -0.64704951 -0.12940850
-0.07211761 0.60612236 0.00000318
-0.10065923 -0.52760010 -0.00000010
-0.24261187 -0.67012354 -0.00000122
-0.17802046 0.37730358 -0.00450619
-0.29275738 0.09320900 0.16616474
-0.06322933 -0.72442169 -0.00000024
-0.18082154 0.37035835 -0.00438969
-0.44587915 -0.27646816 0.33326102
-0.17340149 0.18488174 -0.00000330
-0.42035202 0.08387519 -0.19023032
-0.07551729 -0.24449901 0.00000059
-0.58522358 -0.10953004 -0.32055683
-0.27007320 0.14797738 0.17915957
-0.57142285 -0.45409147 -0.07988390
-0.44885931 -0.28365784 0.21301830
-0.29748952 0.08179216 0.14447610
-0.30806476 -0.51357562 0.00000286
-0.11597151 0.52001599 0.06583792
-0.03573957 0.58520504 0.00000466
-0.53952992 -0.44996442 -0.03347374
-0.71865999 -0.75029378 -0.11762309
-0.02319516 0.54693214 0.00000239
-0.16859930 -0.39045826 -0.00000025
-0.48194049 -0.36351778 0.08571333
-0.17928150 0.46731811 -0.06377419
-0.50089448 -0.79953483 -0.00000302
-0.18478384 0.16088314 0.00000069
-0.17289944 -0.77155788 0.00000136
-0.29493601 0.12202056 -0.02168506
-0.16186132 0.00288610 0.00000053
-0.10511726 -0.09418669 0.00000212
-0.20675113 0.06113028 0.00000694
-0.46584469 -0.32466652 0.26508342
-0.45397628 -0.00295904 -0.18662598
-0.22101330 -0.79626713 -0.00000133
-0.16022332 0.27237469 0.00000555
-0.58607220 -0.37275778 -0.15421064
-0.04937148 0.30094726 0.00000757
-0.27196929 -0.40484955 0.00000279
-0.58594499 -0.70724453 -0.00000336
-0.03817648 0.70288279 0.00000311
-0.25376054 0.06773874 -0.00000307
-0.09564185 0.13150073 0.00000247
-0.10757470 -0.47511608 0.00000142
-0.28197568 -0.60548779 0.00000249
-0.13354968 0.47757523 0.08695974
-0.05284889 0.41240819 0.00000624
-0.34833455 0.24480479 -0.18199164
-0.20402531 0.49016299 -0.11637177
-0.50278633 -0.41384445 0.08973716
-0.08720255 0.58946755 0.08640384
-0.24467874 0.08702587 0.00000019
-0.44934506 -0.28482236 0.01998663
-0.23641583 0.45625389 -0.14457900
-0.11377395 -0.39994937 0.00000006
-0.20083412 0.31513623 0.07162390
-0.30319744 0.06799786 0.32373741
-0.44502332 -0.27886164 0.00000433
-0.18623887 0.02141028 0.00000295
-0.24933095 0.28699798 -0.05663743
-0.30188251 0.32974174 -0.16466393
-0.24577551 0.41002331 -0.12952601
-0.43569609 -0.25187323 0.07943741
-0.27031577 0.14739912 0.08725261
-0.02378347 0.73715120 0.00000320
-0.20113493 -0.59746744 -0.00000083
-0.40471043 -0.00588813 -0.10900403
-0.65078799 -0.77115053 0.14898886
-0.08145930 -0.01036844 0.00000210
-0.27347935 0.28888312 -0.09496617
-0.67822710 -0.65903331 -0.11357787
-0.22880833 -0.32679865 0.00000261
-0.48390059 -0.35630996 -0.00758681
-0.18143067 -0.12415621 0.00000017
-0.16282213 0.42252551 -0.00993599
-0.09261649 -0.62607967 -0.00000023
-0.35093168 -0.47107837 -0.00000150
-0.30553461 -0.40686790 0.00000304
-0.40033827 -0.16651655 0.19725286
-0.33377609 -0.31401231 0.00000343
-0.06405990 0.18795548 0.00000234
-0.45164997 -0.43071884 -0.00000203
-0.13222187 0.48078038 0.09789933
-0.53346374 -0.48790855 0.13690381
-0.15007720 0.46633685 -0.01824622
-0.23848416 -0.30177066 -0.00000051
-0.51697067 -0.44809187 0.16664117
-0.55554761 -0.54122177 0.08605917
-0.00892379 -0.42561744 0.00000065
-0.26884159 -0.52932837 0.00000254
-0.59167069 -0.67877241 0.00000469
-0.36372697 0.25939179 -0.21495076
-0.21387214 -0.29748007 0.00000256
-0.01142199 0.50978103 0.00000239
-0.31010373 -0.25191785 0.00000337
-0.39387613 -0.10002782 -0.03239214
-0.63113871 -0.72371412 0.08629873
-0.55585776 -0.54197149 0.10840731
-0.51007586 -0.17459777 -0.16356740
-0.64481114 -0.52609635 -0.14686577
-0.16635402 0.39838677 0.02418133
-0.11783340 0.54224086 -0.01701164
-0.01517114 0.11593501 0.00000183
-0.03684809 -0.67375903 0.00000051
-0.05401719 -0.21243558 0.00000078
-0.12230239 0.50473017 0.05218090
-0.33512707 -0.78589397 -0.00000200
-0.18030033 0.26138551 0.00000525
-0.14140902 0.45860002 0.11086387
-0.08570916 0.35987934 0.00000614
-0.28293565 0.11691677 0.26243997
-0.03847573 0.70710846 0.02142771
-0.08734927 0.06432107 -0.00000816
-0.64014986 -0.47420649 -0.17274748
-0.41534126 -0.08462718 -0.07520576
-0.60000928 -0.55222369 -0.06133765
-0.21314551 0.24685643 0.00000357
-0.26285632 -0.69047593 -0.00000138
-0.24226591 -0.09410852 -0.00000014
-0.11552190 0.53469504 -0.00864926
-0.49017092 -0.38338695 0.06422487
-0.63951069 -0.70118213 -0.02720284
-0.44740813 0.08859667 -0.23483904
-0.52512001 -0.25838444 -0.13333522
-0.22829242 0.24884576 0.15446448
-0.01870116 -0.05168351 0.00000129
-0.10155606 0.58894614 -0.02172890
-0.53275371 -0.62422241 0.00000435
-0.49460587 -0.37028620 -0.01514575
-0.57795401 -0.48771429 -0.06851171
-0.16159383 0.49399644 -0.05356914
-0.21716073 0.18555039 0.00000054
-0.25831795 0.11667546 -0.00000202
-0.00567708 -0.37828950 0.00000076
-0.14363511 -0.04319835 0.00000055
-0.35864298 0.13800682 -0.12981968
-0.03478088 0.00132763 0.00000176
-0.06508130 -0.58662006 0.00000089
-0.35535952 -0.11864598 -0.00000087
-0.26407982 -0.66818849 0.00000224
-0.20542271 -0.03187913 0.00000299
-0.11544168 0.52129108 0.10813867
-0.39383743 -0.39078012 -0.00000161
-0.24242625 -0.00261085 0.00000332
-0.61650077 -0.46397041 -0.14290397
-0.32367854 0.01855136 0.33303823
-0.00875034 -0.46569139 0.00000069
-0.40658204 -0.18159372 0.27503724
-0.18065312 0.24978488 0.00000333
-0.03441167 0.14595676 -0.00000822
-0.13024509 -0.75396690 -0.00000070
-0.40724532 0.01347401 -0.12523854
-0.03362106 -0.51690515 0.00000033
-0.27723484 -0.10630880 -0.00000037
-0.17871211 -0.12512191 0.00000261
-0.42570425 0.03111476 -0.16485656
-0.26540134 -0.46520123 0.00000263
-0.33028392 0.00260855 0.23738107
-0.25628258 -0.53776460 -0.00000106
-0.10325725 -0.39154119 0.00000154
-0.23521144 -0.64829477 -0.00000114
-0.50877721 -0.21889223 -0.13335923
-0.47466565 -0.78984202 0.00000360
-0.36390105 -0.61600749 0.00000309
-0.41342701 0.03632682 -0.14929860
-0.41072898 0.00539468 -0.12544927
-0.58253817 -0.09560243 -0.32529830
-0.15374176 0.33939418 0.00000493
-0.65950664 -0.79219866 0.07639547
-0.03091807 0.30768128 -0.00000530
-0.21617103 0.36382397 -0.05457863
-0.33528611 -0.00947268 0.35682443
-0.34210958 -0.02594186 0.30769275
-0.45705212 -0.30343958 0.27117367
-0.33228889 0.29560466 -0.18967508
-0.35883289 -0.42994499 -0.00000147
-0.17300697 0.27186323 0.00000097
-0.26610651 0.07120997 0.00000364
-0.02544167 -0.75286602 -0.00000007
-0.64418666 -0.63066345 -0.07930632
-0.64916986 -0.78288294 -0.00000389
-0.34566557 -0.05380707 -0.00000069
-0.13663374 0.37643554 0.00000324
-0.67920323 -0.60785188 -0.14767643
-0.08647689 0.31081187 -0.00000356
-0.40406842 -0.17553050 0.39846612
-0.05880095 -0.18514022 0.00000080
-0.62942196 -0.41714733 -0.19259350
-0.10932524 -0.49730214 -0.00000009
-0.47000951 -0.48567591 -0.00000225
-0.25447064 -0.58563644 0.00000232
-0.51574954 0.04884040 -0.31460015
-0.34081827 -0.02281964 0.14089432
-0.31185829 -0.03879678 0.00000378
-0.36513293 -0.59069876 -0.00000181
-0.13946058 -0.27106147 0.00000015
-0.24652762 0.18031852 0.00000476
-0.09430563 0.57232170 0.02547037
-0.14109921 -0.12573171 0.00000233
-0.38297846 0.04561936 -0.10839468
-0.06049916 0.32701429 -0.00000404
-0.51607178 -0.46239804 0.00000453
-0.55886537 -0.72851191 -0.00000324
-0.20277116 -0.65720438 -0.00000096
-0.10955809 0.20836587 0.00000734
-0.40397643 0.19526573 -0.23599631
-0.01570453 -0.44327634 0.00000079
-0.20039563 0.27623798 0.00000081
-0.01361344 0.30009504 0.00000834
-0.25430031 0.28899604 -0.06555092
-0.17967709 0.04398579 0.00000771
-0.72587142 -0.78013073 -0.10970806
-0.15678490 -0.74225902 0.00000129
-0.57833563 -0.39041425 -0.13106936
-0.03429600 -0.48060297 0.00000039
-0.21931647 0.27051852 0.00551816
-0.23959780 -0.14109874 0.00000304
-0.28084554 0.12197583 0.11868632
-0.43357529 -0.37440426 -0.00000182
-0.30315301 -0.38119447 -0.00000104
-0.05861851 0.53891620 0.00000216
-0.24031776 0.21980915 0.18429306
-0.13258338 0.19204352 0.00000704
-0.10270518 0.55204599 0.03253026
-0.27586146 0.13401298 0.06038507
-0.13574982 0.47227031 0.03114445
-0.37706969 -0.11034812 0.36468780
-0.16816026 -0.01870570 0.00000273
-0.12443258 0.49958851 0.07720593
-0.26122400 -0.16671003 -0.00000039
-0.15250971 0.27006534 -0.00000233
-0.11512227 0.58434763 -0.03966101
-0.36666586 -0.08522683 0.26742902
-0.29981844 -0.15033691 -0.00000059
-0.22618941 -0.75870649 0.00000178
-0.48612467 -0.33831356 -0.02246856
-0.02600876 -0.44842605 0.00000050
-0.12337866 -0.19876147 0.00000038
-0.07212381 0.41828829 0.00000185
-0.50983627 -0.61068491 -0.00000272
-0.36148808 -0.19081453 0.00000387
-0.32732756 -0.50143949 -0.00000142
-0.41897222 0.17889189 -0.24862533
-0.38435005 -0.10843456 -0.01239050
-0.59121244 -0.62732563 0.10955856
-0.46668549 -0.51739360 -0.00000229
-0.19143732 -0.03886761 0.00000287
-0.19281555 0.33450336 0.02991239
-0.32204573 0.02250564 0.18655133
-0.32448872 0.01660565 0.21342280
-0.36748051 -0.69916080 -0.00000203
-0.06067768 0.65350672 0.03365707
-0.51448342 0.03530622 -0.30403298
-0.28160889 0.13795478 -0.01133600
-0.13367976 -0.53588881 0.00000150
-0.43051517 -0.23936815 0.14582864
-0.19684167 0.29136717 0.00000086
-0.49072950 0.05645336 -0.28097795
-0.13599134 0.21285444 0.00000673
-0.13230729 0.11532278 0.00000092
-0.35278453 -0.05170355 0.18808491
-0.30216895 0.07049023 0.09913767
-0.24260766 0.42159033 -0.13202161
-0.04689122 -0.33997477 0.00000122
-0.07352239 0.46986385 0.00000194
-0.20950949 -0.55487221 -0.00000080
-0.13037050 -0.20932360 0.00000032
-0.41277360 0.10452047 -0.19172677
-0.34013686 -0.02117907 0.30416503
-0.15779351 -0.29023624 0.00000215
-0.58807908 -0.62838885 0.00000476
-0.19449844 -0.75043723 0.00000156
-0.34269570 -0.02735201 0.13725066
-0.11377726 0.13353194 0.00000261
-0.52054761 -0.69214346 0.00000413
-0.03052238 -0.60152628 0.00000060
-0.36246414 -0.07507624 0.10943447
-0.12637640 0.49489996 0.02498200
-0.61106867 -0.67526200 0.17398603
-0.00931707 -0.34571470 0.00000080
-0.24419973 -0.40918386 0.00000258
-0.20845057 0.29675661 0.04190266
-0.43896925 -0.69581395 -0.00000245
-0.33706948 0.16579273 -0.11434506
-0.02851914 0.42017546 -0.00000326
-0.05274269 -0.34355478 0.00000054
-0.12894533 0.48869454 0.00720777
-0.09001543 -0.69199076 0.00000088
-0.13614778 0.28287277 0.00000121
-0.37424679 -0.10351805 0.01154385
-0.32747999 -0.24502865 -0.00000094
-0.41320060 0.05972132 -0.16385054
-0.07571602 -0.34610977 0.00000142
-0.63561683 -0.32190655 -0.26277797
-0.35737429 -0.06278591 0.21120305
-0.40676297 -0.18202727 0.19867966
-0.51153511 -0.32438447 -0.07041127
-0.17470347 -0.03135289 0.00000039
-0.29348203 0.33128536 -0.15273119
-0.15237523 0.41315198 0.00000342
-0.05880445 -0.77123243 -0.00000030
-0.61707715 -0.52380698 -0.10568003
-0.18048203 0.31593887 0.00000463
-0.12306917 -0.00476655 0.00000075
-0.46900420 -0.33228365 0.01385774
-0.17754039 -0.36712545 0.00000215
-0.42707622 -0.04996058 -0.11532882
-0.34936251 -0.04345659 0.36805790
-0.33365819 0.31044905 -0.20123537
-0.05810205 0.54522450 -0.00000002
-0.26782756 0.11742965 0.00000010
-0.00706942 -0.01294075 0.00000153
-0.55612848 -0.57490473 -0.00000293
-0.41419347 -0.63336888 0.00000344
-0.32538364 0.16470049 -0.09568080
-0.37966640 -0.50443757 -0.00000174
-0.54658929 -0.17701415 -0.21817162
-0.04406031 -0.68663989 0.00000054
-0.59879960 -0.45791724 -0.11954186
-0.31561632 0.29759993 -0.16530955
-0.35555248 -0.21224789 0.00000378
-0.47438607 -0.34527765 0.03681386
-0.57216838 -0.08391690 -0.31679624
-0.51564404 0.03637961 -0.30650125
-0.00631411 -0.44546571 0.00000063
-0.30120451 0.07283026 0.05990270
-0.35870458 -0.06600788 0.29916068
-0.20368576 0.30825108 0.15000383
-0.41407807 -0.14061381 -0.03760532
-0.50011730 -0.40739985 0.06700456
-0.14684365 0.03912864 0.00000268
-0.59079488 -0.77590158 -0.00000352
-0.06496252 -0.47919602 0.00000109
-0.27666275 0.13206345 0.24850599
-0.17389640 -0.61411846 0.00000166
-0.53383040 -0.37237730 -0.07412574
-0.41502771 -0.57845811 0.00000355
-0.33110973 0.00062301 0.04526659
-0.29153205 -0.48961933 -0.00000118
-0.35463109 -0.00918519 -0.02990689
-0.27241086 0.14233497 0.04979362
-0.02574217 0.53043775 0.00000549
-0.21799523 0.47737187 -0.12970556
-0.59692650 -0.20913395 -0.27511307
-0.37441450 -0.10104251 -0.00182158
-0.44295361 -0.76799375 0.00000340
-0.27002867 -0.14146609 -0.00000040
-0.53061225 -0.48102004 0.03362786
-0.24473123 0.20916077 0.02631514
-0.16679071 -0.23184478 0.00000006
-0.36436803 -0.54033217 -0.00000171
-0.20600525 0.00180496 0.00000763
-0.38981800 -0.33025316 -0.00000147
-0.17209280 0.38452277 0.10529810
-0.48933865 -0.38138282 0.18588887
-0.43692950 0.10798740 -0.23107711
-0.34988741 0.26228868 -0.19551536
-0.51754978 -0.44948552 0.06211431
-0.29536924 0.08689858 0.27948021
-0.09877758 0.56152506 0.03400216
-0.16850415 0.39319384 0.05080805
-0.38116048 -0.69245844 0.00000308
-0.45812516 0.05096183 -0.22734779
-0.10541279 -0.54514466 -0.00000016
-0.29251210 0.09381942 0.00884470
-0.37994997 -0.11729269 0.15097057
-0.16023324 0.41315396 0.11543779
-0.20120163 0.42239803 -0.06886857
-0.27517594 0.35002754 -0.13651949
-0.26909100 -0.35202895 0.00000287
-0.06068762 0.65348157 0.06317073
-0.33254411 -0.00283877 0.01836251
-0.30547681 0.06251202 0.11169450
-0.58086852 -0.60234907 0.01483267
-0.56708623 -0.48543860 -0.05325077
-0.17287114 0.35299888 -0.00000016
-0.43522377 -0.55227976 -0.00000216
-0.12641709 0.02631141 0.00000079
-0.29129974 -0.25783015 -0.00000074
-0.34884219 0.06221005 -0.06647784
-0.07242723 -0.44485301 0.00000121
-0.26084992 -0.35755746 -0.00000074
-0.31495357 0.03962558 0.20909038
-0.01646750 -0.43196591 0.00000059
-0.13952327 0.43933957 0.00000338
-0.43634575 0.11326105 -0.23353834
-0.47041150 -0.75159980 0.00000364
-0.24827371 0.27275369 -0.04593956
-0.27038103 -0.72421822 -0.00000149
-0.14308924 0.18677552 0.00000293
-0.38023599 0.02239465 -0.08939047
-0.17261752 0.26542919 0.00000330
-0.65209914 -0.75644336 -0.01136274
-0.14812134 0.26347064 0.00000110
-0.08730495 0.58412096 0.00000159
-0.56476788 -0.56347830 0.00909194
-0.49154174 -0.38669998 0.14810724
-0.18136089 0.36214727 0.15139942
-0.39396287 -0.62741503 -0.00000205
-0.51951242 -0.12868832 -0.20731706
-0.14848882 -0.31593373 0.00000001
-0.53872208 -0.19139823 -0.19691367
-0.18161598 0.19510465 0.00000077
-0.53460310 -0.52691394 0.00000455
-0.64031360 -0.28699936 -0.29223223
-0.36439753 -0.07975058 0.32718196
-0.26998304 0.14818758 0.27250055
-0.27173773 0.14395027 0.28028571
-0.14733048 0.05791853 0.00000272
-0.00205891 0.55061760 0.00000576
-0.17482265 0.37792971 0.16615492
-0.43102140 -0.24059354 0.22240774
-0.49958930 -0.40612883 0.15391070
-0.39360316 0.13655937 -0.18265595
-0.05601442 0.29732207 0.00000172
-0.31072015 0.04984520 0.11131302
-0.48316247 -0.36647554 0.26582980
-0.37396202 -0.55279466 0.00000328
-0.41166941 -0.11416550 -0.05074680
-0.38710122 -0.13456032 0.21954797
-0.38911177 -0.73434408 0.00000306
-0.22357581 0.42105860 -0.10241884
-0.55375608 -0.58483510 0.00000458
-0.32370647 -0.79695010 -0.00000195
-0.23394908 0.23518820 0.09865806
-0.56805817 -0.57142569 0.10132088
-0.32301374 0.02017530 0.10400327
-0.12162524 0.50636564 0.03572685
-0.24553782 -0.34637817 -0.00000063
-0.56313556 -0.27380712 -0.18196533
-0.05221412 0.67393917 0.04477852
-0.68343797 -0.78418134 -0.04188279
-0.06685895 0.50711862 0.00000205
-0.13370678 0.43074379 0.00000150
-0.31362156 0.04284722 0.13514920
-0.60369168 -0.52487955 -0.08441534
-0.38756566 -0.41654945 -0.00000162
-0.03879089 0.44090825 0.00000262
-0.23947152 -0.13471736 0.00000305
-0.14070427 0.54143582 -0.05166526
-0.16069005 0.00161844 -0.00000712
-0.19688366 0.32467187 0.15876367
-0.39592804 -0.79890673 -0.00000239
-0.12209720 -0.40251532 0.00000001
-0.33417233 -0.61592819 0.00000287
-0.28012937 0.07532849 -0.00000005
-0.55667791 -0.56222293 0.00000465
-0.41113290 -0.19257335 0.10640120
-0.00765144 0.14908303 0.00001016
-0.33797296 -0.01594642 0.04677350
-0.23660217 -0.17134687 0.00000296
-0.69668205 -0.63423637 -0.15774737
-0.24336043 -0.58302466 0.00000224
-0.26945063 0.35883030 -0.13332390
-0.06563060 0.06521397 0.00000212
-0.25803927 -0.12468388 -0.00000029
-0.54809157 -0.71352646 0.00000430
-0.35470457 -0.05635248 0.33470248
-0.68895211 -0.70851967 -0.09855053
-0.06680065 0.24825862 0.00000156
-0.11163643 0.31546820 0.00000142
-0.54318199 -0.33243257 -0.11394578
-0.33182834 -0.00112098 0.30678713
-0.05541828 -0.30988125 0.00000134
-0.05793579 0.69853687 -0.02445849
-0.23928829 0.22230377 0.10412192
-0.63272518 -0.55213665 -0.11169719
-0.16822640 0.39385615 0.12828896
-0.60185827 -0.28754482 -0.23275592
-0.01417415 -0.62766364 0.00000043
-0.12477432 0.49875948 0.12066728
-0.35893248 -0.06654610 0.01649511
-0.33670241 -0.01287500 0.14573337
-0.19447438 -0.27390855 0.00000245
-0.40491384 -0.54007668 -0.00000196
-0.16104990 0.10666545 0.00000073
-0.17329692 -0.61552463 -0.00000070
-0.45492466 -0.39761261 0.00000419
-0.16559009 -0.61904726 0.00000159
-0.59547407 -0.76335143 0.00000456
-0.28088093 0.12188934 0.13172452
-0.55145511 -0.53134054 0.06200300
-0.25896054 0.17481298 0.08409975
-0.32548920 0.15812973 -0.09166189
-0.25867774 0.17548028 0.27372883
-0.01402840 0.23745808 -0.00000712
-0.10224313 0.55316148 0.03235114
-0.20338733 -0.06043591 0.00000016
-0.23434781 -0.76182168 0.00000184
-0.07166961 0.28559563 -0.00000448
-0.37072741 -0.44077487 0.00000347
-0.26273364 0.16570121 0.11908948
-0.25345545 0.18809391 0.13560260
-0.05793793 -0.62508169 -0.00000002
-0.16068011 -0.30227725 0.00000215
-0.27885876 0.12676409 0.14899123
-0.43150368 0.05871748 -0.19135409
-0.53467992 -0.49084757 0.20525836
-0.58272926 -0.33902301 -0.17055636
-0.32779309 -0.36021765 -0.00000115
-0.36442475 0.19673057 -0.17611274
-0.14130031 0.48279413 -0.01523255
-0.07478661 0.56735129 0.00000404
-0.36258938 -0.27565002 -0.00000121
-0.01787938 0.40190394 0.00000239
-0.36800005 -0.15030856 0.00000399
-0.24163019 -0.39675257 0.00000258
-0.37279083 -0.10000363 0.02579337
-0.35200737 -0.04126847 -0.00543866
-0.45448008 -0.78920161 -0.00000272
-0.21463428 0.28181544 0.19902161
-0.58235241 -0.60593352 0.06195341
-0.29319360 0.26118752 -0.10763945
-0.58832301 -0.07160598 -0.34947655
-0.28716215 -0.37768046 -0.00000094
-0.40044628 -0.37068443 0.00000383
-0.19503418 0.32913462 0.18672900
-0.39463527 -0.15275142 0.27215036
-0.23513348 0.05482585 0.00000338
-0.16355166 0.46278574 -0.03670289
-0.37733292 0.14219245 -0.16122650
-0.36682933 -0.18650113 0.00000392
-0.31092756 0.21836338 -0.10763495
-0.40129023 0.15606362 -0.20689658
-0.40610856 0.00995045 -0.12124647
-0.30004508 0.22167509 -0.09300797
-0.49948938 0.04516014 -0.28725447
-0.12899350 -0.26129404 0.00000198
-0.20779457 0.07284218 0.00000038
-0.13511824 0.52148680 -0.03037053
-0.44736408 -0.64012634 0.00000367
-0.02680358 -0.25055264 0.00000087
-0.06191067 0.65053395 0.00014709
-0.22506159 -0.10751523 0.00000300
-0.05864174 0.37775572 -0.00000315
-0.48656506 -0.46076653 0.00000431
-0.00788668 0.62428530 0.00000481
-0.10925789 0.60499968 -0.04379647
-0.05510396 -0.33814974 0.00000128
-0.30401268 0.06605259 0.03781310
-0.27001617 -0.50407279 0.00000259
-0.07047231 -0.03393569 0.00000101
-0.43726547 -0.08568565 -0.10824239
-0.31541230 -0.12072661 0.00000365
-0.07961040 0.09113527 0.00000119
-0.20043352 -0.53328335 0.00000201
-0.47108819 -0.66272761 0.00000381
-0.71561956 -0.77105432 -0.09972567
-0.03930483 -0.03894091 0.00000172
-0.48318446 -0.79659410 -0.00000291
-0.04847475 0.36786817 0.00000190
-0.35899342 -0.06669899 0.15234916
-0.23041149 0.21688113 -0.00000098
-0.49920142 -0.40519397 0.19129509
-0.41791833 -0.38024272 -0.00000174
-0.45941817 -0.30915131 0.26110200
-0.01402261 0.05922853 0.00000153
-0.05802206 -0.32025045 0.00000134
-0.49751305 -0.40112133 0.29481663
-0.19256736 0.09717042 -0.00000437
-0.19992608 -0.44232697 0.00000218
-0.56658505 -0.56787169 0.16295992
-0.09171855 0.06529420 -0.00000801
-0.42210592 -0.21906587 0.13480890
-0.26879210 -0.60548245 -0.00000126
-0.07090987 0.47473210 -0.00000096
-0.52972757 -0.78320520 0.00000403
-0.11077449 -0.65883797 0.00000110
-0.06551596 0.27720442 0.00000750
-0.25845623 0.17602460 0.15751217
-0.72378737 -0.78929468 -0.10066709
-0.26939325 0.14962145 0.01910660
-0.13994607 0.40482214 0.00000141
-0.33064945 0.23518617 -0.14867393
-0.21496173 -0.66709038 0.00000187
-0.26387763 0.16294856 0.00469226
-0.51071644 -0.43299632 0.27882526
-0.36861579 -0.08992747 0.10383192
-0.36549263 -0.08238998 0.27249753
-0.16172534 0.21134967 0.00000312
-0.65441354 -0.74664920 -0.02115932
-0.33678176 -0.68524503 -0.00000182
-0.48693945 0.01723785 -0.25017379
-0.32964543 -0.68716255 -0.00000178
-0.06860486 0.12493140 0.00000915
-0.59920485 -0.19536851 -0.28738355
-0.36473347 -0.27449624 0.00000374
-0.62565594 -0.77024689 0.00000478
-0.17240537 0.07984300 0.00000746
-0.48412427 -0.14873067 -0.14013900
-0.50598554 -0.42156786 0.08511782
-0.35770574 -0.06358269 0.16868489
-0.19028085 -0.14109662 0.00000009
-0.69011630 -0.79544207 -0.04497934
-0.15465005 0.34949292 0.00000122
-0.02056093 0.50296576 0.00000260
-0.20008122 0.21209067 0.00000069
-0.68826492 -0.69131824 -0.10844957
-0.26467088 -0.03950623 -0.00000017
-0.44787385 -0.52347238 0.00000390
-0.23610898 0.38049799 -0.09585789
-0.42434385 -0.35771634 0.00000403
-0.38274423 -0.14886996 0.00000411
-0.42053537 -0.21527356 0.11970684
-0.18175010 -0.21538130 0.00000247
-0.01835281 -0.10904818 0.00000143
-0.31207657 -0.71729091 0.00000251
-0.03855268 -0.65614300 0.00000004
-0.43721691 -0.25555283 0.26843652
-0.15740898 -0.31347514 -0.00000004
-0.05332442 -0.37783929 0.00000047
-0.62612300 -0.71160543 0.10576494
-0.64940702 -0.74421313 -0.01501282
-0.03457407 0.61452636 0.00000291
-0.11716031 0.51714312 0.07983980
-0.31426729 0.06844730 -0.01728153
-0.08537928 -0.35443381 0.00000148
-0.18294877 0.35831515 0.07927115
-0.39100213 -0.14398377 0.35626290
-0.16071336 0.00246121 -0.00000710
-0.02879698 -0.51614084 0.00000075
-0.08418195 0.07788093 0.00000228
-0.27153067 -0.01673882 -0.00000017
-0.22977193 0.19848940 -0.00000134
-0.49824877 -0.29328184 -0.06979155
-0.45961917 -0.30963377 0.19484960
-0.35027009 -0.04564425 0.27811150
-0.25037587 -0.52401456 0.00000241
-0.72101861 -0.78174200 -0.10122019
-0.01930750 0.24142443 -0.00000689
-0.28073124 -0.21730437 -0.00000060
-0.17789698 -0.75461459 0.00000143
-0.39747473 -0.52823560 -0.00000189
-0.36605474 -0.08374133 0.02862129
-0.06370853 -0.57949191 0.00000089
-0.17030873 0.11898964 0.00000301
-0.32993274 0.00345818 0.27115493
-0.14871865 0.58204844 -0.08985455
-0.27100198 0.14572625 0.28706832
-0.27847961 0.22676377 -0.06309308
-0.40361106 -0.13893244 -0.02258206
-0.11058153 0.53302845 0.01636063
-0.20862912 0.29632534 0.04467224
-0.42463627 -0.72288844 0.00000335
-0.51457310 -0.71841951 0.00000404
-0.06335722 0.34411739 0.00000262
-0.00961530 0.25444231 -0.00000694
-0.33798780 -0.01598362 0.21393215
-0.32455964 0.32652585 -0.19748486
-0.36279902 -0.07588228 0.05216912
-0.52624792 -0.45677418 -0.00871410
-0.10914732 0.53648672 0.11616942
-0.41368669 -0.19873597 0.04036484
-0.05131857 0.67610147 0.03898963
-0.00309687 -0.20214995 0.00000114
-0.38282196 -0.12423062 0.25253197
-0.28229801 0.14247284 -0.01527328
-0.27375384 -0.60732448 -0.00000129
-0.67889469 -0.75369324 -0.05431507
-0.30188309 0.07117986 0.11066499
-0.04274141 0.66028916 0.00000167
-0.55781860 -0.48257464 -0.04082488
-0.36092829 -0.62380175 0.00000305
-0.06438122 -0.33797575 0.00000048
-0.19759764 0.40137671 -0.04994043
-0.59869107 -0.64537684 0.01832627
-0.26897821 0.15062885 0.07947908
-0.44457131 0.06779100 -0.21722392
-0.01044481 -0.41737480 0.00000065
-0.22895334 -0.38178013 -0.00000060
-0.43379919 -0.24730549 0.35820897
-0.31664049 0.06812485 -0.02072528
-0.22513178 -0.28547861 -0.00000039
-0.03994469 -0.50313195 0.00000032
-0.30770241 0.05712630 0.21459488
-0.52262661 -0.39855268 -0.04022751
-0.33859552 -0.01745032 0.06773540
-0.17959522 -0.27823129 -0.00000011
-0.57566676 -0.14311334 -0.28447286
-0.01402236 -0.10325898 0.00000141
-0.43691337 -0.25481811 0.22330932
-0.28378516 0.11487499 0.16927680
-0.51406912 -0.46413947 0.00000451
-0.28731847 0.10634098 0.13665470
-0.51500606 -0.51365175 -0.00000257
-0.08968336 0.23743972 -0.00000484
-0.39035909 0.10656970 -0.15856439
-0.32385487 0.01813729 0.05839809
-0.33806920 -0.64662406 -0.00000175
-0.42397418 -0.22357506 0.10641540
-0.31225699 0.04614745 0.06141800
-0.12836838 0.07379759 0.00000261
-0.05269734 0.08353774 0.00000995
-0.38978960 -0.14104302 0.03937261
-0.21319013 0.28530345 0.13388166
-0.42842391 -0.23432272 0.22481930
-0.28456094 0.02412781 -0.00000296
-0.21234860 0.32105520 -0.02146050
-0.42687176 0.12787335 -0.22827655
-0.03089128 0.04813578 0.00000182
-0.35735691 -0.06275051 0.20949323
-0.09801414 -0.56180115 0.00000119
-0.41767344 0.17304230 -0.24290222
-0.00862788 0.29535580 0.00000849
-0.53890692 -0.07880416 -0.26890959
-0.25469914 -0.63688406 0.00000223
-0.49369962 -0.51701522 0.00000426
-0.24662346 0.21402003 -0.00598915
-0.02267769 0.11749594 0.00001020
-0.09075975 0.62936302 -0.03087161
-0.19497177 0.32928938 0.06864098
-0.21049506 -0.59713472 0.00000197
-0.36716987 -0.14574089 -0.00000099
-0.57747715 -0.22218552 -0.23689506
-0.53165671 -0.32932831 -0.09820159
-0.43439957 -0.24875521 0.36421048
-0.04978667 -0.34985761 0.00000054
-0.59576081 -0.66655149 0.00000474
-0.21610047 -0.42057735 0.00000234
-0.19916323 0.31917080 0.05607638
-0.10316935 0.01638601 0.00000091
-0.25656225 0.28156939 -0.06429882
-0.04330208 0.52103520 0.00000280
-0.27019816 0.36500453 -0.13840472
-0.12758923 0.54691023 -0.03498619
-0.61227802 -0.67818155 0.13619923
-0.20560652 -0.25839258 -0.00000023
-0.04273125 0.43071014 -0.00000263
-0.19169785 0.23779965 0.00000079
-0.05537893 -0.31365414 0.00000133
-0.26198496 -0.33432023 -0.00000071
-0.59888069 -0.30988379 -0.21394978
-0.27448683 0.17693608 -0.02521828
-0.49608697 -0.03955137 -0.22806701
-0.27318592 0.14045673 0.21641340
-0.05982909 -0.52227554 0.00000097
-0.24879620 -0.41190912 0.00000260
-0.21449080 0.10391240 0.00000331
-0.02029732 -0.25393523 0.00000118
-0.31517756 -0.34040233 0.00000324
-0.03884051 0.24303849 0.00000845
-0.29392663 0.09039128 0.17394315
-0.32402490 -0.29779712 0.00000339
-0.50357689 -0.62934262 0.00000412
-0.19157537 0.41708544 -0.05068554
-0.03961137 0.15628338 0.00000941
-0.22967414 -0.18585558 -0.00000023
-0.65791094 -0.55023210 -0.15163580
-0.58016544 -0.06223023 -0.34290445
-0.27479358 0.13657624 0.19893239
-0.45429659 0.11329184 -0.26115924
-0.24131694 -0.71033749 0.00000199
-0.44840235 -0.28255362 0.18899098
-0.00495604 0.09973139 -0.00000998
-0.02816716 0.42433148 0.00000663
-0.19301722 -0.27755257 -0.00000019
-0.48322513 -0.06366812 -0.19293324
-0.50012192 -0.40741109 0.06904126
-0.12297250 0.50311289 0.08380139
-0.13672860 0.33946623 -0.00000151
-0.04887817 0.31759561 -0.00000457
-0.16504110 0.13627824 0.00000076
-0.28182148 -0.64095184 0.00000242
-0.19990834 -0.40057549 -0.00000046
-0.11082995 0.53130443 0.00000368
-0.34405198 -0.44147450 -0.00000140
-0.32097314 -0.27715124 0.00000340
-0.23911398 0.25836296 -0.02268553
-0.33561269 -0.77974234 0.00000257
-0.00845116 0.67701864 0.00000421
-0.18582407 0.32407039 0.00000099
-0.30615810 0.27984723 -0.13945904
-0.31158697 -0.15085550 -0.00000066
-0.49850812 0.05960881 -0.29494773
-0.38442380 0.07514597 -0.12942723
-0.22339156 -0.62138538 -0.00000101
-0.05972652 0.17805450 -0.00000686
-0.17105959 -0.56911619 0.00000172
-0.46643787 -0.37480804 0.00000432
-0.01563512 -0.26617663 0.00000091
-0.05444539 0.09982107 0.00000210
-0.11156622 0.28803606 0.00000137
-0.08263609 -0.71168604 -0.00000033
-0.25592983 0.18211785 0.19146338
-0.10717487 0.57904847 -0.02406599
-0.46472406 -0.32196368 0.35605804
-0.33938890 0.17031019 -0.12078878
-0.13332959 0.06830125 -0.00000670
-0.18628290 0.10422061 0.00000057
-0.27158817 0.06084935 -0.00000266
-0.34621139 -0.03584627 0.29318309
-0.02174104 0.74751044 0.00413985
-0.21526932 -0.52974951 0.00000213
-0.12376552 0.53304065 -0.02027124
-0.08060406 -0.62605682 0.00000093
-0.27380920 -0.19861098 -0.00000052
-0.31611023 0.03683647 0.01383884
-0.04081712 0.57030969 0.00000472
-0.29362891 0.09109963 0.29098151
-0.29031116 0.03144518 -0.00000265
-0.34970421 0.04448075 -0.05651140
-0.38220801 -0.12274085 0.07428603
-0.44134451 -0.12426577 -0.08994247
-0.00761487 0.29410415 0.00000211
-0.42609244 -0.32370861 0.00000411
-0.13023490 -0.57244649 -0.00000036
-0.41822421 -0.10349774 -0.06761985
-0.17880729 0.36831248 0.10519703
-0.27149799 -0.43744130 0.00000273
-0.62956228 -0.76597808 -0.00000374
-0.34426210 -0.03113668 0.20877366
-0.45511934 -0.19658878 -0.06505983
-0.03796057 -0.64365444 0.00000006
-0.02635031 0.05125218 0.00001087
-0.58124854 -0.60327164 0.21041185
-0.34517589 0.28723658 -0.20416102
-0.03867923 0.70661641 0.02156292
-0.15862827 0.36007190 0.00000460
-0.23506442 0.10937672 -0.00000286
-0.28023938 0.12343742 0.14091111
-0.17008500 0.48742312 -0.06243875
-0.49707864 -0.04417538 -0.22664666
-0.11851751 0.51386638 0.08325001
-0.03753534 0.30290244 0.00000780
-0.17387222 0.47584126 -0.06088696
-0.50119530 -0.40999977 0.00546436
-0.54540824 -0.00946560 -0.32306773
-0.48567185 -0.70209596 0.00000385
-0.39571092 -0.01638634 -0.08847944
-0.35819730 -0.06478206 0.27254834
-0.49998829 -0.41650565 0.00000449
-0.12111194 -0.24184513 0.00000196
-0.06947862 0.63226003 0.04398601
-0.01096970 -0.07816994 0.00000144
-0.02343089 0.65162277 0.00000093
-0.14949928 0.32977147 0.00000325
-0.24940957 -0.31325222 -0.00000059
-0.04699085 -0.63985936 0.00000002
-0.36656836 -0.59446132 0.00000315
-0.07600503 -0.48071038 0.00000014
-0.33842936 0.10229277 -0.07599118
-0.18301451 0.35815737 0.12351952
-0.13667625 0.41684686 0.00000331
-0.45651841 -0.07192596 -0.14660941
-0.41463532 -0.20102491 0.01057764
-0.64676788 -0.61669575 -0.09217130
-0.30107886 -0.78467840 0.00000230
-0.20789926 0.21331800 0.00000347
-0.48755957 -0.72376069 -0.00000280
-0.38696278 -0.13422604 0.21843896
-0.52652404 0.03171284 -0.32025843
-0.03848198 0.44563622 0.00000617
-0.16209438 0.11404605 0.00000074
-0.00491936 0.36476229 0.00000222
-0.27091948 0.14593295 0.10986625
-0.27016702 -0.15331624 -0.00000042
-0.19498627 0.26163620 0.00000081
-0.46864817 -0.33143709 0.33620327
-0.31108263 0.20312855 -0.09817025
-0.52044662 -0.22019656 -0.15047144
-0.02986325 0.73607038 -0.00519931
-0.19365613 -0.32389569 0.00000235
-0.35580744 -0.75588532 -0.00000206
-0.31889436 0.03011307 0.05843866
-0.61859932 -0.69344208 0.07265128
-0.41083982 -0.23362991 -0.00000142
-0.53361348 -0.48826895 0.11078589
-0.08105505 -0.42988264 0.00000020
-0.05178930 0.17653031 0.00000222
-0.25713204 0.18999160 -0.00684860
-0.11233734 0.07771321 0.00000875
-0.33141099 -0.01515059 -0.00000053
-0.28702145 0.10705073 0.30988375
-0.18082570 0.41104536 -0.03030983
-0.09769722 0.56413364 0.06341586
-0.25620752 0.09664853 0.00000361
-0.10721643 -0.74024384 0.00000092
-0.55287663 -0.01781379 -0.32923421
-0.31989536 0.19368516 -0.10570621
-0.35408124 0.11284315 -0.10678190
-0.32058616 -0.10834057 -0.00000064
-0.31069368 0.04990282 0.25978706
-0.27784209 0.03476671 -0.00000296
-0.33680943 -0.01314656 0.26246396
-0.67156998 -0.79772108 -0.01501111
-0.59402904 -0.63412228 0.03322154
-0.01512961 0.56571846 0.00000267
-0.22918347 0.24669326 0.17121206
-0.31406764 0.04175895 0.27700263
-0.27674611 -0.71269868 0.00000225
-0.53688995 -0.49618026 0.13864044
-0.52827296 -0.47538046 0.26697258
-0.38436022 -0.12793809 0.10549645
-0.41760494 0.00818349 -0.13779372
-0.55956978 -0.08966572 -0.29376312
-0.08563525 0.59325483 0.00425971
-0.32365616 -0.09450336 0.00000376
-0.14162041 -0.19540847 0.00000028
-0.30757039 0.06886966 -0.00725967
-0.06878381 0.19637968 0.00000239
-0.14774498 0.44330314 0.13951483
-0.03105611 -0.39793794 0.00000057
-0.04872104 -0.10927414 0.00000166
-0.36300429 0.11153034 -0.11966589
-0.00953063 0.53124634 -0.00000175
-0.19753921 -0.57130678 0.00000192
-0.30683363 0.05923619 0.11423705
-0.34377588 0.25811353 -0.18345974
-0.46567043 -0.54063207 -0.00000232
-0.30359597 0.06705550 0.07677953
-0.40479650 0.08300122 -0.16575543
