ply
format ascii 1.0
element vertex 1382
property float x
property float y
property float z
end_header
-0.44302855 -0.75911105 0.00000411
-0.41186285 -0.31654534 0.00000494
-0.12951058 0.63273438 0.00000307
-0.23371913 0.19728548 -0.00000171
-0.13312225 0.61065257 0.00000306
-0.36049711 -0.41228094 0.00000097
-0.01730860 0.53481079 -0.00000083
-0.41237677 0.14563164 0.00000116
-0.54812722 0.13332883 0.00000128
-0.77633285 -0.25131421 -0.00000137
-0.15011826 0.06181964 0.00000912
-0.11980042 0.59216808 0.00000413
-0.00809023 0.38254066 0.00000296
-0.19732789 0.13455967 0.00000234
-0.51830688 0.05908601 0.00000034
-0.49929632 -0.32270281 0.00000090
-0.02306688 -0.59488996 0.00000051
-0.19373774 0.56489257 0.05781641
-0.51788904 -0.00937084 0.10958803
-0.45501200 -0.35278102 0.00000524
-0.25226496 0.03267799 0.00000787
-0.48612835 0.20556646 0.00000047
-0.40504683 0.16817349 0.08600355
-0.59563263 0.00462114 0.00000187
-0.19863551 0.32472211 0.00000280
-0.01452611 -0.77360717 0.00000007
-0.41785761 -0.70895548 0.00000401
-0.54937963 -0.18133136 0.00000033
-0.02727382 -0.14870731 0.00000188
-0.08905587 0.22651912 0.00000337
-0.25906040 0.14572398 0.00000663
-0.09161963 -0.26427103 0.00000217
-0.11111006 0.51641027 0.00000135
-0.00828727 -0.27575576 0.00000131
-0.17289174 0.12668510 0.00000232
-0.38216213 -0.75069196 0.00000358
-0.25679142 0.47527378 0.00000214
-0.21036376 0.50251812 0.00000251
-0.11202163 -0.30168103 0.00000226
-0.17051584 -0.31138964 0.00000122
-0.29368631 0.46322875 0.00000230
-0.61120043 -0.26273296 0.10260783
-0.12303622 0.13758265 0.00000877
-0.35555329 -0.61252380 0.00000369
-0.72359781 0.01494684 -0.00000071
-0.61515074 0.03289361 0.17844711
-0.15024603 -0.53673443 0.00000202
-0.76235694 -0.77140097 0.06688438
-0.51486693 -0.69980923 0.00000491
-0.43803149 -0.17881421 0.00000127
-0.65090803 0.00271803 0.00000083
-0.60958776 -0.29663762 0.09321407
-0.09359763 0.44073554 -0.00000064
-0.38982826 -0.68974787 0.00000380
-0.17040603 0.41285891 0.00000295
-0.06253341 0.61684813 0.00000354
-0.34045437 0.26643350 0.07166880
-0.15853868 0.13171884 0.00000376
-0.40602096 0.21246748 0.00000114
-0.65687684 -0.10301698 -0.00000067
-0.42895762 0.05109945 0.07125773
-0.00550884 0.21470039 0.00000259
-0.25115256 0.21141822 0.00000247
-0.01432950 -0.44899495 0.00000101
-0.04160356 -0.45662093 0.00000124
-0.26833326 0.04381109 0.00000751
-0.28138299 0.38044053 0.00000351
-0.20729220 -0.71450274 0.00000209
-0.61058912 -0.55717774 0.02906411
-0.23548633 -0.60196876 0.00000050
-0.04220266 0.31671461 0.00000279
-0.06428065 -0.34658228 0.00000113
-0.23897511 -0.63801333 0.00000040
-0.20711988 0.01245933 0.00000203
-0.17732683 0.07138357 0.00000218
-0.03417179 -0.16173560 0.00000191
-0.60442220 -0.12594729 -0.00000020
-0.35224355 -0.50419299 0.00000393
-0.60594100 -0.20221689 0.11449195
-0.04998936 0.11507274 0.00001009
-0.58966085 0.02359452 0.16084139
-0.30902321 0.14109396 0.02166322
-0.20076155 -0.71953779 0.00000020
-0.37994765 -0.35079360 0.00000112
-0.54893819 -0.29440496 0.05737931
-0.24664299 0.51824826 0.07796744
-0.12021569 0.30344197 0.00000385
-0.01434436 -0.49782536 0.00000089
-0.29670286 -0.49872898 0.00000344
-0.23120918 -0.48997735 0.00000287
-0.17505498 0.26450484 0.00000266
-0.59871473 -0.34715050 0.07413656
-0.45015446 -0.66343590 0.00000442
-0.53874698 -0.01920467 0.11965880
-0.39953163 -0.45699692 0.00000447
-0.51078309 -0.58060508 0.00000517
-0.60295171 -0.66461734 0.00000034
-0.00393716 -0.52380021 0.00000069
-0.12257018 -0.34153849 0.00000115
-0.58898158 0.14606638 -0.00000035
-0.60063420 0.18249204 -0.00000049
-0.62035937 -0.77039141 0.00000569
-0.29012003 0.08007701 0.00000483
-0.58313547 -0.01389667 0.14760775
-0.20339738 -0.60867081 0.00000232
-0.49584745 0.06529461 0.00000308
-0.21923874 0.32623962 0.01380606
-0.12935239 0.38625755 -0.00000076
-0.79815084 -0.32647278 -0.00000118
-0.03871373 0.62070188 0.00000521
-0.27929603 0.29401759 0.04182842
-0.60178811 0.10032461 -0.00000041
-0.18155987 0.01616759 -0.00000675
-0.43720994 0.13727324 0.00000336
-0.20953826 0.09109527 -0.00000449
-0.67759768 -0.30184251 -0.00000064
-0.04055233 0.50778752 0.00000327
-0.17905546 0.16299754 0.00000241
-0.02382640 0.39602238 0.00000321
-0.27779798 -0.67732518 0.00000031
-0.65513102 -0.63837607 -0.00000010
-0.56213296 -0.18370584 0.00000022
-0.49044045 0.24592936 0.15656745
-0.51475623 -0.57586033 0.00000522
-0.31041459 -0.07173513 0.00000182
-0.00554532 0.48794360 -0.00000209
-0.27764701 0.05666070 0.00000466
-0.08064761 -0.19163545 0.00000225
-0.09550240 0.41700580 -0.00000107
-0.67264234 -0.26533536 0.13882610
-0.67291600 -0.41184005 0.10258020
-0.06534757 -0.27738376 0.00000131
-0.25676857 -0.10597978 0.00000174
-0.26085909 0.19248364 0.00000610
-0.36900998 -0.52195552 0.00000070
-0.52569053 0.20325772 0.16711234
-0.35661978 0.14829471 0.05200553
-0.02757738 0.02364036 0.00001135
-0.29095582 0.17794643 0.01998158
-0.12404810 -0.09444015 0.00000289
-0.02826299 0.04417645 0.00001113
-0.31107368 -0.26101605 0.00000135
-0.30276889 -0.65758014 0.00000310
-0.39867995 -0.41437971 0.00000457
-0.03988155 0.05408682 0.00000214
-0.01672576 0.23574879 0.00000274
-0.18838971 0.15055641 0.00000408
-0.44274445 0.00539969 0.06817227
-0.12252245 0.17969921 -0.00000508
-0.25709780 0.26165982 0.02047171
-0.41537172 0.24852527 0.00000248
-0.17492347 0.14739844 0.00000237
-0.13950092 0.37454554 0.00000294
-0.56517083 -0.47778908 0.02154331
-0.32673869 -0.68199286 0.00000030
-0.72285950 -0.62865458 0.07866221
-0.17191125 0.08949087 0.00000378
-0.37238737 0.30467841 0.00000133
-0.07781176 0.36974372 0.00000363
-0.14053946 0.03662070 0.00000951
-0.17645714 0.49728119 0.03064531
-0.68885115 -0.20129599 -0.00000084
-0.31842432 -0.30911307 0.00000123
-0.34590947 0.23251534 0.06651541
-0.44957552 -0.60538125 0.00000456
-0.37674466 -0.61054411 0.00000047
-0.53925582 -0.00059617 0.12458482
-0.24012345 -0.18612891 0.00000153
-0.31056916 -0.78503487 0.00000285
-0.05849109 -0.39942464 0.00000153
-0.06160505 0.64239710 0.00000361
-0.42523657 0.15788297 0.09556351
-0.33963820 -0.61315560 0.00000354
-0.45311593 0.22111538 0.12800591
-0.28207343 0.16028570 0.00000607
-0.01554224 0.67895500 0.00000498
-0.79515676 -0.22041418 -0.00000145
-0.43346693 0.07004224 0.07867107
-0.18952795 0.52382792 0.04508402
-0.33370356 -0.07191283 0.00000182
-0.34611788 0.32709488 0.00000289
-0.54341915 -0.05483410 0.00000025
-0.48444859 0.06000354 0.10676112
-0.32914743 0.08554280 0.01992483
-0.06918899 0.61704983 0.00000417
-0.60603622 0.05928403 0.00000103
-0.20100602 0.38476003 0.01740639
-0.37512948 0.16582042 0.06746767
-0.08818305 0.68942628 0.00000360
-0.27840666 0.45827263 0.00000198
-0.00634154 0.60001913 0.00000017
-0.17781383 0.03178118 -0.00000653
-0.29024958 0.25541433 0.03880612
-0.60959891 -0.68157274 0.00000030
-0.26174842 -0.31487797 0.00000358
-0.12578338 -0.43165336 0.00000206
-0.55000725 0.08878044 0.15325006
-0.43568981 0.17170301 0.00000093
-0.54280394 -0.24680198 0.06552931
-0.47871523 -0.16072762 0.04846785
-0.09867079 -0.06005155 0.00000185
-0.09281319 -0.34843927 0.00000113
-0.17756735 -0.66260790 0.00000034
-0.08142838 -0.42788259 0.00000093
-0.24060153 0.28609570 0.01664692
-0.01726716 0.72385297 0.00000397
-0.41974503 0.09970047 0.00000114
-0.54260823 -0.76347166 0.00000500
-0.64200591 0.08057385 -0.00000073
-0.36421057 0.15762027 0.05888273
-0.52611914 -0.58524348 0.00000054
-0.00021997 0.42345960 0.00000306
-0.53090359 0.10422291 0.00000195
-0.61591971 -0.72839284 0.00000576
-0.55903045 -0.09484855 0.11302944
-0.71618747 -0.12589807 0.19960677
-0.62077837 0.07634460 0.19262388
-0.40862596 -0.43373647 0.00000092
-0.42497008 -0.68487058 0.00000414
-0.40826736 -0.60242313 0.00000419
-0.01212062 0.56798203 0.00000342
-0.23418683 0.41852082 0.04570908
-0.64286571 -0.55069669 0.05004071
-0.04361048 0.57628279 0.00000384
-0.60584052 -0.61182849 0.00000029
-0.56928349 0.15133955 0.00000066
-0.14561821 -0.59696150 0.00000051
-0.23171356 -0.76831323 0.00000218
-0.44952157 -0.46975778 0.00000083
-0.21950000 -0.20727241 0.00000347
-0.52891446 0.20158507 0.16863111
-0.04211269 -0.78884856 0.00000003
-0.32780541 -0.75419819 0.00000308
-0.08074274 0.70695937 0.00000354
-0.70805862 -0.16776685 0.18432403
-0.06989882 0.00908954 0.00000266
-0.41393126 -0.36214335 0.00000109
-0.23059608 0.18973540 0.00000662
-0.12804781 -0.40811188 0.00000214
-0.57538566 -0.71490319 0.00000021
-0.05322968 0.06992625 -0.00000916
-0.03331837 -0.26248328 0.00000165
-0.58664389 0.11255289 0.18114192
-0.06034196 0.63059247 0.00000412
-0.21572516 0.39769125 0.02945218
-0.08331715 -0.04691406 0.00000188
-0.53968093 0.22982583 -0.00000002
-0.48879977 0.05720004 0.10867512
-0.17039731 0.24870040 0.00000416
-0.52861005 0.00562881 0.00000315
-0.73519346 -0.73376799 -0.00000017
-0.58071284 -0.22790898 0.09296997
-0.07729786 0.35986907 -0.00000270
-0.71388771 -0.42718352 -0.00000082
-0.19884190 0.15000673 0.00000238
-0.13246381 0.42639006 0.00000013
-0.31672874 -0.59710367 0.00000051
-0.76634170 -0.18527778 -0.00000152
-0.39606384 -0.20882543 0.00000506
-0.13198512 0.57665804 0.02368933
-0.40665313 0.07781710 0.06451509
-0.01145774 -0.74772853 0.00000023
-0.40914855 -0.05014175 0.00000139
-0.04228564 0.14024300 -0.00000805
-0.09407823 0.51982969 0.00000415
-0.02568352 -0.43159068 0.00000092
-0.30329927 0.25660770 0.04693281
-0.40854562 0.38307775 0.00000103
-0.46608493 -0.56403573 0.00000059
-0.04518627 0.30493774 0.00000317
-0.15247895 0.15023809 0.00000238
-0.15928081 0.26242489 0.00000410
-0.64830237 -0.20943564 0.13811464
-0.29490562 0.08870347 0.00000222
-0.53021983 -0.11754554 0.09010235
-0.50652608 0.21588862 0.15875292
-0.66074007 -0.70526568 -0.00000008
-0.08998527 0.38233509 0.00000296
-0.41426849 0.14238671 0.00000114
-0.24201379 0.25258569 0.00916058
-0.12288732 0.32187419 0.00000280
-0.64313223 0.07375539 0.20539260
-0.63537873 -0.68993747 0.01094370
-0.40041307 -0.52483179 0.00000069
-0.34744045 0.19805725 0.05887030
-0.63726832 -0.74783530 0.00000590
-0.66324333 -0.64282404 0.03937128
-0.16772176 0.13776010 0.00000234
-0.51324567 -0.43378056 0.00132553
-0.28224708 -0.19810688 0.00000150
-0.75637863 -0.60198841 0.10540075
-0.22078423 0.18463584 -0.00000231
-0.23003445 0.20539267 -0.00000164
-0.75436504 0.04417544 -0.00000164
-0.53638306 -0.00292230 0.12228703
-0.46422392 0.19682492 0.12863224
-0.38267044 -0.08614705 0.00000165
-0.29201656 0.39379102 0.07426083
-0.23478976 -0.04486937 0.00000401
-0.17638312 0.38913844 0.00000292
-0.35520940 -0.54690465 0.00000063
-0.17256331 0.43026957 0.01165494
-0.70087470 -0.60049710 -0.00000050
-0.67399459 -0.54205599 0.07086541
-0.34339921 -0.77711289 0.00000006
-0.09195606 0.30949636 0.00000361
-0.08553788 0.29568560 0.00000775
-0.31988743 0.30661735 0.06931573
-0.22839827 -0.35884330 0.00000110
-0.11061174 0.04446131 0.00000989
-0.12767342 -0.77691959 0.00000121
-0.26125504 0.48134553 0.00000271
-0.44312454 -0.37003833 0.00000509
-0.19188722 -0.42603372 0.00000267
-0.36225891 -0.02698331 0.01183311
-0.46106160 0.21376724 0.13094572
-0.13336713 -0.01303177 0.00000317
-0.10782219 0.46519174 0.00000414
-0.08107196 -0.11387924 0.00000172
-0.23609656 0.38766083 0.03918244
-0.45861513 -0.50723659 0.00000488
-0.01014527 0.43109612 -0.00000310
-0.37113557 -0.61621866 0.00000046
-0.22957240 -0.68930952 0.00000028
-0.08738894 -0.52455860 0.00000069
-0.51309303 -0.51779096 0.00000535
-0.77403399 -0.08697651 -0.00000169
-0.00926386 -0.32115550 0.00000120
-0.79315714 0.00082690 -0.00000194
-0.19890943 0.03548880 0.00000864
-0.40749057 -0.20894809 0.00000517
-0.15588397 0.50849372 0.02108804
-0.28304130 -0.28290132 0.00000129
-0.60245995 -0.46158671 0.00000016
-0.47761579 -0.34723569 0.00145625
-0.28074544 -0.65847419 0.00000035
-0.75211908 -0.36162115 0.16258241
-0.42765450 -0.76391158 0.00000009
-0.22146815 -0.17651456 0.00000356
-0.31905353 0.21746079 0.00000469
-0.27031496 0.19344974 0.01145007
-0.66026816 -0.63481398 -0.00000015
-0.17834969 0.59208194 0.00000269
-0.53287240 -0.44167415 0.01113977
-0.05908337 -0.07635916 0.00000181
-0.07130801 -0.32621679 0.00000118
-0.11391990 0.10576418 -0.00000679
-0.67145461 -0.15413042 -0.00000074
-0.32831125 -0.50175245 0.00000372
-0.73559339 -0.71791235 0.06411966
-0.01351002 0.51886518 0.00000342
-0.04360244 0.27932667 0.00000309
-0.29376799 0.27198074 0.00000454
-0.02843572 0.03968984 0.00001117
-0.27384515 0.24093658 0.02536473
-0.39601701 0.09822848 0.06320095
-0.40441405 -0.56474582 0.00000425
-0.21537106 0.31905096 0.00969402
-0.45766277 -0.31188472 0.00000536
-0.65136859 -0.59495238 -0.00000012
-0.04862738 -0.01320857 0.00000197
-0.05380854 0.68757864 0.00000366
-0.44247761 -0.71422365 0.00000422
-0.17270701 0.51663823 0.03320595
-0.14479656 0.12062581 0.00000861
-0.13369313 0.39637560 0.00000602
-0.04473529 0.58111436 0.00000345
-0.17736836 -0.02431498 0.00000194
-0.65375513 -0.28550911 -0.00000046
-0.09011420 -0.73910956 0.00000015
-0.13131817 0.37276468 0.00000293
-0.01915933 -0.44144989 0.00000090
-0.14660725 -0.59171226 0.00000052
-0.52070110 -0.03685063 0.00000042
-0.00881706 -0.39461829 0.00000109
-0.13597602 0.60909602 0.03414551
-0.63554597 -0.59942150 0.00000002
-0.29714054 0.46821840 0.00000218
-0.53015825 0.08567608 0.00000021
-0.11281392 0.18674919 -0.00000520
-0.12531011 -0.57377541 0.00000170
-0.15519012 -0.13503823 0.00000307
-0.54434598 -0.29407140 0.00000049
-0.19976265 0.22508198 -0.00000207
-0.72451031 -0.39615889 -0.00000095
-0.48778836 -0.34356193 0.00847279
-0.58280998 0.21199242 -0.00000031
-0.58729249 0.11894005 0.18311802
-0.58741789 -0.10564602 -0.00000008
-0.14721182 -0.60269507 0.00000183
-0.10770413 -0.50835481 0.00000073
-0.09049317 0.07973732 -0.00000795
-0.12060774 -0.61420709 0.00000046
-0.30998502 0.00252645 0.00000730
-0.35181955 -0.28060176 0.00000130
-0.11733732 0.10443305 -0.00000672
-0.45418401 -0.46084902 0.00000496
-0.49352742 -0.64510698 0.00000039
-0.03540301 0.28055755 -0.00000543
-0.35187634 0.24100434 0.00000158
-0.61663639 -0.12942528 0.13899971
-0.32595968 0.03622561 0.00000668
-0.55354485 -0.04430277 0.00000015
-0.04678457 0.43641955 0.00000693
-0.11313087 -0.50294700 0.00000177
-0.56336254 -0.43380589 0.03138926
-0.72321016 -0.79776432 0.03684453
-0.15736476 -0.50872467 0.00000073
-0.28323339 0.04669977 0.00000468
-0.22987045 0.14565490 0.00000707
-0.29308482 0.34992487 0.06399995
-0.38608285 -0.12599080 0.00152157
-0.00919342 0.40808354 -0.00000359
-0.28938693 0.20787732 0.02647883
-0.31031061 0.18551869 0.00000523
-0.27534318 0.16856568 0.00827612
-0.11380503 0.40602208 0.00000622
-0.04050034 0.11988484 -0.00000850
-0.33352510 0.28397581 0.07187116
-0.17343193 -0.35650623 0.00000111
-0.73760471 -0.06994402 -0.00000139
-0.06951650 0.33544913 0.00000760
-0.10489111 -0.29021482 0.00000222
-0.73950320 -0.26853141 -0.00000121
-0.70717277 -0.06684105 -0.00000114
-0.15586309 0.21580116 0.00000749
-0.05207827 -0.00362614 0.00000246
-0.28285291 -0.35690028 0.00000367
-0.62407231 -0.63207214 0.01854086
-0.00994301 0.04003465 -0.00001093
-0.03087791 0.53879897 0.00000615
-0.29596260 -0.41964260 0.00000363
-0.31169426 0.38695426 0.00000285
-0.39060193 -0.42664205 0.00000093
-0.06525429 -0.16169974 0.00000160
-0.10852364 0.18032215 0.00000856
-0.29397374 -0.28274844 0.00000395
-0.43186304 -0.09263558 0.03727921
-0.72414519 -0.11808572 0.20632295
-0.62526460 -0.04966928 -0.00000046
-0.46477055 -0.72122995 0.00000020
-0.65341035 -0.76170784 0.00000004
-0.40267120 -0.66731934 0.00000033
-0.45925350 0.17376096 0.11991968
-0.42849965 0.16992959 0.10051221
-0.49276316 -0.57818805 0.00000055
-0.18277292 0.42211120 0.01574962
-0.39412319 0.35594510 0.12611893
-0.55508727 -0.13860961 0.09978781
-0.04505444 0.31216702 -0.00000453
-0.05472874 0.11865415 0.00000279
-0.18293527 0.05830934 0.00000866
-0.11394779 -0.47071248 0.00000082
-0.17855089 0.22007977 0.00000417
-0.01738461 0.61152471 0.00000562
-0.62267310 -0.54865044 0.00000008
-0.17202668 0.48131509 0.00000443
-0.30193929 -0.77741563 0.00000006
-0.45906841 -0.65118387 0.00000037
-0.05937631 0.03482497 -0.00000969
-0.15328166 -0.42692894 0.00000093
-0.56820610 -0.64209268 0.00000554
-0.14589406 0.63019140 0.04533905
-0.44066398 -0.54812338 0.00000462
-0.40760185 -0.43784669 0.00000091
-0.38095345 -0.72769571 0.00000018
-0.51296443 0.05491974 0.12261110
-0.46081582 0.12114596 0.00000077
-0.15333334 -0.29322113 0.00000127
-0.03629992 0.08922046 0.00001056
-0.45483785 0.25270663 0.00000167
-0.72085486 -0.34073365 -0.00000097
-0.68753332 -0.10301190 0.18810212
-0.37354267 -0.37419779 0.00000106
-0.03212434 0.70330729 0.00000376
-0.17906318 0.07368478 0.00000381
-0.38447503 -0.34234876 0.00000462
-0.37741508 0.31620719 0.10621704
-0.60536226 -0.68898256 0.00000576
-0.59109923 0.14463850 0.00000032
-0.21213913 0.34680638 0.00000523
-0.09668537 -0.10140940 0.00000175
-0.42567328 0.23426806 0.00000245
-0.61320460 0.05449116 0.18264736
-0.08316586 -0.10059830 0.00000175
-0.37992134 -0.72618903 0.00000362
-0.48897652 0.25448525 0.00000099
-0.23385502 -0.32699363 0.00000118
-0.76337660 -0.61196054 -0.00000047
-0.39809755 -0.71251362 0.00000382
-0.72266781 -0.47912342 -0.00000080
-0.47537913 0.03195615 0.09435296
-0.20660086 0.20498690 -0.00000229
-0.41430937 0.10445788 0.00000418
-0.61477511 -0.46542631 0.05437824
-0.13022980 0.60181134 0.02888736
-0.69158207 -0.28986189 -0.00000077
-0.37391152 -0.53625932 0.00000404
-0.49646304 -0.49533109 0.00000526
-0.06800941 -0.19962331 0.00000150
-0.19705204 -0.63573375 0.00000041
-0.01135472 0.76525091 0.00000402
-0.08878122 0.25282442 0.00000263
-0.04282614 0.44216409 0.00000311
-0.56716466 0.07105108 -0.00000009
-0.61806473 -0.44067193 0.06250409
-0.05332054 0.73276204 0.01528650
-0.40367176 0.30227792 0.11851044
-0.17563024 -0.22679532 0.00000143
-0.00086649 -0.59013673 0.00000053
-0.18301320 0.29838129 0.00000275
-0.49505527 -0.48031462 0.00000080
-0.40021789 0.15503690 0.07984502
-0.17588251 -0.31702304 0.00000121
-0.24269416 0.29589659 0.02033354
-0.28474678 -0.56777736 0.00000058
-0.67832200 -0.43391872 -0.00000051
-0.52444938 -0.23663338 0.00000060
-0.57459507 -0.36337626 0.00000030
-0.41198642 0.33120188 0.00000097
-0.15966798 -0.00820740 0.00000198
-0.27413075 -0.62561759 0.00000292
-0.18661586 0.37240026 0.00570447
-0.19813144 -0.17107658 0.00000157
-0.00481523 -0.45684999 0.00000086
-0.60530597 -0.36254511 0.07426534
-0.71637153 -0.01730324 -0.00000127
-0.25431377 -0.42575102 0.00000324
-0.30916437 0.31626762 0.00000186
-0.44278347 0.20716444 0.11833929
-0.44837653 0.29011980 0.00000136
-0.67589067 0.07181131 -0.00000102
-0.37428125 -0.55898527 0.00000399
-0.60874673 -0.36655523 0.07533317
-0.23296581 -0.25279341 0.00000137
-0.12706766 0.52447745 0.00000478
-0.38821042 0.04543237 0.00000538
-0.44004413 -0.45581017 0.00000086
-0.21950059 -0.41840041 0.00000095
-0.45185489 0.06237096 0.00000091
-0.21723098 -0.68172840 0.00000030
-0.34080706 -0.36058496 0.00000418
-0.01841810 -0.13765985 0.00000166
-0.19594278 0.04494901 0.00000859
-0.17956905 0.05683145 0.00000872
-0.58288261 0.08229298 -0.00000023
-0.21986123 -0.07573396 0.00000181
-0.36148834 0.38813930 0.00000188
-0.04802944 0.54414285 0.00000336
-0.51300029 -0.33864348 0.00000080
-0.73608656 -0.17194080 -0.00000128
-0.60739629 -0.53664887 0.00000020
-0.35430284 0.26914059 0.08065101
-0.54944515 0.09829242 0.15527695
-0.67172165 -0.01013790 -0.00000089
-0.25541396 0.48817218 0.00000274
-0.24168351 0.22841447 0.00000605
-0.62859209 -0.49552738 0.05518753
-0.52340801 -0.74001799 0.00000489
-0.72910443 -0.02605236 0.23217109
-0.30347057 0.10230618 0.00868464
-0.14606375 -0.66416419 0.00000166
-0.69783070 -0.70481346 -0.00000024
-0.23280128 0.15112029 -0.00000265
-0.65902897 -0.21052731 0.14427928
-0.11094264 0.59699021 0.00000425
-0.76826227 -0.10757446 -0.00000162
-0.77060640 -0.28742631 -0.00000128
-0.06096000 0.13600444 0.00000289
-0.03895897 0.49517091 0.00000646
-0.18640393 0.48135803 0.00000274
-0.39772767 0.22112207 0.09477472
-0.23396356 0.40851005 0.00000241
-0.19752039 -0.70293776 0.00000024
-0.06936987 0.36188566 -0.00000288
-0.09817144 0.08110375 0.00000309
-0.66580843 -0.12264527 0.17018784
-0.27213552 0.22749674 0.00000227
-0.06188911 -0.19014170 0.00000152
-0.15250348 -0.63043306 0.00000180
-0.06193730 -0.53451250 0.00000066
-0.11082525 0.62740873 0.00000323
-0.56173523 -0.23310708 0.08029158
-0.56023107 0.15352190 0.17547577
-0.74921444 -0.72732085 -0.00000018
-0.11646634 0.23573680 0.00000364
-0.50215785 -0.31563851 0.02403413
-0.06003203 0.25426625 0.00000318
-0.21364385 0.23940717 0.00000453
-0.56720352 -0.25366904 0.00000025
-0.56987391 -0.02907372 -0.00000001
-0.05456581 -0.75067584 0.00000012
-0.57009714 -0.33601294 0.00000031
-0.32071133 -0.21471831 0.00000146
-0.30379551 0.09205842 0.00634004
-0.11255506 -0.18587170 0.00000154
-0.08354608 0.63300470 0.00862807
-0.17546754 0.25449618 0.00000264
-0.34479761 0.12352258 0.00000530
-0.71830979 -0.24340230 0.17167739
-0.00818692 0.74216968 0.00000445
-0.34871065 -0.07252936 0.00000498
-0.18692124 0.05810156 0.00000860
-0.70913847 -0.32867059 0.14498331
-0.21478767 0.10861106 -0.00000399
-0.59022942 -0.09106327 0.13268950
-0.42755477 0.34222364 0.00000115
-0.44853503 -0.36728254 0.00000108
-0.76936894 -0.63521138 0.10493812
-0.34069475 0.27034465 0.00000164
-0.59589461 -0.37935321 0.00000013
-0.38854448 -0.63407354 0.00000041
-0.53081424 -0.00532353 0.11834473
-0.29412916 -0.60318422 0.00000315
-0.18028163 0.05195944 0.00000876
-0.56968001 -0.44318730 0.03284822
-0.45508224 -0.26094988 0.00938035
-0.59778317 -0.08135072 0.13963555
-0.32396858 -0.44421304 0.00000382
-0.04885632 -0.47894461 0.00000080
-0.00002333 0.16254160 0.00000241
-0.16329506 -0.07550050 0.00000181
-0.17037439 -0.79062691 0.00000157
-0.30208700 -0.19214424 0.00000152
-0.68405929 0.10394620 -0.00000112
-0.36388253 -0.11694951 0.00000171
-0.43731613 0.31759051 0.00000125
-0.37121323 0.22407773 0.00000143
-0.43376058 0.29599307 0.00000082
-0.13146326 0.18914904 -0.00000465
-0.38946860 -0.12589253 0.00357744
-0.32824546 0.16842693 0.00000509
-0.10347915 -0.03469273 0.00000191
-0.52883065 -0.08249452 0.00000040
-0.26859367 -0.61203781 0.00000047
-0.09082833 0.47748543 0.00000319
-0.09214703 -0.02390321 0.00000194
-0.66642512 -0.77008439 -0.00000006
-0.38640752 -0.15284012 0.00000162
-0.37611303 0.03683313 0.03599861
-0.11180606 -0.78251330 0.00000106
-0.26440231 0.19080132 0.00724429
-0.05335129 -0.57082139 0.00000106
-0.09828443 -0.77227090 0.00000007
-0.08849426 0.07070157 0.00000218
-0.07118250 0.05015524 0.00001042
-0.52876025 -0.14795362 0.00000047
-0.36963063 0.40605083 0.00000151
-0.13792084 0.27588496 0.00000716
-0.03030827 0.11535318 0.00000256
-0.06718897 -0.71173173 0.00000083
-0.25583144 -0.29731833 0.00000126
-0.32404010 0.16998866 0.00000189
-0.09902128 -0.65520673 0.00000126
-0.15509661 -0.25693607 0.00000136
-0.20764255 0.09325518 0.00000223
-0.21426718 0.46092636 0.04429617
-0.52462917 -0.26509623 0.00000062
-0.47245439 0.03219555 0.00000391
-0.11567181 -0.52796737 0.00000068
-0.22719318 -0.53904132 0.00000065
-0.16515933 -0.60526640 0.00000198
-0.14826563 0.39373511 0.00000583
-0.15742176 0.13331557 0.00000233
-0.68683376 -0.40737544 0.11204039
-0.56629643 0.03208265 0.00000211
-0.34545475 -0.54757128 0.00000376
-0.47469517 0.19266912 0.13388230
-0.63962525 -0.55320212 0.04747378
-0.33504855 -0.29353075 0.00000127
-0.15676790 -0.54963028 0.00000205
-0.39349250 0.28484315 0.10806992
-0.43624665 0.27512682 0.13130758
-0.75008656 0.04263069 -0.00000154
-0.73657745 -0.79022048 0.04673968
-0.58337459 0.19225084 -0.00000035
-0.05665125 0.31826871 0.00000796
-0.26926841 -0.29968636 0.00000369
-0.60526485 0.03407369 0.17281041
-0.72874730 -0.10859921 -0.00000128
-0.04364772 0.17467049 -0.00000732
-0.47468263 0.07221512 0.10394043
-0.32978778 -0.00633364 0.00000497
-0.38141679 -0.07599441 0.01114731
-0.25073561 -0.24692704 0.00000365
-0.72393447 -0.62313994 0.08067771
-0.15234851 0.49799925 0.01635863
-0.27094337 0.34527670 0.00000216
-0.62643454 -0.47179469 0.05979117
-0.75351448 -0.35047628 -0.00000112
-0.18812598 -0.44513053 0.00000259
-0.23148078 0.23816706 0.00000469
-0.19608299 -0.09893794 0.00000353
-0.07184092 0.69294723 0.01650317
-0.76496531 0.01013696 -0.00000145
-0.62494335 -0.68115691 0.00686468
-0.45836371 0.31370236 0.00000089
-0.00898436 0.65220582 0.00000371
-0.39001033 -0.36345912 0.00000462
-0.70711302 -0.22605963 0.16926945
-0.11833365 -0.34573570 0.00000221
-0.39130097 -0.69303337 0.00000027
-0.13410285 0.42417536 0.00000573
-0.70160498 -0.36653065 0.13105405
-0.61679156 -0.04137935 0.16097444
-0.16885991 0.10007277 0.00000225
-0.04807035 0.52852906 0.00000376
-0.15461747 0.56675002 0.00000292
-0.30364712 0.21509783 0.00000201
-0.42122616 0.13288877 0.08694163
-0.06892285 -0.52305681 0.00000069
-0.26045783 -0.48613372 0.00000314
-0.29990221 -0.07870559 0.00000452
-0.30208055 0.33076458 0.06463555
-0.43790559 -0.76792998 0.00000008
-0.65060729 -0.30717424 -0.00000041
-0.43762826 -0.26174960 0.00000135
-0.76382589 -0.60216087 -0.00000049
-0.10859545 0.68379852 0.00000327
-0.13185372 0.62245643 0.03499253
-0.09847248 0.49205849 0.00000559
-0.38805207 0.23619404 0.00000127
-0.41733679 -0.06638837 0.00000133
-0.06090000 -0.67367600 0.00000087
-0.12629520 0.58592899 0.02257798
-0.22779161 0.14143361 0.00000442
-0.40175734 0.13132498 0.07487568
-0.33076544 0.07014869 0.01707683
-0.14845899 0.18607018 0.00000381
-0.19904533 0.14885111 0.00000751
-0.47254841 0.01840699 0.08928723
-0.76264579 -0.24463204 -0.00000139
-0.22033753 0.02388297 0.00000844
-0.51302646 -0.48513129 0.00000543
-0.46578847 -0.60281990 0.00000471
-0.36549706 0.05916160 0.03517844
-0.36367673 -0.02040844 0.01431782
-0.53301650 -0.48656557 0.00000078
-0.10411274 0.30276810 0.00000276
-0.05016374 -0.29954634 0.00000125
-0.26043539 -0.44016335 0.00000090
-0.38697873 -0.13127456 0.00074596
-0.29446673 0.07214258 0.00000684
-0.37181825 0.06269206 0.03984877
-0.01981500 0.70293061 0.00000394
-0.26968276 0.20760622 0.01458899
-0.27052051 0.38329591 0.00000368
-0.66324275 -0.12296430 0.16856915
-0.07171605 -0.00851128 0.00000263
-0.56237182 0.14329667 0.17421883
-0.67561437 -0.68792587 0.03558494
-0.39919690 -0.22192495 0.00000506
-0.25260362 -0.56868040 0.00000287
-0.45859253 -0.42427500 0.00000094
-0.75796814 -0.29842390 -0.00000125
-0.09619492 -0.09477079 0.00000176
-0.25656890 -0.11686665 0.00000403
-0.20484267 0.13947233 0.00000751
-0.31796413 0.35294266 0.07967566
-0.54694771 -0.03915597 0.00000020
-0.26413046 0.23171343 0.01724887
-0.24449281 -0.10610003 0.00000395
-0.11410729 0.67172879 0.00000316
-0.19682251 -0.37747528 0.00000106
-0.63596061 0.03788533 -0.00000064
-0.11773603 0.26235326 0.00000372
-0.18084363 -0.37021872 0.00000107
-0.08051776 0.64440352 0.00000347
-0.16866663 0.47866599 0.02134199
-0.19977340 0.05562844 0.00000214
-0.74356524 -0.69036236 0.07574961
-0.45718925 -0.16144907 0.00000109
-0.14571736 0.47753469 0.00000498
-0.12557682 -0.69300930 0.00000027
-0.16204554 0.29245955 0.00000663
-0.03569963 0.49547644 -0.00000112
-0.07058359 -0.00984684 0.00000261
-0.21940179 0.52208700 0.06257689
-0.17198543 0.42456104 0.00000292
-0.36468935 0.07206788 0.00000552
-0.51125707 -0.13927277 0.07332497
-0.54459042 -0.19109248 0.00000038
-0.27407339 0.45887766 0.00000273
-0.26390817 -0.17360362 0.00000157
-0.22910130 0.06982596 0.00000217
-0.32839678 0.32379002 0.07868971
-0.38329220 0.07451887 0.04967888
-0.00576522 0.64331620 0.00000102
-0.42749725 -0.70038681 0.00000412
-0.46320841 -0.39132996 0.00000522
-0.42391488 -0.17991811 0.00000140
-0.21523424 0.00248702 0.00000395
-0.16847565 -0.40495683 0.00000251
-0.42780131 0.32771579 0.00000131
-0.30067839 0.32468812 0.06228131
-0.07968727 -0.46345742 0.00000156
-0.07389523 0.21445287 0.00000254
-0.28622084 0.31608667 0.00000417
-0.09791406 -0.42714384 0.00000182
-0.24640089 -0.76300508 0.00000232
-0.68214939 -0.45311055 0.09786345
-0.21536467 -0.78076581 0.00000005
-0.21495308 0.46856826 0.00000375
-0.52399193 0.06430592 0.13155729
-0.71267196 -0.75437719 0.04130447
-0.40839550 0.30899765 0.00000190
-0.43848309 0.32448972 0.00000114
-0.65196139 -0.08275875 -0.00000065
-0.07965000 0.38202188 0.00000368
-0.43636378 0.34942804 0.00000089
-0.24612298 -0.41227456 0.00000097
-0.17000833 0.43888423 0.00000496
-0.01780839 0.27387522 0.00000285
-0.09597752 0.22645087 0.00000257
-0.64639731 0.01935091 -0.00000071
-0.78064017 -0.17804209 -0.00000155
-0.70498411 -0.06981420 -0.00000112
-0.78837615 -0.79294121 -0.00000002
-0.72180260 -0.48600400 0.11348037
-0.47322795 0.04503418 0.09630794
-0.09282087 0.38676385 0.00000381
-0.15657719 -0.38550774 0.00000245
-0.54437756 -0.59402307 0.00000544
-0.16704542 -0.41209145 0.00000097
-0.26304356 -0.52210598 0.00000069
-0.42185027 -0.33596487 0.00000116
-0.38930041 0.30343087 0.11017419
-0.72250119 -0.50513239 -0.00000074
-0.27843660 0.02444014 -0.00000395
-0.74201662 -0.35893998 0.15718733
-0.07514234 0.29761364 0.00000789
-0.34688854 -0.42014542 0.00000095
-0.29444100 0.32805192 0.05937480
-0.04772801 0.16515642 0.00000284
-0.37982966 -0.77654247 0.00000006
-0.64301893 -0.06003478 -0.00000060
-0.27734151 0.24181392 0.02768570
-0.58761431 -0.07220153 0.13580805
-0.42105941 0.26234908 0.11901967
-0.11197767 0.66226955 0.00000346
-0.09859511 -0.72599608 0.00000108
-0.43251091 -0.41427614 0.00000488
-0.38830305 -0.70419635 0.00000375
-0.32873222 -0.74086439 0.00000015
-0.12865060 0.30948551 0.00000394
-0.18152651 0.33228990 0.00000447
-0.68474639 0.01031729 0.21459512
-0.46730229 -0.10438903 0.00000095
-0.27843489 -0.69986392 0.00000025
-0.42659240 0.17204633 0.09989695
-0.01633121 -0.35294169 0.00000112
-0.06020926 -0.78956776 0.00000057
-0.71103536 0.05016772 -0.00000088
-0.02396431 0.34367547 0.00000286
-0.01011504 0.48343007 0.00000701
-0.10208786 0.38094932 0.00000388
-0.25920668 0.09263911 0.00000223
-0.33389778 0.23771808 0.06059762
-0.21237615 0.18861307 0.00000439
-0.21906024 0.28734850 0.00403354
-0.72011649 -0.71859287 0.05466447
-0.05015780 0.25412673 0.00000309
-0.64855649 -0.76509148 0.00000008
-0.48995457 0.20761300 0.14675250
-0.51839936 -0.28348057 0.04177106
-0.53702726 -0.03115528 0.11565695
-0.06385666 0.68708630 0.01025574
-0.66926855 -0.09250907 0.17975351
-0.25165715 -0.06663804 0.00000183
-0.42282289 0.17682485 0.09881982
-0.72143153 0.00686638 -0.00000057
-0.16767597 0.05813423 0.00000366
-0.26447523 -0.50874714 0.00000073
-0.69309727 -0.03646405 0.20797930
-0.06743174 0.07831371 -0.00000860
-0.41168827 -0.57502000 0.00000056
-0.71614283 -0.29288432 -0.00000098
-0.62882564 -0.11592417 0.14966860
-0.58848829 0.13751854 0.18845314
-0.46579117 0.08733828 0.10236021
-0.42985453 0.17743712 0.00000303
-0.22730518 0.30885446 0.00000538
-0.01702212 0.74099356 0.00000328
-0.46223525 -0.48140512 0.00000080
-0.21622495 0.52275724 0.06083667
-0.26035048 0.05888531 0.00000450
-0.29714160 0.40710931 0.08064458
-0.64861839 -0.65486946 0.02760275
-0.66560374 0.10406805 -0.00000096
-0.44430627 0.26652988 0.00000076
-0.30047262 -0.60150527 0.00000050
-0.03417995 -0.15491575 0.00000192
-0.72381020 -0.72407473 0.05551829
-0.13987017 0.14810784 -0.00000524
-0.24033525 0.29664138 0.01910326
-0.46699719 0.23824002 0.00000060
-0.05066727 -0.31377228 0.00000122
-0.57745536 0.11315961 -0.00000022
-0.64670404 -0.22397491 -0.00000046
-0.41363838 0.14960588 0.08654377
-0.08337189 -0.03655983 0.00000266
-0.50446202 0.21352605 0.15692693
-0.49864098 -0.76264609 0.00000461
-0.45323222 -0.00654158 0.07149720
-0.24841270 0.17738838 0.00000244
-0.71990454 -0.42465836 -0.00000088
-0.03691932 0.31866820 0.00000826
-0.51029563 0.23306789 0.00000023
-0.10212254 -0.64121358 0.00000040
-0.53487066 0.00398868 0.12309715
-0.29206004 -0.31597940 0.00000385
-0.52035443 0.21365670 0.00000087
-0.52034507 0.19882267 0.16280297
-0.34968346 0.14085850 0.04600077
-0.45228310 -0.24955541 0.00000123
-0.14635426 0.15347357 0.00000238
-0.51780553 0.13912020 0.00000179
-0.24678630 0.20390341 0.00000474
-0.23690875 -0.61391896 0.00000261
-0.23868604 0.46275343 0.05940151
-0.05297405 0.33133287 0.00000283
-0.30136362 0.07744690 0.00124958
-0.17248383 -0.51947670 0.00000070
-0.55268905 -0.54405239 0.00000064
-0.47208872 -0.49129581 0.00000077
-0.40330683 0.30210891 0.11824857
-0.03220725 0.62422994 0.00000136
-0.02529803 -0.02131873 0.00000218
-0.08332073 0.11613150 0.00000229
-0.12259881 0.48320867 0.00000532
-0.08142479 -0.28839529 0.00000202
-0.56883495 -0.47017915 0.02563303
-0.38897569 0.14881586 0.07154928
-0.17295253 -0.74854364 0.00000169
-0.25182849 -0.67232691 0.00000260
-0.07670976 -0.59224142 0.00000052
-0.45940179 0.18670741 0.00000236
-0.64837665 -0.29662870 0.11648955
-0.46614478 -0.34487783 0.00000114
-0.26867323 0.30499225 0.00000222
-0.50260286 -0.48453269 0.00000534
-0.40712335 0.10327866 0.07112019
-0.02091291 -0.46009895 0.00000104
-0.56541488 -0.52809468 0.00918753
-0.56244221 -0.17514155 0.09512166
-0.21936009 0.46869286 0.04928208
-0.04769259 0.67045792 0.00000411
-0.63812294 0.01320757 0.00000095
-0.58857757 0.03261921 0.16243660
-0.54051460 -0.58437902 0.00000054
-0.47006211 0.20453720 0.13405212
-0.60964572 -0.09212078 -0.00000028
-0.69357336 -0.05071852 0.20472235
-0.32367624 -0.04607909 0.00000188
-0.16295861 0.42716877 0.00000300
-0.40556945 -0.61154971 0.00000047
-0.08420906 0.65196841 0.01374030
-0.58567332 0.03351624 0.16091478
-0.63976685 -0.07990829 -0.00000055
-0.75229191 -0.01811751 -0.00000157
-0.29405222 -0.02173818 0.00000461
-0.46333422 -0.56702490 0.00000058
-0.72086911 -0.74489713 0.04857875
-0.20928378 0.46367842 0.00000392
-0.30435038 -0.22862870 0.00000143
-0.06771906 -0.14472722 0.00000225
-0.60269325 -0.29915313 0.08845221
-0.21566411 -0.43963471 0.00000285
-0.07098975 0.49141400 0.00000601
-0.68293630 -0.46103502 -0.00000052
-0.58764693 -0.12493787 0.12272132
-0.23218323 0.42125907 0.00000241
-0.39093669 0.17860445 0.00000131
-0.17156898 -0.33526927 0.00000272
-0.07758212 0.04254885 0.00000281
-0.44326993 -0.72960363 0.00000419
-0.20941906 0.08437600 0.00000411
-0.21522892 0.34024082 0.00000525
-0.73516738 -0.50012535 0.11798966
-0.65900503 -0.24067459 -0.00000055
-0.04242741 -0.78950525 0.00000003
-0.45169102 -0.70724618 0.00000023
-0.58103710 -0.04628406 -0.00000008
-0.14553176 -0.40234830 0.00000099
-0.59323684 -0.74273814 0.00000014
-0.20182806 -0.12109901 0.00000170
-0.34829704 0.33778812 0.00000151
-0.14788006 0.55769274 0.02851136
-0.53513026 -0.27096544 0.00000054
-0.63052663 0.13963935 -0.00000038
-0.12219128 0.03824336 0.00000320
-0.32745422 0.26155605 0.06265617
-0.20937100 -0.45991178 0.00000085
-0.40314409 -0.69382396 0.00000392
-0.13005397 0.03648003 0.00000967
-0.07212967 0.18157935 0.00000311
-0.24309705 0.06629401 0.00000217
-0.22898752 0.16362310 -0.00000251
-0.11858602 0.42339905 -0.00000031
-0.21382023 -0.22320935 0.00000338
-0.38474633 0.25911488 0.00000128
-0.13065680 0.60057848 0.02883717
-0.19443234 -0.02383906 0.00000194
-0.11701546 0.56458312 0.00000451
-0.21208518 0.43752195 0.03716786
-0.09464530 0.49112261 0.00000566
-0.01862821 0.11482875 0.00000246
-0.15489303 0.39635794 0.00000570
-0.59981182 0.06664789 0.00000106
-0.26018718 -0.57701338 0.00000056
-0.18370327 0.54697933 0.00000269
-0.42514231 0.00808118 0.05827104
-0.41013154 -0.71486936 0.00000021
-0.57582983 -0.43526355 0.03850735
-0.52135432 -0.35316835 0.02622487
-0.37496620 0.07072997 0.04374166
-0.18837576 -0.36149818 0.00000280
-0.64157634 -0.18676104 -0.00000045
-0.07624033 0.52730996 0.00000062
-0.30645558 -0.13191094 0.00000167
-0.13416312 -0.18645622 0.00000153
-0.28942741 0.36308997 0.06507509
-0.17558191 0.52821496 0.00000278
-0.19381220 0.42335028 0.00000469
-0.45116794 -0.50151600 0.00000483
-0.63740562 0.05314792 -0.00000067
-0.59799660 0.10341315 0.00000067
-0.33798746 -0.62331339 0.00000044
-0.73357824 -0.45549878 0.12812702
-0.08532956 -0.56232896 0.00000059
-0.00092287 -0.17801076 0.00000156
-0.56919386 -0.36671183 0.05156260
-0.09267463 -0.64050678 0.00000040
-0.42640034 -0.67798308 0.00000417
-0.62120277 -0.41730612 -0.00000004
-0.45214754 -0.00599694 0.07097569
-0.49482581 -0.35104847 0.00000097
-0.31941701 0.32646223 0.07396815
-0.17767763 0.26919796 -0.00000179
-0.75401884 -0.55369200 -0.00000062
-0.55891581 -0.29768305 0.06255118
-0.25555364 0.11016211 0.00000459
-0.03651610 -0.18610518 0.00000153
-0.24706642 0.06697510 0.00000440
-0.01887082 0.21153999 -0.00000726
-0.43798389 -0.35604752 0.00000111
-0.63315700 -0.71373594 0.00000016
-0.02767555 -0.04610073 0.00000214
-0.64130339 -0.32128496 -0.00000031
-0.00437725 -0.05018947 0.00000191
-0.08618519 -0.08873795 0.00000256
-0.67788539 0.11061102 -0.00000107
-0.06852487 0.36353962 0.00000291
-0.32853261 -0.19372541 0.00000152
-0.27169985 0.46558797 0.00000270
-0.61828797 -0.56327863 0.00000013
-0.37024341 -0.64192954 0.00000040
-0.54230440 -0.71887894 0.00000511
-0.39178875 -0.36157142 0.00000464
-0.57950803 0.11184399 0.17668424
-0.50807973 0.19174637 0.15368515
-0.73573211 -0.53009905 -0.00000067
-0.23209747 -0.30115338 0.00000125
-0.40309652 0.26190305 0.10812939
-0.67831770 -0.15801750 -0.00000080
-0.54302012 0.10943581 0.00000008
-0.25946394 0.07563852 0.00000219
-0.28573687 -0.71738666 0.00000279
-0.07557508 0.67920455 0.01532879
-0.56015359 -0.29070054 0.00000035
-0.19330968 -0.75539927 0.00000186
-0.34911725 0.42493577 0.00000169
-0.42307521 -0.04066582 0.04492233
-0.45001798 0.27977107 0.00000145
-0.43722438 0.21183164 0.11616180
-0.52999341 -0.13213240 0.08634129
-0.22835988 -0.53609580 0.00000273
-0.70002709 -0.76917995 -0.00000008
-0.24789295 0.06820304 0.00000758
-0.16779829 0.31092845 -0.00000122
-0.70565352 -0.55538429 0.08654823
-0.29662562 -0.44852709 0.00000088
-0.66756319 -0.57010141 -0.00000028
-0.12072726 -0.32738883 0.00000227
-0.60335431 0.04965172 0.17553415
-0.27249152 0.37549714 0.05799935
-0.22386735 0.20075759 0.00000661
-0.10056769 0.32741199 0.00000282
-0.17447916 0.35243733 0.00000288
-0.25461588 0.48403932 0.00000281
-0.02528866 0.04165364 0.00001120
-0.19114441 0.38448019 0.01141967
-0.74786973 -0.34922388 -0.00000113
-0.40459806 -0.12184446 0.01366113
-0.15271423 0.55149409 0.00000295
-0.21890317 -0.74589283 0.00000014
-0.40273523 -0.44988377 0.00000452
-0.38296479 0.02183497 0.03638917
-0.00329253 -0.55747654 0.00000064
-0.09794427 -0.22472595 0.00000144
-0.18140736 0.59749647 0.00000266
-0.37193464 -0.43512064 0.00000428
-0.76522639 -0.09730786 -0.00000160
-0.08102436 -0.04229304 0.00000189
-0.09024159 -0.27446219 0.00000213
-0.51885049 0.23744878 0.00000015
-0.27612234 0.35735633 0.05566939
-0.46685799 -0.26309078 0.00000112
-0.53456156 0.02492591 0.00000281
-0.47208718 -0.15262932 0.04650367
-0.03446651 0.20316572 -0.00000700
-0.23238596 0.06262976 -0.00000444
-0.70622294 -0.43251167 0.11742685
-0.18757819 0.53054453 0.04558470
-0.23528841 -0.30516610 0.00000337
-0.21737261 -0.29768673 0.00000126
-0.04725258 -0.14747506 0.00000206
-0.56029701 -0.53488056 0.00000060
-0.30716806 0.30848589 0.00000385
-0.65778746 -0.43650754 0.08737261
-0.09177928 0.67898223 0.00000365
-0.59100527 0.07482984 -0.00000029
-0.55278072 -0.54333220 0.00000565
-0.14842426 0.10231703 0.00000226
-0.20692473 0.44404669 0.00000419
-0.41755958 -0.44750452 0.00000088
-0.61288657 0.09425405 0.19233976
-0.15343988 0.17066288 0.00000382
-0.42001601 -0.61023744 0.00000047
-0.07665099 -0.03266779 0.00000261
-0.42505130 0.31258241 0.00000088
-0.32362446 0.27291595 0.00000395
-0.69489446 -0.11461940 -0.00000098
-0.28191140 0.41654062 0.07385025
-0.70912435 -0.25632280 -0.00000096
-0.11835785 0.31774816 0.00000387
-0.14334237 0.65085771 0.00000293
-0.17231817 -0.01670982 0.00000196
-0.53952211 -0.14241961 0.08950187
-0.57830257 0.08617746 0.00000125
-0.56241221 -0.15623395 0.09980267
-0.56237052 -0.66811720 0.00000033
-0.36434097 -0.74297916 0.00000014
-0.54339050 -0.47517002 0.00000068
-0.46313928 0.05941218 0.09382811
-0.33057854 0.28388193 0.07007983
-0.58472080 0.06398815 0.16791691
-0.64695070 -0.05623868 -0.00000064
-0.52223280 -0.27960429 0.04503447
-0.59689179 -0.08057260 0.13929410
-0.56120915 -0.06183253 0.12254196
-0.32244145 -0.56757766 0.00000058
-0.33682157 0.19296765 0.05123410
-0.19162154 0.59554082 0.00000271
-0.10120277 0.35013728 -0.00000225
-0.37255571 0.26268842 0.00000138
-0.35913581 0.20853705 0.06848816
-0.06509879 0.47004392 0.00000632
-0.26189845 0.45887251 0.00000212
-0.00797432 -0.55362564 0.00000069
-0.13821250 -0.71997586 0.00000020
-0.19980047 -0.39168947 0.00000102
-0.72204927 -0.03230224 0.22638476
-0.10881582 0.67200301 0.00000341
-0.48571620 0.16756320 0.00000051
-0.45952281 -0.73077613 0.00000017
-0.62188835 0.08608495 0.19571059
-0.13631300 -0.23705002 0.00000264
-0.17157331 -0.71519454 0.00000177
-0.62739067 -0.58017307 0.03343009
-0.05713064 0.10896415 0.00000227
-0.09097818 0.18672017 0.00000876
-0.18317591 -0.74892387 0.00000013
-0.00456910 0.39049801 0.00000298
-0.00577874 0.40160643 0.00000300
-0.25140796 -0.33068489 0.00000345
-0.13511920 -0.29323161 0.00000127
-0.09456394 0.60188237 0.00000450
-0.17583092 -0.56302871 0.00000218
-0.14731710 0.45025873 0.00000310
-0.45459849 -0.33258120 0.00000528
-0.78590754 -0.68104788 -0.00000030
-0.31592663 0.02010157 0.00000703
-0.09682158 -0.65422217 0.00000124
-0.02044601 0.25308627 -0.00000638
-0.68486207 -0.73119706 0.03037952
-0.41780603 0.08347391 0.07260764
-0.26287490 0.47130698 0.00000280
-0.42108120 0.20216157 0.10407463
-0.17918211 -0.28865570 0.00000290
-0.28792854 0.10669213 0.00044920
-0.34391542 0.35515777 0.09579753
-0.23448309 -0.23905417 0.00000140
-0.11812447 -0.27143799 0.00000239
-0.19626692 0.42889620 0.02553575
-0.50075105 -0.23472965 0.04329794
-0.34584018 0.12695549 0.04023957
-0.25851026 -0.77833274 0.00000005
-0.16555543 -0.72333140 0.00000019
-0.06173303 0.47842751 0.00000320
-0.65113908 -0.63924027 0.03299941
-0.12648147 0.65863613 0.00000323
-0.04688715 -0.58337400 0.00000054
-0.38228074 0.37943006 0.00000158
-0.46984528 0.17548547 0.12670134
-0.03419584 -0.49611617 0.00000107
-0.26371109 0.05921366 0.00000215
-0.07143836 0.30799479 0.00000342
-0.23937965 0.18653685 0.00000463
-0.06016576 0.04198249 -0.00000953
-0.36331611 -0.32026086 0.00000449
-0.62349384 -0.20309390 -0.00000028
-0.69005226 -0.22424027 -0.00000083
-0.56137251 -0.37201258 0.00000042
-0.01156738 0.39253754 0.00000790
-0.11049514 0.08979764 -0.00000720
-0.39259218 -0.05310693 0.02354063
-0.78085300 -0.51982153 -0.00000070
-0.49508537 0.24875516 0.00000094
-0.50880280 -0.73206690 0.00000478
-0.11927674 0.43000614 0.00000415
-0.06318617 0.39217248 -0.00000244
-0.00874483 0.55861591 0.00000348
-0.14946198 -0.37777319 0.00000241
-0.28455064 0.38519650 0.00000200
-0.07708327 -0.45906052 0.00000155
-0.36285063 -0.59617619 0.00000051
-0.37708764 -0.79007435 0.00000002
-0.73164632 -0.25686837 -0.00000115
-0.62712255 -0.34823555 -0.00000016
-0.15517803 0.59362909 0.04182276
-0.54045313 -0.21621697 0.07171998
-0.56730035 -0.13100023 0.10900676
-0.08291205 -0.45559219 0.00000161
-0.02253811 0.29837450 0.00000275
-0.28816783 0.20612102 0.00000216
-0.49059846 -0.35248800 0.00000101
-0.41510171 -0.68431744 0.00000029
-0.54335351 0.17589012 0.17090840
-0.02526213 0.52075225 0.00000330
-0.60051409 -0.34735299 0.00000006
-0.47666487 -0.07967908 0.06738024
-0.17118092 0.27862419 0.00000425
-0.66853292 -0.03566272 -0.00000084
-0.24809762 -0.68880890 0.00000028
-0.10776754 0.36485725 0.00000291
-0.10419835 0.57066466 0.00552781
-0.35649552 -0.46530827 0.00000084
-0.10958466 -0.17233742 0.00000256
-0.47922811 -0.01463847 0.00000075
-0.72078619 -0.07226289 0.21569568
-0.32517153 0.41748171 0.00000223
-0.41164591 -0.25683678 0.00000136
-0.66061854 -0.77444067 -0.00000001
-0.22893653 0.08268111 0.00000772
-0.10796362 0.02436549 -0.00000858
-0.22163405 0.45273466 0.00000247
-0.61128775 0.15223506 -0.00000055
-0.18420723 -0.67025147 0.00000032
-0.12537841 -0.24263673 0.00000139
-0.33700572 0.38141890 0.09817946
-0.09714231 0.58534522 0.00494269
-0.69830538 -0.07366182 0.20185957
-0.17696545 0.12223827 0.00000811
-0.43718056 0.27972226 0.00000169
-0.44164988 0.26739997 0.13262919
-0.16684584 0.44332898 0.00000295
-0.21541128 0.03674113 0.00000838
-0.38402531 0.30251525 0.10678159
-0.44663226 0.22640144 0.00000078
-0.13721457 -0.62998272 0.00000043
-0.34492831 -0.61224971 0.00000359
-0.08359979 0.58462231 0.00000346
-0.01742246 -0.19621426 0.00000167
-0.58314426 -0.01445139 0.14747516
-0.64948456 -0.42532151 -0.00000027
-0.03046117 -0.79054876 0.00000002
-0.06170418 -0.22844091 0.00000199
-0.64660291 -0.20391800 0.13846625
-0.10201811 0.26257088 -0.00000398
-0.08318277 0.56411645 0.00000416
-0.16934679 0.36784596 0.00000445
-0.50467281 -0.78363224 0.00000004
-0.40893175 0.27887288 0.11584968
-0.28813454 -0.28007775 0.00000130
-0.21571790 -0.36365971 0.00000304
-0.39700266 0.22550604 0.00000310
-0.69783314 -0.05662112 0.20581127
-0.01308139 0.04062758 0.00000210
-0.41876654 0.07207581 0.00000118
-0.42043020 -0.70775620 0.00000404
-0.10849051 -0.72254139 0.00000118
-0.52176090 0.10478206 0.14028101
-0.74569401 -0.53931827 0.11456515
-0.24369708 -0.12177653 0.00000390
-0.27152429 -0.12662676 0.00000414
-0.47159059 -0.56345121 0.00000486
-0.27964300 0.09485872 -0.00000251
-0.21829930 0.13920523 0.00000731
-0.33279077 -0.56850785 0.00000359
-0.44817862 -0.57014421 0.00000057
-0.38095284 -0.62729892 0.00000043
-0.63352771 -0.69513578 0.00000014
-0.47868271 0.13162320 0.00000061
-0.36987887 0.04741644 0.03489528
-0.04069823 -0.23310123 0.00000142
-0.56061161 -0.08180172 0.11722060
-0.22339414 0.46596419 0.00000362
-0.09178489 -0.36198646 0.00000110
-0.01983367 0.51137300 0.00000328
-0.41195216 -0.51004029 0.00000445
-0.05451600 0.47168902 -0.00000109
-0.14679903 0.22885641 0.00000390
-0.70671943 -0.29254710 -0.00000090
-0.06220637 0.07457023 -0.00000882
-0.21768018 -0.59336906 0.00000249
-0.30246173 0.34686913 0.00000189
-0.53123250 -0.44157820 0.01017968
-0.31015866 0.31961118 0.06670782
-0.69358306 -0.36905445 -0.00000071
-0.54672873 0.09408079 0.00000176
-0.64229474 -0.31262386 0.10886521
-0.27467585 -0.14393850 0.00000164
-0.51145200 -0.00062091 0.10790040
-0.32985413 -0.50466446 0.00000372
-0.11939779 -0.45443280 0.00000086
-0.77852156 -0.04191623 -0.00000177
-0.12370898 0.64273151 0.00000311
-0.56625202 0.19954083 -0.00000021
-0.59118998 -0.65277137 0.00000572
-0.44999601 -0.39362713 0.00000102
-0.01023889 0.05123154 -0.00001070
-0.16226827 0.56247421 0.03833412
-0.64700119 -0.37710791 0.09566317
-0.02619779 -0.37038096 0.00000131
-0.62119569 -0.52690836 0.00000007
-0.53588118 -0.48674628 0.00000076
-0.17041320 -0.40068199 0.00000100
-0.25032284 0.45078071 0.00000328
-0.00993514 0.40262144 0.00000310
-0.56400694 -0.61829384 0.00000045
-0.61020005 -0.43954734 0.00000008
-0.27859053 0.21991192 0.02299191
-0.73612635 -0.11643341 0.21392224
-0.44181595 0.21863578 0.00000232
-0.03908543 0.63234478 0.00000509
-0.08915548 0.36393495 0.00000702
-0.40714826 -0.19027162 0.00000521
-0.25435088 0.18077420 -0.00000148
-0.13358244 0.43020088 0.00000308
-0.08688660 0.60171594 0.00285782
-0.29519222 -0.57332099 0.00000057
-0.70325088 -0.57024064 -0.00000057
-0.72282165 -0.62319036 0.07999750
-0.15450308 0.13943311 0.00000375
-0.25052860 -0.39785945 0.00000101
-0.41876266 0.26754562 0.11893184
-0.59371613 0.00632543 -0.00000025
-0.66292029 -0.69833011 -0.00000011
-0.17492666 -0.69501181 0.00000185
-0.33021883 0.00496405 0.00000696
-0.43630543 0.29915619 0.13731453
-0.52528382 -0.52391738 0.00000069
-0.43991011 -0.45994346 0.00000085
-0.09908906 -0.74375389 0.00000014
-0.04246202 0.65604443 0.00000227
-0.16853771 0.36591165 0.00000291
-0.11424104 -0.57985195 0.00000055
-0.53261293 0.05182381 0.00000253
-0.49919260 0.22415968 0.00000115
-0.17429655 -0.28127813 0.00000287
-0.18124571 0.07488328 0.00000383
-0.53192579 -0.73312007 0.00000498
-0.11421072 -0.46554845 0.00000084
-0.12750941 0.60374201 0.02773388
-0.48139225 -0.22279338 0.00000095
-0.35849738 -0.67403888 0.00000356
-0.66733318 -0.20666656 0.15022129
-0.17486020 0.26381970 0.00000424
-0.22078315 0.15143597 0.00000715
-0.32677660 0.39816712 0.09620366
-0.72106626 -0.00257741 -0.00000132
