ply
format ascii 1.0
element vertex 1380
property float x
property float y
property float z
end_header
-0.25056864 0.70714230 0.11151613
0.22353258 -0.72230166 -0.00000005
-0.30008382 -0.75063272 -0.00000003
0.28465994 -0.11174392 -0.00000043
0.50067456 0.18142187 -0.00000140
-0.74981084 0.04204781 -0.00000006
0.68692561 -0.41487963 -0.00000083
0.41796804 0.33764498 -0.00000144
0.22740884 0.18387469 -0.00000061
-0.01773869 0.53131702 -0.00000083
0.05351848 0.28318722 -0.00000068
0.49349121 0.06084409 0.00000279
0.41283705 -0.60729045 -0.00000012
0.10485830 0.10026204 0.00000879
0.26394787 0.28083255 -0.00000083
-0.33509878 0.62297293 0.11177132
0.63428389 0.01994263 0.00000082
-0.53594188 -0.22169646 -0.00000024
-0.59616730 -0.66001346 -0.00000009
0.00122638 0.55051209 0.00000304
0.09840515 0.23155686 -0.00000064
0.47862501 0.11745578 0.00000206
0.07721405 -0.03220258 -0.00000048
0.55090021 -0.67230066 -0.00000008
-0.26998180 -0.59344364 -0.00000013
0.18676113 -0.02238404 -0.00000049
-0.17057844 0.33841849 -0.00000071
-0.69438906 -0.71096506 0.00000000
-0.17281983 -0.27016056 -0.00000033
-0.76639693 -0.09322058 -0.00000002
-0.33211399 0.13700047 -0.00000052
-0.45230076 0.35397221 0.00443525
-0.15275937 -0.31632046 -0.00000030
0.41710414 0.14971268 0.00000267
0.73288723 -0.49497423 -0.00000076
0.45994151 -0.23995345 -0.00000044
-0.72642785 -0.56722645 0.00000000
0.79202649 -0.20506563 -0.00000149
0.65918377 -0.03901726 -0.00000147
-0.42187667 0.69100453 0.22123735
-0.53484609 -0.36692503 -0.00000022
-0.13368012 -0.10038816 -0.00000044
0.55824301 0.16180894 -0.00000026
0.10108642 0.43698493 -0.00000077
0.15766152 0.50359206 0.00000129
-0.27535602 -0.53824300 -0.00000016
0.47006961 -0.55214313 -0.00000015
-0.50468361 -0.35250458 -0.00000025
-0.67608111 0.20071548 0.05430295
0.71530013 -0.78709743 -0.00000003
-0.51990675 0.69711788 0.29487739
0.04794365 0.36894946 -0.00000073
-0.15431983 -0.55323604 -0.00000015
0.23314401 -0.22764184 -0.00000036
-0.43957780 -0.63961643 -0.00000010
-0.16634146 0.26084711 -0.00000066
-0.50474113 0.29771002 0.00173301
-0.35545380 -0.39324080 -0.00000025
0.12611510 0.12103626 0.00000813
-0.25261478 -0.14142018 -0.00000041
-0.05813215 -0.42781707 -0.00000023
-0.36702377 0.51287453 0.05649523
0.59062039 -0.19358372 -0.00000095
0.35135442 -0.47424557 -0.00000020
0.41308878 -0.45957687 -0.00000021
-0.53858224 -0.44231255 -0.00000020
0.04551641 -0.59605115 -0.00000013
0.37764013 0.17992243 0.00000288
0.76012147 -0.15005329 -0.00000158
-0.65049054 0.40600400 0.18136672
-0.09594519 -0.16994343 -0.00000039
-0.59290953 -0.58429000 -0.00000011
0.68329001 0.07063706 -0.00000103
-0.00959851 -0.46622093 -0.00000021
-0.64282111 -0.36784480 -0.00000010
0.56836045 -0.01670232 -0.00000123
0.14255598 -0.58311820 -0.00000014
-0.75048935 -0.09380209 -0.00000004
-0.16436400 -0.18073647 -0.00000039
0.74597248 -0.53486628 -0.00000066
-0.41333111 -0.34682729 -0.00000028
0.17391971 0.15268030 -0.00000060
-0.26156272 0.53820960 -0.00000067
-0.21052536 -0.10379949 -0.00000044
0.45796222 0.07505053 0.00000322
-0.09593121 0.19031628 -0.00000062
0.51321254 -0.05341546 -0.00000098
0.08089644 -0.00340836 -0.00000050
0.23821821 -0.75870500 -0.00000003
0.21287256 -0.63045276 -0.00000011
-0.07919970 0.51551763 -0.00000082
0.13979873 0.06773001 0.00000879
-0.47307562 0.15882782 -0.00000038
-0.20468920 0.45385643 -0.00000072
-0.70879556 -0.51148641 -0.00000000
-0.18243771 -0.73115374 -0.00000004
0.73682963 0.00456864 -0.00000181
0.06784715 0.54645939 0.00000210
-0.26081789 0.54885679 0.00684001
-0.32049115 -0.08873223 -0.00000044
0.29655573 0.04318439 -0.00000053
-0.69956666 -0.28215498 -0.00000006
0.03340494 0.52680117 0.00000294
-0.27987445 0.71122597 0.13512589
0.27771097 -0.20278651 -0.00000037
0.24053280 -0.15002071 -0.00000041
0.11596202 -0.01900252 -0.00000049
0.65560974 -0.32405494 -0.00000091
-0.45324410 0.41589589 0.04888832
-0.54994036 -0.39615278 -0.00000019
-0.05152957 -0.06184350 -0.00000046
0.69470171 -0.29732174 -0.00000108
0.13731776 0.04503520 -0.00000053
-0.07040579 0.78681629 0.04046015
0.10863414 -0.35091747 -0.00000028
0.15868058 0.13449728 -0.00000058
-0.68029807 0.43347453 0.22186797
-0.56877992 -0.52608108 -0.00000015
-0.43814514 0.43368827 0.05079278
0.67358733 0.00403956 0.00000036
0.10770839 -0.49575149 -0.00000019
-0.41963816 -0.17956630 -0.00000037
-0.33551292 0.53776306 0.05181251
-0.64159295 0.23449489 0.05380169
0.21291779 -0.37290877 -0.00000027
0.12250673 0.63777744 -0.00000108
-0.76469868 -0.33564649 0.00000000
-0.63839037 -0.04560095 -0.00000016
0.79400498 -0.07510109 -0.00000181
0.27493884 0.12758143 0.00000578
-0.71861570 -0.39999540 -0.00000001
-0.65782680 -0.39420156 -0.00000008
-0.37672523 0.49153103 0.04826321
-0.19149477 -0.26704191 -0.00000033
-0.36759489 0.70986561 0.19619129
0.36774483 -0.09647002 -0.00000044
-0.08066896 0.71573019 -0.00000090
-0.32964541 0.20309967 -0.00000054
0.44641701 -0.08370939 -0.00000070
-0.32633403 -0.45227834 -0.00000022
-0.24923619 -0.40039492 -0.00000025
-0.51127890 0.34732935 0.04144153
0.10869910 -0.63794372 -0.00000010
-0.67584257 -0.66378372 -0.00000001
0.55856259 0.08176079 0.00000117
-0.17637550 0.37103113 -0.00000073
-0.30609668 0.00511362 -0.00000050
-0.49139432 -0.39513250 -0.00000025
-0.04472813 0.10416082 -0.00000057
-0.39026748 0.20151316 -0.00000047
0.01231886 0.51825073 0.00000339
0.38735070 0.33737916 -0.00000134
0.49574229 -0.35920398 -0.00000033
-0.52231437 0.15221023 -0.00000032
-0.56805599 0.58147188 0.24715042
0.74525065 -0.52295647 -0.00000069
-0.77202441 -0.11617119 -0.00000001
0.20285817 0.41780431 -0.00000090
-0.18027083 0.39884345 -0.00000073
0.39253623 -0.06150753 -0.00000058
-0.50815062 -0.09253372 -0.00000029
-0.59094251 0.00725506 -0.00000022
0.31361698 -0.56388081 -0.00000015
-0.01488258 -0.00623538 -0.00000050
0.02585062 -0.36100481 -0.00000027
0.33466789 0.04223298 0.00000618
-0.73349480 -0.30670457 -0.00000001
-0.18970774 0.15337578 -0.00000060
-0.46205139 0.71533967 0.26685238
0.16552615 0.37959767 0.00000333
-0.46713288 0.59177724 0.18307441
0.58573319 -0.53614247 -0.00000027
-0.46837422 0.39429507 0.04431296
0.45827258 -0.61172976 -0.00000012
-0.22189829 -0.43302834 -0.00000023
0.49633024 -0.01846801 -0.00000099
0.10747024 -0.59774370 -0.00000013
-0.14733455 -0.49495426 -0.00000019
0.25658469 0.53399138 -0.00000130
-0.23579439 0.69335510 0.09132028
0.53995386 0.10843896 0.00000105
-0.15869897 0.23689814 -0.00000065
0.76437064 -0.34750083 -0.00000113
0.26677635 -0.08495997 -0.00000045
0.08970456 0.16024795 -0.00000060
0.11155472 -0.19331297 -0.00000038
0.25138818 0.51267987 -0.00000124
0.73528082 -0.13623636 -0.00000153
0.34904641 0.05707241 -0.00000067
0.15670931 0.13032253 -0.00000058
-0.07686971 -0.67538992 -0.00000008
0.57100086 -0.38585300 -0.00000051
0.70340207 -0.13056677 -0.00000144
0.30962507 0.01978619 -0.00000051
0.51918102 -0.66814260 -0.00000008
-0.31962677 -0.54183265 -0.00000016
0.52641553 0.13348017 -0.00000138
0.32803019 -0.14354432 -0.00000041
-0.23373759 0.31051132 -0.00000066
0.30039576 0.31875324 0.00000187
0.09571596 0.62626269 -0.00000097
0.32368574 0.20971239 0.00000338
0.32614591 -0.77243580 -0.00000002
-0.76645123 -0.70839256 0.00000000
-0.31706619 -0.05192039 -0.00000047
-0.47399790 0.40817993 0.05810739
-0.50150041 0.50009290 0.14254579
0.77483965 -0.44202283 -0.00000089
0.12180735 0.29712527 0.00000533
0.12835139 -0.09393849 -0.00000044
0.27352177 0.24893472 0.00000364
0.70082592 -0.50298219 -0.00000070
-0.49763631 -0.18858038 -0.00000029
-0.68681280 0.58105641 0.33082983
-0.77506474 -0.52532298 0.00000000
-0.09937567 0.19225144 -0.00000062
0.71954553 -0.74548171 -0.00000014
0.03364907 0.73932540 -0.00000099
-0.71480300 -0.31085903 -0.00000003
-0.05597266 0.76294453 0.01337474
0.21252134 0.47766065 -0.00000105
0.29006032 0.24567689 -0.00000085
-0.10679411 -0.42160007 -0.00000024
0.20733116 0.46309446 0.00000107
-0.59144499 0.46403105 0.18064637
0.18542513 -0.59949716 -0.00000013
-0.72639715 0.21260314 0.09828714
-0.50051277 0.64335077 0.24314509
0.79061502 -0.42677709 -0.00000093
-0.35875515 0.36355723 -0.00000054
0.40920383 -0.16015910 -0.00000044
0.64363408 -0.29964372 -0.00000091
-0.04443706 -0.56644233 -0.00000015
-0.08622914 0.10937219 -0.00000057
0.49520909 -0.46841814 -0.00000021
-0.14330813 -0.53029801 -0.00000017
-0.59383303 -0.40603473 -0.00000015
0.00601182 0.25466578 0.00000777
-0.58144115 0.66014034 0.31224163
-0.23908443 0.62959722 0.04856358
-0.59761217 -0.00125516 -0.00000022
0.41590887 0.18791187 -0.00000114
0.28596588 -0.21408979 -0.00000037
-0.68384876 -0.76946438 0.00000000
-0.61080329 0.59400789 0.28624135
-0.21654827 0.01555436 -0.00000051
-0.43115590 -0.13569312 -0.00000037
0.28107727 0.33052345 -0.00000098
0.18718008 -0.51046945 -0.00000018
-0.79061543 -0.59474791 0.00000000
-0.73992630 0.21262757 0.10787088
-0.63791754 0.39629916 0.16561410
-0.47405619 -0.28418903 -0.00000030
0.64908197 -0.52002092 -0.00000050
-0.09063204 -0.27984225 -0.00000033
0.09453074 0.48384789 -0.00000080
-0.03558090 0.70399551 -0.00000094
0.00098938 -0.60306203 -0.00000012
-0.06002496 0.51941137 -0.00000082
-0.13853213 0.32046636 -0.00000070
0.27405610 -0.67935483 -0.00000008
0.68885381 0.06065025 -0.00000176
-0.65999358 0.66181633 0.36897132
-0.60786360 0.28878245 0.06833823
0.09820822 -0.29068149 -0.00000032
-0.41278601 -0.15083689 -0.00000039
0.27777827 -0.37070901 -0.00000027
0.60837660 0.18678121 -0.00000175
0.13557037 0.21752993 0.00000642
-0.31908951 -0.19280489 -0.00000038
-0.17388974 -0.45941216 -0.00000021
0.07048274 0.23268695 -0.00000065
0.33308466 -0.60827055 -0.00000012
0.38923254 -0.44190706 -0.00000022
0.13595323 0.08514802 0.00000856
-0.10410198 -0.75571015 -0.00000003
-0.12052528 -0.34698496 -0.00000028
0.25384005 0.46209587 -0.00000115
0.08571506 0.20195504 -0.00000063
0.12097730 0.24914844 -0.00000066
0.56487024 0.10416313 0.00000065
0.37124593 0.19981811 -0.00000102
0.32473480 -0.53928546 -0.00000016
0.21184632 0.49196930 0.00000046
0.05204436 0.71810304 -0.00000101
-0.33636893 0.49003354 0.01866840
-0.74920964 -0.59136206 0.00000000
0.62951453 0.03100641 -0.00000151
0.05116395 0.13837134 0.00000898
-0.00506608 0.22760087 -0.00000064
0.13769534 0.45492031 -0.00000078
-0.11591930 0.21880924 -0.00000064
0.38301700 -0.40678930 -0.00000025
-0.51487897 0.62017208 0.23691379
0.06473947 0.59709206 -0.00000087
-0.46416298 0.43609464 0.07089153
-0.49777640 0.10660084 -0.00000034
0.38101598 -0.69958612 -0.00000006
-0.13049671 0.26329031 -0.00000066
0.24388879 0.33197265 -0.00000087
-0.18924917 -0.40384635 -0.00000025
-0.25892509 0.19852128 -0.00000061
-0.34631104 -0.65939872 -0.00000009
-0.73588896 -0.76107356 0.00000000
0.24284631 0.02136241 -0.00000051
0.44688199 -0.21895838 -0.00000044
0.40635006 0.14353102 0.00000298
0.48680516 -0.43080886 -0.00000023
0.23639100 0.48540059 0.00000011
-0.02134130 -0.06314735 -0.00000046
0.30933055 -0.05954853 -0.00000046
0.14977124 0.04998152 -0.00000053
-0.43535591 0.63206443 0.18909196
-0.59658963 0.20099988 -0.00000025
-0.14555742 -0.10782904 -0.00000043
-0.33081295 0.24466105 -0.00000055
-0.32251063 0.67753988 0.14145456
0.21974933 -0.21738563 -0.00000036
-0.12744323 0.10273253 -0.00000056
0.01852191 0.69170204 0.00000048
-0.38846847 -0.25615629 -0.00000034
0.30523578 0.02292517 0.00000702
-0.41834577 0.53900745 0.11126351
0.69721427 -0.65985955 -0.00000035
0.48790262 0.20802560 -0.00000141
-0.70051534 -0.61274299 0.00000000
-0.48314933 -0.53003760 -0.00000017
0.07579816 0.59563432 -0.00000087
-0.69637363 0.39582172 0.20661078
-0.30557474 0.65495335 0.11350820
-0.46812889 -0.70031393 -0.00000006
-0.20435311 -0.67569242 -0.00000008
0.22487859 -0.69907810 -0.00000006
-0.47728106 0.07000338 -0.00000036
0.02475877 0.58001620 -0.00000086
0.54463965 0.07931316 -0.00000134
-0.23983607 -0.66383638 -0.00000009
0.22166976 -0.18738659 -0.00000038
-0.42344582 -0.79952249 -0.00000000
0.70233628 -0.36973982 -0.00000097
-0.29569699 -0.46628024 -0.00000021
0.70907976 0.04619909 -0.00000108
0.57250031 -0.21587561 -0.00000085
0.58126526 -0.03597941 -0.00000123
0.00411384 -0.52569698 -0.00000017
-0.25571602 0.60751634 0.04471046
0.04164913 0.06575599 -0.00000054
0.08649310 0.34629607 0.00000507
0.07818146 -0.66220906 -0.00000009
0.02517246 0.54776808 -0.00000084
-0.26344123 0.40133713 -0.00000065
0.55573821 0.19501904 -0.00000081
0.12050613 -0.05401175 -0.00000047
0.22631681 0.35777527 -0.00000086
-0.17498654 0.65540548 0.02148892
0.21845928 -0.71824059 -0.00000005
-0.61942975 0.59003185 0.28952968
0.00763964 -0.61841558 -0.00000011
0.62372203 0.15128278 -0.00000133
0.66286708 -0.71492119 -0.00000017
0.18231637 0.43874587 -0.00000088
0.46003832 0.24611776 -0.00000139
-0.46625233 0.27239497 -0.00000041
-0.13368378 -0.19411025 -0.00000038
-0.60243266 -0.53861660 -0.00000011
0.08513522 -0.45593484 -0.00000022
-0.34869869 0.11124970 -0.00000050
-0.32805614 -0.41003261 -0.00000024
-0.41689150 0.26187599 -0.00000046
0.17417867 -0.45019668 -0.00000022
0.03589558 -0.52474759 -0.00000017
0.26271084 0.39367728 -0.00000105
-0.51357655 0.03633624 -0.00000031
-0.03232052 0.59649343 -0.00000087
-0.60507452 0.57157758 0.26633003
0.08946297 0.40473752 0.00000407
0.56832373 -0.60500452 -0.00000012
0.04408582 -0.07093557 -0.00000046
0.75263241 -0.48363921 -0.00000079
0.44813941 0.06687442 -0.00000100
0.38286155 0.06546808 -0.00000079
-0.40728761 0.56190734 0.11963673
-0.22629604 -0.74428970 -0.00000003
0.63499905 -0.28774603 -0.00000091
-0.00942766 -0.01047607 -0.00000049
-0.08392235 -0.07269461 -0.00000045
0.52815552 -0.46218334 -0.00000023
-0.35849820 -0.60238110 -0.00000012
-0.68729260 -0.56574665 -0.00000002
-0.35425288 0.48204853 0.02566797
-0.11953349 -0.03701723 -0.00000048
-0.43040705 0.69531768 0.23031904
0.09131877 0.59335780 -0.00000089
0.35341664 0.16777623 0.00000356
0.25937832 -0.57893360 -0.00000014
0.20383649 0.51215091 0.00000025
0.71170229 -0.06267952 -0.00000160
-0.46354632 0.20364482 -0.00000040
-0.26909200 -0.06288455 -0.00000046
0.42435834 -0.02980162 -0.00000074
-0.75792450 -0.02978584 -0.00000004
0.34454536 0.23007635 0.00000262
0.18324409 -0.29095934 -0.00000032
0.50405674 0.08976895 0.00000207
-0.02567052 0.47156817 -0.00000079
0.15912489 0.52889332 0.00000081
0.22144106 -0.50397926 -0.00000019
-0.05283259 0.68086107 -0.00000092
-0.42390314 0.54094905 0.11656602
-0.60709731 -0.36215052 -0.00000014
0.43423258 0.19668277 -0.00000121
-0.37235304 0.37133720 -0.00000052
0.57008485 0.14060408 -0.00000154
-0.37051556 0.56254559 0.09408652
-0.18197906 0.41063881 -0.00000073
0.00849393 0.40191631 -0.00000075
-0.30685275 0.27040112 -0.00000058
0.31295638 -0.57500830 -0.00000014
-0.68905754 0.27736569 0.11767770
0.26266749 0.24168078 0.00000398
0.47841519 -0.36769720 -0.00000027
0.07171050 0.13373427 -0.00000058
0.58816667 0.20919522 -0.00000173
0.17500447 0.10597696 -0.00000057
0.32301714 -0.77166286 -0.00000002
-0.37689780 -0.66308133 -0.00000009
-0.35966593 0.61505585 0.12354463
-0.04022094 -0.43924623 -0.00000023
-0.14966303 0.22476480 -0.00000064
-0.03295030 0.08401632 -0.00000055
0.50644790 -0.30625873 -0.00000046
0.07523890 0.68718210 -0.00000102
-0.40070349 0.67978991 0.19833589
-0.24705162 -0.45382162 -0.00000022
-0.51794594 0.57034662 0.20385082
-0.57698634 -0.72977554 -0.00000004
-0.61077494 -0.59191961 -0.00000009
0.40968228 0.17921741 -0.00000110
0.14195553 -0.57686595 -0.00000014
0.39673780 0.08712207 -0.00000088
-0.33025568 -0.67346782 -0.00000008
0.45529776 -0.46715818 -0.00000021
-0.54119054 0.42714553 0.11902981
0.02138726 -0.51383728 -0.00000018
0.10607263 0.36477367 0.00000447
-0.58279782 -0.71409975 -0.00000005
0.22407182 0.01113238 -0.00000051
-0.23077551 0.01016587 -0.00000051
0.46953243 -0.62790830 -0.00000011
0.00428510 0.71496096 -0.00000095
0.78854084 -0.79858172 -0.00000000
0.45027636 0.01826072 -0.00000092
-0.67951692 -0.13856406 -0.00000010
-0.53272668 0.36430303 0.06860929
0.17010397 -0.12261760 -0.00000042
0.25211819 -0.79474022 -0.00000000
-0.43922525 0.53186286 0.12097547
0.08608416 -0.28571054 -0.00000032
-0.59762270 -0.35776739 -0.00000015
0.17201672 0.44990431 0.00000198
-0.30977487 0.70034689 0.14857593
-0.47814483 -0.74699741 -0.00000003
-0.71992621 0.43360892 0.24998413
-0.50601578 0.36597090 0.05090136
-0.35717455 0.64652309 0.14403349
0.00302132 0.46572281 -0.00000079
0.22687999 -0.78518649 -0.00000001
0.18854356 0.45838118 0.00000151
0.11659880 0.46661909 0.00000266
-0.57856118 -0.11909196 -0.00000021
-0.64386524 -0.00692006 -0.00000017
-0.73221771 0.35873934 0.20573530
0.46484385 0.14712751 0.00000179
-0.64772155 -0.15213850 -0.00000013
0.62632388 -0.22503466 -0.00000101
0.76947640 -0.44923520 -0.00000088
-0.47488893 0.51371552 0.13336133
-0.54185664 -0.37978662 -0.00000021
0.27633737 0.50013510 -0.00000130
0.28691897 0.05452687 0.00000678
0.24236574 0.15322920 -0.00000060
0.21834773 -0.00192484 -0.00000050
-0.56198844 -0.45448040 -0.00000017
-0.26442265 -0.59088978 -0.00000013
0.01346030 0.08115179 0.00001048
0.48244126 0.15692510 -0.00000129
-0.65722037 -0.10459247 -0.00000013
0.16382414 0.03085559 0.00000903
-0.61552645 0.11191301 -0.00000022
0.76492935 -0.07803633 -0.00000174
-0.58527068 -0.06232944 -0.00000022
0.70315450 -0.23962953 -0.00000122
-0.31431517 0.23361905 -0.00000056
0.76415275 -0.74993530 -0.00000013
-0.66598310 0.66197032 0.37331541
-0.30847145 -0.19102809 -0.00000038
0.40401837 -0.37538688 -0.00000027
0.12241748 0.62676671 -0.00000105
-0.62781835 0.33875439 0.11778323
0.35991397 -0.32275862 -0.00000030
-0.35603346 0.14210207 -0.00000050
-0.73188511 0.09829529 0.02134096
0.04989748 0.57660277 -0.00000086
0.35908152 0.16942436 -0.00000092
-0.17942162 0.46102723 -0.00000075
0.08658055 -0.54387279 -0.00000016
0.55535744 -0.47003907 -0.00000030
0.51729070 0.00974701 0.00000325
-0.19274582 0.70535245 0.06936388
0.67884870 -0.47248983 -0.00000069
0.64425688 0.03806997 -0.00000158
-0.14060295 0.33020915 -0.00000071
0.18623743 0.09629545 -0.00000056
0.20702489 -0.73658971 -0.00000004
0.59349250 0.16650515 -0.00000166
0.22312667 0.13177026 0.00000649
0.43062132 -0.41901123 -0.00000024
0.08672359 -0.54872247 -0.00000016
0.25754363 -0.34616880 -0.00000028
0.11077825 0.56522987 -0.00000090
-0.44134039 0.70398608 0.24417946
-0.59311121 0.41169471 0.14481769
0.18779830 -0.51000762 -0.00000018
-0.37936735 -0.09027260 -0.00000043
0.63740485 -0.20550197 -0.00000108
-0.03614752 0.10456721 -0.00000057
-0.44895992 -0.73866322 -0.00000004
-0.66960907 0.24342400 0.07992563
-0.17704161 0.46140879 -0.00000075
-0.75762299 -0.14447718 -0.00000002
-0.69156730 0.12403710 0.01103419
0.22246622 0.22299571 0.00000502
-0.37680002 0.26795586 -0.00000050
-0.32706153 0.34304527 -0.00000057
-0.49281941 -0.49803310 -0.00000019
0.11286848 -0.63961161 -0.00000010
-0.01525049 0.73877471 -0.00000096
0.18501087 0.20834452 -0.00000063
-0.06100113 -0.67881812 -0.00000008
-0.40024672 -0.14519722 -0.00000040
0.57424141 -0.19818855 -0.00000089
-0.75127393 -0.31950550 0.00000000
0.03730293 0.37128416 0.00000540
-0.09017834 0.57417349 -0.00000086
0.04349733 -0.64633441 -0.00000010
-0.63717667 0.08723502 -0.00000019
-0.70770779 0.17797780 0.06058842
-0.28281762 -0.04126113 -0.00000047
0.65365894 0.07313180 -0.00000050
-0.57248291 -0.34217026 -0.00000018
-0.52345356 -0.01952639 -0.00000029
0.09801266 -0.65879112 -0.00000009
-0.27431471 0.00843937 -0.00000051
-0.11535784 -0.12246742 -0.00000042
-0.57800896 0.08246835 -0.00000025
-0.40005744 -0.29631506 -0.00000031
-0.20965310 0.12724825 -0.00000058
0.67984521 -0.15645091 -0.00000131
0.12602392 -0.00831655 -0.00000049
-0.50314843 0.40316042 0.07517045
0.17726979 0.50112627 0.00000096
0.09099991 0.07317198 0.00000944
-0.08428741 0.22848415 -0.00000064
-0.09648294 0.09491028 -0.00000056
-0.13668466 0.10116478 -0.00000056
-0.67032688 0.55079521 0.29777488
-0.49463059 0.08339887 -0.00000034
0.74941131 0.01536544 -0.00000187
-0.42625325 -0.59341118 -0.00000013
-0.41591771 0.22937843 -0.00000045
0.73101799 -0.64306072 -0.00000039
-0.38041234 -0.23426993 -0.00000035
0.11527261 0.34066603 0.00000472
-0.74562091 -0.17531029 -0.00000003
0.30657803 -0.53004145 -0.00000017
0.05366224 0.35826516 -0.00000072
-0.29414784 -0.28389349 -0.00000032
0.28742762 -0.10857531 -0.00000043
0.24726619 0.48328347 -0.00000006
-0.02566612 0.22170279 -0.00000064
-0.45285204 -0.19811842 -0.00000033
0.31982691 0.02180977 0.00000682
0.58095506 -0.18247555 -0.00000094
-0.53826293 0.04559882 -0.00000029
-0.68030292 0.59142385 0.33355751
-0.49939513 -0.51793747 -0.00000018
-0.64819768 -0.53085914 -0.00000006
-0.76230417 -0.47663089 0.00000000
-0.67714820 -0.47801180 -0.00000004
-0.05652031 0.47996816 -0.00000080
-0.76800542 0.11122586 0.05602479
-0.30050461 0.73571597 0.16703042
-0.39569245 0.26815656 -0.00000048
0.68800599 -0.34312283 -0.00000097
0.63015673 0.07096414 -0.00000001
-0.01698891 -0.05930303 -0.00000046
0.51822421 -0.14732357 -0.00000081
0.56880008 -0.64038914 -0.00000010
0.53831447 0.15629881 -0.00000147
0.38472800 0.32999038 0.00000005
0.01716909 0.38807948 -0.00000074
0.65730828 -0.16240451 -0.00000123
-0.02907074 0.33794381 -0.00000071
0.79365231 -0.02734306 -0.00000193
-0.39400617 0.34534580 -0.00000050
-0.12289750 -0.05577805 -0.00000047
-0.45937949 0.41397524 0.05186857
-0.15265186 0.27932920 -0.00000067
0.09369453 0.01591638 -0.00000051
-0.66540746 0.53851352 0.28561195
0.41053616 0.12516301 -0.00000100
0.75581433 -0.28352166 -0.00000129
0.70115781 -0.18672596 -0.00000132
0.50106338 0.12523583 -0.00000129
-0.37498149 0.16013002 -0.00000048
-0.47677370 -0.53660911 -0.00000016
0.01595009 -0.68470702 -0.00000007
0.34966893 -0.16170440 -0.00000040
-0.39748116 0.64684132 0.17275940
0.42213640 0.25140335 0.00000074
0.02216856 -0.76417929 -0.00000002
-0.43252166 0.48334400 0.08192783
-0.66150756 0.22918359 0.06412771
-0.25317154 -0.55346140 -0.00000015
0.35184323 -0.14064709 -0.00000041
-0.32689373 0.01403656 -0.00000051
0.76701063 -0.78237070 -0.00000004
-0.41853353 0.59411063 0.15035965
-0.73315835 -0.74183434 0.00000000
0.15826301 0.38428909 -0.00000074
-0.60251872 -0.22517423 -0.00000017
0.06091502 0.66360482 -0.00000093
-0.55169457 -0.26623071 -0.00000022
0.28796167 -0.64063735 -0.00000010
0.37255695 -0.41050715 -0.00000024
-0.75517554 -0.45433135 0.00000000
0.34559193 -0.08508369 -0.00000045
0.30466122 0.18652346 0.00000416
-0.31753188 0.56367320 0.05741910
-0.24026654 0.38796914 -0.00000067
0.33736505 0.34995593 0.00000060
-0.37191589 -0.19548941 -0.00000038
-0.48239432 -0.60685035 -0.00000012
0.61090375 0.00285079 -0.00000140
0.27318404 -0.75214542 -0.00000003
-0.43995911 0.27345918 -0.00000043
0.58180479 0.10192792 -0.00000150
-0.56380861 -0.55810030 -0.00000015
-0.13383494 -0.60727539 -0.00000012
0.16605962 -0.34795713 -0.00000028
-0.38209102 0.62392422 0.14567230
0.50747908 -0.29262516 -0.00000049
-0.28108224 -0.53195713 -0.00000017
0.61748620 -0.34588810 -0.00000074
-0.17083643 0.33742820 -0.00000071
0.42581745 -0.10607814 -0.00000060
-0.57290485 0.67470683 0.31650558
-0.68393617 0.58147468 0.32909153
-0.51426752 -0.12131232 -0.00000028
0.05818554 -0.48263291 -0.00000020
-0.51731628 -0.41163464 -0.00000023
-0.01731651 0.16850423 -0.00000061
-0.15451053 -0.08315717 -0.00000045
-0.34350064 0.15403669 -0.00000052
0.12031019 0.37083661 -0.00000073
0.54587630 0.17798296 -0.00000153
0.74280099 -0.54341465 -0.00000064
0.41033112 -0.37855270 -0.00000026
-0.11174992 -0.64179643 -0.00000010
-0.73045025 0.19790650 0.09076114
0.37925014 -0.36047414 -0.00000027
-0.68661708 -0.41171088 -0.00000005
-0.27115612 0.68710051 0.11190201
0.43359125 0.28191558 -0.00000138
-0.13740284 0.38177122 -0.00000074
0.25009117 -0.69817806 -0.00000006
-0.30378979 -0.48559459 -0.00000020
-0.79456479 -0.62226371 0.00000000
0.16389461 -0.41992028 -0.00000024
0.17765085 -0.23580346 -0.00000035
-0.07754858 0.61928966 -0.00000088
0.68138067 -0.69741558 -0.00000026
-0.39837213 0.68581228 0.20094581
-0.35860444 0.54495363 0.07322495
-0.50082866 -0.15782591 -0.00000029
-0.74610929 -0.20236680 -0.00000002
0.24502223 -0.21291938 -0.00000037
-0.20654844 -0.42681306 -0.00000023
0.60193847 -0.33976056 -0.00000070
-0.66327190 -0.12231200 -0.00000012
0.11977662 0.64673698 -0.00000055
0.23709805 0.22328719 -0.00000064
-0.70191148 0.26046093 0.11481342
0.18248913 0.33459280 -0.00000071
-0.34077120 -0.33339102 -0.00000029
-0.06095002 -0.51489171 -0.00000018
0.14209769 -0.17590660 -0.00000039
0.60995321 0.11663708 -0.00000162
-0.00232452 -0.73691140 -0.00000004
-0.18742700 -0.59277201 -0.00000013
0.38206578 -0.63026692 -0.00000011
-0.33375166 -0.71073320 -0.00000006
0.07128464 0.21240816 -0.00000063
-0.57116280 -0.18596141 -0.00000021
-0.71738204 -0.29826902 -0.00000003
-0.19282361 0.12727580 -0.00000058
0.68063371 -0.58462629 -0.00000048
-0.34790742 0.46668216 0.01031558
0.53893679 -0.20841380 -0.00000076
-0.55168974 0.14031904 -0.00000029
0.48249909 -0.03250366 -0.00000092
-0.63007097 0.24196430 0.05093610
0.27055210 0.29873783 -0.00000089
-0.45023531 0.24872365 -0.00000042
-0.59993106 -0.37279433 -0.00000015
0.16964100 0.25383666 -0.00000066
0.07168632 0.24882797 -0.00000066
-0.16387412 -0.35766749 -0.00000028
0.75348855 -0.25544795 -0.00000135
-0.00752790 0.12323244 -0.00000058
0.44266590 0.06547036 0.00000369
-0.68433150 0.57466903 0.32455878
0.35400538 0.22510312 -0.00000101
-0.39810047 0.52331230 0.08585007
0.54223263 -0.72745165 -0.00000005
-0.22317301 -0.58758571 -0.00000013
-0.77488193 -0.10025968 -0.00000001
-0.32666874 -0.72505044 -0.00000005
0.28827157 0.02527158 -0.00000052
0.10142599 0.61853151 -0.00000097
-0.12419337 0.02768945 -0.00000052
0.37772534 0.07075170 -0.00000079
-0.38004938 0.04048324 -0.00000046
0.62978304 -0.78480150 -0.00000001
-0.06002955 0.42031387 -0.00000076
0.33312924 0.09427571 0.00000527
0.40915771 -0.09499325 -0.00000056
0.45208212 -0.11535703 -0.00000066
0.65369069 -0.38267760 -0.00000079
0.35379886 0.21051553 -0.00000098
-0.40368933 -0.72659805 -0.00000005
0.08230934 0.50231319 0.00000260
0.59689482 -0.37343310 -0.00000062
-0.68636205 0.46981096 0.25184935
-0.55099789 0.31512386 0.04675442
-0.45296984 -0.07210806 -0.00000036
-0.25436449 0.00408768 -0.00000050
0.32580886 -0.60320899 -0.00000012
-0.21735411 -0.16876632 -0.00000039
-0.79773329 -0.69591215 0.00000000
0.45325119 -0.24755297 -0.00000041
-0.43814348 0.31062654 -0.00000044
-0.43828334 -0.53921836 -0.00000016
-0.73678189 0.15477297 0.06473865
0.25156034 -0.50636290 -0.00000018
0.62344475 0.12889930 -0.00000092
-0.22920231 0.59721153 0.01867611
0.65831424 -0.43679314 -0.00000069
0.04576460 0.35903599 0.00000548
-0.74699001 -0.34736755 0.00000000
0.25637202 -0.40302317 -0.00000025
0.38463549 -0.27156704 -0.00000033
0.20785907 -0.25385866 -0.00000034
0.22255678 -0.58309987 -0.00000014
0.36173462 0.07932279 -0.00000075
-0.69761814 -0.02481712 -0.00000010
0.35993539 0.13356334 -0.00000085
0.76012487 -0.16201405 -0.00000156
-0.17506344 -0.60621280 -0.00000012
-0.69966419 -0.03638020 -0.00000010
0.03042501 0.48309871 -0.00000080
-0.25290762 0.37569635 -0.00000065
0.51816565 -0.50889570 -0.00000018
-0.45896573 0.20480544 -0.00000040
-0.12547855 0.22276323 -0.00000064
0.50003903 -0.47932205 -0.00000020
-0.29618153 0.34457389 -0.00000060
-0.28312789 -0.75499579 -0.00000003
-0.36520148 -0.19243840 -0.00000038
0.23619691 0.43953062 -0.00000105
0.78008562 -0.11561784 -0.00000171
-0.01075336 0.60082613 -0.00000088
-0.12172716 -0.60381716 -0.00000012
-0.09173938 0.37661779 -0.00000074
0.31409047 -0.32923312 -0.00000029
-0.63377045 0.46506226 0.21130391
0.09542711 -0.29219252 -0.00000032
-0.70651651 -0.78374619 0.00000000
0.57051952 -0.73568615 -0.00000004
-0.79122741 0.05054982 0.02954122
0.06731389 -0.05917028 -0.00000046
0.21636669 -0.08812641 -0.00000044
-0.58794870 -0.34292851 -0.00000016
0.09813778 0.22735112 -0.00000064
0.72008060 -0.74854444 -0.00000013
-0.43498752 0.61023015 0.17339243
-0.70270612 -0.61664121 0.00000000
0.27461228 0.41421480 -0.00000113
0.33756113 0.19521094 -0.00000090
-0.30717515 0.25698542 -0.00000057
0.16046169 0.50966559 -0.00000095
0.14157008 0.19197740 0.00000674
-0.57745789 -0.71911107 -0.00000005
-0.36637545 0.67458683 0.17038336
0.43573953 0.29686591 -0.00000033
0.20535163 0.27925971 -0.00000067
-0.43545897 -0.65208734 -0.00000009
0.78158908 -0.35960148 -0.00000110
0.61973039 -0.12992585 -0.00000117
-0.61447150 -0.28474566 -0.00000015
-0.30195997 0.56369374 0.04642272
0.13337799 0.03875926 0.00000936
-0.17195652 0.41473756 -0.00000075
0.15182523 -0.13754739 -0.00000041
0.50459439 -0.28168057 -0.00000050
0.74177639 0.02419488 -0.00000132
-0.65683078 -0.16692150 -0.00000012
0.47206751 -0.43329747 -0.00000023
0.03415784 0.33169885 -0.00000071
0.02664408 0.47752078 -0.00000080
0.40404771 -0.17046923 -0.00000040
0.28402050 -0.50862991 -0.00000018
0.29195186 -0.44078639 -0.00000022
0.22707283 0.17781779 -0.00000061
0.16077403 0.22722833 0.00000588
0.27375844 0.43773369 0.00000025
0.17350059 -0.66829747 -0.00000008
0.30914242 0.34869042 0.00000117
0.41520723 -0.09410189 -0.00000058
0.28326301 -0.57129835 -0.00000014
-0.27995238 -0.56792338 -0.00000015
0.11980939 0.30693752 -0.00000069
0.11008687 0.46513338 0.00000278
-0.09269353 0.41399375 -0.00000076
-0.78894418 -0.16823485 0.00000000
0.57577683 -0.66236644 -0.00000009
-0.39321361 -0.19458490 -0.00000038
-0.45577432 0.56771380 0.15802747
-0.29508701 -0.43378930 -0.00000023
-0.47138574 -0.28132710 -0.00000030
0.01002290 -0.08035388 -0.00000045
-0.41071623 -0.75179513 -0.00000003
0.54864749 0.17832384 -0.00000037
-0.60954478 0.32599590 0.09584051
0.46213517 -0.53623446 -0.00000016
0.27585201 0.32001588 -0.00000095
-0.44894074 0.41689933 0.04655495
-0.23041683 -0.25954609 -0.00000034
-0.72329518 0.19900953 0.08648174
0.25465095 0.09969854 -0.00000056
0.04922588 0.04751295 0.00001049
-0.79608049 -0.52973413 0.00000000
-0.68255640 -0.47694145 -0.00000004
0.01198418 -0.51692796 -0.00000018
0.21994091 -0.17248042 -0.00000039
0.11609618 -0.71718213 -0.00000005
-0.64346856 -0.31221574 -0.00000011
0.01354021 0.70694056 0.00000031
-0.61577717 0.59227206 0.28853099
0.16920632 0.18218162 0.00000649
-0.22600503 0.43955184 -0.00000069
0.65126226 -0.18951391 -0.00000115
0.25551293 -0.54318897 -0.00000016
0.46335794 -0.30326932 -0.00000033
0.31081817 -0.57542826 -0.00000014
0.59190154 -0.65017241 -0.00000009
0.03209694 -0.10512929 -0.00000043
0.39649113 0.36763418 -0.00000085
0.14463199 -0.75421235 -0.00000003
0.49083110 -0.29387921 -0.00000044
-0.72872226 0.35498982 0.20061240
0.28024269 -0.70357294 -0.00000006
0.55519677 -0.21273074 -0.00000080
-0.59131847 -0.00582018 -0.00000022
0.43104728 0.12698975 0.00000281
0.54343577 -0.37830798 -0.00000044
0.68379585 -0.58712245 -0.00000048
-0.42962932 -0.03938027 -0.00000039
0.23966815 0.23506316 -0.00000067
0.65784247 -0.17538312 -0.00000120
0.18155798 0.59323086 -0.00000118
0.08427852 0.68374003 -0.00000104
0.09381606 -0.46633483 -0.00000021
0.20467835 0.04078637 -0.00000053
0.28799066 0.05076748 0.00000683
0.25346071 0.01748862 0.00000789
-0.09709640 -0.21732511 -0.00000036
-0.56853393 0.31716698 0.06059884
-0.19781364 0.60929306 0.00502401
0.29351088 0.17849296 -0.00000073
-0.40124618 0.50927210 0.07814662
0.66354425 0.08133557 -0.00000172
0.62778768 0.02968594 0.00000077
0.17543882 0.06005863 -0.00000054
0.09396690 0.13500258 -0.00000058
0.05366570 0.32382639 0.00000593
-0.46230038 -0.43132667 -0.00000023
-0.25141767 -0.61938773 -0.00000011
0.20157799 -0.78740519 -0.00000001
0.54321950 0.03132384 0.00000237
0.06855121 0.36929705 0.00000496
0.62624552 0.12009175 -0.00000082
-0.48864506 -0.26419367 -0.00000028
-0.14150141 -0.37555646 -0.00000027
0.42889246 -0.73872618 -0.00000004
-0.49214699 -0.46614429 -0.00000021
0.51619743 -0.70569478 -0.00000006
-0.49464533 -0.52728312 -0.00000017
0.13027983 -0.36470809 -0.00000027
-0.49604262 -0.22228786 -0.00000028
0.16612846 0.36036742 -0.00000073
-0.01266476 0.68725711 -0.00000093
-0.33878897 -0.60585040 -0.00000012
0.08335709 0.00756846 0.00001062
-0.27101438 -0.52185925 -0.00000017
-0.16858920 -0.70553593 -0.00000006
-0.56011277 -0.22169234 -0.00000022
0.56778631 0.02217488 -0.00000130
0.30549015 -0.30109175 -0.00000031
0.60449174 -0.56964703 -0.00000026
-0.60377137 -0.53755409 -0.00000011
0.42373961 0.22896080 -0.00000124
0.44422417 0.22885699 -0.00000131
0.70330882 -0.38054590 -0.00000095
-0.47364336 0.25432796 -0.00000039
0.45382888 0.00966099 0.00000447
0.19009074 -0.60374379 -0.00000012
0.31964421 0.41924707 -0.00000128
-0.21857874 0.66899027 0.06191871
-0.70972680 0.09344939 0.00224630
0.73673242 -0.03229330 -0.00000173
-0.75140937 -0.66585326 0.00000000
0.41378298 0.33797357 -0.00000142
0.11261676 0.27313150 0.00000586
0.49373916 0.20626624 -0.00000142
-0.06223114 0.49305270 -0.00000081
0.38104725 0.07905453 0.00000463
-0.33475541 -0.41713932 -0.00000024
0.07710332 -0.46764704 -0.00000021
0.59028064 0.16911945 -0.00000101
0.54209551 0.23929535 -0.00000134
-0.77627606 0.09438738 0.04996652
0.46885981 -0.37779327 -0.00000026
0.20003036 -0.32684610 -0.00000030
-0.47369917 -0.44639589 -0.00000022
-0.03967158 -0.60787780 -0.00000012
-0.22144696 -0.43730908 -0.00000023
0.56829777 -0.26870018 -0.00000073
-0.75106883 -0.71621444 0.00000000
-0.23978780 0.73991009 0.12706310
0.08899154 0.03161791 -0.00000052
0.13361750 0.29461910 0.00000520
0.10173468 0.52043464 0.00000201
-0.45587719 0.11863238 -0.00000039
0.23102461 0.49396003 0.00000006
-0.30168972 0.67099345 0.12210306
0.44042949 -0.36166394 -0.00000027
0.74868351 -0.16237115 -0.00000152
0.25959052 0.26366123 -0.00000078
0.29197216 0.27334885 0.00000285
0.04027399 -0.17013851 -0.00000039
-0.61621507 0.20376041 0.01412474
-0.73983215 -0.40964125 0.00000000
0.08285477 0.55091509 0.00000180
0.73563279 -0.23384513 -0.00000134
-0.39171176 0.55528371 0.10393950
-0.29264761 0.50540442 -0.00000063
-0.13564773 0.29104355 -0.00000068
0.57796048 0.10775669 -0.00000150
-0.15653864 0.66574028 0.01575211
0.64752398 -0.69256073 -0.00000016
-0.24617180 -0.39474777 -0.00000025
0.72498883 0.04981778 -0.00000186
-0.62049565 -0.47100479 -0.00000011
0.08435634 0.14639099 -0.00000059
-0.54185686 -0.29934130 -0.00000022
0.35670849 -0.72694097 -0.00000005
-0.27189990 0.50268409 -0.00000066
-0.55616057 0.40931256 0.11700549
-0.54010334 -0.59385895 -0.00000013
0.68545586 -0.37447993 -0.00000090
-0.51708262 -0.72479870 -0.00000005
-0.04563815 -0.49577368 -0.00000019
0.18978414 -0.79700694 -0.00000000
-0.58453582 -0.56448136 -0.00000013
0.53754540 -0.09941990 -0.00000097
-0.11763022 0.16367249 -0.00000060
0.49817617 0.14731836 -0.00000132
0.07543905 0.31697182 0.00000571
-0.25435322 0.04444357 -0.00000053
0.11427290 0.28108066 -0.00000068
0.19484054 0.45900049 -0.00000096
0.37208845 0.22850531 -0.00000108
0.15562069 0.28837409 0.00000497
0.06608974 0.58396939 -0.00000086
-0.62084392 -0.72076896 -0.00000005
-0.69681478 -0.75012556 0.00000000
0.02405115 -0.24896407 -0.00000034
-0.23581439 0.28412144 -0.00000065
0.34899113 0.30041310 0.00000127
0.19557782 0.33278121 -0.00000071
0.10387400 -0.10813300 -0.00000043
0.01131694 0.17917178 0.00000892
-0.38769267 0.46193135 0.03508844
0.66004986 -0.68749469 -0.00000021
-0.47222740 -0.76892887 -0.00000002
-0.27398527 0.55959438 0.02374317
-0.73467405 0.25313357 0.13279867
-0.10910780 -0.52584657 -0.00000017
-0.34717208 0.31344704 -0.00000054
0.32737564 -0.09148837 -0.00000044
0.65427648 -0.52351982 -0.00000051
0.70205165 -0.08280573 -0.00000152
-0.37529889 0.26131588 -0.00000050
-0.26428625 -0.52811488 -0.00000017
-0.54542488 0.49967245 0.17330747
0.26781575 -0.73453892 -0.00000004
-0.40743607 -0.24409705 -0.00000035
0.15923552 -0.00040712 -0.00000050
0.31298837 0.15429541 0.00000458
0.68108071 -0.22962702 -0.00000117
0.45340517 -0.03456314 -0.00000082
0.02216691 -0.66652703 -0.00000008
-0.28719264 0.61798264 0.07436826
0.07060126 0.43488233 -0.00000077
0.10808299 -0.73488182 -0.00000004
-0.48121792 0.45469129 0.09610071
0.53376961 0.25738785 -0.00000151
-0.64991615 0.65068601 0.35397529
-0.50721504 0.56150822 0.19001334
0.18879174 0.37084922 -0.00000077
0.73398653 -0.02905199 -0.00000173
0.19591767 0.43220561 0.00000184
-0.04357091 -0.64630088 -0.00000010
0.20671020 -0.28409093 -0.00000032
0.13512653 -0.78717102 -0.00000001
-0.76321548 0.07329558 0.02581745
-0.47257568 0.70036497 0.26370551
-0.13783700 -0.41961146 -0.00000024
-0.33081948 0.48765266 0.01306088
-0.74415989 -0.23221391 -0.00000002
-0.67592852 0.06672980 -0.00000014
0.43416788 0.35499832 -0.00000135
-0.53324750 -0.11901489 -0.00000026
0.43130377 -0.54115293 -0.00000016
-0.67411711 -0.02173785 -0.00000013
0.11225057 0.38128631 -0.00000074
0.12595831 -0.38691995 -0.00000026
-0.59437173 0.31597141 0.07802337
-0.49568096 0.65079618 0.24499317
0.55665342 -0.09333903 -0.00000104
0.27404234 -0.49377334 -0.00000019
0.79918503 -0.00500674 -0.00000199
-0.56155175 0.06757064 -0.00000027
0.48986191 0.21854476 -0.00000143
-0.46155463 -0.35198043 -0.00000028
-0.39973840 0.49319296 0.06571096
0.18375799 0.55569428 -0.00000111
-0.63909461 0.30698270 0.10329102
-0.56468472 -0.01418573 -0.00000025
0.21507926 0.48933738 0.00000045
0.31977127 0.11516649 0.00000515
0.19597605 0.36655371 0.00000302
0.12205398 0.33344530 -0.00000071
-0.18352495 0.24181866 -0.00000065
-0.33350292 0.09803094 -0.00000052
0.16291678 0.60986681 -0.00000071
-0.32150954 0.35230917 -0.00000058
-0.17341128 0.43222388 -0.00000075
-0.05036523 -0.17584576 -0.00000039
0.14289453 0.56590197 -0.00000100
0.75511968 0.04400982 -0.00000193
-0.52067155 -0.06361278 -0.00000029
0.31087267 0.32773777 -0.00000107
0.13193964 0.05725282 0.00000908
0.08769450 0.54310715 0.00000185
-0.15887900 0.38800665 -0.00000074
-0.43924220 -0.29322796 -0.00000032
-0.27888741 -0.43237489 -0.00000023
0.22504180 0.36625881 0.00000247
0.11081988 0.43465767 -0.00000077
0.26458805 0.23449073 0.00000407
-0.31248491 -0.39460722 -0.00000025
-0.69201096 -0.53824109 -0.00000002
0.55678864 -0.61524444 -0.00000012
0.43810521 0.36045158 -0.00000152
0.63123141 0.16470808 -0.00000178
0.10641821 -0.34736493 -0.00000028
-0.20595355 0.44357454 -0.00000072
-0.27811359 0.18736975 -0.00000059
0.06719009 -0.66844581 -0.00000008
0.31639413 0.29933553 0.00000191
-0.20621503 -0.35643112 -0.00000028
0.50584537 0.21218747 -0.00000147
-0.42939665 0.38002570 0.00666209
-0.57127833 -0.14887460 -0.00000022
-0.51095704 -0.37495421 -0.00000024
-0.61136809 0.68765458 0.35285838
0.16471477 -0.46165315 -0.00000021
0.13601427 0.63583364 -0.00000066
0.47568375 0.07491249 -0.00000111
-0.79884198 -0.67901339 0.00000000
-0.48154027 0.04229318 -0.00000035
-0.04065652 -0.56720273 -0.00000015
-0.71616771 0.16635919 0.05835496
-0.38604217 -0.77298583 -0.00000002
0.51422609 -0.23248441 -0.00000063
-0.04381972 -0.50958174 -0.00000018
0.20361490 0.15749819 -0.00000060
0.02278547 -0.72918017 -0.00000004
-0.45726488 0.60576493 0.18598743
0.23563059 -0.52124940 -0.00000017
-0.69862975 0.18517960 0.05926172
-0.26074850 0.04712817 -0.00000053
0.14398479 0.20975313 -0.00000063
0.56108486 -0.10499558 -0.00000103
-0.21760941 -0.09554070 -0.00000044
-0.71591543 -0.67087063 0.00000000
0.75325317 -0.43167648 -0.00000092
0.09867137 0.50783362 0.00000226
0.00778643 0.63630493 -0.00000090
0.27523425 -0.27871111 -0.00000033
-0.59601553 0.49545962 0.20610132
0.22940209 -0.14209162 -0.00000041
-0.18881991 0.49030855 -0.00000074
0.74271169 -0.06986980 -0.00000168
0.66010823 -0.36996245 -0.00000083
-0.34867099 0.20082061 -0.00000052
-0.10498827 0.74115455 0.03262604
-0.29923939 0.71792406 0.15355511
0.00730268 -0.28932170 -0.00000032
0.28896723 0.43204125 -0.00000121
0.61431625 -0.20449154 -0.00000101
-0.28910822 -0.68005058 -0.00000007
0.61324271 0.11139060 -0.00000041
0.32677584 0.08350915 -0.00000065
-0.40102348 0.13714446 -0.00000045
-0.44497701 -0.35801089 -0.00000028
-0.67822539 -0.38915642 -0.00000006
0.31040011 -0.10619931 -0.00000043
0.21228245 -0.30129257 -0.00000031
-0.64614740 -0.53704475 -0.00000007
0.71839571 -0.09740713 -0.00000155
-0.11869812 -0.64984068 -0.00000009
0.67317443 0.02905739 -0.00000165
0.57255480 -0.35354389 -0.00000058
-0.20131572 0.64056966 0.02961591
0.35020589 0.35765938 -0.00000126
-0.68307773 0.34645629 0.16230312
0.22769379 0.16359046 0.00000591
-0.68238774 -0.59782040 -0.00000002
0.03765150 0.12772001 -0.00000058
-0.46859569 0.58471202 0.17911294
-0.32394531 0.11237674 -0.00000053
-0.16708970 -0.29239946 -0.00000032
0.08282894 0.53521916 0.00000205
0.41135037 -0.23696402 -0.00000035
-0.25070742 0.23772638 -0.00000063
0.20772061 0.49963179 0.00000040
-0.29482067 -0.77340464 -0.00000002
-0.18084545 -0.44030021 -0.00000022
-0.46513319 0.69720119 0.25620580
-0.74247054 0.08219757 0.01744327
-0.76305456 -0.55119940 0.00000000
-0.18966360 -0.29286715 -0.00000032
0.20011604 0.04338613 -0.00000053
0.53237761 0.08063204 -0.00000130
0.19351891 -0.15759600 -0.00000040
0.05421157 -0.53145223 -0.00000017
0.14877728 0.54492001 0.00000072
0.71106315 0.04603860 -0.00000112
-0.15576817 0.58656092 -0.00000079
0.09668932 0.22215483 0.00000693
-0.17965620 0.66518929 0.03170893
-0.48301081 -0.31045605 -0.00000028
-0.29078445 -0.36868660 -0.00000027
-0.47716768 -0.60659822 -0.00000012
0.14748567 0.33984943 0.00000425
0.53980076 -0.19486356 -0.00000079
-0.41508963 0.07499310 -0.00000042
-0.72442397 0.35390892 0.19680877
-0.77139753 -0.65633236 0.00000000
0.05594210 0.55273396 -0.00000085
0.75352861 -0.59842218 -0.00000050
-0.61205748 0.16728219 -0.00000023
0.43913933 -0.10251792 -0.00000064
0.11068300 -0.65620320 -0.00000009
0.46788603 0.01857142 0.00000404
-0.61147986 0.51391618 0.23008683
0.45603136 0.26473761 -0.00000015
-0.79981313 -0.30426049 0.00000000
-0.12120906 0.40231301 -0.00000075
0.00510512 0.02006764 -0.00000051
-0.24160308 -0.22787580 -0.00000036
0.75635080 0.02619244 -0.00000163
0.79011553 -0.58908682 -0.00000053
-0.15378717 0.50418163 -0.00000078
0.08968589 -0.12174236 -0.00000042
0.01210534 0.34735861 0.00000617
0.20237863 0.11391659 0.00000710
0.09023562 -0.34927688 -0.00000028
0.06955731 0.71683125 -0.00000084
-0.28152411 0.58834737 0.04940504
-0.32846413 0.50566729 0.02413349
0.60508942 0.09499193 -0.00000156
0.01019946 0.63626502 -0.00000090
0.65323684 0.10881908 -0.00000174
-0.02354181 0.52093901 -0.00000083
-0.58492839 -0.79814013 -0.00000000
0.53458530 0.14865147 0.00000043
-0.24593972 -0.75643993 -0.00000003
0.70553061 -0.12572572 -0.00000145
-0.27498037 -0.76602349 -0.00000002
0.54779613 -0.66026943 -0.00000009
-0.26931111 0.36245414 -0.00000063
-0.65282761 0.04899409 -0.00000017
0.43898512 0.32569561 -0.00000091
0.08247581 0.19158571 0.00000764
0.24533559 0.37140466 0.00000198
0.01152059 0.69321066 -0.00000093
0.02478679 0.52564998 -0.00000083
-0.30195275 -0.37434566 -0.00000027
-0.55161594 0.62838898 0.26870075
-0.48809355 -0.62755191 -0.00000011
0.43702345 -0.73116990 -0.00000004
-0.43460291 -0.71950863 -0.00000005
0.49792153 0.29094819 -0.00000160
0.38089055 -0.38559721 -0.00000026
0.55144804 0.03096644 -0.00000126
0.02777189 0.30911533 -0.00000069
0.52713944 -0.28411320 -0.00000057
0.00548361 0.26338124 -0.00000066
0.09991890 0.14524485 -0.00000059
-0.37892501 -0.52618960 -0.00000017
0.19155394 -0.72247497 -0.00000005
0.12351285 0.42492420 0.00000323
-0.69519227 0.60205452 0.35160276
0.10531488 0.20327168 0.00000711
0.13040330 0.33059431 0.00000466
-0.61253749 0.54887454 0.25555378
-0.27664006 0.16509412 -0.00000059
0.29822223 0.01674226 -0.00000051
-0.22445710 -0.15163450 -0.00000041
-0.37727207 -0.75234157 -0.00000003
0.38708484 -0.39579316 -0.00000025
0.18294168 -0.59887449 -0.00000013
0.62600759 -0.78435286 -0.00000001
0.67598848 -0.55939048 -0.00000051
-0.58266781 -0.28120723 -0.00000018
0.00378311 -0.41423947 -0.00000024
0.65445595 0.00677484 -0.00000155
-0.18609648 0.04659116 -0.00000053
0.34586545 -0.28487868 -0.00000032
-0.60209289 0.50138303 0.21458708
-0.34668302 0.62010326 0.11793342
0.45848689 -0.64996426 -0.00000009
0.03430790 0.43112327 0.00000448
-0.64452719 0.41869485 0.18612370
-0.00802461 0.44910860 -0.00000078
-0.63706295 -0.60861578 -0.00000006
0.07149925 0.35817565 0.00000510
-0.25169687 0.73054774 0.12886391
-0.41185845 -0.04657644 -0.00000041
0.41475896 0.16350312 0.00000246
0.60471836 -0.05550876 -0.00000127
-0.35606197 -0.43521195 -0.00000023
0.12005976 -0.75203876 -0.00000003
-0.35281258 -0.14661950 -0.00000041
0.10175432 0.32242284 -0.00000070
-0.52824504 0.14628910 -0.00000032
-0.29756704 0.71497178 0.15028502
-0.42561645 -0.23113277 -0.00000036
-0.09652966 0.56995833 -0.00000085
-0.37119969 -0.38442003 -0.00000026
0.10770122 -0.69871703 -0.00000006
-0.16313251 0.63793432 0.00075313
-0.62100733 0.65114097 0.33385551
0.23900075 0.53358136 -0.00000081
0.35059028 0.21730304 -0.00000099
0.73621990 -0.05776333 -0.00000168
-0.57970079 -0.32391871 -0.00000018
0.45296897 0.17155051 0.00000158
-0.67250843 -0.79131746 0.00000000
-0.07950528 -0.13358907 -0.00000042
-0.67884907 -0.01026898 -0.00000013
0.27143191 0.14987015 0.00000546
0.50495300 -0.36468556 -0.00000034
-0.15197675 -0.22114960 -0.00000036
-0.42602849 -0.05219120 -0.00000039
-0.64327396 -0.55545774 -0.00000007
0.27399890 -0.11624621 -0.00000043
-0.67208796 0.26871238 0.09955979
-0.57064485 0.14216582 -0.00000027
0.12683705 0.47104177 0.00000243
0.15480831 0.30984480 0.00000463
-0.38191806 0.01094278 -0.00000045
0.01292770 0.51041377 0.00000351
-0.69674779 0.11901886 0.01114893
-0.31458951 -0.34834325 -0.00000028
0.47222526 -0.27809131 -0.00000041
0.59268317 -0.31535958 -0.00000072
-0.13073446 0.07091320 -0.00000054
-0.43357550 -0.31410739 -0.00000030
-0.29812186 0.54141635 0.02795653
0.49683866 0.09817651 0.00000206
0.13855446 -0.15052180 -0.00000041
-0.09164908 0.63185608 -0.00000087
-0.48093059 0.03166060 -0.00000035
-0.16734318 0.63975144 0.00501537
-0.39943255 -0.35590696 -0.00000028
-0.37445758 -0.65967545 -0.00000009
-0.10053644 0.70192738 0.00174075
-0.28248936 0.01961030 -0.00000051
0.05043622 -0.61159072 -0.00000012
-0.35156123 0.70837330 0.18379864
-0.65467612 0.43856707 0.20735159
0.51855042 0.26863244 -0.00000162
-0.34403042 0.60899675 0.10820435
0.12233338 0.52061835 -0.00000085
0.44126134 -0.12402566 -0.00000061
0.00021631 -0.48551086 -0.00000020
-0.12455209 0.39078941 -0.00000074
-0.50882790 0.68827406 0.28079004
-0.62305444 0.19014587 0.00933406
0.16401630 0.27536831 0.00000505
-0.72128861 0.06808006 -0.00000010
0.27649208 0.37584478 0.00000131
-0.20592051 -0.66765978 -0.00000008
-0.03309530 0.78654699 0.01388741
-0.00452564 -0.05586843 -0.00000047
0.26210123 -0.64968045 -0.00000009
-0.17713230 0.70204347 0.05598376
0.50062669 -0.53623613 -0.00000016
0.35873769 -0.01071667 -0.00000057
-0.10432489 0.75037536 0.03867700
0.43363626 -0.79932862 -0.00000000
0.03085867 0.11357351 -0.00000057
-0.50421340 -0.22522966 -0.00000027
-0.30444168 0.40210619 -0.00000060
-0.12100372 0.06536716 -0.00000054
0.46892907 0.29662431 -0.00000097
-0.17242998 -0.11978932 -0.00000043
0.45947636 -0.37775486 -0.00000026
0.75739316 -0.58615831 -0.00000053
-0.45307290 0.68624957 0.23993404
-0.52541928 -0.74716070 -0.00000003
0.67241597 -0.25003184 -0.00000110
-0.19351757 -0.03632157 -0.00000048
-0.37645375 0.31973060 -0.00000051
-0.64841138 -0.06061969 -0.00000015
-0.26245278 0.50541436 -0.00000067
0.41997015 -0.64888945 -0.00000009
0.06186416 0.12516580 0.00000903
0.10543226 0.38557854 0.00000414
0.25734726 0.07577571 0.00000689
0.35902644 -0.09378966 -0.00000044
-0.42961029 0.27496030 -0.00000045
-0.69115662 -0.26513815 -0.00000007
-0.46366922 0.65922359 0.22831663
-0.04578434 0.23960327 -0.00000065
0.73047616 -0.77815990 -0.00000005
-0.12206421 -0.00060539 -0.00000050
-0.74945736 -0.78336667 0.00000000
-0.65458049 0.54212288 0.28050836
0.57408091 -0.49724995 -0.00000031
0.01045332 0.01213265 -0.00000051
0.05356458 0.26354942 0.00000691
-0.66996207 -0.55448225 -0.00000004
0.05337031 0.53454611 -0.00000083
-0.16006808 0.73293332 0.06575985
-0.40865633 0.58233332 0.13504772
0.54670721 -0.48017454 -0.00000025
0.09010534 0.24216957 0.00000671
-0.50677395 -0.27254625 -0.00000026
-0.40390462 0.27987308 -0.00000047
-0.09687266 0.27745249 -0.00000067
0.34720269 0.03372545 -0.00000062
0.46326728 0.30898075 -0.00000108
0.31919516 0.43095112 -0.00000050
-0.07499050 0.77677671 0.03660301
