ply
format ascii 1.0
element vertex 1380
property float x
property float y
property float z
end_header
-0.35174249 0.04578303 0.00000324
-0.38421123 0.17819801 0.00000279
-0.51076211 -0.30837910 0.28523441
-0.48954799 0.26177336 0.00000188
-0.18479858 -0.08475764 0.00000229
-0.64830163 0.08331832 0.00000025
-0.08698585 0.15188850 0.00000377
-0.30607340 -0.51610271 0.00000124
-0.40818817 -0.69380744 0.00000046
-0.03875781 0.57062604 0.00000600
-0.31727034 0.05168165 0.04036900
-0.14034530 -0.59950259 0.00000088
-0.14130997 -0.33954206 0.00000137
-0.62207147 -0.63920428 0.14320441
-0.32181911 -0.26608631 0.00000234
-0.15949055 0.06502057 0.00000306
-0.24542916 0.29153334 0.19225160
-0.11368650 0.49053037 0.00000722
-0.12095610 0.67118536 0.00000564
-0.45463434 -0.18853879 0.24941178
-0.22774107 0.47371259 0.00000449
-0.10052320 0.59005748 0.00000592
-0.10247974 0.01407851 -0.00000888
-0.69354579 -0.35898963 -0.00000058
-0.31794499 -0.44178965 0.00000157
-0.16124481 0.45316668 0.09709839
-0.53423623 0.04576184 0.00000110
-0.57231369 -0.53127543 0.11531243
-0.16442724 0.23912472 0.00000380
-0.43667990 -0.65841444 -0.00000136
-0.02780866 0.09648291 0.00000380
-0.33731624 -0.02740409 0.00000338
-0.11175351 0.43452450 0.00000490
-0.71898859 -0.23383849 -0.00000094
-0.62597326 -0.71220529 -0.00000245
-0.33509494 0.24218299 0.00000334
-0.27871276 -0.13208895 0.00000166
-0.60584264 -0.10920224 0.00000033
-0.29676105 0.18253409 0.22639272
-0.28802151 -0.40776278 0.00000041
-0.07894561 0.30380245 0.00000483
-0.32835528 -0.62192030 0.00000078
-0.32305424 0.06082940 0.09322493
-0.29567992 0.30081469 0.00000529
-0.04409133 -0.32446068 0.00000188
-0.25189267 -0.79211276 -0.00000111
-0.09667509 -0.31122803 0.00000170
-0.46518590 -0.17366471 0.00000201
-0.34401822 -0.01753483 0.02975335
-0.23351249 -0.38937218 0.00000074
-0.07890100 -0.25252097 0.00000240
-0.00005588 -0.13632306 0.00000290
-0.48437690 0.11062253 0.00000165
-0.49577026 -0.71977910 0.00000035
-0.08626844 -0.46978637 0.00000144
-0.20078967 -0.11217548 0.00000210
-0.12546149 -0.68023820 0.00000052
-0.20096218 0.37932851 0.14752359
-0.03336917 0.21672736 0.00000430
-0.71230301 -0.45479205 -0.00000075
-0.66803906 0.06415772 -0.00000048
-0.13721316 0.10793168 0.00000397
-0.28533556 0.21451151 0.23644186
-0.31635577 -0.33338660 0.00000204
-0.52475834 0.14072192 0.00000217
-0.28834120 0.12229687 0.04210994
-0.14150420 0.59559269 0.00000591
-0.06553309 -0.54887316 0.00000110
-0.10759773 0.07004578 -0.00000741
-0.22305318 -0.10205398 0.00000305
-0.13168310 -0.78270290 0.00000008
-0.02997088 -0.18831728 0.00000254
-0.05731638 0.26990726 0.00000945
-0.03020115 0.58629412 0.00000788
-0.70774166 -0.20332411 -0.00000082
-0.17802567 0.27961861 -0.00000052
-0.46168138 -0.19771239 0.26734060
-0.28120720 -0.53099610 0.00000118
-0.63721712 -0.72814340 0.00000026
-0.73152402 -0.70645029 -0.00000023
-0.34845842 -0.54983538 0.00000109
-0.17184180 -0.54663825 0.00000111
-0.18730361 -0.54674951 0.00000111
-0.27225243 0.15006746 0.00000412
-0.27341556 -0.74568724 0.00000024
-0.02983279 0.57297499 0.00000587
-0.30106547 0.32164777 0.00000370
-0.21801173 0.34060356 0.15309997
-0.12005273 -0.09291162 0.00000255
-0.02935652 0.48573270 0.00000033
-0.36503308 -0.05073150 0.06986187
-0.61296044 -0.73380012 0.00000029
-0.54494477 0.01385715 0.00000279
-0.48289103 -0.75535553 0.00000020
-0.32799695 0.12026087 0.25643628
-0.42417722 -0.37769500 -0.00000007
-0.22284667 -0.57854606 -0.00000004
-0.29871278 -0.18151254 0.00000271
-0.55356622 0.18676737 0.00000125
-0.29618662 0.15077089 0.00000648
-0.27168067 0.42669240 0.00000475
-0.66063727 -0.12512820 -0.00000030
-0.38364543 -0.71584657 0.00000037
-0.24582325 0.15025169 -0.00000175
-0.27679179 0.09875402 0.00000393
-0.31208561 0.10169644 0.00000656
-0.55089846 -0.46941894 0.13853897
-0.10024717 0.45125881 0.00000144
-0.35019438 -0.58836413 -0.00000066
-0.35367245 -0.41841582 0.00000007
-0.35347273 0.22985663 0.00000475
-0.22036060 -0.64268208 -0.00000031
-0.45580596 -0.14816477 0.34821691
-0.10890449 0.07220825 0.00000332
-0.67911829 -0.50726447 -0.00000033
-0.32968852 -0.01049244 0.00000345
-0.15560086 -0.74007223 0.00000026
-0.29380629 -0.70340831 -0.00000091
-0.15662447 0.27204637 0.00000794
-0.33474205 -0.69115321 0.00000048
-0.31295655 0.17408810 0.00000597
-0.11591405 -0.04070760 0.00000280
-0.16163417 -0.68068906 -0.00000021
-0.18251052 -0.16526032 0.00000195
-0.59577094 -0.54501848 0.21339502
-0.79804344 -0.76981086 -0.00000008
-0.72348475 -0.53795175 -0.00000066
-0.05477452 0.33846487 0.00000473
-0.38313950 0.02201445 0.00000583
-0.66939719 -0.61251196 -0.00000017
-0.07164133 0.64401085 0.03883587
-0.05562513 0.57684202 0.00000756
-0.19434188 0.59270766 0.00000482
-0.35837602 -0.74292171 0.00000025
-0.54143855 -0.38115763 0.28816242
-0.57282150 -0.55008527 0.07509770
-0.42495950 -0.07175862 0.35264089
-0.37432078 -0.46081254 0.00000148
-0.14785275 -0.21945123 0.00000187
-0.52253541 -0.48808836 0.00000136
-0.35479366 0.01079718 0.15404404
-0.42079463 -0.19567310 0.04625525
-0.61193697 0.10457999 0.00000078
-0.62070654 -0.69445551 0.00000044
-0.39765997 0.23978916 0.00000261
-0.17522747 -0.77327234 -0.00000068
-0.59167692 -0.11217513 0.00000050
-0.09106341 0.30038500 0.00000440
-0.07223565 -0.35559750 0.00000162
-0.15364368 0.09525450 0.00000909
-0.37242239 -0.05220355 0.10729404
-0.25958457 0.17690515 0.00822435
-0.41470536 0.26224103 0.00000239
-0.59303838 -0.21246833 0.00000053
-0.16134749 -0.11486390 0.00000227
-0.53483212 -0.11867704 0.00000117
-0.01834712 0.21812683 -0.00000632
-0.58453007 -0.53448076 0.17543227
-0.52913692 -0.44679249 0.07013351
-0.29135657 -0.54545167 0.00000111
-0.45972849 -0.20214611 0.24641803
-0.29439571 0.13296386 0.09994163
-0.11502174 0.08111344 -0.00000695
-0.46621078 -0.19932485 0.00000201
-0.43842639 -0.24671868 0.02686371
-0.59348048 -0.51885199 0.00000068
-0.40500239 -0.18214971 0.00000087
-0.53480009 -0.37516090 0.26522467
-0.63603106 -0.64623721 0.20419280
-0.28459995 0.16353611 0.11577879
-0.16265253 0.07844008 -0.00000572
-0.26045203 0.39005377 0.00000526
-0.57988396 -0.67101357 0.00000056
-0.60417467 -0.63581190 0.05215031
-0.17711180 0.31741180 0.00000035
-0.22947901 -0.01355084 0.00000240
-0.41964803 -0.11447336 0.22563001
-0.03540848 0.45717366 0.00000534
-0.06832980 0.28651939 0.00000444
-0.00236818 -0.67070864 0.00000057
-0.31048329 -0.03181957 0.00000336
-0.30677571 -0.29809045 0.00000081
-0.08739853 0.59228201 0.00000697
-0.53899773 0.18298026 0.00000156
-0.19552173 -0.47138520 0.00000144
-0.18108391 0.39281803 0.06862489
-0.28468942 0.21972256 0.24479212
-0.04940495 0.26630739 0.00000467
-0.24346643 0.21270014 0.00109573
-0.16338411 0.02122446 -0.00000706
-0.49168258 -0.35700161 0.06868935
-0.57346896 -0.27135062 0.00000079
-0.08695227 0.59205373 0.00453902
-0.34172569 0.08540929 0.25252265
-0.43631183 -0.20571064 0.10897478
-0.25231581 0.25694366 0.15116124
-0.24699406 0.20919707 0.01256246
-0.07440437 0.03069423 -0.00000925
-0.12152756 0.65251929 0.00000565
-0.71628954 -0.08538902 -0.00000098
-0.60472835 -0.21889296 0.00000040
-0.34200804 0.22753310 0.00000326
-0.07631462 -0.59381151 0.00000090
-0.65876728 0.03777625 -0.00000036
-0.23809972 0.12130165 0.00000403
-0.04512140 -0.47023082 0.00000124
-0.01103879 -0.31817385 0.00000206
-0.46729292 -0.32364696 0.01030878
-0.09875519 -0.21664287 0.00000255
-0.62375034 -0.67695737 0.06613348
-0.23894748 0.26662050 0.09949235
-0.17526755 0.38684910 0.02284102
-0.36810575 -0.04810780 0.09282752
-0.29139442 -0.06389802 0.00000322
-0.21833482 -0.70045174 -0.00000055
-0.00371374 0.75922473 0.00000680
-0.26977925 0.19733139 0.11125906
-0.24969577 -0.23209357 0.00000135
-0.32729223 0.10087323 0.20820536
-0.33345964 0.09600527 0.00000620
-0.05180319 -0.04559451 0.00000330
-0.04438484 0.70881467 0.03655458
-0.44285581 -0.54728443 -0.00000090
-0.31605169 -0.77520434 0.00000011
-0.41787680 -0.64361333 0.00000068
-0.41621010 0.05773604 0.00000248
-0.15186271 0.05786604 0.00000375
-0.36722021 0.37017171 0.00000337
-0.21651664 0.04849420 0.00000843
-0.46329241 -0.43628032 -0.00000051
-0.43090980 -0.55543173 0.00000107
-0.17195776 -0.23792779 0.00000246
-0.41155384 -0.49251838 -0.00000052
-0.38929212 0.38419972 0.00000263
-0.38255846 -0.07643715 0.10783586
-0.44380387 -0.09790566 0.39689308
-0.18227761 0.00783009 0.00000353
-0.04319379 0.31351555 0.00000487
-0.50308011 -0.28745239 0.29067937
-0.52922543 0.24156124 0.00000128
-0.29022088 -0.36968844 0.00000057
-0.51047307 -0.31403718 0.27069840
-0.47114485 0.07119059 0.00000375
-0.21838887 -0.17299896 0.00000175
-0.31846045 -0.36410853 0.00000047
-0.40187716 -0.64457330 -0.00000114
-0.03982473 0.35390986 0.00000505
-0.79168155 -0.36811501 -0.00000108
-0.44760427 -0.74714097 0.00000023
-0.27419545 0.16682801 0.06588050
-0.39396616 -0.16241129 0.00000279
-0.34374321 0.06893641 0.00000332
-0.42618860 -0.08317677 0.33331083
-0.32802328 0.06608618 0.13268303
-0.33902632 0.05065421 0.15812044
-0.04707229 -0.11820629 0.00000277
-0.30134348 0.48556316 0.00000371
-0.07328645 0.44851795 0.00000064
-0.58224805 -0.19132421 0.00000065
-0.09719251 0.41576332 0.00000051
-0.34114991 -0.00163306 0.05028416
-0.44823491 -0.10672936 0.40117702
-0.05106760 0.24222624 0.00000433
-0.23296231 -0.25859399 0.00000237
-0.64241201 0.07240901 -0.00000019
-0.01180955 -0.36391937 0.00000185
-0.40552116 -0.49332726 0.00000134
-0.29913083 0.17561751 0.00000622
-0.66127539 -0.63061540 -0.00000007
-0.77517091 -0.66916857 -0.00000033
-0.61145488 -0.69719066 -0.00000232
-0.24427546 0.23263843 0.05119214
-0.13364807 0.22611731 0.00000857
-0.35246780 0.09530257 0.00000321
-0.21135855 -0.53682418 0.00000019
-0.11051711 0.55179429 0.00000582
-0.11609657 0.42597397 0.00000759
-0.32750360 0.00995240 0.00139390
-0.42873492 0.09540885 0.00000437
-0.27100416 0.19112766 0.00000664
-0.09034524 0.37824862 0.00000475
-0.18761837 0.05776052 0.00000375
-0.09535795 -0.39344851 0.00000178
-0.62893611 -0.64285502 0.17275576
-0.40449018 0.11462332 0.00000468
-0.47655847 -0.62797503 0.00000075
-0.47449429 -0.66889397 0.00000057
-0.31666939 -0.46978181 0.00000144
-0.16182384 0.02650000 -0.00000698
-0.21604197 0.30534623 0.06157144
-0.12515084 0.21725819 -0.00000344
-0.32476442 -0.25121278 0.00000093
-0.25170884 0.34105160 0.00000582
-0.54595800 0.23911845 0.00000098
-0.24748896 0.10962370 0.00000286
-0.56435998 -0.14008502 0.00000083
-0.31440672 0.08618766 0.10347399
-0.39523610 -0.00465383 0.34200052
-0.10205351 0.49646881 0.00000256
-0.19271962 -0.06001148 0.00000324
-0.51277186 -0.38203008 0.12788956
-0.43040592 -0.17303266 0.15110155
-0.62235723 -0.67326171 0.06689369
-0.03886657 0.03589225 -0.00001009
-0.24787664 0.23286727 0.07157768
-0.30136151 -0.05128382 0.00000191
-0.43637003 -0.60012031 0.00000087
-0.15836064 -0.05029194 0.00000256
-0.52489278 -0.43836019 0.06598501
-0.22802951 0.45031119 0.00000540
-0.19473286 -0.08627974 0.00000312
-0.30501677 0.23563081 0.00000369
-0.74897093 -0.05592212 -0.00000137
-0.00365659 0.59538420 0.00000610
-0.28432275 0.22289303 0.25001853
-0.58369730 -0.46044277 0.00000076
-0.60374776 -0.65639425 0.00272093
-0.09530941 0.03233729 0.00000364
-0.49939122 -0.25069980 0.35436578
-0.61981557 -0.32611764 0.00000027
-0.30807804 0.07646385 0.04626060
-0.35581237 0.06819681 0.29093806
-0.49849427 -0.59908999 -0.00000138
-0.07437839 0.43889844 0.00000044
-0.27018239 0.17555237 0.06365079
-0.15154328 -0.05995784 0.00000324
-0.65920390 -0.75511115 0.08314274
-0.14524241 0.57943688 0.00000597
-0.08032472 0.62546131 0.04435624
-0.17469871 0.21727253 0.00000801
-0.05913199 0.21037361 0.00000415
-0.41743350 -0.33266282 0.00000204
-0.24432807 0.11235154 0.00000399
-0.50780726 0.28434401 0.00000135
-0.08582939 0.25677194 0.00000423
-0.27562152 0.06288924 0.00000253
-0.00107667 -0.25131309 0.00000240
-0.42181713 -0.07075555 0.33758989
-0.41741642 0.18787909 0.00000385
-0.43180266 -0.76893689 -0.00000182
-0.15960954 0.28777130 0.00000404
-0.00701062 -0.17159231 0.00000275
-0.47231335 -0.67107864 0.00000056
-0.13031163 0.50167497 0.03725247
-0.38863102 0.33397261 0.00000267
-0.47964739 -0.51318545 0.00000125
-0.48152870 -0.46230239 0.00000148
-0.34009102 0.04173937 0.00000338
-0.40495112 -0.22348647 0.00000252
-0.16413204 0.19359674 0.00000435
-0.30569505 -0.55205853 0.00000108
-0.02778197 0.04615521 0.00000370
-0.29379557 0.12836083 0.08609903
-0.36184940 0.02689965 0.22982776
-0.20253034 0.39041889 0.00000482
-0.22466259 0.25868104 0.00243534
-0.20539862 0.32322371 0.04371076
-0.25690230 0.04588656 -0.00000393
-0.50566869 -0.68465692 0.00000050
-0.47461505 0.17707868 0.00000173
-0.51581326 -0.54486028 0.00000112
-0.15823422 0.28320238 -0.00000098
-0.28294078 0.19469255 0.17789313
-0.05124696 0.46175140 0.00000834
-0.35154605 0.41375400 0.00000306
-0.15950822 -0.36617686 0.00000190
-0.62154066 -0.73539146 -0.00000253
-0.14628942 0.45865547 0.02708464
-0.16475176 0.13293612 0.00000334
-0.63028886 -0.65425805 0.15414618
-0.60086279 -0.54525200 0.24097363
-0.18211513 -0.25756756 0.00000237
-0.14651320 0.19394981 -0.00000341
-0.03710318 -0.79137848 -0.00000013
-0.02077255 -0.78121438 -0.00000001
-0.28844902 0.39227038 0.00000381
-0.06793370 0.09473902 0.00000391
-0.52053591 -0.52467526 -0.00000115
-0.50391451 -0.28667338 0.29706800
-0.36492302 -0.19846804 0.00000263
-0.55709984 -0.47584130 0.15809073
-0.59755459 -0.66503324 -0.00000211
-0.01074827 0.12739736 0.00001104
-0.53521988 0.12922099 0.00000104
-0.10844570 -0.75251832 -0.00000028
-0.06169971 0.08676774 0.00000388
-0.36833283 -0.22461778 0.00000085
-0.22220378 -0.12898970 0.00000193
-0.28266132 -0.17317856 0.00000274
-0.03774014 0.37110641 -0.00000216
-0.24935433 -0.40376822 0.00000173
-0.61674296 -0.64660249 0.09686566
-0.17136739 0.39918645 0.02954150
-0.04364738 -0.50728158 0.00000128
-0.24554094 -0.69976519 0.00000044
-0.29581621 -0.33503596 0.00000203
-0.57420674 -0.11208251 0.00000070
-0.44378969 -0.29292767 0.00000021
-0.23784687 -0.03933531 0.00000225
-0.05533648 0.68604836 0.04495573
-0.20417234 -0.47646999 0.00000049
-0.25613536 -0.52993707 0.00000118
-0.41624024 -0.41209918 -0.00000019
-0.08697876 -0.58284599 0.00000095
-0.19512540 -0.13346417 0.00000203
-0.09276418 -0.79697789 0.00000001
-0.15824972 -0.22303674 0.00000252
-0.11958852 0.50960484 0.00000573
-0.17444697 0.39329295 0.03306626
-0.38973523 -0.68047041 0.00000052
-0.27503653 -0.17400598 0.00000274
-0.18107586 0.27549063 0.00000755
-0.04412508 -0.37751849 0.00000165
-0.42335790 -0.34642795 0.00000007
-0.24047639 0.32380420 0.00000441
-0.22722551 -0.70276518 0.00000043
-0.36594594 0.03982147 0.28199133
-0.21963290 -0.27228498 0.00000131
-0.18523264 -0.48799536 0.00000137
-0.39507696 -0.38397069 0.00000182
-0.64517365 -0.03239483 -0.00000017
-0.21783143 0.30973101 0.08148221
-0.26866872 0.05198630 0.00000373
-0.15129863 -0.15699993 0.00000281
-0.13334611 0.01247836 0.00000355
-0.44004815 -0.20412519 0.13323020
-0.00066312 0.59885033 0.00000224
-0.14169254 -0.37498927 0.00000186
-0.04008094 0.72650541 0.00000657
-0.50582468 -0.37564432 0.10413626
-0.10198013 0.04554335 0.00001018
-0.21574136 0.53364851 0.00000498
-0.41685101 -0.27560797 0.00000041
-0.27422479 0.00665800 0.00000229
-0.42041398 0.17445098 0.00000390
-0.28474944 -0.60805056 -0.00000045
-0.51620653 -0.47183980 -0.00000090
-0.08481390 0.12854864 -0.00000664
-0.41701554 -0.25586108 0.00000238
-0.24082321 0.30000216 0.18619341
-0.19827185 -0.71499603 0.00000037
-0.56280625 0.05715463 0.00000210
-0.22380189 -0.30614010 0.00000216
-0.29152444 0.10007147 0.00885077
-0.31606770 0.01957157 0.00000359
-0.15206016 0.47202263 0.08951778
-0.48872903 -0.32817230 0.11831504
-0.76177316 -0.08604804 -0.00000151
-0.33743485 -0.74524490 -0.00000129
-0.16537356 -0.64691073 -0.00000008
-0.40245721 0.01592351 0.00000266
-0.11550929 -0.48616946 0.00000137
-0.32875423 0.08505107 0.18007544
-0.08771523 -0.77210781 -0.00000028
-0.26747684 -0.48486170 0.00000138
-0.15974368 0.47048710 0.12842680
-0.11231061 0.53232419 0.00794537
-0.42198946 -0.21741659 0.00312447
-0.74646289 -0.36109993 -0.00000110
-0.47838354 -0.26400048 0.20795649
-0.03526867 -0.26112268 0.00000236
-0.27689751 0.13919362 0.01759901
-0.59801667 0.17742785 0.00000028
-0.32741545 0.08643133 0.17585676
-0.38242312 0.09317811 0.00000528
-0.72723517 -0.57327596 -0.00000057
-0.36276679 0.00976027 0.19569484
-0.06079300 0.03435070 0.00000338
-0.26543513 -0.30703230 0.00000096
-0.09122065 0.11034479 0.00000993
-0.18167499 0.30639112 0.00000734
-0.18086011 0.38777108 0.05583176
-0.08150270 -0.72777308 -0.00000005
-0.20647922 -0.72344754 0.00000033
-0.55483419 0.24438394 0.00000076
-0.49497565 -0.31713752 0.17804147
-0.26204836 0.09378580 -0.00000266
-0.05261255 -0.10264357 0.00000305
-0.21433704 0.30206743 0.04467787
-0.65682484 -0.29734854 -0.00000018
-0.04416995 -0.28247368 0.00000226
-0.18919010 0.24078108 -0.00000114
-0.15519283 0.28406781 0.00000404
-0.31351867 -0.71041054 -0.00000103
-0.27336855 0.22729149 0.19958923
-0.11450311 0.38966765 0.00000784
-0.38647326 0.00490686 0.31548100
-0.40999561 -0.02694490 0.37251483
-0.19712227 -0.03679857 0.00000245
-0.04754999 -0.37487235 0.00000164
-0.01834420 0.76187964 0.01413688
-0.46220915 -0.31467966 0.00274797
-0.40049484 -0.12440577 0.09716330
-0.26294719 0.18574138 0.04700402
-0.28043597 0.02533621 0.00000761
-0.14496471 0.49601513 0.00000545
-0.48378091 -0.35237102 0.03565186
-0.68496424 -0.40764248 -0.00000045
-0.36891162 0.05390749 0.33058708
-0.57339362 -0.56504070 0.04405318
-0.03344616 -0.73311321 0.00000029
-0.02759361 0.16792179 0.00001053
-0.10643636 -0.13519415 0.00000291
-0.26123669 -0.68713120 0.00000049
-0.16057456 -0.59988289 0.00000088
-0.55678778 -0.43275181 0.25491363
-0.14623021 0.14260873 -0.00000464
-0.41271616 0.24778962 0.00000347
-0.50575501 -0.53454563 0.00000116
-0.38377384 0.37405251 0.00000302
-0.53768952 -0.36523445 0.00000126
-0.40638464 -0.33011691 0.00000206
-0.38031033 -0.66639056 -0.00000114
-0.30191464 -0.62592318 0.00000076
-0.01620713 0.26370336 0.00000465
-0.06976654 0.64677691 0.03481028
-0.27643933 -0.43556024 0.00000034
-0.50325408 -0.69285255 0.00000047
-0.53447093 -0.18397429 0.00000121
-0.13001223 0.50633124 0.04623846
-0.01522003 -0.25629583 0.00000238
-0.05626922 -0.72855638 0.00000031
-0.42413875 -0.58987431 0.00000092
-0.24358856 0.01168675 0.00000355
-0.17565958 -0.77225411 0.00000012
-0.03012593 0.52363634 0.00000125
-0.08695541 0.17822113 -0.00000541
-0.35262217 0.05029046 0.23237643
-0.44755456 -0.16446067 0.26538913
-0.15068403 -0.16654283 0.00000209
-0.33362740 -0.26105331 0.00000085
-0.58665630 0.11185057 0.00000121
-0.35695736 -0.73370738 -0.00000133
-0.10252374 0.55466535 0.00501649
-0.40355853 -0.04456653 0.29666300
-0.17156803 -0.51153040 0.00000126
-0.51202625 -0.65333335 -0.00000168
-0.16395046 0.41965293 0.03538180
-0.12650669 0.48527380 0.00000706
-0.26393067 0.09030781 0.00000390
-0.46570402 -0.68494374 -0.00000160
-0.08136431 0.03704087 -0.00000891
-0.37087873 -0.74799675 -0.00000145
-0.08699122 -0.72809685 -0.00000008
-0.40181065 -0.60279998 -0.00000096
-0.41821917 -0.40612130 0.00000172
-0.26420005 -0.13645487 0.00000290
-0.01243705 0.28499549 0.00001003
-0.34850869 -0.23848718 0.00000088
-0.27362151 -0.09797098 0.00000307
-0.24411484 -0.29750448 0.00000109
-0.23306070 0.28085171 0.09953655
-0.51065803 -0.30976835 0.28148252
-0.35942951 -0.01813871 0.11346306
-0.50005429 -0.63534478 -0.00000154
-0.37467145 0.02628969 0.00000596
-0.63811318 -0.70777697 0.07494976
-0.40714407 0.17938286 0.00000252
-0.26949600 0.23332452 0.00000633
-0.21929355 0.01242127 0.00000861
-0.10423782 -0.22596954 0.00000251
-0.63712859 -0.77534644 -0.00000278
-0.34748137 -0.01834818 0.04701441
-0.30435002 0.18512649 0.00000605
-0.68655178 -0.18327360 -0.00000058
-0.71580177 0.03096486 -0.00000103
-0.17907987 0.22079369 0.00000366
-0.06820735 0.51992648 0.00000220
-0.15850920 0.22776400 0.00000818
-0.05691038 0.05521730 -0.00000914
-0.20308603 0.09780689 0.00000393
-0.72188342 -0.60086952 -0.00000050
-0.38523517 -0.09804330 0.07320117
-0.10968651 0.53678923 0.00368142
-0.09303294 -0.77805609 -0.00000033
-0.06255773 0.29041524 -0.00000340
-0.28125116 0.17557043 0.12481340
-0.52565335 -0.56320741 0.00000104
-0.66965697 0.01743350 0.00000036
-0.03891165 0.60003555 0.00000595
-0.39442884 -0.07368885 0.17966160
-0.24570582 0.31510624 0.00000435
-0.16640778 0.24627096 0.00000458
-0.29857257 0.08610849 0.01583230
-0.23578354 -0.22716084 0.00000144
-0.10816383 0.00198985 0.00000351
-0.00242260 -0.06211762 0.00000323
-0.02684447 0.06167220 0.00001121
-0.44358179 0.02378450 0.00000466
-0.70256360 0.06890836 -0.00000068
-0.28031723 0.15659518 0.07625356
-0.14433099 0.48993701 0.08781303
-0.30353037 0.07046130 0.00745554
-0.20803729 0.56501489 0.00000467
-0.11221581 0.32991668 0.00000444
-0.21515479 0.31320574 0.07464978
-0.60960117 -0.75799714 0.00000018
-0.11469321 0.36508680 0.00000799
-0.39003510 0.08176381 0.00000277
-0.01974454 -0.71186076 0.00000030
-0.19265913 -0.66396862 -0.00000028
-0.06793764 -0.66660102 0.00000028
-0.29069699 0.09006741 0.00000389
-0.19099360 0.35614125 0.03944054
-0.24318606 0.36870413 0.00000436
-0.40625646 -0.06623575 0.26201119
-0.33890446 0.04401251 0.14227866
-0.07749430 0.18031216 0.00000394
-0.68043117 0.02123596 0.00000013
-0.17950674 -0.74558416 0.00000024
-0.18778297 0.03293825 0.00000896
-0.42131774 0.05574482 0.00000483
-0.10069588 0.28965546 0.00000477
-0.15049725 0.48650778 0.11401303
-0.49100104 -0.36390109 0.04914710
-0.61309326 -0.61778780 0.14261326
-0.36189185 0.36057124 0.00000355
-0.55164272 -0.46731318 0.00000114
-0.70725800 -0.22988525 -0.00000080
-0.40140337 -0.55359305 -0.00000074
-0.54609919 0.18273563 0.00000142
-0.09307631 0.13502920 0.00000409
-0.26214086 0.18081161 0.03130394
-0.30681169 0.34938319 0.00000362
-0.01831840 0.25190958 -0.00000552
-0.15244603 0.16576787 0.00000423
-0.34497732 -0.50279420 0.00000130
-0.17205655 0.13902601 0.00000411
-0.61605274 0.14978858 0.00000034
-0.14942776 0.29582927 -0.00000092
-0.19391380 0.58338088 0.00000500
-0.40678725 -0.26527729 0.00000050
-0.44145429 -0.20019522 0.00000231
-0.31380681 -0.65769004 -0.00000080
-0.45960102 -0.01053236 0.00000200
-0.56319139 -0.46414718 0.21846884
-0.34551817 -0.58920157 0.00000092
-0.05801197 0.34453581 -0.00000224
-0.55246363 -0.43214031 0.00000112
-0.06863305 -0.10604247 0.00000273
-0.35505741 -0.04941499 0.01779375
-0.16647935 0.04617799 0.00000370
-0.02576521 0.43363148 0.00000890
-0.33274731 0.03993518 0.09893004
-0.16931735 -0.31374260 0.00000136
-0.47622379 -0.31093878 0.08868290
-0.35521249 -0.63963871 0.00000070
-0.17500865 -0.79432980 0.00000002
-0.10847627 0.04595744 0.00000321
-0.21794917 0.00741103 -0.00000590
-0.18068548 -0.56711346 0.00000020
-0.12350991 0.10408747 0.00000396
-0.18924834 0.53791149 0.00000545
-0.66367955 0.13420055 -0.00000047
-0.05691772 0.17902588 0.00001002
-0.14368144 -0.60883413 0.00000019
-0.32725259 -0.79071936 -0.00000144
-0.17163317 0.12231755 -0.00000443
-0.24429781 0.26654421 0.12885881
-0.21452451 -0.52353150 0.00000024
-0.22617989 0.30927910 0.12655937
-0.33552309 0.13568460 0.00000584
-0.29532404 -0.77709984 0.00000010
-0.63401680 -0.76237916 0.00000016
-0.27011296 0.19838721 0.11551625
-0.52881645 -0.46241231 0.03264120
-0.10080901 0.20615217 0.00000395
-0.10696147 -0.53251698 0.00000069
-0.45901079 -0.15145738 0.35838159
-0.36801633 -0.03852403 0.11425206
-0.66459882 -0.64457310 -0.00000010
-0.71614966 -0.47772198 -0.00000078
-0.00580503 -0.66078554 0.00000061
-0.59809675 -0.50546420 0.00000062
-0.54223121 -0.24205313 0.00000114
-0.37384139 0.36684173 0.00000327
-0.28018899 0.37228529 0.00000392
-0.37747453 -0.02245683 0.20321999
-0.15220238 0.44579748 0.03032552
-0.57472134 -0.51711762 0.16098505
-0.76333816 -0.43480722 -0.00000091
-0.22521878 0.40626932 0.00000455
-0.08971639 0.07012140 0.00001021
-0.14141144 0.22052787 0.00000382
-0.24627142 0.22788118 0.05130886
-0.46077193 -0.15370310 0.36296942
-0.58436590 0.19960161 0.00000055
-0.70768225 -0.08068112 -0.00000088
-0.14002713 0.17364809 0.00000880
-0.07458277 -0.29650594 0.00000220
-0.21641892 -0.74928113 -0.00000076
-0.19236142 0.39362061 0.13272722
-0.07917358 0.18133997 0.00000393
-0.27966153 -0.47631222 0.00000142
-0.03417647 0.24481506 0.00000442
-0.70463448 -0.51536437 -0.00000063
-0.57513256 -0.47235868 0.26561800
-0.63285415 0.15090152 0.00000001
-0.11115755 -0.55612798 0.00000056
-0.60595637 0.16154406 0.00000020
-0.32865061 -0.61418168 0.00000081
-0.60420178 0.16041507 0.00000022
-0.15660541 0.37877583 0.00000125
-0.43290851 -0.26315341 0.00000235
-0.08298021 -0.34349050 0.00000162
-0.38440408 -0.06620925 0.00000291
-0.76851777 -0.20249924 -0.00000149
-0.40094302 -0.02660155 0.32331820
-0.23186803 -0.74698177 -0.00000082
-0.02085968 0.39092050 0.00000924
-0.05816000 0.63522734 0.00000467
-0.76614949 -0.45012164 -0.00000087
-0.41033031 -0.18651400 0.00942537
-0.46882613 -0.32894492 0.00665755
-0.21962398 -0.35354652 0.00000096
-0.28801348 0.08502079 0.00000257
-0.12681150 0.23686068 0.00000861
-0.44232174 0.28009682 0.00000264
-0.31121785 -0.09093482 0.00000310
-0.14986344 0.25366253 0.00000393
-0.38390869 -0.03320323 0.21414914
-0.52393548 -0.01555264 0.00000125
-0.36975142 0.11851768 0.00000532
-0.50887539 -0.76309647 0.00000016
-0.32213324 -0.21011092 0.00000112
-0.10086746 0.30325816 -0.00000206
-0.38534602 0.12232225 0.00000499
-0.18309119 -0.65874361 0.00000062
-0.01369910 -0.05742236 0.00000319
-0.13601144 0.53757954 0.00000648
-0.41071374 -0.76231142 0.00000016
-0.16679224 -0.31307528 0.00000138
-0.15206353 0.21770739 0.00000445
-0.27258216 0.20418376 0.00000650
-0.19231064 0.04585819 -0.00000569
-0.37461648 -0.71492664 0.00000037
-0.33004080 -0.49137831 0.00000135
-0.11276121 -0.37925419 0.00000184
-0.26201301 -0.79018248 0.00000004
-0.04182243 -0.24027949 0.00000226
-0.50883608 -0.03590764 0.00000143
-0.35528320 -0.00638102 0.11746003
-0.36976608 -0.70612765 -0.00000126
-0.39477371 -0.03575415 0.26832319
-0.11463122 0.56913725 0.10496341
-0.72024342 -0.62638525 -0.00000043
-0.57914283 -0.54458464 0.12257987
-0.24488859 -0.42024680 0.00000166
-0.69645323 -0.31698404 -0.00000063
-0.04970423 0.15987980 0.00001025
-0.08061558 -0.28842127 0.00000224
-0.60455959 -0.58912319 0.16105261
-0.01638491 0.76462045 0.00958730
-0.07078221 0.45246534 0.00000548
-0.57580676 -0.46352356 0.00000086
-0.62193360 -0.63738571 0.14660220
-0.07840183 0.62363052 0.02955622
-0.37888297 0.39680422 0.00000293
-0.04989472 -0.46973535 0.00000122
-0.53194024 -0.44177473 0.00000136
-0.32543187 0.04103100 0.06107325
-0.14924931 0.38561598 0.00000734
-0.51605355 0.13821032 0.00000127
-0.27652309 0.14058621 0.01871658
-0.18243552 -0.76086403 0.00000017
-0.01317176 0.09396702 -0.00000941
-0.17487105 0.17737537 0.00000825
-0.14526885 0.45704588 0.01775285
-0.69698138 -0.23521811 -0.00000068
-0.50842021 -0.33768147 0.20528886
-0.02868633 -0.65842523 0.00000049
-0.02318681 0.24118740 0.00001014
-0.72435758 -0.71410158 -0.00000021
-0.17402581 0.09956481 0.00000394
-0.77260789 -0.49747263 -0.00000076
-0.16189580 0.25767311 0.00000463
-0.26021967 -0.59179843 -0.00000027
-0.19593251 0.34530010 0.00000492
-0.07757883 -0.06536421 0.00000321
-0.33337925 0.07794776 0.18936699
-0.43707358 -0.48934198 -0.00000062
-0.39809319 -0.14550110 0.03565756
-0.24710383 0.29262176 0.20398862
-0.16226609 0.35258662 0.00000735
-0.01716114 0.56931862 0.00000199
-0.75051925 -0.02904828 -0.00000141
-0.43532202 -0.74605205 -0.00000173
-0.25077971 0.29067306 0.21982932
-0.33312650 -0.60395998 -0.00000065
-0.24069962 -0.66928046 0.00000057
-0.27037809 0.27783870 0.00000596
-0.71894801 -0.49072815 -0.00000077
-0.28385916 0.43776871 0.00000443
-0.18264966 0.39456749 0.08127097
-0.43761874 -0.15455289 0.23318953
-0.13418189 0.27901084 0.00000411
-0.65942650 -0.77830264 0.03133384
-0.49852462 -0.72725127 0.00000032
-0.62152726 -0.62546635 0.17161780
-0.41083284 -0.32951058 0.00000020
-0.10239314 0.13765539 0.00000959
-0.20320268 -0.75923702 0.00000018
-0.07510301 0.63974024 0.04818282
-0.03426048 0.40068546 0.00000898
-0.64598830 -0.69342578 0.00000014
-0.05776130 0.66709164 0.00000639
-0.14541744 -0.38939031 0.00000114
-0.44419824 -0.19342339 0.18061947
-0.69358052 -0.81586415 0.13400040
-0.06086043 0.00032054 0.00000323
-0.16189115 -0.42772849 0.00000090
-0.38459368 -0.00648317 0.27904927
-0.21567214 -0.76109889 0.00000017
-0.68288485 0.06091172 -0.00000024
-0.30116833 0.04844700 0.00000235
-0.13306843 0.47922519 0.00111412
-0.36726682 -0.03326506 0.12211197
-0.65927492 -0.78114209 0.02400327
-0.02156899 0.13726249 0.00001082
-0.23153940 -0.55726231 0.00000001
-0.48004391 -0.68196434 -0.00000166
-0.06743608 0.27106691 0.00000438
-0.24643077 0.25975124 0.12509991
-0.77100411 -0.11089860 -0.00000161
-0.35379241 -0.35309612 0.00000035
-0.14165979 0.50713302 0.00000661
-0.22015214 0.27475506 0.01432094
-0.51644335 0.16601408 0.00000125
-0.42700733 -0.64082537 0.00000070
-0.77438097 -0.59474123 -0.00000051
-0.06014852 -0.67098190 0.00000056
-0.60742672 -0.63847077 0.06402506
-0.28542409 0.14102068 0.06885557
-0.38970535 -0.06803691 0.16650775
-0.29587424 0.15145347 0.15041434
-0.43381366 -0.56465793 0.00000103
-0.49333797 -0.38741791 0.00826656
-0.40029907 -0.53291018 0.00000117
-0.49525861 -0.34389305 0.11841334
-0.23130508 -0.09227977 0.00000205
-0.13231812 -0.03454462 0.00000275
-0.16628857 0.49841450 0.00000621
-0.15203909 -0.25867821 0.00000237
-0.51338725 -0.34790762 0.20932612
-0.03367490 0.08813902 0.00000389
-0.38655385 -0.12036052 0.02944209
-0.00959404 0.25541115 0.00000462
-0.26766389 0.15994133 0.01403615
-0.19671538 0.14361153 0.00000813
-0.03351910 -0.02872543 0.00000337
-0.13869688 0.44013049 0.00000480
-0.34272545 -0.00143038 0.05941211
-0.15504620 -0.70944179 0.00000040
-0.01283628 -0.69610574 0.00000040
-0.19135065 -0.61078159 0.00000083
-0.11827478 -0.69044993 -0.00000006
-0.40881028 -0.43927935 -0.00000027
-0.43107531 -0.68082131 -0.00000143
-0.40490455 0.04813404 0.00000520
-0.20957823 0.33648612 0.09710621
-0.09386488 -0.07471097 0.00000317
-0.25291894 -0.17023556 0.00000161
-0.61595764 -0.17023932 0.00000024
-0.73797235 -0.05273017 -0.00000125
-0.70395640 -0.20012626 -0.00000078
-0.05636173 -0.18142553 0.00000245
-0.35669410 -0.01028756 0.11631571
-0.35949229 -0.78375848 0.00000007
-0.48078829 -0.33970508 0.04809591
-0.43811832 0.02983914 0.00000223
-0.33687293 -0.59554464 -0.00000063
-0.13266024 -0.25541268 0.00000178
-0.03707438 0.16708286 -0.00000702
-0.47548432 -0.18402300 0.00000190
-0.50593550 -0.49231908 0.00000135
-0.31793921 -0.25110659 0.00000096
-0.45233284 -0.20001715 0.21045321
-0.04435546 -0.54475620 0.00000112
-0.13485864 -0.66819909 0.00000058
-0.11823297 0.31758130 0.00000435
-0.27866349 -0.69516689 0.00000046
-0.17681661 -0.58819231 0.00000093
-0.43300127 0.29525782 0.00000270
-0.30506034 0.17913091 0.26443066
-0.05500088 0.44926177 0.00000016
-0.48126437 0.21833855 0.00000238
-0.60066362 -0.67360595 -0.00000217
-0.23269193 0.16674841 0.00000318
-0.11593451 -0.32063857 0.00000210
-0.33253274 0.10266699 0.24124229
-0.00754912 0.04458783 -0.00001074
-0.04357764 0.10724481 0.00001067
-0.02271412 -0.39120511 0.00000169
-0.46446121 -0.22151536 0.00000205
-0.21921707 0.53018774 0.00000494
-0.36075824 0.11348386 0.00000310
-0.03630247 0.65242752 0.00000448
-0.34565020 0.12676811 0.00000572
-0.34609783 -0.10694422 0.00000147
-0.06920350 0.67553596 0.00000666
-0.06476148 0.42465933 0.00000506
-0.33856193 -0.58280866 -0.00000058
-0.75073645 -0.10719610 -0.00000137
-0.28501613 0.27084176 0.00000574
-0.47461730 -0.20420318 0.32391952
-0.05275632 -0.11574741 0.00000299
-0.54838913 -0.49355516 0.06948405
-0.54424338 -0.23538614 0.00000112
-0.03961661 0.49226391 0.00000565
-0.15435343 -0.02788893 0.00000268
-0.06321876 -0.44199970 0.00000157
-0.62880801 -0.01215849 0.00000002
-0.16357924 0.09832378 -0.00000522
-0.05023934 -0.00759286 0.00000324
-0.13863039 0.27985230 0.00000472
-0.64218413 -0.61788010 0.00000015
-0.38133331 -0.56939125 -0.00000072
-0.01038773 0.15044057 0.00001090
-0.06804328 0.31742307 0.00000899
-0.39358548 -0.06518267 0.19445895
-0.17869138 -0.65167722 0.00000065
-0.30565739 0.10905234 0.00000375
-0.08836019 -0.46789295 0.00000105
-0.45556785 -0.40220091 0.00000174
-0.05037032 -0.68520772 0.00000027
-0.38770314 -0.25767544 0.00000062
-0.52636134 -0.35069781 0.27457912
-0.04118284 0.25745353 0.00000977
-0.62023162 -0.19229140 0.00000020
-0.13890453 0.50434752 0.09080887
-0.63047230 -0.24730490 0.00000011
-0.54071098 -0.45577121 0.11350317
-0.11651448 0.04344915 0.00000369
-0.56420415 -0.02281735 0.00000078
-0.17910528 0.37418916 0.01509558
-0.75503527 0.03137287 -0.00000149
-0.17319102 0.00383229 0.00000273
-0.06477667 -0.69403312 0.00000046
-0.06671307 0.32993796 -0.00000235
-0.63783651 -0.65125288 0.00000022
-0.43187322 -0.16510995 0.17732239
-0.00748361 0.01538031 -0.00001143
-0.01004568 -0.06744085 0.00000320
-0.57397924 -0.71772297 0.00000036
-0.66775851 -0.11790246 -0.00000039
-0.45176284 -0.38485584 -0.00000023
-0.33779709 0.05588256 0.16331157
-0.08636189 -0.05045612 0.00000289
-0.05643697 0.50961331 0.00000573
-0.30977597 -0.60354177 0.00000086
-0.13348309 -0.71257137 -0.00000022
-0.34088011 -0.06387751 0.00000168
-0.30706990 0.07162326 0.02962162
-0.60104365 -0.58808218 0.14402148
-0.02510062 0.21700022 -0.00000616
-0.38822848 0.05506472 0.00000281
-0.32753214 -0.23294461 0.00000248
-0.26962684 -0.11860849 0.00000176
-0.40891402 -0.12011289 0.00000265
-0.02760087 -0.63025891 0.00000062
-0.77644819 -0.28844577 -0.00000128
-0.35725892 0.24277899 0.00000308
-0.65918052 -0.44549874 -0.00000013
-0.36694423 0.19589028 0.00000299
-0.35326336 0.00468721 0.13162108
-0.16289950 -0.43198877 0.00000087
-0.45521360 0.17591354 0.00000322
-0.20080675 0.13043982 0.00000407
-0.06037024 -0.50434207 0.00000129
-0.44353147 -0.56540968 0.00000103
-0.53595659 -0.47426658 0.04495329
-0.13967941 -0.62669078 0.00000013
-0.06317435 0.27951742 0.00000444
-0.08705170 0.00582291 0.00000313
-0.34088667 -0.69539330 -0.00000109
-0.12909410 0.49562879 0.01670234
-0.60968630 -0.56951235 0.23420686
-0.37859391 0.40959508 0.00000275
-0.54564827 -0.49937165 0.04104846
-0.66061385 -0.71660492 -0.00000002
-0.52226423 0.12602797 0.00000233
-0.51939952 0.11909138 0.00000124
-0.53390473 0.16475677 0.00000104
-0.56592365 0.13504752 0.00000068
-0.13700604 0.50251082 0.07612615
-0.19821820 0.35661394 0.08041567
-0.02185422 0.01732878 0.00000348
-0.42121006 -0.62465417 0.00000077
-0.15170200 0.33279347 0.00000427
-0.55923323 -0.32017130 0.00000098
-0.26527587 0.02588407 0.00000361
-0.15956471 -0.58054239 0.00000024
-0.58322896 -0.60134375 0.01533149
-0.60071409 -0.32825183 0.00000050
-0.53577812 -0.41288804 0.18434190
-0.22440915 0.31324509 0.12584195
-0.09352075 -0.39668765 0.00000176
-0.13791646 0.46255833 0.00000490
-0.10914781 0.35120037 -0.00000069
-0.37041880 -0.51540407 0.00000125
-0.26562332 -0.62421082 0.00000077
-0.33156964 0.04814701 0.00000661
-0.38350607 -0.07239527 0.12231184
-0.05228176 0.28377999 0.00000450
-0.11049961 0.64160023 0.00000614
-0.32170048 0.13041680 0.00000615
-0.01793425 0.49354327 0.00000566
-0.03555863 -0.40188026 0.00000174
-0.08935696 0.60999639 0.05886156
-0.20350718 0.31207853 0.00777824
-0.52546736 0.07761563 0.00000118
-0.57029186 -0.49497125 0.18717766
-0.11260482 -0.16772527 0.00000277
-0.17493472 -0.68449518 0.00000051
-0.20370892 -0.21317916 0.00000257
-0.09964549 0.44225918 0.00000543
-0.49624926 -0.38748330 0.02419123
-0.38550794 -0.57748629 0.00000097
-0.70350473 -0.43614266 -0.00000066
-0.17305091 0.40935072 0.06208266
-0.35611373 -0.43496601 -0.00000001
-0.47370281 -0.75541373 -0.00000195
-0.11526302 -0.15152926 0.00000232
-0.20446428 0.55407117 0.00000472
-0.13461308 0.36795273 0.00000450
-0.52198894 -0.32017091 0.32025293
-0.60654275 -0.36789274 0.00000045
-0.79607761 -0.30957399 -0.00000123
-0.21467463 0.06187832 -0.00000470
-0.17535991 0.31904920 0.00000490
-0.35925078 0.31879312 0.00000302
-0.43198331 -0.64639752 -0.00000128
-0.32695584 0.09526559 0.00000351
-0.03087505 0.02122378 0.00000359
-0.20418712 0.54671096 0.00000473
-0.51859107 -0.36510682 0.19872322
-0.38170114 -0.77049015 -0.00000160
-0.23763476 -0.35194478 0.00000196
-0.01198785 -0.52151802 0.00000116
-0.24513610 -0.68682244 -0.00000061
-0.35085120 -0.58468457 -0.00000065
-0.25321943 0.25656966 0.15530598
-0.26716121 0.17156075 0.03786601
-0.64655556 -0.38540244 -0.00000001
-0.58873217 -0.61879062 0.00000078
-0.39694171 0.06561149 0.00000270
-0.25644367 -0.04058679 0.00000332
-0.32616650 0.03889690 0.00000354
-0.45042467 -0.11059212 0.40443449
-0.54391273 -0.67580924 -0.00000192
-0.53590971 -0.37127434 0.28023972
-0.01274190 0.21037966 0.00000436
-0.00531723 -0.67564401 0.00000054
-0.30271661 0.13841697 0.15836237
-0.06254380 -0.05362655 0.00000327
-0.12341650 0.23917394 0.00000864
-0.10292745 -0.11273460 0.00000254
-0.08743555 -0.15445241 0.00000243
-0.45553265 -0.20939471 0.20667371
-0.17035510 -0.39825321 0.00000099
-0.45634895 0.31991078 0.00000188
-0.07672402 -0.40648534 0.00000172
-0.33487487 0.09598514 0.23888322
-0.32596414 0.13055357 0.26874803
-0.56018100 -0.59794873 -0.00000165
-0.41748987 -0.76366833 0.00000016
-0.25600218 0.27661578 0.21651391
-0.40945645 -0.02904979 0.36472303
-0.45128914 -0.53178290 -0.00000087
-0.03288900 -0.59054966 0.00000077
-0.29806640 0.10546478 0.05731149
-0.05349052 -0.39744319 0.00000176
-0.34039557 -0.43799515 0.00000004
-0.19045898 -0.60313078 -0.00000000
-0.61888078 -0.31592752 0.00000028
-0.51607461 -0.42405809 0.05000623
-0.14074779 0.63947665 0.00000543
-0.37297452 -0.23050076 0.00000249
-0.48643993 -0.36354101 0.02478719
-0.09141234 0.03649948 -0.00000865
-0.01654938 0.68138535 0.00000641
-0.10615293 -0.17357260 0.00000226
-0.02355315 -0.45119206 0.00000153
-0.45114080 0.23911471 0.00000198
-0.13861643 -0.75692895 -0.00000044
-0.47131679 -0.26542759 0.16567480
-0.45111776 -0.28709213 0.00460202
-0.14977461 0.26077278 -0.00000174
-0.74761274 -0.76022968 -0.00000010
-0.45431835 -0.23944218 0.00000217
-0.62767222 -0.35554751 0.00000020
-0.12862527 0.10117304 0.00000394
-0.29974952 0.12496638 0.11123449
-0.28059270 0.16582646 0.09891125
-0.13262895 -0.75533915 0.00000020
-0.35400930 -0.50909482 -0.00000033
-0.41776565 -0.17936617 0.06682556
-0.16510614 0.12607141 -0.00000452
-0.60871144 0.07614005 0.00000021
-0.23178913 0.27826231 0.08659380
-0.13449497 -0.26065784 0.00000175
-0.45242310 -0.21786987 0.17012202
-0.38708127 -0.17014691 0.00000276
-0.26710831 0.18702913 0.07292707
-0.62472724 -0.67764039 0.06996515
-0.78324344 -0.21728463 -0.00000146
-0.74774757 -0.18737584 -0.00000130
-0.38349654 -0.11990965 0.01359280
-0.54016450 0.00454153 0.00000295
-0.01964744 -0.36621496 0.00000190
-0.41177068 0.37642655 0.00000237
-0.52249325 0.02783470 0.00000124
-0.37418358 -0.61748397 0.00000080
-0.67427059 -0.76309770 -0.00000009
-0.12673396 -0.16119777 0.00000279
-0.25531235 -0.41141706 0.00000170
-0.40398561 -0.71121280 -0.00000144
-0.68246853 -0.71308270 -0.00000022
-0.53453260 -0.41487265 0.17292614
-0.21096073 0.36319140 0.16582419
-0.70456112 -0.08681527 -0.00000084
-0.57017516 -0.56425508 0.02807975
-0.26209956 0.20285293 0.00000421
-0.18177954 0.43341782 0.16531824
-0.37769151 -0.06887360 0.09826186
-0.67989131 0.09036157 -0.00000063
-0.12241368 0.41137066 0.00000475
-0.36234533 -0.69710418 0.00000045
-0.35034497 -0.00980398 0.08236603
-0.10964674 0.54258291 0.01671212
-0.09916354 -0.75890529 0.00000018
-0.49389746 0.07199473 0.00000331
-0.23041137 0.22090856 0.00000714
-0.12932104 0.48961128 0.00419319
-0.00391008 0.78581659 0.00000694
-0.74500573 0.00397972 -0.00000136
-0.49693788 0.19016060 0.00000231
-0.72568374 -0.29011864 -0.00000099
-0.09071306 0.60693714 0.05934925
-0.74173051 -0.49876919 -0.00000075
-0.07881236 0.68521975 0.00000640
-0.45290640 -0.39206376 -0.00000027
-0.23216432 0.22933365 0.00000706
-0.13137732 -0.79229902 0.00000003
-0.49750444 0.17458643 0.00000147
-0.22679272 0.13458191 0.00000409
-0.41566631 -0.10110545 0.23421831
-0.38378476 0.27181553 0.00000383
-0.45208242 -0.74286646 0.00000025
-0.04158012 -0.76960446 0.00000013
-0.10317056 0.13291090 -0.00000604
-0.56751644 0.06038809 0.00000198
-0.58767390 0.02042834 0.00000048
-0.41764642 -0.04608601 0.37098021
-0.27441647 -0.77692136 -0.00000114
-0.30995420 0.15222794 0.22992570
-0.26793672 0.19437324 0.09429994
-0.05570328 -0.26247723 0.00000210
-0.02725195 0.02308965 0.00001144
-0.51867488 -0.37779625 0.17016496
-0.63118823 0.09361801 0.00000050
-0.24407201 0.28178624 0.16246262
-0.50787908 -0.26754320 0.00000156
-0.20187261 0.07801031 0.00000847
-0.63896915 -0.69140509 0.11711738
-0.16474803 0.45490607 0.12042158
-0.17784032 0.37415584 0.00803515
-0.71838345 -0.41762425 -0.00000084
-0.11871573 0.42187339 0.00000481
-0.06602938 0.12900548 0.00000406
-0.26907638 -0.43859683 0.00000036
-0.22323907 0.00873736 -0.00000573
-0.14830616 -0.42001353 0.00000099
-0.54246736 -0.62239563 0.00000078
-0.31652171 -0.72806602 -0.00000112
-0.12088678 0.60535096 0.00000623
-0.22358824 0.30604552 0.10485479
-0.75080861 -0.43818151 -0.00000090
-0.10466902 -0.36653804 0.00000142
-0.04696922 0.53211407 0.00000562
-0.34937118 0.05848811 0.23316305
-0.26439447 -0.50243961 0.00000130
-0.04999067 0.68457399 0.01206787
-0.36818879 -0.48358934 -0.00000028
-0.31313361 0.08074444 0.08399598
-0.51635359 0.07590203 0.00000129
-0.41152660 0.02547339 0.00000526
-0.42352879 -0.03750513 0.00000244
-0.10534708 -0.22855257 0.00000250
-0.11278911 0.10056839 0.00000967
-0.01727660 -0.49283734 0.00000134
-0.09889454 0.11394677 -0.00000661
-0.40237480 -0.06413880 0.24537504
-0.29849821 -0.25087343 0.00000105
-0.20319443 0.57322377 0.00000473
-0.04545510 0.00347534 -0.00001068
-0.21984558 0.29847434 0.00000677
-0.51589981 -0.36366780 0.00000151
-0.09121866 0.39708988 0.00000524
-0.58421883 -0.44001986 0.00000075
-0.39097740 -0.02229966 0.27812228
-0.30822718 -0.73206178 -0.00000110
-0.36894213 0.36226553 0.00000340
-0.34325610 0.07300106 0.23259177
-0.38320563 0.29557744 0.00000275
-0.18778815 -0.59851414 0.00000088
-0.67126010 -0.11333606 -0.00000043
-0.56186803 -0.43307578 0.28222128
-0.64246415 0.11499641 -0.00000021
-0.22591647 0.26561203 0.00000691
-0.71138793 -0.26604284 -0.00000083
-0.22991308 0.24705591 0.00483781
-0.04522729 0.41605272 -0.00000089
-0.53068803 -0.38413509 0.22199649
-0.24892800 0.02557914 -0.00000463
-0.24896085 0.25076896 0.00000659
-0.24832494 -0.61376215 0.00000081
-0.11874090 0.48845546 0.00000283
-0.54410664 -0.30193733 0.00000115
-0.11863558 -0.58756723 0.00000039
-0.05529952 -0.73727506 0.00000027
-0.29936191 0.14410823 0.15285569
-0.31311225 -0.53141312 0.00000118
-0.14818764 0.62537591 0.00000554
-0.30332236 0.03506243 0.00000365
-0.42475119 -0.62462314 0.00000077
-0.32872486 -0.74740223 0.00000023
-0.23360350 0.24356870 0.01726649
-0.14537409 0.07360031 0.00000935
-0.67089413 -0.74336211 -0.00000012
-0.20703245 0.31412280 0.00000689
-0.47466351 -0.01222141 0.00000182
-0.39553736 -0.04023813 0.26227098
-0.23762996 0.32196056 0.00000624
-0.36259302 -0.57615960 0.00000098
-0.58219642 -0.58623575 0.04418285
-0.47589534 -0.25829563 0.20726543
-0.36660197 -0.12293427 0.00000296
-0.44356883 -0.19069397 0.18338653
-0.29907692 0.18045997 0.23443050
-0.32264310 0.17043273 0.00000352
-0.06140183 0.04274752 0.00000369
-0.11361486 -0.49439072 0.00000134
-0.12797464 0.19716517 -0.00000384
-0.55715075 0.04844524 0.00000083
-0.14603431 0.47540851 0.06399064
-0.03033113 0.46846586 0.00000541
-0.09282024 0.35543081 0.00000838
-0.15148345 0.45667314 0.05122893
-0.38527182 -0.21237055 0.00000257
-0.61751744 0.01684570 0.00000013
-0.04712506 -0.35725476 0.00000194
-0.23744949 0.12555204 0.00000405
-0.35971903 -0.18400985 0.00000107
-0.26485123 -0.76126481 0.00000017
-0.64859064 -0.75603512 0.02243248
-0.12210067 -0.60449109 0.00000030
-0.67658184 -0.80123456 0.07360607
-0.16001276 0.26554143 0.00000793
-0.06057571 -0.53782931 0.00000087
-0.17443753 -0.57067861 0.00000021
-0.03010884 0.16868887 -0.00000718
-0.09458030 -0.74406139 -0.00000018
-0.32794711 0.02749654 0.04397220
-0.22514907 0.26867007 0.02799417
-0.39781639 0.19768675 0.00000415
-0.35968313 0.36508809 0.00000355
-0.68426931 -0.65671911 -0.00000032
-0.37034500 -0.06638844 0.06338293
-0.57115905 -0.70541641 -0.00000217
-0.40013394 -0.01721747 0.34031256
-0.46725538 0.28802021 0.00000177
-0.27185510 0.34509044 0.00000403
-0.05130271 0.01915113 -0.00001015
-0.16523354 -0.72663200 -0.00000043
-0.12599689 -0.06182989 0.00000323
-0.33813531 0.09761206 0.00000337
-0.24415409 -0.55164335 0.00000109
-0.12430021 0.36004414 -0.00000007
-0.32975565 0.10844728 0.00000617
-0.20816065 0.07692810 0.00000384
-0.53650425 -0.49623456 0.00000133
-0.09503415 0.69788068 0.00000599
-0.04074656 0.38996205 0.00000521
-0.20682607 -0.26893343 0.00000232
-0.03426536 0.53018919 0.00000582
-0.41873790 0.20665243 0.00000237
-0.10540108 0.03507378 0.00000318
-0.13264621 -0.23554147 0.00000247
-0.78579861 -0.72541523 -0.00000019
-0.29823682 0.42100467 0.00000368
-0.62153846 -0.76791017 -0.00000267
-0.48157922 -0.79605509 0.00000002
-0.20065544 0.33083975 0.03491987
-0.27394343 0.11048183 -0.00000194
-0.57915085 -0.56249284 0.08166774
-0.41815586 -0.04874275 0.36771856
-0.03313821 0.49566099 0.00000567
-0.38578245 -0.01169954 0.27368202
-0.16878353 0.36423026 0.00000718
-0.27929367 0.13621085 0.02397579
-0.30145879 0.09178878 0.04479409
-0.43141132 -0.18385114 0.00000242
-0.06970061 0.45495154 0.00000070
-0.17781480 0.12730152 0.00000406
-0.18740863 0.31824006 0.00000718
-0.58101290 0.10715066 0.00000135
-0.29538853 0.21667772 0.00000382
-0.36134900 0.05786407 0.29787663
-0.57425795 0.12473808 0.00000059
-0.39891550 -0.36848780 0.00000008
-0.00637852 0.68325163 0.00000646
-0.48280003 -0.36177342 0.00873264
-0.13253874 -0.28523030 0.00000225
-0.32913284 0.07903114 0.16841466
-0.10288683 0.48489133 0.00000562
-0.52420632 0.15871433 0.00000116
-0.03962133 0.00117169 0.00001139
-0.18519843 -0.55054897 0.00000109
-0.21906903 0.29857422 0.06279689
-0.04126931 0.40486726 0.00000527
-0.12961921 0.36164659 0.00000508
-0.37398075 0.28589074 0.00000286
-0.63743153 0.07099348 0.00000056
-0.05365852 -0.00610311 0.00000323
-0.24895078 -0.44306483 0.00000156
-0.65917924 -0.04845000 -0.00000032
-0.61194051 -0.59100092 0.19750917
-0.34024409 -0.37401880 0.00000186
-0.48648193 -0.11836355 0.00000174
-0.74122746 -0.60002529 -0.00000050
-0.35977066 0.26542632 0.00000434
-0.17775485 0.51540453 0.00000585
-0.49190843 -0.30321553 0.19294623
-0.14701448 0.47385211 0.06584298
-0.09266536 0.13523587 0.00000367
-0.16869500 0.55670568 0.00000514
-0.18330167 0.22266411 -0.00000173
-0.77058215 -0.56349047 -0.00000059
-0.10475438 -0.38274198 0.00000183
-0.02583887 -0.28370782 0.00000214
-0.06413438 -0.59264380 0.00000091
-0.32844386 0.06872946 0.00000350
-0.47074487 -0.72163924 -0.00000179
-0.21175980 0.30378841 0.03436227
-0.40318559 -0.01709300 0.35744640
-0.40579936 -0.28270291 0.00000043
-0.39064216 0.26187711 0.00000378
-0.64409587 -0.70589106 0.11229380
-0.23519150 0.37089932 0.00000590
-0.46740355 0.32161335 0.00000175
-0.74993123 -0.44072178 -0.00000090
-0.02595476 0.77359063 0.00000671
-0.09869100 -0.38364549 0.00000182
-0.24271031 0.27636974 0.14256488
-0.32302903 -0.04577280 0.00000330
-0.13714679 0.48037738 0.00000555
-0.28463628 -0.55707268 -0.00000023
-0.07725468 0.61433838 0.00197117
-0.46865808 0.30127518 0.00000197
-0.38932398 -0.32597884 0.00000031
-0.55640838 0.22117757 0.00000075
-0.04207107 0.20069959 -0.00000609
-0.20305764 0.37333526 0.14538603
-0.66844231 -0.46725598 -0.00000023
-0.07190749 0.37653196 0.00000482
-0.25933115 -0.48995001 0.00000018
-0.11595041 0.55949277 0.09018998
-0.13832530 -0.00369724 0.00000348
-0.12003385 -0.56134046 0.00000050
-0.17631157 -0.20727432 0.00000259
-0.26091683 -0.06689774 0.00000203
-0.29082923 0.19567889 0.22369785
-0.34647860 -0.76962810 0.00000013
-0.02530523 0.67420444 0.00000470
-0.42887922 -0.10871463 0.28976884
-0.33689986 0.25650339 0.00000331
-0.15872167 0.33301761 0.00000022
-0.02157482 -0.37743391 0.00000175
-0.44754778 -0.21648968 0.00000224
