ply
format ascii 1.0
element vertex 1378
property float x
property float y
property float z
end_header
-0.62348727 -0.61876187 -0.00000015
-0.01204110 -0.77399788 0.00000022
-0.60817028 -0.66320443 -0.00000001
-0.19714179 -0.50770589 0.00000357
-0.38609198 -0.27219830 0.00000000
-0.01856332 -0.51154407 0.00000000
-0.25472575 -0.40647477 0.00000461
-0.48107118 0.12131438 0.00000936
-0.53252095 -0.15833506 -0.00000058
-0.10458840 0.13043821 0.00000000
-0.41633316 0.17290164 0.00000804
-0.41759918 -0.62445699 0.00000756
-0.02246291 0.17597911 0.00000041
-0.66171309 0.04692763 0.00001311
-0.02887086 0.70708389 0.00000000
-0.28744120 0.46616146 0.00000499
-0.34812064 -0.52283913 0.00000630
-0.19237634 0.03599675 -0.00000507
-0.27979245 -0.49593345 0.00000000
-0.66323247 0.02965167 0.00001312
-0.66809483 0.06464245 -0.00000055
-0.16866272 0.12361549 0.00000760
-0.41999979 0.02070833 0.00000792
-0.20505571 -0.71296158 0.00000371
-0.57581982 -0.78846996 0.00000000
-0.77246488 -0.48279009 -0.00000079
-0.77362492 -0.65493849 0.00001398
-0.06679928 0.58242406 0.00000226
-0.06107241 0.28567368 0.00000111
-0.31470748 -0.73441906 0.00000000
-0.49905725 0.16191571 -0.00000100
-0.64331518 -0.35285983 0.00001218
-0.20360310 0.32133341 -0.00000002
-0.32313096 -0.61420004 0.00000585
-0.06236265 -0.09083412 0.00000000
-0.21438683 -0.23430091 0.00000388
-0.19710347 0.46817830 -0.00000025
-0.10313179 0.05285306 -0.00000778
-0.03578027 0.53753382 0.00000000
-0.24428812 -0.01316679 0.00000442
-0.17693216 0.45062277 0.00000073
-0.41492316 -0.72591617 0.00000751
-0.57134424 0.01633269 0.00000212
-0.11237339 0.44163289 0.00000368
-0.02818369 0.59400927 0.00000266
-0.45597279 0.17784286 0.00000641
-0.55776530 -0.73159334 0.00000000
-0.32808340 -0.39633009 0.00000594
-0.37076608 0.35269295 -0.00000079
-0.61454491 -0.06944173 -0.00000109
-0.64771627 0.00103017 0.00001049
-0.62522858 0.07632870 0.00000008
-0.35395654 0.16774969 0.00000255
-0.02903392 0.75451061 -0.00000004
-0.05220212 0.11829583 0.00000944
-0.00701947 0.18241935 0.00000013
-0.46475305 0.15019491 0.00000905
-0.04769155 -0.68432516 0.00000086
-0.03451231 0.36176414 0.00000062
-0.18964071 -0.30825126 0.00000343
-0.35942400 -0.00515402 0.00000659
-0.37483499 -0.30462362 0.00000679
-0.62891315 -0.20171503 -0.00000091
-0.46637055 0.29315619 -0.00000109
-0.27086206 0.13277617 -0.00000102
-0.54517806 -0.09661337 0.00001043
-0.00611918 0.34582762 0.00000000
-0.66442828 -0.79469572 0.00001204
-0.16389222 -0.18425111 0.00000000
-0.00363719 0.57216254 0.00000336
-0.19161559 -0.11263910 0.00000347
-0.12540902 -0.75251911 0.00000000
-0.12684851 0.65701265 -0.00000029
-0.29923944 0.45733302 0.00000528
-0.04374570 0.45600718 0.00000450
-0.10119000 -0.19502308 0.00000183
-0.24970436 -0.16137334 0.00000000
-0.71424844 -0.01551431 -0.00000161
-0.48649102 0.10242253 -0.00000084
-0.26735736 -0.66139645 0.00000000
-0.47059937 0.11641108 0.00000913
-0.69081517 -0.67573466 -0.00000031
-0.27141458 -0.09865648 0.00000000
-0.04956509 -0.60966580 0.00000000
-0.23000804 0.52600614 0.00000388
-0.79043228 -0.42165285 -0.00000095
-0.71937483 -0.27704927 -0.00000117
-0.10790973 -0.51631704 0.00000000
-0.34123188 0.07943771 0.00000065
-0.49000587 0.26737875 -0.00000115
-0.43915652 0.01393726 -0.00000048
-0.71917503 -0.67357002 -0.00000032
-0.01648678 0.34664983 -0.00000625
-0.64728774 -0.42698580 0.00001217
-0.03325280 0.39685208 0.00000000
-0.21807929 -0.20479152 0.00000395
-0.54080281 0.23465669 0.00001042
-0.54512473 -0.13238703 -0.00000068
-0.18057304 -0.39240728 0.00000327
-0.57131495 -0.28900539 -0.00000051
-0.37790833 -0.69630454 0.00000684
-0.09916979 -0.14104485 0.00000180
-0.39985206 -0.15020037 0.00000726
-0.33766188 -0.69602794 0.00000000
-0.48396876 -0.51249051 0.00000876
-0.02337504 0.23738014 0.00000809
-0.03630442 -0.67318513 0.00000066
-0.07737871 0.26598452 0.00000684
-0.31549104 -0.40507815 0.00000571
-0.77133162 -0.78680006 -0.00000003
-0.01031101 0.63778309 0.00000228
-0.60115884 -0.59736153 0.00001096
-0.01184602 -0.35273808 0.00000000
-0.72227016 -0.08339068 -0.00000152
-0.75986148 -0.22706463 0.00001484
-0.79753587 -0.69133036 0.00001424
-0.21487652 -0.35077177 0.00000000
-0.40238432 0.23203605 -0.00000071
-0.42046723 -0.70971034 0.00000761
-0.39637834 0.19674105 0.00000765
-0.16434435 0.43827496 0.00000302
-0.00788127 -0.03036421 0.00000000
-0.36050693 0.38853852 0.00000714
-0.44568508 -0.74250493 0.00000807
-0.38014812 -0.28071616 0.00000688
-0.01991962 0.29496558 0.00000727
-0.19809257 -0.10282098 0.00000000
-0.04907892 0.14096358 0.00000914
-0.02162198 0.45254626 0.00000039
-0.35288881 0.07501862 -0.00000022
-0.13439401 -0.46695207 0.00000000
-0.14922236 0.28969922 0.00000000
-0.39765922 0.24235492 0.00000535
-0.42692414 -0.52298647 0.00000000
-0.55796410 -0.47909264 -0.00000012
-0.15590808 -0.38864188 0.00000000
-0.44972597 0.33721959 0.00000898
-0.27480302 0.40905101 0.00000534
-0.19991547 -0.09873788 0.00000000
-0.56125962 0.12949624 0.00001108
-0.36164195 0.42174274 0.00000696
-0.31330034 -0.72417950 0.00000567
-0.15879748 -0.69799056 0.00000000
-0.23875076 -0.55194371 0.00000000
-0.26673987 0.30021864 0.00000323
-0.60179654 0.10874764 -0.00000001
-0.25227494 0.35177622 0.00000186
-0.08144773 0.34568774 0.00000000
-0.68507024 0.08255958 0.00001366
-0.10626911 0.22460646 -0.00000510
-0.62884323 -0.33285132 -0.00000068
-0.20111429 0.21049016 0.00000364
-0.09640403 0.49939598 0.00000305
-0.02758844 -0.74296304 0.00000050
-0.34047800 -0.60723260 0.00000616
-0.01597106 0.26689286 -0.00000747
-0.32230458 0.36463117 0.00000461
-0.77469355 -0.08348718 -0.00000174
-0.79002750 -0.24299751 0.00001525
-0.23635792 0.09490677 0.00000701
-0.25958622 -0.46274438 0.00000470
-0.34719149 0.37960510 0.00000685
-0.14318039 0.24497259 0.00000259
-0.23486619 -0.31545237 0.00000000
-0.32720906 -0.34261099 0.00000592
-0.76144560 -0.53035892 0.00001411
-0.06521910 0.66482828 0.00000121
-0.24172071 -0.33069935 0.00000000
-0.40255738 0.30124849 0.00000792
-0.31548630 -0.76900801 0.00000571
-0.05930678 0.11761258 0.00000000
-0.24233185 0.05588968 -0.00000312
-0.65781378 -0.01889404 -0.00000136
-0.31052170 -0.67024187 0.00000000
-0.46545974 0.14933036 0.00000629
-0.29900389 0.49863636 0.00000598
-0.06889320 0.55116278 0.00000125
-0.65801905 0.02062604 0.00001300
-0.76025785 0.02627431 0.00001519
-0.05251732 -0.16340071 0.00000095
-0.50704954 0.05977488 0.00000983
-0.12230545 -0.64766017 0.00000000
-0.03097000 0.39132099 0.00000566
-0.17757830 -0.66580468 0.00000000
-0.20172345 0.24589670 0.00000365
-0.15425807 -0.08972997 0.00000000
-0.13097985 -0.49256793 0.00000000
-0.09747180 -0.56859859 0.00000176
-0.05504449 -0.50307767 0.00000100
-0.47902796 -0.67187547 0.00000000
-0.40627129 0.14814647 0.00000780
-0.17484503 -0.02943874 0.00000000
-0.25272410 -0.24397044 0.00000458
-0.18723669 0.29689473 0.00000472
-0.03312971 0.17754211 0.00000884
-0.41727475 0.25599256 0.00000818
-0.10382379 0.13346509 0.00000843
-0.11692544 0.60497579 0.00000107
-0.12801805 -0.60579643 0.00000232
-0.21619418 0.11552840 0.00000000
-0.45461319 -0.45123805 0.00000823
-0.04898091 -0.31772034 0.00000000
-0.24720966 0.17575385 0.00000000
-0.32190891 0.02102165 0.00000583
-0.13284244 0.23238310 0.00000241
-0.27062004 -0.26990567 0.00000000
-0.48590335 -0.42486833 0.00000880
-0.02749660 0.55510632 0.00000050
-0.56842378 0.15162237 0.00001007
-0.22708302 -0.04557221 0.00000000
-0.33138477 0.38258725 0.00000523
-0.27812806 0.05472944 0.00000698
-0.45911117 -0.70844780 0.00000000
-0.06669755 0.65737864 0.00000123
-0.32416524 0.20674279 -0.00000033
-0.40912435 0.00375354 -0.00000034
-0.55003641 0.13015672 0.00000063
-0.27365602 0.38273524 0.00000528
-0.52100111 -0.11107924 -0.00000061
-0.64357460 0.04590826 -0.00000141
-0.17679581 0.08682828 0.00000320
-0.39142765 -0.70180386 0.00000000
-0.26946594 0.04943866 -0.00000231
-0.56795386 -0.44453920 -0.00000022
-0.65596280 0.04602171 -0.00000000
-0.29708092 -0.74210304 0.00000538
-0.29220906 0.10684930 0.00000531
-0.09836953 0.44069351 -0.00000212
-0.51300530 -0.42338179 0.00000931
-0.23217918 0.51724726 0.00000382
-0.45308616 0.28752669 -0.00000014
-0.22738388 -0.28420726 0.00000412
-0.65311188 -0.27325397 0.00001250
-0.08122218 -0.68124578 0.00000147
-0.20959020 -0.74196884 0.00000000
-0.10405057 0.56229121 0.00000190
-0.01192603 -0.07686385 0.00000000
-0.08921663 0.62663317 0.00000118
-0.71796635 -0.52154594 -0.00000070
-0.12184697 0.57837145 0.00000136
-0.26234445 -0.20236067 0.00000475
-0.58776229 -0.78083891 0.00001064
-0.49715130 0.25340478 0.00000914
-0.20835441 -0.47708528 0.00000377
-0.41482798 0.02497980 0.00000781
-0.39989783 0.30553687 -0.00000083
-0.00456931 -0.16229443 0.00000000
-0.43277867 0.00638869 0.00000495
-0.26850963 -0.36759543 0.00000000
-0.77174962 -0.12688310 0.00001523
-0.41177646 -0.52983850 0.00000000
-0.18740760 0.44433837 0.00000101
-0.12999889 0.56782449 0.00000246
-0.21646500 0.19860670 0.00000575
-0.40675287 -0.15370630 0.00000740
-0.02070307 -0.74560084 0.00000037
-0.24927709 -0.00715372 0.00000000
-0.45901969 0.01062211 -0.00000056
-0.19565429 -0.57676970 0.00000354
-0.09118629 -0.01374395 0.00000000
-0.01140096 -0.55902062 0.00000000
-0.21730608 -0.11700437 0.00000000
-0.05521729 -0.69182280 0.00000100
-0.22165930 -0.15875089 0.00000401
-0.30317065 -0.01150065 0.00000549
-0.57149547 0.22433675 0.00001136
-0.14591258 0.35142694 0.00000000
-0.02278504 0.42065534 0.00000535
-0.75174400 -0.53837083 0.00001395
-0.35413860 -0.34085169 0.00000641
-0.55144916 0.15536997 0.00001090
-0.46732057 -0.65603050 0.00000000
-0.67986439 0.09159383 0.00001356
-0.28131205 0.24335562 0.00000114
-0.13039928 -0.20429705 0.00000236
-0.33555624 -0.00131883 0.00000609
-0.79903931 -0.16599534 0.00001557
-0.40027125 -0.68152714 0.00000725
-0.28625890 0.46126929 0.00000016
-0.49913836 -0.11751512 0.00000942
-0.00446052 0.67253184 -0.00000176
-0.34500785 -0.75969647 0.00000625
-0.00895941 -0.19251177 0.00000000
-0.77015194 -0.68407360 -0.00000029
-0.11243938 0.11557871 0.00000857
-0.14527542 0.20848174 0.00000263
-0.55998689 -0.45710159 -0.00000017
-0.26887365 -0.03789558 0.00000487
-0.03616317 0.71329732 0.00000075
-0.53900613 0.06567329 0.00000192
-0.19860344 -0.32373686 0.00000360
-0.02393472 0.04463342 0.00000000
-0.70942844 -0.63416022 -0.00000041
-0.14369183 -0.09110164 0.00000000
-0.28404781 0.09741626 0.00000514
-0.79332026 -0.59202826 0.00001442
-0.03813325 0.60847747 0.00000230
-0.76380498 -0.27521691 -0.00000131
-0.00006160 0.51145137 0.00000433
-0.54535159 0.06971416 0.00000790
-0.21400075 -0.19672056 0.00000000
-0.37293844 0.16909015 0.00000338
-0.06652283 -0.40737491 0.00000120
-0.08667190 0.58093212 0.00000198
-0.37068951 -0.68589647 0.00000000
-0.35827411 0.12594541 -0.00000034
-0.17517556 -0.30841354 0.00000317
-0.25178634 -0.60410502 0.00000000
-0.37139886 0.12510682 0.00000249
-0.67565703 -0.42964661 -0.00000071
-0.42154877 0.21536254 0.00000578
-0.48593709 0.27093585 0.00000902
-0.48410865 -0.18702099 -0.00000032
-0.56802820 0.11953715 0.00000046
-0.44195443 0.01235702 0.00000838
-0.30712219 0.23910126 0.00000201
-0.11852469 0.54291069 0.00000218
-0.14456808 0.10981272 0.00000817
-0.02494572 -0.40001919 0.00000000
-0.46491767 0.01710190 0.00000415
-0.17681553 -0.37778238 0.00000320
-0.54111738 -0.38579057 0.00000996
-0.44476755 -0.19622639 0.00000816
-0.61698066 -0.53764463 -0.00000027
-0.21417217 -0.26924747 0.00000000
-0.61481548 0.00013724 0.00000928
-0.19639464 0.38330310 -0.00000010
-0.04378607 0.20092914 0.00000079
-0.11238182 0.53347447 -0.00000026
-0.68683562 -0.71757248 0.00001256
-0.44400622 0.13453572 0.00000259
-0.12492488 0.19280575 0.00000000
-0.48722918 -0.14347289 0.00000913
-0.38229089 -0.66951765 0.00000692
-0.16670956 0.18765558 0.00000302
-0.45144009 -0.55124352 0.00000817
-0.03638055 0.34761073 0.00000000
-0.32069315 0.10385577 0.00000591
-0.08818982 0.59820606 0.00000161
-0.07773731 0.47725284 0.00000141
-0.40364204 0.17629211 -0.00000062
-0.54151370 0.02139958 -0.00000093
-0.28313521 -0.00816488 0.00000513
-0.02640609 -0.20905327 0.00000000
-0.15345355 -0.72620551 0.00000278
-0.13149152 -0.78619931 0.00000238
-0.10178311 -0.24941722 0.00000000
-0.28730147 -0.44264339 0.00000000
-0.31149716 0.09405016 0.00000570
-0.38282577 0.15343162 -0.00000049
-0.55002895 -0.08065536 -0.00000079
-0.25412617 0.22906740 -0.00000008
-0.09006601 0.60967613 0.00000145
-0.16972434 0.45025985 0.00000258
-0.12462743 -0.66050626 0.00000226
-0.34990610 0.19253710 0.00000665
-0.25973214 -0.68248149 0.00000000
-0.59882561 -0.60181443 0.00001090
-0.05500820 0.01942553 -0.00000988
-0.33269593 0.38788282 0.00000536
-0.55022593 -0.13997816 0.00001048
-0.00322617 0.18934305 0.00000006
-0.28083552 0.00057672 0.00000775
-0.16631418 0.57711826 0.00000241
-0.63105741 0.03518960 0.00001244
-0.53612345 -0.46636331 0.00000974
-0.60286168 -0.71635814 0.00001092
-0.40415491 0.36150218 0.00000804
-0.19103561 -0.04473201 0.00000000
-0.44043044 0.01403148 -0.00000049
-0.55917381 0.00190371 0.00001086
-0.21078485 0.12563121 0.00000000
-0.48105132 -0.51439905 0.00000871
-0.61647959 0.08999235 0.00000002
-0.23531231 0.51076119 0.00000031
-0.49649418 0.07819887 0.00000963
-0.30918015 0.11748065 0.00000011
-0.61679205 0.09247601 0.00001086
-0.79399804 -0.16282717 -0.00000159
-0.70922383 -0.47205404 -0.00000078
-0.41375487 0.30727776 0.00000817
-0.53589382 -0.34741317 -0.00000026
-0.14949300 0.42407663 0.00000000
-0.43182258 0.16001713 0.00000240
-0.24500810 -0.32365741 0.00000000
-0.44637919 -0.56046586 0.00000808
-0.16100781 0.34687025 -0.00000145
-0.11949455 0.38828295 -0.00000221
-0.29585672 0.28980773 0.00000563
-0.44801778 0.29544248 0.00000804
-0.47848738 0.29701657 -0.00000079
-0.02942176 -0.14234126 0.00000053
-0.25430432 0.07654256 -0.00000241
-0.23839706 -0.17482969 0.00000000
-0.11149693 0.66350976 0.00000014
-0.54262834 -0.51287228 0.00000000
-0.38577370 0.01506164 0.00000718
-0.75648868 -0.58758138 -0.00000053
-0.18478105 -0.75078658 0.00000000
-0.17147194 0.43042338 0.00000021
-0.26428023 0.29148644 0.00000496
-0.07534965 -0.06370874 0.00000000
-0.51925719 -0.77511634 0.00000000
-0.54617049 -0.47974913 -0.00000007
-0.10509373 -0.60694257 0.00000000
-0.79285231 -0.25335992 0.00001526
-0.24363599 0.16911025 -0.00000138
-0.05884789 0.24538981 0.00000000
-0.01648818 0.41012355 0.00000560
-0.49360920 0.22083249 0.00000976
-0.57908132 -0.01370355 0.00001127
-0.44737659 0.09947379 0.00000311
-0.13357854 -0.53496380 0.00000242
-0.25366971 -0.71464258 0.00000459
-0.49466775 -0.30994502 -0.00000015
-0.74117435 -0.74702576 -0.00000013
-0.02009429 0.64447013 0.00000000
-0.04435067 -0.11845564 0.00000080
-0.60815705 -0.60322649 0.00001110
-0.02845880 0.63311627 0.00000207
-0.67549415 -0.32973515 0.00001290
-0.66316123 -0.63311015 0.00001223
-0.05186995 0.01854869 0.00000094
-0.35136798 0.10929266 0.00000150
-0.62484888 -0.36091657 0.00001178
-0.23774877 0.52588392 0.00000471
-0.15672707 0.44580370 -0.00000008
-0.33270593 -0.68968835 0.00000000
-0.06006997 -0.11105820 0.00000000
-0.37513650 -0.16369925 0.00000679
-0.09289496 0.53516352 -0.00000089
-0.62297441 -0.71556248 0.00000000
-0.00794614 -0.56396363 0.00000014
-0.63700646 0.11658101 0.00001268
-0.32166758 -0.43393353 0.00000000
-0.06868464 -0.09464878 0.00000124
-0.27103510 0.02526041 0.00000753
-0.01261189 0.06928958 -0.00001054
-0.68958757 -0.29836585 0.00001324
-0.76755156 -0.36502279 0.00001461
-0.46956788 -0.61390567 0.00000850
-0.18213180 -0.64464607 0.00000330
-0.03129502 0.62972609 -0.00000152
-0.47038456 0.31735758 0.00000939
-0.12164727 -0.29473466 0.00000220
-0.74842521 -0.46712869 0.00001408
-0.23818141 -0.73208850 0.00000431
-0.04629623 0.66899986 0.00000000
-0.01086678 0.72547272 -0.00000076
-0.38184445 0.33308632 -0.00000080
-0.05497529 0.44889215 -0.00000344
-0.04001804 0.22612190 -0.00000728
-0.41816948 0.12994317 0.00000426
-0.35049538 -0.03027368 0.00000637
-0.60712419 -0.47086471 0.00001125
-0.63217047 0.07816022 -0.00000008
-0.60747043 0.10095087 0.00000001
-0.04326522 0.43884986 -0.00000398
-0.66816493 -0.40703493 -0.00000072
-0.43146925 0.28198113 0.00000851
-0.26422388 0.03297511 -0.00000273
-0.22181265 -0.41213252 0.00000000
-0.30620515 0.25660920 -0.00000035
-0.13230889 -0.56796909 0.00000000
-0.23636265 0.38810352 0.00000234
-0.27345185 0.09295127 -0.00000153
-0.47749550 0.07417288 0.00000295
-0.39340609 0.16702553 -0.00000056
-0.06582763 0.65439466 -0.00000002
-0.19613944 -0.09966916 0.00000000
-0.21019222 -0.04284373 0.00000000
-0.19187649 0.25502984 0.00000000
-0.46082862 -0.45835012 0.00000000
-0.50810239 0.25356882 -0.00000063
-0.11566117 0.20703381 0.00000209
-0.31072588 0.46992066 0.00000619
-0.44111276 -0.74438154 0.00000799
-0.62349021 -0.16735296 -0.00000095
-0.27329703 0.19157892 -0.00000009
-0.17349579 -0.12645091 0.00000000
-0.13893957 0.38005546 0.00000420
-0.54363353 -0.71799709 0.00000000
-0.18524593 0.52559363 0.00000103
-0.23858061 -0.27262173 0.00000432
-0.67701014 -0.45873398 0.00001276
-0.25538733 0.28983811 0.00000096
-0.56831261 -0.04516866 0.00001100
-0.37824650 -0.53281925 0.00000000
-0.32371011 0.28830518 0.00000233
-0.14474829 -0.48618343 0.00000000
-0.12417423 -0.37002481 0.00000225
-0.13380843 0.27947010 -0.00000337
-0.60496847 -0.38191903 0.00001133
-0.61224654 -0.12912692 -0.00000097
-0.23213941 -0.73421285 0.00000420
-0.11443286 -0.00460833 0.00000000
-0.49027998 0.13897685 -0.00000092
-0.49005701 0.16040956 0.00000960
-0.44278092 0.26293544 0.00000873
-0.07091793 0.48016726 0.00000000
-0.70338139 -0.16251920 0.00001372
-0.16174331 0.56119009 0.00000313
-0.47081540 0.18202899 0.00000922
-0.15336250 -0.70657112 0.00000278
-0.53236913 0.03639265 0.00000688
-0.61097623 -0.57722142 -0.00000017
-0.37132361 0.39736682 0.00000692
-0.77982766 -0.09612911 -0.00000174
-0.23307037 0.02300332 -0.00000392
-0.21832539 -0.24991402 0.00000000
-0.37462157 0.23223496 0.00000229
-0.70313933 -0.13964579 -0.00000134
-0.26570143 -0.66179474 0.00000000
-0.22038356 0.18898616 -0.00000185
-0.12087838 0.48952242 0.00000219
-0.27875944 0.51459908 -0.00000069
-0.49475675 -0.34761612 -0.00000008
-0.75067134 -0.57675784 -0.00000056
-0.62609883 0.05326870 0.00001236
-0.52129181 -0.20749230 -0.00000044
-0.20210800 0.05617501 0.00000000
-0.49717353 0.07411234 -0.00000084
-0.25670271 -0.17155934 0.00000000
-0.34595499 -0.73377526 0.00000000
-0.69156305 -0.59670420 -0.00000048
-0.52941279 -0.71813707 0.00000959
-0.54737401 -0.62455369 0.00000991
-0.57496301 -0.10372088 0.00001106
-0.04434286 -0.30927797 0.00000000
-0.18418332 0.45139228 0.00000229
-0.39145851 0.18915514 0.00000754
-0.46642434 0.12185112 -0.00000079
-0.42463250 -0.74440631 0.00000000
-0.56659578 -0.27577687 -0.00000052
-0.66772603 -0.43906079 0.00001259
-0.30069293 0.26448532 0.00000219
-0.11265315 -0.45606120 0.00000204
-0.14014322 0.04460676 -0.00000668
-0.74805804 -0.00029317 0.00001489
-0.43349236 0.14519135 0.00000837
-0.22532710 0.31503868 0.00000028
-0.10574836 -0.65187931 0.00000000
-0.12351301 0.59323081 0.00000108
-0.31321317 -0.33153580 0.00000567
-0.19355256 0.49056577 0.00000199
-0.53726272 -0.64354815 0.00000000
-0.12406866 0.20825053 -0.00000476
-0.44901236 0.26987576 0.00000887
-0.40326513 -0.51275472 0.00000730
-0.35267933 -0.11695620 0.00000000
-0.66256996 0.01563069 -0.00000144
-0.71683400 -0.68144241 0.00001308
-0.48961524 -0.17339640 -0.00000037
-0.78032730 -0.33087595 0.00001489
-0.61307069 -0.14200073 0.00001182
-0.07149163 0.23279321 0.00000743
-0.37962853 0.12221780 -0.00000042
-0.11574420 -0.31969446 0.00000000
-0.44080124 -0.05721401 0.00000826
-0.57301384 -0.52965774 0.00001045
-0.15362921 -0.36293431 0.00000278
-0.67819068 -0.12928955 -0.00000125
-0.37742612 0.29097100 0.00000737
-0.52598052 0.13037427 0.00000108
-0.03480934 0.70076715 0.00000096
-0.59673601 -0.48994648 0.00001101
-0.21739058 0.07149456 -0.00000371
-0.49351036 -0.00822878 -0.00000068
-0.13056767 -0.54980442 0.00000236
-0.60140074 -0.05177009 0.00001169
-0.68979430 -0.65613057 -0.00000036
-0.61756447 -0.78618784 0.00000000
-0.59827462 -0.41679272 0.00001114
-0.04084680 -0.75888198 0.00000000
-0.71866065 0.06798069 0.00001416
-0.42139372 0.09387573 -0.00000055
-0.70902159 -0.43502147 0.00001348
-0.29509650 0.32038363 -0.00000041
-0.01045810 0.09614975 0.00000000
-0.22109335 -0.48942557 0.00000400
-0.55309255 -0.73282859 0.00001001
-0.05397461 0.67439006 -0.00000009
-0.70193880 -0.36495766 -0.00000094
-0.46375177 -0.61465606 0.00000000
-0.51637099 0.09435519 0.00000725
-0.72252622 -0.43391746 -0.00000090
-0.16678531 0.14662174 -0.00000426
-0.47862004 0.11636603 0.00000624
-0.34481431 0.08861953 0.00000093
-0.66368037 0.12577388 0.00001310
-0.17045366 -0.36704917 0.00000309
-0.45798477 0.25205094 0.00000904
-0.34210774 0.07701545 0.00000633
-0.26794210 -0.18421585 0.00000485
-0.20165724 0.06762052 0.00000794
-0.51347751 -0.19145838 0.00000963
-0.44706770 -0.79978334 0.00000809
-0.38490554 -0.77976795 0.00000697
-0.01893541 -0.27246090 0.00000000
-0.46854852 0.09346814 -0.00000075
-0.03931918 -0.10601018 0.00000000
-0.43040671 0.22470993 -0.00000082
-0.37344840 -0.12150370 0.00000676
-0.51057054 -0.19261748 0.00000957
-0.10923358 -0.17864466 0.00000000
-0.33279835 0.37838022 0.00000521
-0.07094400 -0.74590836 0.00000000
-0.38237427 -0.40460558 0.00000692
-0.22160244 0.56481864 -0.00000033
-0.47691923 -0.66971089 0.00000000
-0.50980557 -0.25382555 -0.00000031
-0.59443014 -0.57388752 -0.00000011
-0.07405843 0.44432485 0.00000422
-0.64407638 0.13654179 -0.00000129
-0.25681480 0.35012763 0.00000258
-0.07364908 -0.23428042 0.00000000
-0.72807369 -0.47846390 0.00001376
-0.27313538 -0.47443103 0.00000495
-0.39441641 0.31658986 0.00000644
-0.05054275 -0.17088377 0.00000000
-0.55800024 -0.76571231 0.00001010
-0.25290138 -0.72177864 0.00000000
-0.42068265 -0.04127672 -0.00000031
-0.05029551 0.48588885 0.00000395
-0.12677426 0.05519856 -0.00000696
-0.16600128 -0.28083768 0.00000000
-0.58607635 -0.32216576 0.00001100
-0.04735261 -0.67012147 0.00000000
-0.65177320 -0.65516793 0.00001196
-0.02146581 -0.46093792 0.00000039
-0.55283977 0.14851952 0.00000945
-0.16993817 0.45504405 -0.00000012
-0.43570568 -0.78456951 0.00000000
-0.71550572 -0.07089784 -0.00000151
-0.13494462 0.37723161 0.00000244
-0.04499948 0.24384867 0.00000766
-0.53225700 -0.79778163 0.00000000
-0.62004241 -0.50580045 -0.00000034
-0.27195356 -0.57701953 0.00000492
-0.37862074 -0.46553384 0.00000000
-0.14752351 -0.66823050 0.00000267
-0.25399558 0.08342311 -0.00000232
-0.32949831 0.22616941 0.00000626
-0.06008912 0.13171299 0.00000109
-0.40044985 0.20660330 0.00000222
-0.09675974 -0.05153211 0.00000000
-0.35843140 0.09183369 0.00000495
-0.00497684 0.35148727 0.00000009
-0.73904708 -0.68617068 0.00001340
-0.27205933 0.11869882 0.00000611
-0.02571291 -0.49442710 0.00000000
-0.40065319 0.35555870 -0.00000027
-0.09255086 -0.20375155 0.00000168
-0.20821177 -0.00470834 0.00000377
-0.47083439 -0.71009906 0.00000000
-0.09679361 -0.76807200 0.00000000
-0.28741353 0.41202539 0.00000411
-0.28428248 0.26268906 -0.00000026
-0.75760130 -0.47899499 0.00001418
-0.22788812 0.07820267 0.00000739
-0.27784836 0.19136578 -0.00000011
-0.12401053 -0.20345551 0.00000000
-0.13165145 0.11141982 0.00000834
-0.49278470 -0.03373052 -0.00000063
-0.74767161 -0.56168296 0.00001383
-0.49590325 -0.20548817 -0.00000034
-0.32640326 0.17982700 0.00000175
-0.25280398 -0.18691717 0.00000000
-0.52242497 -0.00872575 0.00001007
-0.11921867 0.06038345 0.00000930
-0.42118673 -0.49122108 0.00000763
-0.74924682 -0.20495343 0.00001464
-0.66600732 0.04212309 -0.00000013
-0.09516258 0.68599915 -0.00000020
-0.49814779 -0.47297993 0.00000902
-0.23729972 0.09048177 0.00000430
-0.34925021 0.14078400 0.00000430
-0.68558335 0.08239363 -0.00000166
-0.21332969 -0.47972227 0.00000386
-0.03814846 -0.49770523 0.00000000
-0.67289668 -0.32142874 -0.00000089
-0.64052484 -0.63963060 -0.00000019
-0.22407758 0.11482682 0.00000406
-0.25283729 0.35807925 0.00000253
-0.27491557 -0.59650247 0.00000000
-0.79264747 -0.77424283 0.00001396
-0.43759987 0.30476970 0.00000867
-0.69710624 -0.07850013 0.00001370
-0.61984833 -0.04890876 -0.00000114
-0.33957101 0.21905751 0.00000286
-0.20439131 -0.45400980 0.00000370
-0.35821304 0.33215397 0.00000538
-0.40190371 -0.37879590 0.00000000
-0.12533690 -0.35908720 0.00000227
-0.10003092 0.09408350 -0.00000727
-0.72391938 -0.32602178 -0.00000110
-0.03918492 0.73492890 0.00000036
-0.28922002 -0.76633383 0.00000524
-0.64199463 -0.00226675 -0.00000132
-0.28417286 0.07114346 0.00000515
-0.68649190 -0.37636699 0.00001307
-0.11541330 0.61259189 -0.00000016
-0.19157307 -0.57786169 0.00000347
-0.61475287 0.01080156 0.00001206
-0.32259899 -0.09374484 0.00000584
-0.56115246 0.03942359 0.00000193
-0.20766507 0.56255009 -0.00000047
-0.02642628 0.21156188 0.00000048
-0.40789269 -0.60287041 0.00000000
-0.62318791 -0.34165071 -0.00000064
-0.20817637 0.46469352 0.00000160
-0.28400510 0.37498849 0.00000339
-0.64039536 -0.07993588 -0.00000118
-0.03008454 -0.01326144 0.00000000
-0.42417287 0.10520720 0.00000812
-0.21616902 0.23722040 0.00000391
-0.34043685 -0.78590350 0.00000000
-0.15231062 0.09125918 0.00000000
-0.04890437 -0.47238429 0.00000000
-0.27399238 -0.06666160 0.00000000
-0.10682651 -0.11859065 0.00000193
-0.23910202 -0.22780159 0.00000433
-0.60335433 -0.17760024 -0.00000085
-0.02182267 -0.76073284 0.00000040
-0.03902873 0.56036351 0.00000000
-0.02870128 0.47255199 0.00000052
-0.44679476 0.33856897 -0.00000109
-0.66655321 0.05067901 -0.00000028
-0.00748919 -0.71462307 0.00000014
-0.55422058 -0.77991160 0.00001004
-0.60128026 -0.37872621 -0.00000048
-0.19769495 0.17649494 -0.00000279
-0.61752991 -0.00227673 0.00001210
-0.57239434 -0.76128633 0.00001036
-0.21588274 0.13048687 -0.00000288
-0.23461297 0.19735748 0.00000550
-0.09136657 0.56070325 0.00000000
-0.21716318 -0.35138085 0.00000393
-0.48421962 -0.62367515 0.00000877
-0.61617145 0.13881407 0.00001226
-0.31369802 0.18272557 -0.00000025
-0.10407481 -0.35622952 0.00000000
-0.26891291 -0.33103082 0.00000487
-0.58684332 0.17261371 -0.00000079
-0.32646328 0.01635394 0.00000682
-0.27482423 0.40220929 0.00000533
-0.49973995 0.00450919 0.00000369
-0.62086802 0.15932640 0.00001239
-0.25303586 -0.47407154 0.00000000
-0.26310105 0.32145826 0.00000176
-0.58898458 -0.12777160 -0.00000087
-0.05322873 -0.39450425 0.00000000
-0.14316060 -0.56650979 0.00000000
-0.61643875 -0.74990706 0.00000000
-0.69628702 -0.44003255 0.00001320
-0.12143740 0.67531320 -0.00000030
-0.28162759 -0.76344282 0.00000510
-0.78453532 -0.18485712 -0.00000154
-0.47612855 -0.59392111 0.00000862
-0.18550876 0.14172945 0.00000707
-0.13179475 -0.77793834 0.00000239
-0.22743749 0.40741591 -0.00000028
-0.41380939 -0.50510601 0.00000749
-0.66575661 0.02986704 -0.00000148
-0.11203420 0.19048417 -0.00000542
-0.39394327 -0.68832348 0.00000713
-0.78496665 -0.53729251 -0.00000066
-0.51379341 0.12438053 0.00000764
-0.31014005 0.27146280 -0.00000039
-0.01558056 -0.53363197 0.00000000
-0.21454972 0.25347940 0.00000388
-0.78249230 -0.13433952 -0.00000166
-0.17295002 -0.20273886 0.00000313
-0.00963673 -0.26464374 0.00000000
-0.13199702 0.49671635 0.00000253
-0.11067946 0.47257187 -0.00000124
-0.12514605 0.11847663 0.00000227
-0.37593193 0.35703875 0.00000743
-0.04507919 0.13988603 0.00000922
-0.19212902 0.17897357 0.00000348
-0.09881537 0.22816517 -0.00000530
-0.14731819 0.39973094 0.00000000
-0.30019507 0.46455106 0.00000596
-0.46069896 -0.77018986 0.00000000
-0.00158172 0.77230411 0.00000039
-0.57874413 -0.33555728 -0.00000046
-0.27269684 -0.43637938 0.00000000
-0.33198398 0.09452239 0.00000056
-0.56560290 -0.34615978 -0.00000039
-0.45017688 0.11731012 0.00000869
-0.14415434 0.21239829 -0.00000403
-0.39062795 -0.51305610 0.00000000
-0.23035085 0.46840518 0.00000112
-0.55605456 -0.23935550 -0.00000054
-0.48787004 0.08998741 0.00000614
-0.26643606 0.14597621 0.00000000
-0.32149000 0.21957829 -0.00000035
-0.29280921 -0.04496391 0.00000530
-0.11177405 -0.15524303 0.00000202
-0.46711485 0.02384438 0.00000893
-0.58912130 -0.43662668 -0.00000033
-0.34343606 -0.58848701 0.00000622
-0.45538620 -0.60393886 0.00000825
-0.09580329 0.05666625 -0.00000797
-0.10350592 0.27210458 0.00000636
-0.00805803 0.07116953 0.00000015
-0.07275282 0.21250677 -0.00000640
-0.02417244 -0.13037640 0.00000044
-0.21719529 0.52727358 0.00000344
-0.24438897 0.33731086 0.00000460
-0.02668900 0.72067612 -0.00000030
-0.11092728 -0.47853848 0.00000000
-0.32519894 -0.63235368 0.00000589
-0.43105240 -0.11763505 0.00000797
-0.21149448 -0.51754491 0.00000383
-0.37138197 0.31475509 0.00000097
-0.01919583 -0.62864409 0.00000000
-0.55462427 -0.33817709 -0.00000035
-0.03459051 0.44706107 0.00000063
-0.69048130 -0.19625669 -0.00000119
-0.38807663 -0.17881220 0.00000703
-0.01828274 0.44134385 0.00000033
-0.53514745 -0.15505857 -0.00000060
-0.09391251 0.10675523 0.00000170
-0.11551204 0.58743955 0.00000133
-0.26398629 -0.18802923 0.00000478
-0.53003952 -0.55035576 0.00000000
-0.51588008 -0.31700874 -0.00000023
-0.50080994 -0.61622438 0.00000907
-0.52905131 -0.54714633 0.00000958
-0.55422313 0.00754498 0.00000259
-0.28434610 0.06124906 0.00000679
-0.67453323 0.02669884 0.00001336
-0.75536311 -0.70011990 0.00001360
-0.08343650 0.40195837 0.00000471
-0.48216239 -0.38936446 0.00000000
-0.53580525 -0.29282648 0.00000997
-0.27636393 0.45433687 0.00000047
-0.21219735 -0.26064640 0.00000000
-0.20551668 -0.18381862 0.00000372
-0.15359818 -0.62058946 0.00000278
-0.71753942 -0.54743922 -0.00000063
-0.79120006 -0.13570987 0.00001553
-0.61493178 0.08621377 0.00001069
-0.32785902 -0.07066047 0.00000000
-0.32973344 0.00584627 -0.00000096
-0.02894384 0.66138706 -0.00000112
-0.09661372 0.57423040 0.00000192
-0.48132091 -0.33340071 -0.00000005
-0.62049899 -0.44890037 -0.00000044
-0.52555449 0.05977093 -0.00000093
-0.67952112 0.03046529 0.00001213
-0.00229822 0.02085851 0.00001165
-0.77592002 -0.27605893 -0.00000131
-0.40677519 -0.19672519 0.00000000
-0.47247746 0.04595891 0.00000907
-0.10091665 0.42832127 -0.00000223
-0.07882150 0.54079640 0.00000143
-0.29378269 0.45491564 0.00000504
-0.20656038 0.39619175 0.00000278
-0.02639874 0.63253636 0.00000048
-0.05438444 -0.36510236 0.00000098
-0.38256471 0.03669304 0.00000540
-0.57365910 -0.25543851 0.00001083
-0.31910522 0.42227448 0.00000630
-0.02671912 0.24371140 -0.00000746
-0.45993480 -0.23203521 0.00000843
-0.11217062 -0.74792900 0.00000000
-0.08641061 0.64334108 0.00000058
-0.01550005 -0.43959808 0.00000000
-0.56300356 -0.53509498 0.00001023
-0.16553752 0.61699103 -0.00000012
-0.78590942 -0.21046999 -0.00000147
-0.59736214 0.11396925 -0.00000134
-0.62470133 -0.03037039 -0.00000120
-0.44296403 0.14239751 0.00000248
-0.31275026 -0.52442747 0.00000566
-0.43971683 -0.22322965 -0.00000007
-0.08509712 -0.08544194 0.00000154
-0.03812648 0.23247485 0.00000000
-0.49542494 0.07078435 -0.00000083
-0.57480159 -0.43095854 0.00001062
-0.52369262 -0.36130905 -0.00000018
-0.18792639 -0.12945630 0.00000340
-0.01717274 -0.31535169 0.00000031
-0.56744841 -0.59072431 0.00000000
-0.65825964 -0.52828312 0.00001227
-0.06154039 0.39489949 0.00000515
-0.41445492 -0.57923864 0.00000750
-0.46085820 0.04344369 0.00000379
-0.08134737 0.24356237 0.00000712
-0.49338616 -0.43743034 0.00000893
-0.66406991 -0.26656535 0.00001274
-0.36962891 0.09287532 -0.00000033
-0.22409511 -0.19501446 0.00000406
-0.33474360 -0.38159234 0.00000606
-0.19521310 0.15344933 0.00000675
-0.72486747 -0.13033372 0.00001422
-0.30286387 0.39634000 0.00000592
-0.58438890 0.00481259 -0.00000109
-0.39354008 0.23484385 -0.00000068
-0.35883807 -0.49822238 0.00000000
-0.25644307 -0.56774823 0.00000000
-0.54754790 -0.21358020 0.00001033
-0.32794870 0.15626606 0.00000446
-0.31526439 0.30434794 0.00000337
-0.65598854 -0.03332811 0.00001288
-0.34366116 0.25937390 0.00000243
-0.68267790 0.02967686 0.00001354
-0.05516311 0.26918167 -0.00000613
-0.48038804 -0.57929939 0.00000000
-0.29200297 -0.45118264 0.00000000
-0.57285191 -0.01549715 0.00001113
-0.49126100 0.17231390 0.00000105
-0.74671148 0.01494500 0.00001431
-0.40030742 0.30620645 0.00000056
-0.13118663 0.62131408 0.00000047
-0.13309422 0.02714135 0.00000241
-0.55858337 0.16146317 -0.00000006
-0.39827466 -0.73491989 0.00000000
-0.29011351 0.10581349 0.00000526
-0.71837957 -0.27108839 0.00001390
-0.25983432 0.37986235 0.00000498
-0.21806495 0.10471846 0.00000714
-0.37506513 0.14275591 0.00000291
-0.03027773 -0.33031208 0.00000000
-0.19670253 0.58098594 0.00000357
-0.27731498 0.26241221 0.00000520
-0.01059635 0.34759179 0.00000000
-0.66175064 -0.70469785 0.00001211
-0.70589264 -0.10546990 -0.00000141
-0.38473018 0.06651328 0.00000202
-0.28646132 0.27274313 0.00000541
-0.09689853 0.67508342 0.00000023
-0.28172656 0.09480745 0.00000000
-0.20807643 -0.67764033 0.00000000
-0.20888979 -0.55654352 0.00000000
-0.34811224 -0.57235784 0.00000630
-0.15799872 0.45529951 0.00000291
-0.29256120 -0.47519315 0.00000000
-0.17593878 0.45630684 0.00000079
-0.25785119 0.28755923 0.00000101
-0.13767722 0.23745246 -0.00000387
-0.56247381 0.03787210 0.00000800
-0.74640512 -0.29888402 -0.00000124
-0.26557899 -0.56506882 0.00000000
-0.36220418 0.18447708 0.00000312
-0.04798431 0.29118773 0.00000000
-0.40018769 0.15687907 0.00000306
-0.27194249 -0.03685178 0.00000492
-0.43487914 -0.51577417 0.00000000
-0.02751427 -0.46848211 0.00000000
-0.13125545 -0.77847717 0.00000000
-0.70853313 0.02867882 -0.00000072
-0.16006774 -0.18544873 0.00000000
-0.30082886 -0.38288657 0.00000000
-0.02888673 -0.01204803 0.00000052
-0.61496666 -0.75980061 0.00001113
-0.24579567 -0.01346214 0.00000000
-0.02841214 0.29907467 0.00000709
-0.59079087 -0.43595688 0.00001095
-0.72749194 -0.68032552 -0.00000030
-0.15998777 -0.34936000 0.00000290
-0.10426988 0.51899064 0.00000000
-0.11795333 -0.68286098 0.00000000
-0.56880786 -0.57524826 0.00000000
-0.21682047 -0.08022800 0.00000393
-0.02185067 -0.00900930 0.00000000
-0.08413539 -0.56254418 0.00000000
-0.36151339 0.43629215 -0.00000090
-0.74774172 -0.51931823 -0.00000070
-0.27515270 -0.19359585 0.00000000
-0.42548821 0.34338906 0.00000800
-0.73027819 -0.22202242 0.00001422
-0.70708664 -0.64736482 0.00001303
-0.53221779 0.12750944 0.00001046
-0.24512117 0.51140633 -0.00000054
-0.40375075 0.33233680 0.00000006
-0.20501364 -0.20910941 0.00000371
-0.72846342 -0.16718560 -0.00000140
-0.36915001 -0.33252491 0.00000668
-0.38495123 -0.00777547 0.00000713
-0.40121166 -0.39182893 0.00000726
-0.05332275 -0.29551891 0.00000097
-0.44948881 0.03536240 0.00000386
-0.50595344 0.26729662 -0.00000082
-0.32616986 0.44867710 0.00000611
-0.39696977 -0.22916811 0.00000000
-0.25480669 -0.56745814 0.00000461
-0.35710790 0.24116457 0.00000687
-0.42402155 0.19874874 0.00000190
-0.09672627 0.53691246 -0.00000074
-0.05156645 -0.52628922 0.00000093
-0.46847339 -0.64059066 0.00000000
-0.37766944 0.38733149 0.00000698
-0.16666464 -0.15385245 0.00000000
-0.77563440 -0.51443076 -0.00000071
-0.47432499 -0.55807947 0.00000000
-0.11820511 0.64292158 0.00000035
-0.00547141 0.17255928 0.00000000
-0.75896477 -0.44521578 0.00001429
-0.08380827 -0.75661613 0.00000000
-0.04888608 -0.31757074 0.00000089
-0.00328761 0.39313670 0.00000605
-0.41134613 0.28615513 -0.00000085
-0.56163570 0.08930129 0.00000109
-0.11691627 0.24200113 0.00000212
-0.78133969 -0.61119453 -0.00000047
-0.21308422 0.46935337 -0.00000032
-0.11732862 -0.16737471 0.00000212
-0.28693406 -0.17940275 0.00000000
-0.32561395 -0.32137423 0.00000590
-0.63488320 0.15589743 0.00001255
-0.78026024 -0.78819088 0.00001374
-0.12019095 0.08927691 0.00000000
-0.07302485 0.72330237 0.00000146
-0.74373046 -0.40357812 -0.00000099
-0.00514297 -0.22894243 0.00000000
-0.23031252 0.04303678 0.00000417
-0.24899420 0.54462164 0.00000488
-0.25041819 -0.64308122 0.00000000
-0.39865810 -0.69094850 0.00000722
-0.48172871 -0.71295858 0.00000000
-0.11059524 0.46061609 0.00000000
-0.44002610 0.01961253 -0.00000050
-0.78078650 -0.72734348 0.00001390
-0.17076842 -0.46530168 0.00000309
-0.04450723 -0.48880927 0.00000000
-0.29883677 0.03049590 0.00000703
-0.31201132 0.01803203 0.00000000
-0.53778185 0.03006855 0.00000253
-0.34132772 0.26279928 0.00000364
-0.32001683 -0.63550501 0.00000579
-0.62056008 -0.38121345 -0.00000056
-0.55184167 0.07725763 0.00001081
-0.40319084 -0.06203993 -0.00000020
-0.64617569 0.00078637 -0.00000134
-0.40420014 0.12332975 0.00000354
-0.46552375 -0.06434163 0.00000878
-0.76392713 -0.29969586 -0.00000125
-0.63654228 -0.54672427 -0.00000034
-0.31816069 0.35046808 -0.00000056
-0.21938899 0.11641451 0.00000397
-0.37373770 -0.77863852 0.00000677
-0.00037338 0.47071168 0.00000001
-0.11866817 0.19801354 0.00000215
-0.38128102 -0.38549573 0.00000000
-0.07342586 0.56870691 0.00000133
-0.56478066 0.22092217 -0.00000117
-0.03207594 -0.06259978 0.00000058
-0.28727867 -0.30981575 0.00000000
-0.46982855 0.18890538 0.00000710
-0.19097880 0.09888226 0.00000764
-0.65186941 0.12792067 0.00001301
-0.39530516 -0.70066474 0.00000716
-0.57050911 0.22493096 -0.00000135
-0.25203154 0.28168613 0.00000382
-0.07798881 -0.72219772 0.00000141
-0.21387329 -0.77517652 0.00000000
-0.07455232 0.36503664 -0.00000405
-0.54600148 -0.76045735 0.00000000
-0.10753855 0.51451810 -0.00000071
-0.16301275 0.56651094 -0.00000028
-0.57471378 -0.04299302 0.00001114
-0.09834086 0.19773152 -0.00000577
-0.38396384 -0.07208940 -0.00000010
-0.32542378 -0.62101676 0.00000000
-0.72598458 -0.21254008 -0.00000131
-0.65711753 -0.02854155 -0.00000134
-0.55952672 -0.76070752 0.00000000
-0.13232794 0.17024002 0.00000000
-0.44628992 -0.03882753 0.00000840
-0.29365687 -0.46040610 0.00000532
-0.29899812 0.07573205 0.00000635
-0.21906282 0.01384071 -0.00000452
-0.09905979 0.63127006 0.00000189
-0.38088854 -0.10628791 0.00000691
-0.19872056 0.14779337 0.00000000
-0.31752691 0.45660920 -0.00000036
-0.13033313 0.33050255 0.00000236
-0.35621558 0.34682901 0.00000555
-0.06254381 -0.34486688 0.00000000
-0.21501534 -0.19999654 0.00000000
-0.26166264 -0.05578440 0.00000000
-0.22002165 -0.76606705 0.00000398
-0.05270794 0.28161757 0.00000000
-0.17303516 0.31238970 -0.00000157
-0.34702526 -0.15207919 0.00000628
-0.42532257 0.20775833 0.00000828
-0.47903389 0.06339369 0.00000311
-0.02759579 -0.44016455 0.00000050
-0.76780367 -0.77849812 0.00001358
-0.13059290 0.62452120 0.00000042
-0.13248222 0.05652257 -0.00000675
-0.33397281 0.03427227 0.00000610
-0.11604793 -0.05687881 0.00000000
-0.60041652 -0.68915695 0.00000000
-0.59852443 -0.50054661 -0.00000026
-0.40391529 0.19959401 0.00000227
-0.06640848 0.02114759 0.00000000
-0.66883695 -0.51757538 -0.00000053
-0.00640381 0.66992959 0.00000012
-0.35798981 0.09609382 0.00000670
-0.01485928 0.16552884 0.00000929
-0.12859352 -0.32515340 0.00000233
-0.60668639 -0.14094017 -0.00000093
-0.78634110 -0.48181213 0.00001460
-0.47417361 -0.23989072 0.00000873
-0.33137202 -0.31406631 0.00000600
-0.06095291 0.58104386 0.00000000
-0.60024597 0.00655035 0.00000173
-0.62880591 -0.25386520 0.00001201
-0.64305277 -0.46562185 -0.00000051
-0.42516640 -0.58972910 0.00000000
-0.06788580 -0.61972443 0.00000000
-0.06587541 0.10186009 0.00000000
-0.21508286 0.36254405 0.00000400
-0.47389114 -0.60667744 0.00000858
-0.29212829 0.41036458 0.00000426
-0.71512837 -0.18587326 0.00001394
-0.26223509 0.13374862 0.00000475
-0.21052776 -0.15589363 0.00000381
-0.10154523 0.52395142 0.00000184
-0.17987275 0.00754038 0.00000917
-0.09176877 0.37369037 0.00000000
-0.48495495 0.20979574 -0.00000103
-0.04168945 0.18168129 0.00000865
-0.22970996 -0.63541969 0.00000000
-0.28042138 0.34756467 0.00000217
-0.45334181 -0.14765077 -0.00000026
-0.19192386 -0.67635451 0.00000348
-0.39291915 -0.07859230 -0.00000012
-0.06104006 0.06910376 0.00000000
-0.45897020 -0.36395789 0.00000000
-0.04097433 0.15306781 -0.00000834
-0.31051880 -0.59737514 0.00000000
-0.12202401 0.61475570 -0.00000019
-0.27260555 0.48492919 -0.00000061
-0.47360089 -0.35149505 0.00000000
-0.21091163 0.00490824 0.00000874
-0.08554300 0.36893405 0.00000155
-0.40279608 -0.37261451 0.00000729
-0.32919269 -0.01344191 0.00000596
-0.73492474 0.05988566 0.00001461
-0.09194402 0.46609924 0.00000166
-0.51162517 -0.77215240 0.00000000
-0.48310410 0.28563211 0.00000915
-0.12312310 0.23043916 0.00000223
-0.75553813 -0.39195197 -0.00000102
-0.27878802 -0.37194348 0.00000505
-0.24698758 0.04069070 0.00000447
-0.49237171 0.16888248 0.00000966
-0.09305197 0.11182300 -0.00000723
-0.15195750 -0.67093320 0.00000275
-0.16635191 0.14806983 -0.00000426
-0.18914004 0.47568818 0.00000179
-0.07213049 -0.72460267 0.00000000
-0.00323303 0.31423485 -0.00000718
-0.03070686 0.67626855 0.00000000
-0.50377162 -0.52668719 0.00000912
-0.10733113 0.43780205 0.00000000
-0.66734700 -0.14963601 -0.00000117
-0.17347144 -0.68063741 0.00000000
-0.40559550 -0.60938767 0.00000734
-0.13266012 -0.61888773 0.00000000
-0.04663294 -0.25841406 0.00000000
-0.16518105 0.48397928 0.00000085
-0.25202671 -0.13897042 0.00000456
-0.11069884 0.31630335 -0.00000358
-0.23143504 0.22076749 0.00000419
-0.64911972 -0.49719350 0.00001211
-0.15308076 -0.15222729 0.00000000
-0.03600841 -0.40618653 0.00000000
-0.70872411 -0.52558736 -0.00000068
-0.71471766 -0.55764518 -0.00000061
-0.07674018 0.33664846 0.00000139
-0.29366374 0.40622605 0.00000094
-0.29172802 -0.49438468 0.00000000
-0.35533426 0.12574566 0.00000444
-0.49022261 -0.37104961 -0.00000002
-0.00265411 -0.66949721 0.00000000
-0.00430640 0.63873278 0.00000000
-0.72492207 -0.36904993 0.00001390
-0.14339397 0.47296137 0.00000271
-0.12928369 -0.18527594 0.00000234
-0.12787873 -0.43859678 0.00000000
-0.50455014 -0.34127963 0.00000924
-0.18126901 0.51332988 0.00000348
-0.09549516 -0.77748834 0.00000173
-0.78624186 -0.72002077 -0.00000020
-0.10561840 0.46082784 0.00000000
-0.00578244 -0.60133675 0.00000010
-0.14723085 -0.36773299 0.00000267
-0.04740048 0.10614479 0.00000086
-0.29476190 0.33190597 0.00000566
-0.28377415 0.18660196 -0.00000013
-0.58281652 -0.07004548 0.00001127
-0.05206643 0.11920896 -0.00000848
-0.06043785 -0.72763893 0.00000109
-0.02754676 -0.60384898 0.00000000
-0.40187144 0.24533135 0.00000155
-0.04950599 0.35176801 -0.00000508
-0.15363982 0.00819952 0.00000278
-0.39883174 0.32623321 0.00000676
-0.01011645 0.11306033 0.00000018
-0.06495623 0.23120900 -0.00000638
-0.46774662 -0.63392369 0.00000847
-0.56225287 0.08970513 0.00000884
-0.02376557 0.62513641 0.00000226
-0.26707031 -0.07214038 0.00000000
-0.77466766 -0.36496865 0.00001472
-0.31869882 -0.26793451 0.00000000
-0.40583961 0.03769955 0.00000764
-0.75041697 -0.61342645 0.00001374
-0.68167249 -0.20188715 -0.00000114
-0.44746057 0.05178397 0.00000391
-0.43576077 0.33339540 -0.00000057
-0.05696913 0.53833109 0.00000000
-0.49015099 0.04937239 -0.00000076
-0.16002232 0.00978912 0.00000000
-0.24239025 0.39491651 0.00000463
-0.28479142 -0.06945797 0.00000000
-0.12440373 0.66488021 -0.00000013
-0.42516379 0.07296349 0.00000810
-0.34803205 0.24283263 0.00000356
-0.29998482 0.25965054 0.00000327
-0.25234358 -0.26423616 0.00000000
-0.21771356 0.50703919 0.00000313
-0.48604889 -0.53428160 0.00000000
-0.23369158 0.12000978 0.00000000
-0.74136353 -0.12360635 -0.00000153
-0.67588427 -0.68941527 -0.00000025
-0.06946990 -0.59218984 0.00000000
-0.13532027 0.41552985 0.00000245
-0.33133813 -0.43081266 0.00000000
-0.31995851 0.47149931 0.00000639
-0.66474011 -0.36134767 -0.00000078
-0.74022787 -0.43408098 -0.00000091
-0.16542927 0.39471928 -0.00000059
-0.74361263 -0.59723432 0.00001369
-0.24304865 0.10335656 0.00000678
-0.20524000 -0.17833618 0.00000372
-0.60220212 0.11426619 -0.00000136
-0.41433039 0.00991944 0.00000524
-0.04006848 0.43353109 -0.00000417
-0.78849623 -0.25371729 0.00001520
-0.16969856 0.39408674 0.00000352
-0.14032066 0.15827653 0.00000751
-0.17013297 0.19472099 0.00000308
-0.24964868 0.41114575 0.00000481
-0.18030398 -0.69792610 0.00000000
-0.74515073 -0.39740080 -0.00000101
-0.39978811 0.36422675 -0.00000094
-0.01694995 0.64700106 -0.00000173
-0.73194629 -0.14600719 -0.00000145
-0.33875677 0.12274190 -0.00000025
-0.60056393 0.18934016 -0.00000148
-0.54982401 0.17186948 0.00001089
-0.17008720 -0.46352155 0.00000000
-0.77352858 -0.39894833 -0.00000100
-0.01474375 0.48740342 0.00000027
-0.09972205 -0.45738244 0.00000181
-0.49698698 0.16330109 -0.00000100
-0.12451706 0.40406284 0.00000000
-0.42569110 -0.24407697 0.00000000
-0.59222610 -0.14627580 0.00001137
-0.12517212 -0.24884588 0.00000227
-0.75696530 -0.48264352 0.00001417
-0.03409471 -0.05967024 0.00000000
-0.00551935 0.39760735 -0.00000585
-0.37149571 -0.46173506 0.00000673
-0.20929949 0.05915196 -0.00000416
-0.63501830 0.03433403 -0.00000136
-0.55226160 -0.62584509 0.00000000
-0.20898520 -0.57670623 0.00000378
-0.11537554 0.46990057 0.00000321
-0.24121050 -0.36215568 0.00000000
-0.15901796 -0.36126253 0.00000288
-0.68127511 -0.43054881 -0.00000073
-0.23650988 -0.67138649 0.00000000
-0.10101752 -0.35559938 0.00000183
-0.09138162 0.61578617 0.00000032
-0.16069297 -0.62593377 0.00000291
-0.75333820 -0.16934017 -0.00000150
-0.07295450 0.69907216 0.00000142
-0.74730566 -0.49273421 0.00001400
-0.25341575 0.18719147 0.00000537
-0.66286063 -0.08263134 -0.00000127
-0.35267467 -0.58780871 0.00000000
-0.06187985 -0.66749307 0.00000000
-0.05010214 0.15699988 0.00000091
-0.25607051 0.53741075 0.00000502
-0.71184282 -0.54981748 -0.00000063
-0.65848666 -0.73816271 0.00001199
-0.27952671 0.25116034 -0.00000022
-0.20876233 0.25867910 0.00000000
-0.35021038 0.33094294 0.00000685
-0.19161694 -0.45076348 0.00000000
-0.58905568 0.17439574 -0.00000141
-0.47940697 0.25828969 -0.00000016
-0.07017522 -0.74904779 0.00000127
-0.41049240 -0.06065746 -0.00000023
-0.03722967 0.47712382 0.00000067
-0.71102121 -0.19174119 0.00001384
-0.19388884 0.51167222 0.00000375
-0.63472091 -0.05704376 0.00001240
-0.06256112 0.07241980 -0.00000884
-0.66870004 0.08353358 0.00001331
-0.21762449 -0.13926958 0.00000394
-0.14685353 0.44199136 0.00000000
-0.77168940 -0.41857066 0.00001454
-0.08535310 0.31074141 0.00000000
-0.61005755 0.16953841 0.00001217
-0.05257822 -0.61735150 0.00000095
-0.37495804 -0.37697096 0.00000000
-0.36740572 -0.23855362 0.00000665
-0.48820085 0.28571714 -0.00000117
-0.26206594 0.50917384 -0.00000060
-0.12377784 -0.38358547 0.00000224
-0.10965056 -0.28489616 0.00000199
-0.28499810 -0.05308633 0.00000000
-0.34682846 0.30630683 0.00000159
-0.70394423 0.03365928 -0.00000072
-0.08990451 0.51804588 0.00000000
-0.32812836 -0.53518371 0.00000000
-0.65007791 -0.27116647 0.00001244
-0.32127564 0.02672396 -0.00000093
-0.42592717 -0.43128195 0.00000000
-0.40575079 0.27768998 0.00000093
-0.74566938 -0.74579864 -0.00000014
-0.49115262 -0.24164516 0.00000909
-0.57003707 0.12544647 0.00000032
-0.01695956 0.41732475 0.00000548
-0.67086189 -0.05858354 0.00001317
-0.44862756 -0.24550314 0.00000817
-0.22344830 -0.19233959 0.00000405
-0.69555527 -0.63183465 0.00001290
-0.13511764 -0.35727972 0.00000000
-0.16607358 -0.45478165 0.00000000
-0.54636841 -0.14157212 0.00001040
-0.29748794 0.14587500 -0.00000011
-0.19852685 -0.57005207 0.00000359
-0.26785941 0.00436794 0.00000000
-0.29360331 0.12259115 -0.00000037
-0.30272774 -0.03110021 0.00000548
-0.39680041 -0.46811812 0.00000718
-0.61764345 -0.20244595 -0.00000086
-0.25740856 -0.17989262 0.00000000
-0.62327988 -0.58822140 0.00001144
-0.25350918 0.11891972 0.00000000
-0.23666420 -0.77784513 0.00000000
-0.18181215 0.01788815 0.00000329
-0.12251713 0.47175111 0.00000222
-0.33977948 0.34600818 -0.00000065
-0.05723565 -0.21776100 0.00000000
-0.11877140 -0.27158439 0.00000215
-0.60812020 -0.49570509 0.00001124
-0.40704442 -0.59694825 0.00000737
-0.59093587 -0.71983181 0.00000000
-0.57408361 -0.07758169 -0.00000090
-0.34132969 0.25541178 -0.00000049
-0.19715071 0.30135752 0.00000357
-0.25121939 0.17804864 0.00000554
-0.47704051 -0.38945443 0.00000000
-0.61383003 0.12478425 0.00001128
-0.45643429 0.23657405 0.00000739
-0.11872741 0.02819152 -0.00000764
-0.68462752 -0.22864176 -0.00000110
-0.42690609 0.25444668 0.00000661
-0.45642421 -0.09958811 -0.00000036
-0.26402915 0.33315641 0.00000273
-0.40101283 0.03875410 0.00000754
-0.48663459 0.08013300 -0.00000080
-0.33900007 0.12894451 -0.00000026
-0.49843874 -0.29150737 0.00000917
-0.11156993 -0.16301800 0.00000000
-0.20835992 -0.06362344 0.00000000
-0.28044239 0.30522361 -0.00000032
