ply
format ascii 1.0
element vertex 1382
property float x
property float y
property float z
end_header
-0.58826033 -0.03574610 -0.00000038
-0.17426878 0.00267138 0.00000308
-0.14595789 -0.11084598 0.00000129
-0.77613022 -0.47554478 -0.00000081
-0.19567727 0.28581364 0.00000204
-0.76796588 -0.74497801 0.06967807
-0.07755231 -0.79564890 0.00000001
-0.55462018 0.11907407 0.14834774
-0.22223767 0.35531385 0.00000188
-0.01666887 0.03051005 0.00001141
-0.25001735 -0.63438067 0.00000257
-0.19691348 0.53582346 0.04761722
-0.12868722 0.36093215 0.00000600
-0.23092511 0.51272295 0.06092089
-0.67886174 -0.48149939 0.08057927
-0.38738487 0.18141287 0.07138557
-0.52933001 0.10020797 -0.00000010
-0.39271773 -0.74293054 0.00000011
-0.65748443 -0.16365545 -0.00000074
-0.07470427 -0.50578624 0.00000123
-0.28263070 -0.62582332 0.00000033
-0.01579001 -0.01339395 0.00000147
-0.45424284 -0.74237278 0.00000011
-0.04901519 -0.60114904 0.00000082
-0.03615246 0.22114066 0.00000897
-0.21765978 0.51499428 0.00000172
-0.21747091 0.17757638 -0.00000276
-0.20746731 0.30970749 0.00000537
-0.35179667 0.29258241 0.07707556
-0.06362567 0.08325254 0.00001010
-0.24224522 0.27339232 0.01312548
-0.10599708 0.60710072 0.01420614
-0.02144981 0.21704326 0.00000923
-0.07952662 0.37727700 -0.00000277
-0.20045471 0.42819540 0.00000397
-0.12050767 0.34581891 -0.00000224
-0.11695579 0.23999890 0.00000301
-0.20337279 -0.35801720 0.00000083
-0.00410225 0.35336887 0.00000216
-0.33106943 0.46420530 0.00000099
-0.33648470 0.23741061 0.05630378
-0.62729457 -0.21948899 -0.00000044
-0.35513013 -0.58342991 0.00000041
-0.21495139 -0.27497328 0.00000098
-0.75394260 -0.47751744 0.12233855
-0.27283386 -0.47441159 0.00000061
-0.54017596 -0.79134930 0.00000491
-0.49496139 -0.18108996 0.00000050
-0.28445681 -0.79956811 0.00000000
-0.68082996 -0.76397999 0.01797204
-0.65485678 -0.00683217 0.17451571
-0.79273094 -0.16538628 -0.00000159
-0.29334327 -0.33318842 0.00000353
-0.08767159 0.28728227 0.00000204
-0.39786013 -0.33148773 0.00000448
-0.58472935 0.03545113 0.14588114
-0.43380078 -0.49601261 0.00000450
-0.02236744 0.04836450 -0.00001049
-0.22234735 0.16395209 -0.00000289
-0.01314435 -0.06027484 0.00000139
-0.49681387 -0.15693215 0.00000046
-0.04226034 0.22592346 0.00000882
-0.52406664 0.25685425 -0.00000025
-0.64184511 0.01510839 0.17238044
-0.03624414 -0.75819822 0.00000008
-0.19501409 0.24242358 0.00000195
-0.12346688 0.30650026 0.00000319
-0.42997086 -0.03172482 0.04651550
-0.24850618 -0.47879306 0.00000285
-0.35709132 -0.47878663 0.00000060
-0.38416641 -0.58908080 0.00000387
-0.58699079 -0.42526222 0.04325739
-0.12483190 -0.35961301 0.00000196
-0.45754314 0.15153408 0.00000261
-0.61583177 0.05875691 -0.00000070
-0.72238899 -0.17165047 -0.00000121
-0.55297975 -0.40309902 0.02974363
-0.02490284 0.59062855 -0.00000025
-0.08485176 0.52637738 0.00000017
-0.08934838 0.15308302 0.00000260
-0.50419152 -0.39127333 0.00585728
-0.73624720 0.01155821 -0.00000154
-0.14388565 0.05477908 -0.00000706
-0.24901442 0.25114327 0.01179886
-0.66568604 -0.55223398 0.05746321
-0.55274347 0.06981020 0.00000184
-0.18010190 -0.67752615 0.00000023
-0.42795775 -0.19282372 0.00910404
-0.06132585 0.16452874 -0.00000725
-0.15171593 0.48077714 0.00000422
-0.41278349 -0.20590079 0.00000485
-0.03950478 0.11602938 0.00001010
-0.65533753 0.01050331 0.17868677
-0.42220013 -0.45203172 0.00000065
-0.11169706 -0.78166537 0.00000003
-0.66055512 -0.75995569 0.00784495
-0.02168789 -0.30217944 0.00000093
-0.32093801 0.43319275 0.09198048
-0.00232935 0.58199847 0.00000261
-0.18616740 -0.48418357 0.00000228
-0.06737569 -0.00566733 0.00000149
-0.49254739 0.30017254 0.00000002
-0.13835579 0.38744060 0.00000348
-0.20174566 -0.11780646 0.00000128
-0.32181695 -0.00797530 0.00000149
-0.29185164 0.48554560 0.00000120
-0.08113838 -0.05019386 0.00000214
-0.11310243 0.08122638 0.00000938
-0.06725158 -0.14779246 0.00000183
-0.65679361 -0.25189311 -0.00000062
-0.00125391 -0.10404825 0.00000130
-0.26095640 -0.29139289 0.00000332
-0.51321062 -0.38344527 0.01253042
-0.37994654 0.28502558 0.00000237
-0.04062147 0.44810596 0.00000271
-0.07928987 0.26332269 0.00000271
-0.61134251 -0.20706434 0.10569785
-0.09440748 0.56728892 0.00000342
-0.08447469 -0.30902353 0.00000092
-0.13914345 0.30869832 0.00000208
-0.63803734 -0.03223047 -0.00000075
-0.33332888 -0.48625642 0.00000361
-0.04709347 0.60046659 0.00000263
-0.39271503 0.12526960 0.00000420
-0.15781089 0.50310826 0.00000218
-0.22809304 0.37258152 0.02778808
-0.36913401 0.37249411 0.10452751
-0.39471962 -0.03556471 0.00000107
-0.01479315 0.72690981 0.00000203
-0.33533967 -0.73409358 0.00000316
-0.04459842 0.24960288 0.00000852
-0.02536034 -0.31729064 0.00000091
-0.36211295 0.25039140 0.07318130
-0.22496275 -0.20092983 0.00000316
-0.13849422 0.12788008 0.00000174
-0.42243130 0.29223388 0.00000147
-0.34777648 -0.10929185 0.00000130
-0.03676109 0.45923438 0.00000628
-0.35225985 -0.73026585 0.00000013
-0.05981913 -0.10935762 0.00000184
-0.72925666 -0.68045811 -0.00000030
-0.17914129 0.08613924 0.00000166
-0.17206201 -0.77274350 0.00000005
-0.72328829 -0.69903703 0.05571919
-0.47059973 -0.33260323 0.00000087
-0.57213289 -0.08894893 0.11098496
-0.37961289 0.26702605 0.00000081
-0.54591611 0.13746371 0.14775509
-0.14661060 -0.54323858 0.00000048
-0.11271617 0.40863229 0.00000570
-0.31510201 -0.39646071 0.00000361
-0.16999782 0.32745810 0.00000575
-0.16411715 -0.35897842 0.00000083
-0.30309128 0.44716239 0.00000175
-0.20457217 -0.59140455 0.00000224
-0.37024531 -0.59569715 0.00000374
-0.23687183 -0.39315604 0.00000076
-0.28533048 -0.40831417 0.00000073
-0.15581224 -0.25844916 0.00000102
-0.41200486 0.16311070 0.08065538
-0.38399264 -0.36488858 0.00000429
-0.35076063 0.40687649 0.10227868
-0.68768629 -0.57431597 0.06445862
-0.36172790 0.17223939 0.00000106
-0.16738388 0.37290386 -0.00000046
-0.71240021 -0.47024837 0.10136832
-0.01673243 -0.22836133 0.00000122
-0.47931454 0.25114743 0.00000091
-0.10043882 -0.33274930 0.00000088
-0.52402747 -0.42936099 0.00806671
-0.24290706 -0.36192653 0.00000302
-0.74970272 -0.72189423 -0.00000020
-0.28262646 0.42299146 0.06882945
-0.01560823 0.14492843 -0.00000886
-0.13109268 0.28525953 -0.00000309
-0.08547057 0.10142384 0.00000246
-0.32347375 0.38268269 0.08197446
-0.53962684 -0.59086113 0.00000528
-0.35531676 -0.59838522 0.00000359
-0.58669063 -0.56125166 0.00000028
-0.40906786 0.17043235 0.00000071
-0.54230491 0.06984222 0.13054723
-0.16971462 0.00056784 0.00000304
-0.07683413 0.08598032 0.00000236
-0.25133530 -0.10924545 0.00000130
-0.75512819 -0.64986963 0.08413120
-0.25340546 0.12904284 -0.00000270
-0.34610534 -0.21661795 0.00000423
-0.60130345 -0.16790531 -0.00000031
-0.79088016 -0.59542272 -0.00000051
-0.35217620 -0.35927908 0.00000083
-0.00604578 -0.44776620 0.00000072
-0.02880406 0.65663321 0.00000273
-0.72542765 -0.29007467 -0.00000109
-0.38207190 0.37487903 0.00000117
-0.12365940 -0.25837000 0.00000214
-0.31523680 -0.36420729 0.00000082
-0.55324243 0.16609929 0.15819863
-0.48724826 -0.46352991 0.00000504
-0.17804044 -0.62333573 0.00000194
-0.21780096 0.27696523 0.00063240
-0.06353473 0.36349986 -0.00000346
-0.36320974 -0.66867493 0.00000353
-0.38152746 0.01930056 0.00000110
-0.46838777 -0.68633199 0.00000021
-0.08831553 0.52348128 0.00000328
-0.06353500 0.17625041 -0.00000697
-0.56936915 -0.02442680 0.12402580
-0.38826856 0.09904918 0.05329448
-0.34883525 0.06190361 0.00000586
-0.70572117 -0.76306496 0.03172500
-0.07735758 -0.29640619 0.00000094
-0.16907833 0.41603636 0.00000221
-0.56200217 0.13996534 0.15707470
-0.63176300 -0.70371509 0.00000011
-0.31772988 -0.58143496 0.00000041
-0.27985645 0.14064536 0.00000617
-0.31218240 0.23008712 0.04142612
-0.00291131 -0.43094518 0.00000069
-0.37336759 0.03021454 0.00000580
-0.26416433 0.07445417 0.00000718
-0.24025056 -0.60479051 0.00000037
-0.23736743 0.49570583 0.00000238
-0.31541729 0.21556427 0.00000451
-0.09199149 0.68079020 0.00000278
-0.38610493 -0.52470601 0.00000052
-0.00311876 0.10009396 -0.00001004
-0.47800035 0.19808406 0.12445961
-0.22802384 -0.16268792 0.00000119
-0.06981892 0.14540716 0.00000931
-0.07804351 0.52902350 0.00000487
-0.20654627 0.33289734 0.00711578
-0.20221856 0.48496642 0.03903909
-0.61683471 -0.46604506 -0.00000006
-0.57849444 -0.15929106 -0.00000015
-0.53887787 -0.04533299 0.00000001
-0.16848091 -0.35085731 0.00000084
-0.65825538 -0.48733787 0.06804847
-0.12209204 0.07245300 0.00000934
-0.42632912 0.28989233 0.00000142
-0.50329589 -0.28048354 0.03034474
-0.41008324 -0.18754404 0.00056632
-0.17614676 -0.53078823 0.00000210
-0.55606503 -0.71532416 0.00000016
-0.37335714 0.00817178 0.00000118
-0.04848978 0.03929724 -0.00000995
-0.25410177 0.32982731 0.00000168
-0.66350759 -0.75737014 0.01003462
-0.22669306 0.36629097 0.02560811
-0.05204009 0.15692382 -0.00000764
-0.36107378 -0.53768459 0.00000376
-0.66793906 -0.33102940 0.10855462
-0.03278723 -0.47045666 0.00000062
-0.32942255 -0.43273628 0.00000367
-0.28971064 -0.72591453 0.00000014
-0.28459793 -0.32935677 0.00000346
-0.52847078 -0.60726392 0.00000515
-0.15193362 0.21178479 0.00000190
-0.40876039 -0.74462403 0.00000380
-0.47352136 -0.68939087 0.00000449
-0.12290609 -0.35531134 0.00000195
-0.33370176 0.34826524 0.07978230
-0.08246923 0.71657989 0.00000249
-0.09871094 0.50801986 0.00000480
-0.45191591 0.30073818 0.00000023
-0.58318380 -0.30789015 -0.00000001
-0.28266614 -0.48592193 0.00000315
-0.02582364 -0.64655379 0.00000029
-0.55794888 -0.20054249 0.07810948
-0.64381174 0.08707354 -0.00000094
-0.33267351 0.35911419 0.00000105
-0.16246932 0.54232495 0.03033806
-0.46628912 -0.54598318 0.00000470
-0.16476542 0.03290998 0.00000305
-0.67398982 -0.74175738 -0.00000015
-0.09969788 -0.64323415 0.00000120
-0.31729666 -0.19536698 0.00000401
-0.07103546 0.05133162 0.00000160
-0.37645584 0.30692494 0.00000216
-0.11275170 0.24582369 0.00000298
-0.32905092 -0.31940418 0.00000090
-0.23594659 -0.38640452 0.00000078
-0.27301055 0.44088171 0.06762922
-0.47910800 -0.59751096 0.00000472
-0.69315905 -0.55788901 0.07114015
-0.51172303 0.05423953 0.11038293
-0.08600906 -0.21673572 0.00000187
-0.04289565 0.31803048 0.00000248
-0.13434323 0.48826633 0.00284164
-0.34084563 0.36272760 0.08692928
-0.18867553 0.42140708 0.01733913
-0.64980208 -0.07757752 0.15581850
-0.12719295 -0.46329182 0.00000063
-0.22855068 0.00513491 0.00000358
-0.13209029 -0.18734738 0.00000115
-0.35741806 -0.73437034 0.00000012
-0.38471994 0.25220681 0.08589401
-0.56585551 -0.74184163 0.00000523
-0.45922218 -0.65725316 0.00000443
-0.72462960 -0.28263519 -0.00000109
-0.24546937 0.38767864 0.00000167
-0.46675099 -0.64435810 0.00000452
-0.19063418 0.07692263 -0.00000538
-0.50337455 -0.39054560 0.00557671
-0.68207179 -0.48890494 0.08065688
-0.52492235 -0.22335531 0.05499275
-0.36066937 0.11043226 0.00000115
-0.75162028 -0.52916691 0.10943155
-0.71818248 -0.66031224 0.06166999
-0.59749418 -0.31841920 -0.00000010
-0.40037018 0.28271717 0.10128781
-0.59587646 -0.31150154 -0.00000010
-0.73515563 -0.36068768 0.13845042
-0.00466570 0.41392536 0.00000727
-0.03566088 0.43730102 0.00000654
-0.54782677 0.15761211 0.00000080
-0.03676474 -0.25412302 0.00000136
-0.20806597 0.41053480 0.02544434
-0.20486119 -0.74965800 0.00000195
-0.06738766 0.02899324 0.00000155
-0.14292219 0.31196797 0.00000208
-0.32526326 0.22832765 0.00000416
-0.52914483 -0.38881081 0.01999281
-0.04195183 0.68553594 0.00000279
-0.22740813 0.40759791 0.03530893
-0.44230382 0.33091875 0.00000027
-0.17902502 0.35502964 0.00000379
-0.05754827 0.48994090 0.00000242
-0.15831808 0.37034800 0.00000363
-0.38778213 -0.18267999 0.00000116
-0.50222921 -0.78407826 0.00000458
-0.44936307 -0.30731305 0.00000092
-0.65820287 -0.23538799 -0.00000065
-0.01957462 0.27871511 0.00000857
-0.29609493 0.08662729 0.00033545
-0.18324097 -0.45499772 0.00000231
-0.05594061 0.40130311 0.00000225
-0.09623964 -0.38243634 0.00000165
-0.20772280 0.45500345 0.00000348
-0.07997334 0.46520659 0.00000556
-0.29028687 0.05287305 0.00000703
-0.00067873 0.62605084 -0.00000024
-0.04775102 -0.14696537 0.00000166
-0.71686035 -0.53343201 -0.00000067
-0.50645407 -0.47352654 0.00000061
-0.51225787 0.03913068 0.10727147
-0.65636266 -0.00682427 0.17533707
-0.69277334 -0.72863770 -0.00000018
-0.58361825 -0.16909915 -0.00000018
-0.49973166 0.04751808 0.10234503
-0.71611726 -0.71676531 -0.00000021
-0.42211514 0.03959686 0.00000077
-0.45306921 0.04949646 0.07739108
-0.20360133 0.17115990 -0.00000326
-0.58509249 0.21370189 -0.00000064
-0.01628764 -0.20417682 0.00000112
-0.07743291 0.19988125 0.00000858
-0.20059511 0.41368971 0.02208965
-0.78184413 -0.41380442 -0.00000097
-0.66308972 -0.79746927 -0.00000001
-0.06071966 -0.64447360 0.00000029
-0.06177426 0.34504667 0.00000719
-0.69015808 0.05747604 -0.00000064
-0.76837651 -0.54896349 0.11408824
-0.04625102 0.40313529 0.00000677
-0.03515442 0.07482542 -0.00000964
-0.13751257 0.33239550 0.00000212
-0.36600245 0.37649715 0.10372560
-0.30404332 -0.27140322 0.00000374
-0.29330959 0.46619354 0.08438346
-0.12936281 -0.16508410 0.00000236
-0.69255643 -0.21984911 -0.00000093
-0.68989651 -0.59374435 0.06128185
-0.11745692 -0.64554177 0.00000029
-0.22084435 0.09387778 -0.00000424
-0.18480708 -0.64646043 0.00000196
-0.23535938 -0.54301944 0.00000048
-0.54955832 0.03618701 0.12690508
-0.38673402 -0.13442193 0.00000125
-0.01423109 0.33914227 0.00000797
-0.07011742 0.38333856 0.00000663
-0.04769246 -0.04900482 0.00000184
-0.03004198 0.74522446 0.00400514
-0.00792702 0.12266722 0.00000180
-0.29572058 0.32724636 0.05437075
-0.01193896 0.42839901 0.00000700
-0.16264431 -0.68736089 0.00000168
-0.05766545 -0.47442650 0.00000113
-0.31948960 0.21721325 0.00000132
-0.01999637 0.67616659 0.00000122
-0.43974319 0.09224081 0.07977899
-0.64800015 -0.25442049 -0.00000055
-0.00819439 0.03052618 -0.00001121
-0.52393789 -0.36865899 0.00000051
-0.04137430 0.52382325 -0.00000105
-0.31313236 0.10620289 0.00000151
-0.06366604 0.07063159 -0.00000895
-0.33486541 0.38742587 0.08924341
-0.32187999 0.11732914 0.02128338
-0.04214312 0.08442389 0.00000204
-0.77509545 -0.21678969 -0.00000146
-0.44604545 0.08876077 0.08242440
-0.53057903 0.04726248 0.11907556
-0.27469539 -0.21593585 0.00000110
-0.07960375 0.38855384 0.00000223
-0.18931487 0.42599780 0.00000421
-0.06084734 0.41129235 -0.00000264
-0.65778511 -0.21155561 -0.00000068
-0.21517530 -0.60144914 0.00000232
-0.71369159 -0.54352546 -0.00000064
-0.50262918 0.17538914 0.13274610
-0.41083580 -0.72236428 0.00000387
-0.37346536 0.08944479 0.04307253
-0.73989389 -0.30197167 0.15426525
-0.38794507 -0.50818259 0.00000055
-0.38442712 0.19240068 0.07225280
-0.21419842 0.40242908 0.02695459
-0.02598686 0.15835270 0.00000983
-0.37193610 -0.68748309 0.00000358
-0.06436342 0.49675031 -0.00000094
-0.29750366 -0.39203434 0.00000076
-0.44216848 0.35378926 0.00000024
-0.57739433 -0.69560218 0.00000020
-0.21060896 0.17147261 0.00000373
-0.77038947 -0.63715667 0.09530277
-0.10500633 0.58023312 0.00000248
-0.04450733 -0.56084207 0.00000045
-0.20296281 0.33493627 0.00562516
-0.19348901 0.14301283 0.00000177
-0.00001250 -0.34976323 0.00000084
-0.67703675 -0.25442160 0.13077526
-0.37586586 -0.09906628 0.00000129
-0.09013765 -0.43559505 0.00000068
-0.46619176 0.14984490 0.00000247
-0.63585262 -0.67877740 0.01270072
-0.72125212 -0.68766391 0.05717483
-0.28856845 -0.18788382 0.00000376
-0.67150273 -0.59208129 0.05164623
-0.08703559 -0.39479928 0.00000155
-0.50651531 -0.06378556 0.08094619
-0.03669708 -0.19246301 0.00000147
-0.33254317 0.09080638 0.02111386
-0.28566964 0.19975731 0.00000529
-0.16413821 0.61409541 0.04742516
-0.42774122 -0.03750085 0.00000083
-0.21003045 0.54512683 0.05685400
-0.10360424 0.36541957 0.00000312
-0.18698531 0.12078445 0.00000782
-0.69633804 -0.77285672 -0.00000007
-0.68197089 -0.64352680 0.04574621
-0.32037168 -0.16106858 0.00000120
-0.18743823 0.38469102 0.00000478
-0.63193536 -0.57349292 0.03430267
-0.64023181 -0.21886347 0.11876053
-0.34156090 -0.04988528 0.00000141
-0.36343300 0.14246772 0.04956612
-0.60471456 0.03784567 0.00000126
-0.13102457 0.55713250 0.01656096
-0.42970088 -0.72047042 0.00000404
-0.39410998 -0.29091650 0.00000452
-0.09154957 0.47754187 -0.00000056
-0.54224904 -0.06681587 0.09971055
-0.68457244 -0.51251676 -0.00000051
-0.40604073 0.14837372 0.00000364
-0.25423487 -0.15819725 0.00000351
-0.52407903 0.26701273 -0.00000026
-0.17519688 -0.64652439 0.00000029
-0.59743386 -0.05449407 -0.00000042
-0.74283166 -0.48641426 -0.00000078
-0.06868955 0.62261910 0.00000396
-0.30978477 0.25452297 0.04563395
-0.18761663 -0.11463413 0.00000298
-0.39264189 0.10799792 0.05769698
-0.40837473 -0.74273156 0.00000380
-0.56100529 0.11289073 0.15042758
-0.52191175 -0.04267638 0.09408400
-0.04839329 -0.16570812 0.00000119
-0.67350103 0.05652825 -0.00000112
-0.03308311 0.24393594 0.00000876
-0.34097297 0.33693085 0.00000102
-0.28193976 -0.70015793 0.00000274
-0.44890606 0.31213179 0.00000070
-0.20301767 -0.41838805 0.00000072
-0.27416754 -0.62759717 0.00000281
-0.42270805 0.18307907 0.09098239
-0.47544690 -0.51373341 0.00000054
-0.03385448 -0.52394150 0.00000082
-0.39977660 -0.31566471 0.00000091
-0.54767286 0.13532521 0.14823021
-0.07576316 -0.21641656 0.00000178
-0.03981833 0.12045679 0.00000209
-0.41360024 0.09613252 0.06642380
-0.19930268 -0.69873214 0.00000019
-0.66566604 -0.31174595 0.11166456
-0.08583293 0.23193717 0.00000810
-0.04672027 0.44247414 0.00000275
-0.12883159 -0.30321204 0.00000210
-0.32999024 -0.05923251 0.00000139
-0.30012735 -0.51140024 0.00000326
-0.44647610 0.12975928 0.00000048
-0.50630648 0.18497792 0.00000124
-0.62950158 0.08796368 -0.00000083
-0.04074226 -0.05378939 0.00000140
-0.41886171 -0.03136689 0.04055023
-0.15758035 0.47441013 0.00000222
-0.07981195 -0.70143819 0.00000018
-0.27685328 0.37805586 0.00000315
-0.37636942 0.34008528 0.10115864
-0.30033051 -0.51958635 0.00000053
-0.33107802 0.08732467 0.01953161
-0.34125166 0.42756128 0.00000127
-0.14701997 0.57667801 0.00000307
-0.54783333 -0.50288799 0.00444776
-0.20114983 0.53042944 0.04870682
-0.53898589 -0.71101817 0.00000505
-0.41210560 -0.17839209 0.00000111
-0.07877223 0.40919948 0.00000298
-0.50098878 0.05622233 0.10499136
-0.41017463 0.24443430 0.00000061
-0.33820294 0.03620000 0.01187708
-0.60310923 -0.26745077 0.08760437
-0.57110729 -0.64499520 0.00000546
-0.22279673 0.48223767 0.04962499
-0.33752451 -0.68421069 0.00000327
-0.26943447 0.19640712 0.01056743
-0.04517906 0.59338626 0.00000302
-0.20266288 0.53157234 0.00000181
-0.24298784 0.28012884 0.01504837
-0.10686814 -0.52450334 0.00000148
-0.09769405 0.50832695 0.00000245
-0.45214880 -0.17140644 0.00000081
-0.46885503 -0.77942761 0.00000004
-0.73634163 -0.59896000 -0.00000050
-0.39357940 -0.56799999 0.00000044
-0.09151184 0.57662780 0.00000130
-0.26140401 -0.12865548 0.00000363
-0.10406515 -0.10891089 0.00000224
-0.41647200 -0.00309552 0.00000087
-0.27533004 0.35015525 0.00000354
-0.78721646 -0.42122729 -0.00000095
-0.03520132 0.16035246 0.00000966
-0.55027671 -0.11662735 0.00000001
-0.72480277 0.00887642 -0.00000067
-0.61693128 -0.48166151 -0.00000005
-0.16258379 -0.20860234 0.00000258
-0.00412293 -0.71544302 0.00000020
-0.20876501 -0.65530957 0.00000216
-0.00179474 -0.22543880 0.00000109
-0.08222641 -0.40823379 0.00000148
-0.05105881 0.44096223 0.00000279
-0.20600255 -0.76923140 0.00000192
-0.19722277 0.24814804 0.00000623
-0.02408234 -0.30592649 0.00000114
-0.50572312 -0.51280956 0.00000512
-0.50635515 0.05677219 0.00000290
-0.46226949 -0.54400048 0.00000048
-0.01894446 0.13908275 0.00001015
-0.11008594 0.46674921 0.00000509
-0.35252217 -0.58791165 0.00000040
-0.32751350 0.11192364 0.00000562
-0.44078398 0.22664876 0.00000196
-0.00656993 0.45024360 0.00000240
-0.38151881 0.20977197 0.00000087
-0.61476509 0.06202912 0.16822007
-0.25146543 0.00904367 0.00000152
-0.24095298 0.23175026 0.00000189
-0.44440009 -0.24551736 0.00617399
-0.23316743 -0.49595286 0.00000057
-0.44281354 -0.10194716 0.03767498
-0.32965691 -0.53896844 0.00000049
-0.15102772 -0.30362601 0.00000093
-0.09462615 -0.58308165 0.00000126
-0.54228862 -0.10623744 0.09084545
-0.34971981 0.44898103 0.00000083
-0.51098199 0.03609897 0.10589366
-0.16331801 0.57235242 0.03756891
-0.24860361 0.04694435 -0.00000437
-0.51661553 -0.32552995 0.02743910
-0.15035429 0.48900076 0.00000226
-0.05498891 0.37985428 0.00000221
-0.01756279 0.49032743 0.00000242
-0.52567555 0.12405118 0.13371531
-0.42156404 0.14819329 0.00000335
-0.69400882 -0.79828017 -0.00000000
-0.75425384 -0.50264366 0.11684385
-0.13336662 0.28805728 -0.00000298
-0.02205993 0.72766826 0.00000306
-0.08631941 0.30814208 -0.00000388
-0.39586625 -0.61261067 0.00000035
-0.54188942 0.21216008 -0.00000033
-0.17666498 0.46443833 0.02050351
-0.45768345 -0.19691503 0.00000080
-0.21771811 -0.75802470 0.00000205
-0.50561709 0.29000025 -0.00000015
-0.02004026 -0.39062797 0.00000095
-0.05951102 -0.35905248 0.00000083
-0.59671712 0.20176545 -0.00000073
-0.07197919 0.66367596 0.00844495
-0.14987265 -0.49208022 0.00000193
-0.54431142 0.20267360 -0.00000034
-0.06784218 0.32744084 0.00000211
-0.37939727 -0.48963507 0.00000058
-0.01615615 0.11714537 0.00000172
-0.46520627 0.17486172 0.00000029
-0.42894427 0.22214418 0.00000050
-0.18420320 0.59046729 0.00000218
-0.47811982 -0.16019744 0.04375870
-0.17884525 -0.17979786 0.00000116
-0.64389745 -0.57832859 -0.00000013
-0.05695638 0.44956286 0.00000286
-0.19622126 0.28712640 0.00000581
-0.58201195 -0.41825122 0.00000014
-0.26441404 0.03503927 -0.00000416
-0.29710195 0.13268497 0.01126610
-0.73869567 -0.43882119 0.12276375
-0.54154274 0.01055751 -0.00000008
-0.40164291 -0.73351299 0.00000376
-0.33879869 0.07454135 0.02085176
-0.06616924 -0.56000589 0.00000045
-0.11067052 0.32557746 0.00000667
-0.03818416 -0.62989707 0.00000032
-0.61500225 -0.15069249 0.12039728
-0.54650111 -0.01274920 -0.00000009
-0.36856358 -0.24162538 0.00000105
-0.41750987 0.15617417 0.00000332
-0.21969818 0.13264710 0.00000175
-0.16094325 0.11676727 -0.00000544
-0.09276407 0.54827096 0.00000337
-0.61334607 0.15238691 -0.00000079
-0.16316477 0.27244948 0.00000647
-0.36313961 -0.63184257 0.00000360
-0.17471065 -0.05258208 0.00000140
-0.32430314 -0.08567237 0.00000428
-0.10075806 0.24494111 0.00000772
-0.20008282 -0.02076142 0.00000327
-0.25143174 -0.62724803 0.00000032
-0.49844506 -0.23732115 0.00000054
-0.23412279 -0.72651605 0.00000014
-0.33394322 0.40394326 0.09246447
-0.54593656 -0.36038736 0.00000034
-0.18772369 0.22352615 0.00000192
-0.09779006 0.49043905 0.00000242
-0.13747971 0.33672351 0.00000614
-0.35291277 -0.18853304 0.00000115
-0.56789489 -0.15618234 0.09352235
-0.62045334 -0.22540416 0.10652200
-0.30270994 -0.60045567 0.00000037
-0.06813737 0.47007921 0.00000300
-0.41783668 0.16771549 0.00000317
-0.26423041 0.20950468 0.00000175
-0.47962730 -0.42877855 0.00000070
-0.37599833 -0.78177671 0.00000003
-0.02645124 -0.03755636 0.00000167
-0.15379619 0.20641031 0.00000736
-0.65068165 -0.41200067 0.08090955
-0.74892213 -0.09313562 -0.00000151
-0.49551868 0.12729212 0.11803297
-0.21480301 0.26706696 0.00000200
-0.15193432 0.10865500 0.00000849
-0.23646670 -0.05137697 0.00000140
-0.29366774 0.25973799 0.00000436
-0.46109316 -0.40301206 0.00000492
-0.24285895 -0.51004810 0.00000054
-0.41504340 -0.38171157 0.00000454
-0.17304976 0.21069198 0.00000702
-0.15030692 -0.15992942 0.00000256
-0.19179093 -0.42124782 0.00000245
-0.14880219 0.31595886 -0.00000203
-0.27620183 -0.05068850 0.00000140
-0.00529556 0.07683749 0.00001106
-0.53643650 -0.12626633 0.00000012
-0.40060175 -0.65210446 0.00000028
-0.39908155 -0.07748539 0.00000109
-0.29425524 0.20364444 0.00000507
-0.64838946 -0.40138803 0.08205443
-0.49503848 -0.52063635 0.00000501
-0.53463772 -0.58370371 0.00000041
-0.05022174 0.56646672 0.00000487
-0.34036612 0.41366948 0.09815307
-0.26143685 0.48777515 0.07190250
-0.13835363 -0.66938840 0.00000150
-0.26474292 -0.14263847 0.00000363
-0.32892808 0.26061729 0.00000367
-0.61188239 -0.16313129 -0.00000040
-0.17840035 0.40502651 0.00000469
-0.49626765 0.20433607 0.00000119
-0.44690011 0.25689012 0.00000145
-0.33737260 -0.47517364 0.00000366
-0.07856161 -0.06425587 0.00000138
-0.55870677 0.12684531 -0.00000035
-0.10743508 0.52164912 0.00000248
-0.61874571 -0.72262444 0.00000575
-0.13877827 -0.33332047 0.00000088
-0.07553366 0.10034811 0.00000973
-0.01601794 -0.50580418 0.00000055
-0.47689297 0.16338046 0.11603179
-0.65012765 -0.36915611 -0.00000043
-0.71508618 -0.01792360 0.20479579
-0.10834976 0.05662496 0.00000161
-0.13690668 0.11992653 0.00000859
-0.19133266 0.09876683 0.00000800
-0.13900653 -0.37828088 0.00000079
-0.38786982 -0.11112032 0.00000121
-0.14682892 0.00474450 0.00000151
-0.18468832 0.22169026 -0.00000283
-0.77142758 -0.39110589 -0.00000102
-0.07683521 -0.57204129 0.00000112
-0.54746238 0.17999347 -0.00000033
-0.15898270 0.52438494 0.00000215
-0.05138556 0.49683422 -0.00000129
-0.39993963 0.32884832 0.00000142
-0.62593470 0.01794500 0.16436064
-0.43856995 0.18435617 0.00000255
-0.09719008 -0.75886402 0.00000096
-0.13257268 -0.28736178 0.00000096
-0.03983952 0.14023576 0.00000982
-0.13083079 -0.27798693 0.00000098
-0.30452397 -0.73339701 0.00000288
-0.39905248 -0.58399137 0.00000402
-0.05441077 0.06939982 -0.00000922
-0.07438464 0.29846560 0.00000752
-0.36474612 -0.77145091 0.00000005
-0.33086887 0.33382849 0.07498613
-0.23872348 -0.73581634 0.00000012
-0.49060944 -0.45912692 0.00000508
-0.56336051 0.16811857 0.16416042
-0.61473365 -0.43360606 0.05647505
-0.24690074 -0.37438511 0.00000080
-0.72204511 -0.71380608 -0.00000022
-0.15825753 0.19480750 0.00000187
-0.28206481 0.21481735 0.02159203
-0.10163095 0.06687116 0.00000163
-0.00261504 0.17759516 0.00000183
-0.00314000 0.19557710 -0.00000825
-0.12126914 0.35749311 -0.00000200
-0.39603011 0.01963032 0.00000550
-0.07416940 -0.26963447 0.00000167
-0.54000555 -0.44224961 0.01385708
-0.34667871 -0.28826643 0.00000096
-0.34783298 -0.71096624 0.00000017
-0.48938875 -0.24421907 0.00000062
-0.38889990 -0.09154875 0.00000118
-0.39526136 0.05100726 0.04626955
-0.12203878 0.47823706 0.00000478
-0.12663377 0.13483004 0.00000290
-0.55826169 -0.58138796 0.00000041
-0.38617117 0.36613333 0.11236567
-0.61751701 -0.74067263 0.00000570
-0.71356094 -0.06626361 0.19306861
-0.60527271 -0.25130095 -0.00000024
-0.42565325 -0.53597416 0.00000050
-0.42574987 -0.56898559 0.00000429
-0.40236747 0.10111912 0.06143453
-0.14613602 0.03492398 -0.00000738
-0.12107733 0.36302027 -0.00000190
-0.35355684 0.16915988 0.00000438
-0.06816205 -0.54961157 0.00000047
-0.74789920 -0.49754796 -0.00000076
-0.52586514 0.07002582 -0.00000004
-0.55006201 0.21491124 -0.00000040
-0.00647719 0.56262391 0.00000255
-0.03534180 0.06115425 -0.00000989
-0.01252354 0.01557587 0.00001164
-0.31471452 -0.53801089 0.00000334
-0.55430538 0.03039180 0.12818513
-0.43576155 -0.14550157 0.00000090
-0.18530144 0.54217067 0.04272827
-0.75843228 -0.15464642 -0.00000150
-0.16959942 -0.73602068 0.00000012
-0.27725481 0.45866263 0.00000135
-0.55620612 -0.02476475 -0.00000015
-0.56547864 -0.01290636 -0.00000023
-0.01511990 0.40903547 0.00000240
-0.37715707 -0.09009167 0.00461510
-0.25745612 -0.46755911 0.00000295
-0.48538206 0.09674369 0.00000279
-0.25195320 0.48151756 0.06533057
-0.08760045 0.38695435 0.00000223
-0.68633213 -0.65661700 0.04516888
-0.42483693 0.22121864 0.00000053
-0.11445002 0.36042049 0.00000321
-0.44144060 -0.58514605 0.00000440
-0.19810225 -0.01769413 0.00000147
-0.07290065 0.27591842 0.00000202
-0.55114231 -0.41735994 0.02552885
-0.04923466 0.22707474 0.00000870
-0.21106348 0.00320899 0.00000151
-0.39893416 -0.64001780 0.00000030
-0.26490181 -0.49564313 0.00000297
-0.46510359 0.26467619 0.13245196
-0.28166683 0.02877455 -0.00000381
-0.03838895 -0.13197712 0.00000125
-0.71347537 -0.66120028 -0.00000035
-0.41083195 -0.56112396 0.00000045
-0.51969117 -0.01170836 0.00000011
-0.28704992 -0.57138207 0.00000043
-0.11043898 0.44776769 0.00000530
-0.44701105 -0.21584972 0.00000090
-0.58915766 -0.62099954 0.00031241
-0.45177733 -0.31605631 0.00000500
-0.49348707 -0.62871488 0.00000479
-0.29072508 -0.32304027 0.00000353
-0.13035958 -0.18016390 0.00000116
-0.28120085 0.27074342 0.00000154
-0.03043584 0.64455956 0.00000298
-0.46955684 -0.26556766 0.00000079
-0.16546677 0.23863217 0.00000195
-0.28290116 0.02954905 0.00000740
-0.28255576 -0.02715984 0.00000401
-0.11243697 0.46728889 0.00000339
-0.02457756 -0.21256490 0.00000110
-0.15479510 0.60485266 0.04025641
-0.22069239 -0.19749598 0.00000113
-0.17115642 0.59084033 0.00000242
-0.15920987 0.46532180 0.01120267
-0.55970472 -0.51013553 0.00927477
-0.00882698 0.61562116 0.00000265
-0.22001721 0.28153972 0.00000549
-0.50419033 -0.72303049 0.00000014
-0.03005268 -0.74525979 0.00000037
-0.36850103 0.42792492 0.00000070
-0.56917005 -0.21644815 0.08063086
-0.25236797 -0.43677539 0.00000068
-0.34552097 0.19981053 0.05274506
-0.55146032 -0.79044122 0.00000501
-0.15250069 0.57516849 0.00000298
-0.52004504 0.11275414 -0.00000005
-0.59554272 -0.77047408 0.00000006
-0.27311268 0.04558393 -0.00000373
-0.13997516 0.63269252 0.03846695
-0.78373515 -0.54619097 -0.00000063
-0.05693669 0.28632334 0.00000255
-0.25751771 0.37103680 0.00000160
-0.58932678 0.16029399 -0.00000062
-0.11660799 0.14026722 0.00000176
-0.44751988 -0.64590115 0.00000029
-0.30132093 -0.25945189 0.00000101
-0.15479472 -0.61636343 0.00000034
-0.00355609 0.27628486 -0.00000672
-0.14228432 0.25001786 -0.00000345
-0.24920125 0.13077131 0.00000677
-0.61218786 0.16151489 -0.00000079
-0.39815358 -0.79681735 0.00000001
-0.71749565 -0.62972677 -0.00000043
-0.60412976 -0.59034610 0.01537080
-0.38598148 0.32087342 0.10205883
-0.19815420 -0.32821536 0.00000088
-0.52386255 -0.32643354 0.03117947
-0.05425735 -0.19581345 0.00000113
-0.41296662 -0.54859167 0.00000421
-0.45320245 0.10563478 0.09011968
-0.32501232 0.12829368 0.00000139
-0.02974171 0.52087978 0.00000569
-0.07000729 -0.35448392 0.00000084
-0.45421265 0.17275882 0.10580224
-0.02930294 0.75316354 0.00539275
-0.31262293 -0.16355438 0.00000402
-0.04737269 0.20226598 0.00000901
-0.57142340 0.14199642 0.00000055
-0.45188801 0.19351394 0.10921618
-0.29736082 -0.28727549 0.00000365
-0.59032392 -0.26875664 0.08035181
-0.34905568 -0.58598641 0.00000040
-0.19944403 -0.41068574 0.00000073
-0.71680275 -0.16171822 -0.00000118
-0.03103634 -0.04805144 0.00000141
-0.54425223 -0.03641293 0.10765436
-0.10138219 -0.65135962 0.00000028
-0.39612694 -0.09199708 0.00000113
-0.55174009 -0.49336301 0.00872112
-0.19956893 0.35907803 0.00922028
-0.71675684 -0.04906774 -0.00000132
-0.17627739 0.42424331 0.01123421
-0.17078280 0.16453619 -0.00000428
-0.02922347 -0.36795354 0.00000107
-0.39056915 0.04291331 0.00000101
-0.00676106 0.68897250 0.00000415
-0.58747948 0.09465023 0.16072508
-0.28198817 -0.28161523 0.00000097
-0.16788332 -0.55394578 0.00000198
-0.47955009 -0.75898658 0.00000442
-0.49084976 0.10250226 0.10990607
-0.43854394 0.31250997 0.12878064
-0.28628928 -0.15310951 0.00000121
-0.06285162 -0.02943040 0.00000144
-0.60764090 -0.22278077 0.10014042
-0.27818120 -0.63972976 0.00000030
-0.17834966 0.11186383 0.00000805
-0.67371173 0.00727555 -0.00000107
-0.47788019 0.19175826 0.12296822
-0.04391842 0.75535027 0.00000273
-0.02249722 0.24110968 0.00000216
-0.56187027 0.02751867 -0.00000026
-0.64523463 -0.77914963 0.00000588
-0.73951769 -0.53475803 -0.00000066
-0.35052270 -0.03808684 0.00184304
-0.24899688 0.53068018 0.00000171
-0.42592146 0.07952925 0.06939124
-0.41104369 -0.21942395 0.00000109
-0.58585907 -0.42673792 0.04230881
-0.33765889 -0.27332432 0.00000404
-0.24284527 0.04270830 0.00000378
-0.07628884 -0.16875499 0.00000118
-0.02322702 0.23800159 0.00000195
-0.67954612 -0.70321181 0.03097203
-0.19390132 0.23292333 0.00000645
-0.07427477 0.24514181 0.00000812
-0.52202601 -0.12580404 0.07540705
-0.14062830 0.10669805 0.00000170
-0.31139269 -0.16266288 0.00000401
-0.36673465 -0.17970990 0.00000116
-0.13002651 0.01122584 0.00000152
-0.49596945 0.17017762 0.00000006
-0.39915503 -0.16614557 0.00000480
-0.39849991 -0.67996544 0.00000383
-0.38257623 -0.18614510 0.00000115
-0.16735746 0.48449089 0.00000387
-0.07673172 0.69977857 0.00000255
-0.16823068 -0.32354943 0.00000089
-0.00339556 0.44364898 -0.00000359
-0.35629878 -0.13547985 0.00000125
-0.25462010 -0.50641442 0.00000286
-0.09523897 -0.35496046 0.00000170
-0.23768987 0.36060768 0.00000413
-0.51784579 -0.10924074 0.00000024
-0.31430183 -0.67741616 0.00000308
-0.04149423 0.74525525 0.00000291
-0.42011769 0.20587803 0.00000059
-0.34075893 -0.78123510 0.00000312
-0.33629692 0.32324118 0.07555360
-0.61463473 -0.23792382 -0.00000033
-0.16842926 -0.65581017 0.00000027
-0.22160978 -0.57984692 0.00000041
-0.27963206 0.29984472 0.00000411
-0.14132926 -0.24056572 0.00000233
-0.17080304 0.41216378 0.00552811
-0.50985481 -0.05900719 0.00000024
-0.52096842 0.18312673 0.00000099
-0.58638499 -0.59943425 0.00000033
-0.37280011 -0.64334601 0.00000367
-0.13200856 0.26767654 0.00000200
-0.54372952 -0.25295222 0.05855632
-0.61632256 -0.36351896 -0.00000019
-0.60676239 -0.02120626 0.14510243
-0.50550663 0.21081056 0.14229831
-0.20843252 0.20827739 0.00000378
-0.30038771 -0.00233297 0.00000150
-0.75626989 -0.58505726 -0.00000054
-0.13149231 0.25667773 0.00000198
-0.11808099 -0.38231585 0.00000185
-0.06335826 -0.27400172 0.00000099
-0.13669481 0.41010627 -0.00000060
-0.28603079 -0.73794556 0.00000271
-0.51439829 -0.61472397 0.00000035
-0.00692313 0.42861676 -0.00000378
-0.32961485 0.12394797 0.02698529
-0.50803931 0.06415767 0.00000278
-0.06458000 0.29753629 0.00000768
-0.05101427 0.62694711 0.00000114
-0.67135539 0.06023780 -0.00000111
-0.51582965 -0.53149426 0.00000517
-0.15048356 0.36464708 0.00000355
-0.03233559 0.41750296 0.00000258
-0.10437879 0.41519902 0.00000322
-0.21459140 -0.69711678 0.00000214
-0.33252702 0.17814250 0.04079289
-0.41284109 0.21565469 0.00000063
-0.42995700 0.11467103 0.00000062
-0.54998334 0.01008761 -0.00000015
-0.33915986 0.34747154 0.08257240
-0.34056792 -0.49188131 0.00000366
-0.29353709 0.27589452 0.00000145
-0.63576519 0.06310136 0.17989183
-0.21632337 0.39180159 0.02571534
-0.25320807 0.26408535 0.00000176
-0.42654861 -0.32485503 0.00000475
-0.57024323 0.20501347 -0.00000053
-0.50561498 -0.29732551 0.02781025
-0.48620452 -0.62815611 0.00000472
-0.54196509 -0.76006802 0.00000007
-0.46047877 0.17242275 0.00000229
-0.38865042 0.03717288 0.03955889
-0.15926355 0.36228915 0.00000552
-0.39090201 -0.00527158 0.00000106
-0.21834674 0.43441658 0.03642071
-0.04740795 0.17724350 0.00000226
-0.28838824 -0.23064196 0.00000368
-0.03371008 0.54354471 0.00000538
-0.34638397 -0.77300163 0.00000005
-0.00721294 0.61797783 -0.00000022
-0.40541039 0.17604416 0.07998540
-0.20555486 -0.48911920 0.00000058
-0.02179646 -0.79676884 0.00000020
-0.53196517 -0.10980539 0.00000014
-0.17459154 -0.44387764 0.00000067
-0.56247317 0.06552418 0.14054794
-0.26284266 0.00414736 0.00000151
-0.01716801 0.72919888 0.00000287
-0.17007128 0.45091901 0.01387003
-0.17521667 0.41263119 0.00803561
-0.05762885 0.29692171 0.00000779
-0.66818525 -0.35472675 -0.00000058
-0.04440018 -0.63895616 0.00000070
-0.30745611 0.36754393 0.00000270
-0.32777048 -0.09745805 0.00000428
-0.06875219 0.48374260 -0.00000106
-0.10150699 0.11034280 -0.00000717
-0.31009487 0.47731428 0.00000108
-0.13250427 0.45322099 0.00000490
-0.11305227 0.51935004 0.00000081
-0.40501871 0.28091682 0.10341325
-0.10663345 -0.43919238 0.00000068
-0.72092240 -0.68989364 0.05649275
-0.44476870 0.10147016 0.08459069
-0.74490046 -0.32047737 -0.00000120
-0.29143083 -0.31211820 0.00000091
-0.73061358 -0.31568850 0.14612244
-0.02446540 0.27371252 0.00000223
-0.26774103 0.01248516 0.00000152
-0.15967094 -0.46000523 0.00000064
-0.34247004 -0.70122407 0.00000019
-0.52515967 -0.70488134 0.00000018
-0.73574342 -0.77876120 -0.00000005
-0.58399006 0.14268728 0.16965460
-0.31070583 0.03637800 -0.00000288
-0.31391107 -0.04957791 0.00000425
-0.07196362 0.08831813 0.00000992
-0.17998539 0.47301973 0.00000205
-0.14775733 0.44516607 0.00000476
-0.04514017 0.50613000 -0.00000128
-0.27094662 0.10501974 -0.00000267
-0.08645343 0.64351608 0.01177881
-0.47500284 -0.31263351 0.00000081
-0.35345413 0.37416530 0.09637073
-0.49862302 -0.48209401 0.00000511
-0.47681536 0.20820394 0.00000016
-0.08208350 0.46889039 -0.00000098
-0.09703730 0.58568212 0.00449962
-0.16526961 0.55972856 0.03578421
-0.70238758 -0.37248814 -0.00000082
-0.19811512 0.39384577 0.01626662
-0.04731744 -0.33349207 0.00000130
-0.31577949 -0.54970108 0.00000047
-0.13603513 0.22250296 0.00000192
-0.65748869 0.11379270 -0.00000074
-0.34983472 -0.52239567 0.00000369
-0.25844551 -0.65955826 0.00000260
-0.19165759 -0.01240113 0.00000148
-0.36519293 -0.32714687 0.00000089
-0.01008590 0.39300631 -0.00000436
-0.24549220 0.25660790 0.00000183
-0.25141685 -0.24319012 0.00000104
-0.02421366 0.01145033 0.00000152
-0.16846713 0.06458901 0.00000162
-0.19884238 0.57079502 0.00000215
-0.37631585 0.27685030 0.00000255
-0.38563581 -0.78366247 0.00000352
-0.61870368 -0.71492242 0.00000576
-0.68694988 0.01077432 0.19595178
-0.59832759 -0.34486531 0.06755080
-0.52769053 0.17654365 0.00000094
-0.56905926 0.00936079 0.13147071
-0.52736103 -0.32194320 0.03409570
-0.32307233 0.01177414 0.00000699
-0.52052701 -0.08790605 0.00000019
-0.70797240 -0.44802698 -0.00000077
-0.37339790 -0.50055593 0.00000394
-0.46591212 -0.05254518 0.06138247
-0.34772119 -0.16446394 0.00000119
-0.19132171 0.26451615 0.00000614
-0.75752028 -0.68806713 0.07682237
-0.60153215 -0.31871093 -0.00000013
-0.68619707 -0.20771144 0.14629029
-0.35639499 0.21746332 0.06264656
-0.43166609 -0.23876846 0.00000104
-0.41918375 0.12178257 0.07524531
-0.11785659 0.11705526 0.00000172
-0.47608217 0.15086164 0.11276820
-0.22425207 -0.79451924 0.00000204
-0.62929826 -0.58974485 0.02920386
-0.06220264 0.67564672 0.00000342
-0.09904553 0.37641700 0.00000310
-0.26267111 -0.44856896 0.00000066
-0.40534592 0.26645919 0.00000213
-0.24935152 -0.46437358 0.00000063
-0.06815212 -0.65323421 0.00000089
-0.14072341 0.54647848 0.01943953
-0.51903521 0.24363698 -0.00000020
-0.04754616 0.41488363 0.00000228
-0.41913438 -0.49658044 0.00000436
-0.26080231 -0.56193765 0.00000281
-0.46290843 -0.17095318 0.00000073
-0.15047485 -0.38749723 0.00000077
-0.12649302 0.57231409 0.01751890
-0.22552753 -0.54810076 0.00000047
-0.11637226 0.12651193 0.00000882
-0.23100557 0.54188737 0.00000159
-0.33908834 -0.75179745 0.00000009
-0.08820992 0.30611371 0.00000287
-0.02022325 0.18399225 0.00000184
-0.27919562 0.35896432 0.00000335
-0.36175829 0.25387614 0.00000313
-0.18866372 -0.22437311 0.00000279
-0.60655597 -0.35381828 -0.00000012
-0.00084715 0.72317924 0.00000286
-0.38725274 0.36165861 0.00000064
-0.64591893 -0.28635261 0.10664185
-0.44186399 0.15620636 0.09535269
-0.43023866 0.21198801 0.00000050
-0.24478596 -0.15216675 0.00000121
-0.29931533 -0.66161713 0.00000026
-0.43115076 0.05124314 0.06586077
-0.52724957 0.02430788 0.00000001
-0.04470139 0.29424839 -0.00000527
-0.20303173 0.28609117 0.00000387
-0.26283974 -0.18141371 0.00000354
-0.28605330 -0.57558832 0.00000301
-0.28837272 -0.65810062 0.00000027
-0.01125238 -0.66867871 0.00000025
-0.68403722 -0.34586583 -0.00000071
-0.29808832 -0.56837873 0.00000043
-0.26715737 -0.34918658 0.00000326
-0.73627628 -0.56470757 -0.00000059
-0.21936028 -0.35084460 0.00000283
-0.18215755 -0.40839495 0.00000073
-0.39140474 0.18933796 0.07535649
-0.37821733 -0.67857716 0.00000023
-0.62187016 0.10604427 0.00000005
-0.42068107 0.31768069 0.12022475
-0.03157443 0.35945265 0.00000246
-0.57368519 -0.45309563 0.00000024
-0.60589901 -0.26669830 -0.00000023
-0.11890755 0.38086023 0.00000329
-0.25873952 0.37048627 0.00000159
-0.41363535 0.26334467 0.00000056
-0.03053777 0.74541874 0.00000312
-0.18557206 -0.41960124 0.00000071
-0.53267473 -0.59792055 0.00000520
-0.02600775 0.21799811 -0.00000721
-0.09823021 0.17558214 -0.00000604
-0.15598165 0.14202674 0.00000318
-0.33311868 0.30664798 0.00000111
-0.48646856 -0.44661505 0.00000507
-0.54776262 -0.55307057 0.00000542
-0.30882878 -0.60866548 0.00000315
-0.18225108 -0.30402439 0.00000258
-0.66231027 -0.03864977 -0.00000092
-0.05829050 -0.33368564 0.00000140
-0.60591742 -0.70914306 0.00000017
-0.25031913 0.50752897 0.00000198
-0.48549634 0.03549761 0.09188370
-0.04113456 0.19371542 -0.00000725
-0.43771399 -0.14545132 0.00000088
-0.36009140 -0.32658467 0.00000089
-0.26818688 -0.21969809 0.00000352
-0.09645098 0.67289879 0.02384305
-0.37942079 -0.46902768 0.00000406
-0.05044488 -0.73827129 0.00000012
-0.07131236 0.57564734 0.00000258
-0.51345430 0.22719550 0.15031729
-0.46768834 0.22824279 0.12564603
-0.72852782 0.04061712 -0.00000152
-0.57547516 -0.11586449 -0.00000018
-0.55541025 0.17921503 0.16233505
-0.44979827 0.26929008 0.12516279
-0.05405131 0.27319035 -0.00000541
-0.09855142 -0.02789101 0.00000234
-0.15973558 0.35275527 0.00000562
-0.20924354 0.03859027 0.00000347
-0.24571892 -0.35635495 0.00000306
-0.34898481 0.21603697 0.05828843
-0.27482811 0.16300402 0.00597239
-0.74463640 -0.71522805 -0.00000021
-0.37516883 -0.48069913 0.00000400
-0.46396481 0.27200273 0.13348419
-0.70990334 -0.50311355 0.09260079
-0.27957910 -0.49680735 0.00000310
-0.58678391 0.13577447 0.16961700
-0.11053493 -0.11911550 0.00000228
-0.24781721 -0.47789471 0.00000060
-0.16672289 0.49729093 0.02249893
-0.22366429 0.36047435 0.02264854
-0.04641953 -0.60699072 0.00000036
-0.42473988 0.06060377 0.06448189
-0.24655432 0.22169219 0.00382095
-0.10518488 -0.28937413 0.00000096
-0.24602780 0.34985245 0.00000171
-0.42660571 -0.70976418 0.00000403
-0.43547266 -0.04919828 0.04557080
-0.05358304 0.05079076 0.00000208
-0.13337518 0.32043931 0.00000638
-0.19223565 0.16805309 0.00000356
-0.56723830 0.01913879 0.13268693
-0.23949280 0.05613460 -0.00000444
-0.01897398 -0.18592429 0.00000132
-0.43427796 -0.61703989 0.00000034
-0.16747276 0.27536678 -0.00000229
-0.19987076 -0.35078877 0.00000265
-0.47085071 -0.67719940 0.00000023
-0.75805502 -0.19898108 -0.00000144
-0.66056468 -0.37163724 0.09538718
-0.42495237 0.01608922 0.05455690
-0.12112443 0.47309557 0.00000485
-0.11114505 -0.34304655 0.00000086
-0.17756184 0.06399403 -0.00000598
-0.37999141 0.22045043 0.07616188
-0.03575344 0.07362747 0.00001063
-0.09022822 -0.51550078 0.00000053
-0.11835944 0.22053672 0.00000191
-0.07120387 0.54424130 0.00000480
-0.04512551 0.16602536 0.00000222
-0.67957018 -0.38109715 0.10359809
-0.37839696 0.00444761 0.00000114
-0.09938492 -0.59712209 0.00000038
-0.41920365 0.00847664 0.00000520
-0.12216148 0.49505009 0.00000060
-0.04599804 0.30241492 0.00000207
-0.07968562 -0.06255661 0.00000138
-0.30074186 0.28084914 0.00000395
-0.33696708 -0.21049906 0.00000416
-0.36352684 -0.20490660 0.00000441
-0.18944120 0.37292002 0.00000489
-0.15370961 -0.12718812 0.00000265
-0.30508423 -0.00366233 0.00000426
-0.42040067 -0.38460676 0.00000078
-0.12545487 -0.43194479 0.00000183
-0.37945951 0.26050281 0.08490125
-0.16851832 0.60715554 0.00000198
-0.73900610 -0.61305928 0.08365498
-0.08968002 -0.33306058 0.00000169
-0.08497078 0.69149346 0.00000250
-0.08446122 0.34902526 0.00000292
-0.44105538 -0.77893588 0.00000403
-0.67237865 -0.69017149 0.03001086
-0.21716397 -0.23786836 0.00000105
-0.19737721 -0.16358311 0.00000119
-0.76821817 -0.53400693 0.11737365
-0.14568694 -0.61169493 0.00000035
-0.53878185 0.02425393 0.11835308
-0.35114159 0.31832690 0.08252299
-0.17131015 -0.52785371 0.00000206
-0.55902800 0.05146914 0.13550427
-0.22102764 0.14112183 -0.00000335
-0.42982860 -0.17651654 0.00000098
-0.01264674 0.06296201 -0.00001048
-0.31377205 0.33958384 0.00000122
-0.22881295 0.10061768 0.00000169
-0.59637853 0.10431850 -0.00000061
-0.31704821 0.34333116 0.00000119
-0.42502469 -0.55551661 0.00000431
-0.25476989 0.00734249 0.00000382
-0.45233598 0.20069331 0.11107854
-0.59947027 -0.63524020 0.00000027
-0.37073494 -0.76111256 0.00000007
-0.02858351 -0.66257455 0.00000026
-0.31030081 0.33890651 0.00000301
-0.24552830 -0.20130045 0.00000335
-0.13386300 0.06877794 0.00000921
-0.23845353 -0.46481912 0.00000063
-0.57878264 -0.52851140 0.00000030
-0.28959262 0.29890035 0.00000393
-0.38588406 -0.28816543 0.00000096
-0.05640517 -0.59889989 0.00000089
-0.05003706 -0.78552831 0.00000048
-0.30149522 0.16558785 0.02106857
-0.21813606 -0.10906775 0.00000327
-0.00809560 0.37282582 0.00000227
-0.10943065 -0.36019513 0.00000082
-0.54011848 0.09960660 0.00000170
-0.07623097 -0.51590780 0.00000053
-0.03401020 0.18734451 0.00000216
-0.36040221 0.20373717 0.00000380
-0.23436596 0.28403940 0.01124232
-0.16288005 0.09395904 0.00000315
-0.04078724 0.41973872 -0.00000302
-0.49050981 -0.25929552 0.02816246
-0.41489875 -0.37150104 0.00000080
-0.29784736 -0.17661520 0.00000117
-0.21398453 0.46021516 0.00000182
-0.14699663 0.56377349 0.00000324
-0.03684952 0.05531790 0.00000194
-0.73852716 -0.28038361 0.15838792
-0.43232600 -0.63702501 0.00000031
-0.10927848 0.54183584 0.00000250
-0.60294184 0.06342784 0.16210188
-0.42437202 -0.39450768 0.00000076
-0.66414976 0.13545578 -0.00000115
-0.01493178 0.42480683 0.00000230
-0.44076159 0.19884977 0.10436352
-0.21029301 0.04432086 0.00000833
-0.13126988 -0.22467191 0.00000108
-0.16266437 -0.77662847 0.00000004
-0.10657829 0.49411809 0.00000339
-0.23459037 -0.30742563 0.00000092
-0.40569785 -0.53101486 0.00000418
-0.06071306 -0.68365012 0.00000022
-0.59388598 -0.29109619 -0.00000011
-0.01149256 0.78521768 0.00000293
-0.19905198 -0.40421444 0.00000074
-0.24073003 -0.19032467 0.00000114
-0.44998853 -0.25363167 0.00000092
-0.76175714 -0.09315018 -0.00000160
-0.02512609 -0.31265797 0.00000091
-0.64628599 -0.41269914 0.07835983
-0.18065563 -0.76675234 0.00000170
-0.05513128 0.10679035 0.00000220
-0.35069479 -0.25062874 0.00000103
-0.15195935 0.03990340 -0.00000712
-0.24756898 -0.73264991 0.00000237
-0.33135494 0.22696845 0.00000122
-0.21835927 0.14605967 0.00000706
-0.10342609 -0.38045976 0.00000172
-0.43745610 -0.04196019 0.04828190
-0.15023838 0.20876211 -0.00000401
-0.36523145 -0.27736233 0.00000098
-0.58471605 0.03050745 0.00000174
-0.70959240 -0.09555266 -0.00000121
-0.25527914 -0.61456804 0.00000266
-0.36590779 0.12800030 0.00000468
-0.42392494 0.27660754 0.00000164
-0.25591907 -0.44919504 0.00000297
-0.00805354 0.06490600 -0.00001056
-0.65122206 -0.02323809 -0.00000086
-0.15636065 -0.13640918 0.00000124
-0.36596888 0.38826637 0.10636042
-0.55427102 0.18737769 0.16355512
-0.11892139 0.40432275 -0.00000119
-0.36867935 0.02632266 0.02623718
-0.52448572 -0.06240178 0.00000013
-0.19640998 0.15520399 0.00000357
-0.31044231 -0.01257245 0.00000148
-0.00910672 0.76778404 0.00000302
-0.00487538 -0.03261781 0.00000148
-0.55553205 -0.48018616 0.01375523
-0.06101659 -0.32617455 0.00000089
-0.09315951 0.09769326 -0.00000764
-0.25127275 0.16155428 0.00000408
-0.45578125 -0.76761137 0.00000006
-0.04785188 -0.71702700 0.00000016
-0.26609232 0.24844984 0.02048121
-0.12448650 -0.42454694 0.00000070
-0.10349357 0.59373029 0.00000368
-0.09976566 -0.30365401 0.00000183
-0.07976008 0.69042920 0.00000254
-0.39997600 0.31809315 0.10904935
-0.70820366 0.07959688 -0.00000141
-0.62961941 -0.46751476 0.05693247
-0.66920632 0.09648208 -0.00000114
-0.17439599 0.10810304 0.00000815
-0.29892531 0.09011523 0.00000646
-0.61896331 0.15067024 -0.00000048
-0.58094230 0.15284821 0.17028657
-0.38622059 -0.78156722 0.00000353
-0.00942039 0.64441193 0.00000034
-0.42295314 0.13500308 0.08027731
-0.61106711 -0.59472135 0.01816004
-0.26117555 0.32530582 0.00000163
-0.31993349 0.01644213 0.00000443
-0.61037484 -0.43417197 -0.00000005
-0.53351001 -0.68223226 0.00000505
-0.06126740 -0.70351373 0.00000074
-0.04487634 -0.05251326 0.00000181
-0.08473487 0.50083891 0.00000244
-0.27128925 0.41073595 0.00000145
-0.17348084 0.22740154 0.00000682
-0.54238845 -0.48113333 0.00638853
-0.13868819 0.48843299 0.00524694
-0.15575578 -0.74484112 0.00000010
-0.68315102 -0.10463651 0.16786829
-0.49259333 0.18225654 0.00000007
-0.10778025 0.57286270 0.00000387
-0.10871646 0.56054369 0.00000248
-0.42766224 -0.09533796 0.00000090
-0.25420503 0.12901265 -0.00000268
-0.10849385 0.02786229 0.00000155
-0.04276642 0.31810109 0.00000248
-0.49074399 -0.60609326 0.00000036
-0.46237685 0.24477484 0.00000131
-0.03692000 0.60266680 0.00000296
-0.15528815 -0.67728448 0.00000164
-0.26894749 -0.32596521 0.00000332
-0.52697533 0.00460107 0.00000003
