ply
format ascii 1.0
element vertex 1394
property float x
property float y
property float z
end_header
-0.65306075 0.01379454 -0.00000070
-0.26349074 -0.12248801 0.00000000
0.42675014 -0.32940716 0.00000000
0.24976922 0.51789331 -0.00000057
0.60923994 0.18735513 -0.00000152
0.43033914 -0.70363994 0.00000000
-0.33198881 0.40493067 -0.00000036
0.04220964 -0.66825552 0.00000000
-0.67247320 -0.16311185 -0.00000058
-0.07478604 0.58015092 0.00000000
-0.16912483 -0.20715055 0.00000000
-0.36391282 -0.28827140 0.00000000
0.03748947 0.06306339 0.00000000
-0.68822673 -0.58217551 -0.00000025
0.62832527 -0.37275648 -0.00000061
-0.53564198 -0.38283459 -0.00000010
0.58253473 -0.17198212 -0.00000077
0.29475747 -0.39640546 0.00000000
-0.10734487 0.29572117 0.00000000
0.25819298 0.04316658 0.00000746
0.03979020 -0.57461034 0.00000000
-0.40899859 -0.33449973 0.00000000
-0.13073070 -0.34677577 0.00000000
0.02750033 0.72660704 0.00000069
0.49717238 0.19353771 0.00000058
0.66504356 -0.42524289 -0.00000067
-0.23657547 0.03216032 0.00000000
-0.57129339 0.21873813 0.03997660
0.64987329 -0.18083982 -0.00000104
0.00740107 -0.07050373 0.00000000
0.22263559 0.14915554 0.00000000
-0.58577561 -0.51326889 -0.00000009
-0.68937551 0.09077213 -0.00000084
-0.13851169 -0.46203524 0.00000000
0.46435899 -0.43556565 0.00000000
-0.52257736 0.24654542 0.12383252
0.56347300 -0.68514213 0.00000000
0.17076897 0.13320667 0.00000000
-0.03611773 0.35190458 0.00000000
0.65580349 0.04379292 -0.00000146
0.41466466 -0.73093853 0.00000000
0.28490700 -0.15985994 0.00000000
0.62029929 -0.34503627 -0.00000062
-0.33071843 0.42239977 0.18802176
-0.18638359 0.54837287 0.26166073
0.00632380 0.40430232 0.00000584
-0.60004200 -0.01419677 -0.00000056
-0.53415666 -0.39536717 -0.00000008
0.55903959 0.20328448 -0.00000077
0.34601842 -0.73656517 0.00000000
-0.41910432 0.08034226 -0.00000026
-0.58662074 -0.20488320 -0.00000036
0.11921799 0.48266077 0.00000296
0.37135452 -0.43787225 0.00000000
0.65473514 0.10806378 -0.00000102
-0.23096120 0.17034380 0.00000000
-0.06840468 -0.64055808 0.00000000
0.01786081 0.55977717 0.00000333
-0.23127889 0.29564166 -0.00000005
-0.10221212 -0.17563605 0.00000000
-0.56496829 -0.44538555 -0.00000010
0.61974842 0.01721111 0.00000117
0.09836813 0.57973335 0.00000179
0.56078195 -0.14148615 -0.00000073
0.46971387 -0.54332179 0.00000000
-0.73066536 0.05719166 0.04869575
0.22137506 -0.03373061 0.00000000
0.30986037 0.07806861 -0.00000005
-0.37388044 0.05316685 -0.00000014
0.58919948 0.02560325 0.00000162
0.61908909 0.12800610 -0.00000145
-0.19853322 -0.55606836 0.00000000
0.32392995 -0.53198604 0.00000000
0.62338642 0.15358826 -0.00000117
0.19810475 0.38391040 -0.00000011
0.39350405 -0.30193645 0.00000000
-0.70355584 -0.44250481 -0.00000040
0.61764006 -0.70917848 0.00000000
-0.54931882 -0.53790823 0.00000000
-0.52554992 0.20260123 0.28815094
-0.58278644 0.18718190 0.12044071
-0.15197467 0.44683347 -0.00000001
0.42312788 -0.58252473 0.00000000
-0.00262842 0.22625035 0.00000000
0.41072163 -0.02452835 -0.00000030
0.61524148 0.15181081 -0.00000148
0.10867509 0.12986262 0.00000000
0.24804695 -0.04313527 0.00000000
-0.14855205 0.13368303 0.00000000
0.20688386 -0.45458803 0.00000000
0.39045107 0.27892502 0.00000121
-0.34320744 -0.60912099 0.00000000
-0.40447491 0.33998496 0.22274550
0.49927881 -0.75079552 0.00000000
-0.56763302 -0.43304413 -0.00000012
-0.24649796 0.52891780 0.09859741
-0.40134109 0.35690725 0.16744631
0.02844984 0.05913365 0.00001068
-0.17912591 0.60928887 0.04646502
0.32076355 0.35511855 -0.00000058
0.22230238 0.57370728 -0.00000055
0.21300586 0.43973004 -0.00000027
0.53446464 -0.30786245 -0.00000032
0.40510470 0.36207822 -0.00000046
-0.05646883 0.73339282 0.04066358
0.17053468 -0.10556709 0.00000000
-0.03373327 0.04718728 0.00000000
0.72352703 -0.32537425 -0.00000110
-0.33184113 -0.22296962 0.00000000
0.33539399 0.33008257 -0.00000060
0.26371022 -0.69501716 0.00000000
-0.03347069 -0.74544656 0.00000000
0.09950576 -0.27321152 0.00000000
0.42161141 0.29038709 -0.00000090
0.14187489 0.21393803 0.00000000
-0.19516178 0.13277399 0.00000000
0.02304492 0.45833390 0.00000478
-0.60384741 -0.32120565 -0.00000030
-0.74271035 -0.15870851 -0.00000074
0.70194765 0.04128827 -0.00000081
-0.39148430 0.08320381 -0.00000020
-0.35450307 0.42488436 0.08266767
-0.01981299 -0.46392565 0.00000000
-0.61089883 0.18483567 -0.00000076
-0.12197185 -0.33931865 0.00000000
0.23574947 0.16096475 0.00000603
0.42389231 -0.12692682 -0.00000017
0.11372779 -0.02575012 0.00000000
0.30527025 -0.64065529 0.00000000
0.07134945 -0.19837321 0.00000000
-0.45150200 0.32331529 0.10099530
-0.43757998 -0.40261864 0.00000000
0.77468927 -0.20327537 -0.00000149
-0.07446342 0.71259904 0.05188962
0.13037155 0.23693755 0.00000648
-0.23569812 0.41924034 -0.00000017
0.29985654 0.19891453 -0.00000022
0.38755949 -0.31055744 0.00000000
0.50556765 -0.72549077 0.00000000
0.55686239 -0.14634836 -0.00000070
-0.67884272 -0.17456696 -0.00000059
0.63623624 -0.07577570 -0.00000117
-0.27071867 0.44139852 0.35245464
0.22922946 0.28245875 0.00000424
-0.35902860 0.43422174 -0.00000044
-0.50185146 0.25963405 0.15446237
0.33577106 -0.30440633 0.00000000
-0.75075245 0.03716094 0.04846945
0.64157405 -0.19330949 -0.00000098
-0.11196562 -0.00418359 0.00000000
0.41051933 -0.41329439 0.00000000
0.48469697 -0.57644867 0.00000000
-0.14478844 0.33221335 0.00000000
-0.19051750 -0.45953620 0.00000000
-0.32337227 0.39530723 0.32613697
-0.29481690 0.07998223 0.00000000
0.27729637 0.44081473 0.00000067
-0.51964440 -0.22456803 -0.00000020
-0.23609360 0.13072002 0.00000000
-0.06273743 0.01473760 0.00000000
0.57494045 -0.33633846 -0.00000044
-0.01854760 0.30721872 0.00000000
-0.63604012 -0.41656308 -0.00000028
0.60496078 0.15374857 -0.00000144
0.15782005 0.37411332 0.00000401
-0.50802315 -0.54138467 0.00000000
-0.69169118 -0.19935919 -0.00000059
0.07189393 0.06406900 0.00000000
0.53863552 -0.52191820 0.00000000
0.09026115 -0.63142344 0.00000000
-0.47859413 -0.78246263 0.00000000
-0.44077553 0.25300047 0.42601155
-0.24913430 -0.76249898 0.00000000
-0.43495194 0.10001724 -0.00000031
-0.07507229 0.49212758 0.00000000
0.27650583 -0.66708101 0.00000000
-0.05245169 0.16900341 0.00000000
0.41067230 0.16448282 0.00000273
-0.45957784 0.29933342 0.16478701
-0.21977987 -0.36594191 0.00000000
-0.13096847 -0.69197723 0.00000000
-0.21712700 0.39433639 -0.00000010
-0.31094839 0.45453643 0.13842515
0.22410321 -0.49338682 0.00000000
-0.12780682 -0.28534875 0.00000000
0.23560730 -0.18153635 0.00000000
0.36194870 0.16197717 -0.00000042
-0.15145510 -0.25340421 0.00000000
-0.23602736 0.07198273 0.00000000
0.17706971 -0.11481488 0.00000000
-0.69951991 -0.19237877 -0.00000062
0.46667917 0.04211613 0.00000370
-0.29003902 0.50400991 0.02386780
0.28973720 -0.36306617 0.00000000
0.11982561 0.14848370 0.00000000
0.63041135 -0.62832480 -0.00000017
0.32920596 -0.33113361 0.00000000
-0.03522063 0.53095889 0.00000000
-0.48546429 0.22909500 0.34266123
0.51837533 0.05357100 0.00000251
-0.53214288 0.21822890 0.19903413
0.37473427 0.36840133 -0.00000084
-0.21615932 -0.31320828 0.00000000
0.13103318 0.51793631 -0.00000006
0.24263674 0.39487261 0.00000211
0.33557597 -0.54876981 0.00000000
0.59180865 -0.13795241 -0.00000087
0.08502021 0.47223090 0.00000363
-0.05051357 -0.76417355 0.00000000
0.32283605 0.00005462 0.00000713
0.18023945 0.41150501 -0.00000008
-0.40160340 0.22580354 -0.00000035
0.44175630 -0.59980752 0.00000000
-0.67590346 -0.20726667 -0.00000055
-0.40225109 -0.05209700 -0.00000011
-0.75536373 -0.48642077 -0.00000039
-0.35911454 0.40719778 0.13510586
0.16652767 0.27985953 0.00000529
0.27004581 0.36028665 0.00000216
0.13277333 0.20548988 0.00000000
-0.34425658 0.44993330 0.02330190
-0.40289171 -0.65842380 0.00000000
0.41454597 0.18616679 0.00000229
-0.74587497 -0.41574087 -0.00000048
0.25999740 0.26288214 0.00000398
0.11575757 -0.11681946 0.00000000
-0.31672576 0.34765998 -0.00000028
-0.65457662 -0.38048131 -0.00000035
0.67316149 -0.67751025 -0.00000026
-0.04322978 -0.57851416 0.00000000
-0.42245624 0.04262133 -0.00000023
-0.70634501 -0.23382380 -0.00000059
-0.10797599 -0.50340624 0.00000000
-0.24188876 0.06654390 0.00000000
-0.41529427 -0.67415524 0.00000000
-0.31126045 -0.24602734 0.00000000
-0.46591783 0.26523631 0.27610802
-0.73359682 -0.32966218 -0.00000057
-0.46815617 0.28769204 0.17707137
0.58338229 -0.79763425 0.00000000
-0.67524330 -0.12548972 -0.00000062
0.66064831 -0.56957604 -0.00000040
-0.19784879 0.51945560 0.33165147
-0.36383419 0.39714387 0.15649908
0.22023760 0.13851102 0.00000660
0.13824153 -0.59488841 0.00000000
-0.20826252 0.51253404 0.31764631
0.63870875 -0.73847607 -0.00000001
-0.16465387 0.17630224 0.00000000
0.35533611 -0.07386197 0.00000000
0.45028766 -0.67759944 0.00000000
0.16449822 0.23135255 0.00000000
-0.44738104 -0.67612220 0.00000000
-0.48495187 -0.76450142 0.00000000
-0.52552053 0.15479309 -0.00000055
-0.68455445 -0.24210614 -0.00000054
-0.17548568 -0.26593575 0.00000000
0.52713797 -0.03661236 -0.00000077
-0.06325669 -0.28400114 0.00000000
-0.08756023 0.56228119 0.00000000
-0.10732312 0.06375799 0.00000000
0.05683007 0.73881946 -0.00000007
0.66131194 -0.54276476 -0.00000045
0.27292486 -0.27707899 0.00000000
-0.27506774 0.49201652 0.13201091
-0.52092920 0.27152506 0.03026069
0.03741084 -0.19400569 0.00000000
-0.23137966 0.53724191 0.12584595
0.09995491 0.10740226 0.00000888
0.04831236 0.65056397 0.00000000
0.05574752 0.59523925 0.00000000
0.22234970 0.56036949 -0.00000027
0.11741887 0.43795578 0.00000000
0.67296180 -0.07582679 -0.00000132
0.39448521 0.32383173 -0.00000084
0.05484620 0.38812128 0.00000000
-0.20492824 -0.63220120 0.00000000
-0.12405437 0.43225274 0.00000000
0.29749698 0.10019207 0.00000598
0.65963282 -0.32788698 -0.00000082
-0.36352457 -0.31526808 0.00000000
-0.72284828 -0.29194636 -0.00000058
0.48916787 0.13409665 0.00000173
0.01600371 -0.31476876 0.00000000
0.39506750 0.34917367 -0.00000006
-0.60172617 -0.14617304 -0.00000045
-0.54674937 -0.76420191 0.00000000
-0.74042282 -0.33742855 -0.00000057
0.06611002 -0.64063051 0.00000000
-0.21512363 -0.22323453 0.00000000
0.58934820 -0.31665841 -0.00000054
0.48071539 -0.63489185 0.00000000
0.34847866 0.14549698 -0.00000033
-0.74970583 -0.48302468 -0.00000040
0.08410901 -0.42401964 0.00000000
-0.41221839 -0.79889795 0.00000000
0.37797202 0.21422966 0.00000253
0.35471860 -0.76691054 0.00000000
0.43127583 0.01254929 -0.00000045
0.25177929 0.39314945 -0.00000036
-0.38005444 -0.23497993 0.00000000
0.21890150 -0.31507421 0.00000000
-0.72140913 -0.42940089 -0.00000045
-0.08214216 0.32118859 0.00000000
0.21771794 0.34363237 -0.00000012
-0.69618504 0.08706244 0.06718289
-0.18385661 0.59442128 -0.00000021
-0.30743593 -0.27924973 0.00000000
0.55235526 -0.41609527 -0.00000021
-0.76208019 -0.64537909 -0.00000019
-0.15616675 -0.67248659 0.00000000
-0.63601980 -0.30673168 -0.00000038
0.25191002 0.53406535 -0.00000060
0.68547168 -0.00719684 -0.00000150
0.21875144 0.21626474 0.00000000
-0.14200602 -0.15332282 0.00000000
0.20331919 -0.03083973 0.00000000
-0.39175318 0.31080595 -0.00000040
-0.59724777 0.14741354 -0.00000070
-0.22218112 0.49066521 0.34953038
0.49117581 -0.33701380 -0.00000009
0.02847009 0.08229598 0.00000000
-0.44733825 0.27128412 -0.00000049
-0.29074568 0.47034553 0.15604611
0.39701036 0.40057397 -0.00000099
0.03551763 -0.75544786 0.00000000
-0.25064193 0.12257522 0.00000000
-0.14921262 -0.32679978 0.00000000
0.14201717 0.29854913 0.00000000
0.52918759 -0.32855504 -0.00000026
0.15940996 0.30991519 0.00000495
-0.18543140 -0.49206206 0.00000000
-0.75847520 -0.01960021 -0.00000089
0.48515085 -0.28211163 -0.00000016
0.08798293 0.31931964 0.00000000
-0.17050098 0.56245756 0.26887118
-0.70738384 0.07900456 0.05458598
0.21184447 -0.33647070 0.00000000
0.38712462 -0.60237249 0.00000000
-0.41653382 -0.41226983 0.00000000
0.72937136 -0.10240716 -0.00000152
0.18887587 0.57668153 -0.00000041
0.13435578 0.10100830 0.00000000
-0.41279104 -0.35676301 0.00000000
-0.25188922 0.54310292 0.02008543
0.03834581 0.41156733 0.00000000
0.67234544 -0.36147591 -0.00000082
0.52342128 -0.46826007 0.00000000
-0.10241986 -0.36019282 0.00000000
-0.27244398 0.47589260 0.20719846
-0.52839868 -0.33123662 -0.00000013
0.62207086 -0.53541514 -0.00000029
0.68939821 -0.35207212 -0.00000091
-0.14294497 0.64474603 0.04936820
-0.39101005 0.40302761 0.02391189
0.14663325 -0.42026768 0.00000000
-0.63473271 -0.74200287 0.00000000
0.20904656 -0.18052201 0.00000000
0.25083296 0.20749638 -0.00000002
0.22149492 0.33231783 -0.00000012
0.37881984 0.16514598 -0.00000049
0.46161484 -0.11614572 -0.00000035
0.13553990 0.65703187 -0.00000021
-0.31840643 0.32113772 -0.00000026
0.56167756 -0.72060066 0.00000000
0.40500098 -0.53365662 0.00000000
-0.45567870 0.30110602 0.17331563
-0.28049447 -0.41664208 0.00000000
0.12390232 -0.10040971 0.00000000
0.14213974 -0.01250416 0.00000000
0.00068760 0.38662486 0.00000619
-0.15159313 -0.19089642 0.00000000
0.29209654 0.39811034 -0.00000054
-0.29785342 0.38406800 0.47355348
0.59476765 -0.42965456 -0.00000036
-0.71840571 -0.28774169 -0.00000057
0.51849152 0.06817436 -0.00000092
0.06029095 0.43485022 0.00000457
0.25955399 0.45657088 0.00000075
0.46667916 -0.04601579 -0.00000050
0.17864710 -0.14178371 0.00000000
-0.14665813 0.06218644 0.00000000
-0.21812863 0.54318281 0.15516325
0.64117613 -0.43892102 -0.00000055
0.58589251 -0.49717262 -0.00000021
0.33748749 0.37262901 0.00000066
0.26111327 -0.23245888 0.00000000
0.07858265 -0.56011953 0.00000000
-0.53872110 0.16707789 -0.00000059
0.47813142 0.05906416 -0.00000073
-0.38409933 0.35508554 0.24390124
0.06501379 0.00486927 0.00001095
0.06564945 -0.06318757 0.00000000
0.32442064 -0.72806717 0.00000000
0.69739632 0.08400311 -0.00000143
-0.25770633 0.38316870 -0.00000018
0.00426055 0.19076507 0.00000907
0.44724385 -0.60183941 0.00000000
0.13672039 -0.72667313 0.00000000
-0.16527547 0.14238832 0.00000000
0.10216398 -0.68510783 0.00000000
-0.18224727 0.44023244 -0.00000007
0.20798668 -0.08338745 0.00000000
-0.30968191 0.37091728 0.47885630
-0.44502783 0.32410233 0.12380386
0.46993909 0.02052576 -0.00000063
-0.59048918 -0.76400810 0.00000000
-0.52955899 0.20395456 0.26664480
0.66906933 -0.44931231 -0.00000065
0.68079362 0.09876650 -0.00000167
-0.21105708 -0.55320560 0.00000000
0.06643252 0.37566956 0.00000000
0.38619086 0.32987741 0.00000044
0.49225086 -0.57690516 0.00000000
0.46429233 -0.45131495 0.00000000
0.02126586 -0.35440421 0.00000000
-0.45848400 -0.50116675 0.00000000
0.37842366 0.09073425 -0.00000036
-0.54376175 0.22308465 0.13296180
0.47940042 -0.72170241 0.00000000
0.25364578 0.33396086 -0.00000026
0.24211093 0.13197870 0.00000637
0.48018046 -0.79225175 0.00000000
-0.24243911 -0.09748151 0.00000000
0.52458434 0.25423683 -0.00000096
0.09399483 -0.79349234 0.00000000
-0.61857031 -0.31770337 -0.00000033
-0.66656628 -0.41509223 -0.00000035
0.55540486 0.05933745 -0.00000106
-0.46940978 0.30963474 0.08404158
0.16101551 0.45618794 -0.00000008
0.10793571 0.47612912 0.00000000
0.33350347 0.19411091 0.00000372
0.19132666 0.55806156 0.00000037
0.22099631 0.28349702 -0.00000003
0.22761379 -0.74529629 0.00000000
0.75047924 -0.30075455 -0.00000125
-0.10279633 0.67339780 -0.00000011
-0.49668909 -0.13638596 -0.00000023
0.56723409 0.07563631 0.00000121
-0.37007428 0.32877492 0.40566558
-0.60101411 0.16806132 0.12402159
0.62497253 -0.43837061 -0.00000048
-0.35415965 -0.68981376 0.00000000
0.00713841 0.29590901 0.00000000
0.31312315 -0.00724815 0.00000000
-0.06958252 -0.65202599 0.00000000
0.03428253 0.36179431 0.00000000
0.20572185 -0.30269903 0.00000000
-0.73351771 -0.23360630 -0.00000065
0.34077571 -0.48633594 0.00000000
0.37520323 -0.28311459 0.00000000
0.19842370 0.21963937 0.00000000
0.62564185 -0.72832655 0.00000000
0.34174021 -0.70418747 0.00000000
0.12843065 0.54194945 -0.00000009
-0.25581508 0.18454072 -0.00000000
0.22935019 0.53032580 -0.00000050
-0.15174170 0.30578104 0.00000000
0.52581616 -0.28271456 -0.00000033
0.03845697 -0.26296645 0.00000000
0.42372459 0.09374420 -0.00000056
-0.71613497 -0.52163130 -0.00000035
0.48775413 -0.65454333 0.00000000
-0.20219295 -0.05195278 0.00000000
0.63620046 -0.17190258 -0.00000100
-0.62553900 0.16836703 0.02443715
-0.19477246 0.29824101 0.00000000
0.48756897 0.15901651 -0.00000095
0.29960856 0.01593530 0.00000724
0.46443680 -0.45836343 0.00000000
0.08375186 -0.78751015 0.00000000
0.44881257 0.17686724 -0.00000081
-0.28046426 -0.07045216 0.00000000
-0.55472755 0.05854152 -0.00000053
-0.72834139 -0.69024025 -0.00000014
-0.55045659 -0.47417299 -0.00000005
-0.09542441 -0.09295190 0.00000000
-0.58836650 -0.36019028 -0.00000023
-0.57364424 0.18635502 0.16042221
-0.06197104 -0.47261509 0.00000000
-0.01745108 -0.56221886 0.00000000
0.78433645 -0.57604078 -0.00000056
-0.08940380 0.44806445 0.00000000
-0.13096754 0.64890762 0.08071409
-0.59651942 0.15301557 -0.00000070
0.65213144 -0.19277113 -0.00000103
-0.36937102 0.37692050 0.21540000
0.02824978 0.65487837 0.00000000
0.53317857 0.05305342 -0.00000096
-0.33069278 0.38070699 0.35533199
0.10313566 0.60948489 -0.00000010
0.58845670 -0.14161297 -0.00000085
0.34285431 -0.20760479 0.00000000
-0.11842300 -0.35186100 0.00000000
0.34210667 0.34229606 0.00000108
0.12986336 0.04689457 0.00000934
-0.14338764 -0.55366060 0.00000000
0.27233159 0.22046832 -0.00000014
-0.79637710 -0.62957693 -0.00000021
-0.37487581 0.18924051 -0.00000026
-0.65160987 -0.68071518 -0.00000008
-0.32068783 -0.35474665 0.00000000
0.13105229 0.54993863 -0.00000012
0.23193359 -0.13731645 0.00000000
0.13933215 -0.56171937 0.00000000
-0.27456844 0.42786236 0.39130152
0.12719773 0.45576312 0.00000324
-0.27186931 -0.43444987 0.00000000
-0.77803708 -0.37379177 -0.00000053
0.32522625 -0.57613149 0.00000000
0.29561553 0.13022132 0.00000551
0.74962786 0.00478322 -0.00000111
0.15706304 -0.39393702 0.00000000
0.04772600 -0.66299900 0.00000000
-0.16951743 -0.51068190 0.00000000
0.51897976 -0.20603474 -0.00000044
-0.34207516 -0.79130762 0.00000000
0.08756173 0.47229073 0.00000359
-0.06945233 0.59846327 0.00000000
0.06779659 -0.19868067 0.00000000
-0.41383714 0.15289098 -0.00000031
0.05937088 0.36164374 0.00000568
-0.51181600 -0.33942311 -0.00000009
-0.54023989 -0.69718515 0.00000000
-0.55689005 -0.42946834 -0.00000010
-0.40047178 -0.40559005 0.00000000
-0.20819959 -0.71569253 0.00000000
0.56388994 -0.12097988 -0.00000078
-0.22096134 -0.53818432 0.00000000
-0.43295742 0.29404541 0.29275687
-0.31667025 -0.44211550 0.00000000
0.50735799 -0.07174181 -0.00000062
-0.19438558 -0.18064980 0.00000000
-0.14605987 0.61154873 0.17001314
0.35484166 -0.38476349 0.00000000
-0.64395263 0.08629436 -0.00000074
-0.23143123 0.44974839 -0.00000018
0.02287285 0.41276286 0.00000546
0.20156134 -0.77028415 0.00000000
0.17312076 0.24897794 0.00000565
-0.26502196 0.52105889 0.05582443
-0.31798940 -0.68245734 0.00000000
-0.75761132 -0.58379498 -0.00000027
0.32339050 0.08172218 0.00000579
-0.01866600 0.75458745 0.00000000
0.00056995 0.58650045 0.00000000
0.47369417 0.22454044 -0.00000100
-0.43027412 -0.41326426 0.00000000
0.34004645 -0.42560836 0.00000000
0.28023047 -0.02407862 0.00000000
0.37478158 -0.09566508 -0.00000002
0.60528672 -0.39097761 -0.00000048
-0.13379206 0.46341204 0.00000000
0.62338163 0.06858605 -0.00000137
-0.09887682 0.68005064 0.08451475
-0.21621715 0.21462442 0.00000000
0.30254322 -0.23458772 0.00000000
-0.35052140 0.33314411 0.46655901
-0.50000861 0.23776419 0.24956321
0.63367839 -0.56637368 -0.00000029
0.72518272 -0.18459189 -0.00000135
0.10936356 -0.35498632 0.00000000
0.63589271 -0.19804512 -0.00000095
-0.45329073 0.28336241 0.25405421
-0.04167874 -0.05644542 0.00000000
-0.75973452 -0.50605869 -0.00000037
0.24933325 0.32222556 -0.00000022
-0.20555206 -0.61151855 0.00000000
0.73747728 -0.53405452 -0.00000066
-0.21746147 0.53750821 -0.00000023
-0.42695487 0.28108902 0.36879081
0.51753385 -0.17366555 -0.00000049
-0.50382413 -0.04305405 -0.00000033
0.08802178 -0.34476550 0.00000000
-0.10430315 0.38180366 0.00000000
0.39815249 -0.43045834 0.00000000
0.30010460 -0.67773660 0.00000000
-0.45044052 0.34033348 0.03700022
0.20204753 0.48853277 -0.00000031
0.37096329 -0.10494103 0.00000000
0.78586114 -0.00395914 -0.00000193
-0.32726904 -0.02303809 0.00000000
-0.30103125 0.01838489 0.00000000
0.16314237 0.21607154 0.00000630
-0.54646419 0.22668029 0.10770308
-0.07549461 0.70618133 -0.00000008
-0.17485286 -0.03090629 0.00000000
0.76912544 0.00585726 -0.00000150
0.01899196 -0.10667289 0.00000000
-0.50043444 0.21248325 0.34924484
0.18503902 0.16186191 0.00000000
-0.17715679 -0.16216494 0.00000000
0.22950747 0.07376496 0.00000743
0.43221037 0.02635344 0.00000462
-0.07332979 -0.39998362 0.00000000
-0.13146020 0.64507443 0.09411115
0.76924009 0.01708391 -0.00000169
0.03061188 -0.72266387 0.00000000
-0.72709184 -0.13694063 -0.00000072
-0.68313647 -0.18331070 -0.00000059
0.13289352 0.31002222 0.00000534
0.09505063 -0.51147261 0.00000000
0.58581743 -0.49028109 -0.00000022
0.57152403 -0.40506105 -0.00000031
0.02439330 0.73524294 0.00000060
-0.63611155 -0.57148425 -0.00000015
0.20362689 0.11739292 0.00000000
-0.61850908 0.14257999 0.15605101
-0.61231286 0.11252780 -0.00000070
0.01715669 0.13446620 0.00000000
0.44845987 0.25958209 -0.00000096
-0.57322533 0.17876385 0.19254701
-0.40181095 0.36828103 -0.00000048
-0.26824719 0.44076143 0.36492148
-0.02142778 -0.72357477 0.00000000
-0.67006671 0.10170739 0.11319766
-0.32118586 -0.12822549 0.00000000
0.14846568 0.18919644 0.00000692
0.50183012 0.26051302 -0.00000119
0.54625370 0.13831676 -0.00000116
-0.02235412 0.50370037 0.00000000
0.42848537 0.23222934 -0.00000082
0.60886223 0.08864783 0.00000019
0.20226836 -0.37880197 0.00000000
0.19140878 -0.46375115 0.00000000
0.73573433 -0.32767126 -0.00000115
-0.60449325 0.16625549 0.11731065
-0.59867773 0.19209921 0.03698680
0.63260430 -0.42158601 -0.00000054
-0.08449628 -0.69457799 0.00000000
-0.32494633 0.38549158 0.35918948
0.39064439 0.07348965 -0.00000038
0.37704529 0.17094320 -0.00000050
0.42900010 -0.18185180 -0.00000010
-0.68223844 -0.13217040 -0.00000063
-0.20962108 0.07527130 0.00000000
0.17622664 -0.27450708 0.00000000
-0.09697106 -0.72915176 0.00000000
-0.15438898 0.07190657 0.00000000
0.48045203 0.08840923 -0.00000079
-0.19445531 0.21015784 0.00000000
-0.60379644 -0.71260278 0.00000000
0.17300339 -0.39008066 0.00000000
-0.72844643 -0.48965278 -0.00000039
-0.72132363 -0.25150455 -0.00000061
-0.02254968 -0.42202433 0.00000000
-0.42498190 0.29521528 0.32005059
-0.11453779 -0.11747139 0.00000000
-0.34148323 0.40464575 -0.00000038
-0.01387122 -0.40755912 0.00000000
-0.39219542 0.37239496 0.14201143
-0.71702145 -0.77754015 -0.00000003
-0.78025037 -0.72406438 -0.00000009
0.21021124 -0.10512127 0.00000000
0.78677100 -0.77473896 -0.00000006
-0.57146583 -0.79064148 0.00000000
-0.08002498 0.61999558 -0.00000001
-0.06642678 -0.00101964 0.00000000
-0.53678291 -0.13921621 -0.00000032
0.68523403 -0.50540755 -0.00000062
0.22612826 0.08281174 0.00000735
-0.06463212 -0.03144146 0.00000000
-0.73858422 0.04688460 -0.00000091
-0.00557210 -0.27682479 0.00000000
-0.58445020 -0.47550257 -0.00000012
0.08838971 0.48049530 0.00000000
-0.19546654 -0.28632729 0.00000000
-0.63171736 0.03247901 -0.00000067
-0.75505324 -0.34188432 -0.00000057
-0.42106214 0.35657049 0.08970457
-0.34810414 0.35390058 0.39301047
0.49101042 -0.20862385 -0.00000031
0.54927856 0.23877880 -0.00000135
0.05725181 -0.54283262 0.00000000
0.08327169 0.47813978 0.00000000
0.05673999 -0.44137068 0.00000000
-0.75861500 -0.60778111 -0.00000024
0.72268269 0.05905587 -0.00000150
-0.74463652 -0.33346521 -0.00000058
-0.65425330 -0.36590014 -0.00000037
0.01063283 0.42001480 0.00000554
0.70040065 -0.48843991 -0.00000071
0.67979914 -0.56465705 -0.00000049
-0.12919597 0.65908831 0.04698900
-0.27612533 -0.57060202 0.00000000
-0.66746419 -0.50533104 -0.00000027
-0.05940844 0.59793164 0.00000000
-0.21865440 0.15065735 0.00000000
0.27794330 -0.56611280 0.00000000
-0.41316402 0.32283105 0.25669385
0.56840629 -0.19912225 -0.00000066
0.71910645 -0.63185460 -0.00000042
-0.20389070 0.08728657 0.00000000
-0.08629176 -0.49734587 0.00000000
0.17853932 0.55510050 -0.00000033
-0.69258387 -0.10273658 -0.00000068
-0.31319138 0.41354964 0.29380656
0.65872176 -0.77496189 -0.00000003
-0.00557048 -0.63413741 0.00000000
0.61218569 0.00624240 0.00000150
0.15336475 -0.25081157 0.00000000
-0.54934199 -0.05643979 -0.00000042
-0.06375671 -0.31344833 0.00000000
0.40250770 -0.79151667 0.00000000
0.37854295 0.26210525 -0.00000066
0.44745092 -0.24996053 -0.00000005
0.11726210 0.48327289 0.00000298
-0.31811316 0.27419805 -0.00000021
0.11063685 0.45739039 0.00000347
-0.22488230 -0.76787019 0.00000000
-0.42613955 0.20167241 -0.00000038
0.26647748 0.51248516 -0.00000063
0.42367648 -0.58487681 0.00000000
0.28964812 -0.02632911 0.00000000
-0.78845387 -0.03761489 -0.00000094
0.00767477 0.47137168 0.00000000
-0.34862014 -0.04478376 0.00000000
-0.02694416 0.41716077 0.00000000
0.72215617 -0.28220455 -0.00000117
-0.38443858 0.39002482 0.10241532
-0.36240679 0.33469571 0.41267062
0.68923685 -0.56904415 -0.00000052
0.65844300 0.05337980 -0.00000149
0.69314253 0.01563125 -0.00000021
0.27282182 0.40637797 0.00000134
-0.77950392 -0.56880535 -0.00000029
-0.34682219 -0.76091137 0.00000000
-0.52234570 -0.65751212 0.00000000
0.04081266 0.67516249 0.00000000
0.24640722 -0.01836802 0.00000000
0.01775982 0.30015449 0.00000723
-0.04012713 -0.71259368 0.00000000
-0.57079456 -0.52190063 -0.00000005
-0.02787789 -0.43494893 0.00000000
-0.15083205 -0.62154521 0.00000000
-0.43912542 0.33224865 0.11480460
-0.24048595 0.04076717 0.00000000
0.52169665 0.04411185 0.00000261
-0.39090403 0.37755543 0.12649429
0.65364322 0.04483463 -0.00000145
0.31310549 0.03526816 0.00000000
0.05844271 -0.47401895 0.00000000
-0.11769417 0.42664534 0.00000000
-0.53706581 0.06840282 -0.00000050
0.17078104 -0.36948567 0.00000000
-0.73032992 0.05082939 -0.00000090
-0.14235107 -0.47018239 0.00000000
-0.52673026 0.08355762 -0.00000049
-0.30026756 -0.42564743 0.00000000
0.43022841 0.19753188 0.00000180
0.07846030 -0.76699376 0.00000000
-0.57176295 0.22341007 0.01935638
-0.15199691 -0.16977145 0.00000000
0.64110425 0.06533396 -0.00000004
0.32340243 0.18817092 0.00000401
-0.35402037 -0.02468296 -0.00000003
-0.23527984 0.22592761 0.00000000
0.46049227 -0.79807409 0.00000000
0.41578333 -0.05134551 -0.00000027
-0.55198155 -0.68048000 0.00000000
0.25715075 0.46218523 0.00000070
-0.34258078 0.45402878 -0.00000043
0.22801854 -0.41556680 0.00000000
0.57771094 0.18579395 -0.00000138
-0.78277220 -0.36334393 -0.00000055
0.35426013 -0.03367354 -0.00000004
-0.52590557 -0.31550861 -0.00000014
0.74266359 -0.32124765 -0.00000119
0.79846889 -0.31228558 -0.00000122
0.33580909 0.35993990 -0.00000066
-0.37414698 -0.57132181 0.00000000
-0.17912783 0.09161473 0.00000000
0.11707573 0.32458765 0.00000000
-0.22163269 0.08810025 0.00000000
-0.29320980 -0.57689367 0.00000000
-0.18635536 0.39806012 -0.00000004
-0.68769286 0.08491242 0.10986400
0.30821272 0.18417236 -0.00000023
-0.54322771 -0.38652723 -0.00000011
-0.06073902 -0.08261896 0.00000000
-0.41223780 0.33842108 0.19788405
-0.14484744 0.62374756 0.12595269
0.56041068 -0.48043784 -0.00000013
0.59134464 -0.62417004 -0.00000001
0.45974676 0.02641488 -0.00000059
0.38448934 0.07341580 -0.00000036
0.49102369 -0.36710174 -0.00000003
-0.25128282 -0.12855068 0.00000000
0.08447433 0.43676378 0.00000417
-0.48091680 0.04792791 -0.00000036
0.29214985 -0.32352937 0.00000000
0.63665450 -0.16074848 -0.00000102
0.49466768 -0.56708106 0.00000000
-0.22121362 0.54220664 0.14670591
0.27731860 0.40654972 -0.00000049
-0.05599277 -0.67126082 0.00000000
-0.29724314 -0.38099140 0.00000000
-0.11786110 0.49379084 0.00000000
-0.19661735 -0.34230458 0.00000000
0.43840970 -0.34088010 0.00000000
-0.61610634 0.17251346 0.04563789
0.37321343 0.00764599 -0.00000019
0.10000564 -0.72203236 0.00000000
-0.78659284 -0.21867604 -0.00000073
0.16281829 0.38086881 0.00000383
-0.18106950 0.59204195 0.10783965
0.07129013 0.51600823 0.00000000
0.12520151 0.57950574 -0.00000014
0.06749302 0.13293969 0.00000000
-0.63964899 -0.48548171 -0.00000023
-0.74607176 -0.29323038 -0.00000063
-0.01937092 0.12583014 0.00000000
0.07707516 0.39580017 0.00000000
0.40352255 0.19011248 -0.00000064
0.41537585 0.10075521 -0.00000054
-0.52853233 -0.69960147 0.00000000
0.46010442 -0.07346125 -0.00000042
0.27769035 -0.29667387 0.00000000
-0.54735495 -0.26865963 -0.00000022
0.51568872 -0.10533029 -0.00000060
0.14650898 0.08735615 0.00000000
-0.35427680 0.43726594 0.03391825
0.60053787 -0.31936178 -0.00000058
-0.15656269 -0.77337247 0.00000000
-0.44058332 0.30283708 0.22691392
0.15774851 0.12155425 0.00000000
0.05696223 0.71760766 -0.00000010
0.30130538 0.20176312 0.00000421
-0.16612660 -0.64967388 0.00000000
-0.71984197 0.06356978 0.06652380
-0.36519028 -0.39862541 0.00000000
0.09356870 0.23704334 0.00000703
-0.41793071 -0.05224814 -0.00000014
-0.79096807 -0.65458582 -0.00000018
0.34536490 0.05654306 -0.00000016
0.46224828 -0.28795249 -0.00000005
-0.12008151 0.65641420 0.09426720
0.75400879 -0.08408881 -0.00000166
-0.32374118 0.44861092 0.11088347
-0.41676729 -0.31043046 0.00000000
0.45495083 0.19962065 -0.00000088
0.42823438 0.10893782 -0.00000061
-0.03299692 -0.09861443 0.00000000
-0.14599641 -0.14803007 0.00000000
-0.43130650 -0.23837812 -0.00000000
0.00373086 -0.76274118 0.00000000
-0.49598582 0.23824335 -0.00000056
-0.27372374 -0.27914160 0.00000000
-0.56295876 -0.19863804 -0.00000032
0.79429892 -0.08594194 -0.00000179
-0.58881028 0.06842997 -0.00000061
-0.26583427 0.29363074 -0.00000012
-0.02637600 0.47264161 0.00000000
0.20664935 0.27708973 0.00000473
-0.17957237 0.39336499 -0.00000002
0.55547540 -0.39440120 -0.00000026
0.04371040 -0.25351616 0.00000000
0.14832736 0.18627786 0.00000000
-0.22728619 0.02948876 0.00000000
-0.33178600 0.19974938 -0.00000018
-0.65650783 0.11184733 0.12690960
0.45896257 0.26474325 0.00000013
-0.43674372 0.01971765 -0.00000024
0.69268318 0.08040628 -0.00000128
0.10798019 -0.17895836 0.00000000
-0.46890838 0.25831336 0.29187903
-0.52737964 -0.54810665 0.00000000
0.25413270 -0.56690124 0.00000000
0.05725491 0.07948412 0.00000000
-0.46453155 0.29970734 0.14342028
-0.13670282 0.34516536 0.00000000
0.77318663 0.02383947 -0.00000193
0.63983291 -0.55820129 -0.00000033
0.07443473 -0.41356506 0.00000000
-0.49049971 0.27089322 0.15483380
0.46887793 0.03974102 -0.00000066
-0.75125101 -0.50374155 -0.00000037
0.16240454 0.18967705 0.00000670
0.22571399 0.17943125 0.00000000
0.02959131 0.13660334 0.00000950
-0.52718923 -0.76098344 0.00000000
0.13195721 -0.35328361 0.00000000
-0.36000453 0.38529584 0.21937514
0.37955482 0.05309325 -0.00000030
0.32086188 0.36948947 0.00000103
-0.65356473 0.12312495 0.09348369
0.38943678 -0.28062103 0.00000000
-0.12533424 0.31663185 0.00000000
-0.79309737 -0.31139587 -0.00000061
-0.41381183 0.29109588 0.38136830
-0.41641846 -0.04034653 -0.00000015
-0.08995643 -0.61646472 0.00000000
-0.41247555 0.29342565 0.37738396
-0.00606782 0.69933151 0.00000000
-0.03535000 -0.35334428 0.00000000
-0.59042623 0.15112164 0.23442215
-0.58373488 -0.76103210 0.00000000
-0.14468799 0.00795632 0.00000000
0.19660395 0.58841341 -0.00000024
0.23220702 0.10239034 0.00000696
0.51261484 0.13963965 -0.00000102
0.12713527 0.58322473 0.00000118
-0.42096974 -0.25945401 0.00000000
-0.36031236 -0.24880664 0.00000000
-0.05578678 0.67796440 -0.00000001
0.55724245 0.03497987 -0.00000103
-0.50146112 -0.16235911 -0.00000022
0.20708819 0.52246140 -0.00000039
0.10733188 -0.04063871 0.00000000
0.40993240 -0.44449657 0.00000000
0.19594857 0.27184653 0.00000000
0.42133929 0.03351311 -0.00000044
0.08051130 -0.50566020 0.00000000
0.29447027 0.11062437 0.00000586
0.31240601 -0.58872311 0.00000000
0.63419159 -0.55924899 -0.00000030
-0.08259883 -0.13505830 0.00000000
0.25277660 0.48033269 -0.00000051
-0.20300608 -0.01222419 0.00000000
-0.42352449 -0.70298304 0.00000000
0.43352945 0.20801736 0.00000156
0.03974301 -0.21631010 0.00000000
0.28188610 0.23631565 -0.00000021
0.48123584 -0.45681214 0.00000000
-0.75896104 -0.67487483 -0.00000016
0.53616577 0.05156537 0.00000221
-0.09336083 0.12698007 0.00000000
-0.31435758 -0.48591676 0.00000000
0.37599666 -0.59062207 0.00000000
-0.57261110 0.18589332 0.16641736
0.15333411 -0.38452327 0.00000000
0.15509581 -0.50688696 0.00000000
0.16632270 0.49286848 0.00000194
-0.02226883 0.35705293 0.00000000
0.16483072 -0.29197971 0.00000000
-0.54900669 -0.13920287 -0.00000034
0.11727413 0.11500815 0.00000851
-0.05443555 0.52738453 0.00000000
0.31448910 0.09700222 0.00000570
0.18567028 0.30274372 0.00000000
-0.67150943 -0.32569753 -0.00000044
0.04302251 0.73595665 -0.00000007
-0.08433830 -0.41860851 0.00000000
0.10477499 0.05596907 0.00000000
-0.21852522 0.04491901 0.00000000
0.67648129 -0.63134477 -0.00000036
-0.16758431 -0.43728412 0.00000000
0.31589309 -0.30187233 0.00000000
-0.53550429 -0.29904272 -0.00000017
-0.66599377 -0.42922560 -0.00000033
-0.17704472 -0.64721016 0.00000000
0.15188134 -0.05290645 0.00000000
0.30562005 0.01972937 0.00000000
-0.56766131 0.17130702 0.24476773
0.75580263 -0.01417980 -0.00000179
-0.20462443 0.56585483 0.11839592
-0.52215141 -0.08600415 -0.00000033
-0.71844702 -0.61729445 -0.00000023
-0.58536832 -0.51411502 -0.00000009
0.19129190 -0.49654594 0.00000000
-0.11891104 -0.59510719 0.00000000
-0.77703961 -0.64662137 -0.00000019
-0.65727026 -0.20013029 -0.00000052
-0.10265972 0.56650983 -0.00000001
-0.76228065 -0.18004267 -0.00000076
0.46280867 -0.07139010 -0.00000043
0.50247560 -0.10224223 -0.00000055
-0.23725600 -0.20451962 0.00000000
0.19120934 0.55963442 -0.00000039
-0.45342662 0.31649541 0.12062791
0.01347068 0.00585689 0.00000000
0.67701214 0.04535478 -0.00000040
0.27633901 0.35703109 0.00000209
-0.67532131 0.11197603 0.05094100
0.14605739 0.61804716 -0.00000030
-0.36804061 0.39639978 0.14261321
0.31246135 -0.04153155 0.00000000
0.12735675 -0.34434791 0.00000000
-0.21767915 0.50669756 0.30328831
-0.21954409 0.56918716 -0.00000026
0.57754948 -0.79279710 0.00000000
-0.42623264 0.16654987 -0.00000035
-0.30228018 -0.38750309 0.00000000
-0.44525979 -0.07739672 -0.00000017
-0.28715169 0.44113759 0.28759729
0.26139492 0.43380772 -0.00000047
0.24867250 -0.13665046 0.00000000
0.38895493 0.09909666 -0.00000042
0.13391248 0.56293613 0.00000139
-0.41331984 -0.58202689 0.00000000
0.71620955 -0.54336601 -0.00000064
0.49103710 -0.78720530 0.00000000
-0.57380968 -0.49444654 -0.00000008
-0.57430567 -0.78035410 0.00000000
0.29325141 0.03736934 0.00000000
-0.04120670 -0.10102825 0.00000000
-0.10699505 0.06262431 0.00000000
0.32933772 0.43114486 -0.00000016
-0.55897236 -0.17690116 -0.00000033
0.09282015 -0.65698390 0.00000000
-0.42847196 0.31914866 0.21006893
-0.55552077 0.07216512 -0.00000054
-0.41263940 0.24923803 -0.00000039
-0.54476217 -0.63882657 0.00000000
-0.67574805 -0.04592861 -0.00000069
0.76602798 0.01275252 -0.00000188
-0.21963424 0.09285415 0.00000000
-0.29645482 -0.53235126 0.00000000
0.45312472 -0.65556462 0.00000000
0.76093569 -0.73004155 -0.00000017
-0.06986663 0.17052090 0.00000000
-0.27154888 -0.46636362 0.00000000
0.61742064 -0.59731030 -0.00000016
-0.59784110 0.04903570 -0.00000061
0.22420985 0.33800771 0.00000341
-0.77934096 -0.34653603 -0.00000057
-0.44086271 0.26764616 -0.00000047
0.12785203 0.64604325 -0.00000027
-0.35258058 0.42026675 0.10889698
-0.34327387 0.41274270 0.17639757
-0.56742719 0.08511067 -0.00000058
0.62173593 -0.23026157 -0.00000083
0.68804234 -0.35860603 -0.00000089
0.38384472 0.27590405 0.00000138
-0.40265879 -0.05957210 -0.00000010
0.71398948 -0.76019725 -0.00000010
-0.76458057 -0.45274157 -0.00000043
0.05141716 0.27900839 0.00000704
0.52164295 0.09452193 0.00000177
0.13025489 0.16009571 0.00000000
0.10139346 -0.07834946 0.00000000
0.28497131 0.43059232 -0.00000056
-0.34438160 -0.05638626 0.00000000
0.03564217 -0.69871113 0.00000000
0.42524782 -0.06264029 -0.00000029
-0.74757177 -0.71800355 -0.00000010
0.48970448 0.27258506 -0.00000116
0.60149510 -0.37586006 -0.00000049
0.63743458 -0.30051330 -0.00000077
0.69268655 -0.05781157 -0.00000144
0.02378767 -0.44940091 0.00000000
-0.28237253 0.50940585 0.03297403
0.45586480 -0.70361270 0.00000000
-0.61335585 -0.39657276 -0.00000025
0.27840740 0.12740702 0.00000589
0.43466381 0.18072531 0.00000200
0.53092634 0.02421672 -0.00000089
-0.05501300 -0.10751720 0.00000000
-0.31210066 0.13698186 -0.00000008
-0.47893547 -0.12616538 -0.00000020
0.13681191 0.06101386 0.00000902
0.49481860 -0.20193130 -0.00000034
0.22533898 0.50099407 -0.00000043
-0.21811967 -0.20719114 0.00000000
0.26376419 -0.51065355 0.00000000
0.10614231 0.67782859 0.00000000
0.50220910 -0.63320243 0.00000000
-0.15695998 0.60101592 0.16854017
0.40796756 0.11541025 -0.00000053
-0.39191364 -0.44651915 0.00000000
0.33741146 -0.13737549 0.00000000
0.36910934 -0.15890945 0.00000000
0.23671286 -0.66283439 0.00000000
0.28759459 -0.22400112 0.00000000
0.15431325 0.11125580 0.00000000
0.21704709 -0.27081048 0.00000000
0.09255691 0.38880376 0.00000000
-0.54624957 0.15392928 -0.00000059
-0.22993805 0.20914100 0.00000000
0.19706165 -0.38429925 0.00000000
-0.28390283 -0.12951430 0.00000000
0.71568569 -0.55456766 -0.00000061
0.05355389 -0.60575832 0.00000000
0.53366752 -0.75185714 0.00000000
0.36454666 -0.74153747 0.00000000
0.01567970 0.37818572 0.00000609
0.44693627 0.30531127 -0.00000032
-0.57711595 0.04096330 -0.00000056
-0.20956496 -0.33216376 0.00000000
-0.25891332 -0.71113257 0.00000000
-0.37370857 -0.53102714 0.00000000
-0.52158498 -0.34141843 -0.00000010
0.20205548 -0.65893352 0.00000000
-0.63554677 -0.77879765 0.00000000
0.46157551 -0.46465150 0.00000000
-0.39901081 0.38564011 0.06155769
-0.22824308 -0.73867380 0.00000000
0.04199609 -0.72722235 0.00000000
0.19339351 -0.56121074 0.00000000
-0.54104207 -0.26672699 -0.00000021
-0.48152906 0.30822186 0.04110299
-0.36182229 0.37724099 0.24438883
0.18731010 -0.00599736 0.00000000
0.63056272 -0.75225162 0.00000000
0.21211796 0.56100583 -0.00000008
-0.45302261 0.11441407 -0.00000036
0.09059067 0.33938242 0.00000554
0.24769615 -0.27948897 0.00000000
0.43069894 -0.29959550 0.00000000
-0.33934819 -0.28208114 0.00000000
-0.46769084 -0.54499315 0.00000000
-0.27945484 0.10165142 0.00000000
0.01842406 -0.73905115 0.00000000
0.23953379 0.41491606 0.00000183
-0.35625119 0.42574405 0.07220886
-0.41434396 -0.00781932 -0.00000017
0.44374140 -0.71677335 0.00000000
0.12840139 -0.25857151 0.00000000
0.38586252 -0.58514303 0.00000000
0.03084542 0.42657274 0.00000514
0.66142579 0.07757298 -0.00000063
-0.52605999 0.03879768 -0.00000045
0.41345592 -0.47541154 0.00000000
-0.60944088 0.09754823 -0.00000068
0.79921137 -0.29355264 -0.00000127
0.07250006 -0.32159723 0.00000000
-0.70982905 0.07120268 0.07606909
-0.46048727 0.26606365 0.29456929
0.29883159 0.49164457 -0.00000059
0.22417263 0.36116092 0.00000303
0.20827407 0.50955453 -0.00000038
-0.61514442 -0.65914578 -0.00000002
0.54883193 -0.61284169 0.00000000
-0.75697412 -0.32033851 -0.00000060
-0.59293778 0.08409025 -0.00000063
0.33842136 0.00890710 0.00000672
-0.49581233 -0.38526930 -0.00000001
0.52433496 -0.44875224 -0.00000003
-0.46316219 0.29233329 0.17848609
-0.65046979 -0.71573367 -0.00000005
-0.10219848 0.67943538 0.07366087
0.21022339 0.14271115 0.00000669
-0.11212478 -0.11151994 0.00000000
0.37910245 -0.73557728 0.00000000
-0.37363212 0.03560735 -0.00000012
0.22259015 0.19573100 0.00000000
0.29176900 0.13278046 0.00000554
0.03460405 -0.05127692 0.00000000
-0.62181027 0.17044644 0.03105184
-0.09972889 -0.33742307 0.00000000
0.42865704 -0.41551060 0.00000000
-0.50024808 -0.54226144 0.00000000
-0.24313317 0.47507316 0.32803443
0.33241506 -0.53631314 0.00000000
-0.63516316 0.10274294 -0.00000074
0.17044165 0.44424737 0.00000267
0.41585075 0.08152152 0.00000402
0.17067645 0.44736207 0.00000261
0.38841077 0.20828459 0.00000243
-0.37823065 0.37983779 -0.00000044
-0.30232472 0.48635496 -0.00000037
0.37698109 0.05729473 0.00000517
-0.13682139 -0.58523967 0.00000000
0.64932113 -0.06583090 -0.00000124
-0.79525077 -0.54138019 -0.00000032
0.53730895 -0.65456458 0.00000000
-0.49497466 0.29717487 0.03148308
-0.10668750 -0.75454284 0.00000000
0.48652112 -0.67948377 0.00000000
-0.29303104 -0.52524071 0.00000000
0.33385288 -0.16648939 0.00000000
-0.22020364 0.56946688 0.04142840
0.44013043 0.17544738 0.00000198
0.16296158 -0.44711396 0.00000000
0.59903691 -0.07059147 -0.00000102
0.16655502 -0.76546859 0.00000000
-0.24432591 -0.16565705 0.00000000
-0.10244674 0.68197382 0.06248488
0.48554555 0.02930973 -0.00000071
0.14970949 0.57734916 0.00000084
0.48950444 -0.42106333 0.00000000
-0.11713419 -0.44885382 0.00000000
0.00816889 -0.22380922 0.00000000
-0.15666013 0.58629253 0.22879019
0.24175203 -0.11961490 0.00000000
-0.59046525 -0.67006935 0.00000000
0.48533493 0.01000031 -0.00000067
0.47905123 0.17021282 0.00000132
0.10611224 0.36647917 0.00000490
-0.35241783 0.39806951 0.19857265
-0.09973584 0.51710358 0.00000000
-0.55434704 0.21249795 0.13296734
-0.00541104 0.35169244 0.00000000
0.20562847 0.51975960 0.00000073
-0.00019589 -0.32705559 0.00000000
-0.07910408 0.36022569 0.00000000
-0.49224108 -0.52540283 0.00000000
-0.11048107 -0.02845139 0.00000000
-0.13961750 -0.03817239 0.00000000
0.47960223 -0.14391569 -0.00000038
-0.01977764 0.01841447 0.00000000
0.03794722 0.35560754 0.00000609
0.12087538 0.20975466 0.00000000
-0.64228120 -0.08649325 -0.00000059
-0.62909933 0.15682467 0.05644935
0.18961603 0.28103494 0.00000492
-0.72374577 -0.29851712 -0.00000057
0.66598953 -0.65895220 -0.00000026
-0.35933185 -0.49075740 0.00000000
0.03855426 -0.30265072 0.00000000
0.01598049 -0.74218132 0.00000000
-0.26837366 0.49159844 0.16053460
-0.34608199 -0.67253755 0.00000000
0.05735159 -0.09401623 0.00000000
-0.44305145 0.33300526 0.09602464
0.58312043 0.10005019 0.00000049
0.08580313 0.00979219 0.00001056
-0.32694454 -0.21243625 0.00000000
0.76747773 0.01822457 -0.00000189
0.22137166 0.25274771 0.00000487
-0.03317454 0.38687003 0.00000000
-0.46907063 0.30178475 -0.00000056
-0.32571060 0.04095447 -0.00000002
0.35253491 0.06132350 0.00000557
-0.18332996 0.55043270 0.26564630
0.78143389 -0.00695436 -0.00000191
0.32048513 -0.04817648 0.00000000
0.19388934 0.04017810 0.00000000
-0.41336015 -0.15259734 -0.00000004
0.10348493 -0.64546850 0.00000000
-0.23210581 -0.52135024 0.00000000
0.40246226 -0.65091337 0.00000000
-0.00638467 -0.37972316 0.00000000
-0.29724071 -0.30608921 0.00000000
-0.53770648 -0.00953056 -0.00000043
-0.25318750 -0.20602571 0.00000000
-0.45314091 0.32269056 0.09692784
0.26968840 -0.10892124 0.00000000
-0.77916916 0.01899910 0.00734153
0.16668319 0.09073574 0.00000000
-0.32300373 -0.46862051 0.00000000
0.46308671 -0.48138631 0.00000000
-0.06403934 0.02249073 0.00000000
-0.33620353 -0.12485292 0.00000000
0.34568975 0.23350179 -0.00000047
0.04832600 0.22838501 0.00000785
-0.49130787 0.15886927 -0.00000048
0.44444911 -0.21220770 -0.00000011
-0.67782839 -0.53131199 -0.00000027
0.52460585 -0.60383562 0.00000000
-0.67661981 0.07927888 -0.00000081
0.19075660 0.31310497 0.00000443
-0.43284905 0.27147960 0.38369063
-0.09542309 0.68383792 0.08317709
-0.54434848 0.17471817 -0.00000061
0.56267074 0.16922615 -0.00000129
-0.16220481 0.59342664 0.17794247
0.17383800 0.08410500 0.00000000
-0.20598912 -0.30304796 0.00000000
0.00737830 0.38623050 0.00000000
0.08874102 -0.43338120 0.00000000
-0.33881927 0.36426811 0.38866846
-0.09670864 -0.51189000 0.00000000
0.04433607 0.42094403 0.00000000
-0.05459094 -0.19807896 0.00000000
0.26353874 -0.14416355 0.00000000
0.51360605 0.02031765 0.00000316
0.45163167 -0.22333648 -0.00000012
0.46173758 0.24324471 0.00000043
-0.28604784 -0.32774469 0.00000000
0.32897370 0.08350637 -0.00000014
0.22718954 0.56849457 -0.00000050
-0.40470993 -0.09888058 -0.00000007
0.15752761 0.53798136 0.00000135
-0.36173962 0.31905707 0.47806432
-0.34270833 0.20563694 -0.00000021
0.13063508 0.54318524 0.00000178
-0.31573840 0.41229282 0.28863230
0.55458530 -0.57329175 0.00000000
-0.04000718 -0.22048294 0.00000000
-0.30096707 -0.10210057 0.00000000
0.22383111 0.01033548 0.00000847
-0.42137801 0.00209879 -0.00000019
-0.31540891 -0.51428791 0.00000000
0.25822080 -0.73836644 0.00000000
-0.04708862 -0.50506297 0.00000000
0.21339480 0.13896523 0.00000000
0.36900577 0.12185372 -0.00000038
-0.60456716 -0.59864312 -0.00000005
-0.30425936 0.02437959 0.00000000
-0.10797278 -0.38498294 0.00000000
-0.69867372 -0.47658357 -0.00000036
0.00238494 0.78043118 0.00000000
0.47519014 -0.00927823 -0.00000060
0.10321533 0.49355863 0.00000000
0.41116374 -0.67198751 0.00000000
-0.17078618 0.57105919 0.23323093
-0.47025225 0.14361643 -0.00000042
-0.10029337 0.23834309 0.00000000
-0.78135270 -0.63674659 -0.00000020
-0.38582300 0.39920875 0.06003050
0.27265264 -0.69337593 0.00000000
-0.02493899 -0.01348893 0.00000000
-0.46053372 0.14462630 -0.00000040
0.53945752 0.06783134 0.00000187
-0.68285911 -0.34852142 -0.00000044
-0.15573683 0.61713169 -0.00000017
0.64324114 -0.10189516 -0.00000115
-0.25967600 0.45482643 0.34288873
-0.11969316 0.05143299 0.00000000
0.08038674 -0.36622843 0.00000000
-0.67785992 -0.10380862 -0.00000065
-0.26290245 -0.19080935 0.00000000
0.17323306 0.61746937 -0.00000042
-0.75242804 -0.27573020 -0.00000065
0.20370829 0.16622932 0.00000643
0.18732792 0.35083000 0.00000391
0.01432372 0.21944285 0.00000000
-0.11006567 -0.01103634 0.00000000
-0.55055773 -0.36693923 -0.00000014
-0.28046658 -0.10104104 0.00000000
-0.20824376 -0.15677712 0.00000000
-0.59072983 0.15191091 0.23003909
0.38140239 -0.54832634 0.00000000
0.36624791 0.04507586 -0.00000023
-0.08739948 0.65696424 -0.00000006
0.57468124 -0.74918587 0.00000000
-0.21640060 -0.57638906 0.00000000
0.70247511 -0.54218665 -0.00000063
-0.44918203 -0.44708883 0.00000000
0.05742729 -0.76239258 0.00000000
-0.07444652 0.11087565 0.00000000
0.46372121 0.13361377 0.00000223
0.32410035 -0.04898858 0.00000000
0.11957923 0.48755684 0.00000288
-0.33653815 -0.15735230 0.00000000
0.15468519 -0.51298719 0.00000000
-0.64055982 -0.71594911 -0.00000003
0.67488015 -0.38293220 -0.00000079
-0.47631278 0.24807576 -0.00000053
0.19716485 0.24248189 0.00000000
-0.22644529 0.56477223 0.03522400
0.03223856 -0.75476900 0.00000000
0.12747908 0.37823045 0.00000440
0.17353892 0.27501116 0.00000526
-0.36747675 -0.27356016 0.00000000
-0.79949959 -0.37771553 -0.00000053
0.10650804 -0.48866389 0.00000000
-0.37574846 -0.07795780 -0.00000003
-0.05377332 -0.32189378 0.00000000
-0.36679278 0.32700066 0.42594146
-0.50787208 0.06026575 -0.00000043
-0.21138670 -0.65830604 0.00000000
-0.46645375 -0.73064954 0.00000000
0.53148770 0.02997804 0.00000266
-0.00829431 0.03486192 0.00000000
0.74769051 -0.09247798 -0.00000161
0.03711846 0.24445506 0.00000777
0.78951419 -0.52078478 -0.00000070
-0.75490653 -0.42127211 -0.00000047
0.24331260 0.15928234 0.00000594
0.43208988 -0.24719668 0.00000000
0.34670098 0.32559522 -0.00000064
-0.06516968 -0.21504943 0.00000000
0.01686798 0.57965320 0.00000305
-0.41800151 -0.05821831 -0.00000013
0.47321028 0.25319811 -0.00000105
-0.57775736 -0.64610695 0.00000000
-0.61047255 0.14059880 0.19622757
0.21832783 0.30777972 0.00000403
0.71392421 -0.28685776 -0.00000113
0.70800067 -0.26792184 -0.00000113
-0.35333278 -0.02417754 -0.00000003
-0.28839028 -0.53554130 0.00000000
0.14034663 -0.64826208 0.00000000
-0.13798957 0.35923393 0.00000000
-0.34861440 -0.32054125 0.00000000
0.10252517 -0.17875941 0.00000000
-0.14480818 0.15562179 0.00000000
-0.01940083 -0.70269442 0.00000000
0.10984396 0.20211676 0.00000000
0.52329142 0.14575793 -0.00000108
-0.60992240 -0.35355190 -0.00000028
0.57412957 -0.42946036 -0.00000028
-0.07428214 -0.65534655 0.00000000
0.76009055 -0.15066779 -0.00000156
-0.15578160 0.60635763 0.15184331
-0.28900638 -0.16536216 0.00000000
-0.44978402 0.25393873 0.38612059
-0.39486879 -0.14217035 -0.00000001
-0.26071940 -0.45061130 0.00000000
0.13915542 -0.55802309 0.00000000
0.47991842 0.23623679 -0.00000105
0.01501756 0.07930108 0.00000000
0.19306033 -0.43165828 0.00000000
0.29762993 0.08880878 -0.00000001
-0.16951140 -0.15663262 0.00000000
0.04634566 0.10067450 0.00000979
-0.28260557 -0.47471341 0.00000000
0.24816776 0.04187452 0.00000000
-0.41385113 -0.62597788 0.00000000
0.19140053 0.10430774 0.00000000
0.38888170 0.03568587 0.00000530
