ply
format ascii 1.0
element vertex 1393
property float x
property float y
property float z
end_header
0.47592515 0.20858683 0.00000074
-0.19329423 0.12932813 0.00000000
-0.15526364 0.53726947 0.26502493
-0.00966740 0.69114535 0.00000000
0.15542684 0.55900103 -0.00000024
-0.02953756 -0.39084754 0.00000000
-0.59399323 -0.63669337 0.00000000
0.10619105 0.64404453 0.00000057
-0.09098037 -0.15913666 0.00000000
-0.12159177 0.22576022 0.00000000
-0.49060141 0.28845899 -0.00000059
-0.41594090 0.23449578 0.36883908
-0.76735049 -0.17464799 -0.00000078
0.63733925 0.08108031 -0.00000145
0.14700457 0.25612913 0.00000000
0.51562734 -0.01996468 -0.00000075
0.53630831 -0.39604187 -0.00000017
0.61062960 0.13076797 -0.00000055
-0.27139463 -0.51624618 0.00000000
-0.35082094 -0.61316411 0.00000000
0.38761758 -0.39665400 0.00000000
-0.09870992 0.32876102 0.00000000
-0.02703649 0.75456259 0.04538072
0.59702211 0.05312143 -0.00000123
-0.02736563 -0.08041617 0.00000000
-0.48355503 -0.45508941 0.00000000
0.59450943 0.09796330 -0.00000130
-0.41627671 0.30706882 0.18903874
-0.49641392 -0.76606302 0.00000000
0.18080325 0.48393093 -0.00000021
-0.07484776 0.07613884 0.00000000
0.63910572 -0.09582294 -0.00000114
-0.25230587 0.06853549 0.00000000
-0.36706238 0.42779076 -0.00000045
0.55458585 -0.57115249 0.00000000
0.08785123 -0.63315996 0.00000000
0.22758711 0.24068154 0.00000000
0.59210817 0.11057433 -0.00000131
0.66327361 -0.13424688 -0.00000118
-0.30805338 0.41227382 0.19648312
0.00396512 0.07734913 0.00001078
0.25668556 0.22525004 -0.00000008
0.15198147 -0.52164664 0.00000000
-0.34173072 0.17544935 -0.00000018
0.22266445 0.19399629 0.00000000
-0.23476726 0.46565460 0.24557097
0.58184750 -0.27797683 -0.00000058
0.27653717 -0.78079100 0.00000000
0.05595946 0.05451142 0.00000000
0.01404901 -0.26058077 0.00000000
-0.34332563 0.44523874 -0.00000042
0.70895878 -0.25002588 -0.00000117
0.17142144 0.32616204 0.00000000
-0.16676282 0.52686618 -0.00000011
0.20525312 -0.43713570 0.00000000
-0.34056347 -0.46766303 0.00000000
-0.42222601 0.30478440 0.18000065
-0.67152792 0.11478257 0.03375752
0.37689449 0.31090789 -0.00000074
-0.76705977 0.02507756 -0.00000095
-0.39714726 0.14091037 -0.00000026
-0.43222782 -0.53825704 0.00000000
-0.17784242 0.34043344 0.00000000
-0.38143776 0.24528808 0.42731174
-0.30961928 0.35583308 0.33180880
-0.13818027 0.61817062 0.10764518
0.57556665 -0.08706150 -0.00000089
-0.34080337 -0.73667731 0.00000000
-0.22944615 0.56350500 0.01738413
-0.53470580 0.25949804 -0.00000066
-0.67542233 -0.00465842 -0.00000073
-0.52604981 -0.24659090 -0.00000020
0.03220787 0.01043519 0.00001136
-0.23988897 -0.39480718 0.00000000
0.35324693 0.21613528 -0.00000048
-0.45032749 0.15488543 -0.00000039
0.69944477 -0.14725532 -0.00000131
0.27430143 0.42639868 -0.00000051
0.10086947 -0.24505493 0.00000000
0.32888079 0.37819680 -0.00000066
-0.59509455 -0.25183427 -0.00000034
-0.46990123 0.13529530 -0.00000042
0.20679159 0.12120170 0.00000000
0.25208654 0.33382519 -0.00000025
0.17305737 0.59431909 0.00000011
0.08527088 0.22462495 0.00000000
0.24603017 -0.73791814 0.00000000
-0.64238869 -0.46077719 -0.00000026
-0.03962295 0.13473163 0.00000000
0.33249810 0.38693126 0.00000051
0.26570707 0.49477637 -0.00000059
-0.21220489 -0.30442677 0.00000000
-0.53069364 -0.17199317 -0.00000027
-0.37853438 0.27566384 -0.00000034
-0.31682861 0.39751729 0.21123351
0.16313823 0.42980826 -0.00000004
0.46408966 0.08746853 -0.00000072
0.07075607 -0.54668483 0.00000000
-0.19670996 -0.59392264 0.00000000
0.32262724 -0.79332883 0.00000000
0.40850055 -0.59500714 0.00000000
0.44200017 -0.18616830 -0.00000014
-0.79183693 -0.57510860 -0.00000028
0.62332929 -0.13348775 -0.00000101
0.59660055 -0.50255870 -0.00000024
0.23772509 -0.07914923 0.00000000
0.45539758 0.22892285 -0.00000093
-0.22885433 -0.04682612 0.00000000
-0.08805872 -0.12791707 0.00000000
0.26599065 0.06773178 0.00000697
-0.64780945 -0.60211524 -0.00000014
-0.32538236 0.45818687 0.04052039
-0.46904527 -0.19685229 -0.00000012
-0.15337364 -0.51068518 0.00000000
-0.36492463 0.02651484 -0.00000010
0.19233733 0.26418392 0.00000000
0.00872575 0.54006002 0.00000000
-0.06188408 -0.72156032 0.00000000
0.42413273 -0.47142651 0.00000000
-0.06913907 -0.04668431 0.00000000
0.01383723 -0.14380796 0.00000000
-0.19686745 -0.31146806 0.00000000
0.05958213 0.25099270 0.00000000
-0.29807131 -0.78611308 0.00000000
-0.33364021 -0.47104269 0.00000000
0.21324280 -0.05276750 0.00000000
-0.39164737 -0.04629530 -0.00000009
0.11873417 0.57378190 0.00000150
-0.73100620 -0.48655997 -0.00000039
0.49322101 -0.25728929 -0.00000024
0.78187122 -0.70220233 -0.00000024
-0.54985248 0.19159702 0.14439115
-0.22719767 -0.78091407 0.00000000
-0.46033086 0.29088204 0.12031406
0.06921598 0.03912255 0.00000000
0.22981625 0.26274806 0.00000456
0.40460942 -0.33809937 0.00000000
0.46475628 0.04030315 0.00000377
0.68913380 -0.59368565 -0.00000048
0.49806991 -0.47664136 0.00000000
0.00365015 -0.41407306 0.00000000
0.14063463 0.18410745 0.00000712
-0.13016534 -0.76963547 0.00000000
-0.34233093 0.30466738 -0.00000029
-0.46362171 -0.23657555 -0.00000007
0.49411783 -0.66402653 0.00000000
0.16339520 0.10507083 0.00000796
-0.34093184 0.28514282 0.42891746
0.79681804 -0.32170436 -0.00000120
0.20695548 0.39364290 -0.00000016
0.73836813 -0.27386043 -0.00000125
0.56988449 -0.09427857 -0.00000085
-0.12913789 -0.23166759 0.00000000
-0.13500676 -0.38250460 0.00000000
0.38311586 0.40299881 -0.00000093
0.06597675 -0.55447771 0.00000000
-0.09197977 0.48093592 0.00000000
0.43632122 0.07634425 -0.00000058
0.18864515 0.22605457 0.00000576
-0.25635606 0.39631331 0.36333248
0.08825390 0.09730045 0.00000000
-0.49291968 0.29019027 0.04165177
0.11116474 0.02067645 0.00000000
0.25921688 0.35909662 0.00000239
-0.39334376 0.37756209 0.07174933
-0.20845802 0.44815063 0.35361771
-0.38383486 0.37996585 0.08927154
-0.59910934 0.17044903 0.07507085
0.49756695 0.07913232 -0.00000085
0.46949689 -0.45029194 0.00000000
0.75962482 -0.53256965 -0.00000067
0.06999803 -0.52725767 0.00000000
0.15302401 0.30329253 0.00000514
0.47261112 0.24466587 0.00000020
-0.25815050 0.41805896 0.30528077
0.12609401 0.40153475 0.00000407
0.38577832 -0.03949171 -0.00000016
-0.26048187 -0.57251056 0.00000000
-0.00620793 -0.17033663 0.00000000
0.11202275 0.24218985 0.00000668
0.05525511 0.56417565 0.00000270
0.04676655 -0.49198960 0.00000000
0.11806258 -0.52676056 0.00000000
-0.66252611 -0.51509675 -0.00000025
-0.16007064 0.54587682 0.23194410
0.29711344 -0.03536962 0.00000000
0.40371667 0.10871590 0.00000379
-0.41079358 -0.36363892 0.00000000
-0.64964095 -0.11662532 -0.00000058
-0.74124736 -0.57725085 -0.00000028
-0.66141045 -0.18418247 -0.00000054
-0.35971734 -0.74243199 0.00000000
-0.05371097 -0.71990663 0.00000000
-0.12170180 0.66292428 -0.00000014
0.47597731 -0.55834874 0.00000000
-0.77384225 -0.32194076 -0.00000060
0.13166465 0.40372195 0.00000396
0.28174619 -0.10724236 0.00000000
0.00607176 -0.59688701 0.00000000
0.68542436 -0.60524513 -0.00000044
0.08802142 0.02151574 0.00000000
-0.22597235 -0.69691006 0.00000000
0.79717952 -0.47415128 -0.00000081
-0.28462492 0.51294062 0.00600407
-0.34933101 -0.45636228 0.00000000
-0.01844407 0.68488838 0.00000000
0.29933421 -0.20424875 0.00000000
-0.45100715 -0.56524455 0.00000000
-0.40641232 0.23865185 0.38208806
0.61676524 -0.33768270 -0.00000062
0.70599794 -0.21407333 -0.00000122
0.05604568 -0.23812257 0.00000000
-0.40996231 0.33838423 0.12738323
0.14813416 0.37433185 0.00000000
-0.52682208 -0.60841076 0.00000000
0.45654005 -0.10332569 -0.00000035
-0.08550738 -0.76282629 0.00000000
-0.75779585 -0.79823612 -0.00000000
0.48809600 -0.52557814 0.00000000
0.12448361 -0.22030821 0.00000000
-0.25188751 -0.18825441 0.00000000
0.68143079 -0.48257147 -0.00000064
-0.21339947 -0.48423976 0.00000000
0.42123187 0.01808755 0.00000497
0.32997437 -0.24313351 0.00000000
0.66193052 0.04778453 -0.00000015
0.38896671 -0.41968647 0.00000000
-0.08046711 -0.12977390 0.00000000
0.59669999 -0.29123284 -0.00000062
-0.06962484 0.69124320 0.09650526
0.65216277 0.07385436 -0.00000150
-0.40000798 -0.59450698 0.00000000
0.02096390 0.57238118 0.00000000
0.54942180 0.11398646 -0.00000113
-0.47593104 0.18701966 0.33797874
0.13330472 0.45091917 0.00000000
0.60849850 0.17096448 -0.00000148
-0.34500328 -0.05118168 0.00000000
0.61879500 -0.68781444 -0.00000001
-0.71199384 0.07697668 0.02719727
-0.42467407 0.32484560 0.12449003
0.56795373 0.02578665 0.00000203
-0.52012610 -0.69471764 0.00000000
-0.77790702 -0.53255832 -0.00000033
0.09158989 0.02396373 0.00000000
-0.14306341 -0.37244064 0.00000000
0.04521450 0.28983481 0.00000000
0.49799919 -0.17826089 -0.00000040
-0.30688924 0.30729722 0.45823456
-0.43006937 0.34675672 0.05714902
0.10626904 0.14330164 0.00000825
-0.08908278 -0.64445839 0.00000000
-0.34025127 0.43164723 0.06930173
0.73556664 0.06334656 -0.00000182
0.55239252 0.16600178 -0.00000124
0.52052724 0.15024727 0.00000086
0.04393696 0.49631197 0.00000000
-0.74432667 -0.46734032 -0.00000042
-0.70997173 0.08784901 0.00537155
-0.31096140 -0.73918013 0.00000000
-0.43421030 0.27169078 0.23205875
-0.17084516 -0.12209229 0.00000000
-0.60532973 -0.27895571 -0.00000034
0.04086871 0.05822245 0.00001051
0.09973884 0.00718347 0.00001039
0.42982667 0.03666662 -0.00000049
0.47536846 -0.34555850 -0.00000000
-0.03529728 0.74619946 0.04563314
0.41643123 0.29996871 0.00000036
0.26036355 -0.66446113 0.00000000
0.38757940 -0.01389330 -0.00000022
-0.41798866 -0.49503725 0.00000000
0.40043635 0.31328824 -0.00000085
-0.11623408 -0.58748508 0.00000000
0.70568110 -0.22815568 -0.00000119
-0.17550431 0.14489932 0.00000000
-0.50055085 -0.70638269 0.00000000
-0.01116020 -0.79253484 0.00000000
-0.54697406 -0.19555273 -0.00000029
0.77581169 -0.13548625 -0.00000166
-0.32378569 0.42615133 0.12346155
0.20703714 0.45700756 0.00000175
0.55584507 -0.48661792 -0.00000010
0.38572854 0.08253452 0.00000458
-0.39325013 0.28975458 0.28852363
0.41499964 -0.62394696 0.00000000
0.01067522 0.37781884 0.00000617
-0.30974026 -0.69297665 0.00000000
-0.07430173 -0.67261368 0.00000000
0.19589020 -0.30347188 0.00000000
-0.26994079 -0.47754091 0.00000000
-0.74960552 -0.64476586 -0.00000019
-0.31141046 0.35563153 0.32788865
0.03114018 0.48904829 0.00000000
0.11060029 0.55710063 -0.00000004
0.62995840 -0.46068784 -0.00000046
-0.41642611 0.14872598 -0.00000031
-0.38679208 -0.52514266 0.00000000
-0.35065594 -0.46126462 0.00000000
0.63185678 -0.04048346 -0.00000121
0.19396228 0.24775671 0.00000000
-0.20177872 -0.21780713 0.00000000
0.44363107 0.27875497 0.00000019
0.19979892 0.53633437 -0.00000039
0.38053523 0.29466680 0.00000113
0.60071257 0.14366496 -0.00000057
-0.59498526 0.16631485 0.09543675
-0.26541383 -0.60662865 0.00000000
0.72430100 -0.47447293 -0.00000081
-0.15484660 0.49745438 -0.00000006
-0.64710949 0.00270462 -0.00000068
0.67252037 0.08290609 -0.00000160
-0.46105141 -0.49011772 0.00000000
0.69735228 -0.15621951 -0.00000129
-0.18370796 -0.17768253 0.00000000
-0.63807828 -0.43222175 -0.00000027
0.52540343 -0.06391138 -0.00000072
0.08720919 0.07043764 0.00000963
0.60249850 0.02665738 -0.00000120
0.07784556 0.43156665 0.00000000
-0.25595612 -0.22271660 0.00000000
-0.32836242 0.46400813 0.01881520
-0.43114229 0.23030044 0.34169733
-0.68344623 -0.38975108 -0.00000041
0.25780932 -0.39792104 0.00000000
0.06295480 0.39578207 0.00000000
0.00486456 -0.01838960 0.00000000
0.48078455 0.16656720 -0.00000093
0.20178848 0.29706578 0.00000000
0.34244916 0.30239441 0.00000174
-0.10885970 0.53456699 0.00000000
0.78240345 -0.13062104 -0.00000167
-0.32477738 -0.44425021 0.00000000
0.55043778 -0.75093586 0.00000000
-0.41110326 0.17037399 -0.00000032
-0.19808600 0.45607116 0.35966324
-0.06496941 0.29057900 0.00000000
0.29910679 0.05668673 0.00000000
-0.09495980 0.67149040 0.08273933
-0.12819048 -0.58112928 0.00000000
-0.64529635 -0.37096006 -0.00000034
-0.36328982 0.35796769 0.19418844
0.08293095 0.03114505 0.00000000
-0.20958171 -0.35115697 0.00000000
0.34230665 0.15066515 -0.00000031
-0.35005910 0.38879771 0.15078651
-0.40924364 0.28182364 0.26864079
0.47535836 -0.65906548 0.00000000
0.47083141 -0.14982476 -0.00000033
0.01736498 -0.16986225 0.00000000
0.28878333 0.28133107 0.00000312
0.68646562 -0.24751198 -0.00000108
-0.77668588 -0.46294697 -0.00000042
-0.24545458 0.34121168 -0.00000012
-0.56298522 0.15580729 0.20026596
0.54322502 -0.78536988 0.00000000
0.09155880 0.50146433 0.00000310
-0.28026706 -0.15818682 0.00000000
0.26353803 0.38268517 -0.00000039
-0.10779422 -0.03554347 0.00000000
0.46417809 -0.07485086 -0.00000043
0.38109509 -0.62862815 0.00000000
0.40592050 0.18545668 0.00000247
-0.22335228 -0.08117515 0.00000000
-0.35166900 -0.59036954 0.00000000
-0.31120220 0.31598016 -0.00000024
0.01854080 0.70317438 0.00000117
-0.61335863 -0.11204065 -0.00000050
-0.45093689 -0.40235281 0.00000000
-0.11446246 -0.58935038 0.00000000
0.36789445 -0.72964403 0.00000000
0.08372374 0.07152178 0.00000966
0.67556273 -0.68044707 -0.00000027
-0.16159128 0.01290883 0.00000000
-0.55843028 -0.45891028 -0.00000008
-0.44079114 -0.51384012 0.00000000
-0.29367764 0.47215435 0.08426282
0.00120221 0.68743495 0.00000000
0.65863225 -0.27143288 -0.00000092
-0.06763177 0.56349394 0.00000000
-0.36508691 0.38258399 0.12904978
-0.47110730 -0.57917163 0.00000000
0.68251391 -0.07470327 -0.00000137
-0.70312789 -0.21598786 -0.00000060
-0.08778586 0.68692807 -0.00000009
0.49055927 0.00233213 0.00000390
-0.66608949 -0.21405530 -0.00000053
0.58240309 -0.76784986 0.00000000
-0.75928485 -0.36581374 -0.00000054
0.18197062 0.33637470 0.00000000
0.56135308 -0.27045047 -0.00000050
-0.34448588 0.41563732 -0.00000040
0.76734467 -0.54935946 -0.00000063
0.33071948 -0.71932119 0.00000000
0.24807772 -0.30433116 0.00000000
-0.33147657 -0.36139785 0.00000000
-0.34042768 -0.28905523 0.00000000
0.15220053 0.63985063 -0.00000037
-0.39723540 -0.21021207 0.00000000
-0.30643215 0.18203649 -0.00000011
-0.77644206 -0.42118618 -0.00000047
0.18916076 0.32730293 0.00000424
-0.69962090 -0.78270667 -0.00000002
-0.00673192 0.60694397 0.00000000
-0.58964548 -0.05574191 -0.00000050
0.63988331 0.10614737 -0.00000070
-0.52917519 -0.65657214 0.00000000
-0.13261963 0.64136740 0.06415270
-0.01178881 0.52373063 0.00000000
0.16177845 -0.06677372 0.00000000
0.03095019 0.58360615 0.00000278
0.60752571 0.02733989 -0.00000123
0.02397684 0.01059033 0.00001148
0.39596269 0.23614748 -0.00000069
0.29289860 -0.40313562 0.00000000
-0.13282231 0.65586701 0.02789503
-0.45490207 -0.21252336 -0.00000008
-0.79028133 -0.71549312 -0.00000011
0.16810005 -0.06480928 0.00000000
0.10516074 0.46940257 0.00000337
-0.45465749 0.21738819 0.31554973
-0.08306197 0.38544434 0.00000000
0.70111893 -0.67126399 -0.00000032
0.27363946 0.12444837 0.00000600
0.00372464 0.50755011 0.00000433
0.70665175 -0.65241238 -0.00000037
-0.45673573 0.21314802 0.32088121
0.12376052 -0.33292789 0.00000000
0.05114808 -0.62186589 0.00000000
-0.18642839 -0.35478678 0.00000000
-0.65658711 -0.50322712 -0.00000025
0.38935089 0.12308979 0.00000383
-0.60842505 -0.29051176 -0.00000033
0.25412898 -0.44189663 0.00000000
-0.18332727 0.54859907 0.16787824
-0.57106620 0.13546562 0.23050226
-0.12752856 -0.37482257 0.00000000
-0.23691382 -0.19131167 0.00000000
-0.44396116 -0.66439866 0.00000000
0.38873162 -0.58717758 0.00000000
-0.22809074 0.06921392 0.00000000
0.38973350 -0.06554007 -0.00000013
0.07179783 0.22259570 0.00000758
-0.24717574 0.27590392 -0.00000006
-0.02967125 0.58400693 0.00000000
-0.44858569 -0.31190890 0.00000000
0.29170873 -0.32120844 0.00000000
-0.37107233 0.20338158 -0.00000026
0.56072032 -0.09690242 -0.00000081
-0.40013039 0.05723623 -0.00000020
-0.00734986 0.11824219 0.00000000
0.00400122 0.29230980 0.00000000
-0.33720078 0.28967074 -0.00000027
-0.63260856 0.16669701 0.00171036
0.27340163 0.46789775 -0.00000058
-0.38066226 -0.48629928 0.00000000
0.02365641 0.43904413 0.00000506
0.39650717 -0.09269559 -0.00000011
-0.22064174 0.07363623 0.00000000
-0.70571926 -0.68807632 -0.00000014
-0.02640500 -0.77695984 0.00000000
-0.59298741 -0.17227815 -0.00000041
0.00008597 0.04259007 0.00001136
-0.01950487 -0.00816331 0.00000000
0.21680625 0.01089612 0.00000857
0.54069580 0.15642911 0.00000037
-0.06186447 -0.76325978 0.00000000
-0.29168281 0.03221348 0.00000000
-0.60689260 -0.64872418 -0.00000001
-0.37756190 0.28244632 0.34523475
-0.18530196 -0.48186900 0.00000000
-0.53866539 0.21007076 0.12642144
0.58487559 -0.20207857 -0.00000072
0.74169839 -0.35952144 -0.00000110
0.09632324 -0.77805338 0.00000000
0.00145263 -0.53087403 0.00000000
0.77790995 -0.28075782 -0.00000130
-0.09590288 -0.64424331 0.00000000
-0.21903519 0.49929375 0.20141063
-0.48979313 0.25855521 0.12737819
-0.36293960 0.35612877 0.19958715
-0.74436575 -0.56053982 -0.00000030
-0.53193201 0.18369640 0.20806924
-0.44048931 -0.36211013 0.00000000
0.70648301 -0.29997410 -0.00000107
-0.25084330 -0.62493263 0.00000000
0.33148363 0.18330159 0.00000394
-0.64436226 -0.05412110 -0.00000062
-0.45217280 -0.15998162 -0.00000012
0.60527419 -0.10414421 -0.00000098
0.74174587 -0.70729202 -0.00000023
-0.01645592 -0.51731626 0.00000000
-0.72016129 -0.65522173 -0.00000018
0.53141588 0.01409212 0.00000292
-0.67185315 -0.00717211 -0.00000072
0.41418344 0.17938417 -0.00000067
-0.14357655 -0.65127213 0.00000000
0.07354864 0.58517202 0.00000211
-0.33045387 -0.02259170 0.00000000
0.23369830 0.31523653 0.00000361
-0.41644148 0.14587363 -0.00000031
-0.00472353 0.67352857 0.00000000
0.56410152 -0.06281613 -0.00000088
0.19379446 0.17480670 0.00000000
0.26408821 0.40246503 0.00000157
-0.49295169 -0.74282165 0.00000000
0.11175957 -0.14242232 0.00000000
-0.33458801 -0.68677863 0.00000000
0.41581998 -0.40968028 0.00000000
0.11831022 0.08626317 0.00000892
0.01795811 -0.50939294 0.00000000
0.09438372 0.25877063 0.00000000
-0.56603520 0.22238497 0.02855558
0.34558933 0.43751588 -0.00000058
0.62363473 -0.61584496 -0.00000016
0.07323165 0.10521238 0.00000000
-0.13481371 -0.26711285 0.00000000
0.72519789 -0.74803008 -0.00000013
0.76867200 -0.15222906 -0.00000160
0.01217454 0.33499147 0.00000000
0.30190152 -0.45726571 0.00000000
-0.25855880 -0.40676661 0.00000000
0.39705022 0.08739650 -0.00000043
0.00302935 -0.42476738 0.00000000
0.14787552 -0.78281426 0.00000000
0.31191376 0.44913219 -0.00000071
0.34157177 -0.27157422 0.00000000
0.07453844 -0.18938437 0.00000000
-0.74417643 0.04323304 0.03104679
0.33563037 0.44174462 -0.00000080
-0.12371359 -0.14603241 0.00000000
-0.62597317 0.03993628 -0.00000066
-0.17736565 0.16575492 0.00000000
-0.68236397 -0.08988636 -0.00000067
0.51803521 0.05731684 0.00000246
-0.40718135 0.37377602 0.04696093
0.64790356 0.03363831 -0.00000141
-0.35425917 -0.55611491 0.00000000
-0.20519113 0.04747159 0.00000000
0.37170478 -0.70517843 0.00000000
-0.19751055 -0.09564107 0.00000000
0.51392908 -0.40343497 -0.00000007
0.64573598 -0.07541146 -0.00000121
0.19250441 -0.79413569 0.00000000
0.30825544 0.25767763 0.00000314
0.04464912 0.40327525 0.00000000
0.40139774 -0.51085769 0.00000000
0.68362769 -0.03949163 -0.00000143
0.06903329 0.03980755 0.00001036
-0.29109269 0.39700362 0.27596697
-0.18505837 0.21862022 0.00000000
-0.39953090 0.23253898 0.41413298
0.70066500 -0.69844589 -0.00000025
-0.74608186 -0.39025029 -0.00000051
0.66459157 -0.27848898 -0.00000093
0.33906935 -0.47397522 0.00000000
0.38679469 0.07751309 0.00000464
-0.50042346 0.26024096 0.09700515
0.25727277 -0.78999993 0.00000000
-0.18218488 0.57295356 0.11063524
-0.20902013 -0.25876854 0.00000000
-0.42962171 -0.18799966 -0.00000004
-0.51117308 0.28555588 0.00806548
0.53980701 0.02949873 0.00000250
0.57180543 -0.05271938 -0.00000093
-0.70578658 -0.04532448 -0.00000076
0.59391251 -0.51556227 -0.00000021
-0.34854615 -0.69293484 0.00000000
0.05650404 -0.00316426 0.00000000
-0.23642191 -0.77213708 0.00000000
-0.07061764 -0.67445498 0.00000000
-0.18310728 0.23748619 0.00000000
0.02947125 -0.62741246 0.00000000
0.54262715 0.03297855 -0.00000096
-0.50138733 0.18660602 0.27622091
0.40867445 -0.21877531 0.00000000
0.12036854 0.26572061 0.00000620
-0.69340000 -0.52860391 -0.00000031
-0.12806077 -0.49925800 0.00000000
0.43725084 -0.37210710 0.00000000
0.13758601 -0.01062162 0.00000000
-0.04276662 0.72805920 0.07194852
0.72268010 -0.69433344 -0.00000026
-0.23147897 -0.29921887 0.00000000
-0.26615291 -0.24122406 0.00000000
0.51955320 -0.72448310 0.00000000
-0.77902472 -0.73385673 -0.00000008
-0.52271025 0.16898307 0.26709617
0.20058645 0.41152468 -0.00000017
-0.03071209 -0.51657380 0.00000000
-0.03760727 -0.42826324 0.00000000
0.36814203 0.25276138 -0.00000060
0.14324529 -0.22526257 0.00000000
-0.13750894 -0.23837757 0.00000000
0.68476230 -0.47403918 -0.00000067
-0.74158104 -0.22269351 -0.00000068
-0.25979009 0.35720045 0.45131928
0.64231175 -0.60966402 -0.00000025
-0.26167398 0.38945863 0.36712227
0.51006851 0.13046744 0.00000139
-0.00448790 -0.02092181 0.00000000
0.17597849 -0.67996011 0.00000000
0.10173203 -0.64180707 0.00000000
0.07167834 -0.35959618 0.00000000
0.57294337 -0.45492294 -0.00000023
-0.29871109 -0.62535883 0.00000000
-0.00135716 -0.54436349 0.00000000
0.61621331 -0.78778885 0.00000000
-0.26518585 0.34966731 -0.00000017
-0.78280299 -0.43768849 -0.00000045
0.12730410 -0.21638018 0.00000000
0.69533707 -0.70354781 -0.00000024
0.06881254 0.20166297 0.00000000
0.25999650 -0.69087316 0.00000000
0.17687886 0.27504790 0.00000521
-0.64130223 0.14104405 0.04353399
-0.11828791 0.59897260 0.20404506
0.43020723 0.19205223 -0.00000076
-0.21105119 0.46757928 0.29931015
0.02358661 0.36059073 0.00000624
-0.14620371 -0.01572236 0.00000000
0.02243646 0.57867736 0.00000000
0.11542077 0.44999307 0.00000351
0.66686536 0.05364828 -0.00000034
0.10555563 0.32205416 0.00000000
-0.08513298 -0.12826124 0.00000000
-0.08720485 0.66859333 0.10900803
0.24995051 -0.71583281 0.00000000
-0.53070012 0.26067453 -0.00000066
-0.22097872 0.45529586 0.30512001
-0.20918706 -0.22451091 0.00000000
-0.53672534 -0.21852468 -0.00000025
0.42187520 0.03947546 0.00000460
-0.53007306 -0.47872046 -0.00000000
-0.02972778 0.07450519 0.00000000
0.18525807 -0.56430780 0.00000000
0.05810803 0.07274876 0.00000000
-0.74500487 -0.27046996 -0.00000064
0.02294560 0.72852249 0.00000073
-0.35579554 0.30208557 -0.00000032
0.52339559 -0.68546611 0.00000000
-0.07622631 0.69384016 0.07382124
0.39184611 -0.78814143 0.00000000
0.48535112 -0.73629705 0.00000000
0.47179716 0.13746229 -0.00000084
-0.49613294 0.27010419 -0.00000059
-0.42335655 0.32326651 -0.00000048
0.15711658 0.29532419 0.00000520
-0.54310241 0.21840667 0.09492180
-0.04698464 -0.51468448 0.00000000
-0.64448972 -0.54597426 -0.00000019
-0.14436128 0.63586578 0.04876392
-0.43623054 -0.61115158 0.00000000
0.33767968 -0.07777424 0.00000000
-0.00046856 0.34408786 0.00000000
0.68642325 -0.12066043 -0.00000130
0.40348018 -0.56822717 0.00000000
-0.50053251 -0.10432374 -0.00000027
0.43105095 -0.19019137 -0.00000009
-0.76028142 -0.76411165 -0.00000004
-0.00016922 0.57285161 0.00000000
-0.77491703 -0.45042582 -0.00000044
0.44185146 0.07665151 -0.00000061
-0.23055543 0.56106089 0.02067598
0.49196526 0.06235575 0.00000287
-0.02805674 -0.56455481 0.00000000
0.54091218 -0.54703819 0.00000000
-0.06997844 0.72673574 -0.00000008
-0.43221960 0.27664050 0.22476148
-0.42726379 -0.70636550 0.00000000
-0.20807038 -0.02419658 0.00000000
0.20910481 0.56642780 -0.00000011
-0.40119653 0.29355961 0.25954373
-0.33835728 0.13277552 -0.00000013
-0.31852071 -0.10037574 0.00000000
-0.53098133 0.07616906 -0.00000049
-0.03972017 0.04588903 0.00000000
-0.27440231 0.49638874 0.07203334
-0.06828693 -0.03400871 0.00000000
-0.16641433 -0.42951616 0.00000000
-0.39100308 0.17068204 -0.00000028
-0.46252289 0.25228190 0.21010091
-0.02586462 -0.11223953 0.00000000
0.00791522 0.69094887 0.00000152
0.47478246 0.25149105 0.00000004
-0.04931346 -0.61789503 0.00000000
0.20041554 -0.79169879 0.00000000
0.76407319 -0.75810208 -0.00000010
-0.48544634 -0.36672513 -0.00000000
0.66358324 0.07663653 -0.00000066
-0.53383149 -0.59939800 0.00000000
-0.71337906 -0.15713783 -0.00000068
0.37459898 -0.61067582 0.00000000
0.19691655 0.52629238 -0.00000036
-0.36682760 0.03555490 -0.00000011
-0.51116706 -0.40890359 -0.00000002
-0.32213967 -0.49664296 0.00000000
0.06270329 -0.11158067 0.00000000
0.57940675 -0.00816064 -0.00000104
-0.44381776 -0.14122636 -0.00000012
0.34278313 0.39206128 -0.00000074
-0.43909243 -0.30329359 0.00000000
-0.48312037 -0.05212136 -0.00000028
-0.37982876 0.22798672 -0.00000030
-0.40197445 -0.31664198 0.00000000
0.58325147 -0.70346456 0.00000000
-0.33329721 0.38391618 -0.00000034
0.03707183 -0.28871595 0.00000000
-0.06210533 0.10585633 0.00000000
0.39770009 -0.19335530 0.00000000
0.21481719 -0.49319168 0.00000000
0.65652060 -0.14535424 -0.00000113
-0.27538371 -0.61187327 0.00000000
-0.29024001 0.41133097 0.24273736
0.40349855 -0.53585392 0.00000000
-0.16256934 0.55884335 -0.00000013
-0.41460084 0.09362368 -0.00000026
0.61038102 -0.37063583 -0.00000054
0.12703323 -0.54805272 0.00000000
0.72860741 -0.75993755 -0.00000010
-0.50931126 -0.73794027 0.00000000
-0.54413260 0.00452411 -0.00000046
-0.73789886 0.04084988 0.05240526
0.58399781 0.21010208 -0.00000136
0.31731440 0.44209596 -0.00000072
-0.37228401 0.37018106 0.14188793
-0.21583860 0.37577140 -0.00000009
0.58884516 -0.25815910 -0.00000064
0.23674239 -0.65052549 0.00000000
-0.19569016 0.21914068 0.00000000
-0.58797842 -0.57809112 -0.00000004
-0.20411955 0.37173637 -0.00000006
-0.05165951 0.17621084 0.00000000
-0.63363196 0.15943965 0.01708405
0.34935244 0.29630626 0.00000170
-0.21900781 -0.25288220 0.00000000
-0.52668614 0.24463496 0.07072428
-0.51024655 0.25687939 -0.00000061
-0.40266770 -0.75555902 0.00000000
-0.09219063 -0.26732949 0.00000000
0.60394675 -0.36182420 -0.00000052
-0.04224212 -0.75416858 0.00000000
0.02812272 -0.75156250 0.00000000
0.40944135 0.27275404 0.00000094
-0.01208029 0.37442763 0.00000000
-0.18040785 -0.24669747 0.00000000
-0.43360356 0.28684664 0.19617885
0.20157395 -0.52155387 0.00000000
0.15980659 0.24309743 0.00000594
0.44823050 0.01658065 -0.00000053
-0.19082710 0.60249001 0.01648192
-0.10687220 -0.31373944 0.00000000
0.02829652 0.34640746 0.00000638
-0.66597807 -0.03371202 -0.00000068
-0.77764637 -0.73392041 -0.00000008
0.16662288 0.59290424 -0.00000035
0.25413056 0.15377984 0.00000000
-0.33377677 0.12981781 -0.00000012
0.02514654 -0.40820535 0.00000000
0.33764301 0.01944998 0.00000655
-0.48941261 0.29074399 0.04893513
-0.17858566 0.44446985 -0.00000007
-0.08283573 -0.21337921 0.00000000
-0.11643995 -0.37756305 0.00000000
-0.22046244 -0.78719375 0.00000000
-0.68858284 0.07094665 -0.00000082
0.19648551 0.15260326 0.00000000
-0.00652969 0.50771172 0.00000000
-0.59996029 -0.05512396 -0.00000052
0.29239627 -0.76249305 0.00000000
-0.19060025 -0.23691980 0.00000000
0.74263106 -0.72313888 -0.00000019
-0.40168353 -0.23632035 0.00000000
0.18805461 0.38036121 0.00000340
-0.73394552 -0.33448062 -0.00000056
0.01883666 0.74141393 0.00000000
-0.10317640 -0.76470113 0.00000000
0.60034013 0.16041973 -0.00000085
-0.07348434 0.40990454 0.00000000
-0.42924512 -0.71178003 0.00000000
-0.16920277 0.45598141 -0.00000006
-0.16316706 -0.32675080 0.00000000
-0.20826312 0.13730757 0.00000000
-0.54354240 0.01067262 -0.00000046
0.26208778 0.51430199 -0.00000026
-0.28846806 -0.28099038 0.00000000
-0.44579211 -0.79948486 0.00000000
0.59272748 0.00073916 -0.00000112
0.49089604 0.24433558 -0.00000015
-0.64436147 0.02379418 -0.00000069
-0.75901257 -0.28053947 -0.00000065
-0.17199265 0.62185002 0.01518593
-0.41581403 0.25118641 0.32799154
-0.69647897 -0.39564313 -0.00000043
-0.59522421 0.19780090 0.01719901
0.31620072 0.26191178 0.00000292
-0.05295957 -0.48334906 0.00000000
-0.40257907 -0.65759691 0.00000000
0.32663351 0.39293618 -0.00000067
-0.24562844 0.41050520 0.35478926
-0.55782047 -0.38259855 -0.00000015
0.28024610 0.25988423 -0.00000024
-0.70639266 0.05858579 -0.00000085
0.49008063 -0.39965793 0.00000000
0.17350562 -0.04837244 0.00000000
-0.25651117 -0.09220295 0.00000000
0.26646607 0.11838326 0.00000000
0.31926076 0.08140858 -0.00000009
0.50303510 0.02944911 -0.00000078
-0.06517768 0.01196445 0.00000000
-0.52887318 -0.28383563 -0.00000017
0.03332798 -0.68546833 0.00000000
-0.38301489 -0.18060225 0.00000000
0.64841585 0.04868747 -0.00000144
0.31892748 0.11977562 -0.00000016
-0.37195803 -0.18647052 0.00000000
0.20950335 0.17281360 0.00000625
-0.30033090 -0.04450288 0.00000000
0.24906435 -0.52556739 0.00000000
0.04313249 0.56225569 0.00000292
0.17932767 -0.56131676 0.00000000
-0.65285654 -0.67092114 -0.00000009
-0.76155226 -0.14281592 -0.00000079
-0.50622041 -0.75327790 0.00000000
0.36026988 -0.13309245 0.00000000
0.22817933 0.49441699 0.00000072
0.44259117 -0.22237266 -0.00000008
-0.32209251 0.45081239 0.06681995
-0.32884416 0.33791419 -0.00000029
-0.45840788 0.33405160 0.01859496
0.28585183 0.33336951 0.00000231
-0.77630636 -0.70088719 -0.00000012
-0.67534816 -0.65601520 -0.00000015
0.25776100 0.52060692 -0.00000061
0.28478016 0.05172484 0.00000693
0.04860601 0.01386239 0.00000000
0.46668058 -0.42225053 0.00000000
-0.61802439 0.16528528 -0.00000076
0.53911538 -0.06691764 -0.00000077
0.15902637 0.26280136 0.00000000
0.29478518 -0.24869284 0.00000000
0.35323692 -0.12787380 0.00000000
0.49433614 -0.03578744 -0.00000063
-0.72747368 -0.32121782 -0.00000056
0.70737451 0.06527983 -0.00000172
-0.31399346 -0.11190422 0.00000000
0.28773783 -0.34734014 0.00000000
-0.72078395 -0.35413112 -0.00000052
-0.05819576 0.46020461 0.00000000
-0.08467743 0.69501991 0.05007071
0.49915040 -0.19391927 -0.00000037
-0.60746710 -0.62839986 -0.00000003
0.78261803 -0.64681103 -0.00000038
-0.23596530 0.38805020 0.43399513
-0.50953359 -0.49949208 0.00000000
-0.57002176 -0.01125863 -0.00000050
0.00583696 -0.73090253 0.00000000
0.05896590 -0.07039786 0.00000000
-0.57727913 -0.35818340 -0.00000021
0.34632100 -0.55484803 0.00000000
0.71717383 -0.70076983 -0.00000025
0.13336262 -0.03836386 0.00000000
-0.21404680 -0.22708556 0.00000000
-0.14097035 -0.68551411 0.00000000
0.61845832 -0.64233564 -0.00000009
-0.11675703 -0.72057715 0.00000000
0.21247079 0.14818790 0.00000000
-0.17443391 -0.72769858 0.00000000
0.21137427 -0.02400513 0.00000000
-0.33846800 -0.54337750 0.00000000
-0.79059374 -0.01689720 -0.00000096
-0.30191379 0.36869744 0.31908660
-0.26650508 0.44941217 -0.00000026
0.46383002 0.09976599 0.00000279
-0.25897758 -0.57939174 0.00000000
0.35362773 0.03314376 -0.00000015
-0.35527323 0.44408087 0.00159273
0.77024741 -0.64209643 -0.00000039
-0.11330112 0.30762037 0.00000000
-0.12401531 0.07498015 0.00000000
-0.62501380 -0.39416306 -0.00000028
-0.56116776 -0.47273504 -0.00000007
-0.38915760 0.25381190 -0.00000035
-0.40621491 -0.09199304 -0.00000008
0.26340282 -0.25496818 0.00000000
0.68637011 0.05374770 -0.00000072
-0.54572565 -0.59342028 0.00000000
-0.73296245 -0.31318699 -0.00000058
-0.36204957 -0.67266761 0.00000000
-0.44407012 -0.70343748 0.00000000
0.28984330 0.21026312 0.00000429
-0.10673879 0.27432412 0.00000000
0.42607167 0.13069725 0.00000300
0.45860475 -0.74501386 0.00000000
-0.38179120 -0.41338313 0.00000000
-0.22888194 -0.24033094 0.00000000
-0.22586581 0.53074741 0.10699794
0.66985574 -0.67499617 -0.00000025
0.22429478 -0.39745363 0.00000000
-0.77994918 0.01142432 0.02127072
-0.14964884 -0.32060929 0.00000000
-0.53721325 -0.63544644 0.00000000
-0.12733723 0.61597032 0.13981104
0.26097867 -0.43682019 0.00000000
-0.25657588 0.47162269 0.17707148
-0.20593725 0.58485670 0.02270421
-0.01651269 0.26283783 0.00000000
0.00050762 0.00947346 0.00000000
0.27701406 0.50529576 -0.00000066
0.45834869 -0.75151226 0.00000000
0.03792596 -0.46793757 0.00000000
0.23993845 0.02478010 0.00000801
-0.22350795 0.08535187 0.00000000
0.08303277 -0.16308150 0.00000000
0.05364422 0.31731439 0.00000643
0.08507544 0.27263950 0.00000000
-0.37800026 0.36723691 0.13505156
-0.37161686 0.37208277 0.13884338
-0.55702785 -0.16018451 -0.00000034
0.54500138 -0.63029744 0.00000000
-0.26390738 0.35700744 0.44164175
0.03437369 0.65114391 0.00000000
-0.74481763 -0.22265394 -0.00000069
0.06235376 0.07905923 0.00000987
-0.30361846 -0.32404933 0.00000000
0.15001789 0.13393758 0.00000773
0.70462606 -0.22894490 -0.00000119
-0.35199412 0.12690941 -0.00000016
-0.13747809 -0.60482823 0.00000000
-0.20500055 0.53640978 0.14449005
-0.68577926 -0.67778428 -0.00000015
-0.19118532 -0.03564169 0.00000000
-0.24763110 0.12804001 0.00000000
-0.57332271 -0.49274627 -0.00000008
-0.49229961 0.23439811 0.18077125
-0.18263977 -0.11398666 0.00000000
-0.42027330 -0.14277675 -0.00000006
-0.12182495 0.63159049 0.11488417
0.03194130 -0.25876705 0.00000000
-0.22948077 0.34469015 -0.00000009
0.35989710 -0.42040949 0.00000000
0.14754336 -0.00809759 0.00000000
0.33003169 0.34988734 0.00000118
0.30311867 -0.03794242 0.00000000
0.12768847 -0.59879267 0.00000000
-0.60641029 -0.27476383 -0.00000034
0.25345818 0.23921233 -0.00000009
-0.04585629 -0.73680214 0.00000000
-0.14677195 0.63827977 0.03686568
-0.18697649 0.49376745 0.29409809
0.15713642 0.25442565 0.00000581
-0.32654680 0.21932120 -0.00000018
0.34770107 0.21776608 0.00000305
-0.43820154 -0.36586817 0.00000000
0.15361831 0.11053829 0.00000802
0.46232041 0.12823826 -0.00000079
-0.17389403 0.50249673 0.30483332
0.23962399 -0.40042180 0.00000000
-0.02300295 0.32797060 0.00000000
-0.12410858 -0.48303936 0.00000000
-0.40522079 -0.30413722 0.00000000
0.75140866 -0.60160556 -0.00000050
0.23611722 0.46897048 -0.00000042
-0.69795999 -0.24752969 -0.00000056
0.20211959 0.22473204 0.00000558
-0.21427484 0.46314246 0.30230196
-0.25264199 0.45832126 0.21957513
0.11030923 -0.45146125 0.00000000
0.36889374 0.28075219 -0.00000066
-0.05630488 0.43617242 0.00000000
-0.10995390 0.61630251 -0.00000007
-0.27636617 0.31948647 -0.00000017
0.51825079 0.15982961 -0.00000108
-0.63056244 -0.43928066 -0.00000025
0.68814005 -0.33934714 -0.00000092
-0.01959904 -0.46509858 0.00000000
0.76376908 -0.40987759 -0.00000098
-0.26703109 0.49137230 0.10258285
-0.64434873 0.11947711 0.08920763
-0.54337852 -0.03121922 -0.00000042
-0.06431879 -0.35786178 0.00000000
0.13101276 -0.44479703 0.00000000
0.27771596 0.13423523 0.00000579
0.13882730 -0.61568291 0.00000000
-0.15746974 0.06218741 0.00000000
0.20960101 -0.65740179 0.00000000
-0.00272812 0.75572906 0.00000000
0.61636973 -0.12189298 -0.00000100
-0.79306361 -0.77533362 -0.00000003
0.19136598 0.52499573 0.00000092
0.41369608 0.03979147 0.00000475
0.08827470 -0.03553173 0.00000000
0.05052828 -0.52012652 0.00000000
-0.53429641 0.16642848 0.24482315
-0.38239872 -0.50978763 0.00000000
-0.62188034 0.16077831 0.04276378
-0.48608418 0.20626983 0.26546711
-0.44119499 -0.10560428 -0.00000014
-0.05928662 -0.64407307 0.00000000
0.21592265 0.41730642 -0.00000024
-0.72485067 -0.50561884 -0.00000037
0.27473459 0.03228566 0.00000000
-0.09058671 -0.39170029 0.00000000
0.50882531 -0.05889205 -0.00000065
-0.32164442 -0.03863724 0.00000000
0.41904342 -0.68659489 0.00000000
0.30816944 0.34862852 -0.00000052
0.20813647 -0.46077192 0.00000000
0.20214979 0.08661824 0.00000765
0.48070548 -0.03387882 -0.00000058
0.11620001 -0.03976257 0.00000000
-0.56500028 -0.26938504 -0.00000026
0.60633950 -0.00599398 -0.00000116
-0.59310678 -0.09828267 -0.00000047
-0.25299622 0.13833194 0.00000000
-0.50751661 -0.49950818 0.00000000
0.59880840 0.07233154 -0.00000127
-0.04413973 0.40161463 0.00000000
0.47620693 0.10094158 0.00000253
-0.38450675 0.33898063 0.18868915
0.52581563 0.08575839 0.00000183
-0.34462053 0.38178446 0.18149428
0.47954006 0.19180605 0.00000095
0.70479384 -0.24527641 -0.00000116
0.02539809 0.30671367 0.00000000
-0.05377278 0.71655337 0.07318076
0.39650928 0.31175168 0.00000054
0.01249211 -0.26076875 0.00000000
0.62436060 -0.69624320 -0.00000002
-0.43339703 -0.37857002 0.00000000
0.59283872 -0.08540900 -0.00000096
-0.62273284 -0.55902318 -0.00000013
0.49286145 0.05687175 0.00000295
0.67822100 -0.06032230 -0.00000137
0.01034058 0.03613123 0.00000000
0.57178049 -0.62653532 0.00000000
0.44629181 -0.45017100 0.00000000
-0.07933133 -0.08943736 0.00000000
-0.41245654 0.38394443 0.00887510
0.68057591 -0.31202905 -0.00000094
0.10998702 0.00284322 0.00000000
-0.64807883 -0.27730362 -0.00000043
-0.26418415 -0.08403796 0.00000000
-0.06421351 -0.67150134 0.00000000
-0.65342605 0.09204261 0.13447864
0.57723496 0.17882204 -0.00000137
-0.40378431 -0.45221715 0.00000000
0.17172158 0.18634678 0.00000000
-0.54465413 0.22142517 0.08365106
-0.24357274 0.50829948 0.11868970
-0.38075599 0.39194397 0.06732492
-0.74020157 -0.21454555 -0.00000068
-0.16761123 0.60913925 0.05733742
0.73808102 -0.70281236 -0.00000024
0.15273157 -0.10335185 0.00000000
0.08795818 0.63902316 -0.00000009
-0.43643663 0.21336002 0.37041751
0.17454862 -0.69668740 0.00000000
-0.45841943 -0.21918583 -0.00000008
0.52829521 -0.43078145 -0.00000008
0.10768906 0.38967765 0.00000453
-0.03398353 0.44769064 0.00000000
0.58906544 -0.54631691 -0.00000013
0.45325968 -0.48547777 0.00000000
-0.35103913 -0.68363980 0.00000000
-0.50097697 0.20588964 0.22967713
0.69060872 0.05852632 -0.00000164
0.53859077 0.22002450 -0.00000127
-0.21428613 0.32209992 -0.00000003
0.21281692 0.24561487 0.00000000
0.44994221 0.09948071 0.00000306
-0.67438510 -0.65456818 -0.00000015
0.67383107 0.01370292 0.00000019
-0.05058092 -0.29186833 0.00000000
0.01087539 0.21922570 0.00000000
-0.79820298 -0.77261406 -0.00000003
0.35505646 0.34680178 -0.00000071
0.37896771 -0.01209151 -0.00000018
0.78268833 -0.61858375 -0.00000045
0.44346017 -0.32595470 0.00000000
0.50464138 -0.66493133 0.00000000
-0.34999077 -0.29409340 0.00000000
0.43626520 0.31054574 -0.00000020
-0.23260805 0.42944345 0.34019528
0.07252856 -0.27359045 0.00000000
-0.05487982 0.29699683 0.00000000
-0.77815197 -0.00197106 -0.00000095
-0.15031290 0.64382306 0.01446283
-0.19906906 0.46296170 0.34024633
0.12587436 0.27861618 0.00000000
0.61336507 0.09883793 -0.00000138
-0.17628664 0.54267595 0.19984783
0.26110499 -0.00366329 0.00000000
-0.10493100 0.46224639 0.00000000
-0.25113440 0.42257603 0.31144353
-0.29344281 -0.09000555 0.00000000
0.52662692 0.03214394 -0.00000089
-0.31997623 -0.34751174 0.00000000
-0.70076921 -0.63257772 -0.00000021
-0.75259126 -0.79208770 -0.00000001
-0.54368960 0.06518984 -0.00000051
-0.70867804 -0.41745093 -0.00000044
0.19052637 -0.08422112 0.00000000
0.33383379 0.04719034 -0.00000009
-0.30905805 -0.78481068 0.00000000
-0.12334646 0.20719520 0.00000000
0.15830959 0.63717544 -0.00000032
0.25538966 -0.25625648 0.00000000
-0.48401014 0.00342642 -0.00000033
-0.10204450 -0.66825427 0.00000000
-0.00233954 -0.14915291 0.00000000
0.47952832 -0.36178009 0.00000000
-0.56522472 -0.16836631 -0.00000035
-0.30063023 -0.35731749 0.00000000
-0.36265797 0.24922767 0.46390879
0.48972976 -0.21310578 -0.00000030
-0.18474863 0.55896448 0.13881112
-0.16338495 -0.69742546 0.00000000
0.70353743 -0.16394261 -0.00000130
0.09274586 0.03847992 0.00000000
-0.07936863 0.30440177 0.00000000
-0.37343293 -0.40040436 0.00000000
0.52727460 -0.78932527 0.00000000
0.00565991 0.19237666 0.00000903
0.20127651 -0.61132893 0.00000000
-0.54171809 -0.51819583 0.00000000
-0.09192539 0.64858101 0.14671876
-0.59767301 -0.35977033 -0.00000025
0.47651280 -0.52510341 0.00000000
0.70936777 0.01404393 -0.00000049
-0.35734620 0.43826484 0.01082356
-0.09599590 0.64999146 0.13320230
0.62366748 -0.68826017 -0.00000003
0.10978842 -0.15566037 0.00000000
0.16891963 -0.20738070 0.00000000
0.79130640 -0.29948889 -0.00000125
-0.58128641 0.16443935 0.13384513
-0.22123152 -0.14992344 0.00000000
-0.28647488 -0.35466689 0.00000000
-0.20815249 0.48913077 -0.00000017
-0.46251085 0.30071646 -0.00000055
0.66815710 0.10496177 -0.00000162
-0.00860428 0.68815035 0.00000000
0.36222898 -0.75938227 0.00000000
0.02519224 0.64927286 0.00000188
0.08678548 0.61678246 0.00000139
-0.40077509 -0.18542151 0.00000000
-0.26691292 0.43122447 0.25120477
0.72167696 -0.23070562 -0.00000126
-0.08780580 0.65657862 0.13715527
0.10902109 -0.66002319 0.00000000
-0.32518801 0.41546323 0.14636141
-0.69197497 -0.19817898 -0.00000059
0.56324463 -0.16273853 -0.00000070
-0.16296473 0.52022986 0.28805449
-0.13790423 0.39831950 0.00000000
-0.10841098 0.01242171 0.00000000
0.30364412 0.46555216 -0.00000024
0.22167408 -0.78539050 0.00000000
0.52491403 0.08320619 -0.00000097
-0.11996131 -0.55917731 0.00000000
0.01393120 0.50504512 0.00000000
0.38050793 -0.49087198 0.00000000
0.71971348 -0.50769454 -0.00000073
-0.19310728 0.35362234 -0.00000002
-0.51976974 -0.29399123 -0.00000014
-0.48562838 -0.43270949 0.00000000
-0.42489312 0.31441596 0.14967061
0.01965810 -0.47635276 0.00000000
-0.41709328 -0.73751731 0.00000000
0.70271558 -0.04396018 -0.00000151
-0.18744934 0.55535573 0.14105043
-0.15925466 -0.61868153 0.00000000
-0.19632692 0.52301257 -0.00000017
0.22030709 0.41933863 0.00000213
0.05733525 -0.49975004 0.00000000
-0.46654552 -0.08676753 -0.00000021
-0.32012852 0.40116477 0.19410053
-0.74372362 -0.01624430 -0.00000087
-0.26440140 0.51669656 -0.00000031
0.52358633 0.12406015 0.00000124
0.74927573 -0.10919181 -0.00000159
-0.66099338 -0.03513537 -0.00000067
0.22230118 0.28360761 -0.00000004
-0.47020355 -0.61069829 0.00000000
-0.66965780 -0.40799427 -0.00000036
-0.76272133 -0.22696047 -0.00000072
0.41643796 -0.06476862 -0.00000025
-0.74222676 0.03894688 -0.00000091
0.27176649 -0.12042844 0.00000000
0.69395901 -0.65356106 -0.00000037
0.34111109 -0.37564543 0.00000000
0.37830364 0.07114270 -0.00000033
-0.55506651 0.15608654 0.21910586
-0.18893573 0.31408007 0.00000000
0.72230664 -0.12093207 -0.00000145
-0.47372305 0.10150203 -0.00000039
0.19727310 0.04258213 0.00000838
-0.17763099 -0.77529457 0.00000000
-0.05637271 0.69221283 -0.00000003
0.51605774 -0.47680331 0.00000000
0.34516135 0.11041012 -0.00000025
-0.07898994 0.11275661 0.00000000
0.15728550 -0.54750215 0.00000000
0.13568510 0.39461908 0.00000403
-0.01804133 0.34320445 0.00000000
-0.45868246 0.14877265 -0.00000040
-0.07785703 0.28590832 0.00000000
0.04382457 0.46478991 0.00000000
0.32944414 0.37623101 0.00000075
0.21493710 -0.76111420 0.00000000
0.24988185 0.18300309 0.00000548
-0.71533843 -0.64876834 -0.00000019
0.21260292 -0.57470689 0.00000000
-0.75097385 -0.79877068 -0.00000000
0.70697682 -0.13902137 -0.00000136
0.47548180 -0.59643582 0.00000000
0.32065523 -0.28913873 0.00000000
0.51651552 -0.04745393 -0.00000071
0.67856171 -0.28117257 -0.00000098
-0.27217562 0.32096696 0.51013032
-0.11992834 0.61436673 0.16203653
-0.60402485 -0.08114308 -0.00000051
-0.33586058 -0.01748383 0.00000000
-0.44470363 -0.05657368 -0.00000019
-0.02612517 -0.28430616 0.00000000
0.10180126 -0.55374568 0.00000000
0.28484246 0.21016044 0.00000438
-0.44967095 0.33840300 0.02941026
-0.25686611 0.46302822 0.19755041
0.21145271 0.28776637 0.00000449
0.33618483 0.00181956 0.00000688
0.45497753 -0.61849369 0.00000000
0.17300144 0.44879038 0.00000254
-0.59707919 0.16985399 0.08154491
0.24471129 0.16058648 0.00000000
0.47776970 -0.57623218 0.00000000
-0.78506639 -0.56099196 -0.00000030
0.12872270 0.65229443 -0.00000000
-0.62337201 0.11059227 -0.00000072
-0.55859577 0.09460506 -0.00000057
-0.37807593 -0.76992905 0.00000000
0.01982264 0.71223131 0.00000102
0.52950077 -0.60798069 0.00000000
-0.24564785 0.45321095 0.24942563
-0.23503427 0.00813004 0.00000000
0.17604419 -0.03119682 0.00000000
0.52733759 -0.44287612 -0.00000005
-0.37630118 -0.49534210 0.00000000
-0.39946173 -0.72709608 0.00000000
0.06164144 0.38660284 0.00000000
-0.08432655 -0.29619045 0.00000000
0.01055479 0.51042088 0.00000418
-0.40817871 -0.66966624 0.00000000
-0.71687023 -0.31773442 -0.00000054
0.10225901 0.69392249 -0.00000019
0.06454660 -0.21081835 0.00000000
0.25962508 0.52342815 -0.00000062
-0.37541208 0.34397784 0.19879404
0.57907123 0.12044192 0.00000023
0.63749531 -0.03238240 -0.00000125
0.72975023 -0.69829574 -0.00000025
-0.54633946 -0.49404352 -0.00000002
-0.39207950 -0.36814969 0.00000000
0.13654773 -0.40665757 0.00000000
-0.72571459 -0.11336033 -0.00000074
0.32889242 -0.72158415 0.00000000
-0.57325519 -0.52881062 -0.00000005
-0.10683005 -0.32119781 0.00000000
0.56728889 -0.72010762 0.00000000
0.61132348 0.16434771 -0.00000112
0.25567972 0.10865256 0.00000651
-0.47351967 0.04694964 -0.00000034
0.04433413 -0.60999011 0.00000000
0.38110018 0.07412510 0.00000481
0.50466205 -0.72591546 0.00000000
0.45578318 0.31224155 -0.00000108
0.72692207 0.05102439 -0.00000145
-0.65109469 0.12397789 0.06147175
-0.46873071 0.30695865 0.05995204
0.44017216 0.12196829 -0.00000068
-0.06724515 -0.11300558 0.00000000
0.41858414 0.20869174 -0.00000074
-0.38690565 -0.37922851 0.00000000
0.78739529 -0.17023459 -0.00000157
0.37375473 -0.34142687 0.00000000
-0.52460086 -0.62114905 0.00000000
-0.00419795 0.10790984 0.00000000
0.21884708 0.39157113 0.00000262
0.45537194 0.21924668 -0.00000092
0.07395609 -0.69815119 0.00000000
-0.44874888 0.26086162 0.22291076
0.11021198 -0.41507460 0.00000000
0.39861847 0.07016478 0.00000454
-0.05986017 0.57848154 0.00000000
-0.64801061 0.14591730 0.01497222
0.17895214 -0.21484181 0.00000000
-0.35370962 0.41714564 0.07187439
0.57046949 -0.78839452 0.00000000
-0.78321202 -0.65815005 -0.00000018
-0.36977453 -0.67715153 0.00000000
-0.35807766 0.39806374 0.10816051
-0.48093836 0.27145004 -0.00000056
-0.45100481 0.33335278 0.03857524
-0.33373305 0.31509575 0.37280392
0.32328587 0.02169987 0.00000679
-0.30658070 0.03963331 0.00000000
0.44212506 0.17961650 0.00000187
-0.15558710 0.05592970 0.00000000
-0.02488348 -0.37654651 0.00000000
-0.69030395 0.08984977 0.04894074
0.41345160 0.07959963 0.00000409
0.35911631 0.18400518 0.00000339
-0.34094408 0.32227707 0.33731126
0.78728541 -0.00483766 -0.00000194
-0.25914211 0.47919067 0.15207951
-0.45079937 -0.71276799 0.00000000
0.52211917 -0.42486191 -0.00000006
-0.15229478 -0.57461219 0.00000000
0.60978565 -0.54823292 -0.00000022
-0.49049073 -0.47063557 0.00000000
0.26383151 -0.43361166 0.00000000
0.04641588 0.05370577 0.00000000
-0.31049529 -0.62682330 0.00000000
0.16284439 -0.68167669 0.00000000
0.19692495 0.29699067 0.00000457
0.05027964 0.64347382 0.00000159
-0.54681275 -0.64391019 0.00000000
0.12467667 0.33863758 0.00000504
0.19621814 -0.00577724 0.00000000
0.17170642 0.43406206 -0.00000009
0.51610212 -0.05919528 -0.00000068
-0.39302669 -0.72135291 0.00000000
-0.60985872 -0.11942680 -0.00000049
-0.55108524 0.20030183 0.11988387
-0.15408424 -0.49153469 0.00000000
-0.32257581 0.35379589 0.30488089
-0.18953684 -0.13127744 0.00000000
-0.01137025 -0.45481220 0.00000000
0.23662602 -0.63067855 0.00000000
0.24348803 0.46017694 0.00000100
0.43092360 -0.45600391 0.00000000
0.01296537 0.60864045 0.00000000
-0.37124373 0.02970978 -0.00000011
-0.33374121 0.38472130 0.20108148
-0.30104514 -0.13562735 0.00000000
-0.52153771 -0.23911820 -0.00000019
-0.25805685 0.05966805 0.00000000
-0.29977205 -0.30162277 0.00000000
-0.20547445 -0.58304970 0.00000000
0.02081386 -0.34780038 0.00000000
-0.03479403 -0.18324052 0.00000000
-0.41559085 0.31275469 0.17670812
0.73491685 -0.71247144 -0.00000022
-0.37709329 0.34290768 0.19728713
0.27663580 0.03442086 0.00000000
0.76079085 -0.61929337 -0.00000045
-0.23226115 0.48673434 0.19976693
0.51108659 -0.55978422 0.00000000
0.59197078 0.01420865 -0.00000114
-0.26335395 -0.24200115 0.00000000
0.38725888 0.24113243 0.00000190
0.25260549 0.09770615 0.00000672
-0.77363794 -0.30795017 -0.00000062
-0.51105892 0.27339529 0.03833654
0.72899599 -0.36837216 -0.00000105
-0.34855627 0.26136177 -0.00000027
0.63634209 -0.28546913 -0.00000080
-0.29605683 0.28796598 0.53262048
-0.12591324 0.47513754 0.00000000
-0.39944162 -0.23017248 0.00000000
-0.47651749 0.15600333 -0.00000045
-0.15794515 -0.40206164 0.00000000
-0.27387293 0.14278317 -0.00000000
-0.35831206 0.38777635 -0.00000040
-0.27614495 0.34642328 0.43756433
0.29813692 -0.17137998 0.00000000
-0.68276562 0.10796502 0.02285682
-0.14922387 0.46077875 -0.00000002
-0.12993223 -0.42574645 0.00000000
0.61713277 0.17484790 -0.00000141
-0.26691421 -0.20989016 0.00000000
-0.34440818 -0.75807277 0.00000000
0.55799128 -0.25982440 -0.00000051
0.57887342 0.01049745 0.00000207
-0.21485635 0.46402711 0.29868629
0.79025235 -0.65704152 -0.00000036
-0.75248488 -0.51711696 -0.00000035
0.19701125 0.34803930 0.00000377
-0.52596793 -0.65032223 0.00000000
0.00298610 0.64330816 0.00000000
-0.29632136 -0.46600708 0.00000000
0.79255740 -0.61333109 -0.00000047
