ply
format ascii 1.0
element vertex 1373
property float x
property float y
property float z
end_header
0.39063186 -0.74616066 -0.00000003
-0.46251545 0.75773736 -0.00000042
-0.39957684 0.54642716 -0.00000050
0.15948661 0.51170585 0.11658102
0.21362980 -0.23511131 -0.00000035
0.10429239 0.10334793 -0.00000056
-0.30808474 -0.44325756 -0.00000022
-0.08394500 0.73579200 -0.00000090
0.14034883 0.28822196 0.33617366
0.40164251 0.34793103 0.04563888
0.34147585 -0.16711424 -0.00000040
-0.43614233 -0.16191326 -0.00000036
-0.41446889 -0.33213846 -0.00000029
-0.10685150 -0.78155308 -0.00000001
-0.30766536 -0.44080075 -0.00000022
0.28235462 -0.28298283 -0.00000032
-0.76864759 0.70389562 -0.00000004
0.36903899 -0.73313226 -0.00000004
0.08467881 0.30913685 -0.00000069
0.53482441 0.09048992 0.15810537
0.59390133 -0.56978342 -0.00000017
0.48837837 -0.40649382 -0.00000025
0.30718171 0.06333814 -0.00000054
0.41606936 0.32506790 -0.00000094
0.24901761 0.31521151 -0.00000075
-0.58187362 -0.20852401 -0.00000019
-0.20084737 -0.33220628 -0.00000029
0.42064664 -0.19167652 -0.00000039
0.15340602 -0.46601649 -0.00000021
-0.67423466 -0.53897146 -0.00000004
0.56407342 0.21741834 0.01674984
-0.66725071 0.60556790 -0.00000017
-0.62401055 0.15272886 -0.00000022
-0.59519781 -0.39089590 -0.00000015
-0.61311586 -0.51928633 -0.00000010
0.66431186 -0.53443192 -0.00000029
0.27015172 0.33291853 0.17823823
-0.52887808 0.46115036 -0.00000034
0.25226328 0.21611550 -0.00000065
0.14172438 0.40696799 0.22745365
-0.37832766 0.53336965 -0.00000053
0.23692889 -0.74411571 -0.00000003
0.52485306 0.09849615 -0.00000081
0.74297563 -0.26533551 -0.00000066
-0.74421188 -0.24512221 -0.00000001
0.01802603 0.46480472 -0.00000079
0.66669531 -0.56204057 -0.00000026
0.05506404 -0.44062144 -0.00000022
-0.46865125 -0.08797014 -0.00000034
-0.40431833 0.79130276 -0.00000049
-0.12159929 -0.05213121 -0.00000047
0.34315706 0.16707308 0.26226688
0.06654025 0.17352592 -0.00000061
0.22517721 0.50300896 0.06499651
0.47591726 0.24280811 0.07355943
-0.45215190 0.01056057 -0.00000037
-0.39835458 0.00723520 -0.00000043
0.14100051 0.14745009 -0.00000059
0.68262021 -0.42511943 -0.00000042
0.21287216 -0.72643495 -0.00000005
0.60365233 0.01341135 -0.00000080
0.18024475 -0.28545474 -0.00000032
-0.68828428 0.60948585 -0.00000014
0.27852069 0.14222143 -0.00000060
0.53735118 -0.63328651 -0.00000010
-0.30768921 -0.76454942 -0.00000002
0.16972892 0.35658273 -0.00000072
0.03446451 -0.43889787 -0.00000023
-0.09637245 -0.28265978 -0.00000032
0.38407184 0.13657449 -0.00000070
-0.51314261 -0.72181468 -0.00000005
0.25454834 0.24610153 -0.00000068
-0.70730235 -0.30282166 -0.00000004
0.26464315 0.24273883 0.26484404
-0.60723696 0.05163294 -0.00000022
0.09931043 0.13771779 -0.00000059
-0.48464446 -0.79596070 -0.00000000
0.68543090 0.00467880 -0.00000088
0.31762926 -0.06812101 -0.00000046
-0.60704786 -0.25184350 -0.00000016
0.24857807 -0.75364935 -0.00000003
0.79214415 -0.53755703 -0.00000033
-0.67896034 0.69696464 -0.00000015
0.10564679 0.35684344 0.30547344
0.45900218 -0.64030564 -0.00000010
-0.01818731 0.70286945 -0.00000094
-0.39782630 -0.66359636 -0.00000009
-0.70250735 -0.56143096 -0.00000000
-0.54738264 0.58557142 -0.00000032
-0.27731893 -0.64307473 -0.00000010
0.41521303 -0.29255653 -0.00000032
-0.00074038 0.27858341 -0.00000067
0.17785743 0.22277775 0.36145804
-0.78531104 0.77298972 -0.00000002
0.27115736 -0.08981337 -0.00000044
-0.64239439 0.20579666 -0.00000020
0.02305374 0.64027750 -0.00000090
-0.06065245 0.12476003 -0.00000058
-0.31966211 -0.31953422 -0.00000030
0.08550422 -0.02303369 -0.00000049
0.57646986 -0.69930350 -0.00000006
0.00494585 -0.69577321 -0.00000007
-0.71506983 0.71479136 -0.00000011
-0.13597243 0.53552643 -0.00000081
0.17344148 0.15337318 0.42827171
-0.05032311 -0.44903979 -0.00000022
-0.24081480 0.71399196 -0.00000070
0.07648132 0.67188645 0.04673021
-0.74690833 0.79379490 -0.00000007
-0.03234874 -0.14763985 -0.00000041
0.57625723 0.15191396 -0.00000092
0.09528229 0.68156522 0.02095333
-0.56614993 0.31735827 -0.00000029
0.09569364 0.53522696 0.15302985
0.62022533 -0.45966750 -0.00000032
0.70657090 -0.05646981 -0.00000084
0.40880277 0.25032290 0.12750287
0.24238912 0.23668930 0.29046092
0.77143142 -0.56736004 -0.00000029
0.35309913 -0.62638594 -0.00000011
0.25027425 -0.29318493 -0.00000032
0.13999947 0.31051604 -0.00000069
0.42397820 -0.33157324 -0.00000029
0.29180892 0.19280100 0.28545488
0.72818530 -0.19137136 -0.00000072
0.41863510 -0.26392442 -0.00000034
-0.11337837 -0.13274681 -0.00000042
-0.09059352 -0.71046912 -0.00000006
-0.29084296 -0.19644161 -0.00000038
-0.43867161 -0.77063863 -0.00000002
-0.57512329 0.74036525 -0.00000028
-0.55467561 0.28889347 -0.00000031
0.34274104 0.27091221 -0.00000080
0.54717909 -0.03528320 -0.00000069
0.10154362 0.45770334 0.21790052
-0.00571148 0.10122387 -0.00000056
-0.27319778 -0.07591295 -0.00000045
0.24274484 -0.52865002 -0.00000017
-0.36747315 -0.22873535 -0.00000036
-0.30063471 0.76055913 -0.00000062
0.11018843 0.18083095 -0.00000061
-0.67130930 -0.58328400 -0.00000003
-0.38574403 -0.27924406 -0.00000033
0.03585080 0.66020126 0.09407995
-0.27293126 0.18085558 -0.00000060
0.58543335 -0.59073412 -0.00000014
-0.41993182 0.58803413 -0.00000048
0.02570119 -0.59887937 -0.00000013
-0.51228390 -0.22166024 -0.00000027
-0.43928203 -0.14487597 -0.00000036
-0.77617558 -0.73703438 0.00000000
0.40342672 0.38226001 0.01295298
0.19558048 -0.47218517 -0.00000020
0.66443492 -0.78417437 -0.00000002
0.23027629 0.45236678 0.10621737
-0.75620795 -0.35123352 0.00000000
-0.55002576 -0.74758608 -0.00000003
0.68705120 -0.62485272 -0.00000021
0.29385671 0.18155465 0.29378036
0.13269393 -0.41971529 -0.00000024
-0.18040614 -0.45482555 -0.00000022
0.30126595 0.05216500 -0.00000053
0.33050592 0.38734401 -0.00000091
-0.14544348 -0.49756297 -0.00000019
0.48269156 -0.18654114 -0.00000046
-0.49738506 0.54281038 -0.00000038
0.54240372 -0.42704633 -0.00000027
0.71895989 -0.68757691 -0.00000014
-0.48700735 -0.51445275 -0.00000018
0.50299767 0.02558315 -0.00000071
0.11773055 0.43318506 0.22544122
-0.58792055 0.67575503 -0.00000027
0.18941448 -0.52786797 -0.00000017
-0.34749390 0.37196497 -0.00000055
-0.20184130 -0.42100732 -0.00000024
-0.02729895 -0.26151535 -0.00000034
-0.41202544 -0.09449347 -0.00000040
-0.59971905 0.67068200 -0.00000025
0.02555011 0.74241455 -0.00000097
-0.27707775 0.20667549 -0.00000060
0.16287520 0.61884206 0.01654573
-0.25972455 -0.49279048 -0.00000019
0.26741184 0.30515588 -0.00000076
0.00873472 0.65292507 -0.00000091
-0.10354751 -0.33651904 -0.00000029
-0.51247006 -0.10633563 -0.00000029
-0.00618388 0.15695431 -0.00000060
-0.38880274 -0.28875111 -0.00000032
0.43366316 0.22944478 0.12389853
-0.06089946 -0.60717681 -0.00000012
0.44821026 0.34822896 -0.00000100
0.20854354 -0.66698540 -0.00000008
0.14774462 0.60655674 0.04135975
-0.15616092 0.68916196 -0.00000080
-0.05153673 -0.45281342 -0.00000022
0.07487530 -0.53156624 -0.00000017
-0.51818951 0.60844116 -0.00000035
-0.16497938 0.05774689 -0.00000054
0.07744162 0.65433846 -0.00000093
0.17977462 -0.21069796 -0.00000037
0.24163294 0.51049025 0.04333121
-0.40715271 -0.22431296 -0.00000036
0.63697375 -0.77795573 -0.00000001
0.58088365 -0.12890921 -0.00000063
0.33290471 0.46300203 0.00370290
0.56359612 -0.51411438 -0.00000020
-0.07770656 -0.04389329 -0.00000047
-0.03932926 0.74958524 -0.00000095
-0.76666685 0.45222992 -0.00000004
0.70204598 -0.54376725 -0.00000032
-0.28663455 -0.21403868 -0.00000037
0.09607064 0.05381379 -0.00000053
-0.07458592 -0.26698173 -0.00000033
0.53866810 0.03777962 -0.00000076
-0.68332935 -0.13086206 -0.00000010
0.39241581 0.32374124 -0.00000091
0.16394386 0.56067129 0.06822861
-0.20794836 0.58913669 -0.00000074
-0.30015805 0.19473016 -0.00000057
-0.48987510 -0.35671682 -0.00000027
-0.64873355 -0.77487215 -0.00000002
0.60702855 -0.54300352 -0.00000021
0.41767577 -0.09498393 -0.00000049
-0.40857391 0.55014103 -0.00000049
0.39283156 -0.46850084 -0.00000021
0.16975095 -0.78955901 -0.00000001
-0.51354080 0.26060717 -0.00000035
0.44654705 0.32636552 0.02451483
0.10453217 0.45854151 -0.00000079
0.25719407 0.40728447 0.12265801
-0.13414225 -0.64755056 -0.00000010
-0.58372984 0.11675305 -0.00000025
0.22926951 0.40599326 0.14910098
-0.17449364 -0.41669616 -0.00000024
-0.74498266 0.01630791 -0.00000006
0.06504771 0.15388020 -0.00000060
0.13878517 -0.09452131 -0.00000044
0.14616832 0.48698854 -0.00000082
-0.71554544 0.09584970 -0.00000011
0.31683673 -0.74950275 -0.00000003
0.23353185 0.19671880 0.33465405
-0.10975223 0.04517361 -0.00000053
0.08049043 0.40906288 -0.00000076
-0.11931481 0.79781237 -0.00000085
-0.08910119 0.07379584 -0.00000055
-0.24247079 0.40109834 -0.00000067
0.57376311 -0.62589942 -0.00000011
-0.29106614 0.73451766 -0.00000064
-0.01186934 0.26803335 -0.00000067
0.39946841 -0.55285382 -0.00000015
0.72377616 -0.32236747 -0.00000057
0.33415573 -0.57818041 -0.00000014
-0.45182042 0.44487210 -0.00000044
-0.12795237 -0.32377918 -0.00000030
0.21635130 -0.33496694 -0.00000029
-0.45404585 -0.10060453 -0.00000035
0.45247043 0.30478456 0.03868643
0.08419305 -0.57147424 -0.00000014
0.34022906 0.15996343 0.27135177
0.65685606 0.00029229 -0.00000085
-0.26730666 0.41832035 -0.00000064
0.29999486 -0.74467616 -0.00000003
-0.10662837 0.26842705 -0.00000067
0.23881220 0.37103457 0.17210465
-0.07568100 0.73327471 -0.00000091
0.72181123 -0.63187276 -0.00000021
-0.17850026 -0.31177485 -0.00000031
0.38562065 -0.78363003 -0.00000001
-0.39535332 0.27298665 -0.00000048
0.00754663 0.04050254 -0.00000053
-0.62292232 0.11291883 -0.00000021
-0.13994703 -0.25145170 -0.00000034
-0.44379737 -0.41619653 -0.00000024
-0.50320250 -0.16148955 -0.00000029
0.48303769 0.18427317 -0.00000086
-0.48305966 0.57361103 -0.00000040
0.58251069 0.11905757 0.08908825
-0.77643161 0.43356991 -0.00000003
-0.72116775 0.46657508 -0.00000010
-0.37326742 -0.65297057 -0.00000009
-0.61616832 0.32265106 -0.00000023
-0.76946238 0.45391124 -0.00000004
-0.26481613 -0.59700178 -0.00000013
-0.67302029 -0.58683830 -0.00000003
-0.48155641 0.54125646 -0.00000040
-0.53851911 0.32359139 -0.00000033
-0.27000159 0.13545509 -0.00000058
-0.22348448 0.14352354 -0.00000059
-0.29232841 -0.77090068 -0.00000002
0.49780503 -0.55716884 -0.00000015
0.16223122 0.52730233 -0.00000088
-0.33947495 -0.61111279 -0.00000012
-0.38070685 -0.37355310 -0.00000027
-0.04793979 -0.14500684 -0.00000041
0.23776233 0.42342348 -0.00000085
0.45831603 0.11671736 0.20361443
-0.73720452 -0.00770953 -0.00000007
-0.52719708 0.74488919 -0.00000034
0.01014317 -0.12415223 -0.00000042
-0.49089754 0.11698681 -0.00000035
-0.73379392 -0.37336292 -0.00000000
-0.25871703 0.64518055 -0.00000068
-0.42077841 0.69636776 -0.00000047
-0.27388886 -0.52660765 -0.00000017
-0.65472662 0.70987651 -0.00000018
-0.47648216 0.17071102 -0.00000038
0.18506269 0.40935928 -0.00000078
-0.60959219 -0.10743956 -0.00000018
-0.05102796 -0.71926767 -0.00000005
0.22605812 0.12522314 -0.00000058
-0.14510917 0.38524334 -0.00000074
-0.00672769 0.26357048 -0.00000066
0.17959494 0.36910242 0.22744945
0.00562939 0.28917734 -0.00000068
-0.26237688 0.77753551 -0.00000067
0.30322030 -0.01515869 -0.00000049
0.50591393 -0.77856216 -0.00000001
-0.45104490 -0.02535135 -0.00000037
-0.48358552 0.36030194 -0.00000040
0.49056486 0.25317975 -0.00000094
-0.20911331 -0.02883734 -0.00000048
-0.37805287 0.74155585 -0.00000053
0.53296878 -0.74016306 -0.00000004
-0.35492677 0.19177589 -0.00000051
-0.72681281 0.58306047 -0.00000009
-0.25340330 0.73666331 -0.00000068
-0.25284054 -0.74404275 -0.00000003
-0.14182481 -0.76513230 -0.00000002
0.09299112 -0.61361241 -0.00000012
0.08700856 0.67750699 0.03211494
0.09350298 -0.22090069 -0.00000036
0.72271784 -0.43487852 -0.00000045
-0.31772951 -0.66754902 -0.00000008
-0.19243633 -0.61361080 -0.00000012
0.03040708 -0.52555101 -0.00000017
-0.35407262 -0.13806214 -0.00000041
-0.06639363 0.24273928 -0.00000065
0.04920037 0.37200427 -0.00000073
0.77704853 -0.56645417 -0.00000029
0.38785274 -0.43849931 -0.00000023
0.41377459 0.36601614 -0.00000098
-0.17741860 0.73144720 -0.00000078
-0.76710757 -0.58566443 0.00000000
-0.42886404 0.18074455 -0.00000043
-0.30886218 -0.76550968 -0.00000002
-0.17232983 0.79889439 -0.00000078
0.15479601 0.63601800 -0.00000099
0.17669789 0.19861522 0.38437660
-0.38465596 0.02636972 -0.00000045
-0.16227571 -0.31704682 -0.00000030
-0.54116948 0.22137713 -0.00000032
0.20268539 -0.58245720 -0.00000014
0.19389612 -0.44917312 -0.00000022
0.37696707 0.11782534 -0.00000067
-0.08371728 0.12554436 -0.00000058
0.36732071 -0.67434507 -0.00000008
-0.55402117 -0.21266725 -0.00000022
-0.11071319 0.27583222 -0.00000067
-0.19194829 -0.49527999 -0.00000019
0.69646990 -0.66709931 -0.00000017
-0.33590365 -0.69540494 -0.00000007
-0.63226647 -0.78272069 -0.00000001
-0.05115049 -0.16033437 -0.00000040
0.33724702 -0.12914088 -0.00000042
-0.32936501 0.14365238 -0.00000053
0.12578414 0.10408795 -0.00000057
-0.40282924 0.63829593 -0.00000050
0.05984089 0.16127779 -0.00000060
-0.67558546 -0.57092843 -0.00000003
0.42392054 -0.22219018 -0.00000036
-0.25860753 0.18786494 -0.00000061
0.53782447 -0.47511984 -0.00000021
-0.32289671 0.01658525 -0.00000051
-0.51083319 0.48395535 -0.00000036
-0.19134808 -0.13757348 -0.00000041
0.58110129 0.13904832 -0.00000091
-0.78530609 -0.57737721 0.00000000
0.16299745 -0.34275296 -0.00000029
0.22469349 0.14701208 0.38764214
-0.02845987 0.59416603 -0.00000087
0.13532007 -0.58728156 -0.00000013
-0.75774509 -0.64749589 0.00000000
-0.41400045 0.31352656 -0.00000047
-0.38722090 0.09687338 -0.00000046
0.02770593 -0.10154225 -0.00000044
-0.57828967 -0.11627615 -0.00000022
-0.05225642 0.13478736 -0.00000058
-0.43958287 0.26309388 -0.00000043
0.54579564 0.14345397 -0.00000088
0.05802358 -0.57754565 -0.00000014
0.20941066 -0.21908123 -0.00000036
-0.70082521 -0.37597464 -0.00000004
-0.52149673 0.54810268 -0.00000035
0.70262509 -0.21770492 -0.00000066
-0.13881146 0.41327072 -0.00000076
0.46526328 -0.09281600 -0.00000054
0.35999657 0.43382189 0.00559299
-0.63644619 0.31870458 -0.00000020
0.77697658 -0.13657925 -0.00000083
-0.37519115 0.13439903 -0.00000048
0.49783189 -0.60913709 -0.00000012
0.31236365 0.10863597 -0.00000060
-0.53849931 -0.06486500 -0.00000027
-0.03929206 -0.48779810 -0.00000020
-0.61339680 -0.73674056 -0.00000004
-0.64722028 0.53095223 -0.00000019
-0.16963915 -0.31609386 -0.00000030
0.27134624 -0.06272642 -0.00000046
-0.00071930 -0.11143937 -0.00000043
-0.34809989 -0.53158485 -0.00000017
-0.01337187 -0.76753327 -0.00000002
0.59132615 -0.19996289 -0.00000056
0.39647648 -0.66279762 -0.00000009
0.17164108 0.03964029 -0.00000052
0.24568391 -0.01505505 -0.00000049
-0.44543370 0.50715379 -0.00000044
-0.32095915 -0.05391843 -0.00000047
-0.49457848 0.77136860 -0.00000038
-0.54027370 -0.08691537 -0.00000026
-0.54476387 0.70356192 -0.00000032
-0.27104106 0.63423212 -0.00000066
-0.67194190 -0.47174900 -0.00000005
0.36293624 0.17675883 0.23559885
0.20578425 0.43090357 0.14781098
-0.60049548 0.07438490 -0.00000023
0.12055571 0.23608886 -0.00000065
0.32627065 0.37489308 -0.00000089
0.39311506 0.38195663 0.02256061
0.17246155 0.61529478 -0.00000099
-0.26306765 -0.71977895 -0.00000005
-0.57172823 0.75743821 -0.00000029
-0.52368900 -0.60630085 -0.00000012
-0.73260092 -0.75273665 0.00000000
-0.04435976 -0.36242099 -0.00000027
-0.48093494 0.50898704 -0.00000040
0.29227850 0.48555011 0.02006534
-0.17459744 0.38259677 -0.00000074
-0.69657181 -0.24212089 -0.00000007
-0.71360683 0.25070671 -0.00000011
-0.35853698 -0.74934237 -0.00000003
0.50686846 -0.57535757 -0.00000014
0.73737871 -0.23472800 -0.00000068
0.30678562 0.13085703 0.32796430
-0.59039698 -0.15337442 -0.00000020
-0.17733845 -0.20313461 -0.00000037
0.73636091 0.05407931 0.00865061
0.32632683 -0.09972889 -0.00000044
0.30080206 -0.77922549 -0.00000001
-0.76924025 0.28511053 -0.00000004
-0.29345982 0.21775943 -0.00000058
0.60122366 -0.46566079 -0.00000029
-0.01165525 -0.66866570 -0.00000008
0.61915407 -0.36133080 -0.00000042
-0.30699748 0.47181220 -0.00000061
-0.52234134 -0.22675637 -0.00000025
-0.24554150 -0.06171403 -0.00000046
0.23393502 -0.34466089 -0.00000028
-0.31133779 -0.04167702 -0.00000047
-0.45459034 -0.14323044 -0.00000034
-0.33186129 -0.62093964 -0.00000011
-0.28408358 -0.20387336 -0.00000037
-0.60963039 0.70734277 -0.00000024
0.25740412 0.40590306 -0.00000085
-0.64068481 -0.74842444 -0.00000003
0.22012913 -0.19268439 -0.00000038
-0.06272019 -0.27510874 -0.00000033
0.02728489 -0.38474840 -0.00000026
-0.00644157 0.29835990 -0.00000069
0.62752543 -0.10559785 -0.00000070
-0.18941541 -0.38958112 -0.00000026
-0.25370386 -0.35396002 -0.00000028
-0.52299798 -0.63514232 -0.00000010
0.01415080 0.40642917 -0.00000075
-0.25276435 -0.45400161 -0.00000022
0.72926951 -0.21791203 -0.00000069
-0.50606229 -0.35471014 -0.00000025
0.09008465 0.70278625 0.00645063
0.05078279 0.71769503 0.02852869
-0.12935968 -0.18479899 -0.00000038
-0.15190779 -0.59239112 -0.00000013
-0.64804801 -0.16979254 -0.00000013
-0.02709211 -0.75893962 -0.00000003
0.37290185 -0.03137191 -0.00000051
-0.48434558 -0.57751759 -0.00000014
0.43036002 0.24122386 0.11622699
-0.14231331 -0.58722027 -0.00000013
-0.07132618 0.47624195 -0.00000080
-0.17710157 0.67999192 -0.00000078
0.57165548 -0.63894346 -0.00000010
-0.75579314 0.38629579 -0.00000006
0.04970509 -0.60835870 -0.00000012
0.36815040 0.33494820 0.08770315
0.02029773 -0.60999516 -0.00000012
-0.78911595 0.69841227 -0.00000001
-0.50843542 -0.07516129 -0.00000030
-0.50142751 -0.64920934 -0.00000009
0.29924083 0.18211206 -0.00000066
-0.00386383 0.26190965 -0.00000066
-0.51952474 -0.55331442 -0.00000015
-0.37659538 -0.59851300 -0.00000013
-0.14526022 0.00210287 -0.00000050
0.38607008 -0.79014388 -0.00000001
0.72539713 -0.09750744 -0.00000082
-0.42582426 0.09771802 -0.00000042
0.45328980 -0.03294724 -0.00000059
-0.16103365 0.47332297 -0.00000077
0.14010044 -0.77742263 -0.00000001
0.27773502 -0.64575048 -0.00000010
-0.23552761 0.44752069 -0.00000068
-0.04422889 0.12069707 -0.00000058
-0.74359474 0.71948296 -0.00000007
-0.49724381 -0.56021019 -0.00000015
0.56118064 0.09486695 0.13028882
0.44747302 -0.09803431 -0.00000052
0.39464896 -0.04587284 -0.00000052
0.63699305 0.12970630 -0.00000096
-0.00579844 0.03087297 -0.00000052
-0.32863652 -0.67239002 -0.00000008
-0.72489523 0.09300494 -0.00000009
0.02064597 0.26181774 -0.00000066
0.69877252 -0.42881018 -0.00000043
-0.36510793 0.45799806 -0.00000054
0.40403401 0.23404218 0.14655466
0.16605317 -0.21350619 -0.00000037
0.10723314 0.00540530 -0.00000050
0.23205742 0.11538970 -0.00000057
0.22188821 0.30682575 -0.00000071
0.69258560 -0.31566583 -0.00000055
0.29945956 -0.44054096 -0.00000022
0.14459888 0.36124730 0.26623303
-0.75238338 0.44328713 -0.00000006
-0.38544076 -0.19768797 -0.00000038
0.70985367 -0.72831487 -0.00000009
-0.76363080 0.20146522 -0.00000005
0.06983347 0.66049707 0.06305536
-0.70492732 0.45763411 -0.00000012
0.39849600 0.19406698 -0.00000078
-0.43489199 0.79129456 -0.00000046
0.10867259 0.38007231 0.28171081
0.08444388 0.50824412 -0.00000082
0.02076965 0.73002537 0.04453288
0.46218935 -0.22913132 -0.00000040
0.02719008 0.20480598 -0.00000063
-0.15581469 -0.48968846 -0.00000019
-0.08333267 0.22616654 -0.00000064
-0.68674697 0.52223892 -0.00000014
-0.33732246 0.09351580 -0.00000051
0.06652066 -0.19151095 -0.00000038
-0.22465197 -0.18612282 -0.00000038
-0.20185195 -0.33734441 -0.00000029
-0.27224578 -0.52574094 -0.00000017
0.26209485 0.30204027 0.21347770
0.41315680 0.31984586 -0.00000093
0.68562102 -0.02070319 -0.00000086
0.31532541 -0.42331412 -0.00000024
-0.56620864 -0.03520493 -0.00000024
-0.53916642 0.61007947 -0.00000033
0.06274978 -0.75982067 -0.00000003
0.18933817 0.53138552 0.07175076
-0.56719185 0.18142123 -0.00000028
0.46055948 0.18105193 -0.00000083
-0.62163453 0.29300580 -0.00000022
-0.28085002 0.74510491 -0.00000065
-0.18741023 -0.75936064 -0.00000003
0.27328924 0.40345367 -0.00000087
-0.29990231 0.73370692 -0.00000063
-0.49952435 0.32950126 -0.00000038
-0.78670301 0.68748821 -0.00000002
0.17447183 0.44370494 0.16456475
0.05889625 -0.51524103 -0.00000018
-0.02518746 -0.66414166 -0.00000008
0.39288207 0.10152255 0.27659073
0.05778152 -0.60495969 -0.00000012
-0.68215874 -0.45167310 -0.00000004
-0.09145445 0.03688448 -0.00000052
0.61353775 -0.62741730 -0.00000013
0.71612356 -0.12325949 -0.00000078
-0.01500174 0.03597191 -0.00000052
0.27788364 -0.51729237 -0.00000018
0.79950857 -0.68806490 -0.00000014
-0.07889497 -0.79123500 -0.00000001
-0.76824645 -0.70789797 0.00000000
0.22161629 0.29983170 0.25211276
-0.69985185 0.15755867 -0.00000013
0.43753457 -0.05131784 -0.00000056
0.74674766 -0.44479963 -0.00000044
0.73254908 -0.52714038 -0.00000034
0.15702314 0.18788364 0.41189669
0.63465229 0.13663273 -0.00000097
-0.22225519 -0.26395033 -0.00000034
-0.11288718 0.75331367 -0.00000086
-0.22262604 -0.71655986 -0.00000005
-0.59536093 -0.57530828 -0.00000011
0.25003990 -0.13705318 -0.00000041
-0.29827958 -0.33321886 -0.00000029
0.16127941 0.10479596 -0.00000057
-0.77667475 0.03400270 -0.00000003
-0.44628143 0.28126383 -0.00000043
-0.34457453 -0.43832874 -0.00000023
0.10296795 0.40184591 0.26716701
-0.19218927 0.05469524 -0.00000053
0.01871552 0.52885602 -0.00000083
-0.42570933 -0.78498655 -0.00000001
0.71779739 -0.01346737 -0.00000090
-0.76509590 0.22366581 -0.00000004
-0.13217341 -0.04938841 -0.00000047
-0.01943323 -0.47747493 -0.00000020
0.52435716 0.15347555 -0.00000087
0.28171629 0.45414493 0.05804984
-0.24704319 0.21124184 -0.00000063
0.63657479 0.04602713 -0.00000087
0.26483918 0.39549890 0.12640552
0.45379509 -0.75491975 -0.00000003
-0.35359176 0.49832202 -0.00000056
0.59540153 -0.22220190 -0.00000054
-0.50484919 0.02680842 -0.00000032
-0.42060746 -0.33768300 -0.00000029
-0.60280860 0.33065913 -0.00000025
-0.48731066 -0.10983400 -0.00000031
-0.31224030 -0.48353266 -0.00000020
-0.06274896 0.38103006 -0.00000074
-0.53843460 0.77009074 -0.00000033
-0.77107249 0.67604515 -0.00000004
0.14779536 0.29619656 0.32221631
0.45980174 -0.20604173 -0.00000042
-0.31976233 -0.00046861 -0.00000050
0.09379315 -0.07337001 -0.00000045
0.47913671 -0.34190138 -0.00000029
-0.31998229 -0.18788932 -0.00000038
-0.68113190 0.56032683 -0.00000015
-0.17450159 -0.70113819 -0.00000006
0.38406673 -0.74840480 -0.00000003
0.19946340 0.31961233 0.25425966
0.07858701 -0.22209927 -0.00000036
-0.72069713 0.78242210 -0.00000010
0.61095504 -0.71719605 -0.00000005
0.05949795 -0.16464301 -0.00000040
-0.60281298 -0.67134669 -0.00000008
0.01241591 0.37684056 -0.00000074
-0.66689211 -0.05290391 -0.00000013
-0.24466310 -0.60326329 -0.00000012
0.38450094 -0.45589323 -0.00000022
-0.41910477 0.70620351 -0.00000048
-0.42629995 -0.25086953 -0.00000034
-0.06053955 0.65378625 -0.00000091
0.66578662 -0.59812616 -0.00000022
-0.16701290 -0.21422411 -0.00000037
0.12624012 -0.74571118 -0.00000003
-0.21150642 -0.13178314 -0.00000042
0.08667292 0.70784214 0.00496251
0.28595193 -0.24346816 -0.00000035
-0.10271860 0.51060482 -0.00000082
0.19987873 0.51798427 0.07433996
-0.33869159 0.44027849 -0.00000057
0.11311438 0.61721322 -0.00000093
-0.60297502 -0.15215159 -0.00000018
0.51386253 0.07096977 -0.00000077
-0.62093986 -0.02011983 -0.00000019
-0.71393462 0.46992437 -0.00000011
0.32122177 0.39609804 0.07483160
0.45910474 0.01984807 -0.00000066
0.58669983 0.15663737 -0.00000094
0.54222114 -0.58664498 -0.00000013
-0.11328875 -0.11907344 -0.00000043
0.43885533 0.12980125 0.20938605
0.37557633 -0.28696827 -0.00000032
-0.05884361 -0.43707955 -0.00000023
-0.39622038 -0.44908022 -0.00000022
0.04030809 0.45179252 -0.00000078
-0.53079769 0.47005105 -0.00000034
-0.57167698 -0.60174756 -0.00000012
-0.24705432 -0.68078104 -0.00000007
0.08610373 0.23646684 -0.00000065
0.01172180 -0.65427843 -0.00000009
0.66312401 -0.55222277 -0.00000026
0.09761546 -0.22634900 -0.00000036
0.40404693 -0.59280918 -0.00000013
-0.53909924 -0.17112424 -0.00000025
0.31202384 -0.34758851 -0.00000028
-0.50573970 0.54370254 -0.00000037
0.64858788 -0.64646421 -0.00000015
0.23226949 0.50276948 -0.00000093
0.21873672 -0.78890145 -0.00000001
-0.30270539 -0.79785718 -0.00000000
0.38838112 0.36604808 0.04124405
0.09699835 0.61468420 0.07993358
0.02490551 -0.69277641 -0.00000007
-0.34845646 -0.74284359 -0.00000004
-0.57332648 -0.75205869 -0.00000003
-0.57224198 -0.49771481 -0.00000015
0.46352746 -0.67758248 -0.00000008
-0.60885169 -0.70668800 -0.00000006
-0.33991406 -0.04146986 -0.00000047
0.04315826 0.00135728 -0.00000050
-0.14275580 0.64605745 -0.00000082
0.19688996 0.44331744 0.14462539
0.33034221 0.16746872 -0.00000068
0.27421664 0.29771099 -0.00000076
0.16187218 0.49027703 0.13381676
0.59780770 -0.05111055 -0.00000073
-0.28487083 -0.51311619 -0.00000018
0.53194872 -0.32816236 -0.00000036
0.11868241 0.14667529 -0.00000059
0.36757226 0.29330945 0.12591348
-0.33461965 0.70661362 -0.00000058
0.00958059 0.55167899 -0.00000084
-0.06110565 -0.12848469 -0.00000042
0.26598909 0.50910589 -0.00000097
-0.68471794 -0.79342527 0.00000000
0.38309566 0.28581163 0.11864956
0.20793713 0.35625333 -0.00000075
-0.38879799 -0.73404653 -0.00000004
0.33137465 -0.18921361 -0.00000038
-0.04460636 0.14359564 -0.00000059
0.03524362 0.39593777 -0.00000075
0.01677942 0.78218888 0.00093190
0.23683647 0.08065777 -0.00000055
0.57620842 -0.05375021 -0.00000070
0.09214508 0.00865902 -0.00000051
-0.06630422 0.31878853 -0.00000070
-0.42014791 -0.53130345 -0.00000017
-0.35699893 -0.21030302 -0.00000037
-0.16451995 0.17265317 -0.00000061
0.27868884 0.20260166 0.28845912
-0.13764935 0.64683477 -0.00000083
0.60410862 -0.37895851 -0.00000039
0.07635161 0.57269538 0.13662380
-0.28769051 0.65795083 -0.00000064
0.50037742 0.29936565 -0.00000100
0.08242796 0.33514303 -0.00000071
-0.77079427 -0.08459083 -0.00000002
0.34323153 -0.11501521 -0.00000043
-0.68578577 0.56342285 -0.00000014
0.34034181 0.12541002 0.30252344
-0.04471593 0.77432760 -0.00000094
0.46082224 -0.32478611 -0.00000030
-0.60951402 0.70586812 -0.00000024
0.41065751 0.37848190 -0.00000099
-0.28988900 -0.68602529 -0.00000007
0.01907149 -0.29795338 -0.00000031
0.45037992 0.05527732 -0.00000069
-0.06670527 -0.58449789 -0.00000013
0.71984197 -0.65751812 -0.00000018
-0.22716340 0.15632793 -0.00000060
0.36072537 0.19628849 0.21992383
-0.70963614 0.58980413 -0.00000011
-0.46867811 0.66579668 -0.00000041
0.00651277 -0.69310686 -0.00000007
-0.29715437 -0.69834796 -0.00000006
0.47081265 0.12956598 -0.00000079
-0.39816200 -0.78528429 -0.00000001
0.34257634 -0.49989062 -0.00000019
0.42211563 0.26567545 0.10155792
0.15492982 -0.06792428 -0.00000046
-0.68714063 -0.50062730 -0.00000003
0.54734720 -0.63274960 -0.00000010
0.39733213 0.34166145 0.05521475
0.14632191 -0.52663932 -0.00000017
0.04685226 0.35966281 -0.00000072
0.68581186 -0.58372061 -0.00000026
-0.35927449 0.72846896 -0.00000055
0.19422476 -0.10604857 -0.00000043
-0.08740271 -0.44642773 -0.00000022
0.25153188 0.23884027 0.28023924
-0.60009131 0.36540811 -0.00000025
-0.77317246 0.23510052 -0.00000003
0.62911624 -0.17365396 -0.00000063
-0.32673931 -0.47431084 -0.00000020
-0.39588115 0.27364791 -0.00000048
0.61716397 0.13083635 -0.00000094
-0.49508135 0.06075098 -0.00000034
0.66914128 -0.60989535 -0.00000021
0.42119520 0.29877196 0.07243549
0.30087983 -0.51205119 -0.00000018
-0.41417453 -0.62886117 -0.00000011
-0.61734257 -0.15633676 -0.00000017
-0.09909680 -0.52292305 -0.00000017
0.42074596 -0.77823757 -0.00000001
0.17230317 0.56402726 0.05762517
0.02097966 -0.71796360 -0.00000005
0.49328541 -0.17835387 -0.00000048
0.49775899 -0.23842182 -0.00000042
0.33503917 -0.02046770 -0.00000049
0.22480182 -0.24982263 -0.00000034
0.37228297 0.34299760 -0.00000091
0.15641242 -0.51720495 -0.00000018
-0.06191504 -0.66757280 -0.00000008
0.35473059 -0.43873364 -0.00000023
0.62638199 -0.28089140 -0.00000052
0.28089221 -0.22111467 -0.00000036
0.25722525 0.14279607 0.36201430
-0.18800500 -0.45628903 -0.00000021
0.08361473 -0.68776725 -0.00000007
0.32873686 -0.10108628 -0.00000044
0.76794114 -0.30114518 -0.00000062
0.19284356 -0.76539574 -0.00000002
-0.30177454 -0.02771807 -0.00000048
0.59536887 -0.03566612 -0.00000074
0.55299864 -0.16699933 -0.00000056
0.27780413 -0.79303409 -0.00000000
0.00478461 0.49487049 -0.00000081
-0.61391653 0.24972135 -0.00000023
-0.63130662 0.79971832 -0.00000021
-0.32615136 0.12165731 -0.00000053
0.18740684 0.21981836 0.35549360
-0.43542003 -0.31908392 -0.00000030
0.41599896 0.12677279 -0.00000073
-0.72903108 -0.40321343 -0.00000000
0.49942546 0.04903790 -0.00000073
0.40444231 0.22096210 0.15802384
0.34824171 -0.56794334 -0.00000015
0.65929159 0.03192469 -0.00000088
-0.20557241 0.14945032 -0.00000059
0.73682017 -0.12523184 -0.00000080
0.36791281 -0.51378827 -0.00000018
-0.60235303 0.51763564 -0.00000025
-0.59425738 -0.19339666 -0.00000018
-0.53798189 -0.63387345 -0.00000010
-0.56213317 -0.01377192 -0.00000025
-0.77200163 0.14874414 -0.00000003
-0.03731474 0.21729971 -0.00000064
-0.62336192 0.58194178 -0.00000022
-0.69185572 0.06362157 -0.00000013
0.43618462 0.34352108 -0.00000098
-0.42147424 0.47493429 -0.00000047
-0.29745517 -0.10473026 -0.00000043
0.13457803 0.48103724 0.16688278
0.58403105 -0.45540503 -0.00000028
0.57858395 0.04038050 -0.00000081
-0.78385685 0.74301524 -0.00000002
-0.57149392 -0.60714135 -0.00000012
0.61330538 -0.43935865 -0.00000033
0.21308258 0.26827871 -0.00000067
-0.07766908 -0.78777499 -0.00000001
-0.17420173 -0.48091943 -0.00000020
0.16628316 0.40960137 -0.00000076
-0.76810301 -0.16054998 -0.00000000
0.06833829 0.65571133 0.06874011
0.08174040 -0.27294621 -0.00000033
-0.38562500 -0.24781868 -0.00000035
0.16556718 -0.27113410 -0.00000033
-0.18957540 -0.00783699 -0.00000050
-0.32726339 0.58086708 -0.00000059
0.62642155 -0.40241994 -0.00000039
-0.10473859 0.33541084 -0.00000071
-0.41587101 0.29146836 -0.00000046
-0.63884420 -0.18308296 -0.00000014
0.61494461 -0.05399845 -0.00000074
-0.43223081 0.56462425 -0.00000046
-0.65657377 -0.78964502 -0.00000001
0.28687940 -0.08612501 -0.00000045
-0.56149650 0.36100125 -0.00000030
-0.40793105 -0.47356551 -0.00000020
0.25289326 0.31227007 0.21254701
-0.21263153 0.19024523 -0.00000062
-0.50318251 0.23401539 -0.00000036
-0.39738584 -0.28601297 -0.00000032
0.17124038 -0.53885843 -0.00000016
-0.37493940 -0.27868663 -0.00000033
0.14826226 -0.06564026 -0.00000046
-0.58960012 -0.29413813 -0.00000017
0.09292111 -0.17223237 -0.00000039
-0.30643698 0.60152887 -0.00000062
-0.33017299 -0.20264474 -0.00000037
0.53126503 -0.08467589 -0.00000062
-0.47697418 0.60747703 -0.00000040
0.35339100 -0.59738452 -0.00000013
-0.21564583 -0.63144146 -0.00000011
-0.18936193 -0.00461896 -0.00000050
-0.28118267 -0.31953996 -0.00000030
-0.13503650 -0.31582576 -0.00000030
0.49789533 0.07267783 0.20765136
-0.57659810 0.70968212 -0.00000028
-0.45667243 0.08769120 -0.00000038
0.59697779 -0.61488000 -0.00000013
0.20637080 0.38724507 0.18679470
-0.24641290 0.33965226 -0.00000065
0.15794569 -0.63527926 -0.00000010
0.33673181 0.41178200 0.04659804
-0.41352124 -0.78038449 -0.00000001
-0.46782413 0.25574547 -0.00000040
0.53517191 -0.45018394 -0.00000024
0.45568326 0.19818689 0.13225962
0.26902883 -0.34792397 -0.00000028
0.34196281 0.19196455 0.24081892
-0.05991751 -0.58631827 -0.00000013
0.34977366 -0.49877745 -0.00000019
-0.44752125 0.10205101 -0.00000039
0.43729578 -0.20446863 -0.00000039
-0.10203189 -0.37614510 -0.00000026
0.30186649 0.21690239 -0.00000070
-0.47855242 -0.71964931 -0.00000005
-0.71782642 0.09193468 -0.00000010
0.14189851 -0.48137597 -0.00000020
0.71785284 -0.26315934 -0.00000063
-0.33139823 0.72469885 -0.00000059
-0.23460209 0.32290614 -0.00000066
0.30875933 -0.67907241 -0.00000008
0.33538042 -0.58860853 -0.00000013
-0.46807050 0.76734588 -0.00000041
0.60678957 -0.61787087 -0.00000013
0.31095214 0.10798680 -0.00000059
0.16103895 -0.58939415 -0.00000013
-0.74087515 -0.16561774 -0.00000003
0.17330763 0.02164462 -0.00000051
-0.38630714 0.34792722 -0.00000051
-0.52279410 0.45160706 -0.00000035
0.69794033 -0.67129725 -0.00000016
-0.41051860 0.69242503 -0.00000049
-0.38582360 -0.64126636 -0.00000010
0.27338868 -0.01119164 -0.00000049
0.26468006 0.18537011 -0.00000063
0.06469618 -0.04220841 -0.00000047
-0.38946643 0.70474175 -0.00000051
-0.31143644 0.64217587 -0.00000061
-0.01743218 -0.01416381 -0.00000049
-0.01986542 -0.72626242 -0.00000005
-0.11873792 0.03960684 -0.00000052
0.22474161 -0.08644250 -0.00000045
0.16361587 0.46492649 0.15518294
0.67647918 0.09214377 -0.00000097
-0.48408297 -0.70929142 -0.00000006
0.18111922 -0.04431120 -0.00000047
0.52761364 0.12542558 -0.00000084
0.19938651 -0.31431155 -0.00000030
-0.65361251 -0.07179485 -0.00000014
0.46807280 -0.62435961 -0.00000011
0.17687518 -0.47758429 -0.00000020
-0.02013619 0.01110798 -0.00000051
-0.43152845 0.79270493 -0.00000046
-0.76863915 0.73459381 -0.00000004
-0.31053288 0.30089126 -0.00000058
0.08264335 0.47540569 0.21898457
0.70559440 -0.46900006 -0.00000040
0.43926502 -0.35593765 -0.00000028
0.22721178 0.20917060 0.32910427
0.07754034 -0.49675193 -0.00000019
0.33177004 0.36111835 -0.00000089
0.18191917 -0.54641926 -0.00000016
0.63847185 -0.54097167 -0.00000025
-0.70175872 0.71100130 -0.00000012
-0.11392987 0.19416880 -0.00000062
0.62351204 0.12351776 0.04794121
-0.53477426 0.48655243 -0.00000033
-0.46652912 -0.27869866 -0.00000030
0.41822740 -0.06765882 -0.00000052
-0.44070124 0.50226485 -0.00000045
0.32115190 0.00622872 -0.00000050
-0.18054695 0.63742550 -0.00000077
-0.47486369 0.68586785 -0.00000041
-0.37558565 -0.56384404 -0.00000015
0.06192378 0.72825700 0.00888544
-0.75698659 -0.43751853 0.00000000
0.47823243 0.07883605 0.21987440
0.35423314 -0.41804614 -0.00000024
0.10837379 0.20768084 -0.00000063
-0.33306974 0.72414039 -0.00000058
-0.32959960 -0.10608883 -0.00000043
-0.01833402 -0.12632089 -0.00000042
0.69260924 -0.04454119 -0.00000084
0.26139453 -0.03393375 -0.00000048
-0.47839762 -0.77560189 -0.00000002
-0.02150636 0.20732804 -0.00000063
-0.05374880 0.35267903 -0.00000072
0.17874588 0.18787619 0.39224274
-0.32061660 0.30848584 -0.00000057
-0.53657549 -0.15777171 -0.00000025
-0.35257173 0.06145521 -0.00000049
0.50298761 -0.67372156 -0.00000008
0.16659783 0.57624274 0.05173287
0.00464692 -0.23060561 -0.00000036
0.43889848 -0.38264351 -0.00000026
-0.52117120 -0.47075947 -0.00000021
0.39885502 0.13998009 0.23637734
-0.08357236 0.13765339 -0.00000059
-0.29492924 0.58910622 -0.00000063
-0.12711748 0.56757922 -0.00000082
0.63942094 -0.20864134 -0.00000061
-0.03184737 0.34734921 -0.00000072
0.20610492 0.40350045 -0.00000080
-0.79135828 -0.49875943 0.00000000
0.71373720 -0.57879242 -0.00000028
0.16357297 0.27444981 0.32761902
0.16121760 -0.04095150 -0.00000047
-0.36624057 -0.00497721 -0.00000046
0.49470113 -0.02072358 -0.00000065
0.44368098 -0.74247411 -0.00000004
-0.30010716 -0.74764055 -0.00000003
0.47954987 0.29667043 -0.00000097
0.14096764 -0.10717165 -0.00000043
-0.71580336 -0.69284932 0.00000000
0.50229345 -0.65939857 -0.00000009
0.28515747 0.16752239 0.31435418
-0.62985809 0.28262764 -0.00000021
-0.64326280 0.05227762 -0.00000018
0.41624187 0.01655927 -0.00000061
-0.49659027 0.25310746 -0.00000037
-0.73738455 0.00450414 -0.00000007
-0.19133246 0.32000370 -0.00000070
0.15961238 -0.67256350 -0.00000008
0.06205963 -0.77453669 -0.00000002
0.46743412 -0.03968317 -0.00000060
-0.01987789 0.12058545 -0.00000058
-0.65759621 0.76550908 -0.00000018
0.39945146 0.16151783 0.21634379
0.24921883 -0.11808541 -0.00000043
-0.32301387 -0.06235822 -0.00000046
0.04026334 0.57931669 -0.00000086
-0.71720543 0.68589446 -0.00000010
0.06365708 -0.51827255 -0.00000018
-0.42453839 0.20880068 -0.00000044
-0.12696814 -0.20044897 -0.00000037
0.32656741 -0.48957078 -0.00000019
-0.30248264 -0.58965950 -0.00000013
-0.62332541 -0.39613560 -0.00000012
0.04833831 0.52013865 -0.00000083
-0.65978161 -0.41660014 -0.00000007
0.23131645 0.51448724 0.04905096
0.47427789 0.18471490 -0.00000085
0.02045135 -0.53492873 -0.00000017
-0.13262023 -0.61433788 -0.00000012
-0.03285732 -0.10927558 -0.00000043
-0.35926863 -0.25043511 -0.00000034
-0.65833781 -0.55088468 -0.00000005
0.11613198 0.29200598 -0.00000068
0.18700093 0.39895238 -0.00000077
0.11940117 -0.64396262 -0.00000010
0.28427367 0.06563749 -0.00000054
-0.77520379 0.62655970 -0.00000003
-0.41241231 -0.71510117 -0.00000005
0.54266639 0.14741230 -0.00000088
0.25290021 0.50254710 -0.00000095
-0.58352164 -0.30120351 -0.00000018
0.35401437 0.18455207 -0.00000072
-0.73653753 0.36859706 -0.00000008
-0.01889787 -0.52800900 -0.00000017
0.40428794 0.35100607 -0.00000095
-0.79499949 0.33897992 -0.00000001
0.75761747 0.04134003 0.00094167
-0.22155377 0.49358941 -0.00000071
0.45735728 0.29187867 -0.00000095
0.26861155 -0.08008510 -0.00000045
0.43309507 -0.38526073 -0.00000026
0.47227311 -0.75686934 -0.00000003
0.45304066 0.26859872 0.07092198
0.07475156 -0.34164477 -0.00000029
0.32424047 0.45217867 -0.00000097
-0.58779230 -0.35586917 -0.00000016
-0.07592891 -0.47294045 -0.00000020
0.18009982 0.47282900 -0.00000084
-0.51660554 0.06783215 -0.00000031
0.49169754 0.26507125 0.03912650
-0.45662149 -0.78257213 -0.00000001
-0.55208493 -0.72811583 -0.00000004
-0.42401498 0.47353517 -0.00000047
-0.09109043 -0.15923714 -0.00000040
0.31288885 0.13009007 -0.00000062
-0.19760536 0.78384024 -0.00000075
0.16783463 -0.00754779 -0.00000050
0.60509145 -0.27502175 -0.00000050
0.11617255 0.58531214 -0.00000089
0.35228283 0.10751309 0.30791414
-0.17493807 0.60522026 -0.00000078
0.26099679 -0.78287667 -0.00000001
-0.65176160 0.27564212 -0.00000019
-0.63248781 -0.78993049 -0.00000001
0.21165028 0.04582591 -0.00000053
0.22976595 0.36938777 -0.00000079
-0.00381443 0.63296983 -0.00000090
-0.00927610 -0.00341033 -0.00000050
0.16597070 -0.70686899 -0.00000006
0.40378116 0.36117847 0.03171300
-0.55823810 -0.59608455 -0.00000013
-0.17660452 0.53215632 -0.00000076
-0.64076346 -0.58319930 -0.00000006
0.21113422 0.47353135 -0.00000088
-0.19524517 -0.49114784 -0.00000019
-0.48931629 -0.45625276 -0.00000021
-0.76392280 0.45540345 -0.00000005
0.05891379 0.04502536 -0.00000053
-0.01086180 0.18414781 -0.00000062
-0.47628611 -0.59094283 -0.00000013
-0.72713160 0.56713034 -0.00000009
-0.61817120 0.27868429 -0.00000023
0.19314304 0.33944228 0.24203230
-0.41157163 0.65624807 -0.00000049
0.15859737 0.15220576 -0.00000060
-0.08743681 0.62965114 -0.00000088
-0.16020437 -0.69180917 -0.00000007
-0.79571486 0.42217017 -0.00000001
0.78242381 -0.56608506 -0.00000029
0.11970100 -0.78317036 -0.00000001
-0.08683326 0.29338659 -0.00000068
0.42111376 0.13597334 -0.00000074
0.51736470 -0.01560440 -0.00000068
-0.78743171 0.50569055 -0.00000002
0.14558625 0.33707063 0.28722129
-0.22848629 0.40829128 -0.00000068
0.50023142 -0.77962814 -0.00000001
0.44558438 0.05286941 -0.00000068
0.55140708 -0.71370902 -0.00000005
-0.19988861 0.51012975 -0.00000073
-0.72021742 -0.59281589 0.00000000
0.05100228 0.64722700 -0.00000090
-0.26282823 -0.71978763 -0.00000005
0.16255169 0.51811735 -0.00000087
-0.31903309 0.46810087 -0.00000060
0.62936720 0.07185370 -0.00000089
-0.26136644 0.30865057 -0.00000063
0.09626124 0.40506850 0.27032037
-0.18114064 -0.60382739 -0.00000012
-0.04775267 0.42549101 -0.00000077
-0.54094311 -0.41684480 -0.00000020
-0.01830021 -0.18685962 -0.00000038
-0.37783496 0.36132193 -0.00000052
0.34308047 0.30359006 -0.00000084
0.43632262 0.12109600 -0.00000074
0.06763584 0.01507727 -0.00000051
-0.60452752 -0.69602624 -0.00000006
0.38037036 0.08207186 -0.00000064
0.37536992 -0.31141389 -0.00000031
0.31097716 0.23473188 0.23015526
0.52034020 0.04680086 -0.00000075
0.21258000 0.30484028 0.25575809
0.24076969 -0.73932206 -0.00000004
-0.72646059 -0.23616447 -0.00000004
0.75847246 -0.27658817 -0.00000065
-0.56405458 0.79817783 -0.00000029
-0.50709142 -0.49477989 -0.00000019
-0.13143577 -0.77653380 -0.00000001
-0.02382438 0.69999980 -0.00000094
0.11423174 0.41608139 0.24408814
0.03211709 0.40278245 -0.00000075
0.41339741 -0.30759797 -0.00000031
-0.78712027 -0.50080116 0.00000000
0.42728252 0.23992271 -0.00000086
-0.19487181 0.11942052 -0.00000057
0.14653816 -0.72052153 -0.00000005
0.16567645 0.34921548 -0.00000072
-0.05768735 0.69775922 -0.00000092
0.31704835 0.48137391 -0.00000100
-0.49220914 -0.53830461 -0.00000016
0.57352968 -0.03418032 -0.00000072
-0.40032816 -0.10173825 -0.00000041
-0.73999811 0.43685232 -0.00000008
0.35426890 0.23721870 -0.00000078
0.46836233 -0.42417976 -0.00000023
-0.16874757 0.40995593 -0.00000075
-0.15029054 -0.70061261 -0.00000006
-0.00558826 0.18643098 -0.00000062
-0.10909721 -0.46514028 -0.00000021
-0.79122798 0.20486769 -0.00000001
-0.72370158 0.37997743 -0.00000010
0.08443093 0.49832034 0.19662700
-0.39071318 -0.75198411 -0.00000003
-0.44881356 0.05784868 -0.00000039
-0.15804121 -0.70641128 -0.00000006
0.02708680 0.76916516 -0.00000100
-0.48707678 -0.28510085 -0.00000028
-0.59156611 -0.03788861 -0.00000022
-0.74446403 0.67841702 -0.00000007
-0.21270764 -0.11362043 -0.00000043
-0.40095074 0.29123150 -0.00000048
0.15745935 0.33518244 0.27818422
0.09575750 0.08881837 -0.00000056
0.37482438 -0.74999365 -0.00000003
-0.78903006 -0.02632200 -0.00000001
-0.20005530 0.00710212 -0.00000050
-0.16797330 0.49014261 -0.00000076
-0.54772935 0.64471317 -0.00000032
0.17808039 0.58756575 0.03109164
0.06482407 -0.51303766 -0.00000018
-0.36286819 -0.75699881 -0.00000003
0.37835261 0.36068098 0.05517854
0.02774713 0.20581744 -0.00000063
-0.44103197 0.17185136 -0.00000041
-0.70549293 0.58571593 -0.00000012
-0.69869494 0.31469892 -0.00000013
-0.40801791 0.04159718 -0.00000043
-0.00695195 -0.48768590 -0.00000020
0.39790751 0.36192635 0.03635231
0.08195764 0.19844009 -0.00000062
0.44371970 -0.42151859 -0.00000024
-0.77374717 -0.59835816 0.00000000
0.29463837 -0.53332571 -0.00000017
-0.49777165 -0.26968263 -0.00000027
-0.29651240 0.64791617 -0.00000063
0.22140890 0.18737199 -0.00000062
-0.36850673 -0.57191917 -0.00000014
0.11943835 0.34734096 0.30159158
-0.70202079 0.08891245 -0.00000012
0.24058416 0.18459622 0.33924312
-0.66263523 0.52956377 -0.00000017
-0.06835299 -0.51552859 -0.00000018
0.06126712 0.69673870 0.03800686
0.42738408 0.26026343 -0.00000088
0.19739821 -0.00769926 -0.00000050
0.37366090 -0.34925142 -0.00000028
0.15985506 0.43099992 -0.00000078
-0.68696691 -0.45240971 -0.00000004
-0.28230491 0.50085190 -0.00000064
0.52075242 -0.00515602 -0.00000070
0.13263811 -0.24131620 -0.00000035
0.09710376 0.63995656 0.05696454
-0.40649750 -0.11004149 -0.00000040
-0.54228371 0.24556176 -0.00000032
-0.34824379 0.79656478 -0.00000056
0.04352459 0.23049067 -0.00000064
0.38255050 -0.47276536 -0.00000020
0.58662486 -0.05805605 -0.00000071
-0.71957027 0.32522566 -0.00000010
0.37400758 -0.50531369 -0.00000018
-0.22377939 0.04302516 -0.00000053
-0.27794749 0.47032334 -0.00000064
0.26487940 0.20434482 0.29937999
-0.29912186 -0.25420563 -0.00000034
0.44660895 -0.55552113 -0.00000015
0.57702457 0.12583883 -0.00000090
0.37516553 -0.71761654 -0.00000005
0.06308849 0.51883673 -0.00000082
0.27549481 0.52384005 -0.00000100
-0.79081533 -0.43594094 0.00000000
0.73556289 -0.22327761 -0.00000069
-0.69031247 0.04585709 -0.00000013
-0.33412612 -0.25012381 -0.00000034
-0.13640407 0.43947545 -0.00000077
0.30593080 -0.14248158 -0.00000041
0.19442786 -0.25622274 -0.00000034
0.18682381 0.29446284 0.28846182
-0.58135020 0.63626180 -0.00000027
0.17409671 0.54673331 0.07165452
-0.09489879 0.29610550 -0.00000069
-0.64128902 -0.37290995 -0.00000010
0.31250504 -0.54344232 -0.00000016
0.56853737 -0.30891374 -0.00000042
-0.28468389 0.36695032 -0.00000062
0.72949791 -0.74527338 -0.00000007
-0.42568583 0.34828775 -0.00000046
-0.34190918 -0.37984385 -0.00000026
0.26296525 -0.30041246 -0.00000031
-0.43292089 -0.79389005 -0.00000000
-0.65906201 -0.51394515 -0.00000006
-0.30047185 -0.34388772 -0.00000029
0.44582923 -0.78587473 -0.00000001
0.20201151 -0.03306512 -0.00000048
-0.69005830 0.30395621 -0.00000014
-0.48641652 -0.20726173 -0.00000030
-0.17146481 -0.19396436 -0.00000038
-0.08061672 -0.53710575 -0.00000016
-0.40178557 -0.62386876 -0.00000011
-0.41980609 0.65874461 -0.00000048
0.78436333 -0.30618991 -0.00000062
-0.78627610 0.30964742 -0.00000002
-0.59539852 -0.35903178 -0.00000015
0.30312223 0.40557386 0.08263689
-0.09471442 -0.63601664 -0.00000010
0.34868837 0.26772631 0.16616040
0.66192479 -0.67432683 -0.00000013
0.48071895 0.12509279 -0.00000079
0.56720373 -0.10260963 -0.00000064
0.26097825 -0.20395401 -0.00000037
-0.41734620 -0.56238792 -0.00000015
0.29637045 0.34283364 0.14553380
0.24115068 0.33722551 0.20058817
0.23192556 -0.35843544 -0.00000028
-0.69540283 -0.38788442 -0.00000004
0.51367069 -0.69627835 -0.00000006
0.10086198 -0.48477565 -0.00000020
0.52003439 0.24088608 0.03536882
0.20068788 -0.22439504 -0.00000036
-0.10216258 -0.63593325 -0.00000010
0.03286837 0.76141310 0.00517393
-0.28840546 0.15619206 -0.00000057
0.58844492 -0.57384522 -0.00000016
-0.44802364 -0.52748389 -0.00000017
-0.17708138 0.00371467 -0.00000050
0.56430393 0.04369816 -0.00000080
-0.18107128 -0.76733871 -0.00000002
0.55114017 -0.27977730 -0.00000044
0.09637730 -0.25483199 -0.00000034
-0.42122549 0.05071886 -0.00000041
0.08870641 -0.59562450 -0.00000013
-0.19804139 0.27271650 -0.00000067
-0.49716654 0.28540705 -0.00000038
-0.54019907 0.77062107 -0.00000032
-0.78579488 -0.73534888 0.00000000
0.49535195 0.17824381 0.11440604
0.07119325 0.01156098 -0.00000051
-0.63777103 -0.23101149 -0.00000013
-0.35590219 0.17603618 -0.00000051
-0.31693246 0.28501066 -0.00000057
0.26179900 -0.06522005 -0.00000046
0.72054538 0.03507679 0.04016429
-0.39622877 -0.22460161 -0.00000036
0.12909691 0.40959366 -0.00000076
0.12509419 0.47763097 -0.00000080
-0.77185372 0.41644573 -0.00000004
0.35624781 0.39101301 -0.00000094
-0.06022314 0.20624117 -0.00000063
-0.09948102 -0.19697315 -0.00000038
0.24848976 0.34464470 0.18723076
0.04556889 0.62263370 -0.00000089
-0.74901515 -0.38798819 0.00000000
0.69265124 -0.33568614 -0.00000053
-0.62654562 0.34630827 -0.00000022
-0.10117995 -0.30088882 -0.00000031
0.18139033 0.17462238 0.40184511
-0.75957258 0.51420431 -0.00000005
-0.28164444 0.29699257 -0.00000061
-0.69571171 0.30784171 -0.00000013
0.39548579 -0.72619929 -0.00000005
0.74289555 -0.67401617 -0.00000016
0.72332909 0.06178513 0.01347116
0.30062851 -0.05406244 -0.00000047
0.46735731 -0.21127596 -0.00000042
-0.45727844 -0.69654736 -0.00000006
-0.55643039 -0.48377354 -0.00000017
0.46627979 -0.46395512 -0.00000021
0.15765426 -0.13364201 -0.00000042
0.69290901 -0.12994744 -0.00000075
-0.77691119 0.48761702 -0.00000003
0.17430694 0.48542582 -0.00000085
0.08159682 -0.52672209 -0.00000017
0.50843683 0.11943727 -0.00000082
-0.41703782 -0.13286780 -0.00000038
-0.62507262 0.66197801 -0.00000022
-0.32982867 -0.74749500 -0.00000003
-0.75653160 0.49789912 -0.00000005
0.07694379 0.26665810 -0.00000067
0.20662088 0.12836690 -0.00000058
0.34999732 0.21376883 0.21381237
0.10873333 0.13993885 -0.00000059
-0.21780582 0.56639244 -0.00000072
0.29105752 -0.63680386 -0.00000010
-0.11336779 0.12782384 -0.00000058
0.35813805 0.31596042 0.11395105
0.03918675 -0.40371319 -0.00000025
0.40690563 -0.54206405 -0.00000016
-0.43283727 -0.75143083 -0.00000003
0.36229289 0.24108908 0.17795626
-0.75007635 0.69068952 -0.00000006
0.15917249 -0.16377133 -0.00000040
-0.21541801 -0.45998680 -0.00000021
0.57555202 0.05708635 0.15147641
0.16323765 0.25714521 0.34358461
-0.35602630 0.67079334 -0.00000055
-0.13306324 0.37838897 -0.00000074
0.33925328 -0.37022672 -0.00000027
-0.49489912 0.60660589 -0.00000038
-0.34682234 0.13443890 -0.00000051
0.59277701 0.09241529 -0.00000088
0.34047173 -0.55348237 -0.00000015
0.70130478 -0.65252950 -0.00000018
-0.62842204 0.35389082 -0.00000021
0.26555917 -0.22745021 -0.00000036
-0.44009644 0.66647772 -0.00000045
0.13663228 0.06808844 -0.00000054
0.39599866 0.22509099 0.16192910
0.18919115 0.18795449 0.38271812
-0.59408737 0.55029534 -0.00000026
-0.29615014 0.08714077 -0.00000055
-0.09856652 0.00548087 -0.00000050
-0.51004878 0.14084517 -0.00000034
0.73449959 -0.16933573 -0.00000075
-0.32499329 -0.59463245 -0.00000013
0.16492993 0.11560831 -0.00000057
0.57915793 -0.22361360 -0.00000053
-0.30950954 0.13360898 -0.00000055
-0.08838513 -0.26082108 -0.00000034
0.36101451 -0.68188604 -0.00000007
-0.64016272 0.31663042 -0.00000020
0.12319985 0.27766836 -0.00000067
-0.28608847 0.49231757 -0.00000064
