ply
format ascii 1.0
element vertex 1402
property float x
property float y
property float z
end_header
-0.26357547 -0.13405283 0.00000000
0.07883728 0.23316711 0.02335243
0.24745990 -0.71724761 0.07330024
-0.20398467 -0.28088499 0.00000000
0.56716630 0.06608325 0.16800226
0.02732708 0.22603175 0.00810277
-0.00064567 -0.42456405 0.00000000
-0.25110268 -0.35849288 0.00000000
0.23777858 0.12765696 0.07043252
0.27718556 -0.25476587 0.08210529
0.41155986 -0.49113147 0.12190838
0.15109580 -0.17688537 0.04475617
-0.08080862 0.30649034 0.00000618
0.47418392 -0.18774209 0.14045803
-0.46932540 -0.19225595 -0.00000025
-0.56414748 -0.48045144 -0.00000014
0.25675722 0.18825766 0.07605416
0.69037759 -0.19093944 0.20449622
0.18671763 0.48172557 0.05530968
-0.17385501 0.35197388 0.00000000
0.14897289 -0.10424899 0.04412734
0.08939398 0.67344487 0.02647932
-0.69288956 -0.08399336 -0.00000139
0.30547587 0.15908326 0.09048502
-0.55993180 -0.55710222 0.00000000
0.60537667 -0.09980423 0.17931820
0.22863062 0.36714038 0.06772599
-0.59301946 0.20492969 -0.00000145
-0.23778407 0.39177589 -0.00000029
-0.33965584 -0.54363527 0.00000000
0.47883564 -0.65590967 0.14183617
0.50111528 0.13684705 0.14843491
-0.29915110 -0.25061049 0.00000000
-0.15924341 -0.41443705 0.00000000
-0.53275854 0.16520915 -0.00000115
0.67400719 -0.16445996 0.19964715
0.44698772 -0.73690904 0.13240248
-0.46052913 0.24776704 0.00000038
-0.78850570 -0.46119840 -0.00000085
-0.42817760 -0.39108918 0.00000000
0.01135512 -0.08560801 0.00336351
0.17063613 0.37620285 0.05054422
0.03416773 0.40914509 0.01012624
0.20802603 0.40638350 0.06161935
-0.27735609 -0.22858139 0.00000000
-0.47625775 0.03281794 0.00000367
0.00393319 0.08028344 0.00117570
-0.16221346 0.42739341 -0.00000003
0.50966248 -0.71225160 0.15096740
0.43328610 -0.23665994 0.12834385
0.41286969 0.00617400 0.12229606
-0.35149058 -0.42428853 0.00000000
-0.10131407 0.01695302 0.00000000
-0.14676390 0.19919886 0.00000000
-0.25707682 -0.40324477 0.00000000
0.13566621 0.57978895 0.04018562
0.14326156 -0.31408957 0.04243558
-0.04237215 0.31125974 0.00000669
-0.10632430 0.39334365 0.00000000
-0.34445134 0.07082551 -0.00000018
-0.22671924 0.51707758 0.00000037
0.11237537 -0.33353541 0.03328677
0.62793097 0.09066271 0.18599966
-0.14006685 0.29740195 0.00000000
0.31265434 0.35364979 0.09261318
0.25532356 0.26055828 0.07562941
-0.69529653 -0.39135193 -0.00000086
0.26861014 0.35600812 0.07956487
-0.76135249 -0.77740042 -0.00000006
0.20529892 0.10223022 0.06081171
-0.12901616 0.08215296 0.00000000
0.00880888 0.08656423 0.00261978
0.52606728 -0.13328345 0.15582620
-0.62460384 -0.63287506 -0.00000013
-0.28305026 0.38733033 0.00000146
0.56242893 -0.68076301 0.16659738
0.05097182 -0.39657458 0.01509839
-0.18748139 -0.47366983 0.00000000
-0.42880728 0.21636564 0.00000151
-0.03450041 0.71861153 -0.00000000
0.47891242 -0.73737281 0.14185891
-0.07303010 0.47678581 0.00000000
0.49768784 -0.11377713 0.14741998
0.70708633 -0.15874300 0.20944543
-0.60040339 -0.75376867 0.00000000
0.46283880 -0.38186808 0.13709774
-0.02136447 -0.43128320 0.00000000
-0.52130929 0.15206542 -0.00000108
0.63527089 -0.17899283 0.18817319
-0.08509438 0.28602053 0.00000000
0.74808223 -0.71044227 0.22159038
-0.09310940 0.22881295 0.00000000
-0.19705329 0.36704574 0.00000345
-0.55796640 0.03862510 0.00000200
0.11883546 0.13719372 0.03520032
0.10792266 -0.40824486 0.03196783
-0.79110497 -0.45302180 -0.00000087
0.34993504 0.25327199 0.10365405
0.29948658 -0.52241212 0.08871109
0.52095044 0.21960467 0.15431077
0.13341227 0.41673132 0.03952222
-0.16897875 0.20449502 0.00000638
0.11111006 -0.34581205 0.03291197
0.67100283 -0.11722906 0.19875718
-0.01385270 0.07743590 0.00000000
-0.44039005 0.33117417 -0.00000105
0.03592159 -0.67642234 0.01064035
0.44847503 -0.27909456 0.13284297
-0.19269013 -0.72010703 0.00000000
-0.31876681 0.01327962 0.00000000
0.17343291 0.13186514 0.05138052
0.01100621 -0.58847715 0.00326016
-0.39470975 -0.30695741 0.00000000
-0.70310581 0.00513418 -0.00000022
-0.38676271 -0.63675172 0.00000000
-0.10064059 0.35299118 0.00000000
-0.45711851 -0.68181369 0.00000000
-0.26931050 -0.37210728 0.00000000
-0.57977282 0.11772531 0.00000026
0.18563071 0.58553435 0.05498547
0.04655706 -0.74417373 0.01379069
-0.04995624 -0.14086431 0.00000000
-0.66481383 -0.53488879 -0.00000048
-0.42920600 -0.55945752 0.00000000
0.46846749 -0.03973282 0.13876460
0.42947676 -0.46022828 0.12721555
-0.59780001 -0.21712572 -0.00000075
0.05709411 0.35217896 0.01691785
-0.06772624 0.17767846 0.00000831
-0.26442581 0.51267854 -0.00000062
-0.55736511 -0.38113660 -0.00000029
0.43668760 -0.12469252 0.12935126
-0.05672561 0.05898263 0.00001026
-0.52652973 -0.64763547 0.00000000
-0.27769529 0.51511564 -0.00000057
0.24064028 0.45997349 0.07127987
0.30680699 0.39862017 0.09087902
0.04377239 -0.14648352 0.01296584
-0.50578749 -0.02245900 -0.00000070
-0.67291662 -0.08117275 -0.00000131
-0.35465929 -0.28846172 0.00000000
-0.36514458 -0.65903150 0.00000000
0.48946250 -0.53532122 0.14498396
0.23779725 0.20417544 0.07043805
0.05287606 0.67760099 0.01566243
0.06767964 -0.55811508 0.02004742
-0.10523815 0.55723239 0.00000203
-0.29341036 0.21379423 0.00000416
0.60227873 -0.04000426 0.17840049
-0.15023946 -0.72560788 0.00000000
-0.57724437 -0.57025815 -0.00000004
-0.03271938 0.07587389 0.00001037
0.72857554 -0.68353146 0.21581208
0.15537683 0.08528826 0.04603302
-0.68465757 -0.03298025 -0.00000145
0.65719993 -0.11725659 0.19466866
-0.73266468 -0.41984362 -0.00000095
-0.22235557 0.10545499 0.00000000
0.22442665 -0.64856733 0.06647754
-0.38772710 -0.76756321 0.00000000
0.11555587 0.27922752 0.03423523
-0.44995537 -0.09484939 -0.00000034
0.27574451 0.43617565 0.08167935
0.47113276 0.12646622 0.13955702
-0.29454559 0.15684059 0.00000509
0.26392198 0.51695364 0.07817615
0.01703812 0.17553664 0.00505595
-0.07905815 0.18354717 0.00000805
0.35631553 -0.04711595 0.10554436
0.50668372 -0.08712189 0.15008459
-0.46378658 -0.49762859 0.00000000
0.12700851 0.07385251 0.03763054
0.72514414 -0.31985309 0.21479459
0.06409765 -0.30545703 0.01898640
0.06596139 0.39898178 0.01953846
-0.43335524 0.28403454 0.00000030
0.11711593 0.66557181 0.03469099
0.01590855 -0.19669801 0.00471228
-0.58903342 -0.51975275 -0.00000018
0.20852525 0.25696435 0.06176738
0.59039849 -0.02908150 0.17488146
-0.55365274 -0.71856259 0.00000000
0.26279697 0.03543626 0.07785146
0.28505599 0.44688624 0.08443711
-0.32497673 0.26295638 -0.00000044
-0.07652250 0.18887410 0.00000801
-0.24109382 0.18450093 0.00000559
0.57883607 -0.27825642 0.17145689
0.06708183 0.59693510 0.01987256
0.26044067 0.49641917 0.07714485
-0.43093668 0.10251133 -0.00000061
0.00305356 0.25654153 0.00091254
-0.48984378 0.02959802 0.00000346
-0.25748093 0.31015027 -0.00000023
0.21397959 -0.67899806 0.06338301
-0.17420827 -0.62051168 0.00000000
-0.70176420 -0.46438292 -0.00000076
-0.57521165 0.06160476 0.00000129
0.24911157 0.14668106 0.07378948
0.04613708 -0.56528866 0.01366629
-0.59188113 -0.21955314 -0.00000072
0.32428401 0.22064932 0.09605606
0.36005441 0.15323555 0.10665160
0.49506146 -0.06074325 0.14664196
0.33041768 -0.12529742 0.09787320
0.14698024 0.05982340 0.04353710
-0.07117442 0.34795943 0.00000000
0.44087418 0.01294502 0.13059119
0.37339073 -0.19601345 0.11060228
-0.18808534 -0.40197671 0.00000000
0.18998990 -0.09299487 0.05627701
-0.42656515 -0.26788300 0.00000000
-0.65398557 -0.63719095 -0.00000025
-0.79396842 -0.46912455 -0.00000083
-0.75914330 -0.14382720 -0.00000157
-0.67764117 -0.02402538 -0.00000144
-0.37922854 0.27712467 0.00000145
-0.49796437 0.22366498 0.00000006
-0.46251137 -0.77054672 0.00000000
0.38291890 0.24630785 0.11342679
-0.07298092 0.71293310 0.00000005
-0.38780643 -0.62143892 0.00000000
-0.32251361 0.08540007 -0.00000011
-0.47151476 -0.63011833 0.00000000
-0.29555933 -0.68141104 0.00000000
0.48247761 -0.06862718 0.14291454
0.21003905 -0.04261220 0.06221578
0.11231113 -0.28340318 0.03326774
0.27588321 -0.65241662 0.08171952
0.06559345 0.30682530 0.01942947
0.13290606 -0.07837499 0.03936818
-0.35112335 -0.12968637 0.00000000
-0.28010867 0.16280724 0.00000526
-0.52573902 0.03041842 0.00000276
-0.21035727 0.24449574 0.00000000
-0.68723238 -0.41833816 -0.00000078
-0.00529790 0.37914511 0.00000623
-0.17187425 0.20596396 0.00000000
0.22331416 0.07721641 0.06614801
-0.42583772 -0.48142083 0.00000000
-0.54926258 -0.37714233 -0.00000026
-0.08655183 -0.18699310 0.00000000
-0.29464730 0.49347168 -0.00000072
0.39016049 0.10979163 0.11556930
-0.13222251 -0.51888733 0.00000000
-0.79598528 -0.71109347 -0.00000022
-0.39924336 0.00699018 -0.00000030
0.72023457 -0.13476889 0.21334001
-0.39636348 -0.00834021 -0.00000026
0.46433028 -0.62254390 0.13753953
-0.59499321 0.12055759 -0.00000008
0.47019131 0.20305951 0.13927675
-0.48694749 -0.61392485 0.00000000
0.20284809 0.39152892 0.06008562
-0.71566284 -0.75101270 -0.00000012
-0.29732510 -0.22265577 0.00000000
-0.31517047 -0.28736981 0.00000000
-0.00827076 -0.28654144 0.00000000
0.55867757 -0.22644989 0.16548573
0.74569430 -0.34600074 0.22088199
0.38541370 0.21247735 0.11416314
-0.34687663 -0.07566985 0.00000000
-0.24789733 0.10751742 0.00000665
0.63845230 -0.02469452 0.18911536
-0.17936112 0.47512440 -0.00000019
-0.43570298 0.06262175 -0.00000056
0.10200007 0.00164612 0.03022414
-0.24873064 -0.01396218 0.00000000
0.71329800 0.05512501 0.21128513
0.64650545 -0.32217996 0.19150112
0.08226275 -0.58028117 0.02436709
0.10285571 0.06398551 0.03046695
-0.23316197 0.38691754 -0.00000026
0.11083589 0.53888210 0.03283074
0.72194587 0.04264503 0.21384677
-0.67699896 0.05317650 -0.00000157
0.74302258 -0.67074515 0.22009151
-0.37656288 -0.69940354 0.00000000
-0.45194593 0.19822132 0.00000137
-0.09790552 -0.64525499 0.00000000
0.74435189 -0.40333533 0.22048451
0.57161152 0.11701366 0.16931645
-0.18925448 0.19278903 0.00000000
-0.75296967 -0.28124603 -0.00000130
-0.08662244 0.66675557 -0.00000013
-0.01609756 -0.23559577 0.00000000
0.61925649 -0.70162387 0.18343024
-0.29109927 0.37284243 -0.00000049
0.64243359 -0.68974264 0.19029545
0.49208200 -0.24956836 0.14575965
-0.55517595 0.05087483 0.00000185
0.62920516 -0.51811434 0.18637688
-0.46696661 0.08251906 -0.00000072
0.27103438 0.19249433 0.08028876
-0.16666980 -0.69397268 0.00000000
-0.27808218 0.18504341 0.00000493
0.54885759 0.14362033 0.16257798
-0.44059423 -0.23859479 -0.00000004
0.40808541 0.22108499 0.12087866
-0.74617308 -0.71488702 -0.00000021
-0.13008660 -0.24379608 0.00000000
0.56570580 0.12526580 0.16756712
0.34225496 -0.35173932 0.10137953
-0.58540889 -0.72666852 0.00000000
-0.51117066 0.00057416 -0.00000077
-0.17785538 -0.74852133 0.00000000
0.46929118 0.01495189 0.13900852
-0.40718917 0.12301411 0.00000349
-0.77453028 -0.61464633 -0.00000046
0.23905641 0.09630684 0.07081863
-0.27215876 -0.67056595 0.00000000
0.63814317 -0.35897228 0.18902420
0.61654563 0.09617395 0.18262734
0.38864675 -0.22094238 0.11512127
-0.34081419 0.38177465 0.00000044
0.25864461 -0.32499780 0.07661326
-0.67589261 0.09765405 -0.00000164
-0.68484978 -0.40119646 -0.00000080
0.67042415 -0.35419967 0.19858606
-0.08164164 0.02953018 0.00000000
-0.58821751 -0.24503343 -0.00000066
-0.57334355 0.12108188 0.00000033
-0.04617142 0.60968736 0.00000000
-0.52540002 0.04973284 0.00000244
-0.55641471 -0.08353743 -0.00000081
-0.41001009 -0.36788585 0.00000000
0.25934528 0.12494499 0.07682774
-0.41149251 -0.21120614 0.00000000
0.41446990 0.14244187 0.12277378
0.22048474 -0.53549817 0.06530991
-0.26331750 0.49352415 0.00000006
0.34847463 -0.65624575 0.10322186
0.22411153 -0.38861415 0.06638420
0.66234864 -0.09328281 0.19619372
0.33984863 0.11388597 0.10067227
0.02620131 0.08168307 0.00777147
-0.25466409 -0.32371318 0.00000000
0.68384636 -0.37795927 0.20256185
0.52455416 -0.42170825 0.15537836
-0.07229856 -0.42938278 0.00000000
0.46854095 0.02988497 0.13878628
0.73795133 -0.32788971 0.21858833
0.65693854 0.01931279 0.19459107
0.24875256 0.05537630 0.07368313
-0.16141447 -0.58785835 0.00000000
-0.48838814 0.30405204 -0.00000109
-0.69543173 -0.50327209 -0.00000066
-0.16819841 0.17406187 0.00000685
-0.48487529 -0.20046180 -0.00000030
0.36538085 0.02147674 0.10822949
0.02569396 -0.14021757 0.00761082
-0.47729756 0.30904598 -0.00000097
-0.00058085 0.36964925 0.00000645
-0.27907525 0.27565996 -0.00000026
-0.40474852 0.12655338 0.00000348
0.08492814 -0.19157087 0.02515661
0.74540135 -0.21073186 0.22079482
-0.55611920 -0.22324099 -0.00000056
-0.24117562 -0.69767398 0.00000000
-0.00094134 0.61564973 0.00000275
-0.63569855 -0.04492505 -0.00000122
-0.38725310 -0.59905328 0.00000000
0.10901639 -0.03968815 0.03229180
0.09571102 0.64690752 0.02835143
-0.51201260 0.03703399 -0.00000084
0.03644796 0.49162626 0.01080042
0.09269197 0.27465995 0.02746304
-0.03945899 0.12464820 0.00000953
-0.04415632 0.45928436 0.00000444
0.33057466 0.43336528 0.09791913
-0.07880603 -0.52230706 0.00000000
-0.40343640 -0.46180195 0.00000000
0.33623847 -0.61750758 0.09959738
-0.26707502 0.28677658 -0.00000023
-0.48267161 -0.00373470 -0.00000064
0.44400302 0.09485475 0.13151788
-0.78918016 -0.31239706 -0.00000122
-0.44489065 0.09699734 -0.00000066
-0.52942294 0.12055710 0.00000118
0.31185018 0.19204281 0.09237310
-0.25815164 0.18377414 -0.00000001
-0.20797799 -0.71758406 0.00000000
0.00381588 0.26951638 0.00113814
0.33374913 0.35071107 0.09886129
-0.47351191 0.21872241 0.00000062
-0.25088014 -0.02745188 0.00000000
0.53821480 -0.02071712 0.15942425
0.02338972 0.57541420 0.00692828
0.09351410 0.68895766 0.02769995
-0.00149339 -0.30466796 0.00000000
0.47508186 0.11314608 0.14072364
0.01616111 0.46606960 0.00479186
0.49803728 0.25572443 0.14752346
-0.14986467 0.24587660 0.00000000
0.50685903 0.25050015 0.15013647
-0.70897914 -0.42316936 -0.00000086
0.31271987 0.46275578 0.09263057
-0.51034060 -0.34633057 -0.00000015
-0.54168765 -0.05749295 -0.00000080
0.29463842 -0.78647419 0.08727501
0.27194520 -0.04869148 0.08055304
0.30155985 0.04384361 0.08933284
0.58579681 -0.34279139 0.17351879
-0.28204972 0.30460488 0.00000286
-0.56835662 -0.56066155 -0.00000002
0.31778146 0.28372531 0.09412988
-0.75236811 -0.63193491 -0.00000042
0.55030654 -0.11885421 0.16300604
-0.38229348 0.11157089 -0.00000041
0.16390633 0.53774877 0.04855218
0.64127253 -0.22341348 0.18995097
-0.72764986 -0.43514762 -0.00000091
-0.50531746 -0.49383365 0.00000000
-0.09963986 0.53891707 0.00000241
0.28722967 -0.45544743 0.08508046
0.24583300 -0.63260303 0.07281833
0.24113770 -0.23253756 0.07142753
0.34921948 0.02177280 0.10344952
-0.21738677 -0.26803668 0.00000000
-0.25537451 0.27387630 -0.00000016
0.30336042 -0.20771861 0.08985856
0.06549481 -0.55099106 0.01940025
-0.53773666 -0.19041704 -0.00000054
0.34803295 -0.54834518 0.10309103
-0.49526845 -0.27781672 -0.00000021
0.68088261 -0.31722573 0.20168389
0.65396135 -0.55693388 0.19370990
0.40990823 -0.32005181 0.12141914
0.15116166 -0.13036260 0.04477568
-0.18493171 0.40476467 0.00000305
0.38175662 0.20254155 0.11307990
0.49052081 -0.08577899 0.14529701
-0.38954194 -0.55954662 0.00000000
0.22854760 0.30369171 0.06770257
0.05164277 0.38719334 0.01530265
0.21287891 0.43292608 0.06305928
0.03388087 0.58164586 0.01003587
-0.31840403 -0.29723247 0.00000000
-0.13562874 -0.63030321 0.00000000
-0.39360779 -0.70130223 0.00000000
-0.02362644 0.38292735 0.00000000
0.31775206 0.18643179 0.09412129
0.48262106 -0.10994215 0.14295708
-0.50278773 -0.21913051 -0.00000034
-0.25295368 0.43710152 -0.00000044
0.48196876 -0.57178539 0.14276423
0.36230857 0.40704335 0.10731899
-0.37067334 0.38383222 -0.00000085
-0.16288766 -0.09125500 0.00000000
0.17474870 0.51283932 0.05176222
-0.16130340 -0.63433774 0.00000000
0.43217105 0.27693672 0.12801419
-0.50451082 -0.40751431 -0.00000002
-0.16211719 0.44080297 -0.00000006
-0.41255375 -0.27088032 0.00000000
-0.57927128 -0.58866031 -0.00000002
0.10770670 -0.08910213 0.03190386
0.33372779 -0.72855373 0.09885369
0.42489637 -0.33642585 0.12585879
0.35556375 0.01821185 0.10532160
-0.65146535 0.04346495 0.00000013
-0.10835455 0.03121581 0.00000990
-0.64947771 -0.32848911 -0.00000078
0.07370198 0.41942098 0.02183608
0.60457638 -0.68582187 0.17908186
-0.13164269 0.50545339 0.00000239
-0.38118087 -0.44816957 0.00000000
-0.05833947 -0.54887129 0.00000000
0.43158567 -0.42901875 0.12784023
0.29042637 -0.00423833 0.08602735
0.33633573 0.39089952 0.09962566
-0.15306219 -0.44407674 0.00000000
-0.40900196 -0.38923913 0.00000000
0.68230990 -0.44593699 0.20210682
-0.08951329 0.67501727 0.00000037
0.09254025 0.06403988 0.02741140
0.05912821 0.42814873 0.01751922
-0.21855784 0.22178025 0.00000000
-0.70431196 -0.12446622 -0.00000137
0.02641484 0.63282644 0.00782435
0.60226713 0.07830565 0.17839691
0.03272762 0.71196339 0.00969427
-0.03782628 0.06224559 0.00001050
0.27539085 0.40065932 0.08157525
0.24597544 0.11203436 0.07286781
-0.66210338 -0.45272517 -0.00000061
-0.78985997 -0.14623600 -0.00000163
0.06735746 0.66425537 0.01995308
-0.01629813 -0.10716053 0.00000000
-0.15550601 -0.45101247 0.00000000
0.43507243 -0.28163041 0.12887303
0.46424636 -0.02341184 0.13751425
-0.26541082 -0.65611969 0.00000000
-0.22536240 0.10325252 0.00000705
-0.59625183 -0.58250102 -0.00000010
0.14839494 0.10018299 0.04395615
0.16292084 -0.15963441 0.04825887
0.45390095 0.04623181 0.13444978
0.64791902 -0.03547032 0.19191948
0.14614967 0.61942697 0.04329133
0.03772026 0.56703671 0.01117314
0.17872454 -0.07944692 0.05294010
-0.01434787 0.19562764 0.00000885
0.19818925 -0.57898881 0.05870575
-0.25445161 -0.05766646 0.00000000
-0.58856888 -0.52032538 -0.00000018
-0.22498382 -0.27805963 0.00000000
0.73391766 -0.28325932 0.21739336
0.02172476 -0.17655046 0.00643510
-0.48159400 -0.16143783 -0.00000036
-0.25528185 0.30269496 0.00000340
-0.74771033 0.00505395 -0.00000108
-0.37010261 -0.21272063 0.00000000
0.17169771 0.61805855 0.05085837
0.28209379 -0.58669852 0.08355916
-0.38942882 -0.05352331 -0.00000015
-0.21984417 0.50983863 0.00000063
0.27651676 0.35774852 0.08190953
-0.43343416 -0.46071657 0.00000000
0.62460608 -0.47552882 0.18501455
0.71947641 -0.62159656 0.21311658
-0.55716042 -0.36964423 -0.00000031
-0.30767306 0.06026836 -0.00000001
0.11685480 0.49942988 0.03461670
0.35836511 0.05058311 0.10615134
0.04859062 -0.19047002 0.01439305
0.55280221 0.20139612 0.16374488
-0.28263689 0.26625930 -0.00000026
-0.31409345 0.13425574 0.00000509
-0.00292198 -0.66604029 0.00000000
0.76363032 -0.69308712 0.22619595
-0.03417325 0.44892591 0.00000000
-0.30433018 -0.41486797 0.00000000
0.65843135 0.03552869 0.19503323
0.70700765 -0.42430819 0.20942255
0.40537821 -0.36204818 0.12007730
0.21333189 0.28149744 0.06319625
0.23537322 0.47615697 0.06972106
-0.79722877 -0.46590113 -0.00000084
-0.01717622 0.41094762 0.00000000
0.01044493 0.69542923 0.00309533
0.09798541 -0.67375878 0.02902431
0.01848897 0.53506123 0.00547663
0.47753868 -0.78100170 0.14145200
0.46198613 0.17135664 0.13684705
0.29597533 -0.78277604 0.08767102
0.35327024 0.13722705 0.10464718
0.05663855 0.28985151 0.01677694
-0.19435282 -0.53383897 0.00000000
0.20644902 0.20989531 0.06115868
-0.15995558 0.28982281 0.00000524
0.22439183 0.11507469 0.06646723
-0.63882761 -0.79491768 0.00000000
0.12096606 0.46491530 0.03583142
-0.19271086 0.36599469 0.00000355
0.66723754 -0.23496694 0.19764202
0.15412190 0.57782405 0.04565339
0.30594271 0.15852012 0.09062887
-0.07295460 0.54971260 0.00000000
-0.13647416 0.05134052 0.00000000
0.63998776 -0.25507364 0.18957045
0.48269389 -0.71861991 0.14297902
-0.07895224 -0.67333061 0.00000000
-0.12332506 -0.70661926 0.00000000
-0.16739030 -0.14771598 0.00000000
0.13642909 -0.26620623 0.04041174
0.26061904 0.19754982 0.07719804
-0.13084863 -0.22961104 0.00000000
0.59139487 0.17163827 0.17517635
0.43670795 0.23864292 0.12935868
-0.30862303 -0.79376983 0.00000000
-0.35050847 0.03177822 0.00000610
0.38637801 0.10194969 0.11445401
0.64521380 -0.60891143 0.19111887
0.17426169 0.60120086 0.05161815
0.37194367 0.08397655 0.11017337
-0.12695099 -0.18547327 0.00000000
-0.23061812 0.01177939 0.00000000
0.52079308 -0.73771971 0.15426441
0.51698917 -0.07506473 0.15313713
-0.25746932 0.51815623 -0.00000060
0.15025726 0.39660325 0.04450779
0.19142039 0.45576365 0.05670307
-0.42973140 0.18197015 -0.00000074
0.54532073 -0.12794748 0.16152921
0.59988090 0.11383765 0.17769110
-0.16381518 0.27262131 0.00000544
-0.16137458 0.04941742 0.00000000
-0.51839786 0.01821144 -0.00000083
0.60828156 -0.19552020 0.18017877
-0.33131907 0.20362614 -0.00000036
-0.00589861 -0.57308778 0.00000000
0.58340726 -0.29272839 0.17281093
-0.15963306 -0.14443916 0.00000000
-0.00589758 0.71655437 0.00000116
-0.57807229 -0.28860554 -0.00000054
0.01492618 -0.60990128 0.00442129
0.05763028 0.02516112 0.01708152
0.37399918 -0.48709874 0.11078250
0.52075598 -0.44167504 0.15425333
0.20104539 0.47323250 0.05955155
-0.26526571 -0.46040886 0.00000000
-0.17768752 0.57381345 0.00000037
0.70633065 -0.42407592 0.20922201
0.61017550 -0.11568900 0.18073967
-0.47165470 0.02545795 0.00000388
0.51316197 0.24203947 0.15200349
-0.08345367 0.17032920 0.00000819
0.29340538 0.20419491 0.08690960
0.31311953 0.02217661 0.09274930
-0.52556116 0.03495510 0.00000269
-0.32217426 0.22791585 -0.00000036
0.07557370 0.00876530 0.02238573
0.08555117 -0.40803273 0.02534116
-0.11187367 0.55269421 0.00000198
-0.09625894 -0.69638668 0.00000000
0.29919204 -0.73898291 0.08862384
0.61603230 0.04015917 0.18247431
0.04577023 0.52306262 0.01355762
0.20001519 0.20639099 0.05925304
-0.32935842 -0.37992788 0.00000000
0.37205195 -0.25656070 0.11020571
-0.41773231 0.20937181 0.00000184
0.05541163 -0.57151087 0.01641351
0.31745622 0.15311548 0.09403370
-0.31909580 0.35178689 0.00000136
0.00434597 0.37481488 0.00129359
-0.28916955 0.41084476 0.00000095
-0.59096440 0.01979064 0.00000168
0.66079799 -0.63750626 0.19573506
0.32907165 -0.35790557 0.09747449
-0.26600020 0.39359899 -0.00000042
0.74896262 -0.51339758 0.22185060
-0.05029150 -0.16809633 0.00000000
0.11576019 0.21446060 0.03428939
-0.54164732 0.21292344 -0.00000127
0.32794005 0.07579939 0.09714578
0.72380349 -0.67401585 0.21439849
-0.55695117 -0.42706590 -0.00000021
-0.30085664 0.19512056 -0.00000021
-0.02718095 0.20717730 0.00000848
0.06695005 -0.39063260 0.01983131
0.31865866 -0.78599272 0.09439006
0.33709148 -0.62528783 0.09985006
-0.25843127 -0.38373381 0.00000000
-0.68545708 -0.25885589 -0.00000105
0.09588025 -0.70374179 0.02840074
0.24202356 0.03201771 0.07169845
-0.43955666 0.28370949 -0.00000096
-0.40194658 -0.69952620 0.00000000
0.43507782 0.00089736 0.12887428
0.40493931 0.14123065 0.11995094
-0.28472147 -0.09272600 0.00000000
-0.08417517 -0.52377394 0.00000000
0.01294978 0.46592721 0.00383586
-0.74480619 -0.25707796 -0.00000131
0.32552168 -0.33824919 0.09642296
-0.11831861 0.42777959 0.00000000
0.59781942 -0.61562201 0.17708031
0.18973508 0.24652085 0.05620153
0.15347211 0.13738609 0.04546807
-0.04979397 0.23821853 0.00000768
-0.34492491 -0.45512338 0.00000000
-0.38743323 0.17254166 0.00000304
-0.03588377 0.22201269 0.00000813
0.29539831 -0.07133370 0.08750010
0.51175624 -0.76818285 0.15158760
0.50618833 -0.06831764 0.14993783
-0.64571763 0.05437527 0.00000005
0.07096125 -0.05370111 0.02101947
0.71963033 -0.62193357 0.21316218
0.15157803 -0.62745035 0.04489901
-0.50758774 -0.73585820 0.00000000
0.52804503 -0.55123094 0.15641251
-0.49181638 0.19640185 0.00000064
0.31789152 0.10058369 0.09416906
-0.32312572 -0.76133505 0.00000000
-0.07168046 -0.61439386 0.00000000
0.01746360 0.39502793 0.00517290
-0.75252588 -0.52763684 -0.00000068
0.03245119 0.45034955 0.00961719
0.33547345 0.38409931 0.09937025
0.17027605 0.06372876 0.05044647
0.53461857 0.07917589 0.15836172
0.13493333 0.38894418 0.03997317
-0.10759266 -0.64482303 0.00000000
-0.41347771 0.38122549 -0.00000095
-0.33154001 0.40014166 0.00000031
0.07990126 -0.46100554 0.02366760
0.11567651 -0.75005429 0.03426460
0.02554438 -0.65968457 0.00756651
-0.08495475 0.49073599 0.00000336
0.09985055 -0.47227974 0.02957679
-0.67333224 -0.08245026 -0.00000131
0.35347013 -0.31140364 0.10470158
-0.43322945 -0.38952590 0.00000000
-0.01173054 0.68123388 0.00000160
-0.05393084 0.70390766 -0.00000006
-0.74849969 -0.76666265 -0.00000008
0.39494419 -0.56185947 0.11698664
-0.08375415 -0.22412530 0.00000000
0.22651715 -0.63606294 0.06709677
-0.26477570 0.51761816 -0.00000063
-0.10367540 0.65141575 -0.00000018
0.14756298 -0.74575172 0.04370971
0.23846038 0.11499917 0.07064181
0.55847085 -0.13994113 0.16542439
0.04672558 0.25559822 0.01384061
0.12531657 0.17295405 0.03712791
0.71257538 -0.65032275 0.21107246
0.13464196 0.07846560 0.03988237
0.23499192 0.21894054 0.06961288
0.06769174 0.66281780 0.02005212
0.53886005 -0.44739580 0.15961590
-0.15115380 0.04192829 0.00000909
-0.38776399 0.14962559 0.00000342
0.02462971 -0.72159368 0.00729558
-0.55490227 -0.62857928 0.00000000
-0.26970719 -0.35540735 0.00000000
0.72045595 -0.73792067 0.21340707
-0.23835939 0.07072709 0.00000734
0.18884286 0.13177358 0.05594492
0.14212852 0.55256777 0.04210155
0.24960225 0.10665109 0.07393482
0.21428431 0.07111600 0.06347328
-0.69231597 -0.39432977 -0.00000084
-0.71394657 0.06772052 -0.00000148
-0.28510412 0.44148470 0.00000051
0.69861026 -0.45890653 0.20693519
0.39827631 0.09406061 0.11797328
0.75392112 -0.19903555 0.22331849
0.01730464 0.26727345 0.00512582
-0.49623369 0.27703315 -0.00000119
0.10471895 0.25823405 0.03102566
-0.43079069 0.25629210 -0.00000088
0.04390551 -0.12297532 0.01300528
-0.12775966 -0.01934927 0.00000000
-0.29036605 -0.56603263 0.00000000
0.41566287 -0.36391185 0.12312373
-0.57442572 0.03224233 -0.00000109
-0.46106333 -0.17085911 -0.00000025
0.06546401 0.68326034 0.01939191
-0.15619025 -0.19494054 0.00000000
-0.54233377 -0.76704217 0.00000000
0.41570562 0.32443359 0.12313642
-0.41716769 0.30687816 -0.00000091
0.29808269 -0.64316589 0.08829524
0.36330231 0.41920236 0.10761336
-0.14237214 -0.76227412 0.00000000
0.37633385 0.15878313 0.11147369
-0.75427906 -0.36824971 -0.00000108
0.69783801 -0.70409450 0.20670714
0.75301757 -0.45959073 0.22305160
-0.69942436 -0.67293320 -0.00000032
0.37497521 0.18668631 0.11107505
-0.12019394 0.18804717 0.00000000
0.44872845 -0.11644987 0.13291784
0.04716855 0.52699634 0.01397532
0.56162480 -0.30071990 0.16635881
-0.24354772 -0.04052133 0.00000000
0.46672825 -0.35444578 0.13824981
0.04884769 0.39392809 0.01446920
0.39277183 -0.36796613 0.11634316
-0.13427860 0.48520172 -0.00000002
0.54713952 -0.60862777 0.16206850
0.06932195 0.22452229 0.02053389
-0.45036676 0.19423876 -0.00000085
0.12674199 0.06490804 0.03754232
-0.27216953 0.41260487 0.00000124
-0.10799098 0.02322322 0.00000000
0.07856911 -0.00840845 0.02327300
0.42366506 -0.62542724 0.12549406
0.43963559 -0.39221385 0.13022470
0.33792793 -0.54097291 0.10009782
-0.10906844 -0.18970125 0.00000000
0.34349743 -0.30001193 0.10174756
-0.10114084 -0.70491910 0.00000000
-0.66991075 -0.72549282 -0.00000016
0.72831834 -0.21297636 0.21573458
0.13881778 -0.69140356 0.04111929
-0.29945858 -0.13698009 0.00000000
0.26007292 0.30339176 0.07703615
-0.77731831 -0.75111004 -0.00000012
0.75954947 -0.41414363 0.22498633
0.70689796 -0.23799394 0.20938973
0.38506773 -0.34787587 0.11406113
0.11082262 -0.42974168 0.03282683
-0.20932431 0.56660326 -0.00000012
0.60783878 0.13355264 0.18004777
-0.47597327 -0.00376484 -0.00000061
0.43541328 -0.25482028 0.12897396
-0.01325500 -0.25174666 0.00000000
0.25564429 0.24593314 0.07572443
0.57714933 0.13719573 0.17095781
0.37575507 0.05465437 0.11130848
0.28407461 -0.67161109 0.08414590
0.13023113 -0.67390329 0.03857583
-0.01278031 0.31239020 0.00000000
0.33479570 0.16725908 0.09916977
0.23306952 0.54100678 0.06903725
-0.65361929 -0.54621011 -0.00000041
-0.07972807 0.04976810 0.00000000
0.25803742 -0.12423855 0.07643341
0.09958630 0.29748445 0.02950479
0.62487090 -0.56252752 0.18509310
0.47509563 0.10647575 0.14072773
0.57031335 0.12281674 0.16893333
0.73762966 -0.10007059 0.21849252
-0.00255165 0.67833618 0.00000000
-0.19632349 -0.14307628 0.00000000
-0.68916657 -0.38541649 -0.00000085
-0.01482238 0.06461322 0.00001081
0.58829788 -0.74589877 0.17426004
-0.07673904 0.47029698 0.00000379
0.07012613 0.27474748 0.02077907
-0.45544092 0.17747069 -0.00000084
-0.06487359 -0.68543564 0.00000000
-0.10495173 0.04963778 0.00000967
0.50787303 -0.34710473 0.15043719
0.52433845 -0.61395567 0.15531458
0.11621476 0.24271630 0.03442404
0.13693462 0.26455005 0.04056780
0.13056998 0.25768596 0.03868271
0.68879885 -0.64618899 0.20402942
-0.40747850 -0.59809638 0.00000000
-0.38919345 -0.53633243 0.00000000
0.01040043 0.41151650 0.00308637
0.06684320 0.15446391 0.01980846
0.02685839 0.61826461 0.00795812
0.36695261 0.09955746 0.10869496
-0.06487811 0.60223876 0.00000199
-0.07580836 0.49196774 0.00000348
0.02318523 -0.24238914 0.00686771
0.29851962 -0.32140172 0.08842466
0.20240286 0.37565772 0.05995744
0.07800077 -0.44583106 0.02310465
0.13945017 0.35506109 0.04130661
0.50020171 -0.01839942 0.14816449
0.35813973 0.03249255 0.10609141
-0.08675532 0.66221176 0.00000064
-0.56935015 -0.09856746 -0.00000084
0.60534403 -0.04609956 0.17930846
-0.68671757 -0.75049519 -0.00000012
-0.20343871 -0.05641368 0.00000000
0.57799376 0.11430151 0.17120691
-0.08639183 -0.49650334 0.00000000
0.03621869 0.48702989 0.01072836
-0.46793867 0.33052269 -0.00000114
-0.75260984 -0.28288003 -0.00000129
0.68614019 -0.34873449 0.20324126
-0.32470090 -0.42839559 0.00000000
-0.41467191 -0.78142303 0.00000000
0.13627191 0.63242200 0.04036497
0.64275528 -0.67781468 0.19039072
-0.40088460 0.04109031 -0.00000037
-0.58886928 -0.79565972 0.00000000
-0.61506730 -0.33805014 -0.00000061
-0.14656786 -0.45170561 0.00000000
0.05729591 0.26724715 0.01697165
-0.29761304 -0.70649858 0.00000000
-0.17672928 0.10956297 0.00000769
0.59813360 -0.27944959 0.17717297
0.32221537 -0.68145868 0.09544359
-0.72236432 -0.39058048 -0.00000098
0.08526766 0.07685858 0.02525718
-0.70512873 -0.15416448 -0.00000132
0.40794756 -0.70813003 0.12083837
-0.16216289 0.32078001 0.00000474
0.31306077 -0.05735316 0.09273190
-0.68222665 -0.56159195 -0.00000050
0.27587568 0.49008936 0.08171720
0.73430050 -0.13771545 0.21750645
-0.41856887 -0.03076027 -0.00000032
-0.39964654 0.39930214 -0.00000100
0.42474607 0.01359293 0.12581392
0.41909763 -0.29618918 0.12414114
-0.22116308 0.28120149 -0.00000003
0.53785916 0.15141143 0.15931870
-0.63949548 -0.63223918 -0.00000020
0.43235432 -0.78917246 0.12806791
-0.10246324 0.56387875 -0.00000002
-0.26623597 0.51617971 -0.00000037
-0.00368363 -0.17643722 0.00000000
0.48181013 -0.64679129 0.14271724
0.53628509 -0.49802185 0.15885324
0.41961566 0.10722985 0.12429414
-0.08036971 -0.65556561 0.00000000
-0.13051258 0.11011287 0.00000838
0.42310210 -0.72169354 0.12532731
0.42896362 -0.66534071 0.12706355
-0.02614784 0.23689243 0.00000000
0.75947203 -0.79677675 0.22496449
0.40548125 -0.59108475 0.12010783
-0.46271381 0.26353053 0.00000008
-0.37480355 0.29749898 -0.00000071
-0.08009597 0.51312083 0.00000000
0.00207260 0.53255572 0.00061788
0.14873307 0.18191025 0.04405630
0.02217886 0.34138616 0.00656961
0.28893826 -0.54522603 0.08558656
0.17950689 -0.55809468 0.05317184
-0.30251665 0.40932487 -0.00000060
0.01400436 0.52577101 0.00415215
-0.77904526 -0.25103243 -0.00000137
-0.70781421 -0.04932930 -0.00000152
0.05767366 0.40548678 0.01708355
0.34045281 0.19365160 0.10084541
-0.42432889 0.02452092 -0.00000044
-0.18736586 0.29632200 0.00000000
0.50495436 -0.65084954 0.14957281
-0.20849950 0.04829803 0.00000813
0.29637883 -0.00099265 0.08779054
0.22557464 -0.09553621 0.06681759
0.01535857 0.77932160 0.00454935
-0.65798038 -0.25875527 -0.00000094
-0.60752232 -0.01395368 -0.00000115
0.12995921 -0.21846486 0.03849529
0.68277914 -0.12961673 0.20224543
0.45562305 0.05237786 0.13495987
0.68613634 -0.41618713 0.20324020
-0.11259348 0.09103399 0.00000000
-0.18477182 0.39994633 0.00000313
0.54124301 0.19496618 0.16032097
-0.39823441 -0.31544302 0.00000000
0.69796589 -0.27979877 0.20674404
-0.30154818 0.02296772 0.00000711
0.10435611 0.25617904 0.03091822
0.51143294 0.03357817 0.15149120
-0.18874173 -0.11574656 0.00000000
-0.03960043 0.59786414 0.00000000
-0.10843202 -0.16153517 0.00000000
-0.70730696 -0.22908372 -0.00000120
-0.25242047 0.23542492 0.00000458
0.35388211 -0.05501666 0.10482357
-0.62591457 -0.66948245 -0.00000007
-0.22432944 0.27107198 -0.00000002
-0.60198567 -0.66303372 0.00000000
0.26861785 -0.69232458 0.07956744
-0.21176137 0.36115445 0.00000326
0.07088890 -0.12170595 0.02099804
-0.22264254 -0.47913200 0.00000000
-0.52391896 -0.31686063 -0.00000026
-0.15885767 -0.11509495 0.00000000
-0.10377095 -0.59639281 0.00000000
0.08396552 0.29664586 0.02487147
0.21045875 0.20814218 0.06234638
0.10043831 0.20621954 0.02975851
-0.08815055 -0.08212418 0.00000000
-0.27263000 0.11495726 0.00000616
-0.09897392 -0.71259922 0.00000000
-0.17412814 -0.63642871 0.00000000
-0.68369584 -0.73766289 -0.00000016
-0.27494427 0.47565477 0.00000014
-0.17742479 0.57798449 0.00000030
0.48305166 -0.69145971 0.14308500
-0.27011869 0.30499344 -0.00000028
0.25724564 -0.36374073 0.07619887
0.61121436 -0.17072111 0.18104745
0.28566164 0.36534024 0.08461565
-0.46655979 0.03869942 0.00000376
0.13268939 0.08050594 0.03930400
0.31638855 -0.74157881 0.09371763
0.32919875 -0.41865330 0.09751214
-0.33174420 -0.53857510 0.00000000
-0.27816921 0.19055741 -0.00000011
0.09755403 0.05585870 0.02889653
0.72165086 -0.61885721 0.21376068
0.32744712 0.32296961 0.09699521
-0.17866078 0.23710767 0.00000575
0.40992776 -0.59852652 0.12142493
-0.18411695 0.37074161 -0.00000003
0.03820570 0.45823580 0.01131693
-0.54778575 -0.66155273 0.00000000
0.27684122 0.40795172 0.08200292
0.43199932 0.13240447 0.12796225
-0.54475485 -0.39199131 -0.00000022
0.24914252 -0.61861603 0.07379864
-0.55469887 0.02703368 -0.00000100
0.21106208 0.53552414 0.06251926
0.60087980 -0.62090021 0.17798683
0.20792231 0.34035716 0.06159290
0.07794912 0.58280152 0.02308935
0.69103864 -0.51357591 0.20469250
0.04778178 -0.17546222 0.01415347
-0.06527520 0.16550057 0.00000000
-0.04285228 0.01091209 0.00001119
-0.30961411 0.41343926 0.00000051
0.38360611 0.06532463 0.11362790
-0.27963010 0.21761467 -0.00000016
0.30339963 0.24138971 0.08987411
-0.32423318 0.20252262 -0.00000033
0.20316412 0.41276310 0.06018223
0.56586039 0.10602377 0.16761472
-0.02290011 -0.67997221 0.00000000
0.10881364 -0.57861990 0.03223175
-0.34115998 -0.20448453 0.00000000
-0.49701825 0.19838752 -0.00000106
-0.27388233 0.50621566 -0.00000035
0.53205442 0.23341265 0.15759939
-0.16847302 -0.15779764 0.00000000
0.02528882 -0.38196363 0.00749082
-0.34264863 0.28113923 -0.00000055
-0.12765746 -0.05784993 0.00000000
-0.78293662 -0.75347927 -0.00000012
0.09496201 -0.63655882 0.02812875
0.47943685 0.23674545 0.14201347
0.69793623 -0.65334143 0.20673609
-0.53353562 0.21636002 -0.00000125
0.28592296 -0.68561479 0.08469340
-0.37498850 0.30807165 0.00000102
-0.67770364 0.09824608 -0.00000129
-0.04638017 -0.49823938 0.00000000
-0.32464238 0.45192213 -0.00000042
-0.14675699 0.13993696 0.00000769
0.20559631 0.41633186 0.06089963
-0.05723825 -0.25389298 0.00000000
0.06681523 0.52219070 0.01979471
0.27243523 -0.34289258 0.08069819
-0.67818383 -0.27144987 -0.00000100
0.12827656 0.23720852 0.03799687
-0.01969881 0.41745336 0.00000544
-0.20196167 0.00139410 0.00000893
-0.08790519 0.22217518 0.00000734
0.04112963 0.43825048 0.01218791
-0.29861722 -0.32259473 0.00000000
-0.13007285 0.23960105 0.00000000
0.03552540 0.07170027 0.01052300
0.50652900 -0.02625335 0.15003869
-0.39701945 0.10929091 0.00000391
0.21476149 0.02855571 0.06362352
0.31338157 -0.12370166 0.09282693
-0.37224989 -0.18927071 0.00000000
-0.00311922 0.37420169 0.00000634
-0.30772882 0.26277967 -0.00000036
0.60649479 -0.73835980 0.17965016
0.28205556 -0.22409553 0.08354783
0.62731942 0.12277296 0.18581793
0.34098912 0.26129547 0.10100735
-0.00392965 0.36231728 0.00000651
0.03618824 0.44749268 0.01071934
0.50369710 -0.03127358 0.14919986
0.27139202 -0.68538156 0.08038918
0.03642504 -0.23039601 0.01078948
0.08856009 -0.58910896 0.02623243
-0.13221561 0.04065805 0.00000940
-0.24038745 -0.09443165 0.00000000
0.10820371 0.40436201 0.03205567
0.17488785 -0.02226709 0.05180363
0.70200555 -0.77538719 0.20794185
0.46587974 -0.21198388 0.13799830
0.08800492 -0.38038243 0.02606799
-0.14521983 -0.16794169 0.00000000
-0.77611484 -0.71975633 -0.00000020
0.01726337 0.38777102 0.00511359
-0.75025771 -0.04993043 -0.00000170
0.76605541 -0.40220576 0.22691347
0.06863792 0.32235497 0.02033756
0.08580871 -0.61304479 0.02541745
-0.06420665 0.03309626 0.00001053
0.25517604 0.01369594 0.07559447
-0.68720281 -0.78273319 -0.00000004
-0.18995822 0.01027163 0.00000000
-0.56464424 0.14304977 -0.00000125
-0.75419214 0.01385273 -0.00000183
0.08492391 -0.20520400 0.02515536
-0.36524456 0.31926879 -0.00000071
0.35094300 0.17773411 0.10395270
-0.58348811 0.14904885 -0.00000134
0.17599771 -0.33725510 0.05213238
0.05112245 0.20326388 0.01515127
0.12148966 0.51896781 0.03598915
-0.34814114 -0.41214348 0.00000000
0.75817565 -0.31202647 0.22457909
0.03059150 0.04734790 0.00906153
-0.15243791 0.54399394 -0.00000020
-0.29423966 0.15992816 0.00000504
-0.23798600 -0.11789028 0.00000000
0.24277804 0.30428328 0.07191747
-0.15542853 0.25979143 0.00000576
-0.26659400 0.22406640 -0.00000012
-0.09956295 -0.27796448 0.00000000
0.20013891 0.31288803 0.05928324
0.46703304 -0.61365728 0.13834011
-0.26452535 -0.58464366 0.00000000
-0.20787604 -0.62947574 0.00000000
0.20246807 -0.33389214 0.05997318
0.29500838 -0.11455361 0.08738459
0.39347181 -0.25390194 0.11655050
0.02341303 0.60107204 0.00693786
0.42534372 -0.41786382 0.12599130
-0.12428542 -0.05474409 0.00000000
-0.41132183 -0.63750213 0.00000000
0.35351110 0.22942164 0.10471682
-0.02933981 0.40447994 0.00000549
-0.64469868 -0.11923811 -0.00000113
0.50987577 -0.12491798 0.15103015
-0.09363806 0.56710318 0.00000000
0.12832144 -0.12740829 0.03801016
0.09246722 -0.01755239 0.02738977
0.26859399 0.08874018 0.07956037
0.22556600 0.37423620 0.06681486
0.36487821 0.33556889 0.10808167
0.49474308 0.08067194 0.14654748
0.34146736 0.36072265 0.10114716
-0.79169831 -0.44322231 -0.00000089
0.57819833 0.00195240 0.17126765
0.12781496 0.34346756 0.03786014
0.46911525 0.30711601 0.13895605
-0.52735407 -0.54103949 0.00000000
-0.29361573 0.37547311 -0.00000050
0.34373461 -0.47468936 0.10181782
-0.14161306 -0.16849136 0.00000000
0.42551560 0.12866998 0.12604173
0.47532503 -0.59287609 0.14079629
0.73331021 0.01767358 0.21721323
-0.22627258 -0.74308333 0.00000000
-0.45477843 -0.02717902 -0.00000048
-0.61417072 0.16941948 -0.00000126
-0.16517940 0.28890693 0.00000517
0.59176466 -0.24161856 0.17528639
0.09241689 0.06625978 0.02738466
-0.12557784 -0.68133866 0.00000000
0.36745166 0.10035595 0.10884279
0.35429102 -0.35144933 0.10494474
0.52113215 -0.34281594 0.15436464
-0.10965880 0.67827752 -0.00000025
0.35618783 -0.25560438 0.10550660
-0.04031644 0.13051801 0.00000943
-0.11487741 -0.05207430 0.00000000
0.02762815 -0.77073785 0.00818375
0.29943619 -0.49586539 0.08869616
-0.02909621 0.15704305 0.00000921
0.01544796 -0.56045234 0.00457585
0.08358877 -0.47202329 0.02475988
0.76235506 -0.58530996 0.22581788
0.15331560 0.49375319 0.04541360
-0.44271280 -0.38980720 0.00000000
-0.42871111 0.31737999 -0.00000098
-0.01193049 0.60562406 0.00000274
0.24182941 -0.07350520 0.07163242
0.27015678 -0.03759951 0.08002329
0.55661967 0.14087060 0.16487708
0.27409287 -0.72675946 0.08118920
-0.35125523 0.09699866 -0.00000026
-0.06062332 0.71527654 -0.00000011
0.14458501 0.42695486 0.04282760
0.10310029 0.61648746 0.03053930
-0.07640174 0.31920997 0.00000000
0.73051642 -0.79486144 0.21638732
-0.29604277 -0.72242456 0.00000000
0.25159330 0.50320889 0.07452478
-0.71918925 -0.23587318 -0.00000124
0.47554199 0.11669808 0.14085993
0.07934048 0.00854340 0.02350149
0.25881005 0.42258267 0.07666193
-0.43215887 -0.25288766 0.00000000
-0.45976127 0.15004476 0.00000203
-0.35729569 0.31985385 0.00000116
-0.02737260 -0.23775186 0.00000000
0.26526033 0.04105897 0.07858102
-0.36247021 0.30238609 0.00000135
-0.49061046 -0.26266150 -0.00000022
0.64179546 -0.53580409 0.19010625
-0.04986341 0.32838899 0.00000632
-0.07241088 0.40312530 0.00000000
0.65456261 -0.05785407 0.19388739
0.49026005 0.03129336 0.14521963
0.25401430 -0.68142954 0.07524172
0.17677167 0.31800550 0.05236163
0.16696625 -0.49281905 0.04945716
0.18678759 -0.58370397 0.05532846
-0.09224710 0.00985816 0.00001046
-0.74259788 0.03272607 -0.00000144
-0.63352748 -0.55858912 -0.00000030
0.68554631 -0.21938946 0.20306519
0.67355648 -0.11324827 0.19951359
0.04639244 0.01640474 0.01375302
0.20907905 -0.35139690 0.06193142
0.42936378 -0.50648539 0.12718208
-0.01284905 0.75935230 0.00000042
-0.37609930 -0.32673510 0.00000000
-0.30692840 0.39088639 0.00000094
0.62949227 0.06207701 0.18646263
-0.30161186 -0.13055703 0.00000000
-0.13323705 0.57250948 -0.00000017
-0.09280106 0.40388025 0.00000454
0.66437480 -0.23208146 0.19679405
-0.51980530 -0.77433098 0.00000000
-0.13440302 0.33122398 0.00000500
-0.50610688 -0.55297025 0.00000000
-0.56565618 0.08067149 -0.00000114
0.33371879 0.31144976 0.09885060
0.13237719 0.19614986 0.03921891
-0.32935858 -0.17044689 0.00000000
0.65738791 -0.13963042 0.19472436
-0.18168862 0.03709828 0.00000870
-0.23549290 0.35289038 0.00000295
0.17933114 0.56392291 0.05311951
0.07727320 0.70663575 0.02288923
0.55311193 0.07073270 0.16383942
-0.16102578 -0.54129856 0.00000000
-0.43131802 -0.20162541 -0.00000007
-0.03912701 0.25743200 0.00000000
0.37911689 -0.46752597 0.11229842
-0.50234292 -0.09556621 -0.00000056
0.17672899 0.04383024 0.05234899
-0.18443970 -0.05371640 0.00000000
0.22809533 -0.01232308 0.06756424
0.38801474 -0.62489165 0.11493406
-0.50792792 0.07980905 -0.00000089
0.23181834 0.40948301 0.06866937
-0.37009684 -0.31948060 0.00000000
0.75441656 -0.00535566 0.22346481
0.27143574 0.01386506 0.08041057
0.04367274 -0.65341387 0.01293633
-0.44581465 -0.52284416 0.00000000
-0.45957717 -0.26515296 -0.00000008
-0.32052841 -0.46992130 0.00000000
0.04794237 0.17924111 0.01420969
-0.45317470 -0.05331403 -0.00000043
-0.70485635 -0.21414477 -0.00000122
-0.43861803 -0.36817488 0.00000000
-0.06085260 0.32703131 0.00000618
-0.39798983 0.39877857 -0.00000099
-0.51729115 -0.02833257 -0.00000074
0.43097506 0.03006610 0.12765898
0.40813879 -0.20590205 0.12089499
0.32332595 0.08500176 0.09577896
-0.38210402 0.41475634 -0.00000090
0.65487054 -0.30689965 0.19397891
0.02491823 -0.07980225 0.00738104
-0.71667649 -0.58684805 -0.00000053
-0.72228123 -0.24825769 -0.00000123
0.10810444 0.26227838 0.03202838
-0.20732386 0.44955489 0.00000187
0.27343810 0.02697280 0.08100347
-0.02278688 0.71689423 0.00000090
0.64936738 -0.03090275 0.19234849
-0.36684248 -0.17208345 0.00000000
-0.08070801 0.62026053 0.00000145
-0.61449529 0.05792556 0.00000059
0.06439361 0.39316658 0.01907934
0.08230179 0.01471626 0.02437866
-0.20375093 0.47028877 0.00000159
0.17264846 0.50316955 0.05114013
-0.61340659 0.06309059 -0.00000132
-0.76704775 -0.35344842 -0.00000112
0.24706387 -0.59388110 0.07318293
0.24431444 0.45772399 0.07236970
0.50208258 -0.76023647 0.14872216
0.25546931 -0.24452877 0.07567271
-0.24867032 -0.68995462 0.00000000
-0.19972050 0.03501736 0.00000000
-0.30657829 -0.18734080 0.00000000
0.17456854 -0.60123063 0.05170904
0.35286273 0.16098934 0.10452136
-0.64580830 -0.08523053 -0.00000119
0.00672398 0.39639594 0.00199171
-0.39262431 -0.28862380 0.00000000
0.00840833 0.08727075 0.00250113
0.16604237 -0.22397191 0.04918350
0.21687046 -0.51983347 0.06423932
-0.34936341 -0.76411042 0.00000000
0.10692663 0.50740687 0.03167280
-0.47171135 0.16104773 0.00000161
0.61854032 0.07977704 0.18321845
0.51252965 -0.14967913 0.15181628
-0.39610919 0.22716680 0.00000196
-0.24724353 -0.14961040 0.00000000
-0.49077264 -0.16241011 -0.00000039
0.24018357 0.41670451 0.07114693
0.45100260 -0.68097921 0.13359173
0.08709248 0.40802653 0.02579771
0.36477183 -0.58009096 0.10804926
0.18838914 0.27733545 0.05580837
-0.13728781 0.39633109 0.00000000
0.33180010 -0.31650800 0.09828269
0.29438283 0.04368331 0.08719930
0.34698689 -0.04552561 0.10278114
0.62341763 -0.01400864 0.18466196
-0.31928858 0.18845586 -0.00000028
0.13480966 -0.28508668 0.03993204
-0.24388341 0.13986296 0.00000000
0.73575656 -0.24792173 0.21793797
0.70527503 -0.40649856 0.20890927
0.03600190 0.43184583 0.01066918
-0.02487595 0.46246888 0.00000469
0.46956098 -0.50934197 0.13908892
-0.18996202 -0.35091492 0.00000000
0.00366068 -0.10715055 0.00108433
-0.04441878 -0.72658236 0.00000000
-0.15050362 0.30971406 0.00000000
0.16507471 0.55201121 0.04889667
0.22861698 0.27232147 0.06772370
0.08304635 -0.21615474 0.02459921
-0.28724890 0.40348107 -0.00000052
-0.39892563 -0.38921777 0.00000000
0.03186010 0.08178145 0.00944759
-0.16587673 -0.42434921 0.00000000
0.09687446 0.40698584 0.02869524
-0.40573991 -0.44778010 0.00000000
-0.01316491 0.20161319 0.00000878
-0.63317678 -0.67013011 -0.00000010
0.27728748 -0.42526132 0.08213548
-0.42872809 0.28067122 -0.00000091
-0.63264005 -0.66908068 -0.00000010
0.37954885 0.11137585 0.11242605
-0.04181009 -0.54892876 0.00000000
-0.66766073 -0.62674978 -0.00000033
0.02266017 0.05723128 0.00671218
0.61603020 -0.58937322 0.18247445
-0.69497758 -0.38780421 -0.00000087
-0.45116153 0.15578604 0.00000210
-0.25034318 0.36080937 -0.00000029
-0.25911723 0.41394871 -0.00000042
0.27491569 0.31018538 0.08143268
-0.45266299 0.14062881 0.00000232
0.10838512 0.49193578 0.03210482
0.05462721 0.38420941 0.01618668
-0.18933615 -0.43070432 0.00000000
0.14319148 -0.65548688 0.04241483
0.22931190 -0.63914552 0.06792461
-0.02822048 -0.70096933 0.00000000
0.59942499 -0.70240457 0.17755600
0.22226787 -0.24195534 0.06583809
-0.46321242 0.33579877 -0.00000114
0.11545158 0.25575765 0.03420469
0.25013893 0.50683499 0.07409394
0.23240786 -0.03283438 0.06884166
-0.65176786 -0.65509938 -0.00000021
0.51647855 -0.38092847 0.15298625
0.12036086 0.14919103 0.03565216
0.15920201 0.08657360 0.04715731
0.37454806 -0.24930083 0.11094509
0.15929561 0.14956276 0.04719281
-0.64211839 -0.37255250 -0.00000067
-0.57163378 0.10462722 0.00000064
-0.03410811 0.13986926 0.00000939
-0.27533327 -0.64355366 0.00000000
0.41536256 -0.56936542 0.12303477
0.13607666 -0.38004647 0.04030734
0.19101339 -0.76420083 0.05658018
0.30783951 0.33799343 0.09118736
0.75774956 -0.64775713 0.22445383
-0.54418954 -0.36046619 -0.00000027
0.63162369 0.08782512 0.18709253
-0.41890544 -0.73664160 0.00000000
0.47770858 0.27568144 0.14150150
0.19926657 0.26730458 0.05902486
0.07121083 0.57367235 0.02109340
-0.37073407 0.02815510 -0.00000022
0.39908324 0.30615266 0.11821339
-0.20349753 -0.54287658 0.00000000
-0.01976783 0.35367463 0.00000640
-0.57809482 -0.17128089 -0.00000075
-0.14647590 0.58314462 -0.00000024
-0.19254884 0.57452912 0.00000007
-0.07807009 -0.07329045 0.00000000
0.21153269 0.43369726 0.06265801
-0.34694027 0.26535921 0.00000227
0.70337795 0.06609505 0.20834671
-0.21512527 0.13561844 0.00000672
0.14884422 0.53518125 0.04408909
-0.48076561 0.16785295 -0.00000093
-0.32127687 0.40368020 0.00000045
0.54770207 -0.68163078 0.16223513
0.11022801 0.49507255 0.03265392
0.04519606 0.48734648 0.01338755
-0.05468940 0.48538934 0.00000389
-0.58075013 0.08714191 0.00000075
0.72127669 -0.44162983 0.21364934
-0.21343658 -0.61048886 0.00000000
-0.06306958 0.65123379 -0.00000001
0.39046941 0.23096173 0.11566345
-0.01983562 -0.59663324 0.00000000
-0.28885080 -0.10903885 0.00000000
-0.32051879 0.45922115 -0.00000046
0.07413313 0.23057174 0.02196659
-0.02981707 0.72383430 0.00000000
-0.68381369 -0.60176782 -0.00000044
0.04922562 0.03543051 0.01458115
0.49242516 0.06410274 0.14586092
0.38766593 0.32625085 0.11483133
-0.37633935 0.18089371 0.00000311
-0.51070231 -0.76810137 0.00000000
-0.03753756 -0.45249719 0.00000000
0.59683713 -0.73929692 0.17678946
0.66138103 0.06057879 0.19590691
-0.27772411 0.37356844 -0.00000043
-0.42999638 -0.37824415 0.00000000
-0.24515460 0.31056088 0.00000347
-0.67503339 0.10668501 -0.00000138
0.75456933 -0.58891892 0.22351162
-0.14909049 0.53182653 0.00000162
-0.18473176 0.25666956 0.00000536
-0.19058409 0.09146016 0.00000000
0.33981510 -0.00557607 0.10065676
0.40136881 0.22237368 0.11889190
0.44877796 0.22450171 0.13293395
-0.15880362 0.17761296 0.00000000
0.09852966 0.63552213 0.02918649
-0.28258592 0.07792382 0.00000657
