ply
format ascii 1.0
element vertex 1371
property float x
property float y
property float z
end_header
-0.40141138 -0.16911372 0.35311007
-0.17318987 0.38188353 0.04242460
-0.57037399 -0.47138578 -0.16207728
-0.24996606 0.19652104 0.17199884
-0.40965654 -0.18901582 0.27247853
-0.04708394 0.48010910 0.00000196
-0.15413641 0.33087116 -0.00000156
-0.68680718 -0.80916068 -0.07507273
-0.21652581 0.29332889 -0.02464805
-0.61085980 -0.67475571 0.04093566
-0.55440451 -0.33739843 -0.30855991
-0.20325235 0.17105078 0.00000434
-0.14822201 0.25413979 0.00000244
-0.35213212 0.01924081 -0.10644154
-0.04270870 -0.10633691 0.00000061
-0.53784417 -0.39012871 -0.16625906
-0.09772069 0.35084238 0.00000085
-0.58835208 -0.60701594 -0.02051640
-0.18778258 0.36097853 -0.02196982
-0.14475907 0.02108207 -0.00000726
-0.25383819 0.18717179 0.11989719
-0.31076616 0.15774158 -0.16574429
-0.12692806 -0.52226480 -0.00000042
-0.59011807 -0.47076935 -0.23618607
-0.38663170 -0.22582495 0.00000363
-0.09287032 -0.06016913 0.00000163
-0.18608454 0.35074673 0.06851291
-0.43878382 -0.25932836 0.10882502
-0.23384781 0.23544160 0.06982024
-0.31802204 0.14624357 -0.17497920
-0.46144873 -0.23539052 -0.12068221
-0.24057552 0.33391484 -0.17606024
-0.23761507 0.06430702 0.00000474
-0.36545959 -0.79983107 0.00000276
-0.56609228 -0.56667984 0.10960651
-0.40286335 -0.17262051 0.38431960
-0.29448851 0.08903428 0.08476420
-0.40181499 -0.17007327 0.01999536
-0.34653651 0.10552785 -0.21814622
-0.04169134 0.24709190 0.00000778
-0.55049347 -0.52902337 0.16755151
-0.02275443 0.20054856 0.00000888
-0.21760233 0.31857018 -0.06737562
-0.22565621 0.36831795 -0.17358115
-0.11612901 0.20413079 0.00000629
-0.09515213 -0.13415806 0.00000155
-0.00582346 0.59302582 -0.00000145
-0.48051057 -0.71854309 0.00000373
-0.64811153 -0.76468908 0.04056015
-0.60375375 -0.55773804 -0.15322442
-0.11968360 0.55905865 -0.07366653
-0.21044658 -0.13671462 0.00000242
-0.04236214 -0.24035721 0.00000102
-0.49022818 -0.30083265 -0.12687776
-0.20790632 0.29805805 0.20183078
-0.63431940 -0.64461608 -0.13313733
-0.12169941 0.40405917 0.00000364
-0.34763222 -0.03927773 0.33270330
-0.43124134 -0.24111747 0.07229677
-0.37545760 -0.10644329 0.08108566
-0.11503718 0.01464014 0.00000869
-0.28310900 0.11650900 0.03952392
-0.50858121 -0.39432162 -0.05138884
-0.43682664 -0.03333819 -0.33957516
-0.05776769 0.57084641 0.00000136
-0.01544696 0.76270734 0.00996480
-0.44438222 -0.77017580 0.00000339
-0.00024738 0.56940973 0.00000171
-0.15984620 -0.23242144 0.00000192
-0.22689771 0.15324548 0.00000290
-0.32274159 -0.61588161 0.00000267
-0.24750413 0.20246047 0.19070167
-0.29894760 0.07826726 0.12416482
-0.40465147 -0.17693130 0.24679113
-0.26082891 -0.53924552 0.00000229
-0.18226810 0.29418597 -0.00000135
-0.16456334 0.46316961 -0.09278901
-0.40179641 -0.48417685 0.00000343
-0.36654884 -0.08493984 0.27304578
-0.19257177 -0.47635050 0.00000186
-0.14116078 0.10374940 -0.00000592
-0.13276255 0.25598933 0.00000052
-0.08216306 0.60163792 0.04148239
-0.10103833 0.36843174 0.00000465
-0.13888944 0.46468806 0.08299761
-0.09658447 -0.11143549 0.00000028
-0.54662350 -0.48270281 -0.05669881
-0.36855310 -0.77461652 0.00000281
-0.36925080 -0.09146465 0.21510217
-0.52957748 -0.47852454 0.10240364
-0.66156138 -0.67892727 -0.18141994
-0.54043171 -0.50473173 0.16167363
-0.20326574 0.39017757 -0.12416588
-0.29196115 0.09222999 0.00000332
-0.26228029 0.03425507 -0.00000054
-0.31532749 0.03872917 0.13405867
-0.16285643 -0.57431823 0.00000151
-0.44512610 -0.07169943 -0.31144575
-0.33181437 -0.00107857 0.07928425
-0.28147925 0.08987988 -0.00000059
-0.09759074 -0.18681223 0.00000018
-0.21661161 0.32495673 -0.07350748
-0.36384221 0.08601484 -0.25232304
-0.23090622 0.24253794 0.04864323
-0.08854432 0.41357155 0.00000098
-0.01382194 -0.59160950 0.00000036
-0.35724237 -0.06247790 0.34458795
-0.17754660 0.05240699 -0.00000001
-0.05791919 0.46094398 -0.00000219
-0.14686577 0.15020916 0.00000613
-0.41034276 -0.14194603 -0.07473617
-0.43759934 -0.68352125 0.00000345
-0.32468076 0.03669407 -0.03149979
-0.18687153 -0.18858542 -0.00000036
-0.51174743 -0.56927789 0.00000415
-0.38704375 -0.49854510 0.00000330
-0.24808357 -0.00335108 0.00000287
-0.13165891 0.28360021 0.00000235
-0.31804261 -0.33977503 0.00000297
-0.05025015 0.59304323 0.00000212
-0.14108304 0.37250499 0.00000253
-0.30312969 0.15151434 -0.12788899
-0.52580771 -0.69108219 0.00000410
-0.19069592 0.04060369 0.00000249
-0.16203848 0.40880054 0.04243021
-0.34816045 -0.08336386 -0.00000121
-0.17114306 -0.17990249 0.00000207
-0.12335071 0.03322907 0.00000823
-0.57966522 -0.53699780 -0.09579808
-0.13579106 0.11212950 0.00000691
-0.22392334 0.37018706 -0.17002956
-0.15008677 -0.64169616 -0.00000071
-0.04887643 -0.25626236 0.00000038
-0.14456739 0.45097801 0.08048912
-0.28127192 0.12094006 0.13098837
-0.48836862 -0.50774032 -0.00000258
-0.07836568 0.61080565 0.04191751
-0.34920078 0.04134934 -0.12950754
-0.32075039 0.17132325 -0.22358758
-0.21752449 0.19565781 0.00000289
-0.18497995 -0.32078443 0.00000199
-0.13556367 0.28563831 0.00000238
-0.29145741 -0.12251573 -0.00000091
-0.10189735 0.53857212 0.00000244
-0.53523334 -0.26309294 -0.35157238
-0.24733374 0.20287791 0.05455022
-0.25072062 0.27801580 -0.12785350
-0.30863698 0.05487661 0.19368937
-0.22735129 0.25111493 0.20313085
-0.26758389 0.15399003 0.14963906
-0.41873073 -0.29587939 0.00000379
-0.04720656 0.06575456 0.00000990
-0.03984548 0.71656174 -0.01957612
-0.07550151 0.40055211 0.00000104
-0.52919427 -0.61723798 0.00000422
-0.12483087 0.12019980 0.00000209
-0.15347037 0.14600826 0.00000601
-0.48930923 -0.47672271 0.00000410
-0.29405828 0.23693863 -0.22539266
-0.59627024 -0.63953627 0.12323090
-0.08349992 0.31271606 0.00000202
-0.44783688 -0.28118447 0.10824979
-0.34017700 0.09191219 -0.17368074
-0.13778220 0.37489287 0.00000357
-0.47050653 -0.33591437 0.11341235
-0.13336910 0.31346361 0.00000446
-0.52087229 -0.34763961 -0.16858603
-0.04662283 0.44008887 0.00000190
-0.24825472 -0.79225922 -0.00000149
-0.32788008 0.00841595 0.24659221
-0.10221564 0.55322422 0.09147817
-0.16652843 0.31738581 0.00000351
-0.60177247 -0.79401839 0.00000455
-0.18311226 -0.51921067 -0.00000075
-0.16401655 0.25294609 0.00000438
-0.23169521 0.27576024 -0.05389240
-0.24045614 0.21947400 0.24529087
-0.29884055 0.07852070 0.23641323
-0.01123897 0.38960601 0.00000157
-0.29505440 0.01772363 -0.00000279
-0.33177116 -0.17831469 -0.00000123
-0.26519495 0.15975866 0.01499012
-0.11036557 0.26065912 -0.00000411
-0.48054813 -0.38655200 -0.00000238
-0.14944191 -0.31492586 -0.00000030
-0.07996718 -0.30582576 0.00000122
-0.37178351 -0.23180897 0.00000352
-0.38531941 -0.13026521 0.37881192
-0.48735322 -0.21443737 -0.24883286
-0.01259511 -0.44861349 0.00000036
-0.19221699 0.43644064 -0.15423380
-0.24687086 -0.19353672 -0.00000073
-0.19101290 0.11250725 0.00000258
-0.12236892 0.50457089 0.06367416
-0.23741086 0.22683402 0.14227224
-0.17811534 0.43584816 -0.10106857
-0.08363009 0.60766800 -0.01467802
-0.12341960 0.27568314 -0.00000345
-0.43418516 -0.24823041 0.20430958
-0.16273742 0.09939034 0.00000014
-0.27107944 -0.56113494 0.00000234
-0.08236904 0.32744146 0.00000203
-0.09239226 -0.69644101 0.00000083
-0.47309150 -0.08579218 -0.39344359
-0.51105033 -0.66488258 0.00000402
-0.23581706 0.23068088 0.15334385
-0.23996150 0.30114526 -0.12348383
-0.03615478 0.58686253 0.00000368
-0.13151652 0.48248335 0.13443482
-0.42231889 -0.05239455 -0.25656295
-0.50732141 -0.55049876 0.00000414
-0.63798533 -0.70790115 -0.04958446
-0.40464282 -0.15170912 -0.03862952
-0.53193023 -0.48420965 0.22439687
-0.28810538 0.23612763 -0.20208927
-0.22381849 0.26517110 -0.00844489
-0.16609319 0.15234566 -0.00000432
-0.16405152 -0.07265911 0.00000215
-0.18924337 0.02948642 -0.00000577
-0.25302104 -0.63603780 -0.00000132
-0.24577009 -0.11859634 -0.00000063
-0.54304625 -0.51104543 0.20167972
-0.21908386 0.36823279 -0.14909577
-0.04953749 -0.07562476 0.00000061
-0.39224977 -0.14699358 0.30955850
-0.43828643 -0.20747125 -0.07770719
-0.45745459 -0.05755450 -0.37884277
-0.42537848 -0.22696972 0.21847493
-0.23849389 -0.12508817 0.00000264
-0.09839777 0.56244263 0.06477525
-0.11433970 0.06677342 0.00000806
-0.34124701 -0.02385163 0.09134740
-0.43584125 -0.25223394 0.32442792
-0.31199298 0.04677432 0.19722165
-0.22736237 0.03470159 -0.00000453
-0.24916063 0.04244111 -0.00000374
-0.22585128 0.25474122 0.05941235
-0.57176813 -0.62028117 0.00000454
-0.31112085 -0.73474681 0.00000243
-0.50999138 -0.32005697 -0.17060325
-0.37086528 -0.22602196 -0.00000152
-0.12117695 -0.71760964 0.00000102
-0.22333022 -0.04745909 0.00000263
-0.28980237 -0.40980554 0.00000267
-0.21871208 -0.15253562 0.00000246
-0.06259017 -0.53258992 0.00000081
-0.31344689 0.04326797 0.00567514
-0.25435505 0.24901341 -0.09680064
-0.32721217 -0.02599662 0.00000344
-0.15365454 0.45996823 -0.04745243
-0.32200496 -0.26276201 0.00000310
-0.38053225 -0.11869609 0.11378330
-0.57569637 -0.62204956 -0.00000325
-0.55281739 -0.53463193 0.12499031
-0.36960744 -0.79312437 -0.00000222
-0.01088231 0.61584305 0.00000170
-0.52784589 -0.49888885 -0.00000281
-0.32508255 0.01518265 0.08264008
-0.18038796 0.40514973 -0.06236916
-0.47937227 -0.35731907 0.13117123
-0.34173853 -0.02503830 0.09211708
-0.16695949 0.19594060 -0.00000353
-0.18025101 0.45451888 -0.13764195
-0.35891917 -0.34819467 -0.00000160
-0.46619665 -0.35178114 0.00000408
-0.17059784 0.47350481 -0.13101299
-0.43950827 -0.04621800 -0.32974276
-0.51809798 -0.78823220 -0.00000311
-0.02549337 -0.59875451 0.00000010
-0.05315256 0.28391821 0.00000176
-0.19622400 0.32627470 0.04323209
-0.04213154 -0.26779851 0.00000098
-0.15841696 -0.41364276 0.00000168
-0.35345877 -0.31928208 -0.00000153
-0.44379340 -0.32559986 -0.00000209
-0.27814761 0.12847651 0.28508093
-0.24318385 -0.64691111 -0.00000128
-0.53006760 -0.47971177 0.19169407
-0.24807632 0.26219606 -0.09376883
-0.03469643 0.17223854 0.00000101
-0.14940087 0.43930626 0.13944210
-0.13104292 0.31043681 0.00000238
-0.44885177 -0.25126028 -0.04964539
-0.01576319 -0.44717431 0.00000035
-0.00447327 0.03201698 0.00000101
-0.40646551 -0.11973735 -0.09445712
-0.02019642 0.23038173 0.00000857
-0.48309293 -0.76205667 -0.00000287
-0.36334146 -0.47530462 0.00000315
-0.60727427 -0.66610083 0.07228427
-0.23849983 0.22420128 0.13759491
-0.04480349 -0.25100101 0.00000102
-0.00424949 -0.74959844 0.00000010
-0.29471171 0.08848913 0.22581934
-0.14662298 0.47850811 -0.04985373
-0.32315098 0.15189061 -0.20265584
-0.55227050 -0.36971880 -0.25104330
-0.27321220 -0.34273888 0.00000263
-0.20854885 0.08639339 -0.00000419
-0.20171598 0.31300426 0.17241259
-0.06565956 0.64148051 0.05524572
-0.14956700 -0.01726852 0.00000008
-0.29169642 -0.25831972 -0.00000108
-0.14830601 0.26298642 0.00000468
-0.43642057 -0.68620416 0.00000343
-0.17670518 0.34762267 -0.00000058
-0.11168304 0.07172454 0.00000042
-0.11669953 -0.62406732 -0.00000048
-0.45134632 -0.26122441 -0.04359504
-0.04696387 0.12548876 0.00000087
-0.40755317 -0.49014373 -0.00000207
-0.65196617 -0.77399477 0.03641617
-0.39666955 -0.21215478 -0.00000166
-0.25370679 0.06191815 -0.00000045
-0.07564278 -0.66526531 0.00000074
-0.09431994 -0.65166923 -0.00000038
-0.02496062 -0.61535828 0.00000042
-0.04286837 0.52871031 0.00000423
-0.06585963 -0.62378558 0.00000072
-0.02593986 0.28980751 -0.00000615
-0.58925719 -0.62260099 0.01537216
-0.38985035 -0.14120061 0.30442782
-0.60709839 -0.66567712 0.13562036
-0.26017145 0.17189539 0.01847596
-0.04933706 0.34510364 0.00000180
-0.08321837 -0.24542938 0.00000019
-0.02769315 0.69170235 0.00000170
-0.35026748 -0.48377663 0.00000304
-0.06215453 0.45429679 0.00000204
-0.37131651 -0.09644758 0.12210744
-0.16344326 0.48825793 -0.12714663
-0.67463970 -0.74985929 -0.12100788
-0.05299516 0.42273880 -0.00000300
-0.30688660 -0.06765030 0.00000323
-0.45781083 -0.17881515 -0.19403956
-0.13705805 -0.24730004 0.00000172
-0.33632660 -0.65094042 -0.00000184
-0.32935505 0.00485906 0.07339861
-0.43753350 -0.25631170 0.15135534
-0.14438367 -0.06444641 0.00000005
-0.33384187 -0.00598146 0.26012463
-0.03343112 0.72863088 -0.01433250
-0.43407940 -0.24796635 0.00825919
-0.16729329 0.39611591 0.00475749
-0.52998604 -0.47951341 0.15902617
-0.55185148 -0.35478556 -0.27241171
-0.05915480 0.42913649 0.00000503
-0.46781299 -0.70627495 -0.00000271
-0.29050822 -0.41019278 -0.00000127
-0.36217348 -0.05660977 -0.02722678
-0.34672318 -0.03707001 0.03885180
-0.52910239 -0.26428791 -0.32701953
-0.13725011 -0.42748961 -0.00000036
-0.10674619 0.34521416 0.00000479
-0.12093785 0.43251239 -0.00000078
-0.28612250 0.10922930 0.21301964
-0.39736260 0.01509433 -0.26767956
-0.59901634 -0.64616580 0.11520860
-0.11100527 0.53201149 0.00985682
-0.18839770 0.34516247 0.12436507
-0.32133767 0.08686387 -0.09612687
-0.19459940 0.09004235 0.00000258
-0.23700403 0.28306029 -0.08476921
-0.06392474 0.63642894 0.00000228
-0.02564200 -0.02862736 0.00000116
-0.35766185 -0.06349317 0.36923518
-0.30194263 0.07104768 0.07155302
-0.03833848 0.42309229 0.00000182
-0.43490102 -0.24995345 0.08772248
-0.30839727 -0.50836084 -0.00000150
-0.27554184 0.13477449 0.19434502
-0.23962156 0.34016522 -0.18211903
-0.18778353 0.43221887 -0.13132551
-0.08584016 -0.74562075 0.00000072
-0.53481391 -0.49116524 0.07512419
-0.03547350 0.61622060 0.00000204
-0.32824892 0.00753284 0.15358754
-0.43626723 -0.39548858 0.00000380
-0.54363239 -0.68567463 0.00000424
-0.05200999 0.13923774 0.00000157
-0.51262930 -0.57982587 0.00000414
-0.14228546 -0.38992168 -0.00000035
-0.15572525 0.08402615 -0.00000583
-0.64518894 -0.75763356 0.15097199
-0.08342054 0.59860028 0.08213941
-0.29870308 0.20186888 -0.18877297
-0.03599301 0.71310419 0.02383958
-0.54532777 -0.49547614 -0.03229166
-0.06492251 0.44649589 0.00000205
-0.38666103 -0.62121158 -0.00000211
-0.04563917 -0.09436139 0.00000061
-0.03237348 0.07420739 0.00000090
-0.59000759 -0.62441245 0.01123263
-0.28475149 0.11253998 0.20298445
-0.31766157 0.03308867 0.09783044
-0.25975713 0.17289335 0.04746548
-0.14852425 -0.46202118 0.00000154
-0.22821318 0.16807602 -0.00000017
-0.12527845 0.38688343 0.00000073
-0.40314469 -0.15763440 -0.02398348
-0.09517283 0.08798745 0.00000183
-0.38529727 -0.57584290 -0.00000205
-0.11792785 0.02911726 0.00000032
-0.30867363 0.05479248 0.13868689
-0.10442134 0.21681654 -0.00000505
-0.27870676 -0.04782125 0.00000304
-0.28680510 0.16190841 -0.08335180
-0.46172541 -0.48099840 -0.00000239
-0.17899051 0.32599329 0.00000276
-0.00067762 0.16901242 -0.00000902
-0.18116270 0.36263134 0.09642388
-0.24750478 0.29424875 -0.14085057
-0.00812560 0.66831735 0.00000179
-0.12025642 -0.32602823 -0.00000013
-0.03843055 0.36606382 0.00000175
-0.14993055 -0.45376583 -0.00000047
-0.50969350 -0.29013865 -0.21542116
-0.10531076 -0.39264499 -0.00000013
-0.41676887 -0.20618069 0.14008830
-0.16275292 0.01403256 -0.00000684
-0.19036711 0.31296688 0.00000283
-0.43390351 -0.29111620 0.00000391
-0.18204698 0.23234205 0.00000019
-0.30150208 0.09734607 -0.03871484
-0.33798478 -0.18799814 0.00000331
-0.52183369 -0.34243885 -0.18013116
-0.13589976 0.43684977 0.00000285
-0.42367182 -0.44519483 0.00000364
-0.05914136 -0.64998135 -0.00000017
-0.65294454 -0.77635676 0.12612828
-0.57909620 -0.49907570 -0.15189630
-0.50338475 -0.41528604 0.02820625
-0.19818589 0.14282744 -0.00000002
-0.41008278 -0.19004437 0.26190250
-0.17368369 0.10556134 0.00000244
-0.43425636 -0.28647821 -0.00000198
-0.38492929 0.02380229 -0.23497355
-0.49897258 -0.13407372 -0.41523902
-0.29336346 -0.40747968 -0.00000128
-0.09760098 -0.09151499 0.00000162
-0.14705110 -0.23519487 -0.00000018
-0.04307519 0.59929776 -0.00000021
-0.05802927 0.65990410 0.02867692
-0.27679666 -0.03050019 0.00000305
-0.10097316 0.55622343 0.10069822
-0.12024058 -0.45721766 0.00000134
-0.12469990 -0.29753398 -0.00000012
-0.29592174 0.20578567 -0.18447848
-0.18887598 0.09747893 0.00000255
-0.34558346 -0.18663284 0.00000337
-0.26345126 0.26074215 -0.14851099
-0.29547066 0.03381709 0.00000327
-0.04122411 -0.48368064 0.00000015
-0.00160490 0.43802652 0.00000648
-0.16076678 0.31088514 0.00000042
-0.18218864 0.36015699 0.06539325
-0.27851372 0.12760705 0.10261477
-0.31688685 0.03495021 0.29518526
-0.18321659 -0.78959521 0.00000140
-0.31064520 0.12762017 -0.11906264
-0.19884287 0.36667820 -0.07170392
-0.09184847 0.45448374 -0.00000127
-0.02048735 0.70188532 0.00000267
-0.14283026 0.08161642 0.00000218
-0.49705378 -0.67094004 0.00000391
-0.48214259 -0.13868937 -0.34579055
-0.33824740 -0.01661812 0.27587696
-0.30954313 0.09541897 -0.06555323
-0.32118470 0.02459790 0.01787183
-0.05622267 0.55117715 0.00000211
-0.36133138 -0.07234679 0.30951140
-0.45678852 -0.20545884 -0.14935593
-0.29114562 0.23291422 -0.20842265
-0.41504234 -0.12454513 -0.11885926
-0.13449952 0.47529024 0.03108133
-0.02454396 0.01450141 0.00001115
-0.16326785 -0.59561857 0.00000149
-0.66967805 -0.70695237 -0.16848072
-0.29340090 0.24491525 -0.23519956
-0.50236466 -0.41283384 0.26941636
-0.19056920 0.16992088 0.00000265
-0.28894230 -0.46868896 0.00000259
-0.27925009 0.19822370 -0.11109698
-0.03078349 -0.78548363 -0.00000017
-0.42158088 -0.41875876 0.00000366
-0.43354529 -0.54363973 -0.00000230
-0.30712823 0.05851945 0.07773052
-0.57976262 -0.59968437 0.17177525
-0.07674295 0.43218071 -0.00000212
-0.56714548 -0.58481462 0.00000455
-0.30460460 0.00512705 0.00000330
-0.37524600 -0.72909333 0.00000292
-0.23809871 0.22516682 0.20146801
-0.03796379 0.35330774 0.00000655
-0.27336869 0.14002505 0.02336359
-0.14564637 0.44837603 0.07673375
-0.63960691 -0.69871750 -0.06968940
-0.07277184 0.16493574 0.00000796
-0.17425615 0.45928614 -0.12274422
-0.37573602 0.00923524 -0.17854869
-0.55015625 -0.34571756 -0.28004848
-0.22125971 0.37281525 -0.16419343
-0.57118638 -0.47729327 -0.15602018
-0.14714474 0.26909037 -0.00000285
-0.14865894 -0.38779754 0.00000164
-0.40566293 -0.76997598 0.00000310
-0.31907301 0.10032010 -0.10838912
-0.49014835 -0.74728073 0.00000376
-0.14917995 0.23693900 -0.00000335
-0.13040735 0.18548790 0.00000044
-0.27723081 0.27048298 -0.21452540
-0.58390816 -0.60416675 -0.00842262
-0.16663498 0.11785627 0.00000240
-0.36810359 -0.08869488 0.29316209
-0.17998783 -0.07862588 -0.00000018
-0.29805873 -0.58804264 0.00000251
-0.00669913 0.64699656 0.00000373
-0.08571232 0.17174814 0.00000753
-0.07532430 0.25784422 -0.00000521
-0.41571554 -0.04880143 -0.23761299
-0.40350783 -0.28972570 -0.00000180
-0.14911881 -0.30382779 -0.00000028
-0.22142935 0.33256130 -0.10303616
-0.54654270 -0.50292105 -0.02536640
-0.15656005 0.07720412 0.00000015
-0.25531578 0.18359884 0.24805842
-0.35638892 -0.32270663 -0.00000155
-0.34370788 -0.02980515 0.36963496
-0.18527596 0.37559742 -0.03512067
-0.05834606 0.68628163 -0.04165358
-0.65093296 -0.63962518 -0.20236090
-0.41010851 -0.19010714 0.27631836
-0.12932692 0.49386699 -0.00933343
-0.52285543 -0.67117420 -0.00000299
-0.30959658 -0.16970411 0.00000312
-0.13894561 -0.78618731 0.00000107
-0.38336471 0.01534027 -0.21618347
-0.36244426 -0.07503094 0.18889776
-0.02933517 0.09147944 -0.00000951
-0.44907616 -0.28418122 0.21694022
-0.20278739 -0.09750145 0.00000241
-0.07268324 0.62651206 -0.00304013
-0.25419221 0.04595853 0.00000452
-0.43402057 -0.47528296 0.00000368
-0.50224400 -0.74817821 -0.00000297
-0.31697292 -0.68084092 0.00000254
-0.48985406 -0.30154495 -0.12439816
-0.16417452 -0.79521533 -0.00000098
-0.14931213 0.01242716 0.00000214
-0.37340484 0.03115079 -0.20354443
-0.60630707 -0.66376633 0.08418645
-0.09785528 -0.54902634 0.00000105
-0.10271647 0.58737061 -0.05425059
-0.32655620 0.07632688 -0.09928429
-0.43026016 -0.30405074 0.00000387
-0.07768121 0.18027478 0.00000076
-0.49039816 -0.75588041 -0.00000290
-0.39526496 -0.11610587 -0.05852719
-0.16152559 -0.37761235 0.00000175
-0.19225982 -0.73333537 0.00000153
-0.47231255 -0.33804232 -0.00337782
-0.10495189 0.54662307 0.04074476
-0.01125308 0.10412204 -0.00000984
-0.46328019 -0.16103720 -0.24159381
-0.43134365 -0.23027290 -0.01698226
-0.35423554 0.04443360 -0.15289870
-0.19741929 0.03060231 -0.00000551
-0.39115159 -0.14433852 0.22422798
-0.24294483 0.24275719 -0.04492165
-0.57553316 -0.58947383 0.20070480
-0.36251301 0.05770050 -0.20393612
-0.10623777 0.30219338 0.00000534
-0.14260407 0.45571793 0.07982538
-0.24034079 0.23624213 -0.02527236
-0.24247059 -0.59232121 0.00000209
-0.43261712 -0.24444779 0.27102534
-0.31649893 0.03590529 0.08083599
-0.20173658 0.19482369 -0.00000250
-0.27023398 0.14759038 0.08053979
-0.23614164 0.33062436 -0.15457984
-0.10676892 -0.21826932 0.00000008
-0.10749456 0.11856730 0.00000196
-0.07668804 -0.04903355 0.00000048
-0.19615692 -0.66655162 -0.00000102
-0.31985897 -0.19792610 0.00000317
-0.30833214 0.12897357 -0.11256327
-0.05649836 -0.07635754 0.00000133
-0.19022309 0.34075053 0.17612551
-0.27039252 -0.52860996 -0.00000129
-0.56988559 -0.52690813 -0.07504614
-0.51574416 -0.41055682 -0.05301187
-0.52270447 -0.28889075 -0.26554898
-0.22209660 0.20409007 0.00000293
-0.28550346 0.11072586 0.09272972
-0.23790393 0.26302906 -0.05735782
-0.39071861 -0.75658249 0.00000300
-0.30838161 0.12067492 -0.10001458
-0.34432546 0.09320841 -0.19104685
-0.21489933 0.28118197 0.05340852
-0.53898553 -0.50123759 0.10029526
-0.53596642 -0.34265635 -0.23216644
-0.30532208 0.06287312 0.22952305
-0.31561430 -0.47901803 0.00000278
-0.30724544 0.05824425 0.08978321
-0.14240170 0.50202653 -0.07030825
-0.34917779 0.12397664 -0.25625201
-0.66312757 -0.75964758 -0.06332450
-0.07841813 0.24872603 0.00000676
-0.53521751 -0.49214567 0.26869530
-0.02878902 -0.73213125 0.00000030
-0.06238099 0.17016457 0.00000084
-0.65831945 -0.78933257 0.04297833
-0.36146440 -0.03905954 -0.05153715
-0.46227608 -0.11771707 -0.30436525
-0.10100883 -0.49990156 0.00000114
-0.22872920 0.24779821 0.07838052
-0.07701258 0.62558617 -0.01766143
-0.10223092 0.28223286 -0.00000398
-0.01156080 -0.59539663 0.00000034
-0.10717136 -0.36341929 -0.00000010
-0.33565730 -0.01035669 0.20803616
-0.21294372 -0.50615576 0.00000197
-0.15486138 0.12853797 0.00000023
-0.19300545 0.11042901 -0.00000003
-0.35864152 -0.71235777 -0.00000206
-0.48721173 -0.37847778 0.00000420
-0.31278940 0.06824161 -0.03585905
-0.18606206 0.01213875 -0.00000011
-0.08980760 -0.48209316 0.00000107
-0.40209542 -0.55153613 -0.00000212
-0.04958355 0.52869627 0.00000203
-0.00160668 0.22796602 0.00000128
-0.16765914 0.39522957 0.12066671
-0.38346993 -0.12580034 0.38328991
-0.64938540 -0.76776447 0.14905740
-0.13606683 0.47829329 -0.01040799
-0.19163544 0.33735283 0.03729445
-0.34369115 -0.70934136 0.00000271
-0.12651641 0.50035210 -0.00887310
-0.09567002 -0.51287925 -0.00000022
-0.40105993 -0.75364087 -0.00000236
-0.10193741 0.34531560 -0.00000288
-0.13002854 0.38758976 0.00000362
-0.45583233 -0.30049771 0.37205413
-0.06228427 0.55808870 0.00000333
-0.28645259 -0.56151549 0.00000246
-0.25539625 0.18340445 0.26182444
-0.48162411 -0.36275651 0.15359085
-0.28536168 0.11106884 0.07743912
-0.56697086 -0.50422833 -0.09905682
-0.49985085 -0.71215099 -0.00000291
-0.52578113 -0.46936482 0.27027834
-0.09855301 0.46069079 0.00000356
-0.40895639 -0.54743454 0.00000340
-0.67160038 -0.78294722 -0.05895819
-0.21057410 0.29162472 0.12099442
-0.05451399 -0.06011021 0.00000060
-0.17326211 0.28150339 0.00000378
-0.19113250 0.18283136 0.00000007
-0.18552384 0.35209798 0.12282844
-0.27308057 -0.06474555 0.00000298
-0.53740844 -0.49743493 0.28005805
-0.11943095 0.40835058 0.00000365
-0.57397366 -0.58570248 0.00194809
-0.11007735 -0.71993664 0.00000093
-0.15797394 0.41861406 0.08808614
-0.39778417 -0.23216963 -0.00000169
-0.23537105 0.18099870 0.00000335
-0.14478420 -0.13395237 0.00000192
-0.32965539 0.00413499 0.18368599
-0.64242687 -0.65394939 -0.14885436
-0.15580109 0.47412061 -0.07712903
-0.68957469 -0.80622899 -0.08982787
-0.39701519 -0.29172094 0.00000363
-0.33604499 -0.01130276 0.33631453
-0.23376455 0.23563668 0.06178238
-0.07652027 0.61526228 0.01028620
-0.35275529 -0.02478154 -0.04118069
-0.43464178 -0.24933600 0.27588074
-0.07775419 0.13365936 0.00000822
-0.51982683 -0.33036747 -0.19122309
-0.46933586 -0.41307832 -0.00000235
-0.47230484 -0.30347916 -0.05640035
-0.04806426 0.19925792 -0.00000706
-0.00288603 -0.33097549 0.00000057
-0.55408722 -0.53769433 0.05180109
-0.18886271 -0.76726035 -0.00000110
-0.14359681 -0.33609633 -0.00000029
-0.60190338 -0.65313553 0.11001442
-0.31576092 0.03766692 0.32973173
-0.05996779 0.65522360 0.01303050
-0.09440346 0.38415914 -0.00000243
-0.22107091 -0.54280711 -0.00000101
-0.39329992 -0.14951609 0.02303310
-0.03742113 -0.49953166 0.00000066
-0.26132919 -0.48021621 -0.00000118
-0.04988270 -0.25801428 0.00000105
-0.03541456 -0.48163555 0.00000067
-0.00786955 -0.41259985 0.00000054
-0.44227642 -0.26775570 0.00580823
-0.23231871 0.34294538 -0.15932544
-0.47288183 -0.72595576 -0.00000276
-0.21064607 -0.01812943 0.00000257
-0.05511235 0.52029871 0.00000132
-0.33406137 0.08873726 -0.14614508
-0.56406851 -0.53920299 -0.03461941
-0.16735725 0.28308605 0.00000034
-0.34253353 -0.79377842 0.00000259
-0.25331180 -0.07099798 0.00000282
-0.31864283 0.03071850 0.22015991
-0.33167595 0.04243073 -0.06623507
-0.07894510 -0.27712270 0.00000125
-0.18785329 0.34647830 0.02960011
-0.18504901 -0.40384167 -0.00000062
-0.15473247 0.02326605 0.00000751
-0.47263723 -0.46326817 -0.00000243
-0.40175132 -0.49898086 -0.00000205
-0.09151647 0.18152869 -0.00000606
-0.16899313 -0.46791410 0.00000169
-0.27209535 0.14309991 0.00685378
-0.04681609 0.66910250 0.00000112
-0.07213026 0.30608952 0.00000095
-0.49390428 -0.52007553 0.00000408
-0.27805518 -0.34862663 0.00000266
-0.26434878 0.28809509 -0.19382253
-0.43177860 -0.56244786 0.00000355
-0.23606051 0.23479648 -0.00719276
-0.18170726 0.38228704 -0.03216928
-0.49216797 -0.38821750 0.31011604
-0.01029064 -0.70377739 0.00000020
-0.05977604 0.24217869 0.00000094
-0.39518278 -0.15407274 0.26964553
-0.11479109 -0.22707812 0.00000002
-0.04676599 -0.75297651 0.00000041
-0.00391102 -0.28438780 0.00000067
-0.07272197 0.50314894 0.00000218
-0.28975551 0.02908751 -0.00000071
-0.00997832 0.37826223 0.00000155
-0.06389614 0.35685332 0.00000580
-0.00345322 -0.77178154 0.00000006
-0.58732650 -0.61794085 0.03751837
-0.20775165 0.29843210 0.20381137
-0.31508538 -0.57545864 0.00000266
-0.28196499 0.11927573 0.09387673
-0.17430134 0.37918964 0.16721707
-0.53539023 -0.49255734 0.09173109
-0.03587252 0.67030052 0.00000265
-0.10713170 0.49154069 0.00000295
-0.50139139 -0.41047304 0.01559328
-0.29268315 -0.08019474 -0.00000087
-0.14574462 0.39535024 0.00000310
-0.45197435 -0.29117280 0.09765107
-0.21951376 0.27004338 0.11202677
-0.02618606 -0.05579637 0.00000077
-0.20426221 0.38612150 -0.12163069
-0.02356615 0.47709838 0.00000540
-0.29997152 0.07579118 0.21601700
-0.48678289 -0.37520515 0.02268747
-0.07972647 -0.13151685 0.00000144
-0.22209526 0.32777586 -0.09815510
-0.11900893 0.18132238 0.00000051
-0.15013018 -0.55310419 0.00000144
-0.23896417 0.22307677 0.23427411
-0.38859219 -0.13816185 0.27618065
-0.04493820 -0.64905863 0.00000053
-0.07178587 0.37316616 0.00000103
-0.03850541 0.43995556 0.00000545
-0.34221904 -0.02620542 0.25007048
-0.13480638 -0.58893271 -0.00000055
-0.03506879 -0.31383598 0.00000040
-0.09034551 0.16407732 0.00000750
-0.17031442 0.47391216 -0.13058799
-0.11912836 -0.44678560 0.00000134
-0.05125305 0.52340035 -0.00000129
-0.42917109 -0.23612523 0.20254905
-0.29313322 0.24199570 -0.22972625
-0.02909612 0.41411299 0.00000603
-0.07399329 0.21292073 0.00000082
-0.22917473 0.18423660 -0.00000186
-0.45263617 -0.29276975 0.07922691
-0.32611537 0.01267606 0.17024679
-0.22626553 0.05233310 -0.00000030
-0.14312418 0.03208325 0.00000018
-0.20496438 0.34763129 -0.06515174
-0.05504124 0.14245953 0.00000159
-0.43018160 -0.79156225 0.00000326
-0.04404631 0.24217256 0.00000778
-0.29800379 0.10436630 -0.03651906
-0.57866744 -0.53373380 -0.09711072
-0.18796768 -0.58661144 -0.00000087
-0.63746341 -0.73898294 0.11979737
-0.17382043 0.38035660 0.03405756
-0.16252945 0.42735187 -0.03027565
-0.33423029 -0.40835021 -0.00000153
-0.16461500 0.47699508 -0.11420118
-0.49271353 -0.18819062 -0.30898180
-0.22745220 -0.22438792 -0.00000065
-0.06856219 0.54847664 0.00000127
-0.18422747 -0.33597703 0.00000197
-0.02085878 0.23889889 0.00000845
-0.40642728 -0.79706084 -0.00000245
-0.30941965 0.05299074 0.14760350
-0.07588124 0.10658978 0.00000861
-0.19131089 0.43359218 -0.14650413
-0.49244366 -0.58904562 0.00000398
-0.31329419 0.10622185 -0.09602781
-0.48127613 -0.16613150 -0.30045888
-0.28345278 -0.41242181 -0.00000123
-0.41017142 -0.10512192 -0.13062269
-0.38277482 -0.44489351 -0.00000187
-0.06380344 -0.61957571 -0.00000016
-0.15475766 -0.23287209 -0.00000023
-0.16614931 0.18483305 0.00000518
-0.39614814 -0.15640947 0.40689090
-0.27280949 0.01778987 0.00000437
-0.44557977 -0.23098891 -0.06863550
-0.36340552 -0.00040611 -0.11805207
-0.04437296 0.26542417 -0.00000602
-0.16110469 0.30440767 0.00000382
-0.06067539 -0.55364763 0.00000077
-0.07664160 -0.28139124 0.00000123
-0.26844875 0.24207631 -0.13838185
-0.50982768 -0.43084644 0.15629874
-0.62454533 -0.68989468 -0.02742044
-0.40210623 -0.07519809 -0.14666710
-0.32988152 0.14285333 -0.21372464
-0.45313525 -0.29398309 0.26884441
-0.09344815 0.47006826 -0.00000095
-0.28847790 0.20468096 -0.15520205
-0.08563549 0.09530301 0.00000848
-0.39014584 -0.14191901 0.41714509
-0.57063022 -0.57763738 0.21971111
-0.24741892 0.01484825 0.00000509
-0.44450435 -0.50523247 0.00000372
-0.37614075 -0.10809768 0.28742238
-0.14562149 0.16588513 0.00000231
-0.54008823 -0.50390013 0.10819227
-0.32699496 0.16777075 -0.24127424
-0.54965532 -0.52700078 0.25748213
-0.41927814 -0.21224321 0.24297904
-0.11140040 -0.13338300 0.00000167
-0.51062462 -0.43277217 0.19484375
-0.49588088 -0.12527189 -0.41729258
-0.32806260 0.07958274 -0.10987042
-0.35705609 -0.51292509 0.00000305
-0.05860860 0.34490848 0.00000187
-0.41565088 -0.20348009 0.10656627
-0.23494364 -0.79960112 0.00000177
-0.45313710 -0.29399097 0.35003298
-0.03448869 0.35917107 -0.00000467
-0.08138630 0.45180761 -0.00000164
-0.32014168 0.02710064 0.21189365
-0.55876227 -0.51375215 -0.05402157
-0.00694516 0.64916192 0.00000370
-0.15351157 0.10894021 0.00000647
-0.50621846 -0.19627413 -0.34661719
-0.35960631 0.04912840 -0.18001183
-0.05171572 0.67514793 0.00687131
-0.07590250 0.23262013 0.00000186
-0.27652875 0.15515830 -0.03491180
-0.18518662 0.04604434 -0.00000006
-0.47259396 -0.34095389 0.11315060
-0.35076444 0.10624505 -0.23491424
-0.23986452 0.04755215 0.00000489
-0.53256557 -0.48574205 0.18289844
-0.14884226 0.10079431 0.00000225
-0.22676713 0.16125474 -0.00000233
-0.41990228 -0.36426445 0.00000371
-0.11698424 0.14467960 0.00000701
-0.58284349 -0.71098078 0.00000451
-0.11181012 0.36769890 0.00000078
-0.14166923 -0.21226128 0.00000180
-0.17609109 -0.39032856 -0.00000055
-0.64642752 -0.76062371 0.16175773
-0.44466610 -0.06932887 -0.31337987
-0.10729025 0.10406611 0.00000194
-0.54593298 -0.34599630 -0.26397123
-0.59743346 -0.64234449 0.13584133
-0.22167777 0.18669235 -0.00000204
-0.27729442 -0.22912217 0.00000281
-0.16478488 0.40217141 0.08487691
-0.15414691 0.42784915 0.13991228
-0.45274706 -0.10201745 -0.29315264
-0.50521301 -0.60261112 0.00000406
-0.38129080 -0.07474755 -0.07022665
-0.13686731 0.46956638 0.12723587
-0.39845497 -0.07602868 -0.13186242
-0.32495427 0.01547411 0.31383562
-0.34932080 -0.04335282 0.29817181
-0.34591247 0.09831886 -0.20476826
-0.33153948 -0.00041505 0.08219525
-0.60316849 -0.56379472 -0.14175927
-0.05982385 -0.42363080 0.00000092
-0.19677108 -0.40450139 0.00000198
-0.24048405 0.21940699 0.22555297
-0.05054091 -0.39387810 0.00000020
-0.15322982 -0.77499165 0.00000119
-0.33792127 0.06391706 -0.12235661
-0.03698369 0.18164768 0.00000872
-0.13978739 -0.45642809 0.00000148
-0.18137770 0.29006691 0.00000027
-0.06409863 0.64524930 0.04731311
-0.02591735 0.40913540 -0.00000406
-0.18082723 -0.67112724 -0.00000093
-0.47093239 -0.33694471 0.16303578
-0.22577692 0.16082990 0.00000386
-0.51085475 -0.33414116 -0.15218465
-0.47745168 -0.35269011 0.33269807
-0.46021930 -0.31108332 0.21744461
-0.09358346 0.57406675 0.06423325
-0.50939702 -0.42435575 -0.00831240
-0.34793255 -0.03999403 0.13609132
-0.15430896 0.42746142 0.04068809
-0.20326739 0.30926269 0.08567264
-0.41811063 -0.00992478 -0.30615811
-0.53135094 -0.48281119 0.25837446
-0.34190818 0.10922538 -0.20667093
-0.39566206 -0.30908213 -0.00000177
-0.12426403 -0.07230091 0.00000185
-0.11335875 0.52632348 0.06359197
-0.36671003 -0.08532719 0.25040386
-0.30556597 -0.72147056 -0.00000175
-0.15203890 0.43294229 0.08910119
-0.12979930 -0.53129248 0.00000132
-0.13002401 -0.52990480 0.00000132
-0.10481779 0.16545402 0.00000057
-0.06872337 0.54463061 0.00000127
-0.34732514 -0.03853184 0.29401103
-0.57312933 -0.47952768 -0.15979024
-0.53411362 -0.64621284 0.00000422
-0.19569671 -0.39545332 0.00000198
-0.01559707 0.73533117 0.00000204
-0.06676909 -0.45310893 0.00000094
-0.22532424 0.28446053 -0.04363316
-0.19966755 -0.38910261 -0.00000069
-0.26907680 0.15037805 0.21568326
-0.15629495 0.45135524 -0.04401305
-0.27094779 -0.56039828 -0.00000134
-0.41810119 -0.20939990 0.20073293
-0.26720379 0.15489950 0.25299763
-0.04354302 0.24108751 -0.00000647
-0.07403063 0.08914676 0.00000888
-0.04074187 0.66105070 0.00000158
-0.31715461 0.03431151 0.21817055
-0.15305041 -0.43705513 -0.00000047
-0.23664775 0.22867301 0.18416547
-0.27468206 0.23344664 -0.14823061
-0.53995206 -0.50357466 0.18189755
-0.32528871 0.02878286 -0.02161888
-0.00412797 0.02833157 0.00000107
-0.58941573 -0.62298761 0.10241488
-0.07599115 0.18007580 -0.00000656
-0.27075051 0.22651604 -0.12302757
-0.07100648 -0.37433131 0.00000107
-0.00813648 0.72603811 0.00000186
-0.45898861 -0.30811622 0.30907310
-0.17671233 -0.35636106 -0.00000051
-0.14949783 0.26809482 0.00000043
-0.12163773 0.24559011 0.00000057
-0.08890073 -0.58225984 -0.00000026
-0.34194998 0.06930202 -0.14555048
-0.38469747 -0.18925856 0.00000367
-0.00176211 0.27827071 0.00000136
-0.09805595 0.57065041 -0.01131704
-0.03804922 0.33337780 0.00000680
-0.41779274 -0.21272183 -0.00000179
-0.03840775 -0.31584348 0.00000037
-0.31403056 -0.25181208 0.00000305
-0.16738225 0.28236102 0.00000392
-0.42759734 -0.00365602 -0.35093502
-0.29523295 0.24408691 -0.24071731
-0.44179057 -0.62665249 -0.00000245
-0.32573785 -0.25926305 0.00000313
-0.23081335 0.33066671 -0.13490074
-0.14346061 0.51784682 -0.09851571
-0.24192886 -0.24289786 0.00000252
-0.58541402 -0.76936908 0.00000445
-0.44667795 -0.09207966 -0.28591697
-0.52150230 -0.34513719 -0.17476149
-0.41933898 -0.24513862 -0.00000184
-0.12201639 0.44679183 0.00000082
-0.17771421 0.38130314 -0.01585767
-0.17892096 0.21733728 0.00000442
-0.39060176 -0.08923857 -0.08248632
-0.02358349 0.35625761 -0.00000505
-0.13215835 -0.52580491 -0.00000045
-0.37671923 -0.10949305 0.16859910
-0.32117718 0.11151897 -0.13337535
-0.29621014 0.08487676 0.10992696
-0.00568764 -0.77659844 -0.00000001
-0.61200749 -0.67752628 0.03566188
-0.20336903 -0.69344780 0.00000167
-0.50169783 -0.31952633 -0.14068580
-0.51895777 -0.61299329 0.00000415
-0.52715955 -0.44886126 -0.03651825
-0.31004731 0.05146195 0.31863314
-0.09281143 0.06892528 -0.00000799
-0.08651611 -0.37711826 0.00000118
-0.30969045 -0.27415630 -0.00000121
-0.15338958 0.42968076 0.04615424
-0.02443641 0.26027906 -0.00000671
-0.63769433 -0.64452819 -0.14577833
-0.29930738 0.07739042 0.31567419
-0.48426985 -0.36914193 0.10882786
-0.06486553 0.64340189 0.00577517
-0.39409708 -0.15144030 0.01555633
-0.01465040 0.45159675 0.00000596
-0.33372629 0.10838124 -0.17505616
-0.64443136 -0.72834513 -0.04209085
-0.42510619 -0.03910438 -0.28729424
-0.43340230 -0.18209159 -0.09856426
-0.42077749 -0.00841697 -0.31835494
-0.13536250 0.47320104 0.07264566
-0.39720026 -0.65611394 -0.00000222
-0.30890284 -0.28245742 0.00000298
-0.12331991 0.44461191 0.00000081
-0.11860478 -0.34265813 0.00000147
-0.35716830 -0.34080649 -0.00000158
-0.12477318 0.35130762 -0.00000209
-0.35957810 -0.47793101 0.00000312
-0.57275378 -0.54767452 -0.05379987
-0.17871387 -0.21497259 0.00000208
-0.03844747 0.35311781 0.00000121
-0.31270525 -0.39114631 0.00000287
-0.33298319 -0.48900690 0.00000290
-0.28773899 -0.66698141 -0.00000157
-0.31448885 0.04075007 0.18117726
-0.24616416 0.30646537 -0.15463474
-0.41640864 -0.02577668 -0.27551912
-0.17217902 0.41687995 -0.04995896
-0.06925395 -0.42018258 0.00000006
-0.19209981 0.30396104 0.00000298
-0.36993644 0.06012022 -0.23516171
-0.23713797 0.22749889 0.06553819
-0.44678198 -0.27864284 0.22343309
-0.35790240 -0.06405903 0.18844292
-0.65263279 -0.72863692 -0.07203402
-0.22301013 0.02336453 -0.00000032
-0.09481484 -0.61009953 0.00000095
-0.28580514 0.10999649 0.11607012
-0.39953438 -0.65400086 0.00000320
-0.39293629 0.06333351 -0.32532022
-0.03205343 -0.07917112 0.00000071
-0.37581174 -0.76612604 0.00000288
-0.06802534 0.04535228 -0.00000915
-0.34904612 -0.04268333 0.15592580
-0.17198139 -0.09073073 -0.00000015
-0.15541237 -0.17561492 -0.00000016
-0.28092708 -0.25613928 0.00000280
-0.60972581 -0.68917308 -0.00000354
-0.43091060 -0.04312390 -0.30263306
-0.02634157 0.21611251 0.00000858
-0.32352563 0.16307076 -0.22120255
-0.35655863 0.01447796 -0.11552647
-0.08711975 0.09189423 0.00000059
-0.05157165 -0.54469077 0.00000071
-0.26032692 0.21227275 -0.06253471
-0.35183987 -0.04942292 0.04043462
-0.14099688 0.36533615 0.00000252
-0.20236037 -0.74702252 0.00000159
-0.21056167 0.36157420 -0.10729504
-0.01085063 0.53576103 0.00000160
-0.28823433 0.10494032 -0.00120739
-0.24278738 0.21385350 0.14953883
-0.23465247 0.23348569 0.23847598
-0.27503368 -0.44389874 -0.00000121
-0.41437481 -0.20040964 0.33658238
-0.22746597 0.25083478 0.24482577
-0.07197144 0.28801362 0.00000190
-0.35063295 -0.04651487 0.16864717
-0.36061915 -0.07063213 0.35527612
-0.61090598 -0.51608341 -0.24366408
-0.31219614 -0.76737617 0.00000240
-0.35804975 -0.08869447 0.00000359
-0.22689686 -0.16018202 -0.00000057
-0.35911200 -0.02244648 -0.06831968
-0.38724153 -0.13489604 0.16362494
-0.33352035 -0.00519560 0.04381220
-0.60076858 -0.52798331 -0.18783370
-0.15821188 0.41804326 0.04206394
-0.00631059 0.62558230 0.00000401
-0.00829766 0.67795235 0.00000191
-0.24270340 -0.38733444 -0.00000095
-0.32283071 0.02060751 0.22845759
-0.08605221 -0.39482684 -0.00000001
-0.43027441 -0.01467591 -0.34394051
-0.39027051 -0.03805842 -0.15981541
-0.13576081 -0.72919202 -0.00000073
-0.24447866 0.25808596 -0.07413345
-0.22561058 -0.63736664 0.00000191
-0.21825600 0.27308014 0.01041522
-0.18477660 0.35389931 0.18230863
-0.01468503 0.67594073 0.00000196
-0.06435252 0.28026731 -0.00000515
-0.33814885 0.15834456 -0.26813623
-0.23680379 0.34186683 -0.17428855
-0.35429128 -0.05533990 0.01154081
-0.33750296 0.04645976 -0.09401133
-0.23627119 0.25600504 -0.04052044
-0.12998063 0.07291106 0.00000031
-0.36072066 -0.00148133 -0.10645253
-0.15365402 0.37835180 0.00000263
-0.14189937 0.45742504 0.03835361
-0.01814934 0.38068544 -0.00000479
-0.07698002 0.05983396 0.00000166
-0.20198940 0.31234742 0.15111622
-0.55199061 -0.53263520 0.10880860
-0.40502297 -0.17519870 -0.00398398
-0.44014403 -0.28244601 0.00000397
-0.14017054 -0.69145070 -0.00000071
-0.13778700 0.46734534 0.13654910
-0.12746127 -0.77707373 -0.00000074
-0.10810774 -0.32183637 -0.00000005
-0.04943169 0.16160321 0.00000090
-0.46670497 -0.32673647 0.11151683
-0.12497399 0.28351110 -0.00000327
-0.35637004 -0.37393474 0.00000322
-0.08868958 0.58769044 -0.00276456
-0.42561499 -0.04559324 -0.27921680
-0.23291491 0.23768724 0.07686162
-0.39667009 -0.73194588 -0.00000231
-0.00483331 0.07648809 0.00000107
-0.34514262 0.06184591 -0.14593094
-0.04919046 0.16990148 0.00000092
-0.35234211 -0.05063230 0.14882695
-0.13246533 -0.77437873 -0.00000077
-0.07471475 0.57400541 0.00000280
-0.40241041 0.01170432 -0.28117873
-0.00565890 0.60853488 -0.00000118
-0.12881946 0.50818328 -0.02943092
-0.14929394 -0.19248187 -0.00000014
-0.32927042 0.16334743 -0.24291662
-0.12518983 -0.04572774 0.00000019
-0.19169743 0.32139787 -0.00000059
-0.28436235 0.00920691 -0.00000070
-0.49658699 -0.75584787 0.00000380
-0.65686525 -0.78582197 0.14410172
-0.26242104 0.16644810 0.22590424
-0.40556431 -0.03529024 -0.22073113
-0.06800787 -0.09884210 0.00000139
-0.34820661 -0.07687252 0.00000353
-0.52437693 -0.45894935 -0.01072297
-0.29382279 0.17858911 -0.13495491
-0.21354718 -0.23021783 0.00000232
-0.12008230 0.41149271 0.00000079
-0.00695998 0.78319673 0.00726382
-0.49950265 -0.38529037 -0.03161015
-0.37983318 -0.60143979 -0.00000204
-0.00681351 0.60310540 0.00000428
-0.43457832 -0.24917204 0.03520968
-0.36292438 -0.10006990 0.00000361
-0.21512833 0.28062142 0.22590812
-0.24575339 -0.03236602 0.00000281
-0.48611356 -0.41368809 0.00000415
-0.11205202 -0.59563227 -0.00000042
-0.21941068 0.31788152 -0.07302391
-0.40916101 -0.01596571 -0.26372154
-0.30558399 -0.02996206 -0.00000088
-0.57420517 -0.58626627 0.11112194
-0.33934578 0.01849741 -0.05792046
-0.00842802 -0.11720650 0.00000080
-0.47607517 -0.26646015 -0.12719192
-0.17703311 0.44299189 -0.10802357
-0.18882565 -0.36252178 -0.00000059
-0.45518627 -0.21868082 -0.12312430
-0.23236552 0.08248109 0.00000466
-0.13828341 -0.05171056 0.00000010
-0.53357902 -0.48818785 0.16274599
-0.29751977 -0.22440255 0.00000296
-0.10352602 0.55479151 -0.00724159
-0.40476677 -0.63932700 -0.00000224
-0.39572387 -0.15536735 0.00729145
-0.37463873 -0.04833997 -0.08611033
-0.07958919 0.64087774 -0.05067958
-0.33688209 -0.01331724 0.17041464
-0.02875936 0.22538682 0.00000111
-0.55936702 -0.40115988 -0.22908062
-0.04852631 -0.27236897 0.00000037
-0.22230920 0.00557767 -0.00000033
-0.26730484 -0.32696340 -0.00000102
-0.25702609 0.17947093 0.22195233
-0.11127623 -0.53213124 -0.00000034
-0.08709864 -0.33252576 0.00000006
-0.30546231 0.09030146 -0.04257678
-0.10834934 0.25961285 -0.00000419
-0.59399656 -0.67628333 0.00000464
-0.46900708 -0.18997051 -0.21840512
-0.37876919 0.05023234 -0.25271471
-0.04800878 0.49626031 0.00000198
-0.27500919 0.00186030 0.00000451
-0.20906355 -0.08564491 0.00000247
-0.49704818 -0.72113033 0.00000385
-0.33835867 0.13284069 -0.22976631
-0.03935594 0.39829614 0.00000179
-0.08056728 -0.17955697 0.00000029
-0.16881045 0.39477562 -0.00354336
-0.09074052 0.55351153 0.00000042
-0.59984421 -0.60712685 -0.06293049
-0.09278985 0.42764266 -0.00000172
-0.29832160 -0.61235329 -0.00000157
-0.09128276 0.14688108 0.00000768
-0.36146163 0.06246504 -0.20735346
-0.00261138 0.20162861 -0.00000839
-0.13773379 0.46747448 0.11143891
-0.34727202 -0.03839952 0.24216736
-0.58953372 -0.62327075 0.06357303
-0.53628502 -0.29580974 -0.30525201
-0.22163038 -0.74211985 0.00000174
-0.30727619 0.22554504 -0.25688374
-0.10088994 0.60193277 -0.06983324
-0.23896737 0.22308744 0.00110446
-0.13347631 -0.68310337 0.00000115
-0.29537923 -0.62090691 0.00000245
-0.34614658 -0.03568321 0.25127578
-0.21717295 0.27569115 0.09367614
-0.16451924 0.11549915 -0.00000501
-0.02462422 -0.09651127 0.00000073
-0.15180605 0.11157761 0.00000022
-0.10936210 0.07451260 0.00000192
-0.50830521 -0.37057140 -0.08682041
-0.51440030 -0.44188974 0.27771729
-0.27879645 0.12691999 0.05050250
-0.23695146 0.22793659 0.22456802
-0.19039245 0.20459569 0.00000427
-0.34764925 0.08800877 -0.19538228
-0.23134099 0.27767575 -0.05551997
-0.17129836 0.08747502 0.00000625
-0.29609578 0.02958905 0.00000359
-0.13142961 0.32711061 0.00000434
-0.42760571 -0.23235064 0.30543563
-0.02982443 0.63770886 0.00000006
-0.24394864 -0.67274963 -0.00000131
-0.35721822 0.13367653 -0.30093584
-0.55075187 -0.36337321 -0.25515589
-0.10345477 -0.00762728 0.00000037
-0.34194576 -0.02554030 0.13035208
-0.10505467 -0.04283235 0.00000174
-0.11074863 0.22012838 0.00000211
-0.02232537 0.44732323 0.00000580
-0.29407329 0.09004496 0.08149508
-0.32159233 0.02360243 0.16230013
-0.35298049 0.07557868 -0.19605833
-0.18465861 0.35418695 0.15462834
-0.31189036 -0.00010258 0.00000335
-0.14802450 0.49596812 -0.08184487
-0.44894687 -0.13969649 -0.22123730
-0.39398089 -0.11062593 -0.06218024
-0.32725383 0.00993148 0.08220264
-0.00153051 0.23912847 0.00000129
-0.14211533 0.06374760 -0.00000660
-0.07568131 -0.13200120 0.00000141
-0.29047150 0.09872732 0.24695716
-0.51818137 -0.36631718 -0.12994651
-0.12397294 -0.39461134 -0.00000024
-0.14871243 0.11128633 -0.00000556
-0.24343902 -0.66674051 -0.00000130
-0.29318842 0.09217322 0.07946583
-0.12958411 0.44501195 0.00000077
-0.34964679 -0.00968447 -0.05283460
-0.28978629 -0.22582660 0.00000290
-0.00156718 -0.66747053 0.00000018
-0.09168205 0.51244198 -0.00000027
-0.37074868 -0.09490539 -0.00022231
-0.48996730 -0.47365372 0.00000410
-0.37207316 -0.09827226 0.07634775
-0.56413711 -0.56196200 0.21505699
-0.31284321 -0.65831913 -0.00000171
-0.29461062 0.12565127 -0.05662412
-0.10381749 0.17408118 0.00000059
-0.67814873 -0.80093646 -0.05561161
-0.30308367 0.06827302 0.32464516
-0.46021184 -0.12593030 -0.28410964
-0.09717670 -0.62247674 0.00000096
-0.24363168 -0.02408995 -0.00000050
-0.46333280 -0.31859112 0.01816787
-0.02523351 0.09873245 0.00000097
-0.56484045 -0.79594748 -0.00000340
-0.05901772 -0.31168038 0.00000106
-0.23442909 -0.29758911 0.00000240
-0.20860293 -0.33237850 0.00000216
-0.04926734 0.32104686 0.00000110
-0.46944828 -0.52509497 0.00000389
-0.28099082 0.19130662 -0.10692526
-0.40083948 0.01994662 -0.28801099
-0.12822110 0.49044485 0.00837849
-0.35651886 -0.06073431 0.38240082
-0.27004953 0.28802732 -0.21484389
-0.35015598 -0.04535671 0.01992099
-0.26309681 0.08108129 0.00000384
-0.28544635 0.11086601 0.15801641
-0.63395154 -0.73050472 0.08038604
-0.03507154 0.04364189 0.00000132
-0.22878382 0.24765851 0.17789967
-0.49019237 -0.38343751 0.04741360
-0.17876877 -0.43065857 -0.00000062
-0.05511804 0.27109837 0.00000101
-0.29358267 -0.55874400 -0.00000147
-0.06705200 0.63811865 0.05910296
-0.23215348 -0.66022399 -0.00000123
-0.12412621 0.35727944 0.00000416
-0.61319454 -0.64935295 -0.04758746
-0.43785580 -0.25708710 0.09075838
-0.01993786 -0.45142783 0.00000032
-0.38922018 -0.13966802 0.05331775
-0.52856274 -0.47607770 0.16952088
-0.21790134 -0.39456546 -0.00000081
-0.21300304 -0.40494087 -0.00000079
-0.46542369 -0.32364726 0.20356385
-0.36498064 -0.08114976 0.08621219
-0.42501647 -0.22609789 0.26650909
-0.34637556 -0.00111069 -0.05387293
-0.55087238 -0.48648933 -0.06663122
-0.31160020 -0.15003014 0.00000316
-0.27196230 0.24375784 -0.15398237
-0.01904519 0.27241004 0.00000123
-0.11098182 0.01211371 0.00000035
-0.19151963 0.00449706 0.00000245
-0.26103145 0.22113575 -0.07874981
-0.27973164 -0.51254135 -0.00000133
-0.51069525 -0.43293906 0.11394634
-0.43471254 -0.08693949 -0.24946857
-0.36846915 -0.63750594 -0.00000202
-0.05027110 0.41025934 -0.00000330
-0.22614965 0.14972111 -0.00000018
-0.21741688 -0.13363156 0.00000247
-0.13328443 -0.70073092 0.00000113
-0.04875817 0.15469896 -0.00000782
-0.09450647 -0.50487077 -0.00000020
-0.23910043 -0.65901247 -0.00000127
-0.49157215 -0.14023341 -0.37836204
-0.26754325 0.28497161 -0.20086658
-0.41908913 -0.18786635 -0.03666281
-0.64658416 -0.62559136 -0.20778684
-0.36159747 -0.00782926 -0.09995786
-0.04201703 0.02326740 0.00000135
-0.30611448 0.07627805 -0.02345989
-0.37252413 -0.74961421 -0.00000219
-0.15003198 0.51609561 -0.12017898
-0.32119333 0.12476825 -0.15376705
-0.44043282 -0.68645923 0.00000346
-0.18623114 0.23062318 0.00000016
-0.19079048 0.33938538 0.07191947
-0.09994354 0.04608195 0.00000871
-0.25204912 0.28072531 -0.13693513
-0.10748763 0.56838271 -0.04278381
-0.00283848 0.37980948 0.00000718
-0.08181617 0.31290024 -0.00000406
-0.40763486 -0.62463752 0.00000329
-0.52328107 -0.78874781 0.00000396
-0.31417084 -0.41216008 0.00000285
-0.19692134 0.27549563 0.00000321
-0.06715155 -0.61178273 0.00000074
-0.30896719 -0.38968913 0.00000284
-0.08204930 0.34846875 0.00000205
-0.07887629 -0.43860424 -0.00000002
-0.33114215 0.10028154 -0.15305238
-0.28549654 -0.55340527 -0.00000141
-0.66138411 -0.79673119 0.12780329
-0.13113281 0.23374333 -0.00000395
-0.37334698 0.06602008 -0.25685299
-0.29788243 -0.78768473 0.00000226
-0.07009214 0.33051441 0.00000596
-0.35212479 -0.75181083 -0.00000207
-0.04460635 0.06437453 -0.00000953
-0.05950832 0.40848504 -0.00000306
-0.04995031 0.27748868 0.00000172
-0.60220603 -0.78267937 0.00000456
-0.30782719 0.15006354 -0.14306884
-0.40138048 -0.16903939 0.35935132
-0.38529543 -0.13019487 0.09981216
-0.17991057 0.38955548 -0.03666798
