ply
format ascii 1.0
element vertex 1377
property float x
property float y
property float z
end_header
0.32373192 0.43007982 -0.00000058
-0.10613750 -0.10852926 -0.00000043
0.24426519 -0.19725377 -0.00000038
-0.65764357 -0.00466856 -0.00000015
-0.65673286 -0.66555059 -0.00000003
-0.66105826 -0.31049104 -0.00000009
0.21940307 0.42889978 -0.00000098
0.73806553 -0.42363957 -0.00000094
-0.44115921 0.11620115 -0.00000040
-0.35601941 -0.50119761 -0.00000019
-0.67148250 -0.75705160 0.00000000
0.07686932 0.52511474 -0.00000083
0.14990418 0.07854010 -0.00000055
-0.18139723 0.05534009 -0.00000053
-0.29666886 -0.66200008 -0.00000009
0.51693164 0.00383413 0.00000337
-0.43173500 0.16750856 -0.00000042
0.34042533 0.06175109 -0.00000065
0.05904150 0.52945256 0.00000251
-0.30782115 -0.17922966 -0.00000039
0.00716623 -0.35818241 -0.00000028
0.33898353 -0.27759577 -0.00000033
0.34099444 -0.06480628 -0.00000046
-0.43693399 -0.00034764 -0.00000039
-0.19561076 0.64703710 0.00950737
0.19749499 -0.35791517 -0.00000028
0.00547040 -0.56525324 -0.00000015
0.02246920 -0.43125614 -0.00000023
0.44314104 0.03791270 -0.00000093
-0.11182329 0.22863999 -0.00000064
-0.50753154 0.36863636 0.01698110
0.00936466 0.11083778 -0.00000057
0.04301374 0.57222618 0.00000205
0.34258137 -0.46943367 -0.00000021
0.22279073 0.17833339 0.00000574
-0.59108584 -0.32728592 -0.00000016
-0.57917165 -0.31604485 -0.00000018
-0.71562147 0.06757590 -0.00000010
0.67877352 0.09741487 -0.00000180
0.58199862 -0.74197356 -0.00000004
0.67889368 0.10992331 -0.00000183
0.22370140 -0.04313258 -0.00000047
-0.74105144 0.54613412 0.10861736
0.36016334 -0.36372428 -0.00000027
0.26752597 0.25533214 0.00000364
-0.00547895 -0.32559025 -0.00000030
-0.54386469 -0.02404574 -0.00000027
-0.34394454 0.35189293 -0.00000055
-0.03833102 -0.41639857 -0.00000024
-0.51000097 -0.11982488 -0.00000029
-0.02440245 0.61799405 -0.00000089
-0.78007169 -0.56883529 0.00000000
-0.34882582 0.50380640 0.01173360
-0.39579514 -0.07663070 -0.00000042
0.38952665 -0.29383702 -0.00000032
-0.54622461 0.73957878 0.10830884
-0.61849346 0.38168749 0.04462985
0.63555224 -0.74534626 -0.00000003
-0.20014259 0.03008853 -0.00000052
0.17871495 -0.03240614 -0.00000048
0.06474824 -0.49469474 -0.00000019
0.03678023 0.42564336 0.00000453
-0.21025653 -0.23443424 -0.00000035
0.40553254 -0.29714372 -0.00000031
-0.64357189 -0.15980641 -0.00000014
-0.69574807 0.00200170 -0.00000011
-0.34535807 -0.29253548 -0.00000032
0.17394569 -0.63546531 -0.00000010
-0.03910771 0.79429467 0.00744585
0.77541213 -0.12497133 -0.00000168
-0.22303016 0.57369988 -0.00000072
-0.50952770 -0.70261169 -0.00000006
-0.75228499 0.47102040 0.09437541
0.72194189 0.00053415 -0.00000175
0.25764038 0.29734545 -0.00000084
0.71596127 -0.08880240 -0.00000156
0.01034552 0.59990600 -0.00000087
-0.56640151 0.37957387 0.03254470
-0.01039915 -0.42467380 -0.00000023
-0.12479459 -0.42112227 -0.00000024
0.55093162 -0.34628470 -0.00000053
0.21771839 0.23075269 0.00000497
-0.40825980 0.33903684 -0.00000048
-0.71940517 0.25770534 0.03948647
-0.46986104 0.32557411 -0.00000041
-0.15799467 -0.61801144 -0.00000011
0.29458801 0.16385872 -0.00000070
0.12313171 -0.15283124 -0.00000040
-0.70884727 -0.20723809 -0.00000006
-0.07799545 -0.08734639 -0.00000045
0.15458548 0.16366191 0.00000701
0.70078359 -0.52696449 -0.00000065
-0.06751243 0.36831118 -0.00000073
0.08269916 0.61823961 0.00000068
0.19281778 0.47686849 -0.00000099
0.43349906 0.08455777 0.00000352
0.37824378 0.00372470 0.00000603
0.36974597 -0.17035321 -0.00000039
-0.17056003 0.62780473 -0.00000079
0.03297296 -0.10255619 -0.00000044
0.18952388 -0.26420096 -0.00000033
0.22080490 0.45266639 -0.00000103
0.40215255 0.18656459 0.00000229
0.60596083 0.17331023 -0.00000172
0.61988073 -0.26428721 -0.00000091
0.72358310 0.00520824 -0.00000177
0.22452105 0.45025387 0.00000097
0.54056864 -0.59184425 -0.00000013
0.26411014 0.50849355 -0.00000128
-0.72590776 -0.57682286 0.00000000
-0.49718192 -0.33006050 -0.00000026
-0.36387011 0.19800963 -0.00000050
0.22786862 0.36976161 0.00000235
-0.72875983 0.37123960 0.06688444
0.57825178 -0.62473333 -0.00000011
0.17037435 0.49914022 0.00000113
0.04009022 0.10592475 0.00000967
0.13370605 0.17628392 -0.00000061
-0.48332819 -0.53607247 -0.00000016
0.67078985 -0.21639412 -0.00000116
0.61232441 -0.23621919 -0.00000094
0.26927152 0.19188764 0.00000475
0.04406971 0.67077233 -0.00000092
-0.65153415 -0.69599595 -0.00000003
-0.46559902 -0.74453008 -0.00000003
0.64458703 0.09740377 -0.00000169
0.35449393 -0.41668843 -0.00000024
0.51498473 -0.18997501 -0.00000072
0.50905613 0.09486366 -0.00000125
0.05585680 0.62507995 -0.00000089
0.15892734 0.12070268 -0.00000058
-0.04092893 -0.47211414 -0.00000020
0.45331002 -0.65830754 -0.00000009
0.18125475 -0.56328208 -0.00000015
-0.77767867 0.22027994 0.04413462
-0.03777101 -0.23597446 -0.00000035
-0.05919203 0.61393695 -0.00000088
-0.02813862 0.20004831 -0.00000063
-0.41546479 0.61856549 0.05217621
0.13242534 0.47584605 0.00000227
-0.08637748 0.21862153 -0.00000064
-0.01782009 0.79301389 0.00241422
0.14225202 0.34009790 -0.00000071
-0.35951142 0.43719090 -0.00000055
0.39786935 -0.44116334 -0.00000022
-0.45178511 -0.55554537 -0.00000015
0.56516242 -0.43037387 -0.00000041
0.28070047 0.11584042 -0.00000057
-0.46109147 0.74534917 0.09061489
-0.47056467 -0.37162905 -0.00000027
-0.13673273 -0.18957604 -0.00000038
-0.31183302 -0.27170894 -0.00000033
0.07686905 -0.18456978 -0.00000038
0.30353366 0.36912609 -0.00000113
-0.14802027 0.23995308 -0.00000065
0.24363770 -0.74109195 -0.00000004
-0.00300836 -0.03129521 -0.00000048
0.50215985 0.09443692 0.00000202
-0.50418851 0.65083528 0.07915167
0.40159126 -0.46883889 -0.00000021
0.75243803 -0.31434427 -0.00000121
0.37369892 0.41987466 -0.00000145
0.51021027 -0.72900475 -0.00000004
-0.79031546 0.27984874 0.06023280
0.05344058 -0.47548790 -0.00000020
-0.04996838 0.69364365 -0.00000093
-0.66850463 0.14310522 0.00258820
0.10958152 -0.40847125 -0.00000024
-0.52097862 -0.15076361 -0.00000027
-0.42404458 0.55736322 0.04044410
-0.72232068 0.22417900 0.03266183
0.02108255 -0.70648204 -0.00000006
0.19211782 -0.33088139 -0.00000029
0.36122130 0.41437215 -0.00000101
0.12291163 0.42134305 -0.00000076
0.09688687 -0.75124845 -0.00000003
-0.52756489 -0.69871735 -0.00000006
-0.39180570 0.44272665 0.00769832
0.09008690 -0.53037878 -0.00000017
0.17465353 0.09927141 -0.00000056
0.60195594 -0.41683512 -0.00000055
-0.61040955 0.18034316 -0.00000024
0.22164794 0.12126274 0.00000669
-0.64676807 -0.57386569 -0.00000006
0.59063050 0.04211297 0.00000126
-0.55518469 -0.01992918 -0.00000026
0.17556880 -0.24580947 -0.00000035
-0.51553683 -0.34703213 -0.00000024
0.11972379 -0.18180523 -0.00000039
0.17843628 0.38576804 -0.00000076
0.26444215 0.53499120 -0.00000132
-0.70154778 0.51633384 0.09316609
-0.69902376 0.17441665 0.01637330
-0.12112342 -0.16856978 -0.00000039
0.38217363 -0.40348209 -0.00000025
-0.39890076 0.26536387 -0.00000048
0.18796897 -0.52371874 -0.00000017
-0.41260273 -0.11586866 -0.00000039
0.70000518 0.09671596 -0.00000187
0.32382977 0.31691315 -0.00000109
-0.67511419 0.39253374 0.05967162
-0.06116973 -0.35975081 -0.00000028
0.16580336 0.08304961 -0.00000055
0.54978804 -0.22465984 -0.00000076
-0.43904234 -0.75467213 -0.00000003
0.02540662 0.15139023 0.00000916
0.22836611 -0.08863294 -0.00000044
-0.45787340 -0.49849394 -0.00000019
-0.14498495 -0.68855132 -0.00000007
-0.47773217 0.50056501 0.03975067
0.64253493 -0.25475499 -0.00000100
0.15429169 0.22788305 -0.00000064
0.24522420 -0.07822596 -0.00000045
0.30816797 -0.64081260 -0.00000010
0.61209143 -0.66414642 -0.00000010
-0.30119981 0.01697103 -0.00000051
-0.18583638 -0.06805836 -0.00000046
0.22634383 0.38327091 -0.00000091
0.02572886 -0.03279498 -0.00000048
-0.69395487 -0.57803284 -0.00000001
0.68422883 -0.18689929 -0.00000126
-0.08623638 -0.77510372 -0.00000002
0.08438457 -0.02106651 -0.00000049
0.06484276 0.37595819 0.00000491
0.12881627 -0.44133377 -0.00000022
-0.03121545 -0.70081980 -0.00000006
0.47878104 0.01833466 -0.00000101
-0.39170262 0.03781637 -0.00000044
0.44679897 0.12542117 -0.00000111
-0.09367817 0.03188420 -0.00000052
0.22282349 -0.22565271 -0.00000036
-0.25841051 -0.09866965 -0.00000044
0.19273986 -0.74731317 -0.00000003
0.24224407 -0.74374846 -0.00000004
0.31033080 -0.45016680 -0.00000022
0.38091985 0.16738179 0.00000304
0.18621642 0.07329356 -0.00000055
0.47511141 -0.61743747 -0.00000011
-0.21820643 0.05193123 -0.00000053
-0.08255002 -0.19951013 -0.00000038
0.02230840 -0.60443186 -0.00000012
-0.66003208 -0.08683788 -0.00000013
0.69048675 0.10717213 -0.00000186
0.10360139 0.49876107 0.00000233
0.32007242 -0.63811782 -0.00000010
0.23705833 -0.25819501 -0.00000034
-0.76415181 0.25697715 0.04930041
0.00609276 0.37655225 0.00000579
0.33669690 0.03220096 -0.00000058
-0.58836960 -0.01871091 -0.00000022
0.46746402 0.23021855 -0.00000138
-0.39960111 -0.75119934 -0.00000003
-0.77713863 0.69928500 0.15080774
0.35365508 0.34403081 0.00000039
-0.73208139 -0.46803445 0.00000000
-0.61140397 0.48573992 0.06624762
-0.21615465 -0.11950023 -0.00000043
-0.68998419 0.30642451 0.04378894
0.10324512 0.50738536 0.00000220
-0.20988013 -0.41674164 -0.00000024
-0.48319334 0.37976394 0.01403577
0.19859464 0.37206470 -0.00000080
0.28006570 -0.71795798 -0.00000005
0.16613736 0.39392392 -0.00000075
-0.29604832 0.65379796 0.03340729
0.08896598 0.37053816 0.00000464
0.14772219 0.25024407 -0.00000066
-0.45079844 -0.65343384 -0.00000009
-0.14018922 -0.31581313 -0.00000030
-0.18763981 -0.59937012 -0.00000013
0.61344702 -0.47890355 -0.00000047
-0.36107613 0.16612045 -0.00000050
0.01520906 0.73308921 -0.00000014
-0.46809943 -0.76375236 -0.00000002
0.33465146 -0.39058048 -0.00000026
-0.29482052 0.21805955 -0.00000058
0.21267978 -0.11427200 -0.00000043
-0.28871109 -0.57894885 -0.00000014
0.48068161 -0.16067486 -0.00000066
-0.45171079 0.76877062 0.09374524
-0.14440005 -0.66495297 -0.00000008
0.69589387 0.04205678 -0.00000076
0.01939655 0.39910453 -0.00000075
-0.38527227 0.06158258 -0.00000045
0.09758044 -0.48553897 -0.00000020
-0.03922970 0.21518290 -0.00000063
0.57320925 -0.15049873 -0.00000098
0.41500735 0.15229356 -0.00000106
-0.24150947 -0.43528719 -0.00000023
-0.20317886 -0.59516433 -0.00000013
-0.73591327 -0.35354266 -0.00000000
0.44116840 0.33206567 -0.00000150
0.18516278 0.51191113 -0.00000103
-0.23757846 -0.44356785 -0.00000022
-0.74023645 -0.56897416 0.00000000
-0.09501703 0.65717963 -0.00000087
0.37541373 0.02625057 0.00000568
0.32719984 -0.35007598 -0.00000028
0.25112665 -0.46551247 -0.00000021
0.59732625 0.11365938 -0.00000015
-0.78317072 0.31301098 0.06603336
-0.61388784 0.53374591 0.07750428
-0.29042118 0.63824845 0.02868597
0.45305398 -0.18066821 -0.00000054
0.39592500 0.24234357 0.00000141
-0.46557390 0.18296170 -0.00000039
-0.65964801 0.20583577 0.01459932
0.46279689 0.09695129 0.00000274
-0.32831363 0.11522602 -0.00000052
-0.68409987 0.38242593 0.05942146
-0.68178017 -0.59036367 -0.00000002
0.79629923 -0.72521045 -0.00000019
-0.64888942 0.59603264 0.09919461
0.29576795 -0.33736387 -0.00000029
-0.02682800 -0.14690376 -0.00000041
0.06180128 0.28036390 -0.00000068
0.35247423 0.34838946 0.00000034
0.24433502 0.23584445 0.00000444
0.63032985 -0.35102956 -0.00000077
-0.44829500 0.36491863 0.00294542
-0.19265721 0.02312849 -0.00000051
-0.74896526 -0.34723457 0.00000000
-0.49546034 0.45086774 0.03262322
-0.49942836 -0.45487810 -0.00000022
0.12086275 0.58050594 0.00000062
0.23352321 0.21068459 0.00000505
0.14481141 0.46243895 0.00000228
-0.12511379 0.63473211 -0.00000084
-0.54783347 -0.22221986 -0.00000023
0.00331097 -0.14162217 -0.00000041
0.21590767 -0.64015358 -0.00000010
-0.24214316 -0.55816953 -0.00000015
0.27468494 -0.18718343 -0.00000038
-0.42925570 -0.77856902 -0.00000001
0.40880008 0.25356312 -0.00000124
0.46145586 -0.29247363 -0.00000035
0.24109258 -0.44203897 -0.00000022
-0.00702153 0.58997088 -0.00000087
-0.19320412 -0.56823161 -0.00000014
0.34902855 0.12531674 0.00000441
-0.61745505 0.34708003 0.03668264
0.67988278 0.08392889 -0.00000178
-0.69515252 -0.65943218 0.00000000
0.56306347 -0.41055132 -0.00000044
0.24379896 0.10677376 0.00000659
0.65590178 -0.54249860 -0.00000048
-0.78169982 -0.62125008 0.00000000
-0.14253391 0.37889555 -0.00000074
0.01385336 0.21624273 0.00000828
-0.16242162 0.36384900 -0.00000073
-0.46708870 -0.37294046 -0.00000027
0.73492133 -0.12371683 -0.00000155
0.76730686 -0.53903326 -0.00000065
-0.07842621 -0.58270170 -0.00000014
0.59133747 0.20496241 -0.00000167
0.37529895 0.36685958 -0.00000043
0.29472622 -0.06576815 -0.00000046
0.62748309 -0.04159123 -0.00000137
-0.75772281 -0.01819886 -0.00000004
0.58268718 -0.49340023 -0.00000034
0.61667790 -0.09747542 -0.00000122
0.25550036 0.04732890 -0.00000053
0.43121534 -0.34089853 -0.00000029
0.43731786 0.14510758 0.00000236
0.63583890 -0.77527686 -0.00000002
-0.68673221 0.31603333 0.04520618
-0.19765697 -0.50511828 -0.00000018
0.10490749 0.60797365 0.00000043
-0.20912207 -0.63319829 -0.00000010
-0.53059330 0.12370094 -0.00000031
-0.37350727 -0.05137608 -0.00000045
0.00808788 0.28833661 -0.00000068
0.18325344 -0.77664281 -0.00000001
-0.65327424 0.52606018 0.08457197
-0.27651521 -0.56667677 -0.00000015
0.34950444 -0.14620553 -0.00000041
-0.15505047 -0.57991134 -0.00000014
-0.46338271 0.77131406 0.09691455
0.32944469 0.25564929 -0.00000099
0.35308757 0.25100378 0.00000208
-0.07036489 0.47845232 -0.00000080
-0.29087757 -0.11294696 -0.00000043
0.40902068 0.13684859 0.00000305
-0.25427685 0.09579902 -0.00000056
0.13906702 0.00335968 0.00000985
-0.02537837 0.78006792 0.00121306
0.71255478 -0.72348875 -0.00000019
-0.51982367 -0.16786060 -0.00000027
-0.66106030 0.73732473 0.13340894
0.26740886 0.03069847 -0.00000052
-0.60012223 -0.26996216 -0.00000016
0.01364641 -0.20041798 -0.00000037
-0.75466937 -0.36375606 0.00000000
0.61823976 -0.03550767 -0.00000135
-0.28410773 -0.75244775 -0.00000003
0.27571235 0.08859870 -0.00000056
-0.69209862 -0.47741448 -0.00000003
-0.13070005 -0.53470922 -0.00000017
-0.01173576 -0.78612966 -0.00000001
0.70541124 -0.17889535 -0.00000135
-0.79596644 -0.37287804 0.00000000
-0.76543387 -0.04721163 -0.00000003
0.52860069 -0.01379751 -0.00000110
-0.43968997 -0.40365332 -0.00000025
0.51269167 -0.36786810 -0.00000036
-0.38606297 -0.41722196 -0.00000024
0.64154903 -0.31257945 -0.00000088
0.10801793 0.63770625 -0.00000016
-0.63235162 -0.49307729 -0.00000009
-0.40022440 -0.11637536 -0.00000041
-0.56816872 0.44406381 0.04731666
0.02752103 0.27351072 0.00000714
-0.35637233 -0.10514272 -0.00000043
0.10605612 -0.21012393 -0.00000037
0.40887793 -0.47772608 -0.00000020
-0.41359811 0.11380529 -0.00000043
0.03125159 0.56552443 -0.00000085
-0.55364871 0.55465063 0.06873463
0.18524725 -0.36399655 -0.00000027
0.18505587 0.17349955 -0.00000061
0.05697974 0.40994312 -0.00000076
0.52572932 -0.42585341 -0.00000029
-0.13918157 -0.74123343 -0.00000004
0.23651747 -0.66323128 -0.00000009
-0.59506377 0.29584296 0.02026724
-0.29186145 0.07804631 -0.00000055
-0.33510061 -0.15652488 -0.00000040
-0.35100881 -0.36985263 -0.00000027
-0.04457783 0.10037185 -0.00000056
-0.10655570 0.28272900 -0.00000068
-0.53892036 0.31995151 0.01312502
-0.35684942 -0.04061244 -0.00000047
-0.43696866 -0.20332860 -0.00000035
-0.34107198 0.62982133 0.03809978
0.63882178 -0.50379330 -0.00000050
-0.31929695 0.24469375 -0.00000056
0.62754686 0.15170098 -0.00000141
0.14138715 0.48597739 -0.00000084
-0.32269422 0.26654265 -0.00000056
-0.40588513 0.28399636 -0.00000047
0.55360361 -0.73746016 -0.00000004
-0.02719589 0.23812780 -0.00000065
-0.59605272 0.41133835 0.04623730
-0.05678459 -0.53827242 -0.00000016
0.39923345 -0.71504570 -0.00000005
0.00459545 0.33024424 -0.00000071
-0.09408476 0.29416095 -0.00000068
0.29307698 -0.14385232 -0.00000041
0.43068142 -0.60592793 -0.00000012
0.47165996 0.21193554 -0.00000136
-0.21495358 -0.68912286 -0.00000007
-0.03309364 0.57569845 -0.00000086
0.17228922 0.48459817 -0.00000094
-0.54175338 0.05941630 -0.00000029
-0.51552469 0.34976219 0.01455520
-0.16492163 -0.45863567 -0.00000021
-0.32824649 -0.43217941 -0.00000023
0.70973393 -0.60505194 -0.00000049
-0.31776748 -0.40959579 -0.00000024
-0.34320561 0.41375276 -0.00000056
-0.21623440 -0.55186462 -0.00000016
-0.25503276 -0.67703737 -0.00000008
0.32041623 -0.64720728 -0.00000010
-0.28445607 -0.66238573 -0.00000009
0.54258809 -0.61556806 -0.00000012
-0.11469554 -0.59209949 -0.00000013
0.11241026 -0.46721137 -0.00000021
-0.56093120 -0.23128705 -0.00000021
-0.09917537 -0.00917475 -0.00000049
-0.45246493 -0.74161387 -0.00000004
0.57350169 -0.44842536 -0.00000040
0.11349861 0.15108491 -0.00000059
-0.63543158 0.22795535 0.01413179
-0.38068255 -0.01432533 -0.00000044
0.18454415 0.41494434 0.00000237
0.61946393 -0.22699830 -0.00000098
0.49246784 -0.35499671 -0.00000032
0.18857693 0.16517741 -0.00000060
-0.34892519 0.52141084 0.01568065
0.39641987 -0.50631464 -0.00000018
0.46213815 0.20787181 -0.00000132
0.22899245 -0.34662882 -0.00000028
0.61811592 0.04513582 0.00000068
-0.35400161 0.72954991 0.06321677
0.59030763 0.13973986 -0.00000160
0.06360328 -0.42111342 -0.00000024
-0.60533277 -0.29652519 -0.00000015
-0.30042094 -0.72864465 -0.00000004
0.79492714 -0.72393230 -0.00000019
0.44542062 0.25038815 0.00000031
-0.14338662 -0.42693271 -0.00000023
0.41969319 -0.71241211 -0.00000005
0.06934447 0.06750811 -0.00000054
-0.76729678 0.52531905 0.10982808
-0.27057705 -0.23094624 -0.00000036
0.56205021 0.23547804 -0.00000170
-0.00207452 -0.58770408 -0.00000013
-0.36321274 -0.05369909 -0.00000046
0.28392270 -0.56272740 -0.00000015
-0.64318467 0.05040600 -0.00000018
-0.50473047 0.29045549 -0.00000037
0.63406670 -0.21768159 -0.00000104
0.00029059 0.28904464 0.00000730
0.04680635 -0.50004073 -0.00000019
-0.50856785 0.68700316 0.08819162
0.47214780 0.08239583 -0.00000111
-0.53098696 0.38827335 0.02658854
-0.52733934 0.33426969 0.01373525
0.46096571 0.02471351 0.00000407
-0.40020730 0.34052831 -0.00000049
-0.65125605 0.76423134 0.13722187
0.46571777 0.25507837 -0.00000016
0.55854169 -0.13650409 -0.00000096
0.55282745 -0.60539895 -0.00000012
0.19323534 0.57389894 -0.00000065
0.13288541 -0.27081188 -0.00000033
-0.63144274 0.75933639 0.13171317
-0.57224732 -0.35897817 -0.00000018
-0.74021595 0.08912252 0.00654088
-0.78394729 0.59728523 0.12958505
-0.50832243 -0.28799731 -0.00000026
0.60837045 -0.43599819 -0.00000054
-0.35426188 -0.40256041 -0.00000025
-0.04378035 0.35284012 -0.00000072
-0.78363045 0.22727718 0.04702160
0.42048639 -0.10826530 -0.00000057
0.16697588 -0.74554702 -0.00000003
-0.69432724 -0.15847303 -0.00000008
0.57216929 0.01226110 -0.00000129
0.15709674 -0.06948966 -0.00000046
-0.56286703 -0.68794053 -0.00000007
0.21080849 0.00343196 -0.00000050
-0.01220916 -0.31889450 -0.00000030
-0.39648203 0.08747326 -0.00000045
-0.18113968 0.78680421 0.03744192
0.12141285 -0.54203323 -0.00000016
-0.48482451 -0.17991801 -0.00000030
-0.38131458 0.31581654 -0.00000050
0.12542950 -0.65308657 -0.00000009
-0.65849603 0.46277203 0.07162615
0.17108989 -0.70922866 -0.00000006
-0.04738183 -0.58216607 -0.00000014
0.40230350 0.22076783 0.00000167
0.26644592 0.32088341 0.00000249
-0.05469961 -0.65870272 -0.00000009
0.60245612 0.13369771 -0.00000163
0.23228480 -0.25147123 -0.00000034
-0.58161812 0.10263774 -0.00000025
-0.25251242 -0.71530145 -0.00000005
0.21626221 0.00966020 0.00000858
0.01565220 -0.26531829 -0.00000033
-0.31009834 -0.61816876 -0.00000011
-0.75716664 -0.67428723 0.00000000
-0.72555518 -0.16211141 -0.00000005
0.52007789 0.09786348 0.00000162
0.35961318 0.11490316 -0.00000081
0.14270784 0.50595460 0.00000154
-0.74760466 -0.52768932 0.00000000
-0.50472842 -0.32152393 -0.00000026
-0.62683427 0.77143193 0.13338239
-0.28987595 0.77020766 0.05798452
-0.02375810 0.47728026 -0.00000080
0.59045653 0.17435776 -0.00000111
-0.10622420 0.70131594 0.00168000
-0.06109710 -0.28322742 -0.00000032
-0.69862889 -0.23239176 -0.00000007
-0.10149816 0.56339282 -0.00000085
0.28384976 0.04184574 0.00000704
-0.60748475 -0.31490234 -0.00000015
-0.22002955 -0.03784312 -0.00000048
0.33429188 0.10963929 0.00000498
-0.40089545 -0.08478843 -0.00000041
-0.62286763 -0.11497196 -0.00000017
-0.78940603 -0.49773954 0.00000000
-0.15317059 0.14991840 -0.00000059
-0.48660556 0.19870570 -0.00000037
-0.45069947 -0.25931949 -0.00000033
0.06481703 -0.28891909 -0.00000032
0.72822819 -0.53727081 -0.00000066
-0.55577096 0.17156234 -0.00000029
0.19253978 0.34475071 0.00000348
0.45501408 0.01040935 -0.00000092
0.48115000 0.23330860 -0.00000007
0.20928535 -0.65970928 -0.00000009
0.01292787 0.60826277 -0.00000088
-0.13730415 0.22510167 -0.00000064
0.11125099 -0.72307973 -0.00000005
-0.33512598 0.41981622 -0.00000057
-0.58145206 0.71611281 0.11093111
-0.38403010 0.39300129 -0.00000052
-0.08974950 0.27151398 -0.00000067
0.47482112 -0.18335063 -0.00000060
-0.64375573 -0.54432151 -0.00000007
0.53370833 -0.65381354 -0.00000009
0.47339473 0.30389337 -0.00000155
0.01554174 0.24363727 0.00000781
-0.53877893 -0.13718897 -0.00000025
0.11529614 0.32024474 -0.00000070
0.06384619 0.33567989 -0.00000071
-0.10313226 -0.21266922 -0.00000037
0.03412026 0.35355269 -0.00000072
-0.04652597 -0.66806387 -0.00000008
-0.54391702 0.34542803 0.01991899
0.56584399 -0.58602029 -0.00000013
-0.13725807 -0.16440828 -0.00000040
0.65711693 -0.60397916 -0.00000036
-0.50067863 -0.69951229 -0.00000006
0.44323811 -0.73372968 -0.00000004
0.56947602 0.17343823 -0.00000069
-0.15825499 0.53350076 -0.00000078
0.02839612 -0.57032673 -0.00000014
-0.59757180 -0.17076602 -0.00000018
0.67873715 -0.41659882 -0.00000080
0.41190916 -0.29622623 -0.00000031
-0.36384791 -0.61451199 -0.00000012
-0.16862845 0.09289678 -0.00000056
0.51350908 0.06405487 -0.00000121
-0.53945986 -0.20933863 -0.00000024
-0.58573223 -0.23357466 -0.00000019
-0.30093887 0.46762272 -0.00000062
0.39615893 -0.06948940 -0.00000057
0.23122128 0.12348554 -0.00000058
0.24341014 0.33144703 0.00000274
0.26628532 0.23823408 0.00000397
0.25568682 0.28699988 -0.00000082
0.58045305 0.15788662 -0.00000161
-0.13551239 0.12852798 -0.00000058
0.17677685 0.32343407 -0.00000070
0.36921046 -0.31634007 -0.00000030
-0.63669384 -0.03247293 -0.00000017
-0.62602914 0.73968518 0.12612500
0.50554062 0.05199298 0.00000272
0.10429582 0.63006639 -0.00000100
0.30113916 -0.79265640 -0.00000000
0.35106471 0.20791971 0.00000289
-0.58803258 0.05199779 -0.00000024
0.02096557 0.22095808 -0.00000064
0.42634618 0.02860873 -0.00000086
0.32138318 -0.14529436 -0.00000041
-0.48133664 0.03208876 -0.00000035
0.26823047 0.14417335 -0.00000059
0.26937743 0.34622928 0.00000197
0.26711203 0.25508334 -0.00000079
-0.58436403 0.03333624 -0.00000024
-0.32049309 -0.36390811 -0.00000027
-0.13014818 -0.21606211 -0.00000036
-0.14918804 -0.51060248 -0.00000018
-0.06922135 -0.29140198 -0.00000032
0.31672795 0.19163269 -0.00000083
-0.50019408 0.56278530 0.05863051
-0.38206958 -0.59454160 -0.00000013
-0.74218486 -0.16662111 -0.00000003
0.26826471 0.27559358 0.00000326
0.37737352 -0.14203226 -0.00000041
0.42932472 -0.07590854 -0.00000067
0.73892522 -0.69642578 -0.00000026
0.51312338 -0.46132975 -0.00000021
-0.51596181 0.61197179 0.07311198
-0.23443963 0.67561798 0.02453636
0.15453825 0.46847870 0.00000198
-0.65714917 -0.44958633 -0.00000007
0.09954722 0.69771753 -0.00000108
0.12019795 0.54160236 -0.00000088
0.52417285 -0.70386369 -0.00000006
0.40281777 0.06067827 0.00000454
-0.50385499 -0.39119670 -0.00000024
0.50178378 -0.26529835 -0.00000053
0.71283543 0.01268173 -0.00000055
0.18187658 -0.60626437 -0.00000012
-0.32360840 0.08514860 -0.00000052
-0.10826785 -0.78739329 -0.00000001
-0.35766239 0.28038060 -0.00000052
-0.09453995 0.05377706 -0.00000053
0.14205434 0.29248527 -0.00000068
-0.69947636 0.02527861 -0.00000011
-0.76936459 -0.24381607 0.00000000
-0.42970268 0.15438053 -0.00000042
0.20105692 -0.02664434 -0.00000048
-0.71231445 -0.43140934 -0.00000001
-0.57757019 0.03512049 -0.00000024
-0.28029076 0.19322421 -0.00000059
-0.36610218 0.53379887 0.02227216
-0.24603933 -0.09443888 -0.00000044
0.06760436 0.02024991 -0.00000051
-0.43130310 -0.78361832 -0.00000001
0.13214966 0.37094428 0.00000398
0.07791520 0.63577930 0.00000045
-0.26231253 -0.58563027 -0.00000013
0.42155604 0.27019862 -0.00000132
0.53917989 -0.73785508 -0.00000004
-0.27991876 0.59107268 0.01582667
-0.53513725 0.09181160 -0.00000030
-0.65295746 0.05260892 -0.00000017
0.22140569 -0.53237434 -0.00000017
-0.19113108 -0.44707201 -0.00000022
0.29151220 0.30039093 -0.00000096
0.42247572 0.05734586 -0.00000090
-0.48112445 -0.58070960 -0.00000014
0.51257087 0.21619347 -0.00000036
-0.41610996 -0.22215057 -0.00000036
0.07509383 0.34430551 0.00000527
0.72160284 -0.27044501 -0.00000122
0.09617232 0.39281639 0.00000417
-0.26312524 -0.09390449 -0.00000044
-0.35280197 -0.30928979 -0.00000031
-0.30041398 -0.34543872 -0.00000028
0.37090188 -0.57128117 -0.00000014
0.02583418 0.32735093 0.00000629
-0.08960005 -0.10809397 -0.00000043
-0.02670728 0.40360629 -0.00000075
0.48145682 0.09580722 -0.00000117
0.78756622 -0.02800738 -0.00000191
-0.06122205 -0.62222225 -0.00000011
-0.41003445 0.00077788 -0.00000042
0.47269577 -0.17736416 -0.00000061
0.51640120 0.20464220 -0.00000149
-0.57960299 0.51395303 0.06544766
-0.14861724 0.18876587 -0.00000062
0.43375868 0.00095586 -0.00000083
-0.52325340 0.20694667 -0.00000033
0.44195903 -0.67796561 -0.00000008
0.39701942 0.38408679 -0.00000116
-0.62158916 -0.32166437 -0.00000013
0.04433466 0.10213130 -0.00000056
0.18040681 0.07771602 0.00000801
0.03792027 0.69508548 0.00000013
-0.42599044 0.25700354 -0.00000045
-0.60607912 0.42905014 0.05242152
-0.29504062 -0.39101259 -0.00000026
-0.14756183 -0.69271392 -0.00000007
-0.38457364 0.21084114 -0.00000048
-0.38750487 -0.61684177 -0.00000011
0.51422959 -0.49229553 -0.00000019
0.08654839 0.10893131 0.00000892
-0.23381951 -0.73080391 -0.00000004
0.08026939 -0.19185846 -0.00000038
-0.59731889 0.70616345 0.11225043
-0.18561939 -0.21949494 -0.00000036
0.65040295 -0.46069074 -0.00000062
0.11087929 0.40934815 -0.00000076
0.00836990 0.14407481 0.00000953
-0.11040668 0.13451373 -0.00000058
-0.52667407 -0.52318838 -0.00000017
0.07759186 0.59482089 -0.00000087
-0.50362423 -0.25290196 -0.00000027
0.52816151 0.15444972 -0.00000143
-0.73203506 -0.48859941 0.00000000
0.24572282 0.23928933 -0.00000069
0.22595270 -0.65367382 -0.00000009
0.26066850 -0.20402643 -0.00000037
0.56390368 -0.76655123 -0.00000002
-0.52107046 0.63953088 0.08039521
0.05960193 -0.11481220 -0.00000043
0.42915362 0.25259472 0.00000059
0.61292319 0.02161803 0.00000120
-0.78091364 -0.69085088 0.00000000
-0.14841920 -0.30116182 -0.00000031
-0.71558055 -0.59992834 0.00000000
-0.09141563 0.03330766 -0.00000052
0.06895657 -0.33909534 -0.00000029
0.07850481 0.02555227 0.00001040
0.23413067 0.06912653 -0.00000054
-0.26022136 -0.52070408 -0.00000017
-0.75344537 -0.57775199 0.00000000
-0.03035582 0.72399264 -0.00000095
-0.51538350 0.16173325 -0.00000033
0.11734119 0.13864697 0.00000798
0.54598332 0.22390917 -0.00000114
-0.21445888 0.28653266 -0.00000068
-0.37254988 -0.58387659 -0.00000014
0.44406409 0.07504168 -0.00000101
-0.48127811 0.30411530 -0.00000040
-0.67567972 -0.22275529 -0.00000009
0.76386144 -0.17372838 -0.00000155
-0.64746920 -0.05659022 -0.00000015
0.06913854 -0.20857351 -0.00000037
0.19802052 -0.19329054 -0.00000038
0.63711434 -0.62052012 -0.00000027
-0.44561883 -0.17884087 -0.00000035
-0.20591114 -0.50737744 -0.00000018
0.29279858 0.12428151 -0.00000062
-0.24318262 -0.44277197 -0.00000022
0.51815271 0.09398817 -0.00000128
-0.08979820 0.46419327 -0.00000079
0.19734515 0.24014401 0.00000512
-0.72741666 0.01099457 -0.00000008
0.42737853 0.11065157 0.00000317
0.61473133 -0.46746990 -0.00000050
-0.56295093 0.37855918 0.03154916
0.48762324 -0.57559946 -0.00000014
-0.57960196 -0.72257924 -0.00000005
0.07421277 0.60920315 0.00000098
0.71659353 -0.04425555 -0.00000165
-0.38005368 0.38055532 -0.00000052
0.08344899 0.22143426 -0.00000064
0.18594256 -0.28720694 -0.00000032
0.04707384 0.26550272 -0.00000067
-0.15326510 -0.58013801 -0.00000014
-0.68121601 0.28583001 0.03724255
0.72827653 -0.14153548 -0.00000149
-0.36163125 0.47620385 0.00843462
-0.52040128 0.49710415 0.04849217
-0.74537084 0.51022474 0.10157444
-0.07034818 0.62084433 -0.00000089
-0.07999981 0.20402554 -0.00000063
0.54322443 -0.01236469 -0.00000115
0.37392136 0.40410986 -0.00000142
-0.35922332 0.19139117 -0.00000051
0.55724470 0.14004937 0.00000015
-0.78217346 0.71708412 0.15589854
0.62439364 -0.17179719 -0.00000110
-0.34659841 -0.13962272 -0.00000041
0.62508702 0.15097597 -0.00000135
0.04162024 -0.58098335 -0.00000014
0.46928867 0.07138993 0.00000307
0.67787354 -0.28884919 -0.00000105
-0.08118666 -0.23696841 -0.00000035
-0.10478219 -0.21444415 -0.00000037
-0.15199056 0.02297428 -0.00000051
-0.64993540 -0.06805710 -0.00000015
0.19905390 0.34851224 0.00000328
-0.52357671 -0.41309907 -0.00000022
0.67134636 -0.09009912 -0.00000141
0.51404505 -0.00257334 -0.00000108
0.20582059 0.11031767 0.00000710
0.76224965 -0.13654982 -0.00000161
0.00359985 0.62155306 0.00000185
0.11686132 0.42192808 -0.00000076
-0.35943181 -0.23539838 -0.00000035
-0.68218811 -0.12250974 -0.00000010
-0.32591496 -0.36544501 -0.00000027
0.16780991 0.43671029 0.00000230
0.16871016 0.33807221 0.00000396
0.56571399 -0.15325346 -0.00000095
0.52258622 -0.54296916 -0.00000016
-0.06134326 0.29017811 -0.00000068
0.21728146 0.50327171 -0.00000112
0.21240294 0.45248027 0.00000116
0.76860733 -0.39555458 -0.00000101
-0.03119568 -0.53924623 -0.00000016
0.31501401 -0.18267864 -0.00000039
-0.51241329 -0.15958604 -0.00000028
0.54649755 -0.62035550 -0.00000011
-0.61420246 -0.55492026 -0.00000010
-0.29590465 -0.02876866 -0.00000048
-0.37326421 -0.68613061 -0.00000007
0.20989932 0.56429454 -0.00000121
-0.31681242 -0.29969064 -0.00000031
-0.30022871 -0.48301706 -0.00000020
0.34854507 -0.17960613 -0.00000039
0.59111387 0.16984142 -0.00000104
-0.42547030 0.35706349 -0.00000046
-0.17898660 -0.30183097 -0.00000031
-0.23081399 0.69064107 0.02707740
-0.60232657 0.56301221 0.08145157
-0.38226164 -0.65705303 -0.00000009
0.15842683 0.01080702 -0.00000051
-0.77142147 -0.51618632 0.00000000
-0.73785670 0.64140100 0.12914468
0.69253472 -0.61776270 -0.00000045
-0.47613988 0.20307937 -0.00000038
0.70653767 0.06902773 -0.00000144
0.36750176 -0.76165848 -0.00000002
-0.41914762 0.25152104 -0.00000045
0.17816207 -0.28750798 -0.00000032
-0.49713909 -0.70139816 -0.00000006
0.06090573 -0.00990140 -0.00000049
0.70053249 -0.11716409 -0.00000145
0.11624321 0.55697264 0.00000113
0.04589939 -0.67074322 -0.00000008
-0.01564116 -0.15473165 -0.00000040
0.47912406 -0.76957656 -0.00000002
-0.20055492 -0.37256841 -0.00000027
-0.76077934 0.04422452 0.00111554
0.51876224 -0.22745492 -0.00000066
0.08487791 0.03407813 -0.00000052
-0.54813427 0.50590690 0.05663782
0.26972247 0.41672634 -0.00000112
0.35131763 -0.11266036 -0.00000043
-0.24289181 0.42117558 -0.00000067
0.79856873 -0.51766622 -0.00000071
0.24760937 -0.15166305 -0.00000041
0.58373218 -0.38425736 -0.00000056
0.03904865 0.43025385 -0.00000077
-0.77880024 0.05786295 0.00817398
0.18003530 -0.38320905 -0.00000026
-0.10685428 0.55392471 -0.00000084
0.19701675 0.52807436 -0.00000110
-0.62916662 0.59293747 0.09410735
-0.12335164 -0.03413291 -0.00000048
0.11812774 -0.49803964 -0.00000019
0.55105209 -0.74317802 -0.00000004
-0.04268855 -0.55562941 -0.00000015
0.57754649 -0.44876241 -0.00000041
-0.03031737 -0.33156263 -0.00000029
-0.24376266 0.09214646 -0.00000056
-0.74746223 -0.20596493 -0.00000002
-0.75100075 -0.73479536 0.00000000
-0.45322676 -0.13059535 -0.00000035
-0.37529259 0.70848196 0.06326654
-0.35845498 -0.05812661 -0.00000046
0.22403823 0.27026294 -0.00000068
-0.51502242 0.76986543 0.10810467
-0.54603694 -0.22409373 -0.00000023
0.24669275 0.31735711 -0.00000085
0.22565895 -0.73101127 -0.00000004
0.25238863 -0.20536596 -0.00000037
-0.43531760 0.66334180 0.06658520
-0.44922719 0.30825189 -0.00000043
0.24763928 0.18013459 0.00000534
0.48685681 0.03933277 -0.00000107
-0.76766094 0.39246633 0.08028994
-0.54060668 -0.62643885 -0.00000011
0.27341096 -0.01388303 -0.00000049
-0.51301988 0.66198192 0.08360575
-0.30979613 -0.42395569 -0.00000024
-0.54790326 0.11478224 -0.00000029
0.10418201 -0.05313748 -0.00000047
0.68116649 -0.25727336 -0.00000112
-0.67851596 -0.02446557 -0.00000013
0.16348254 -0.17117134 -0.00000039
-0.06413416 -0.15237577 -0.00000040
0.09740734 -0.24201519 -0.00000035
-0.15065595 0.19968922 -0.00000062
0.12960578 -0.63027938 -0.00000011
0.53843099 -0.22224951 -0.00000073
-0.72972302 -0.47509011 0.00000000
0.68128672 -0.38467093 -0.00000087
-0.57950254 -0.39062507 -0.00000016
-0.35409653 0.39662579 -0.00000055
-0.56209141 0.43930208 0.04490010
-0.77720891 -0.29716495 0.00000000
-0.77899753 0.20344089 0.04067441
0.41093403 -0.68151660 -0.00000007
-0.53395263 -0.48557833 -0.00000019
0.33030079 0.39104186 -0.00000000
0.05296082 0.56585924 -0.00000085
0.00893305 0.10980369 -0.00000057
-0.42106081 0.34747684 -0.00000047
-0.24606968 -0.24356673 -0.00000035
0.55654430 -0.25085942 -0.00000073
0.72893283 -0.16924850 -0.00000144
-0.75980935 -0.65743054 0.00000000
0.08543537 0.44750996 0.00000344
-0.43938127 0.19053246 -0.00000042
-0.42358155 -0.75048809 -0.00000003
-0.17639388 0.15086378 -0.00000059
-0.28970176 0.22506585 -0.00000059
-0.51080730 0.38302083 0.02091843
0.28878767 -0.47715315 -0.00000020
0.74951266 -0.34303300 -0.00000114
0.29292111 -0.25048993 -0.00000034
0.07059296 0.46615140 -0.00000079
-0.02365752 0.20156006 -0.00000063
0.21277285 0.40633056 0.00000198
-0.76984060 0.14398703 0.02537770
-0.68208174 0.11369294 -0.00000015
-0.76862323 -0.62158764 0.00000000
0.63321654 -0.64142411 -0.00000021
-0.75200455 -0.18238009 -0.00000002
-0.39022255 0.15666079 -0.00000047
-0.73726351 0.76496052 0.15655982
-0.45498113 -0.46232860 -0.00000021
0.18204221 0.48833590 0.00000110
-0.22766262 0.10185725 -0.00000056
-0.21184400 0.03819027 -0.00000052
-0.43863019 -0.58031859 -0.00000014
0.03918646 0.37608508 0.00000530
0.35021939 -0.60189232 -0.00000012
-0.39635602 -0.49113869 -0.00000019
0.19757971 0.10426312 0.00000732
-0.22426461 -0.27111025 -0.00000033
-0.67628112 -0.29209382 -0.00000008
0.13426447 0.50119100 0.00000179
-0.56015112 -0.15377890 -0.00000023
-0.31655087 0.71911157 0.05253991
-0.18361479 -0.23461289 -0.00000035
0.64486163 0.06041027 -0.00000011
-0.19032738 -0.71489552 -0.00000005
0.50167730 -0.44732666 -0.00000022
0.21827117 -0.20684421 -0.00000037
-0.16930299 0.51679724 -0.00000077
-0.59225982 0.22565122 0.00399293
-0.46072179 0.17250948 -0.00000039
0.13658071 -0.31936273 -0.00000030
0.12991312 -0.70621267 -0.00000006
0.51162445 0.02202239 -0.00000112
0.34092576 0.16604697 -0.00000085
0.40874284 -0.66285362 -0.00000009
-0.21319006 -0.68003500 -0.00000007
0.47574456 -0.63392838 -0.00000010
0.14893299 0.54859861 -0.00000099
0.09147837 0.08311408 -0.00000055
-0.58579534 -0.14187591 -0.00000020
-0.68461069 0.05762722 -0.00000013
-0.01226857 -0.41474252 -0.00000024
0.07119967 0.63119839 -0.00000090
0.27876072 0.49203092 -0.00000129
0.19121528 -0.54366233 -0.00000016
0.34540405 -0.47701524 -0.00000020
-0.10767259 0.45363129 -0.00000078
0.24528766 -0.31600655 -0.00000030
-0.70153345 -0.56591596 -0.00000000
0.29372374 0.04599968 0.00000682
0.21195396 0.09858931 0.00000720
-0.58388456 -0.57020465 -0.00000013
-0.07918314 0.68366235 -0.00000089
0.71891897 -0.22109293 -0.00000131
0.08768828 -0.64695611 -0.00000010
-0.38752632 -0.63755094 -0.00000010
-0.44479900 -0.79600525 -0.00000000
-0.71234786 0.44099463 0.07877719
-0.15190980 -0.09492629 -0.00000044
-0.03395920 0.59402290 -0.00000087
-0.17144556 0.01385240 -0.00000051
0.74661117 -0.48870914 -0.00000078
-0.70186177 -0.33599190 -0.00000004
0.27294723 0.21407399 -0.00000073
0.27501812 0.27718295 0.00000311
-0.51937637 0.61037710 0.07351773
0.76356082 -0.01504026 -0.00000185
-0.15661161 -0.43327084 -0.00000023
-0.53152052 -0.16971109 -0.00000026
-0.13811106 0.61330091 -0.00000082
-0.59028095 0.64881899 0.09789647
-0.70550225 0.17512680 0.01797601
-0.23541302 0.16509269 -0.00000060
0.72578084 -0.68649471 -0.00000028
0.06369586 0.70215443 -0.00000101
0.34377042 -0.38175146 -0.00000026
-0.26844719 -0.13991236 -0.00000041
-0.72991736 0.38412417 0.07001511
-0.59377663 -0.76271851 -0.00000002
-0.54230013 0.08706218 -0.00000029
-0.15734745 -0.62079782 -0.00000011
-0.41256819 -0.01429624 -0.00000041
0.32028612 0.11706394 -0.00000069
0.45894942 0.28302188 -0.00000146
0.56065306 0.14559221 -0.00000152
0.10932170 0.51244826 0.00000202
-0.28496649 -0.46214789 -0.00000021
-0.22316820 -0.74019252 -0.00000004
0.12897342 0.61319634 -0.00000105
0.18550545 0.44872284 0.00000174
-0.06031378 0.11918199 -0.00000057
0.13179562 0.57636146 -0.00000099
0.03614969 0.18286105 0.00000848
-0.13470440 -0.69254590 -0.00000007
-0.63015434 -0.66603565 -0.00000006
0.14247709 0.32216675 0.00000461
-0.49615938 0.57694962 0.06088889
0.41716036 -0.46373628 -0.00000021
0.22109615 0.54094819 -0.00000120
-0.16279542 -0.66584868 -0.00000008
0.28285341 -0.41890416 -0.00000024
0.20362398 0.49813609 0.00000051
-0.07144584 -0.21966874 -0.00000036
-0.71550980 -0.64393647 0.00000000
-0.43455845 -0.44045224 -0.00000022
-0.35168267 0.49265832 0.00988509
0.30171564 0.36878120 -0.00000112
0.00811111 0.10154444 -0.00000056
-0.22717055 -0.33320017 -0.00000029
0.05697798 -0.55822866 -0.00000015
0.04329409 0.73464662 -0.00000066
0.21528757 -0.66098389 -0.00000009
0.47797961 0.30434083 -0.00000156
-0.70969812 -0.08731490 -0.00000008
0.31308442 0.40989757 -0.00000124
-0.03284151 -0.64690986 -0.00000010
0.69016775 -0.08824314 -0.00000148
0.68995328 -0.20425736 -0.00000125
0.64352174 -0.46738564 -0.00000059
0.11790646 0.07478711 -0.00000055
0.17122056 0.30452469 0.00000447
-0.60420805 -0.45187240 -0.00000013
-0.48664312 -0.72154800 -0.00000005
0.28868305 0.12851793 0.00000551
-0.19789615 -0.29640307 -0.00000031
0.17255796 0.60378278 -0.00000079
0.22174590 0.48506018 -0.00000110
0.29235906 -0.29100748 -0.00000032
0.39824486 -0.18158601 -0.00000039
-0.22224743 -0.53624205 -0.00000016
0.50266338 -0.35283299 -0.00000036
0.23267150 0.37025171 -0.00000091
0.29007698 0.08578712 0.00000623
0.75600254 -0.60960090 -0.00000048
0.04042400 -0.49858761 -0.00000019
-0.41593488 0.08322221 -0.00000043
0.74869167 -0.20796882 -0.00000143
0.62267846 0.03563533 0.00000077
0.19143066 0.52078716 -0.00000107
-0.25803563 0.40512885 -0.00000065
-0.27522955 0.04890892 -0.00000053
-0.45109600 0.03305460 -0.00000038
0.19258062 0.11283469 0.00000726
0.10459537 0.10835016 0.00000866
-0.79231549 -0.71462811 0.00000000
-0.25735581 0.34532634 -0.00000064
0.49724777 -0.01746007 -0.00000100
-0.67092440 0.64645977 0.11534996
-0.63176628 -0.17583475 -0.00000015
0.09755003 -0.61624100 -0.00000011
-0.01692735 -0.61109754 -0.00000012
-0.77076241 0.06760800 0.00855460
-0.66264209 -0.38799160 -0.00000008
-0.74632003 0.18098048 0.02838143
0.43295546 -0.37843095 -0.00000026
-0.74129021 0.66813825 0.13587121
-0.42390447 -0.29914806 -0.00000031
-0.13441625 -0.76472767 -0.00000002
0.10153400 0.56584924 -0.00000087
0.38820986 0.00335544 -0.00000069
-0.14531465 -0.54600403 -0.00000016
-0.44478383 -0.30674812 -0.00000031
-0.32944953 -0.72258258 -0.00000005
0.07540099 -0.72146029 -0.00000005
0.51412289 -0.72634960 -0.00000005
-0.69429627 -0.03138889 -0.00000011
-0.73289864 -0.77271485 0.00000000
-0.51436255 -0.49116677 -0.00000019
0.70154330 -0.41777396 -0.00000087
-0.37593723 0.73579647 0.06949998
0.06483373 -0.38452069 -0.00000026
0.18492246 -0.21960521 -0.00000036
-0.25845733 -0.43375600 -0.00000023
0.23494949 0.46577806 -0.00000110
0.06347084 0.35892586 0.00000521
-0.74206061 0.34397077 0.06377030
0.08204994 0.24922402 -0.00000066
0.39812677 0.12769949 -0.00000096
0.65478425 -0.10079393 -0.00000134
-0.74015892 0.19836338 0.03088330
-0.06412316 0.12701403 -0.00000058
0.30808130 0.32234680 0.00000166
0.72907990 -0.23694572 -0.00000131
-0.29993443 0.14076856 -0.00000056
-0.32895431 -0.65146272 -0.00000009
0.39351944 0.39853686 -0.00000135
-0.67358751 -0.34262116 -0.00000007
-0.34655122 0.74881369 0.06585053
0.16766375 -0.52270566 -0.00000017
-0.49571601 -0.52400184 -0.00000017
-0.53664664 -0.69607543 -0.00000006
0.02952209 -0.25282846 -0.00000034
-0.14477535 -0.10842462 -0.00000043
0.53338958 -0.63749917 -0.00000010
-0.43255504 0.01411413 -0.00000039
-0.33732940 -0.74499073 -0.00000003
0.38583844 0.17733484 0.00000277
-0.22165409 -0.51189843 -0.00000018
0.43379486 0.20320423 -0.00000122
0.21873205 0.21416308 0.00000522
-0.31758927 0.00615353 -0.00000050
-0.65614422 0.01371144 -0.00000016
0.21680159 0.27200594 0.00000431
0.15007942 -0.58870942 -0.00000013
-0.38512032 0.13630331 -0.00000047
-0.47007290 0.51506996 0.04127689
-0.47258128 0.59944954 0.06064847
0.14288120 -0.57210106 -0.00000014
-0.01461198 0.04679711 -0.00000053
0.38802944 -0.75861942 -0.00000003
-0.40140121 0.48941752 0.02024733
0.28256901 0.31692975 0.00000225
0.42354656 0.32039786 -0.00000052
-0.05022157 0.55386134 -0.00000085
-0.69660442 -0.19847669 -0.00000007
-0.75946334 -0.11361519 -0.00000002
0.13124694 -0.30747578 -0.00000031
-0.06155728 -0.10173918 -0.00000044
-0.07042254 0.51038646 -0.00000082
-0.42624883 -0.26652793 -0.00000033
0.47519808 -0.08547385 -0.00000079
-0.19689608 0.37279390 -0.00000071
0.32085213 0.45580874 -0.00000136
-0.38719755 0.35373645 -0.00000051
0.38172086 -0.20576929 -0.00000037
-0.22904596 0.58495723 0.00312112
0.69149347 -0.38934117 -0.00000089
-0.03047941 -0.34320243 -0.00000029
0.37947439 -0.33682647 -0.00000029
0.78906832 -0.15340217 -0.00000162
-0.15034252 -0.69003341 -0.00000007
0.43479945 -0.41618277 -0.00000024
-0.60190924 0.06542061 -0.00000022
0.33473935 0.12279558 -0.00000075
0.18717008 -0.66585742 -0.00000008
-0.75297148 -0.74228391 0.00000000
0.07449121 -0.00572055 -0.00000050
0.28614605 0.34763573 -0.00000103
-0.14177368 -0.36994738 -0.00000027
-0.56206955 0.10090298 -0.00000027
0.78672501 -0.38743837 -0.00000103
0.27482239 0.32538595 0.00000224
0.03997573 0.57423661 -0.00000086
0.12984364 -0.48326772 -0.00000020
0.23823025 0.33336752 0.00000280
0.57359945 -0.57791884 -0.00000015
0.13842762 -0.20961492 -0.00000037
0.55877887 -0.18709754 -0.00000086
0.10885642 -0.66729208 -0.00000008
0.14313235 -0.40034412 -0.00000025
0.08634016 0.00303735 0.00001065
-0.76350238 -0.11124782 -0.00000002
0.71366304 -0.13609946 -0.00000146
-0.35259868 -0.12381682 -0.00000042
0.49956962 0.10170306 -0.00000124
0.53086627 -0.43818979 -0.00000028
0.35842107 -0.69995866 -0.00000006
0.23144637 -0.25217235 -0.00000034
0.00414026 -0.35242989 -0.00000028
0.16189825 0.39596295 -0.00000075
0.35295708 0.41032348 -0.00000137
0.13723213 0.46250566 0.00000241
0.30075706 0.34067789 0.00000147
0.26405946 0.33073420 -0.00000093
-0.79705987 -0.57926355 0.00000000
0.73471147 0.00384505 -0.00000180
-0.35073386 0.56854836 0.02659315
0.41713456 0.05892044 -0.00000089
-0.74647113 0.51900121 0.10377645
-0.66582389 0.63652643 0.11199818
-0.77828193 -0.51653195 0.00000000
0.44137061 -0.30485865 -0.00000031
-0.25638828 -0.48840661 -0.00000019
-0.19974676 -0.62304244 -0.00000011
0.29655659 0.15497582 -0.00000069
-0.53998572 0.42187469 0.03608620
-0.34555873 0.54839874 0.02094702
0.07672264 0.56360997 0.00000168
0.22360922 0.18534502 0.00000561
0.10091894 0.65260821 -0.00000029
-0.57888641 0.51146304 0.06473276
-0.76389243 0.30231305 0.05935017
0.31883706 0.46378122 -0.00000109
-0.61731623 0.33549602 0.03406904
-0.65775841 -0.00880143 -0.00000015
0.64043462 0.06697872 -0.00000162
-0.07605264 0.49822406 -0.00000081
0.06269173 0.22493722 -0.00000064
-0.73215914 0.77605792 0.15789594
-0.07452435 0.08763628 -0.00000055
0.23020737 -0.13799481 -0.00000041
0.08109771 0.53898710 0.00000202
0.59593910 -0.05657901 -0.00000124
0.28202080 0.40880242 -0.00000114
-0.23075044 0.40918591 -0.00000068
-0.00340187 -0.68926565 -0.00000007
0.71409749 0.05370424 -0.00000131
-0.20362889 0.71540885 0.02653842
0.02955866 0.59697968 0.00000185
-0.38313377 -0.09684892 -0.00000043
0.07972196 -0.44282694 -0.00000022
0.10419586 0.30852456 -0.00000069
-0.28867515 0.46677791 -0.00000063
0.24408787 0.36481501 0.00000213
0.32331260 0.05122016 -0.00000057
-0.40807363 0.16233391 -0.00000045
0.16269018 0.50621137 0.00000115
0.35843689 -0.33965957 -0.00000029
0.28628045 -0.18013930 -0.00000039
0.54034744 -0.27600085 -0.00000063
-0.70899290 -0.37707090 -0.00000003
0.31313699 -0.52661525 -0.00000017
-0.05169276 -0.58873948 -0.00000013
-0.51373305 -0.38579185 -0.00000023
0.34447657 -0.26010944 -0.00000034
-0.26471922 0.77707965 0.05390792
-0.17907048 0.53463135 -0.00000076
0.22531205 0.38087374 -0.00000090
0.29609435 -0.27950911 -0.00000033
-0.74028504 0.10857209 0.01089255
0.66960802 -0.07827019 -0.00000143
-0.20725632 -0.71596194 -0.00000005
-0.16911697 0.69164909 0.01354676
0.13159970 -0.48633548 -0.00000020
0.18768395 -0.51356036 -0.00000018
-0.60954408 -0.36117770 -0.00000014
0.74784797 -0.65645070 -0.00000036
-0.67898731 -0.36621397 -0.00000006
0.35831274 0.00993634 0.00000630
0.50855682 -0.16884382 -0.00000074
-0.72218981 -0.12258316 -0.00000006
0.34568974 0.19797640 -0.00000093
-0.19833466 0.25969961 -0.00000066
-0.36589992 -0.62272249 -0.00000011
-0.00846488 -0.01398750 -0.00000049
0.76050515 -0.67676675 -0.00000031
0.08654847 0.46105309 0.00000320
0.23193291 0.37232866 -0.00000091
0.17105792 0.53186387 0.00000053
0.22837046 0.28645123 -0.00000073
-0.42204174 -0.60404138 -0.00000012
0.23527061 -0.13712622 -0.00000041
0.48370632 0.03350880 -0.00000105
-0.25648454 0.20358558 -0.00000062
0.04382191 0.50522372 -0.00000082
0.39153110 -0.03243279 -0.00000063
-0.09312593 -0.53189959 -0.00000017
0.35337606 0.42898351 -0.00000141
0.02284516 0.77387769 -0.00000102
0.70246063 -0.13726348 -0.00000142
-0.03478751 -0.64840321 -0.00000009
0.05322220 0.00128980 -0.00000050
-0.67885449 0.03221793 -0.00000014
0.25192800 -0.66457186 -0.00000008
-0.40543684 0.73865856 0.07671502
-0.37754854 0.57085438 0.03308562
-0.59955659 -0.02770896 -0.00000021
-0.46601822 0.67375366 0.07575121
0.69651211 0.05480112 -0.00000100
0.09274363 0.28171463 -0.00000068
0.03475728 -0.18543655 -0.00000038
-0.36842610 0.67984432 0.05535094
0.06617882 0.12380769 -0.00000058
0.45180286 -0.56493479 -0.00000015
0.37772542 0.09384063 0.00000442
-0.00755373 -0.28085125 -0.00000032
-0.08423888 -0.38915904 -0.00000026
-0.07691572 0.43002389 -0.00000077
0.58711346 -0.25582891 -0.00000082
0.65410545 -0.18369566 -0.00000117
-0.38764843 -0.66543477 -0.00000008
-0.32627405 0.72015510 0.05494035
-0.79666890 -0.76645185 0.00000000
0.03768077 0.48096680 0.00000362
-0.72820072 -0.07645266 -0.00000006
-0.44046826 0.23874265 -0.00000043
0.32368305 0.37901490 -0.00000121
-0.05776153 -0.07360378 -0.00000045
0.19627552 -0.78031754 -0.00000001
-0.58963012 -0.17824081 -0.00000019
0.38022924 0.27424201 0.00000114
0.42520235 -0.18920877 -0.00000043
0.63180537 -0.00598071 -0.00000145
-0.64544102 0.69354244 0.12016544
-0.36987611 -0.50388910 -0.00000019
0.30891982 -0.19629684 -0.00000038
-0.00731028 0.48448060 -0.00000080
-0.04870288 0.31476489 -0.00000070
0.78443020 -0.23551142 -0.00000141
0.13253726 -0.52277913 -0.00000017
0.23256544 0.37870776 -0.00000092
-0.49768646 0.03716967 -0.00000033
-0.64247466 0.05679940 -0.00000018
-0.33284589 -0.00761885 -0.00000050
0.26411996 -0.30201323 -0.00000031
0.55878128 -0.31397696 -0.00000062
-0.19024962 0.53216997 -0.00000075
0.36295102 -0.53565869 -0.00000017
0.56756292 0.11644047 -0.00000148
0.66718594 -0.14228899 -0.00000130
0.37543201 -0.49132974 -0.00000019
0.51632265 -0.67504870 -0.00000008
0.25550690 -0.20805664 -0.00000037
-0.58019863 -0.41950175 -0.00000016
0.60765043 -0.75623316 -0.00000003
-0.72710018 0.22476802 0.03385874
-0.35611200 0.75593371 0.06956951
-0.55614750 0.35328460 0.02439739
0.43678389 0.13205475 -0.00000110
-0.17398737 0.27635672 -0.00000067
-0.09738189 0.20709003 -0.00000063
-0.14988887 -0.57806287 -0.00000014
0.29409777 0.47511668 -0.00000081
-0.10330276 -0.25071821 -0.00000034
-0.49842072 -0.60912898 -0.00000012
-0.40653796 -0.32394496 -0.00000030
0.29032769 0.11456370 0.00000573
-0.07546957 0.02309607 -0.00000051
-0.42707760 0.77848435 0.09041893
-0.21919905 -0.08797592 -0.00000045
-0.04120089 0.61536337 -0.00000088
-0.71429811 -0.54443829 0.00000000
-0.52636631 -0.14227886 -0.00000027
