ply
format ascii 1.0
element vertex 1378
property float x
property float y
property float z
end_header
-0.13134342 -0.43955467 -0.00000023
0.19476346 0.01876145 -0.00000051
0.15910939 0.53279461 -0.00000099
0.75649186 -0.25160393 -0.00000137
0.04331739 0.05090018 0.00001052
0.17774057 0.19939444 -0.00000062
-0.10419753 -0.41736858 -0.00000024
0.74887930 -0.33206922 -0.00000117
-0.21457189 -0.72573361 -0.00000005
-0.05930022 0.52277858 -0.00000083
-0.41190890 0.13636850 -0.00000044
-0.41184876 -0.10250058 -0.00000040
0.25125280 0.34756185 -0.00000092
0.38611814 -0.11367527 -0.00000045
0.08810645 -0.39475555 -0.00000025
0.39525279 0.37615670 -0.00000144
0.06795775 0.31449209 -0.00000070
-0.13928211 -0.59137167 -0.00000013
-0.43264305 0.60788406 0.02088248
0.08578739 -0.55459480 -0.00000015
-0.14459526 -0.49987939 -0.00000019
0.12586278 -0.37350006 -0.00000027
-0.60365839 -0.40966116 -0.00000013
-0.26504975 0.62192441 0.00755052
0.54077329 -0.26829986 -0.00000065
-0.07064236 0.03278688 -0.00000052
-0.55206004 -0.36931158 -0.00000020
-0.56776866 0.44607624 0.01856607
-0.48893932 -0.74760851 -0.00000003
0.25411129 0.14154245 0.00000587
-0.56013704 -0.78725638 -0.00000001
-0.49301964 0.37182198 0.00562924
0.14874726 -0.06356679 -0.00000046
0.08016678 0.61467297 -0.00000090
0.54427664 0.24894481 -0.00000167
-0.09547146 0.58831560 -0.00000086
0.44246874 -0.41837401 -0.00000024
-0.44101230 0.79495314 0.03785092
0.09256072 0.56518100 -0.00000085
0.71558734 -0.58483414 -0.00000054
0.26387806 0.30756454 0.00000277
-0.36582459 0.39524136 -0.00000054
-0.66828972 0.71450363 0.05059909
0.43360237 -0.45204329 -0.00000022
0.62080643 -0.09611082 -0.00000124
-0.02298011 0.03251513 -0.00000052
-0.21261271 -0.78675074 -0.00000001
0.54680536 -0.54932870 -0.00000016
0.37595108 -0.75792980 -0.00000003
-0.05322631 -0.00771877 -0.00000050
-0.60603034 -0.23548353 -0.00000016
-0.29101114 0.38474270 -0.00000061
-0.27266214 0.01922424 -0.00000051
0.09071364 -0.56142508 -0.00000015
0.14729322 0.38715389 -0.00000074
-0.72409390 -0.13787790 -0.00000006
0.14118705 0.27786564 -0.00000067
-0.64982089 -0.41048199 -0.00000009
0.46516426 -0.38867979 -0.00000026
-0.08646182 0.48947851 -0.00000081
-0.42737455 -0.40799881 -0.00000025
0.21419297 -0.36381551 -0.00000027
-0.78498353 -0.67474463 0.00000000
-0.65276004 -0.69207970 -0.00000003
-0.20532960 -0.00675149 -0.00000050
-0.14260258 -0.54849012 -0.00000016
0.63591179 0.01295365 -0.00000150
0.13375729 0.30056527 -0.00000069
0.02841750 0.47636103 0.00000383
0.05305619 0.09800745 -0.00000056
0.32178966 -0.78702281 -0.00000001
-0.17193931 0.18005033 -0.00000061
-0.56501622 0.75435348 0.04509240
0.19648047 -0.27374905 -0.00000033
0.25604228 0.28888063 -0.00000082
0.48801570 -0.30978936 -0.00000040
0.38068687 -0.23545695 -0.00000035
0.03989190 0.19299899 -0.00000062
0.03714972 0.19502527 0.00000827
-0.01708538 -0.31667549 -0.00000030
0.36084854 0.19146669 0.00000300
-0.77891204 -0.21728887 0.00000000
0.14373733 0.63236689 -0.00000075
-0.74495929 0.03312018 -0.00000006
-0.10886581 -0.33508512 -0.00000029
-0.69985137 0.77584313 0.05866503
-0.63128243 0.45437748 0.02480126
0.32455761 -0.57356933 -0.00000014
0.15178484 0.25985113 -0.00000066
-0.29602248 -0.17166562 -0.00000039
-0.69923257 -0.79426369 0.00000000
-0.68632240 0.18530775 0.00621890
-0.61782533 0.55855444 0.03267771
0.17902661 0.09999866 0.00000767
-0.30505238 -0.05567965 -0.00000047
-0.41696752 -0.72611857 -0.00000005
-0.54181562 0.43196270 0.01508738
0.03788146 0.73369399 -0.00000054
0.23532414 0.55397235 -0.00000110
0.48142572 -0.48164939 -0.00000020
0.28006035 0.49984381 -0.00000099
0.23745716 -0.29414850 -0.00000032
-0.24541416 0.30840270 -0.00000065
0.61063861 -0.01098872 -0.00000137
0.65029061 -0.00816029 -0.00000150
0.40763978 0.21527951 0.00000167
0.03493535 0.09605978 0.00000991
0.44018779 0.06362464 -0.00000097
0.12787657 0.28745728 -0.00000068
-0.17457071 -0.61957961 -0.00000011
-0.59422527 0.06536425 -0.00000023
0.14573111 -0.06316567 -0.00000046
-0.61273871 0.49176033 0.02643688
0.75277153 0.01305755 -0.00000133
-0.35191893 0.44026028 -0.00000056
-0.54775120 -0.04990673 -0.00000026
0.00123530 0.04763164 0.00001121
0.38092103 0.22072363 -0.00000109
0.36224463 -0.48529129 -0.00000020
0.14852741 -0.11128953 -0.00000043
-0.13964351 -0.53601590 -0.00000016
-0.10121525 0.45607636 -0.00000079
0.40318639 -0.02290129 -0.00000069
-0.24419157 0.09785654 -0.00000056
0.38789813 -0.70929187 -0.00000006
-0.13920241 -0.37028134 -0.00000027
0.12173938 -0.23599754 -0.00000035
-0.27742952 0.00308252 -0.00000050
0.00924730 0.54684220 0.00000297
0.25247409 0.12484678 -0.00000058
0.21395408 0.32950146 0.00000334
0.62432617 0.11790627 -0.00000074
-0.77466197 -0.48133710 0.00000000
-0.68926175 0.27184784 0.01398766
-0.27856442 -0.49602439 -0.00000019
-0.59891096 0.36826811 0.01451450
0.19545783 -0.68414813 -0.00000007
-0.08414720 0.46783776 -0.00000079
0.10327622 0.31178666 0.00000538
0.16003153 0.29861019 0.00000473
-0.31290855 0.54495007 0.00502272
-0.01243582 -0.05979566 -0.00000046
0.59804381 0.07695875 0.00000050
0.78708788 -0.67044639 -0.00000032
0.31858797 -0.41631068 -0.00000024
0.57216178 -0.57370194 -0.00000015
-0.78918861 -0.51561493 0.00000000
0.47518532 -0.69209446 -0.00000007
-0.30082264 -0.59318338 -0.00000013
0.34908818 0.13614993 -0.00000082
0.04624603 0.41472583 0.00000456
-0.60043988 -0.13618568 -0.00000019
-0.19677760 0.61814009 0.00129436
0.27395326 0.00734461 0.00000775
0.50259158 -0.78052560 -0.00000001
-0.77771860 -0.61834098 0.00000000
-0.08267378 0.08622191 -0.00000055
-0.12711316 -0.78459535 -0.00000001
0.23066998 -0.50854517 -0.00000018
-0.28901666 -0.72107619 -0.00000005
0.17542117 -0.23640435 -0.00000035
-0.34177263 -0.62678718 -0.00000011
0.50029530 -0.41929277 -0.00000024
-0.31740029 -0.32189442 -0.00000030
0.63528152 -0.56540397 -0.00000037
-0.29451179 -0.50278572 -0.00000019
-0.34201437 -0.74751030 -0.00000003
0.42494176 0.34309713 -0.00000096
0.17846833 0.14469614 -0.00000059
0.29391949 -0.59356740 -0.00000013
0.15716684 0.02307589 -0.00000051
-0.13307920 0.16385194 -0.00000060
0.73399990 -0.14382783 -0.00000151
-0.23256025 -0.21588827 -0.00000037
-0.78100417 -0.20589405 0.00000000
-0.57294173 -0.24511204 -0.00000020
-0.40519809 -0.32470316 -0.00000030
-0.39533380 -0.45715773 -0.00000021
0.07083687 0.55201928 -0.00000085
0.01301106 -0.06256313 -0.00000046
-0.79596309 0.14013214 0.01181602
0.60854874 0.01270171 0.00000145
0.13393956 0.52202981 -0.00000089
-0.24423988 0.77424081 0.01896817
-0.38357974 0.46457809 0.00418058
0.04359081 0.33715972 -0.00000071
-0.23242598 0.44884271 -0.00000069
-0.01222808 0.70109026 -0.00000094
-0.11358742 -0.65488505 -0.00000009
0.26315621 0.01830804 -0.00000051
-0.76860680 0.64925195 0.05364365
0.66753966 0.05577434 -0.00000168
0.11606018 -0.57889897 -0.00000014
-0.70714768 0.44989321 0.03099878
-0.15360415 0.11506956 -0.00000057
0.23365148 0.10135902 0.00000683
-0.18449525 -0.40262081 -0.00000025
-0.29642078 0.58015721 0.00664795
-0.08043065 -0.05655402 -0.00000046
0.39628830 -0.35326342 -0.00000028
0.09324497 0.61339282 0.00000056
0.01022359 0.66806641 -0.00000092
-0.63606743 0.54267545 0.03288290
-0.34663574 -0.38803842 -0.00000026
0.26457610 0.02651735 -0.00000052
0.32660313 0.24510135 0.00000269
0.18290752 -0.62455312 -0.00000011
0.11240831 -0.34695680 -0.00000028
-0.62513119 -0.26272473 -0.00000014
-0.63714734 0.22191146 0.00512737
0.51932623 -0.18196182 -0.00000075
-0.73125818 0.11186032 0.00374353
-0.51013492 -0.69856490 -0.00000006
-0.71449966 0.23012885 0.01255678
-0.07466340 -0.43809705 -0.00000023
0.25392607 -0.68925448 -0.00000007
-0.03750245 -0.03370599 -0.00000048
0.11288099 0.15765561 0.00000773
-0.42093146 -0.31770852 -0.00000030
0.58103498 0.15029530 -0.00000159
0.33147934 0.30214806 -0.00000109
-0.74198233 0.78420000 0.06304855
-0.55443346 -0.66425466 -0.00000008
-0.58178262 -0.51155702 -0.00000014
0.00915087 -0.70690316 -0.00000006
-0.33605238 -0.50294224 -0.00000019
0.55776892 0.23848491 -0.00000163
0.11423609 -0.49537548 -0.00000019
0.27891467 -0.61004077 -0.00000012
0.31406985 0.23425277 0.00000313
0.46943592 0.02106489 0.00000397
-0.56414088 -0.72516324 -0.00000005
0.64095563 -0.12957296 -0.00000124
-0.11239460 0.29067285 -0.00000068
-0.27222412 -0.52528515 -0.00000017
0.74177964 -0.44928344 -0.00000088
0.13205664 -0.43901048 -0.00000023
0.33069593 0.05694692 -0.00000061
0.20533600 -0.59109368 -0.00000013
0.02877845 0.32979541 -0.00000071
0.11488403 -0.44341920 -0.00000022
0.09959872 -0.06275406 -0.00000046
-0.16829438 0.18854739 -0.00000062
0.21161361 0.38315369 0.00000242
0.33076438 -0.15803872 -0.00000040
0.70772508 -0.52283933 -0.00000068
-0.39774245 0.35917358 -0.00000049
-0.78627459 0.30389205 0.02519275
0.45412730 0.14778646 -0.00000118
-0.59462892 0.48200632 0.02401767
-0.12645828 -0.51173543 -0.00000018
0.18109321 -0.30528507 -0.00000031
0.65522192 -0.26782863 -0.00000101
0.51847391 0.20572381 -0.00000150
0.00201464 0.22168060 0.00000837
-0.78769356 0.38070864 0.03198530
-0.58406433 -0.44585802 -0.00000015
-0.04525166 -0.69715396 -0.00000006
0.60609289 0.02139252 -0.00000142
-0.23486039 0.31521514 -0.00000066
0.24541833 0.10274240 -0.00000056
-0.78388507 0.23366755 0.01888827
0.51251802 -0.21215365 -0.00000067
0.11948171 0.63947601 -0.00000041
0.09687532 0.55020783 -0.00000084
-0.09864155 -0.66131556 -0.00000009
-0.67761485 -0.59407000 -0.00000002
0.18405477 -0.77723052 -0.00000001
0.71551964 -0.14096693 -0.00000145
0.75100723 0.03181626 -0.00000163
0.40708105 0.05149875 0.00000462
0.12927107 0.05876694 -0.00000054
-0.78167061 -0.21830696 0.00000000
-0.04214070 0.10879688 -0.00000057
-0.15355547 -0.54489437 -0.00000016
-0.53418610 0.78357251 0.04495249
-0.36380515 0.14064544 -0.00000049
0.60382042 0.18846323 -0.00000162
0.07080638 0.55713563 0.00000188
0.51164699 -0.32108257 -0.00000045
-0.30325187 0.27532366 -0.00000058
-0.10179014 0.71196991 0.00119372
0.74763839 -0.41248241 -0.00000097
-0.06734258 -0.47089710 -0.00000021
-0.66800114 -0.26440275 -0.00000009
0.33556722 -0.71898544 -0.00000005
0.33283278 0.01543649 0.00000669
-0.57891338 0.58347301 0.03146273
-0.31876231 -0.71001900 -0.00000006
0.26709295 -0.09282832 -0.00000044
0.28810608 -0.52110323 -0.00000017
0.47898399 0.03125094 0.00000360
0.16982323 -0.65244273 -0.00000009
-0.27681299 -0.61556234 -0.00000012
-0.56718758 -0.22929285 -0.00000021
0.22660579 0.43821342 0.00000114
0.49991677 0.13786168 -0.00000131
0.04480128 0.28738542 -0.00000068
-0.35908856 -0.78149391 -0.00000001
-0.30760573 0.26030993 -0.00000057
0.52766715 -0.63791190 -0.00000010
-0.71884888 0.26760518 0.01618815
-0.12806460 0.09774175 -0.00000056
0.22839278 0.47335481 -0.00000109
0.05322552 0.35265911 0.00000547
-0.31472270 -0.66093269 -0.00000009
-0.04682133 0.36286351 -0.00000073
-0.72874551 -0.69311068 0.00000000
0.35555396 -0.01050554 -0.00000056
0.67358611 -0.45982206 -0.00000070
0.37002161 -0.03342747 -0.00000056
-0.76896635 0.14237154 0.00966650
0.55717919 -0.24017146 -0.00000075
0.27810084 -0.57282826 -0.00000014
0.27094396 -0.40073321 -0.00000025
0.07662857 0.28428920 -0.00000068
0.02280941 -0.49142720 -0.00000019
0.42181088 0.37793459 -0.00000153
-0.02337084 -0.50233628 -0.00000019
-0.13005965 -0.69495467 -0.00000007
0.46064904 -0.08929425 -0.00000074
0.63299449 -0.64134513 -0.00000021
-0.09582599 0.18165967 -0.00000061
-0.78936567 -0.32776136 0.00000000
0.19059303 0.08306512 0.00000777
-0.73089073 -0.79904987 0.00000000
0.58149494 -0.16029618 -0.00000099
0.06089991 0.64988870 0.00000052
0.18245340 0.47653898 0.00000130
0.31112111 0.03743076 -0.00000052
-0.16731065 -0.53985933 -0.00000016
-0.27784228 0.71344396 0.01660711
-0.28517768 -0.47859377 -0.00000020
0.02583863 0.53236896 0.00000296
0.24014838 0.48283437 -0.00000115
-0.72696688 0.57181743 0.04330527
-0.44048539 -0.12584912 -0.00000036
-0.00771833 0.66701310 -0.00000092
-0.37038380 0.76279389 0.02892657
-0.65631222 0.62655226 0.04192301
0.08441513 0.17240754 -0.00000061
0.25176588 -0.19978996 -0.00000038
0.00549404 -0.56636441 -0.00000015
-0.12158774 0.45416947 -0.00000078
0.13854233 0.30498506 0.00000495
0.60265184 -0.76293280 -0.00000002
-0.09844400 -0.31877299 -0.00000030
0.75997747 -0.21877161 -0.00000145
0.23663273 0.01885167 -0.00000051
0.45066255 0.15194580 0.00000198
0.04463403 -0.68088047 -0.00000007
0.02134735 0.49872717 -0.00000081
0.59882829 -0.79207831 -0.00000000
0.71593107 -0.28765750 -0.00000117
-0.26221114 0.11689512 -0.00000057
0.17942948 0.42692744 -0.00000085
-0.59140286 -0.09067579 -0.00000021
-0.70187160 0.28411505 0.01614755
0.17377941 0.00374532 -0.00000050
0.71507169 -0.60873092 -0.00000048
0.13088507 -0.41726239 -0.00000024
-0.72661441 -0.00463861 -0.00000008
0.64285106 -0.15135878 -0.00000120
0.19054528 -0.47088826 -0.00000021
0.35777447 -0.40972664 -0.00000024
0.43757667 -0.16829836 -0.00000051
-0.54728425 -0.59883614 -0.00000013
-0.23670912 -0.15771844 -0.00000040
-0.14257847 -0.34329797 -0.00000029
0.55267932 0.09714515 -0.00000140
0.28833709 0.07741539 -0.00000055
-0.63211401 0.33283645 0.01432106
0.28122805 0.06672489 -0.00000054
-0.10438484 0.70553309 0.00086015
-0.18186951 -0.00880903 -0.00000049
0.29963727 -0.22157331 -0.00000036
0.01190893 0.18565348 0.00000880
-0.11241466 0.46384368 -0.00000079
0.20635798 0.40648411 -0.00000089
0.40767080 0.26970308 -0.00000127
0.10915131 -0.58944916 -0.00000013
0.13189463 -0.43696550 -0.00000023
-0.29560950 0.38335956 -0.00000061
-0.24867027 0.13714833 -0.00000059
0.59254418 -0.05933970 -0.00000122
-0.12304236 -0.67732177 -0.00000008
0.01019641 -0.34541588 -0.00000028
0.68397890 -0.51903869 -0.00000062
0.42366967 -0.79564044 -0.00000000
0.16469107 -0.74217474 -0.00000004
-0.03247481 0.33974873 -0.00000071
-0.21172809 0.10369434 -0.00000056
-0.71520323 0.73469452 0.05642531
0.58511779 -0.18710543 -0.00000095
0.11933817 0.30458805 0.00000525
-0.28180107 0.36816512 -0.00000062
0.14450440 0.41035073 0.00000315
-0.75529089 -0.02401392 -0.00000004
-0.66155341 0.74886679 0.05299772
0.48343775 -0.57064423 -0.00000014
-0.17187209 -0.29773107 -0.00000031
0.10464873 -0.17407560 -0.00000039
0.45065976 -0.73802390 -0.00000004
-0.42449398 -0.36791559 -0.00000027
-0.37529756 0.64705093 0.01930411
-0.42137123 0.40915886 0.00265016
-0.69985543 -0.12196050 -0.00000008
-0.28226425 -0.46036129 -0.00000021
0.17583821 -0.11354702 -0.00000043
-0.03064088 -0.06187442 -0.00000046
-0.67218168 0.43265781 0.02646652
0.12608417 0.12290116 -0.00000058
0.42553495 -0.55105436 -0.00000016
0.37106972 0.30612728 0.00000074
0.48833756 -0.47146964 -0.00000021
0.03819778 0.63121827 -0.00000089
-0.51212710 -0.59878251 -0.00000013
-0.53934546 0.04853785 -0.00000029
-0.13631059 -0.13218559 -0.00000042
0.46663960 0.19377359 -0.00000131
-0.60394955 -0.77223241 -0.00000002
0.27455577 0.45371285 -0.00000120
0.07328345 0.65728649 0.00000015
-0.75142601 -0.38475051 0.00000000
0.38837293 0.24514374 0.00000150
0.19439312 0.23228222 0.00000529
0.79107892 -0.73367484 -0.00000017
0.09976007 -0.31022137 -0.00000031
-0.23367644 0.58720759 0.00181242
-0.60154454 0.31598521 0.01020387
0.24518064 0.05661740 -0.00000054
-0.76067425 -0.09125938 -0.00000003
-0.29371838 0.55402827 0.00414476
0.68262186 -0.53720355 -0.00000058
0.15508923 -0.71021231 -0.00000006
-0.33512840 -0.41661705 -0.00000024
-0.25739151 -0.61507812 -0.00000012
-0.04877885 0.19950507 -0.00000062
0.10387024 0.46823829 0.00000282
0.03201719 0.15775852 -0.00000060
0.10035959 -0.20087705 -0.00000037
-0.59856300 -0.39731978 -0.00000014
0.64490756 -0.28298003 -0.00000095
0.79385106 -0.53009807 -0.00000067
0.02582387 0.29884729 0.00000675
0.40281380 -0.30349729 -0.00000031
0.35299534 -0.55189219 -0.00000016
-0.59308842 -0.09987245 -0.00000020
0.28868413 -0.77859268 -0.00000001
0.10529122 0.67356258 -0.00000075
-0.59544502 0.67576228 0.04091085
-0.41754707 -0.00241160 -0.00000041
0.75443417 -0.18428783 -0.00000149
-0.52495250 -0.21257222 -0.00000025
0.49985559 -0.53106420 -0.00000017
0.02351648 -0.64877344 -0.00000009
0.11576275 0.01677455 0.00000998
0.64578196 -0.24753313 -0.00000102
-0.59103766 -0.71523558 -0.00000005
0.08194288 0.43335810 -0.00000077
0.46770630 0.04081084 0.00000365
-0.14424606 0.01049645 -0.00000051
-0.43113347 -0.56371253 -0.00000015
0.39342615 -0.19190236 -0.00000038
0.19754332 0.32976368 0.00000365
0.03435472 -0.57746652 -0.00000014
-0.43894521 -0.28676495 -0.00000032
-0.39497639 -0.01279245 -0.00000043
0.00971038 0.52185752 -0.00000083
0.32109247 -0.30065256 -0.00000031
-0.45250675 -0.57635509 -0.00000014
-0.40578537 -0.20273315 -0.00000037
0.68943474 -0.21417964 -0.00000123
-0.70582555 0.69383966 0.05206399
-0.74557078 -0.56308470 0.00000000
0.73577526 -0.52065416 -0.00000070
0.42483428 -0.67333680 -0.00000008
-0.29876471 0.12645504 -0.00000056
-0.65398833 0.63764766 0.04268457
-0.77177390 0.30237812 0.02380231
-0.71397455 -0.56063861 0.00000000
0.07742891 -0.34502868 -0.00000028
-0.61789665 0.11862690 -0.00000022
-0.05774423 0.74211415 -0.00000093
-0.32734733 -0.66738654 -0.00000008
0.16228551 0.53346773 -0.00000100
-0.68484898 0.13393290 0.00163052
0.13733116 -0.53155954 -0.00000017
0.60760414 -0.53345329 -0.00000034
0.41056297 0.17640903 0.00000231
0.34066512 -0.49546510 -0.00000019
0.23885695 0.38976758 0.00000178
0.11591707 -0.01885140 -0.00000049
-0.45911668 -0.46830406 -0.00000021
0.18231991 -0.06869761 -0.00000046
0.60682743 -0.12127857 -0.00000115
0.12766789 0.32607653 0.00000477
-0.75962598 -0.47673031 0.00000000
0.24265088 0.43775828 0.00000084
0.07061508 0.36100458 0.00000507
0.06833383 -0.22422080 -0.00000036
0.05052085 -0.71676466 -0.00000005
-0.02148449 0.12129605 -0.00000058
0.64532754 -0.37925681 -0.00000077
0.04362810 0.18149538 0.00000839
0.46099895 -0.62832038 -0.00000011
-0.64474596 0.71911422 0.04895525
0.13202187 0.65551312 -0.00000094
-0.00146474 -0.63367374 -0.00000010
-0.54574788 0.10467680 -0.00000029
-0.07979845 -0.26298808 -0.00000034
0.01138536 0.56436865 0.00000266
0.22478215 0.57298380 -0.00000128
-0.15063618 -0.29414354 -0.00000032
0.42769631 0.28986114 -0.00000005
-0.79128527 -0.07224503 0.00000000
-0.20394061 0.67328455 0.00670401
-0.29222884 0.29098918 -0.00000060
-0.23480042 -0.73191655 -0.00000004
-0.55455469 -0.49938158 -0.00000017
-0.14562761 0.49708045 -0.00000079
-0.34524655 0.01364146 -0.00000049
-0.25050762 -0.24973875 -0.00000034
0.25541907 0.54355185 -0.00000132
-0.53950622 -0.19562527 -0.00000024
-0.53035527 -0.74135428 -0.00000004
0.70699416 -0.56116862 -0.00000060
0.26884630 0.52052230 -0.00000115
-0.67964012 -0.66098298 -0.00000001
-0.21439838 -0.01504618 -0.00000049
-0.72894134 -0.51377565 0.00000000
0.13013661 -0.35540604 -0.00000028
-0.08235427 0.53015111 -0.00000083
-0.58964120 0.00507723 -0.00000023
0.43344787 0.36621093 -0.00000154
-0.39838677 -0.33247723 -0.00000029
-0.47385067 0.57488064 0.02159484
0.29782917 0.07560082 -0.00000055
0.05045712 0.50011275 -0.00000081
-0.45514918 0.15266702 -0.00000040
-0.16637984 0.61251752 -0.00000079
0.13550333 0.34840966 0.00000429
-0.37553068 -0.67951093 -0.00000008
-0.13683986 0.33722070 -0.00000071
0.27182570 0.14098763 -0.00000059
-0.69793502 -0.17726177 -0.00000008
0.00869094 0.41917361 0.00000506
-0.30094353 0.38362424 -0.00000060
-0.07391299 0.33772372 -0.00000071
0.01022100 0.72002930 0.00000015
0.16163099 0.32872751 0.00000422
0.31888877 0.15213282 0.00000451
-0.78844133 0.07870200 0.00582948
0.23224578 0.42648047 0.00000125
0.66769429 -0.00758300 -0.00000156
0.51380281 -0.70189786 -0.00000006
0.21109007 0.39739185 0.00000217
0.29210854 0.35013068 -0.00000106
0.60225755 -0.41897092 -0.00000055
-0.36224620 -0.36294308 -0.00000027
0.23257553 0.30368266 -0.00000078
-0.01346019 -0.57551463 -0.00000014
-0.54560949 -0.34223614 -0.00000021
-0.64306774 0.31747378 0.01393828
-0.05432919 0.79321306 0.00412670
-0.68646329 0.03188304 -0.00000013
-0.46469771 -0.59961964 -0.00000013
0.06658701 0.70882236 -0.00000104
-0.76125854 -0.00005170 -0.00000004
0.43063023 0.18864532 -0.00000119
0.07883955 -0.58765546 -0.00000013
-0.13587783 -0.27734395 -0.00000033
-0.60598868 -0.72449293 -0.00000005
0.34656217 0.32025374 -0.00000117
-0.23595940 0.78976422 0.01959702
-0.14310646 0.79835152 0.01228078
-0.50563700 -0.49773006 -0.00000019
-0.02791734 0.17502966 -0.00000061
0.08465091 0.28820531 -0.00000068
-0.64075653 0.63462115 0.04127297
-0.02133216 -0.73412543 -0.00000004
-0.54385976 0.41766539 0.01402354
-0.78259485 -0.59808302 0.00000000
-0.26465950 -0.47072192 -0.00000021
-0.68385809 0.32122103 0.01780517
0.77772869 -0.14331917 -0.00000164
0.52754995 -0.12237006 -0.00000089
0.79914402 -0.71274793 -0.00000022
-0.72377619 0.08507694 0.00076854
0.28800726 -0.63757421 -0.00000010
-0.34254481 0.05426902 -0.00000050
-0.10620653 0.15035457 -0.00000059
-0.41517885 -0.26807111 -0.00000033
-0.05636124 -0.52618427 -0.00000017
-0.28949854 -0.67307373 -0.00000008
0.25496298 0.37032088 0.00000182
-0.74301228 -0.59635055 0.00000000
0.22314911 0.10279784 -0.00000056
0.49094661 -0.11548337 -0.00000079
-0.29824564 -0.37331943 -0.00000027
-0.14847519 0.27394594 -0.00000067
-0.42717687 0.40771595 0.00302895
-0.55506052 -0.39857487 -0.00000019
0.32843581 0.26455041 0.00000231
-0.60850987 -0.77354955 -0.00000002
0.43278912 0.05333122 -0.00000093
0.23203092 0.30829050 -0.00000078
0.09694729 0.62727788 -0.00000097
0.35935423 -0.66791137 -0.00000008
-0.44184029 -0.60068984 -0.00000012
-0.39619456 -0.14116562 -0.00000040
-0.79579098 0.05064826 0.00403193
0.47812509 0.16749260 0.00000117
0.36626538 0.01720398 0.00000602
0.71131017 -0.21591223 -0.00000129
-0.02450106 -0.35623077 -0.00000028
-0.10163723 -0.40857402 -0.00000024
0.08319778 0.35123120 -0.00000072
-0.20986550 -0.71376638 -0.00000005
0.12245194 0.16072273 0.00000754
-0.35124255 0.21388742 -0.00000052
0.15520588 0.26156634 -0.00000066
-0.47588318 0.73131803 0.03535357
0.21046398 -0.77193606 -0.00000002
0.15613558 0.38499629 -0.00000074
-0.40679109 -0.35095993 -0.00000028
0.67309735 -0.07117791 -0.00000145
0.72482571 -0.10470173 -0.00000156
-0.48182085 0.23546736 -0.00000038
-0.04391537 -0.28644600 -0.00000032
-0.55049363 0.38530827 0.01179022
-0.44057042 -0.11428234 -0.00000036
-0.60781109 -0.14595660 -0.00000018
0.00289947 0.15194359 0.00000949
-0.11652852 -0.35561723 -0.00000028
-0.59264600 0.55835885 0.03047457
-0.28322434 -0.71796963 -0.00000005
0.23745539 0.45057257 0.00000071
-0.00609313 -0.47460630 -0.00000020
0.17224819 -0.35901873 -0.00000028
-0.06182377 0.05343996 -0.00000053
0.78386360 -0.78762868 -0.00000003
-0.01996699 -0.75656586 -0.00000003
-0.02722253 0.06815326 -0.00000054
0.56470262 0.01900469 -0.00000128
-0.60492719 0.22293732 0.00241898
0.05023492 -0.58144885 -0.00000014
0.41191422 -0.35542712 -0.00000028
0.02560948 0.35098124 0.00000591
0.14105064 0.39279668 0.00000349
-0.37306869 0.12796973 -0.00000048
0.26832592 -0.10328345 -0.00000044
0.55338941 0.18420843 -0.00000057
0.21832901 -0.62620953 -0.00000011
0.41291857 0.05447093 -0.00000087
0.46309067 -0.39408580 -0.00000025
0.57097375 -0.29524962 -0.00000069
-0.06423018 -0.27295284 -0.00000033
0.12637832 0.59612717 0.00000023
-0.43878930 0.30777020 -0.00000044
0.48867509 0.08238803 0.00000250
-0.21356303 0.55906857 -0.00000073
0.09472621 0.27570481 -0.00000067
0.01438578 0.28120058 0.00000721
-0.15349572 -0.13770705 -0.00000041
0.14963076 -0.47285603 -0.00000020
-0.10488615 -0.63316377 -0.00000010
-0.26223547 -0.04740610 -0.00000047
-0.19545031 -0.00366093 -0.00000050
-0.43259866 0.45748292 0.00782054
0.44253680 0.24081182 0.00000054
-0.78489243 -0.08996937 0.00000000
-0.57617975 -0.66278935 -0.00000009
0.43467720 0.07064092 0.00000375
-0.55627135 -0.20021076 -0.00000022
0.37791785 0.15082274 -0.00000094
0.54569911 -0.71284336 -0.00000005
-0.26409064 -0.29488811 -0.00000032
-0.33290885 -0.16053666 -0.00000040
0.04056100 0.04052672 0.00001073
-0.55423819 0.57871905 0.02890760
-0.23959536 -0.34571369 -0.00000028
-0.23209125 0.05378855 -0.00000053
-0.33654714 0.09225590 -0.00000051
0.24261654 -0.57183312 -0.00000014
0.09555896 -0.29467650 -0.00000032
0.44581156 -0.42924887 -0.00000023
0.41561653 -0.68211400 -0.00000007
-0.66206816 -0.40095789 -0.00000007
-0.12205310 0.74135349 0.00550415
0.15450177 0.51659612 -0.00000094
-0.73829636 -0.58780348 0.00000000
0.38401209 -0.06627082 -0.00000054
-0.14552462 0.15285528 -0.00000060
-0.76340223 0.65074791 0.05332166
0.34089674 0.15341701 0.00000406
0.66764914 -0.36741335 -0.00000086
0.58246771 -0.77430726 -0.00000002
-0.23622094 0.45748221 -0.00000069
-0.10087865 -0.48612755 -0.00000020
-0.24053415 -0.64701605 -0.00000010
-0.40975349 0.77128606 0.03308209
0.35552088 -0.58605496 -0.00000013
-0.10769589 -0.52614483 -0.00000017
-0.26816681 -0.28781954 -0.00000032
-0.70273003 0.18119245 0.00728616
-0.59449112 0.21680991 0.00098089
0.18191644 0.58117579 -0.00000116
0.36430796 0.15811679 0.00000353
-0.78472179 0.42424442 0.03550713
0.74483133 -0.77765242 -0.00000006
-0.54220785 0.17127934 -0.00000031
0.50424090 -0.42401791 -0.00000023
0.24306069 0.53412485 -0.00000089
0.37417605 -0.51916924 -0.00000018
-0.39269312 -0.16469537 -0.00000040
-0.70512898 -0.19848234 -0.00000006
0.06159389 -0.53009389 -0.00000017
-0.77763945 0.19788724 0.01523950
0.37950391 0.34794325 -0.00000133
-0.40210748 0.46327696 0.00567625
0.05955479 0.32576222 -0.00000070
-0.46337910 -0.02241464 -0.00000036
0.58678270 0.05814567 -0.00000143
-0.20518149 0.35607749 -0.00000070
-0.58385461 0.34841029 0.01148317
0.11498083 0.36988467 -0.00000073
-0.76778378 -0.29799416 0.00000000
-0.15673091 0.76884995 0.01090230
-0.57728569 -0.38097049 -0.00000017
-0.16133421 -0.42878997 -0.00000023
-0.53732760 -0.17427721 -0.00000025
-0.76468049 -0.33509941 0.00000000
0.13101617 0.62936611 -0.00000045
-0.18651836 0.16480581 -0.00000060
0.29823447 0.14142101 0.00000510
0.23134901 0.53139390 -0.00000122
0.24942302 -0.61120999 -0.00000012
0.05811861 -0.47471325 -0.00000020
-0.52042465 0.75544623 0.04131568
-0.58120562 0.47895316 0.02258714
0.34068002 -0.71609390 -0.00000005
-0.28336469 0.71562546 0.01727599
-0.26567712 0.65921669 0.01084277
-0.14448949 -0.53637749 -0.00000016
-0.36522468 -0.73965919 -0.00000004
-0.76678559 0.58761988 0.04813448
-0.38933824 0.25492113 -0.00000048
0.59582727 -0.00255702 -0.00000134
-0.59432013 -0.26377705 -0.00000017
0.07564386 -0.52588880 -0.00000017
-0.27133970 -0.63962079 -0.00000010
0.73397764 -0.79259367 -0.00000002
0.37169825 0.22896673 0.00000211
-0.63940129 -0.05810091 -0.00000016
-0.57735947 0.61045410 0.03367038
-0.05949547 0.64645407 -0.00000090
0.70229678 0.08556228 -0.00000185
-0.62698791 0.51865664 0.03000922
-0.39646545 0.71207513 0.02678754
-0.12485508 0.39207138 -0.00000075
-0.14246832 0.12428907 -0.00000058
0.61071840 0.12877413 -0.00000165
-0.13419881 0.59844281 -0.00000082
0.21839334 0.47925339 -0.00000107
-0.23125023 -0.53611610 -0.00000016
0.02269363 0.03271490 0.00001113
0.72970168 -0.78520494 -0.00000004
0.54414285 0.16911370 -0.00000151
0.25905443 0.29563910 0.00000308
0.09981319 0.27105845 -0.00000067
-0.45351552 -0.43928839 -0.00000023
-0.55776238 -0.20686804 -0.00000022
0.31084433 0.36323579 -0.00000114
-0.13147760 0.04478383 -0.00000053
-0.04768734 -0.56823252 -0.00000014
-0.22185856 -0.64947779 -0.00000009
0.67485551 -0.61031046 -0.00000041
-0.30434669 0.01803215 -0.00000051
-0.09038307 0.07492177 -0.00000055
-0.35514280 -0.16545952 -0.00000040
0.53698962 0.21708267 -0.00000158
0.32445227 0.34793287 -0.00000116
0.33482918 -0.66812252 -0.00000008
0.16677042 -0.71102677 -0.00000006
0.03335948 0.25933258 -0.00000066
0.08863119 -0.69107843 -0.00000007
0.47885332 -0.19116076 -0.00000060
0.14442525 0.49630046 -0.00000087
0.63825544 0.01869898 -0.00000152
-0.76877804 0.32108530 0.02516639
0.03407066 0.34019431 -0.00000071
-0.73860486 0.57803288 0.04485536
-0.23937383 0.30994965 -0.00000065
-0.42358082 -0.40339531 -0.00000025
-0.58223284 -0.61596491 -0.00000012
-0.67409030 -0.60688341 -0.00000002
-0.60598087 -0.56165139 -0.00000010
-0.01101043 0.72675461 -0.00000095
-0.70152413 -0.10391285 -0.00000009
0.37214647 0.08850925 0.00000463
0.28419270 0.00854413 0.00000757
-0.45091716 -0.23429573 -0.00000033
0.13231352 0.50612182 -0.00000085
-0.46557835 -0.02560237 -0.00000035
-0.45765803 0.11704286 -0.00000039
0.30176664 0.48782145 -0.00000136
-0.52639804 0.38250194 0.00945451
0.41152486 0.13557777 0.00000303
-0.34433449 0.11626756 -0.00000051
-0.21441497 0.37380947 -0.00000069
0.08964526 -0.13087404 -0.00000042
-0.72752452 0.22013497 0.01281995
0.05836467 -0.40539990 -0.00000025
0.29634016 -0.78160610 -0.00000001
0.12820682 0.27527968 -0.00000067
-0.76511408 -0.65433764 0.00000000
-0.79838284 0.02952256 0.00242279
-0.58922119 -0.33400835 -0.00000016
0.02789404 0.34499321 0.00000597
-0.31732879 -0.67938223 -0.00000008
-0.61628002 0.45413669 0.02347780
-0.20732531 -0.49133191 -0.00000019
-0.06604113 0.70260520 -0.00000091
0.08406726 -0.13162585 -0.00000042
-0.59313567 -0.15963607 -0.00000019
-0.17850781 -0.23331267 -0.00000035
0.38495806 0.36809706 -0.00000064
-0.38595232 0.07989176 -0.00000046
-0.55556875 0.00327406 -0.00000026
-0.30965199 0.71239976 0.01927828
-0.54725829 -0.54130247 -0.00000016
0.74886950 -0.70814492 -0.00000023
-0.20075591 0.66991908 0.00613531
-0.64292185 -0.64622128 -0.00000005
0.35958696 0.24421572 0.00000207
0.15571749 0.15308056 0.00000716
0.79721592 -0.37661318 -0.00000106
0.47307421 0.19509215 -0.00000133
0.27395273 -0.44974892 -0.00000022
-0.00501823 0.41894389 -0.00000076
0.02771479 0.32292432 0.00000633
0.78198521 -0.40721369 -0.00000098
-0.49965573 -0.51810597 -0.00000018
-0.67759506 0.69684188 0.04987358
0.03560304 -0.17517139 -0.00000039
-0.25522919 -0.76004898 -0.00000002
0.44920925 -0.01463307 -0.00000085
0.11849730 0.13706377 -0.00000059
-0.68045232 0.67548983 0.04826782
0.22098341 -0.71990795 -0.00000005
0.10320563 0.56073253 0.00000131
-0.55111695 0.32260405 0.00640025
-0.72674984 0.42692999 0.03070700
0.08759821 0.02271956 -0.00000051
0.05234372 0.64394786 0.00000075
0.57501898 -0.05913265 -0.00000116
-0.34869713 0.75055022 0.02598063
-0.17638239 0.72078856 0.00843570
0.11668289 0.16777600 0.00000751
-0.44102744 0.51811600 0.01381662
0.00474351 0.60221773 0.00000214
-0.56028299 -0.40412451 -0.00000018
0.74480344 -0.51976089 -0.00000070
0.45088334 -0.72016617 -0.00000005
-0.60560671 0.33416170 0.01213467
-0.79385570 0.27891144 0.02368211
-0.72784394 0.23602749 0.01422750
-0.50778270 0.09272169 -0.00000033
-0.09977317 -0.76524841 -0.00000002
0.14930973 0.09932376 -0.00000056
-0.40335123 -0.78948552 -0.00000001
-0.46250382 0.56196833 0.01948860
-0.24123284 0.42210937 -0.00000067
0.59673950 0.08022553 0.00000046
0.73401070 -0.33390148 -0.00000114
-0.70059598 0.60430129 0.04383599
0.47636603 0.19002569 0.00000080
-0.57723694 -0.28879078 -0.00000018
-0.23261233 -0.65859738 -0.00000009
-0.54841250 -0.36160764 -0.00000020
0.00514315 -0.13791732 -0.00000041
0.02429220 -0.27590802 -0.00000033
0.01438708 0.32752208 -0.00000070
-0.30548575 0.51906932 0.00213124
-0.63421386 -0.24105971 -0.00000013
-0.71393798 0.63478911 0.04764142
0.00457439 0.68397276 -0.00000093
-0.31890906 -0.74210465 -0.00000004
0.08222836 -0.45747994 -0.00000021
0.67357536 -0.74906813 -0.00000013
0.34491606 -0.35033972 -0.00000028
0.20864920 -0.37722975 -0.00000026
-0.25384902 -0.06622646 -0.00000046
0.18481547 -0.44443377 -0.00000022
-0.57824399 0.68776259 0.04045929
0.04066047 0.10956953 0.00000961
0.02186143 0.25677699 0.00000750
0.45102114 0.01459030 0.00000444
0.50346064 -0.14942058 -0.00000076
-0.40609332 -0.56791561 -0.00000015
0.30979272 -0.31463532 -0.00000030
-0.48851993 0.63465787 0.02805846
0.21885911 0.43989184 0.00000126
0.33254223 0.33871591 -0.00000116
0.00303213 0.36339006 0.00000605
-0.08248971 -0.54790626 -0.00000016
0.41275854 -0.76712513 -0.00000002
-0.17060421 -0.49942088 -0.00000019
0.31374765 -0.69154608 -0.00000007
0.34638773 0.28775813 -0.00000111
0.70379761 0.08425976 -0.00000167
0.35104085 -0.55156012 -0.00000016
-0.75910074 0.01333226 -0.00000005
-0.38788468 0.21636537 -0.00000048
-0.10599929 -0.49599203 -0.00000019
0.17220558 -0.55791186 -0.00000015
0.42712922 -0.22794915 -0.00000036
-0.58038873 -0.22875242 -0.00000019
0.09048285 0.48980403 -0.00000081
0.56106890 -0.23595153 -0.00000077
-0.76636159 0.06021031 0.00230697
-0.47126091 -0.28277901 -0.00000030
-0.04641805 -0.52866723 -0.00000017
-0.40074972 0.30020947 -0.00000048
-0.04365591 -0.36979955 -0.00000027
-0.42614685 0.62408089 0.02172470
0.56713830 0.02105399 0.00000209
-0.13125468 -0.77946410 -0.00000001
0.44703256 0.25444232 0.00000021
-0.21098354 0.65304137 0.00555795
-0.54627269 0.12343221 -0.00000029
-0.67035730 0.16518263 0.00308546
0.43689495 -0.45333890 -0.00000022
0.78354093 -0.07229868 -0.00000181
-0.48228152 0.74402110 0.03701201
-0.61152989 0.58422974 0.03436031
-0.55460068 -0.16312969 -0.00000023
0.59349514 -0.61744986 -0.00000013
0.12937340 0.04040198 -0.00000053
-0.51435726 0.40496277 0.01035918
0.14986269 -0.51879078 -0.00000018
-0.78295080 -0.10563571 0.00000000
0.23283587 0.18258265 0.00000552
-0.69025601 -0.25912986 -0.00000007
0.59633359 -0.46160960 -0.00000045
0.56240185 -0.24544244 -0.00000076
0.30091171 -0.38605092 -0.00000026
-0.13961548 0.10333935 -0.00000056
0.28597288 -0.53151205 -0.00000017
0.01002223 0.54834917 -0.00000084
0.03573795 0.17684491 -0.00000061
0.07522110 0.40219595 -0.00000075
-0.75952377 0.61296588 0.04970459
0.61955075 -0.23481684 -0.00000096
-0.15867891 -0.39312345 -0.00000025
0.08071616 0.42752999 0.00000383
-0.47963610 -0.07168329 -0.00000033
0.28154899 -0.32740146 -0.00000030
-0.69116498 -0.65179874 0.00000000
0.20286268 -0.17353134 -0.00000039
-0.64567019 0.66343720 0.04420147
-0.20171899 -0.68138947 -0.00000007
-0.72806265 -0.64491368 0.00000000
0.51024227 -0.55107029 -0.00000016
0.38135396 -0.03253324 -0.00000060
0.16344307 0.10601852 -0.00000057
0.09168978 -0.52551869 -0.00000017
0.23495624 0.53485724 -0.00000123
0.17069628 0.62134688 -0.00000120
-0.50056168 0.55599868 0.02227461
-0.37051994 -0.03282545 -0.00000045
-0.04630284 -0.57252804 -0.00000014
0.09665727 -0.05914253 -0.00000046
-0.60139452 -0.07160127 -0.00000020
0.57762712 0.15652928 -0.00000054
-0.78904797 -0.01871239 -0.00000001
-0.52526323 0.47142895 0.01707678
-0.40318456 0.64018046 0.02112884
0.37094484 -0.51151783 -0.00000018
0.17387800 -0.27437082 -0.00000033
0.66844405 0.11652773 -0.00000157
-0.38139389 -0.72813997 -0.00000004
-0.05558789 0.65564621 -0.00000091
-0.38185357 -0.41311975 -0.00000024
-0.18625939 -0.16200277 -0.00000040
-0.33664571 -0.71315450 -0.00000005
0.10474872 -0.09630837 -0.00000044
0.22860880 -0.22299114 -0.00000036
0.25969983 -0.30621579 -0.00000031
-0.74857146 -0.14010999 -0.00000003
0.10373565 0.44520998 0.00000320
-0.55701775 0.28473365 0.00362460
-0.50045337 0.63303479 0.02895364
-0.70483566 -0.38710412 -0.00000003
0.25081283 -0.48092745 -0.00000020
0.79712057 -0.17324002 -0.00000157
0.29606167 0.22439627 0.00000365
-0.19525370 -0.32746513 -0.00000030
0.63117980 -0.79273297 -0.00000000
-0.24044334 -0.59269337 -0.00000013
0.39075888 -0.17890120 -0.00000039
-0.04036247 -0.60050864 -0.00000012
0.32874858 0.16884669 0.00000402
0.06318755 0.50660086 0.00000281
-0.42835902 0.16564599 -0.00000043
0.13769939 0.22704189 0.00000623
-0.60748160 -0.11602945 -0.00000018
-0.03869446 0.45210300 -0.00000078
0.61278527 -0.35863867 -0.00000070
-0.17137762 0.61100178 -0.00000078
0.53519183 0.06013370 -0.00000127
-0.58634219 0.48272227 0.02336035
0.39592806 -0.74311525 -0.00000004
0.47602826 0.15461605 0.00000145
0.08149707 -0.44314293 -0.00000022
-0.72299154 -0.06396386 -0.00000007
0.09564986 0.27209331 -0.00000067
-0.17750630 0.37219533 -0.00000073
0.53849295 -0.33638982 -0.00000051
0.43038752 -0.01608564 -0.00000079
-0.57502886 0.53336316 0.02677482
0.00673491 0.27127110 0.00000749
-0.04500232 0.55676191 -0.00000085
0.25405594 -0.26634842 -0.00000033
-0.41088129 0.17728209 -0.00000045
0.27989994 0.16849631 0.00000496
-0.34750300 -0.09173002 -0.00000044
-0.42609230 0.02028758 -0.00000040
0.21903057 0.51354321 -0.00000114
0.12472420 0.48888267 -0.00000081
-0.60094304 0.35337215 0.01339764
0.77499166 -0.35452515 -0.00000111
0.06576189 -0.03271290 -0.00000048
0.54760738 0.00770759 0.00000271
-0.30340264 -0.42007349 -0.00000024
0.25026313 0.18311785 -0.00000061
-0.61438608 -0.57117773 -0.00000009
0.76712456 -0.33226502 -0.00000117
-0.73930315 -0.68996715 0.00000000
0.06517390 -0.74878790 -0.00000003
-0.41348607 0.76007536 0.03243282
-0.38972979 -0.32827949 -0.00000029
-0.05796481 0.09333099 -0.00000056
-0.49435755 -0.22922737 -0.00000028
-0.68370451 0.59420638 0.04149295
-0.57291448 -0.28484557 -0.00000019
-0.45512209 -0.09632504 -0.00000035
-0.19472665 0.46825481 -0.00000073
-0.33398527 0.61051123 0.01254480
0.46919745 -0.04766394 -0.00000085
-0.57023245 0.35640377 0.01099446
0.54595678 -0.69506632 -0.00000007
0.16940275 0.14213727 0.00000713
-0.44112308 0.12367197 -0.00000041
0.18349956 0.47539328 0.00000130
0.19095289 -0.66031293 -0.00000009
-0.45200805 -0.07391760 -0.00000036
-0.15481668 0.60073975 -0.00000080
0.74452718 -0.73023997 -0.00000017
-0.19432866 -0.44689135 -0.00000022
-0.56835984 -0.48540338 -0.00000016
-0.08757515 -0.16111755 -0.00000040
-0.79820152 0.35011883 0.03024177
-0.30880906 -0.56652572 -0.00000015
-0.36393197 -0.38890432 -0.00000026
0.59905794 0.14835011 -0.00000080
0.75100044 -0.70844675 -0.00000023
-0.27659003 0.43966978 -0.00000064
-0.24201640 -0.27920787 -0.00000033
0.50214524 -0.38710121 -0.00000029
-0.43301140 0.62062823 0.02202093
0.39898807 -0.67401877 -0.00000008
-0.25662894 0.45113217 -0.00000066
-0.06522574 0.73309723 -0.00000092
-0.14543280 -0.22231861 -0.00000036
0.62154562 -0.50422320 -0.00000045
-0.42407977 0.22159846 -0.00000044
0.31645194 0.06258717 0.00000616
-0.30471589 0.51658982 0.00184912
0.52847906 -0.49278414 -0.00000019
-0.29959281 -0.47558201 -0.00000020
0.79158145 -0.53234068 -0.00000067
-0.01411575 -0.79304646 -0.00000000
0.43752666 0.26343057 0.00000023
0.78996696 -0.38087114 -0.00000105
0.70755558 -0.49404382 -0.00000074
-0.69817820 -0.28761635 -0.00000006
-0.67052636 -0.24557910 -0.00000009
-0.65326202 -0.67140560 -0.00000003
0.55217866 -0.37253457 -0.00000048
-0.21298810 -0.13563945 -0.00000042
-0.75039314 0.36486972 0.02737160
-0.29994793 0.56482128 0.00562269
0.14268168 0.47396923 0.00000211
-0.01905264 -0.42370434 -0.00000024
0.15977899 0.29868403 -0.00000069
-0.77688141 -0.29016988 0.00000000
-0.44276064 -0.66133750 -0.00000009
-0.16427958 -0.23861048 -0.00000035
-0.73881263 0.24601210 0.01604672
0.43028430 -0.29227853 -0.00000032
0.26762591 0.26619656 0.00000344
0.74165000 0.01872414 -0.00000185
0.14020343 -0.32600146 -0.00000030
0.37769836 -0.05013978 -0.00000055
-0.74774954 -0.61261102 0.00000000
-0.01052964 0.44873789 -0.00000078
-0.79631777 -0.73922314 0.00000000
0.52109915 0.08062433 0.00000191
0.24445168 0.07918277 0.00000702
-0.07927762 -0.19116428 -0.00000038
-0.37128665 0.14278360 -0.00000048
0.48031890 -0.26548459 -0.00000046
-0.70839692 -0.01902706 -0.00000009
0.33334736 0.32226152 0.00000118
0.18138050 -0.17946787 -0.00000039
0.46463777 0.29564271 -0.00000150
-0.12674136 0.48519025 -0.00000080
-0.17431512 -0.64132270 -0.00000010
0.34350177 -0.70349361 -0.00000006
-0.54848050 -0.07959483 -0.00000025
0.29863837 0.19632583 -0.00000078
-0.03412170 0.65149616 -0.00000091
0.67498502 0.04751771 -0.00000169
0.49098354 -0.67059291 -0.00000008
-0.50714360 -0.59861287 -0.00000013
0.00410992 0.23904496 0.00000805
0.08664086 0.62307265 0.00000051
0.64729564 -0.36586697 -0.00000080
0.65972789 -0.58607933 -0.00000041
0.59272063 -0.55376334 -0.00000026
-0.16354564 -0.04206339 -0.00000047
-0.16625629 -0.14799744 -0.00000041
-0.11942758 0.51658944 -0.00000082
0.71541678 -0.58734721 -0.00000053
0.78881489 -0.23556134 -0.00000141
0.41587235 -0.36500860 -0.00000027
0.70507243 -0.11099336 -0.00000148
0.34133138 -0.40190497 -0.00000025
-0.48941249 -0.14012426 -0.00000031
0.29690110 0.01934424 0.00000721
0.34443188 0.30228213 -0.00000113
-0.75319804 -0.28235497 0.00000000
0.34204121 0.07874542 0.00000538
-0.44092326 0.77428065 0.03604835
0.53309511 -0.73538620 -0.00000004
-0.24554051 0.73200767 0.01541431
0.53127027 0.06901178 0.00000192
-0.59076338 -0.04433030 -0.00000022
0.34444460 0.39734747 -0.00000132
0.04199274 0.63212325 -0.00000090
0.00637551 0.02310755 -0.00000051
-0.43026391 -0.03793403 -0.00000039
0.19958351 0.33561041 0.00000351
-0.08598937 0.41261977 -0.00000076
-0.16482047 0.60623770 -0.00000079
0.40547729 0.26737434 -0.00000126
0.29671233 0.15884753 -0.00000070
0.04120353 -0.62435324 -0.00000011
-0.38394327 0.52549614 0.00950115
0.60660424 0.12116560 -0.00000046
0.13578715 0.40511205 0.00000337
-0.19159556 0.62546759 0.00148062
-0.61980741 0.06168168 -0.00000020
-0.33236403 0.05674890 -0.00000051
0.62008683 -0.51592436 -0.00000042
-0.69691497 -0.57491066 -0.00000000
0.21207564 0.22851309 0.00000509
0.04510763 0.31565785 -0.00000070
-0.37721339 -0.30626992 -0.00000031
0.56933157 -0.57342538 -0.00000014
-0.35758165 -0.55805584 -0.00000015
-0.31291276 -0.75518297 -0.00000003
-0.39081498 -0.31046370 -0.00000031
-0.02965142 0.43363550 -0.00000077
0.62976970 0.09903310 -0.00000051
0.08334076 -0.37942086 -0.00000026
-0.73046099 0.37552865 0.02656646
0.34031178 0.42663516 -0.00000083
-0.36516718 0.61827337 0.01592603
0.19454465 0.05337312 -0.00000053
-0.25766901 0.02578674 -0.00000052
-0.34671976 -0.32771041 -0.00000030
0.59593340 0.14305367 -0.00000065
-0.22230799 -0.42783305 -0.00000023
0.39406286 -0.67331046 -0.00000008
0.50530105 -0.41491492 -0.00000025
0.65501007 -0.38011267 -0.00000079
-0.22296078 -0.01486181 -0.00000049
0.02915866 0.28448329 -0.00000068
0.49474275 -0.34711508 -0.00000035
-0.23661997 0.18540254 -0.00000062
-0.39916554 0.70206689 0.02615303
-0.65030727 0.54244295 0.03409906
-0.74126773 0.01146821 -0.00000006
-0.49333271 -0.26867898 -0.00000028
-0.23249634 0.32113334 -0.00000066
0.16242063 -0.55479662 -0.00000015
-0.40967312 0.52311982 0.01152878
0.21385129 0.31390259 -0.00000074
-0.57240480 0.30625651 0.00682920
-0.54649526 -0.11045627 -0.00000025
-0.57297636 -0.27908014 -0.00000019
0.16742249 0.39291457 0.00000309
-0.09056825 0.77966811 0.00609709
-0.66759746 0.56526053 0.03758133
0.74754628 0.01040014 -0.00000185
0.15092747 -0.60834357 -0.00000012
-0.09215334 0.14471118 -0.00000059
0.07098826 0.30741078 -0.00000069
-0.14280048 -0.24211768 -0.00000035
-0.75009046 -0.51919993 0.00000000
-0.56881772 -0.07030623 -0.00000023
0.09972272 -0.48944252 -0.00000019
-0.39000549 0.36130807 -0.00000050
0.75211402 -0.62526624 -0.00000044
0.53433767 -0.03798866 -0.00000108
0.06422350 0.41973608 -0.00000076
-0.36559652 0.20511854 -0.00000050
0.17070614 -0.24119494 -0.00000035
-0.18166985 -0.09754254 -0.00000044
-0.06483358 -0.53439126 -0.00000017
-0.26862085 -0.21264667 -0.00000037
-0.63249518 -0.69223485 -0.00000005
0.66777862 -0.49986304 -0.00000060
-0.03753916 0.74306045 -0.00000095
0.57736966 -0.60354121 -0.00000012
-0.38229530 0.30967623 -0.00000050
0.27262456 -0.08597305 -0.00000045
0.66691743 0.00908778 -0.00000159
0.37424300 -0.60362550 -0.00000012
0.76162200 -0.50094983 -0.00000075
-0.18011727 0.47657688 -0.00000075
0.43204502 0.35803926 -0.00000136
-0.77312830 -0.20299593 0.00000000
0.14003429 0.30808524 0.00000488
-0.11540157 0.17161676 -0.00000061
0.73698038 -0.30681997 -0.00000120
-0.64010901 0.36973208 0.01821855
0.06306032 0.66317689 -0.00000093
-0.38198492 0.33189550 -0.00000051
0.15324882 0.39545233 -0.00000075
0.56681628 -0.37614251 -0.00000052
-0.18849516 0.13669855 -0.00000059
-0.54690125 0.38984756 0.01187242
-0.67042008 -0.31447814 -0.00000008
0.50566046 -0.37516214 -0.00000033
0.54750885 0.06164873 0.00000174
-0.25995143 -0.03308563 -0.00000048
0.05039935 -0.66583554 -0.00000008
-0.59562480 -0.20083756 -0.00000018
0.03363857 0.25310558 0.00000738
0.25744484 0.41782139 0.00000092
-0.49613318 -0.46659466 -0.00000021
0.00309762 0.00088343 0.00001194
0.13135929 0.51190516 0.00000165
-0.35192526 0.00469323 -0.00000048
0.73068099 -0.72669758 -0.00000018
0.39772992 -0.68400652 -0.00000007
0.01722484 -0.66203649 -0.00000009
0.36757601 0.42212063 -0.00000127
-0.45555203 0.17672365 -0.00000040
0.09435636 0.06717191 -0.00000054
-0.75975595 -0.26064031 0.00000000
0.25806523 -0.31907761 -0.00000030
0.76140723 -0.49027719 -0.00000077
0.73805557 0.03906836 -0.00000188
0.12701383 0.45910541 -0.00000079
0.11509772 0.37548607 -0.00000073
0.10302866 -0.60017293 -0.00000012
0.19539118 -0.15637620 -0.00000040
0.00712430 0.76901497 -0.00000060
0.54071975 0.10270308 0.00000114
-0.17744486 0.14110445 -0.00000059
0.19508414 -0.52451048 -0.00000017
0.49866960 0.18785659 0.00000041
-0.26636664 -0.18185351 -0.00000039
-0.68283423 -0.79071193 0.00000000
-0.25494263 -0.76226872 -0.00000002
0.20217836 0.34873506 0.00000322
0.41747244 -0.23479732 -0.00000035
-0.10739927 -0.09470180 -0.00000044
0.63315048 -0.33582739 -0.00000081
0.69038097 -0.77935399 -0.00000005
0.52233235 -0.42250228 -0.00000029
-0.00289847 -0.47287131 -0.00000020
-0.08782314 0.44987891 -0.00000078
-0.52602317 -0.28324343 -0.00000024
0.20183464 0.41167600 -0.00000089
0.35007664 -0.04898647 -0.00000047
0.62770466 0.07244734 -0.00000159
-0.60641412 -0.38807243 -0.00000014
0.04141713 0.16013884 -0.00000060
0.02346117 -0.76027746 -0.00000002
-0.71925506 0.01543150 -0.00000009
0.05339254 0.71622684 -0.00000052
0.69481206 -0.18494274 -0.00000130
0.47475273 -0.05024389 -0.00000086
-0.35901313 0.73758326 0.02575048
0.27348380 0.05754923 0.00000694
0.25269603 0.25768044 0.00000388
0.03305818 -0.14460314 -0.00000041
0.20564276 -0.18376481 -0.00000039
-0.66710616 0.14269672 0.00085092
-0.40449595 -0.03933872 -0.00000041
-0.67531678 -0.46455129 -0.00000005
0.54245418 -0.28855441 -0.00000061
0.07195638 -0.64248305 -0.00000010
-0.54805022 0.36531650 0.00984235
0.29590317 0.03642008 0.00000694
-0.36659262 -0.60638922 -0.00000012
-0.28294780 -0.43695751 -0.00000023
-0.57221730 -0.24159931 -0.00000020
0.59669503 -0.47298061 -0.00000043
0.40354533 -0.78979585 -0.00000001
-0.08450601 -0.17783431 -0.00000039
0.12740229 0.03279815 -0.00000052
0.31657724 0.37099605 0.00000062
0.12136504 0.22974419 -0.00000064
0.27132883 0.37412120 0.00000144
0.10397772 0.15713440 0.00000788
0.38336712 0.22322066 -0.00000110
-0.74910231 0.25811893 0.01799124
0.54935755 -0.62153648 -0.00000011
-0.12499991 0.50101143 -0.00000081
0.21173985 0.33439915 -0.00000077
0.52882876 -0.59104397 -0.00000013
0.38696601 -0.02437576 -0.00000063
-0.68514249 0.33533182 0.01914180
-0.69082312 -0.51956769 -0.00000002
0.57958871 -0.30632841 -0.00000070
0.31605820 0.40048442 -0.00000123
0.67776261 0.09119623 -0.00000129
0.15547066 0.33677811 -0.00000071
-0.68114834 -0.24454893 -0.00000008
0.04728103 0.52172839 -0.00000083
-0.74873333 -0.45966948 0.00000000
-0.07441794 -0.28775144 -0.00000032
-0.66211051 0.53001887 0.03404517
0.51725506 0.01464234 -0.00000112
0.49052505 0.27986977 -0.00000156
0.47675022 0.27704909 -0.00000077
0.40943814 -0.31958925 -0.00000030
0.12026144 -0.76466468 -0.00000002
-0.26716202 0.37345577 -0.00000064
0.22628123 -0.78103744 -0.00000001
0.10152441 0.36773985 0.00000449
-0.67878041 -0.12762767 -0.00000011
-0.61296198 0.41333482 0.01964722
-0.43143918 -0.49332670 -0.00000019
0.12638560 0.19602671 -0.00000062
-0.76105736 -0.43617026 0.00000000
-0.42929069 0.11321031 -0.00000042
0.70736997 -0.15784849 -0.00000140
-0.67293227 0.47692034 0.03037464
-0.73647427 0.43858307 0.03256304
-0.41513873 -0.72508464 -0.00000005
-0.41086513 -0.34440602 -0.00000028
-0.23113636 -0.50676803 -0.00000018
-0.45720915 0.07970419 -0.00000038
-0.59137936 -0.33495319 -0.00000016
-0.38099635 -0.15084360 -0.00000041
0.64295063 0.01507233 -0.00000153
-0.33226272 -0.17095783 -0.00000039
-0.39237849 -0.46303568 -0.00000021
0.23967320 0.36573062 0.00000219
0.45712712 -0.05704736 -0.00000079
0.58356624 0.11305506 -0.00000153
-0.60241642 -0.30842167 -0.00000015
-0.04809388 0.69408863 -0.00000093
0.38692730 0.28694389 0.00000078
0.55811050 0.13664499 -0.00000149
-0.76078549 -0.38160139 0.00000000
-0.71397849 0.06804870 -0.00000010
-0.65499359 -0.27091354 -0.00000011
-0.61666595 -0.49773487 -0.00000010
-0.75568773 -0.14640119 -0.00000002
