ply
format ascii 1.0
element vertex 1371
property float x
property float y
property float z
end_header
-0.39607770 -0.57798432 -0.00000197
-0.14810992 0.26947239 0.00000312
-0.16147359 0.09640281 0.00000750
-0.22743883 -0.36716129 0.00000253
-0.09511285 0.45357389 0.00000489
-0.39652656 -0.12532935 -0.02076112
-0.63342287 -0.72922847 0.14763873
-0.14548836 -0.45090374 0.00000175
-0.06843287 0.32354614 0.00000262
-0.18091061 -0.19119485 0.00000005
-0.26659414 0.27016816 -0.07391269
-0.35229645 0.23188574 -0.18346297
-0.12812788 0.17814162 0.00000729
-0.33710820 -0.12514387 -0.00000077
-0.56027187 -0.04418479 -0.33030447
-0.50167810 -0.03960212 -0.24138109
-0.60890916 -0.73524647 -0.00000355
-0.16743014 -0.76360080 -0.00000094
-0.39483320 0.17351289 -0.21225716
-0.37209537 -0.12528991 -0.00000098
-0.00542544 0.36697171 -0.00000496
-0.40608127 0.18885270 -0.23986515
-0.55799957 -0.54714204 0.10206377
-0.11765614 0.46078834 0.00000325
-0.48950107 -0.53366263 -0.00000246
-0.38370607 -0.12636884 0.34149932
-0.38537544 -0.54791153 0.00000338
-0.04016429 0.58894184 0.00000291
-0.37920389 -0.64218962 0.00000316
-0.55144619 -0.53131919 0.06616508
-0.20072832 -0.40528077 -0.00000047
-0.32318799 0.01974243 0.17336767
-0.12242531 0.02243376 0.00000080
-0.21910824 0.27102267 0.09670037
-0.56475957 -0.56346223 0.10312282
-0.09455859 -0.39074423 0.00000020
-0.47029343 -0.04567448 -0.18821079
-0.54941585 -0.45004446 -0.04959883
-0.28408564 0.11414310 0.25020934
-0.08809980 -0.16229755 0.00000066
-0.47711581 -0.34970447 -0.00138898
-0.16891252 0.39219854 0.15522635
-0.09573839 0.38731180 -0.00000185
-0.59736509 -0.61696312 -0.01636088
-0.22688395 0.25224491 0.10045508
-0.00722858 0.55112436 0.00000249
-0.45937927 -0.17982829 -0.08393540
-0.39823010 0.04788885 -0.13596552
-0.13148094 0.01117114 0.00000910
-0.32621761 -0.01426701 -0.00000050
-0.73126276 -0.81011895 -0.10088269
-0.50913963 -0.43226582 0.00000453
-0.18335646 0.50993954 -0.09913635
-0.00401216 -0.25042416 0.00000101
-0.48926370 -0.38119874 0.11150975
-0.28742513 0.10608471 0.10776869
-0.16002692 0.43974109 -0.01693618
-0.08543121 0.59374585 0.04167562
-0.40949646 0.09744650 -0.18583441
-0.08497745 -0.62217794 0.00000097
-0.09417895 0.57263105 0.01763723
-0.06465280 -0.39953366 0.00000036
-0.34689361 -0.14104442 -0.00000086
-0.22897558 0.44175736 -0.12639143
-0.12867033 0.46332782 0.00000334
-0.30029661 0.07500805 0.15595740
-0.30195859 0.18333357 -0.07296440
-0.64720706 -0.60374198 -0.10312492
-0.15306694 0.43046029 0.07290110
-0.12768902 -0.29897485 0.00000017
-0.15396296 0.30032100 0.00000537
-0.02912506 0.47970077 0.00000262
-0.15359913 0.13320052 0.00000082
-0.66383918 -0.43478480 -0.23897968
-0.35022901 -0.04554381 0.30993932
-0.38677892 -0.62276961 -0.00000200
-0.12920385 -0.27366942 0.00000021
-0.30823746 0.34062813 -0.18500782
-0.46655210 -0.58101288 0.00000393
-0.02776553 0.49125558 -0.00000195
-0.05926691 -0.34148212 0.00000131
-0.07883009 -0.32522256 0.00000041
-0.55011374 -0.52810559 0.14212028
-0.02353760 -0.72225519 0.00000032
-0.30019900 -0.61139731 -0.00000146
-0.53092441 -0.37106469 -0.07190761
-0.14557147 0.44855487 0.08365191
-0.55429896 -0.45486512 -0.05412585
-0.17776108 0.37083767 0.15370245
-0.31794880 0.27323501 -0.15645408
-0.35412480 -0.05494901 0.24571196
-0.25438956 0.18584449 0.12991749
-0.36524871 0.13635847 -0.14171695
-0.67297362 -0.82471003 0.09289375
-0.34928530 -0.04325630 0.03201613
-0.20524150 0.30505556 -0.00034869
-0.01422839 0.58500915 0.00000512
-0.18356255 -0.75628037 0.00000147
-0.63380290 -0.54565250 -0.11984079
-0.25379015 0.18728986 0.04133500
-0.20694632 0.30037975 0.07854355
-0.25686846 0.30064637 -0.07846288
-0.12973835 -0.68296897 0.00000120
-0.64388275 -0.75448020 0.10915303
-0.02921550 -0.41173362 0.00000055
-0.40555485 0.14086874 -0.20786367
-0.44820252 -0.35713120 0.00000421
-0.13196618 -0.07681775 0.00000056
-0.31998647 0.02746668 0.31611062
-0.20640656 -0.40768018 0.00000229
-0.39123860 0.18585090 -0.21463399
-0.03277695 0.06345554 0.00000142
-0.06714006 -0.08445218 0.00000094
-0.61189596 -0.67725916 0.11934845
-0.15451021 0.03405895 0.00000835
-0.09391449 0.57786020 -0.00297659
-0.65163775 -0.77320118 0.00073521
-0.08015162 0.23136654 -0.00000524
-0.31944568 -0.51671952 0.00000294
-0.50281680 -0.35456110 -0.03854435
-0.48602073 -0.34161925 -0.02060867
-0.26099126 0.16990771 0.11822435
-0.21673271 0.08646931 0.00000035
-0.55614645 -0.76908858 0.00000425
-0.07759527 0.03188706 0.00001000
-0.57076689 -0.33478060 -0.15797150
-0.02330157 0.20934814 0.00000175
-0.36286855 -0.07605033 0.05639282
-0.32273313 -0.43402171 0.00000312
-0.51565871 -0.44492230 0.11511644
-0.38655596 -0.13324932 0.38021683
-0.33152979 -0.00040328 0.34480492
-0.21549372 0.38214495 -0.06651439
-0.08722271 0.35963434 0.00000283
-0.25741538 0.05795370 -0.00000315
-0.00788310 0.17605570 -0.00000846
-0.11465434 -0.17727412 0.00000203
-0.34337750 0.25406897 -0.18388629
-0.41174171 -0.19404750 0.20863405
-0.22908616 -0.48961814 -0.00000080
-0.29823756 0.07997650 0.21620573
-0.44063464 -0.23259743 -0.02025233
-0.61160189 -0.67654898 0.07851880
-0.00203475 -0.73515015 0.00000014
-0.23659340 0.09694409 0.00000347
-0.51723382 -0.00690344 -0.28702192
-0.36458654 -0.16721070 0.00000394
-0.26046468 0.31764540 -0.09514490
-0.37114996 -0.09604944 0.29313142
-0.20093825 -0.49838720 -0.00000065
-0.06727367 0.34269581 0.00000672
-0.47643120 -0.60812102 -0.00000252
-0.42185751 -0.21847087 0.24578756
-0.66865277 -0.64343218 -0.11097541
-0.24672807 0.20433245 0.23323120
-0.47753395 -0.23791002 -0.07467547
-0.23420339 -0.59524865 -0.00000103
-0.32915259 0.00535794 0.06727006
-0.29495744 0.08791225 0.05469857
-0.47744128 -0.65749353 0.00000387
-0.35013783 -0.04532813 0.35321035
-0.37884788 -0.11462658 0.02297542
-0.45678424 -0.49437563 -0.00000218
-0.15702698 0.16574133 0.00000086
-0.16828611 0.11852153 0.00000299
-0.12159843 -0.02917649 0.00000236
-0.13781177 0.52880849 -0.03995958
-0.28132825 -0.43108780 -0.00000101
-0.42643911 -0.22953562 0.33429519
-0.49343411 -0.25775348 -0.08672212
-0.12341443 0.45353894 0.00000023
-0.32929245 0.00500764 0.22495012
-0.40194441 0.02487294 -0.12683781
-0.43026809 -0.23878157 0.37997327
-0.08989050 0.33220902 -0.00000306
-0.01667471 0.19615271 0.00000199
-0.55522586 -0.54044888 0.18751502
-0.45816689 -0.30612191 0.05988232
-0.28088943 0.12186611 0.04276127
-0.11082609 0.42123199 0.00000313
-0.07072741 -0.60804347 0.00000089
-0.16769564 -0.05249211 0.00000039
-0.55855512 -0.04854709 -0.32477833
-0.00431303 0.53968496 -0.00000175
-0.13630313 0.17767166 -0.00000456
-0.53779951 -0.50342029 -0.00000269
-0.20050986 -0.03910725 0.00000294
-0.11349220 -0.33731326 0.00000172
-0.25328770 0.01866327 0.00000644
-0.01331279 0.53583989 -0.00000155
-0.18951803 -0.01262462 0.00000033
-0.49599290 -0.15693041 -0.15623824
-0.30482449 0.06407133 0.30553919
-0.12501901 -0.26814152 0.00000024
-0.38058536 0.01755505 -0.08858741
-0.17579314 0.37559634 0.05745651
-0.56969799 -0.57538441 0.09686980
-0.23304521 0.05677143 -0.00000390
-0.50196023 -0.71916751 -0.00000288
-0.16838569 0.39347662 0.09071382
-0.07559661 0.31059128 0.00000265
-0.15659363 0.15860690 0.00000298
-0.26722268 0.00205743 0.00000352
-0.20901051 -0.09728631 0.00000289
-0.23579548 0.23073047 0.10115026
-0.24520264 0.20802960 0.05224480
-0.57178105 -0.58040992 0.01499945
-0.04822949 0.65200464 0.00000168
-0.36652391 -0.28605681 -0.00000125
-0.39192336 -0.14619396 0.02917539
-0.23128230 0.01519044 0.00000327
-0.34509285 0.14124675 -0.11327572
-0.11465412 0.34416337 0.00000571
-0.60744662 -0.66651779 0.12115937
-0.28786013 0.22904823 -0.08055223
-0.35931512 0.27399800 -0.22183215
-0.11881232 0.23506478 0.00000685
-0.45257791 0.05946616 -0.22873276
-0.01457257 0.51941263 -0.00000182
-0.15120064 0.34591141 -0.00000095
-0.33834292 -0.09912828 -0.00000073
-0.09741637 0.41963502 0.00000170
-0.35359188 -0.46948462 0.00000329
-0.10303764 -0.10298317 0.00000069
-0.60007351 -0.64871679 0.07573598
-0.53181119 -0.17224097 -0.20247038
-0.00378388 0.72288485 0.00000379
-0.31975741 -0.23181786 0.00000348
-0.52606515 -0.04983755 -0.27297923
-0.39845398 -0.16195952 0.00998625
-0.46372424 -0.27646305 -0.02796852
-0.18753097 0.34725499 0.02505658
-0.42670162 0.08044025 -0.20177362
-0.13595089 0.22987193 0.00000111
-0.23240163 0.22097267 -0.00000084
-0.00171028 0.64668005 0.00000273
-0.06095188 -0.19170194 0.00000077
-0.66895253 -0.81500250 0.08775416
-0.14561838 0.32170989 0.00000122
-0.28675894 0.10768766 0.23462721
-0.16064642 -0.56760591 -0.00000053
-0.29820864 -0.66905457 -0.00000155
-0.09002321 0.51771607 0.00000427
-0.45686060 -0.30296875 0.07212981
-0.45491185 -0.00742096 -0.18893480
-0.22893208 -0.32521367 0.00000262
-0.30431272 -0.15189442 -0.00000062
-0.32354815 -0.28960214 -0.00000100
-0.20552996 0.30380340 0.09311475
-0.19789964 -0.68749293 -0.00000098
-0.53705094 -0.04833274 -0.29118942
-0.01771618 0.53123021 0.00000263
-0.52261143 -0.15072664 -0.20201848
-0.48976090 -0.67918295 0.00000392
-0.50466033 -0.41837281 0.18676785
-0.42226178 0.08675213 -0.19890841
-0.07021883 -0.49488013 0.00000015
-0.30777955 -0.67960085 -0.00000163
-0.31419753 0.04144039 0.33853662
-0.32079790 -0.32222775 -0.00000104
-0.39822198 -0.16140324 0.09992418
-0.24621306 0.40106365 -0.12698869
-0.02303113 -0.16017188 0.00000106
-0.24401785 0.35653419 -0.09461456
-0.02039153 0.40276903 0.00000704
-0.06620586 0.30516492 0.00000717
-0.22965118 0.33064694 -0.05526164
-0.11953911 0.58491925 -0.04775559
-0.12424196 -0.08491664 0.00000059
-0.00391081 0.40052091 0.00000223
-0.46342980 -0.79896710 0.00000350
-0.65600318 -0.44473995 -0.22022166
-0.22791355 0.21670180 0.00000475
-0.08289763 -0.73188881 -0.00000037
-0.19540638 0.32823425 0.20944656
-0.48389111 0.02362091 -0.25455791
-0.07094465 0.60976686 0.00000157
-0.62456200 -0.70783697 0.18133290
-0.24784087 -0.44057386 0.00000254
-0.65116159 -0.33921048 -0.28118833
-0.53671671 -0.64399817 -0.00000295
-0.40840127 0.09463565 -0.18229296
-0.68269784 -0.68938963 -0.10314670
-0.62209602 -0.70188265 0.04321531
-0.51836074 -0.45144237 0.03858778
-0.48161840 -0.36273661 0.00150251
-0.65662969 -0.78525330 0.13625849
-0.20601885 0.23548814 -0.00000137
-0.23805878 0.03265066 0.00000660
-0.19839318 0.48619198 -0.10729286
-0.00465456 0.76315835 0.00000332
-0.67410903 -0.76183219 -0.04261109
-0.03596315 0.01399161 0.00001108
-0.03363318 0.73776090 -0.01231491
-0.57975261 -0.31769187 -0.18316734
-0.14214955 -0.53976404 -0.00000037
-0.12898306 0.48860659 0.03019019
-0.63107968 -0.49237712 -0.15018156
-0.56287217 -0.70997514 -0.00000323
-0.10070067 -0.00598012 0.00000225
-0.35868390 0.16713938 -0.15141815
-0.03040280 -0.57449066 0.00000065
-0.08324512 -0.54105111 -0.00000002
-0.03511229 0.72603046 -0.00701376
-0.20047435 -0.59723842 0.00000189
-0.10263694 0.47602556 0.00000317
-0.52318660 -0.04414501 -0.27216461
-0.10333438 -0.18662537 0.00000193
-0.32813807 0.00778835 0.25563233
-0.33664903 -0.51691853 -0.00000150
-0.28371142 0.11504964 0.12690661
-0.29619371 0.08492094 0.13882598
-0.09822445 -0.03190756 0.00000085
-0.10627914 -0.56773736 -0.00000021
-0.53041387 -0.27263065 -0.13505753
-0.23123663 -0.47183268 0.00000236
-0.28552980 0.22640763 -0.07518153
-0.29410744 0.19365957 -0.06735885
-0.13899167 0.42142648 0.00000145
-0.34942790 0.00884274 -0.03405173
-0.41943396 0.10657364 -0.20735114
-0.08233442 0.21417668 0.00000785
-0.46566217 -0.51957944 -0.00000228
-0.04785387 -0.05759915 0.00000175
-0.29392975 -0.15908483 -0.00000057
-0.51088604 -0.59689063 0.00000424
-0.23117398 -0.35235797 -0.00000056
-0.32568094 0.01372979 0.03434263
-0.11276403 -0.33070524 0.00000020
-0.20193606 0.01493572 -0.00000563
-0.46654813 -0.32635497 0.03332201
-0.64498098 -0.75713147 0.06733025
-0.46642884 -0.32607062 0.11955509
-0.13021800 0.14966636 0.00000276
-0.24266740 0.21414131 0.07346893
-0.30953051 0.05270816 0.32579760
-0.08163839 -0.50962680 0.00000005
-0.36069868 0.22431335 -0.19172304
-0.25590239 0.29873390 -0.07570516
-0.51275421 -0.19085506 -0.16048729
-0.32715408 -0.06436408 -0.00000060
-0.32869533 -0.45906088 -0.00000134
-0.13575637 0.55077655 -0.05100966
-0.14680269 0.06568801 0.00000074
-0.36148447 0.20501346 -0.18041674
-0.30154485 0.26931262 -0.12817639
-0.05624607 0.12414821 0.00000216
-0.54771113 -0.74671785 0.00000423
-0.21086264 0.35242043 -0.03993848
-0.36088009 -0.26986369 -0.00000118
-0.52727756 -0.37726690 -0.06215826
-0.65741095 -0.45961862 -0.21276330
-0.27915778 0.12605607 0.04777420
-0.04680890 -0.33303952 0.00000059
-0.37583733 -0.10737277 0.38239697
-0.00953958 0.25196355 0.00000191
-0.19543975 0.02783414 0.00000037
-0.30627146 0.12797302 -0.04376637
-0.11753543 0.54389731 -0.01795978
-0.26636903 0.15693421 0.00073520
-0.27475863 0.13666293 0.14420163
-0.21832937 0.27289752 0.10188384
-0.31123540 0.04860003 0.23293939
-0.01808215 0.40439522 0.00000707
-0.41234306 -0.79374994 0.00000312
-0.35724843 -0.46820577 -0.00000153
-0.63200640 -0.73454789 0.00000489
-0.40373461 -0.42326572 -0.00000173
-0.19281531 0.05110329 0.00000305
-0.43322464 -0.47308957 0.00000388
-0.11075473 0.61549445 -0.05384186
-0.53351718 -0.30382309 -0.11965979
-0.29737275 0.08207800 0.09521892
-0.23346687 0.23635313 0.16139178
-0.30821639 -0.63678485 0.00000263
-0.11146700 -0.35298669 0.00000168
-0.51035785 -0.04715703 -0.25008653
-0.05651868 0.00146157 0.00001079
-0.21868387 0.35732681 -0.05539654
-0.10977987 0.53496357 0.02266919
-0.03026584 0.70817511 0.00000339
-0.28102669 0.37285600 -0.16326698
-0.28789142 -0.37038658 -0.00000093
-0.04566725 0.54536206 0.00000287
-0.36045407 -0.07023476 0.38229191
-0.45579568 -0.23746813 -0.04086723
-0.59048105 -0.62555661 0.03258074
-0.39143120 -0.77206894 0.00000301
-0.16365291 0.26030430 0.00000322
-0.11179305 0.25902516 -0.00000377
-0.08589252 0.28955757 0.00000269
-0.22506214 0.25663716 0.24257849
-0.36142015 -0.07255606 0.11525792
-0.25715711 0.01413807 -0.00000397
-0.41797062 -0.20908617 0.22534240
-0.68197461 -0.60153026 -0.15909286
-0.42857333 -0.23468828 0.33859593
-0.25578564 -0.34720767 0.00000278
-0.52246020 -0.46134139 0.08584891
-0.25002076 0.19638949 0.05359920
-0.14439230 0.41008644 0.00000005
-0.54389686 -0.40065391 -0.07303066
-0.13699672 -0.76805450 -0.00000077
-0.69808477 -0.64424756 -0.15660819
-0.08201105 -0.36295624 0.00000032
-0.14935589 0.19888721 0.00000661
-0.18642722 -0.35042101 -0.00000028
-0.16642475 0.18447989 0.00000641
-0.61529717 -0.68546831 0.03343487
-0.09621733 -0.57953015 0.00000114
-0.25400874 0.21333349 -0.01724700
-0.33304630 0.03708767 -0.02671486
-0.33699834 -0.01359085 0.16349264
-0.21731470 -0.54395713 0.00000212
-0.06415170 -0.09149395 0.00000181
-0.36905489 -0.13133080 0.00000404
-0.00079193 0.12722874 0.00000174
-0.00469136 0.45761429 -0.00000328
-0.10199666 0.55375098 0.10142707
-0.58839944 -0.68679304 -0.00000334
-0.27665560 0.13207744 0.28033736
-0.02082231 -0.00077177 0.00000166
-0.41553448 -0.37989329 -0.00000172
-0.03756113 -0.55162292 0.00000075
-0.45528127 -0.19728727 -0.06616514
-0.05427037 0.64548611 0.00000174
-0.12690194 0.37788650 0.00000144
-0.11250680 -0.58426234 0.00000125
-0.00464557 0.13497845 -0.00000933
-0.36419934 -0.07926169 0.02183170
-0.21955422 0.46463256 -0.12647576
-0.10547465 0.54535792 0.00895924
-0.14336890 -0.20812575 0.00000219
-0.11835203 0.03396041 0.00000085
-0.06716472 0.32982604 0.00000687
-0.59527303 -0.77235657 -0.00000354
-0.40179922 -0.17004673 0.27083904
-0.34132469 -0.79052180 0.00000259
-0.24816043 0.20089297 0.00210444
-0.35822730 -0.06485301 0.23783616
-0.45948049 -0.49986942 0.00000403
-0.32121120 0.02452102 0.02730110
-0.30167005 -0.47844475 -0.00000122
-0.46701832 -0.32748917 0.01147220
-0.21981561 0.26930620 0.17772571
-0.48982427 -0.15004931 -0.15103359
-0.07436182 0.52426793 0.00000304
-0.37636568 0.16591548 -0.17835396
-0.19569710 0.41625779 -0.05762932
-0.24690352 -0.01422332 0.00000334
-0.56841334 -0.40646478 -0.10770827
-0.48925492 -0.38117469 0.04462819
-0.56249851 -0.55800621 0.25697373
-0.17990089 -0.21296991 0.00000246
-0.16783922 0.03130534 0.00000055
-0.22576252 -0.07733556 -0.00000001
-0.32133929 0.02420483 0.19145497
-0.42792159 -0.23310431 0.09021778
-0.12817145 0.49056147 0.08635521
-0.00113146 0.36282601 0.00000219
-0.22042952 0.47314216 -0.13337748
-0.25075792 0.19461697 0.06691248
-0.17696409 0.20794795 0.00000082
-0.10690908 0.54189340 0.07775650
-0.27480219 0.02944969 -0.00000010
-0.25335031 0.18835249 0.14144526
-0.24847188 0.20014081 0.00540620
-0.42428776 -0.22434400 0.38664662
-0.54867468 -0.78258748 -0.00000328
-0.59815959 -0.64409383 0.02114636
-0.01246618 0.54454338 0.00000262
-0.06793423 -0.38955608 0.00000128
-0.05997933 -0.32635376 0.00000053
-0.38755015 -0.13563635 0.03631680
-0.00690627 -0.24540640 0.00000109
-0.33153560 -0.14019333 -0.00000076
-0.21129049 -0.30229088 0.00000253
-0.25670381 0.27053425 -0.05863774
-0.24749067 0.26381681 -0.03982274
-0.13751579 0.50827018 -0.02615150
-0.48655406 -0.22128352 -0.09962497
-0.18365919 -0.30788856 -0.00000019
-0.23531573 -0.75143532 -0.00000133
-0.23363753 0.23594177 0.06533822
-0.58125024 -0.60327468 0.11051207
-0.02840916 0.69294808 0.00000263
-0.24290956 -0.60221529 -0.00000110
-0.41067606 -0.16579149 -0.01666641
-0.39987401 0.17818496 -0.22319876
-0.05579379 0.18346365 0.00000226
-0.24286347 0.21366406 0.16531146
-0.21917419 0.29376155 -0.01486847
-0.38002331 -0.09867839 -0.01219126
-0.53629848 -0.49475528 0.21168201
-0.19169147 0.09533091 0.00000052
-0.32103489 -0.53325871 0.00000292
-0.19944365 0.31848792 0.19490893
-0.09023566 -0.45248260 0.00000011
-0.19060573 0.47350478 -0.08683601
-0.23835920 0.14181125 0.00000537
-0.38658410 -0.13330681 0.09998321
-0.00891147 -0.23650232 0.00000112
-0.19090621 0.33910405 0.08033783
-0.06179600 0.44920167 0.00000197
-0.37242711 -0.09913415 0.22928178
-0.08987141 0.47633500 0.00000307
-0.22024624 0.34979843 -0.05295600
-0.22457267 -0.36337409 -0.00000054
-0.52920977 -0.40387555 -0.04790170
-0.56650137 -0.56766457 0.03854314
-0.42937278 0.13160679 -0.23920413
-0.04757935 0.71742996 -0.02098013
-0.28784455 0.10508096 0.09352464
-0.54876092 -0.42240010 -0.06653162
-0.63621494 -0.73596894 0.11989068
-0.04051977 0.42314921 0.00000205
-0.17692787 0.37286047 0.01285547
-0.01263004 0.26883894 -0.00000658
-0.33298885 -0.11810190 0.00000379
-0.14036665 0.46111597 0.12389552
-0.01586575 0.34488935 0.00000205
-0.12736342 0.07888585 0.00000088
-0.62573698 -0.71067123 0.00765089
-0.10703281 -0.14832778 0.00000203
-0.06531812 0.57941110 0.00000410
-0.32060444 0.02599044 0.12074239
-0.03365469 -0.01460922 0.00000173
-0.14578294 -0.24055056 0.00000017
-0.55393388 -0.53732754 0.12560745
-0.63032797 -0.45801913 -0.17132425
-0.25581184 -0.43335899 0.00000262
-0.45595911 -0.47997283 -0.00000215
-0.08165135 0.48386168 0.00000191
-0.18716193 -0.45167919 -0.00000048
-0.19936860 -0.11821553 0.00000008
-0.09989845 0.55882005 0.05626877
-0.36371120 -0.43617341 -0.00000151
-0.65991269 -0.74691194 -0.03003829
-0.12160191 -0.44925633 -0.00000008
-0.48117385 -0.36167243 0.21522564
-0.18016701 0.16574168 -0.00000346
-0.50686317 -0.42369283 0.23061389
-0.53202261 -0.00401012 -0.31209829
-0.23914475 -0.66571368 -0.00000119
-0.17530669 0.37676974 0.06973457
-0.03986743 -0.57181265 0.00000019
-0.16811773 -0.48497319 0.00000186
-0.58785077 -0.61921044 0.20430526
-0.04881784 -0.65368754 0.00000064
-0.00056395 0.13608005 0.00001046
-0.27613048 -0.48041557 -0.00000107
-0.28200160 -0.14566678 0.00000335
-0.67157764 -0.70987063 -0.07239915
-0.29726006 0.08233481 0.25403243
-0.07352109 -0.42861312 0.00000025
-0.54075747 -0.72134216 -0.00000312
-0.12243811 -0.05486332 0.00000066
-0.24685267 0.39440819 -0.12366888
-0.45288791 -0.22955168 -0.04144972
-0.06176068 -0.10642818 0.00000093
-0.43946248 -0.30678825 -0.00000173
-0.29853697 -0.08920722 0.00000359
-0.06362937 0.45856095 0.00000198
-0.38230663 -0.12298684 0.26032058
-0.25748915 -0.24408835 -0.00000051
-0.16355991 0.40513328 0.01146771
-0.25678958 0.13575531 -0.00000171
-0.06659023 0.55442647 0.00000436
-0.19804504 0.32188074 0.00092275
-0.17402050 -0.16548616 0.00000014
-0.35809329 -0.72428659 0.00000284
-0.35423133 -0.05520194 0.14565457
-0.45987645 -0.24824288 -0.04026755
-0.03404665 0.26238115 -0.00000605
-0.23339999 0.23651613 0.04432792
-0.59599236 -0.63886548 0.21157390
-0.03746273 0.08454986 0.00000194
-0.23734318 0.44549629 -0.14194451
-0.33815265 0.16002617 -0.11459122
-0.20068138 0.40898538 -0.06072215
-0.20441467 0.02278414 0.00000308
-0.10886236 0.53717930 0.00740063
-0.44743919 -0.64708762 -0.00000241
-0.11701503 0.48971800 0.00000071
-0.29183455 0.09544034 0.19400490
-0.16550362 -0.44685875 -0.00000034
-0.24470229 0.15149092 0.00000363
-0.06019226 0.65467846 0.03786111
-0.07457848 -0.07591790 0.00000091
-0.24835367 -0.63821226 -0.00000120
-0.38260291 -0.12370298 0.28061510
-0.06003136 0.54863069 0.00000217
-0.50888941 -0.23458960 -0.12601208
-0.48751903 -0.37699423 0.33412447
-0.32448066 0.01661555 0.31675036
-0.11481464 0.28266808 0.00000290
-0.03378328 0.66093159 0.00000254
-0.18529665 -0.44374243 -0.00000045
-0.06520984 0.01492023 0.00000202
-0.07342101 0.59292752 0.00000317
-0.48407790 -0.57999466 -0.00000251
-0.28295078 0.11689742 0.06844470
-0.18694620 0.07832789 0.00000306
-0.04160092 0.69956181 0.04435694
-0.13891127 -0.66142543 0.00000131
-0.20695541 0.30035669 0.16053084
-0.04900432 0.27614949 0.00000239
-0.03604594 -0.14723433 0.00000101
-0.31700585 -0.33550694 0.00000326
-0.35057000 -0.04637247 0.37647666
-0.40426143 -0.00185338 -0.11310782
-0.66628491 -0.80856246 0.11395951
-0.24394276 -0.08261807 -0.00000013
-0.33585440 -0.01084018 0.30118871
-0.16146133 0.41759621 -0.00479841
-0.27643479 0.03291059 -0.00000011
-0.18588548 -0.06357644 0.00000278
-0.46293689 -0.79864714 0.00000350
-0.10573871 0.27122096 -0.00000372
-0.46008375 0.10973236 -0.27316224
-0.35661877 0.22812837 -0.18780126
-0.15793135 0.38552184 0.00000341
-0.06954413 -0.24606667 0.00000156
-0.44554723 -0.27565615 0.08137280
-0.52092877 -0.37825620 -0.05155778
-0.18259338 0.43121038 -0.04678882
-0.53346415 -0.07446343 -0.26858712
-0.40047408 0.17308820 -0.22082868
-0.53281553 -0.40944549 -0.04993848
-0.59177367 -0.62867643 0.01248790
-0.54890614 -0.47047369 -0.03552691
-0.58137277 -0.34910148 -0.16530228
-0.01161130 0.10822724 0.00000179
-0.33993699 -0.02069472 0.20426197
-0.37317609 -0.10094270 0.31566715
-0.02167336 -0.45337043 0.00000081
-0.09596081 0.07643039 0.00000106
-0.24038126 0.42900389 -0.13599449
-0.27755448 0.12992836 0.02722027
-0.59780332 -0.64323452 0.03976188
-0.17049772 0.42358211 -0.02286087
-0.15165719 0.43386031 0.07166675
-0.50779523 -0.42593492 0.03937463
-0.25319773 0.38787473 -0.12937611
-0.34097418 -0.58968907 0.00000297
-0.33107511 -0.17970534 0.00000366
-0.50863228 -0.23967972 -0.12230183
-0.38354111 0.00721583 -0.08650615
-0.44670046 -0.04950774 -0.14871607
-0.23117280 0.44915596 -0.13464407
-0.45052241 -0.38347901 0.00000418
-0.30450952 0.23294214 -0.10919638
-0.19937681 0.06328606 0.00000312
-0.40730335 -0.74743008 0.00000317
-0.29580299 0.08585200 0.26567087
-0.14234441 0.13322976 0.00000282
-0.02678738 -0.01529211 0.00000131
-0.01582348 0.59281721 0.00000500
-0.37290612 -0.10012732 -0.00008698
-0.22143422 0.42627925 -0.10450620
-0.35056010 -0.04632911 0.13496965
-0.32979285 0.00381205 0.06945049
-0.33003632 -0.53557008 -0.00000150
-0.21176807 0.28873730 0.17006146
-0.51550728 -0.46964560 0.00000451
-0.31205489 0.19245616 -0.09473081
-0.30821826 0.28575913 -0.14933039
-0.41292273 0.11987405 -0.20578154
-0.25101968 0.19398119 0.11496579
-0.40054433 -0.16700585 0.00425476
-0.18266741 -0.01003547 0.00000286
-0.25381113 -0.76161051 -0.00000146
-0.04621914 0.03949860 0.00000192
-0.13415987 -0.20050603 0.00000031
-0.09176764 -0.55991701 -0.00000010
-0.47361538 -0.54521266 0.00000405
-0.30362393 -0.57645437 0.00000271
-0.04837163 0.70739610 -0.01570396
-0.06137980 -0.17172011 0.00000081
-0.30083856 0.07369941 0.16212019
-0.46083945 -0.27496328 -0.02441825
-0.48125178 -0.61580828 -0.00000256
-0.28831506 -0.42051066 -0.00000103
-0.66516618 -0.66201509 -0.09343393
-0.00821543 -0.18317350 0.00000111
-0.15332267 0.37058136 0.00000335
-0.00049408 0.50594867 0.00000245
-0.28466244 0.14950409 -0.02386208
-0.26426012 -0.54293319 0.00000248
-0.48522333 -0.37144630 0.15690034
-0.33995813 -0.02074813 0.26063934
-0.37698647 -0.58979483 0.00000324
-0.26287448 0.36567855 -0.13013197
-0.60660858 -0.69450897 -0.00000346
-0.00380885 -0.26864179 0.00000103
-0.24865949 -0.22154626 0.00000296
-0.52537583 -0.60955798 0.00000432
-0.15660350 0.36091542 0.00000336
-0.37586530 -0.22063369 -0.00000118
-0.07962170 -0.14168617 0.00000184
-0.04952354 0.31082571 0.00000246
-0.55399034 -0.53746284 0.10138666
-0.25500933 0.22490361 -0.02633357
-0.33228561 -0.02611067 0.00000396
-0.19846827 0.12950744 -0.00000358
-0.20538386 0.30414850 0.18811885
-0.47801064 -0.35403952 0.31846095
-0.28408085 0.11416242 0.01622761
-0.16787756 -0.42613042 0.00000197
-0.37826521 0.02024754 -0.08669762
-0.53049754 -0.74829864 0.00000410
-0.10352638 0.16007195 -0.00000587
-0.24698888 -0.68318620 -0.00000127
-0.25115756 -0.51064387 -0.00000097
-0.21371014 0.28404764 0.14289770
-0.06539460 -0.38784321 0.00000038
-0.63076408 -0.72280972 0.12537746
-0.61714379 -0.68992829 0.19296743
-0.26692873 0.39564305 -0.15595904
-0.54421579 -0.51386402 0.08071341
-0.07642374 0.14472371 -0.00000698
-0.66424982 -0.40961862 -0.25597372
-0.48945024 0.06738109 -0.29170724
-0.42135987 -0.74841890 0.00000328
-0.58066558 -0.60403648 -0.00000314
-0.33453485 -0.24938679 -0.00000099
-0.25234652 -0.58083367 0.00000231
-0.20534152 -0.15712644 0.00000275
-0.24947303 0.19771796 0.07897222
-0.40527114 0.09852077 -0.17990503
-0.63637227 -0.73634760 0.01753621
-0.01498064 0.55537853 0.00000245
-0.14465624 0.09243016 0.00000080
-0.37379540 -0.10244215 0.33860780
-0.63222185 -0.41556242 -0.20187800
-0.38620723 0.22299467 -0.23087513
-0.57842613 -0.05764646 -0.35003300
-0.16975269 0.39017544 0.10330244
-0.15621083 0.29471499 0.00000111
-0.48200121 -0.38509956 0.00000441
-0.33962532 0.21914449 -0.15531247
-0.24875560 0.33811031 -0.09007787
-0.30970478 0.30130976 -0.16176378
-0.36822975 0.17983002 -0.17463517
-0.08898143 0.31532233 0.00000657
-0.55816527 -0.77358708 0.00000426
-0.09156951 0.57892487 0.09073306
-0.24332693 0.21254392 0.22706046
-0.14637987 0.01809919 -0.00000724
-0.45689347 -0.30304619 0.02682804
-0.43319919 -0.63076118 -0.00000230
-0.02301222 0.41104346 -0.00000360
-0.39793613 -0.24911383 -0.00000137
-0.08149968 -0.05541923 0.00000090
-0.12613743 -0.03501597 0.00000067
-0.66121292 -0.75261944 -0.02836958
-0.07447407 -0.32693306 0.00000044
-0.05001467 0.50374530 0.00000282
-0.24298809 0.21336310 0.16736590
-0.08899302 -0.43715868 0.00000135
-0.51810160 -0.00436934 -0.29002943
-0.06899236 0.24330784 0.00000248
-0.35505293 -0.79894206 0.00000268
-0.30734885 0.27675887 -0.14211946
-0.17509337 0.51022635 -0.08636219
-0.57747170 -0.09746403 -0.32266761
-0.62514746 -0.47348778 -0.15314921
-0.09483792 0.57103555 0.05126168
-0.06338610 0.14161704 -0.00000743
-0.22450039 0.04456695 0.00000328
-0.16025324 -0.61451286 0.00000156
-0.43661656 -0.46869206 -0.00000201
-0.14867006 0.23296319 0.00000104
-0.04862321 -0.02836075 0.00000115
-0.06845834 0.63472369 0.00501905
-0.55344503 -0.57005627 -0.00000291
-0.63077144 -0.72282745 0.07627919
-0.32464063 -0.79980457 -0.00000196
-0.25628960 0.18126486 0.03717630
-0.31076897 -0.27422549 0.00000333
-0.18801678 0.34607567 0.18976833
-0.67036419 -0.50084643 -0.20629486
-0.02874069 0.26661962 0.00000222
-0.10742602 0.10788157 0.00000852
-0.19138516 -0.48193300 0.00000204
-0.32922479 -0.43882614 0.00000316
-0.09348010 0.46100050 0.00000180
-0.23757555 0.23425042 -0.00506681
-0.43447178 -0.24893005 0.38722643
-0.23434848 0.22005785 0.00000457
-0.47491897 -0.40763620 -0.00000213
-0.38715983 -0.09061399 -0.02862379
-0.15000036 0.44419782 -0.00410525
-0.20807272 0.29767014 0.02533769
-0.15554596 0.45907273 -0.02246772
-0.55751576 -0.16958008 -0.24451537
-0.33532561 -0.00955714 0.22053316
-0.32472877 0.01602353 0.15227310
-0.30091992 0.28113434 -0.13487683
-0.31174310 -0.13355887 -0.00000063
-0.22040446 -0.37752395 -0.00000054
-0.39822018 -0.16139744 0.06561535
-0.17976738 0.01460038 0.00000288
-0.06122083 0.12754167 0.00000927
-0.00404675 0.51634377 0.00000244
-0.18006551 0.23313742 0.00000085
-0.42063484 -0.40646038 -0.00000180
-0.21011061 -0.08561656 0.00000007
-0.26017842 -0.07708498 0.00000332
-0.39372232 -0.15055030 0.34184593
-0.06243753 -0.16516698 0.00000166
-0.57492317 -0.68324731 -0.00000325
-0.13625551 0.47104094 0.13802971
-0.08442815 0.59616553 0.08714841
-0.43868540 0.02153822 -0.18229882
-0.12941367 -0.20296061 0.00000034
-0.32791227 0.00833974 0.10802711
-0.20393502 0.29893470 0.00000360
-0.24083155 0.21857319 0.07975215
-0.00900668 0.17180494 0.00000189
-0.08832882 0.45356549 0.00000302
-0.25257454 0.19022215 0.09940935
-0.07208760 0.45220053 0.00000191
-0.21390964 -0.14882722 0.00000283
-0.48250637 -0.62099532 -0.00000258
-0.11015339 0.06701737 -0.00000742
-0.11834243 -0.77985457 0.00000093
-0.45240341 -0.28147409 -0.00695682
-0.50272517 -0.10467053 -0.20074968
-0.35786602 -0.06398342 0.29939855
-0.01873985 0.66864186 0.00000110
-0.48040361 -0.42183958 0.00000433
-0.24125614 0.29055626 -0.04741674
-0.03150927 0.41464705 0.00000252
-0.41601002 0.01237942 -0.14078239
-0.55987304 -0.55166384 0.07451300
-0.03394097 -0.13456956 0.00000104
-0.12890977 0.15695188 0.00000751
-0.16397448 0.40411981 0.16909973
-0.43782496 -0.78776344 -0.00000262
-0.48803867 -0.55562667 -0.00000249
-0.07798269 0.37171620 0.00000279
-0.26780438 0.15346318 0.07348582
-0.09504614 0.05753034 0.00000103
-0.10507950 -0.04689294 0.00000220
-0.11321159 -0.07885714 0.00000221
-0.56312285 -0.09124929 -0.30419978
-0.23463175 -0.54425674 0.00000225
-0.16758261 0.39540932 0.15342888
-0.14432227 -0.17890928 0.00000029
-0.08291007 0.52189190 0.00000198
-0.00064374 0.05223538 -0.00001100
-0.44487093 -0.67250590 -0.00000245
-0.04014186 -0.33542313 0.00000117
-0.44138985 -0.32745623 0.00000422
-0.03722431 0.16525262 0.00000209
-0.48521463 -0.56505174 -0.00000249
-0.07195804 0.02055963 0.00000110
-0.23526633 -0.41185313 0.00000250
-0.15834517 0.41771253 0.10718265
-0.44265674 -0.26867755 0.07398546
-0.01410674 0.66667017 0.00000093
-0.59498303 -0.25693391 -0.24652872
-0.07079941 0.61944276 0.00000354
-0.27102752 -0.32302083 0.00000294
-0.51108136 -0.37140058 -0.04056660
-0.22957231 0.24575255 0.14940785
-0.06541495 0.61593279 0.00000369
-0.48517615 -0.04910017 -0.20932796
-0.16518006 0.14958433 0.00000683
-0.34374269 -0.74606577 -0.00000197
-0.30139655 -0.13857979 0.00000351
-0.35696420 -0.06180206 0.28824380
-0.38178277 -0.34892971 -0.00000146
-0.58249735 -0.72182137 -0.00000337
-0.21937854 0.27036377 0.12127530
-0.15124296 -0.42198920 0.00000185
-0.52468220 -0.02878916 -0.28448532
-0.39073298 0.19636966 -0.22067502
-0.31806540 0.03212749 0.02884131
-0.28079199 0.12210250 0.01531088
-0.21309582 0.33362648 -0.03123432
-0.24952860 -0.64758416 0.00000217
-0.12480226 0.36417902 0.00000143
-0.01660359 -0.37245996 0.00000093
-0.27846259 0.12772349 0.07944267
-0.02487074 0.43820672 0.00000654
-0.03928954 -0.55556416 0.00000022
-0.06133804 -0.04036054 0.00000189
-0.42758126 -0.23228963 0.25435145
-0.56951857 -0.57494948 0.05544688
-0.55527252 -0.54055577 0.04157222
-0.31453339 -0.36140282 0.00000320
-0.09317293 0.58699723 -0.00774983
-0.29396490 0.21154430 -0.07875882
-0.20834930 0.47595731 -0.11625923
-0.06982814 -0.42224513 0.00000029
-0.48698592 -0.57283143 -0.00000251
-0.02219140 0.69363080 0.00000297
-0.50085246 -0.22995354 -0.11641851
-0.62517273 -0.38036162 -0.21369110
-0.27141874 0.22650374 -0.05311521
-0.47160398 0.02840670 -0.23839348
-0.47067453 -0.33632806 0.29365189
-0.50541042 -0.42017896 0.07513665
-0.21552731 0.09914917 0.00000039
-0.46054471 -0.69427815 0.00000367
-0.35785457 0.06668027 -0.08485105
-0.55609345 -0.30630547 -0.15345673
-0.16971479 0.34491331 -0.00000041
-0.55467368 -0.53911585 0.22689303
-0.02524257 0.38537045 0.00000713
-0.34508439 -0.03312475 0.27696391
-0.67355905 -0.82612335 0.10904950
-0.05080693 -0.04595707 0.00000180
-0.14694830 -0.28254015 0.00000008
-0.35744676 -0.06296733 0.20777869
-0.03866376 -0.05315145 0.00000169
-0.35880076 -0.33720512 0.00000357
-0.06774023 0.41242734 0.00000593
-0.51456463 -0.53900515 -0.00000262
-0.31082210 -0.58538626 -0.00000147
-0.56878946 -0.57318798 0.02555055
-0.18753581 0.19073951 -0.00000276
-0.38291121 -0.50836193 0.00000344
-0.13302200 -0.18845346 0.00000034
-0.02999161 0.27193663 0.00000224
-0.24206611 0.21558557 0.24765722
-0.51092826 -0.02257498 -0.26695168
-0.44815059 -0.72723530 0.00000352
-0.00026522 0.70392769 0.00000282
-0.58733184 -0.26789460 -0.22740728
-0.55915766 -0.54994086 0.22011831
-0.11403615 0.52468693 0.04702273
-0.38233319 -0.52553410 -0.00000179
-0.34399005 -0.77731812 -0.00000203
-0.23138977 0.24136652 0.10883482
-0.13547247 0.47293935 0.03800556
-0.30386050 0.31134204 -0.15911514
-0.01795218 -0.40400720 0.00000063
-0.50196812 0.04060220 -0.29394255
-0.14641791 0.45933227 -0.00832214
-0.27880669 0.11089717 0.00000486
-0.31013592 -0.21468660 -0.00000077
-0.57540438 -0.58915687 0.00210629
-0.32887199 -0.35594518 0.00000331
-0.48217909 -0.05189432 -0.20281192
-0.11319148 -0.36877802 0.00000013
-0.03625031 -0.05353798 0.00000167
-0.21660829 0.05907607 0.00000676
-0.17262480 0.35924481 -0.00000005
-0.08766697 0.04782428 -0.00000846
-0.25514574 -0.62884093 0.00000225
-0.25012370 0.28368423 -0.05686056
-0.05432708 -0.43258641 0.00000110
-0.30389296 0.03051263 -0.00000226
-0.47731306 0.02954015 -0.24808619
-0.02648115 -0.74776291 -0.00000006
-0.28275586 -0.27766567 0.00000311
-0.05111354 0.64570698 0.00000165
-0.53981452 -0.79235575 -0.00000324
-0.39155157 0.08953266 -0.15254652
-0.35742794 -0.06292909 0.37731807
-0.28632836 0.10873862 0.12724926
-0.07471436 0.04125930 0.00000214
-0.02215085 0.24294102 0.00000182
-0.55915003 -0.54992243 0.20431287
-0.19555294 -0.61951808 -0.00000084
-0.03354917 0.35547449 0.00000196
-0.14448977 0.09151122 -0.00000592
-0.41529346 -0.10702075 -0.06209076
-0.25803066 0.17705537 0.11538670
-0.13930132 0.07975665 0.00000816
-0.21166905 0.39237440 -0.06716390
-0.22303116 0.03737980 0.00000687
-0.46636573 -0.32592081 0.17929411
-0.11425695 -0.34648080 0.00000171
-0.05688856 0.47186205 0.00000204
-0.31428101 0.04124951 0.08708744
-0.00155372 0.13555213 0.00001044
-0.33119647 0.00040546 0.23691647
-0.36371936 -0.07811669 0.34671771
-0.54737171 -0.01740447 -0.32747010
-0.17437699 -0.46842133 0.00000194
-0.49279911 -0.48528375 0.00000431
-0.24325700 0.21271650 0.18001983
-0.27331487 -0.10043836 0.00000337
-0.44656261 -0.27811914 0.35581363
-0.34457549 -0.03188186 0.14332056
-0.12198256 -0.40563420 0.00000000
-0.30971449 0.05227778 0.15797335
-0.44387591 0.10606791 -0.24535933
-0.31100873 0.04914729 0.23230743
-0.23152073 -0.28621391 -0.00000043
-0.03461557 -0.78194818 0.00000029
-0.27795647 0.12894429 0.19720636
-0.16119967 0.20751406 0.00000311
-0.43555754 -0.25154454 0.21656401
-0.29877474 0.11789134 -0.02545249
-0.43729331 0.12921594 -0.25007400
-0.45731851 0.08873981 -0.25518565
-0.23911120 -0.10337347 0.00000311
-0.33687724 -0.29378458 -0.00000108
-0.31937735 -0.11152191 0.00000370
-0.60700227 -0.45239984 -0.13838985
-0.23173406 0.15565750 -0.00000209
-0.29424000 -0.70596919 0.00000240
-0.08194116 0.54167458 0.00000418
-0.07086344 0.14620015 0.00000135
-0.14454724 0.25265899 0.00000306
-0.06642622 -0.46215744 0.00000023
-0.17306477 0.41145981 -0.01901454
-0.10065154 0.42310446 0.00000169
-0.22058197 0.21535671 0.00000057
-0.16337225 0.40557659 0.09394180
-0.57997115 -0.60018783 0.22121090
-0.18668289 0.34930108 0.12535736
-0.27569656 0.13439918 0.20896782
-0.25043487 0.19538678 0.12336185
-0.54254907 -0.74952465 -0.00000318
-0.12752573 -0.27256576 0.00000195
-0.01662612 0.29713383 -0.00000593
-0.18186122 -0.15724146 0.00000011
-0.20956140 0.01595177 0.00000027
-0.02833695 -0.43113867 0.00000052
-0.27200818 -0.35904953 -0.00000081
-0.08540020 0.45961882 0.00000301
-0.17444789 -0.14303856 0.00000255
-0.14338151 -0.67165888 0.00000132
-0.03073526 0.59879606 0.00000461
-0.37934286 -0.09562038 -0.01311073
-0.22869439 0.02400205 0.00000690
-0.47173939 0.00511276 -0.22347419
-0.39065474 -0.14626598 -0.00000113
-0.11204289 -0.45380987 0.00000149
-0.31162098 0.04766150 0.32864194
-0.04881753 0.43864207 -0.00000230
-0.61469314 -0.53328121 -0.09790553
-0.07026007 0.60615144 0.00000370
-0.12963837 0.56129691 -0.04824877
-0.02218902 0.09861204 0.00000155
-0.44564180 0.01765702 -0.19069125
-0.15918089 -0.43506068 0.00000189
-0.27644203 -0.43794727 0.00000276
-0.27343430 -0.14686120 0.00000329
-0.19722416 -0.67941420 0.00000171
-0.53561436 -0.25341022 -0.15570137
-0.09576178 -0.30047164 0.00000166
-0.17816959 0.26776258 0.00000335
-0.04350574 -0.21278960 0.00000084
-0.08526488 -0.01483586 0.00000212
-0.07865256 -0.46473265 0.00000015
-0.19891536 0.31976416 0.19425423
-0.37353647 -0.10181868 0.37715275
-0.47951322 -0.31726222 -0.02622628
-0.38922821 -0.63968475 0.00000324
-0.29411987 -0.56759816 0.00000265
-0.50616435 -0.42199710 0.02755540
-0.22220520 -0.78408939 0.00000171
-0.47197816 -0.33946779 0.11657195
-0.38279990 -0.12418190 0.38506741
-0.56084002 -0.18848639 -0.23744623
-0.56358132 -0.36934534 -0.12424528
-0.37501384 -0.10537123 0.04354571
-0.48167368 -0.38075333 0.00000442
-0.15344875 0.45179334 -0.01444883
-0.53141169 -0.10822553 -0.24343337
-0.46033437 0.08425014 -0.25700003
-0.60089948 -0.65070982 0.05113687
-0.09121693 -0.54060693 -0.00000006
-0.10841646 0.59930629 -0.03965627
-0.01005856 0.46581768 0.00000655
-0.20665388 -0.33355060 -0.00000037
-0.26713299 -0.23764876 0.00000307
-0.28046758 -0.63467711 -0.00000138
-0.26134100 -0.48325318 0.00000257
-0.13149104 0.30165507 -0.00000238
-0.05570870 -0.37505959 0.00000122
-0.61517765 -0.68517893 0.01424063
-0.41222903 0.05964687 -0.16556182
-0.44485455 -0.27399451 0.33266380
-0.18588473 -0.06764757 0.00000278
-0.03747903 -0.29883442 0.00000071
-0.33686822 -0.65064332 -0.00000175
-0.05112362 -0.11019027 0.00000168
-0.39688846 -0.50048773 0.00000356
-0.35741983 -0.22478128 -0.00000108
-0.04938180 0.28622831 0.00000774
-0.23521998 0.02785921 0.00000333
-0.38282325 -0.43947021 0.00000356
-0.68132187 -0.54998683 -0.19155583
-0.24745360 -0.15634755 -0.00000029
-0.43112653 -0.30153001 -0.00000167
-0.36629068 -0.08913265 0.00000410
-0.11898548 -0.54793604 0.00000137
-0.02320904 -0.62058610 0.00000020
-0.32468860 0.21065772 -0.12636862
-0.03137252 -0.75479890 -0.00000010
-0.04455114 -0.43804823 0.00000101
-0.08535894 0.56459602 0.00000385
-0.42362684 -0.11820553 -0.06789469
-0.33481307 0.18159050 -0.12336662
-0.20744214 0.29918015 0.17927979
-0.12938011 -0.61549992 0.00000132
-0.57109164 -0.13436582 -0.28868644
-0.47234392 -0.78382012 0.00000359
-0.62771432 -0.48843793 -0.14746238
-0.13007370 0.48597486 0.01421928
-0.00515947 -0.56362982 0.00000048
-0.12818323 0.11018103 0.00000267
-0.60870937 -0.12899134 -0.35117957
-0.18006992 0.36526571 0.07035058
-0.37115564 0.03709715 -0.08649351
-0.46936060 -0.33315056 0.16668164
-0.24505985 0.20836472 0.08957943
-0.38272737 -0.17919285 -0.00000115
-0.22298745 -0.09674737 -0.00000003
-0.04205339 0.05882628 0.00000136
-0.21738841 0.10961533 -0.00000338
-0.19539654 0.04831306 0.00000041
-0.42396929 -0.22356405 0.12537294
-0.07560770 0.21787368 0.00000795
-0.02706717 -0.44513079 0.00000087
-0.35551784 -0.61519935 0.00000303
-0.56710588 -0.43584512 -0.08656975
-0.16026012 -0.19660138 0.00000234
-0.61497957 -0.62472190 -0.03894754
-0.21119671 0.16066013 0.00000573
-0.51527760 -0.08188746 -0.23523922
-0.10329263 0.07190369 -0.00000753
-0.27966282 0.03006168 -0.00000300
-0.26389023 0.16290775 0.13479633
-0.25223080 -0.68894576 0.00000211
-0.23565696 0.23106788 0.03054435
-0.37754750 0.22047519 -0.21565529
-0.36190663 0.04825679 -0.07923713
-0.40846192 0.03973744 -0.14672179
-0.43659340 -0.02197060 -0.15075402
-0.29973899 -0.21335250 -0.00000071
-0.20109672 0.31451253 0.01196188
-0.48622826 -0.77252018 0.00000372
-0.44328543 -0.64977319 -0.00000239
-0.34967348 -0.04418848 0.13257390
-0.15691298 -0.50574724 0.00000174
-0.40037954 -0.52100458 0.00000354
-0.26304535 0.16494977 0.10544883
-0.55911728 -0.54983794 0.04346662
-0.16371606 0.40474631 0.13633546
-0.49311143 -0.75468164 -0.00000289
-0.38433657 0.17493912 -0.19672035
-0.23652663 0.28999320 -0.03963663
-0.25385102 -0.70543240 0.00000209
-0.61375649 -0.68733929 0.00000484
-0.67731006 -0.49187470 -0.22301784
-0.15857388 -0.31686996 -0.00000005
-0.49940787 -0.44363235 0.00000444
-0.18405325 0.35565349 0.07537683
-0.01197432 0.72308279 0.00000361
-0.60184473 -0.30879537 -0.22359756
-0.30707306 -0.02055228 0.00000378
-0.26452471 -0.40051417 0.00000274
-0.03297113 0.33360446 0.00000755
-0.18605953 0.16350365 -0.00000332
-0.56868018 -0.78533800 0.00000432
-0.04704031 0.51029790 -0.00000101
-0.43774042 -0.25680996 0.10914782
-0.03418902 -0.76108843 -0.00000013
-0.28148687 0.12043182 0.06527275
-0.23858369 0.40334536 -0.11650458
-0.12256693 -0.18461286 0.00000041
-0.00518179 0.41174798 0.00000231
-0.13826870 0.33061520 0.00000129
-0.46700841 -0.73679511 0.00000364
-0.49754876 -0.40120755 0.32210903
-0.05795738 0.26787441 -0.00000523
-0.48794638 -0.48343443 -0.00000235
-0.08406674 -0.50547478 0.00000119
-0.49806999 -0.40246418 0.23195834
-0.05192450 0.40072879 -0.00000292
-0.18181205 -0.37821538 0.00000216
-0.71226208 -0.80368213 -0.07526302
-0.05761512 -0.03755023 0.00000108
-0.49289919 -0.38998276 0.29420167
-0.23394083 0.24099578 -0.00374827
-0.28799002 0.10472028 0.12339224
-0.31910398 0.02960727 0.05246916
-0.22677109 -0.01707211 0.00000010
-0.43100428 -0.34180608 -0.00000174
-0.66083348 -0.79540186 0.09246674
-0.48928764 -0.38126393 0.32024742
-0.56694256 -0.56873480 0.21894958
-0.17483110 -0.13468133 0.00000257
-0.39642903 -0.15707946 0.21302110
-0.48400214 -0.41738216 -0.00000220
-0.52221319 -0.12835854 -0.21592598
-0.08776943 0.65283390 -0.04204933
-0.50576545 -0.42103352 0.01473460
-0.29123199 -0.50886297 0.00000274
-0.14627230 0.27887343 -0.00000236
-0.41153571 -0.55057178 0.00000357
-0.15876204 0.39826708 0.00000129
-0.58681197 -0.53506087 -0.05301916
-0.54066516 -0.49808157 -0.00466507
-0.22774461 0.09927339 -0.00000327
-0.24576871 -0.36348777 -0.00000066
-0.12964987 -0.58689495 0.00000138
-0.12265215 0.56801651 -0.04165684
-0.27499517 0.29727186 -0.10469894
-0.19718274 0.32395316 0.11748800
-0.35470517 -0.05635100 0.26579323
-0.22856091 0.18963114 0.00000358
-0.53257404 -0.54370945 0.00000450
-0.45899221 -0.30811440 0.05964663
-0.46458696 -0.02023024 -0.19579112
-0.33558771 0.11785468 -0.08317367
-0.10080443 0.58458960 -0.01815706
-0.53050773 -0.28369480 -0.12801658
-0.03749466 0.68866781 0.00000307
-0.19084916 0.33923928 0.13962241
-0.43509751 -0.47143204 -0.00000201
-0.14563086 0.37998531 0.00000133
-0.30472389 -0.21066308 -0.00000073
-0.36503396 0.05250880 -0.08690462
-0.14854518 0.41296217 0.00000023
-0.50182805 -0.41152757 0.01000668
-0.13834539 0.42015178 0.00000005
-0.24946784 -0.24095703 0.00000293
-0.11330893 0.52644268 0.08151071
-0.36560726 -0.05464325 -0.01818921
-0.19590177 0.02929926 -0.00000554
-0.03013699 -0.62892312 0.00000014
-0.21637163 0.31944177 -0.02715674
-0.03778961 -0.46605596 0.00000091
-0.55298851 -0.12826118 -0.26425869
-0.14582936 -0.18634334 0.00000225
-0.03156733 0.04595602 -0.00001019
-0.20013739 0.31682225 0.09041433
-0.68856261 -0.79820474 -0.04165021
-0.22537357 -0.66150383 0.00000196
-0.28174595 0.24423582 -0.08082968
-0.08921086 0.43512292 0.00000299
-0.27941736 -0.32786474 -0.00000080
-0.30394291 0.06621357 0.13113318
-0.16122035 -0.59515317 -0.00000059
-0.27557574 0.13469749 0.12610910
-0.18158826 0.14393877 0.00000067
-0.25690020 -0.35856622 0.00000277
-0.52905298 0.01349121 -0.31881086
-0.28056206 0.12264657 0.27573719
-0.42919858 -0.23545856 -0.00045666
-0.18442946 0.17639573 0.00000612
-0.39574474 -0.37280247 0.00000379
-0.38278018 -0.25093332 0.00000392
-0.02132794 -0.10306038 0.00000118
-0.47407774 -0.62808088 -0.00000254
-0.41224024 0.10093338 -0.19240342
-0.14044014 0.42229620 0.00000144
-0.12338790 0.15937890 0.00000760
-0.36205899 0.10416390 -0.11579785
-0.51874602 -0.45238025 0.22057397
-0.43762176 -0.25652018 0.03143385
-0.41381623 0.00996278 -0.13577135
-0.30381718 -0.69979730 -0.00000165
-0.11942773 0.48556535 0.00000169
-0.28859772 0.10324565 0.30626738
-0.37796336 -0.72477584 0.00000299
-0.22164747 0.26488499 0.14676671
-0.47482381 -0.44464767 0.00000425
-0.26643670 -0.42810274 -0.00000091
-0.37849061 0.18890542 -0.19662354
-0.65771914 -0.52667616 -0.16968070
-0.08484030 0.25563401 0.00000733
-0.55908306 -0.58206329 0.00000463
-0.14828652 0.36426563 0.00000129
-0.08008285 -0.09646288 0.00000192
-0.30627753 0.06056861 0.16005877
-0.53694233 -0.61207832 -0.00000289
-0.19554998 -0.22459234 -0.00000010
-0.47650514 -0.23231662 -0.07669577
-0.58702275 -0.61721149 0.22380836
-0.64992951 -0.76907804 0.16090465
-0.19576242 0.38561501 -0.03782072
-0.22665729 -0.44510491 0.00000238
-0.25608593 0.18174549 0.08489070
-0.57331241 -0.58411253 0.14693889
-0.57643639 -0.57787365 -0.00893100
-0.01957747 0.04057352 -0.00001065
-0.49550016 -0.39625873 0.20120227
-0.41511429 -0.20218532 0.10628902
-0.30364417 -0.44803455 0.00000295
-0.13626686 0.47101936 0.06537387
-0.45865672 -0.41612897 0.00000418
-0.10247005 0.37735329 -0.00000183
-0.23340590 0.15001689 -0.00000214
-0.45200921 -0.79877630 -0.00000273
-0.16018941 0.06118476 0.00000282
-0.26851400 0.15174045 0.10678468
-0.15703127 0.25137151 0.00000585
-0.39662969 -0.18170188 0.00000415
-0.01993316 0.25483309 -0.00000662
-0.52084743 -0.05160802 -0.26364718
-0.02198935 0.11978753 0.00001019
-0.37616432 -0.10815893 0.28416953
-0.02448766 0.24115034 -0.00000674
-0.34814904 -0.75421632 -0.00000202
-0.20393733 0.22198120 0.00000519
-0.20907743 0.35838445 -0.04101647
-0.31509628 0.03927650 0.19953712
-0.28025312 -0.56447870 -0.00000125
-0.15283080 0.19372183 0.00000302
-0.13132319 0.17025725 -0.00000484
-0.16525821 0.40103189 0.02858136
-0.32908532 0.27429967 -0.17461428
-0.37518226 -0.32614324 0.00000372
-0.21648946 -0.07797464 0.00000299
-0.35505386 -0.44634094 0.00000334
-0.49733405 -0.40067825 0.01465610
-0.31728465 0.03399764 0.21287880
-0.25083940 0.25739621 -0.04090783
-0.44543064 -0.25174333 -0.01533589
-0.50127064 -0.02592455 -0.24962587
-0.22460836 -0.68097372 -0.00000113
-0.00650540 -0.01123265 0.00000144
-0.23848603 0.32579191 -0.06596461
-0.01687223 -0.27697253 0.00000111
-0.64230396 -0.75066809 0.01889456
-0.12194966 -0.70257189 -0.00000055
-0.13256634 0.22995178 -0.00000369
-0.52968090 -0.01097321 -0.30390078
-0.60737485 -0.52507118 -0.09176107
-0.12671662 -0.61049499 0.00000131
-0.09440977 0.20669488 0.00000260
-0.25745953 -0.14044440 0.00000318
-0.48367395 -0.02500702 -0.22262190
-0.38626470 -0.61723008 -0.00000199
-0.00498929 0.47513676 -0.00000294
-0.39278777 -0.14829659 0.40055143
-0.09517205 0.47280213 0.00000310
-0.68445827 -0.56304694 -0.18799022
-0.14571840 -0.13590861 0.00000037
-0.43413595 -0.24811090 0.17865802
-0.42439457 -0.22459703 0.27275498
-0.20939810 -0.64958772 0.00000186
-0.39662866 -0.15755827 0.13898584
-0.01623078 0.74036578 0.00000237
-0.46272221 -0.50660484 0.00000404
-0.10006195 0.55842374 0.07599506
-0.61855698 -0.60609909 -0.05665740
-0.35574039 -0.05884180 0.06688436
-0.19836760 0.30396084 0.00000439
-0.22043599 0.26780766 0.21644902
-0.15588335 -0.04794103 0.00000047
-0.09194650 0.18261029 0.00000800
-0.07298195 -0.18013286 0.00000171
-0.03232510 0.07105146 0.00000144
-0.12409908 -0.64817006 0.00000122
-0.19411282 -0.21144736 0.00000257
-0.42346539 0.04420470 -0.17315300
-0.22609966 -0.69630275 0.00000190
-0.48340898 -0.63382919 0.00000396
-0.18856793 0.29094726 0.00000474
-0.16737807 0.02595390 0.00000054
-0.05896509 -0.49721778 0.00000101
-0.31654204 0.15739556 -0.07898623
-0.54412398 -0.37054566 -0.09294764
-0.07516336 0.09013204 0.00000940
-0.21149520 -0.08904839 0.00000293
-0.10816499 0.31377445 0.00000619
-0.50464681 -0.11077872 -0.19979530
-0.50592157 -0.42141051 0.01639729
-0.27273859 -0.55342353 -0.00000118
