ply
format ascii 1.0
element vertex 1382
property float x
property float y
property float z
end_header
-0.46160303 0.27665601 0.00000195
-0.36223029 0.22724422 0.00000432
-0.30009773 0.07279701 0.00000282
-0.02544941 0.35676589 0.00000430
-0.65889787 -0.40144984 -0.00000023
-0.52309373 -0.17232684 0.32292507
-0.23730315 0.30065410 0.08176646
-0.18876176 0.18420037 0.00000341
-0.37230351 0.11642123 0.00000514
-0.14860820 -0.34860963 0.00000147
-0.07184877 -0.75609828 0.00000016
-0.15368901 0.52822745 0.11034348
-0.18000454 -0.77284858 0.00000010
-0.05246493 -0.08950786 0.00000266
-0.22393930 0.09344659 0.00000792
-0.00476362 0.51054575 0.00000810
-0.32235474 -0.73010757 0.00000026
-0.16776846 -0.00179797 0.00000299
-0.70143608 -0.03615270 -0.00000092
-0.36688112 -0.58719752 0.00000024
-0.06551544 -0.15191753 0.00000233
-0.02893023 0.33817877 0.00000422
-0.45547257 -0.12286755 0.00000176
-0.11989064 0.52918547 0.00000619
-0.50131230 -0.73954612 -0.00000053
-0.15000238 -0.35363481 0.00000145
-0.37018200 -0.36173336 0.00000108
-0.42308830 -0.40308340 0.00000149
-0.09136576 0.03391609 0.00000313
-0.51034554 -0.67574276 0.00000047
-0.70443356 0.03343282 -0.00000047
-0.43198752 0.05069308 0.00000189
-0.03665259 0.62772219 0.00000312
-0.30224532 -0.65384203 0.00000009
-0.12616920 -0.15547389 0.00000242
-0.63082306 0.05017991 -0.00000023
-0.30769835 0.14860959 0.00000609
-0.69559890 -0.19610833 -0.00000075
-0.28825667 0.44986691 0.00000369
-0.20518315 0.43774146 0.14794610
-0.21648275 -0.17873733 0.00000200
-0.09049556 0.02334503 0.00000295
-0.08795832 0.13750749 0.00000338
-0.31784605 -0.05591643 0.00000231
-0.38201587 -0.77931913 0.00000008
-0.11728088 0.58744563 0.07846839
-0.24139953 -0.16762871 0.00000201
-0.54273795 -0.30690719 0.22605587
-0.04408959 0.02595046 0.00000303
-0.39653479 -0.74484008 0.00000021
-0.06697388 0.43738564 0.00000454
-0.65326539 0.11932980 -0.00000028
-0.19950752 0.40430269 0.09555108
-0.64594767 -0.67473258 0.09417463
-0.07830906 -0.62621908 0.00000065
-0.56419888 -0.73560103 0.00000024
-0.20778698 -0.30630146 0.00000185
-0.65409359 0.05336560 -0.00000048
-0.33166989 -0.58803940 0.00000079
-0.43359479 0.35193521 0.00000180
-0.42757009 0.06858169 0.00000193
-0.16271927 0.57923925 0.00000491
-0.33143662 -0.15626513 0.00000191
-0.05861980 -0.50238213 0.00000103
-0.59718678 -0.37765200 0.29352751
-0.26343506 0.28459149 0.00000569
-0.56547742 -0.21396221 0.00000065
-0.66161325 -0.73761552 0.06631812
-0.07618144 -0.70622173 0.00000035
-0.25310756 -0.04915237 0.00000243
-0.23600796 0.11012855 0.00000306
-0.45992968 -0.00308299 0.34154433
-0.56799330 -0.35412242 0.24134537
-0.57847096 -0.35793033 0.26522756
-0.48861639 -0.75976463 0.00000015
-0.02631568 -0.04726806 0.00000282
-0.46440052 -0.01770490 0.33729025
-0.26132052 0.34643922 0.19709961
-0.03603982 0.27275467 0.00000397
-0.22346177 0.33050215 0.07779387
-0.16409254 0.41790199 0.01562947
-0.46014076 -0.03920041 0.30196882
-0.13432609 0.00074611 -0.00000833
-0.20218934 0.45608005 0.00000528
-0.15138119 -0.69487894 0.00000039
-0.32452316 0.12800145 0.00000299
-0.05561284 0.57934576 0.00000255
-0.18539636 0.06758821 0.00000325
-0.34057824 0.06673397 0.00000286
-0.77543149 -0.72398433 -0.00000019
-0.08983420 0.19459186 0.00000359
-0.16959363 0.61723947 0.00000443
-0.68691966 -0.41551673 -0.00000052
-0.03489318 -0.25641249 0.00000199
-0.31939644 0.37316313 0.00000288
-0.03076728 -0.35099474 0.00000168
-0.16607265 -0.68882849 0.00000017
-0.38711327 0.37110237 0.00000251
-0.22427956 0.28930178 0.00000395
-0.04625586 -0.01525543 0.00000294
-0.08707273 0.18520649 -0.00000547
-0.49588299 -0.38282046 0.00000150
-0.05910249 -0.50085725 0.00000112
-0.05049276 0.25271401 0.00000395
-0.43688026 -0.28747961 0.00000192
-0.32617123 0.00027533 -0.00000314
-0.39317936 -0.43964945 0.00000135
-0.08770133 -0.41082908 0.00000146
-0.07312159 0.20841798 -0.00000532
-0.48777450 -0.34385138 0.03751168
-0.44886404 -0.15144478 0.00000185
-0.63996317 -0.27336082 -0.00000011
-0.26771812 0.24020226 0.09618879
-0.32891840 -0.55130519 0.00000044
-0.19635448 0.32269757 0.00000059
-0.01746423 0.49677384 -0.00000035
-0.09565270 0.56074505 0.00000496
-0.13890972 0.27754388 0.00000404
-0.54150427 0.21645791 0.00000061
-0.08801247 -0.37652267 0.00000159
-0.06176836 -0.68434224 0.00000034
-0.49632660 -0.31132688 0.00000145
-0.25913970 0.21999539 0.05071142
-0.18457334 -0.26124263 0.00000202
-0.27407193 -0.74005896 0.00000022
-0.45800494 -0.02758534 0.30914746
-0.08055127 -0.71054127 0.00000021
-0.30458765 0.01275765 0.00000305
-0.36788980 -0.31080229 0.00000128
-0.00468434 0.35034622 0.00000431
-0.14970282 0.45364197 0.01674214
-0.56328014 0.00897989 0.00000052
-0.44436125 -0.12676163 0.16230752
-0.57317656 -0.28687277 0.00000061
-0.03182326 0.62834157 0.00000531
-0.01896451 0.74535311 0.00000577
-0.02266457 0.36841185 0.00000435
-0.30168230 0.01829442 0.00000261
-0.37895759 0.37653350 0.00000262
-0.26649897 -0.34263979 0.00000172
-0.17063570 0.47003643 0.09114006
-0.36705457 0.08157047 0.18641676
-0.19876854 0.34148217 0.02374593
-0.23790808 -0.59150148 0.00000078
-0.25417033 0.08889269 0.00000295
-0.74504036 -0.43387759 -0.00000092
-0.30825642 0.20108153 0.00000559
-0.07272446 0.28775055 -0.00000355
-0.39429193 -0.15735783 0.00000241
-0.29696767 -0.79686213 0.00000001
-0.39070296 -0.34220380 0.00000172
-0.15179989 0.52882912 0.10594382
-0.59322716 -0.01994554 0.00000022
-0.09610389 -0.32970373 0.00000176
-0.59805722 -0.69695979 -0.00000052
-0.13797549 -0.37188576 0.00000140
-0.09046415 0.08571122 0.00000318
-0.16223027 0.19902528 -0.00000312
-0.43286058 -0.19108932 0.05995058
-0.36080504 -0.41904564 0.00000143
-0.36199014 -0.22745615 0.00000215
-0.02641787 0.74997755 0.01530549
-0.18239352 0.09550402 0.00000853
-0.29279918 -0.53130034 0.00000057
-0.19956183 -0.05261860 0.00000250
-0.19755185 0.23257434 0.00000387
-0.63892910 -0.57517920 0.18599102
-0.54380598 -0.46876473 0.04902411
-0.43432662 -0.61038676 0.00000071
-0.33829640 -0.39001368 0.00000154
-0.62329868 -0.36783641 0.00000013
-0.40811363 0.21005292 0.00000359
-0.49955009 -0.79238370 0.00000003
-0.32167107 -0.51609863 0.00000058
-0.02908360 0.64382314 0.00000537
-0.25635734 0.15981642 0.00000693
-0.17379531 0.40399175 0.02621242
-0.57814369 -0.34966478 0.27353618
-0.31498762 0.15482245 0.12812155
-0.17912423 -0.50118035 0.00000112
-0.29083777 0.27427630 0.19609495
-0.78053256 -0.44212341 -0.00000089
-0.18024931 0.55464461 0.00000480
-0.44835249 -0.23702540 0.00000191
-0.52717994 -0.19304602 0.31086107
-0.00252202 -0.79821649 0.00000000
-0.63072778 -0.72086461 0.00206171
-0.00807285 0.61767066 0.00000532
-0.16371037 0.07953264 0.00000330
-0.55540165 -0.44459716 0.00000091
-0.00318889 0.66938026 0.00000315
-0.28506441 0.49098533 0.00000337
-0.42088207 -0.54638705 0.00000095
-0.13724618 -0.22812247 0.00000194
-0.11369005 0.43883982 0.00000465
-0.27210069 0.14330814 0.00025489
-0.68100137 -0.76466352 0.08827918
-0.17217842 0.10137881 0.00000312
-0.08530783 0.40536729 -0.00000056
-0.43585052 -0.57063700 0.00000020
-0.06872218 0.42605909 0.00000460
-0.54117015 0.12436623 0.00000183
-0.42719370 0.30055129 0.00000239
-0.19708996 0.46702839 0.00000412
-0.38245236 0.27276927 0.00000227
-0.70588042 -0.09746375 -0.00000093
-0.00561145 0.35459179 -0.00000387
-0.00744376 -0.31585642 0.00000182
-0.42789984 -0.02795567 0.22794775
-0.15376190 0.47595004 0.05243068
-0.58576637 -0.20886350 0.00000043
-0.64600230 -0.76977373 0.00000011
-0.34385108 -0.68325357 0.00000044
-0.13455402 0.12365328 0.00000326
-0.20595861 0.00674835 0.00000884
-0.56355865 -0.39738487 0.18136166
-0.38480309 0.12515546 0.28249108
-0.21523460 0.17301343 -0.00000226
-0.72511766 -0.32980860 -0.00000098
-0.36682797 0.23798948 0.00000413
-0.08514909 -0.33119266 0.00000163
-0.12708674 0.52227578 0.03234774
-0.42339537 -0.12190192 0.11145154
-0.32083623 0.24416088 0.00000495
-0.51012000 -0.63631413 0.00000061
-0.12841198 0.56258071 0.08070091
-0.34214437 0.10754214 0.00000580
-0.07303626 -0.28617002 0.00000182
-0.52433596 -0.36397825 0.00000118
-0.08145821 0.45351433 0.00000470
-0.43382847 -0.58841554 0.00000079
-0.26409038 -0.31952558 0.00000180
-0.06279840 0.13354855 -0.00000729
-0.66567903 -0.64438793 0.18084606
-0.28918125 -0.57990814 0.00000083
-0.36622469 0.03111189 0.12810313
-0.38532847 -0.04306922 0.09692646
-0.40706119 -0.62684107 0.00000065
-0.38275780 -0.63656858 0.00000061
-0.47357707 0.11975711 0.00000140
-0.25733058 -0.75432934 -0.00000022
-0.10222412 0.16958311 0.00000919
-0.77062128 -0.31424633 -0.00000121
-0.52182346 -0.50925144 0.00000109
-0.62925580 -0.50099594 0.24248627
-0.79327477 -0.16343843 -0.00000159
-0.09967558 0.36467299 0.00000422
-0.04832800 -0.32771491 0.00000177
-0.47541737 -0.54798477 0.00000095
-0.11715833 0.57433655 0.00000490
-0.42175147 0.36580543 0.00000190
-0.37647017 -0.26680116 0.00000200
-0.53911898 0.05163141 0.00000075
-0.11574550 -0.11202649 0.00000241
-0.36612663 0.16930188 0.28144362
-0.41899934 -0.79516766 0.00000002
-0.48102110 0.01419011 0.00000139
-0.66106599 -0.66895184 -0.00000007
-0.46727990 -0.77058197 -0.00000059
-0.27043665 0.31929550 0.19139205
-0.38002845 0.36034129 0.00000224
-0.22460544 0.13191020 0.00000316
-0.54323413 -0.65498606 -0.00000028
-0.59356941 -0.54130935 0.10192319
-0.41008323 -0.59015766 0.00000017
-0.10282264 0.23130069 -0.00000400
-0.13542485 -0.62601699 0.00000065
-0.26399428 0.19012789 0.00000654
-0.24858398 -0.61777199 0.00000068
-0.09690668 0.18839079 0.00000356
-0.05866614 0.21639307 0.00000372
-0.44651258 0.13500971 0.00000355
-0.47516602 -0.50688069 0.00000110
-0.27509260 -0.41276280 0.00000104
-0.14240535 0.47228296 0.01788705
-0.25890072 0.35974008 0.00000353
-0.19272542 -0.37300485 0.00000160
-0.19749205 0.39248204 0.07699923
-0.58149623 -0.60705293 0.00000072
-0.22999914 0.28605937 0.04594637
-0.43178950 -0.17596605 0.07388544
-0.10641060 0.23641643 0.00000862
-0.17942597 0.39873379 0.00000435
-0.61386762 -0.57386402 0.12020588
-0.62692280 -0.06711106 -0.00000011
-0.61409999 -0.44928801 0.00000028
-0.51026882 -0.19707358 0.26100735
-0.17286710 -0.44937693 0.00000105
-0.46951439 -0.73561392 -0.00000047
-0.10531511 -0.71944067 0.00000030
-0.20412034 0.20944535 0.00000379
-0.41129913 0.08994321 0.31445051
-0.52705079 -0.24833434 0.00000108
-0.08641049 0.14349983 0.00000341
-0.79717373 -0.60393040 -0.00000049
-0.07119779 -0.77244274 -0.00000000
-0.58050630 -0.70271406 0.00000036
-0.25686942 0.42987064 0.00000447
-0.12771175 0.17023570 0.00000880
-0.65260575 -0.73530141 0.04472055
-0.60188608 -0.52273382 0.14488502
-0.09418214 0.62869125 0.06233162
-0.38866017 0.34974072 0.00000268
-0.21433881 0.12300832 0.00000314
-0.57305895 -0.32707495 0.28500000
-0.26450812 0.20358282 0.04687456
-0.23394007 0.32728764 0.10233854
-0.16597157 0.18319135 -0.00000337
-0.10828742 -0.15881179 0.00000224
-0.55796357 -0.30787905 0.00000079
-0.10560907 -0.65288809 0.00000055
-0.07127223 -0.52560165 0.00000092
-0.10315692 -0.43272770 0.00000138
-0.23412614 0.04927305 0.00000283
-0.61826636 -0.56967938 0.13665998
-0.04928051 -0.41812465 0.00000143
-0.46582555 -0.12505153 0.00000165
-0.26062235 0.11492024 -0.00000234
-0.30070998 0.03349114 0.00000267
-0.02255668 -0.03405546 0.00000287
-0.51303742 0.20801827 0.00000092
-0.51326287 -0.71488210 -0.00000046
-0.53819833 -0.00319021 0.00000080
-0.15448969 0.48992900 0.06992551
-0.50116963 -0.08788312 0.00000125
-0.46195640 -0.12874547 0.20731528
-0.04276335 0.19740201 0.00000374
-0.21016773 0.43488986 0.15815140
-0.07101209 0.53738938 0.00000202
-0.47212460 -0.14721147 0.21407525
-0.00009121 0.31084216 -0.00000500
-0.30686181 0.25221341 0.21457046
-0.34419985 0.19902573 0.00000492
-0.14919440 0.47640017 0.04068007
-0.00555144 0.52322738 0.00000495
-0.07937934 0.44201465 0.00000749
-0.22395088 0.07661453 0.00000295
-0.06710004 0.15432025 0.00000983
-0.15806579 -0.76570093 0.00000013
-0.10555924 -0.49890793 0.00000097
-0.66603747 -0.62830652 0.19968162
-0.03746532 -0.47230549 0.00000117
-0.25009564 0.19483249 -0.00000082
-0.43910323 -0.11916017 0.15664747
-0.29645530 0.26289686 0.19852046
-0.29589112 -0.40467950 0.00000104
-0.56620393 -0.27093318 0.32900518
-0.17996299 -0.78452951 -0.00000021
-0.14090637 0.54563036 0.09538629
-0.77590792 -0.29494806 -0.00000126
-0.08649185 -0.69986644 0.00000038
-0.68291274 -0.38429810 -0.00000049
-0.45623583 -0.28598979 0.01719521
-0.01291131 0.32129634 -0.00000442
-0.33806599 -0.18856644 0.00000178
-0.34752368 0.08295356 0.13554448
-0.42228624 -0.03054811 0.21001118
-0.28835551 -0.34882490 0.00000126
-0.31047630 -0.47303777 0.00000123
-0.14324662 0.17413052 0.00000344
-0.16890270 -0.57277374 0.00000085
-0.43340118 -0.03258018 0.23757712
-0.34778058 0.43853181 0.00000253
-0.17254585 0.14127013 0.00000353
-0.01416640 -0.66738702 0.00000048
-0.26017821 0.28518575 0.00000357
-0.10434516 -0.46448415 0.00000126
-0.17647509 -0.15857174 0.00000214
-0.35824213 -0.68085904 0.00000045
-0.34116127 -0.17727465 0.00000234
-0.17413828 0.31606474 -0.00000016
-0.07223237 0.33656565 0.00000839
-0.04399341 0.20356527 0.00000981
-0.49810436 -0.05709887 0.38394244
-0.61054705 -0.20201909 0.00000016
-0.43568531 -0.23306619 0.02087468
-0.56000005 -0.72151243 0.00000029
-0.73078872 -0.01432677 -0.00000125
-0.48324288 -0.49534657 0.00000114
-0.43540363 -0.50649605 0.00000110
-0.19432840 0.28007582 0.00000697
-0.38174366 0.12825020 0.27772145
-0.10623409 -0.19253912 0.00000212
-0.56327064 -0.17540326 0.00000064
-0.50898087 -0.21736394 0.00000125
-0.09610400 -0.12440558 0.00000253
-0.18698037 -0.32532948 0.00000178
-0.09498125 0.16211718 0.00000935
-0.16534934 0.43768264 0.04098897
-0.33057425 0.15618320 0.17145962
-0.41218437 -0.76155101 -0.00000048
-0.18901260 0.29812416 -0.00000016
-0.34148341 0.06210933 0.09616668
-0.36137762 -0.45634183 0.00000129
-0.24746624 0.33208671 0.14396933
-0.57871974 -0.37622142 0.24556536
-0.37831811 0.18791405 0.00000237
-0.46007279 -0.01597864 0.32759434
-0.16827821 0.05831613 0.00000322
-0.05974006 0.41244670 0.00000446
-0.05981713 -0.21502004 0.00000210
-0.50823995 -0.10691191 0.35577405
-0.48663346 -0.69385231 0.00000040
-0.56040912 -0.60233408 -0.00000010
-0.32712027 0.01402078 0.00000695
-0.15002210 -0.68660457 0.00000020
-0.29413947 0.27661816 0.20755936
-0.41490508 0.18144821 0.00000199
-0.26468258 -0.34052795 0.00000172
-0.31642792 -0.27386881 0.00000197
-0.36037524 0.05568853 0.00000593
-0.23399930 -0.09941811 0.00000227
-0.34284853 -0.14673035 0.00000193
-0.18708618 -0.33234369 0.00000147
-0.67447599 -0.70009086 0.14253942
-0.58708071 -0.60933599 0.00890356
-0.65452173 -0.12626277 -0.00000036
-0.01741833 -0.43235635 0.00000135
-0.73332569 -0.36009234 -0.00000105
-0.53693329 -0.35672739 0.00000105
-0.14668444 0.53434836 0.09835203
-0.04971734 -0.43692455 0.00000129
-0.52213650 -0.51366776 0.00000107
-0.25860207 0.10986522 0.00000727
-0.50428471 -0.20739034 0.23348366
-0.55526478 0.21029854 0.00000047
-0.20679781 0.03217659 0.00000281
-0.44224647 -0.25705644 0.01181601
-0.22109408 0.31532987 0.05457576
-0.44538296 -0.39663410 0.00000151
-0.35234753 0.01115275 0.00000649
-0.58382559 -0.49530039 0.12691471
-0.01883666 0.37364583 -0.00000308
-0.47550041 -0.04115934 0.34100579
-0.01340947 0.57931436 0.00000515
-0.19852823 0.20691916 0.00000348
-0.48401081 -0.18734194 0.20136603
-0.03962461 0.02553462 0.00001121
-0.07612771 0.38652498 -0.00000124
-0.66695938 -0.00885019 -0.00000057
-0.33344132 0.16685585 0.19102123
-0.24749752 -0.18074269 0.00000232
-0.44403773 -0.74959683 0.00000019
-0.23827220 -0.45270605 0.00000094
-0.00397700 0.34023518 0.00000428
-0.08987935 -0.48271843 0.00000119
-0.31342544 -0.40339557 0.00000149
-0.38719551 -0.21853271 0.00000218
-0.34232722 0.37436509 0.00000263
-0.26124115 0.19353229 0.02692453
-0.67253051 -0.08981765 -0.00000058
-0.40909556 -0.16782435 0.02204037
-0.36926140 -0.27341462 0.00000197
-0.34609060 0.00025602 0.03979437
-0.55948087 -0.44133574 0.00000086
-0.08184556 0.01871721 0.00000307
-0.51705428 -0.26769021 0.20072733
-0.22292033 0.11271963 0.00000342
-0.13422833 0.48181547 0.00654079
-0.03100632 0.59520107 0.00000707
-0.63146363 -0.68139906 0.04790043
-0.18498757 0.39464006 0.00000618
-0.43284525 -0.47999584 0.00000055
-0.14184157 0.26069503 0.00000790
-0.29640104 0.11252090 0.03124085
-0.08488406 0.09838109 0.00000337
-0.78133006 -0.78605428 -0.00000003
-0.33025557 -0.62778461 0.00000065
-0.29605089 -0.34817071 0.00000125
-0.24091581 -0.23117823 0.00000213
-0.49469025 -0.27487292 0.13273510
-0.25985935 0.31475653 0.15796530
-0.60096588 0.14306135 0.00000051
-0.51027375 -0.40355392 0.00000136
-0.44308874 -0.43058490 0.00000139
-0.36591051 0.38701096 0.00000237
-0.42500484 -0.01545368 0.23407570
-0.55155112 -0.31991099 0.23525090
-0.70817749 -0.62263473 -0.00000044
-0.62438394 -0.50123893 0.22914366
-0.16769679 0.17022542 0.00000339
-0.51343950 -0.67196496 -0.00000029
-0.42030059 -0.00908247 0.22853406
-0.13412161 0.37400210 0.00000440
-0.27229537 0.29894855 0.17376475
-0.01634069 0.61695034 0.00000713
-0.18971979 -0.48724381 0.00000117
-0.12299076 0.14332848 0.00000907
-0.07503231 0.01329374 0.00001077
-0.34309290 0.36029949 0.00000346
-0.02180719 0.55679280 0.00000506
-0.25435175 -0.03551482 0.00000287
-0.53867874 -0.30191175 0.22071608
-0.06861561 0.44927237 -0.00000003
-0.01574139 0.51163315 -0.00000006
-0.00121263 0.65885500 0.00000704
-0.42121431 -0.39442684 0.00000089
-0.17929131 0.12381261 0.00000346
-0.11432880 -0.24613589 0.00000190
-0.13695635 -0.39555419 0.00000152
-0.52512049 0.10782136 0.00000229
-0.17093211 0.31433929 -0.00000028
-0.46910061 -0.07510542 0.28610375
-0.04997935 -0.10718357 0.00000252
-0.21697375 0.40915771 0.14781399
-0.43566798 0.35651125 0.00000165
-0.19579472 0.28781452 -0.00000021
-0.54769409 -0.23516770 0.00000085
-0.18189509 -0.65757963 0.00000026
-0.09824450 0.40378280 0.00000437
-0.33056766 0.01701487 0.01675084
-0.15382063 0.35801835 0.00000699
-0.19230165 0.03451966 0.00000284
-0.14412505 0.39993938 0.00000683
-0.31811276 -0.13435087 0.00000202
-0.40798175 0.02060402 0.22848158
-0.62758787 -0.49682832 0.00000017
-0.00996000 0.62455595 0.00000534
-0.52531025 -0.20821003 0.28899002
-0.00659266 0.49600562 0.00000485
-0.48961114 -0.20154027 0.20061245
-0.28279180 -0.45261567 0.00000130
-0.54731384 -0.37513612 0.00000095
-0.07560434 -0.77454427 -0.00000002
-0.38619589 -0.27718176 0.00000196
-0.36545589 0.13369348 0.24006675
-0.45229088 -0.20097807 0.10109662
-0.11622395 0.19057768 -0.00000456
-0.12856536 0.45116819 0.00000450
-0.04129998 0.03186434 0.00000312
-0.12311109 -0.55153148 0.00000075
-0.23046593 0.37747679 0.14880317
-0.29889969 -0.19900276 0.00000225
-0.08642532 0.19028982 0.00000358
-0.35206706 0.09837844 0.16488966
-0.37868745 -0.39627526 0.00000151
-0.54783553 0.11989541 0.00000061
-0.10412862 0.43176773 0.00000446
-0.41294489 0.35296024 0.00000218
-0.21637637 0.12330724 0.00000781
-0.07767805 0.56715873 0.00000657
-0.16591445 0.48253463 0.09236016
-0.38369074 0.12319496 0.27732734
-0.35564647 0.09152661 0.00000569
-0.50673953 -0.13675448 0.31857931
-0.27518188 -0.60000009 0.00000075
-0.15483910 -0.23015929 0.00000214
-0.34364116 -0.62804363 0.00000064
-0.54587877 -0.48940072 0.03165000
-0.23023955 -0.00117735 0.00000265
-0.18192718 0.07871321 0.00000302
-0.06996756 -0.71780693 0.00000031
-0.50395282 -0.05629555 0.00000120
-0.17933342 0.05484973 -0.00000590
-0.51883909 -0.57356417 0.00000007
-0.29460119 -0.64588070 0.00000058
-0.41067076 -0.57316329 0.00000085
-0.22974470 0.00063951 0.00000853
-0.37293189 -0.52732213 0.00000046
-0.28004338 -0.17799556 0.00000233
-0.33632267 -0.66180634 0.00000052
-0.77352350 -0.07450275 -0.00000167
-0.74272904 -0.33021989 -0.00000117
-0.29652713 0.09095722 0.00761210
-0.37605872 -0.00267703 0.11694728
-0.56334731 -0.29225427 0.29764263
-0.32425190 0.20409844 0.20775696
-0.16143743 0.40163851 0.00000426
-0.13254055 -0.64038723 0.00000060
-0.09233120 0.11661491 0.00000344
-0.35891860 -0.00241108 0.00000271
-0.03262794 0.76056178 0.00000574
-0.44458282 -0.42133515 0.00000142
-0.43922643 -0.12737560 0.14784695
-0.13221427 0.53362854 0.00000477
-0.06043573 -0.74092057 0.00000013
-0.18619498 0.58957215 0.00000415
-0.09050137 0.25903708 0.00000397
-0.34266543 0.10897173 0.15143643
-0.23136887 0.25421771 0.01421881
-0.38133351 -0.73978998 0.00000023
-0.27270121 0.26787334 0.00000566
-0.52828721 -0.41915532 0.00000118
-0.28910307 0.22820348 0.14022827
-0.48360382 -0.03288960 0.00000140
-0.05649537 0.19282579 0.00000372
-0.35910352 0.07188901 0.15431941
-0.21882349 0.00286225 0.00000868
-0.07821730 0.10125613 0.00000326
-0.11959833 0.66527938 0.00000494
-0.30875066 -0.43707056 0.00000090
-0.40728832 0.04954180 0.25878400
-0.06683187 0.67504393 0.04046215
-0.31957847 0.13059823 0.00000602
-0.01226742 0.57147068 0.00000514
-0.16208387 0.49727028 0.00000447
-0.02144315 0.59892323 0.00000206
-0.21424533 -0.07693120 0.00000239
-0.37159132 -0.15349543 0.00000242
-0.16778303 -0.72080774 0.00000030
-0.15667414 0.22567444 0.00000361
-0.23269645 0.34259204 0.00000574
-0.51929650 -0.15835940 0.32826023
-0.40693756 0.03921474 0.24636471
-0.10718023 0.41450306 0.00000024
-0.04166931 0.59396934 0.00000250
-0.62937553 0.07258949 0.00000061
-0.26224590 -0.71641867 -0.00000008
-0.08902542 0.38913813 0.00000774
-0.17531204 0.46397536 0.09694851
-0.10527216 0.34787847 0.00000780
-0.19372356 0.53015793 0.00000411
-0.00490833 -0.62264310 0.00000066
-0.59223673 -0.65102409 0.00000056
-0.19675880 0.35847595 0.03723249
-0.02652286 0.18012383 0.00000368
-0.15003469 -0.24442394 0.00000186
-0.07888123 0.63997552 0.03381493
-0.39397348 0.07646962 0.25298180
-0.78562057 -0.69901931 -0.00000025
-0.15670355 0.03939200 -0.00000686
-0.58562430 -0.35373114 0.00000052
-0.70741230 -0.44773280 -0.00000071
-0.36769320 0.04010226 0.14203693
-0.30496006 0.26257722 0.22098813
-0.24777039 -0.50002893 0.00000112
-0.41918394 0.08806442 0.00000450
-0.00821626 -0.72978361 0.00000025
-0.24334893 -0.14897678 0.00000207
-0.42027990 -0.79421764 -0.00000061
-0.00941212 0.69185639 0.00000559
-0.24028586 -0.58600734 0.00000080
-0.57677712 -0.09732391 0.00000045
-0.12714937 0.56128111 0.07586684
-0.38656815 0.38037149 0.00000244
-0.41160924 -0.12250236 0.07915869
-0.31909813 0.21350127 0.00000299
-0.38802470 -0.78365486 -0.00000052
-0.64637979 -0.40410204 -0.00000009
-0.10740500 -0.23284404 0.00000213
-0.39954689 -0.52991232 0.00000041
-0.09172788 0.31790624 0.00000823
-0.44662459 -0.64240176 0.00000059
-0.10088879 0.17112803 0.00000364
-0.35212504 0.04876171 0.10988629
-0.44179098 -0.03235452 0.26034011
-0.20022664 0.24500421 0.00000714
-0.14009489 -0.18946526 0.00000208
-0.16889716 -0.14157560 0.00000221
-0.34586666 0.09807515 0.14791515
-0.58235256 0.16109587 0.00000021
-0.45170331 -0.14061459 0.00000181
-0.61388749 -0.37286745 0.00000024
-0.48272133 -0.70020447 -0.00000035
-0.28290921 0.22796612 0.12335080
-0.01146631 -0.78214468 0.00000007
-0.35985566 0.01691236 0.00000630
-0.13921520 0.35671563 0.00000413
-0.14993589 0.62893052 0.00000470
-0.00587169 -0.26677877 0.00000200
-0.38548758 0.00511724 0.15089956
-0.45737259 -0.37108004 0.00000161
-0.26582824 -0.01606827 0.00000294
-0.20866390 0.29408170 0.00000665
-0.14529418 -0.13891173 0.00000226
-0.20763276 0.42095936 0.13586470
-0.11022228 0.53192130 0.00000296
-0.10331454 -0.38390322 0.00000156
-0.09505255 0.59007252 0.00000513
-0.78011617 -0.19803640 -0.00000150
-0.09263211 0.60648242 0.03348832
-0.43539395 -0.61097826 0.00000071
-0.36253638 -0.13376864 0.00000250
-0.50947134 -0.64655500 -0.00000019
-0.27592219 -0.49343966 0.00000115
-0.53044820 -0.34890364 0.00000111
-0.59855474 -0.63205965 0.01443525
-0.59089747 -0.46286359 0.18194264
-0.70217070 -0.65486013 -0.00000036
-0.51212651 -0.45144066 0.00000053
-0.48812658 -0.10632978 0.30245126
-0.00122287 -0.05276532 0.00000280
-0.07259245 0.60528315 0.00000516
-0.01296795 0.12493249 0.00000347
-0.45255323 -0.05576976 0.26319325
-0.53100540 0.01186873 0.00000086
-0.32414137 -0.79069562 0.00000003
-0.64219474 -0.78146172 0.00000007
-0.19110659 0.04958034 0.00000874
-0.40368620 -0.06827183 0.00000227
-0.75169091 -0.18923127 -0.00000136
-0.57591354 -0.22914548 0.00000054
-0.18175011 0.33568832 0.00000674
-0.43176026 0.10303659 0.00000186
-0.20738772 0.53646976 0.00000444
-0.01267284 0.62854285 0.00000249
-0.28942428 -0.32939753 0.00000176
-0.17075561 0.18946373 0.00000345
-0.43813951 -0.74111126 0.00000022
-0.27616545 0.42315099 0.00000331
-0.03539991 0.35368947 0.00000433
-0.35232748 0.11793268 0.18732212
-0.12767990 -0.18613128 0.00000211
-0.32036998 0.07747433 0.05658923
-0.27760195 0.18958683 0.06645303
-0.51436992 -0.23910528 0.22529535
-0.54939220 -0.28904828 0.26376047
-0.08975988 -0.43035051 0.00000139
-0.09183853 0.12895251 -0.00000660
-0.24579256 0.53587432 0.00000355
-0.22635128 0.34937965 0.00000580
-0.48604168 -0.20512782 0.00000149
-0.31985739 -0.09232494 0.00000265
-0.48264509 -0.05927081 0.34004442
-0.08087249 0.33227326 0.00000412
-0.17082083 0.22672176 0.00000359
-0.10776936 -0.15155214 0.00000227
-0.00529089 0.39088472 -0.00000306
-0.55680368 -0.44940797 0.10541479
-0.00605458 0.37740788 0.00000441
-0.23346180 0.05997706 -0.00000431
-0.52819839 0.06483643 0.00000262
-0.24873770 0.04471003 0.00000791
-0.79659070 -0.71568424 -0.00000021
-0.70148966 -0.12294365 -0.00000087
-0.57350307 -0.67477540 0.00000047
-0.30695303 -0.43480722 0.00000137
-0.55592620 -0.33118503 0.23445986
-0.33732489 -0.02947595 0.00000238
-0.79431934 -0.57991846 -0.00000055
-0.39361720 -0.30089162 0.00000128
-0.75119517 -0.04439223 -0.00000145
-0.05156335 0.35070619 -0.00000271
-0.01124905 -0.38036158 0.00000157
-0.55471391 -0.35614003 0.20347057
-0.51323488 -0.33389296 0.11689736
-0.29728663 0.17147072 0.09913728
-0.36762006 -0.71639740 0.00000031
-0.30969258 -0.52961164 0.00000055
-0.16470637 -0.18026652 0.00000232
-0.16571177 0.03588913 0.00000313
-0.48290794 -0.08507870 0.31206784
-0.49954149 -0.48591834 0.00000042
-0.58828355 -0.15263482 0.00000036
-0.00290213 0.13413460 0.00001095
-0.54530109 -0.03395329 0.00000074
-0.20254108 0.40569750 0.10523740
-0.32606415 -0.50078448 0.00000112
-0.35451781 -0.40528724 0.00000095
-0.35274782 0.13486583 0.00000268
-0.12732530 0.61822178 0.00000523
-0.31631491 -0.50626394 0.00000110
-0.55018399 -0.78287295 -0.00000077
-0.57805447 -0.46934376 0.14027884
-0.52158613 0.19068058 0.00000159
-0.11960079 0.36947652 0.00000439
-0.46384470 -0.28178808 0.04228197
-0.43946622 -0.61727649 0.00000069
-0.13310419 0.20850033 0.00000378
-0.41593166 -0.09665332 0.11948703
-0.08293835 0.52555492 0.00000208
-0.65175525 -0.11031302 -0.00000034
-0.32590368 -0.07442707 0.00000272
-0.09104285 -0.33714034 0.00000174
-0.20778206 -0.79611517 0.00000001
-0.59920648 -0.44999790 0.21853769
-0.10635336 -0.40778194 0.00000131
-0.26876047 -0.44612495 0.00000133
-0.27091487 -0.36694846 0.00000122
-0.23738802 -0.22848609 0.00000214
-0.19586717 0.24242234 0.00000361
-0.04512261 -0.57418919 0.00000085
-0.05682583 0.24184731 0.00000382
-0.01568832 0.23346712 0.00001001
-0.64246053 -0.71930413 0.00000016
-0.11589207 -0.05931684 0.00000278
-0.19995284 -0.39277428 0.00000123
-0.07351596 0.64844846 0.02883775
-0.49267768 0.16551214 0.00000238
-0.40385976 -0.06983221 0.11690523
-0.59463348 0.18348175 0.00000007
-0.64930244 -0.17096659 -0.00000028
-0.57479897 -0.34187814 0.27321590
-0.25684423 0.35145042 0.19065855
-0.49253771 -0.25014138 0.15444727
-0.16060247 0.32751941 -0.00000027
-0.20568053 0.37939742 0.08443387
-0.33410847 0.03042150 0.04117057
-0.23274553 -0.49305419 0.00000115
-0.14925474 0.12622271 0.00000347
-0.45849379 -0.40990969 0.00000077
-0.43783725 -0.25518225 0.00000203
-0.37407745 -0.75144072 -0.00000038
-0.28778425 0.26575122 0.17842509
-0.02621067 -0.16451625 0.00000238
-0.15547148 0.29790249 0.00000388
-0.15034562 0.32615383 0.00000400
-0.15547923 0.05752198 0.00000922
-0.25841527 0.21515885 0.00000363
-0.12176269 -0.36993699 0.00000161
-0.13549054 0.47096618 0.00000228
-0.25189051 0.38040902 0.00000359
-0.51127328 -0.06060331 0.00000112
-0.29934363 -0.61059800 0.00000026
-0.02708648 0.56131758 0.00000506
-0.14165193 -0.59949210 0.00000054
-0.02403765 0.27598481 -0.00000514
-0.61031169 -0.56380596 0.12184341
-0.27299805 0.17981020 0.04322062
-0.06133800 0.16418175 -0.00000664
-0.49921402 0.08209664 0.00000115
-0.18508376 0.20746770 0.00000350
-0.44027830 -0.31152694 0.00000183
-0.48135843 -0.14694938 0.23914352
-0.37671834 0.02243774 0.00000250
-0.08428593 -0.16310954 0.00000226
-0.52469683 0.16743767 0.00000083
-0.45578060 -0.51412164 0.00000038
-0.50906259 -0.33456782 0.00000133
-0.51227261 -0.16475150 0.30230864
-0.37473211 0.36470620 0.00000281
-0.40280078 0.31172386 0.00000276
-0.38933448 -0.53864897 0.00000098
-0.32965943 0.46111535 0.00000271
-0.33052193 0.03831241 0.04031729
-0.12036749 0.04183743 -0.00000779
-0.08640198 0.64409439 0.05857456
-0.60290533 -0.53713373 0.13161510
-0.39887214 -0.79957288 0.00000000
-0.07027896 -0.46257312 0.00000116
-0.09222727 -0.74374518 0.00000021
-0.23713436 0.37261964 0.16129847
-0.47605741 -0.15237419 0.21888994
-0.25200900 -0.69759864 0.00000038
-0.33275534 -0.04465973 0.00000283
-0.61454178 -0.34078535 0.00000021
-0.46104162 0.00103281 0.34910353
-0.29813862 -0.38179045 0.00000157
-0.04777574 0.08483916 0.00001064
-0.08875553 -0.62794128 0.00000051
-0.24029800 0.01394457 0.00000827
-0.49468960 -0.10438320 0.32222522
-0.28565224 -0.00243261 0.00000299
-0.26151903 -0.37708629 0.00000119
-0.18244387 0.44935593 0.09983922
-0.76906284 -0.05599689 -0.00000163
-0.40862107 -0.44128969 0.00000073
-0.57102995 0.06645148 0.00000179
-0.54078984 -0.36615715 0.15497481
-0.41943293 -0.03318720 0.00000208
-0.11189514 0.57654733 0.00000591
-0.15312550 0.36758114 0.00000415
-0.78494609 0.01093640 -0.00000181
-0.27119694 0.29670623 0.16832513
-0.07179799 -0.78385674 -0.00000005
-0.53706370 -0.74213969 -0.00000059
-0.22842315 0.35032789 0.00000386
-0.40938978 -0.26473257 0.00000139
-0.23047850 -0.17789028 0.00000233
-0.31782420 0.23245549 0.00000512
-0.02834925 0.35185217 0.00000893
-0.52841803 -0.31191288 0.18206790
-0.22812397 0.39835414 0.16572468
-0.13694055 -0.66651481 0.00000029
-0.45023912 -0.01967573 0.29710077
-0.35967210 -0.76200501 0.00000014
-0.03342660 -0.00169882 0.00000294
-0.57543137 -0.40182639 0.20828292
-0.20336939 -0.24427436 0.00000208
-0.26008406 -0.71204120 -0.00000006
-0.08167116 0.11035092 0.00000994
-0.13371591 0.20759203 0.00000358
-0.22699938 -0.41197872 0.00000111
-0.29282795 0.31902700 0.00000320
-0.48144741 0.23946389 0.00000124
-0.28030085 0.15997991 0.00000651
-0.53129786 0.08404089 0.00000081
-0.01883696 0.39039468 0.00000446
-0.26450318 -0.67193945 0.00000048
-0.14302785 -0.06414050 0.00000254
-0.42323605 -0.50294337 0.00000111
-0.45102049 -0.03137639 0.00000174
-0.10550971 0.42706295 0.00000460
-0.26945466 -0.74452447 -0.00000020
-0.18508126 0.09935772 0.00000846
-0.05143257 -0.45549795 0.00000129
-0.25125303 0.52624974 0.00000350
-0.26849298 -0.43342917 0.00000097
-0.49923721 -0.24262011 0.18078348
-0.24615803 -0.44958061 0.00000094
-0.66274395 -0.73493481 0.07233160
-0.43404204 -0.71973365 0.00000030
-0.34608620 0.03197283 0.07503442
-0.21390820 0.17060926 -0.00000235
-0.01020255 0.76449782 0.00000548
-0.09951226 0.21063977 -0.00000456
-0.44095418 -0.60560590 0.00000073
-0.54315727 0.11162257 0.00000191
-0.13690327 -0.62210283 0.00000046
-0.26142073 0.13418093 -0.00000188
-0.03968572 -0.15566082 0.00000236
-0.45239012 -0.07218668 0.24450888
-0.58535209 -0.68840566 0.00000042
-0.53844787 -0.41514987 0.09423739
-0.43727626 -0.50079191 0.00000112
-0.55595278 -0.31828549 0.24886847
-0.53298539 0.14320008 0.00000181
-0.12450899 0.51091190 0.00000487
-0.22142155 0.11232271 0.00000309
-0.15701805 0.13048733 -0.00000480
-0.33135596 -0.64751756 0.00000007
-0.36911214 0.18150349 0.00000460
-0.51441733 -0.46700918 0.00000047
-0.03980019 -0.44605279 0.00000127
-0.34506954 -0.09058544 0.00000214
-0.17655253 0.48611377 0.12488498
-0.09046802 0.63695333 0.06154790
-0.09200164 -0.19566378 0.00000213
-0.25296964 0.36182590 0.19179356
-0.19446414 0.35950769 0.03223059
-0.58326504 0.10003948 0.00000124
-0.27446590 0.04232591 0.00000316
-0.01457039 0.08065319 0.00000328
-0.22026663 0.17453834 0.00000737
-0.36228746 -0.14610633 0.00000191
-0.07155275 0.41112416 0.00000454
-0.14099245 0.32530155 -0.00000085
-0.22517356 -0.09946277 0.00000229
-0.36150186 0.07848358 0.16808528
-0.48102960 -0.27065773 0.10076475
-0.73118361 -0.02319229 -0.00000125
-0.30726152 0.25651586 0.22042664
-0.27508062 -0.67557014 0.00000005
-0.15611735 0.48971195 0.00000586
-0.34953372 0.06295441 0.11871974
-0.07158812 -0.58788270 0.00000069
-0.28874051 0.36846950 0.00000321
-0.34731735 -0.31005754 0.00000184
-0.09548595 0.13173251 0.00000349
-0.43467852 -0.11830665 0.00000198
-0.18299962 -0.13604911 0.00000221
-0.19900556 -0.00741121 0.00000267
-0.40705366 -0.48161363 0.00000119
-0.14823880 -0.47825892 0.00000121
-0.38698323 -0.21369417 0.00000220
-0.02871822 0.48959448 0.00000484
-0.10577707 0.26135439 0.00000398
-0.43048193 -0.05045543 0.20987639
-0.23933445 0.27244418 0.05586293
-0.11710983 0.16594731 0.00000899
-0.42024965 0.03214212 0.27422387
-0.37766371 0.08913326 0.00000245
-0.27994361 0.17099975 0.05207764
-0.04907310 0.51797167 0.00000487
-0.52922425 0.14736661 0.00000079
-0.26224104 0.18306055 0.01796792
-0.19157399 0.45897286 0.13502667
-0.40721045 -0.56321823 0.00000089
-0.31018684 0.22115299 0.18897182
-0.29312347 -0.47329493 0.00000123
-0.14831466 0.23149218 0.00000803
-0.06849548 -0.03107546 0.00000288
-0.13871713 -0.17448533 0.00000214
-0.07079450 0.58406782 0.00000306
-0.40754571 -0.13168560 0.05804833
-0.28157153 -0.54643304 0.00000053
-0.53144935 -0.22791867 0.00000102
-0.16451436 0.46684038 0.00000591
-0.70755373 0.04307957 -0.00000104
-0.23360303 -0.30672279 0.00000185
-0.31972214 -0.71052437 0.00000034
-0.14591184 0.51832914 0.07847168
-0.19012519 0.57052970 0.00000446
-0.25395400 0.31293515 0.00000362
-0.16149654 0.34522105 0.00000429
-0.28673600 0.21096602 0.11471628
-0.70811594 -0.59290929 -0.00000052
-0.49941717 -0.08038866 0.36157949
-0.17575954 0.35006962 0.00000672
-0.26904092 0.39856151 0.00000453
-0.06932802 0.59986714 0.00000645
-0.40664546 0.09302518 0.30538824
-0.05531992 -0.41123383 0.00000137
-0.45226384 0.25171235 0.00000154
-0.43938019 -0.47764874 0.00000121
-0.37984482 -0.02033050 0.10748538
-0.06479537 0.64905613 0.00611336
-0.10852064 0.34746410 0.00000430
-0.24291350 0.31454830 0.11225775
-0.54649412 -0.24445138 0.30555163
-0.25003771 0.37595212 0.00000362
-0.09389580 -0.50701262 0.00000096
-0.23243425 0.30299917 0.00000611
-0.18811321 -0.59588504 0.00000077
-0.31420598 0.11796259 0.00000310
-0.02940261 0.36576169 -0.00000297
-0.58437036 -0.63057711 -0.00000025
-0.58064831 -0.43708522 0.18309281
-0.44799773 -0.46940603 0.00000124
-0.48813772 -0.04452148 0.37117837
-0.14537841 0.44800029 0.00000645
-0.00108833 -0.47269876 0.00000123
-0.38267150 -0.03961401 0.09363738
-0.01819710 0.53264700 0.00000497
-0.54194326 -0.23824136 0.30024255
-0.48985803 -0.18926436 0.21491906
-0.08736933 0.46407158 0.00000461
-0.09530386 0.50389924 0.00000678
-0.20337488 0.05127923 0.00000289
-0.76572910 0.03097076 -0.00000166
-0.30509962 -0.11073997 0.00000212
-0.22985035 -0.47433031 0.00000122
-0.12105371 -0.79402708 -0.00000016
-0.55307103 -0.71086115 -0.00000050
-0.32253475 -0.31761616 0.00000181
-0.03307270 -0.70529473 0.00000036
-0.33822288 0.01921295 0.00000669
-0.35796488 0.02416913 0.00000270
-0.29025751 -0.70947214 -0.00000010
-0.63117906 -0.62888514 0.10550375
-0.03503909 0.57325880 0.00000185
-0.00482468 0.64047775 0.00000254
-0.27316424 0.06030378 -0.00000322
-0.02093308 0.04298237 0.00000316
-0.36463790 -0.16141691 0.00000239
-0.65283662 -0.19567740 -0.00000030
-0.15590745 0.36424155 0.00000437
-0.19195427 0.12036402 0.00000316
-0.23139572 0.50520228 0.00000373
-0.61374198 -0.37266373 0.00000024
-0.01277874 0.77593077 0.00755375
-0.25209378 0.44340255 0.00000444
-0.36256659 0.03234438 0.11965688
-0.46172430 -0.51707912 0.00000106
-0.28726229 -0.28560593 0.00000193
-0.34118973 -0.38815947 0.00000154
-0.35996407 0.15688560 0.25110568
-0.01184942 -0.55548307 0.00000090
-0.38120088 0.08638390 0.00000241
-0.67754620 -0.03191915 -0.00000067
-0.31376130 0.09626781 0.05975872
-0.33629897 0.06786758 0.08865516
-0.26464918 0.48818854 0.00000379
-0.24957364 0.03053426 0.00000274
-0.11672540 -0.40879617 0.00000129
-0.60299099 -0.13341801 0.00000019
-0.25035638 -0.39150319 0.00000153
-0.26854181 -0.28561173 0.00000193
-0.40900899 -0.55089524 0.00000032
-0.18149031 0.44163552 0.08869579
-0.07557100 0.59350139 0.00000523
-0.39785600 0.01888944 0.19939762
-0.13149398 -0.64780395 0.00000057
-0.55052216 -0.61027341 -0.00000012
-0.31018792 0.22394670 0.19207982
-0.09728104 -0.58409162 0.00000066
-0.28603329 -0.08724712 0.00000224
-0.13950448 -0.53202690 0.00000079
-0.44735770 0.02310185 0.33691452
-0.28911191 0.25807557 0.17345598
-0.21086238 0.50958102 0.00000394
-0.58527785 -0.30219755 0.00000049
-0.09742249 0.13191155 -0.00000639
-0.29183534 0.37135110 0.00000317
-0.45374326 -0.16837386 0.14123190
-0.17777963 -0.75082609 0.00000018
-0.74819683 -0.09827478 -0.00000138
-0.48511199 -0.20089747 0.18925442
-0.67034392 0.05449461 -0.00000065
-0.26258437 0.22203864 0.06222543
-0.14615347 0.38554569 0.00000445
-0.54928261 -0.18649866 0.00000080
-0.33203440 -0.14205597 0.00000247
-0.24177316 0.01989046 0.00000820
-0.00156634 -0.20747182 0.00000222
-0.51091718 -0.34362089 0.09986616
-0.63460876 -0.58824614 0.00000016
-0.77654718 -0.35842298 -0.00000110
-0.52890718 -0.37275864 0.11575303
-0.02047583 0.33576396 0.00000423
-0.06555465 0.65564284 0.01547155
-0.08613152 0.42080063 0.00000458
-0.23789699 0.41291293 0.00000372
-0.63583048 -0.60069330 0.14931879
-0.30940127 0.17299811 0.13334187
-0.65580238 -0.69585758 0.00000000
-0.32828560 -0.66559587 0.00000050
-0.12287540 0.44901791 0.00000468
-0.17270284 0.17286569 0.00000810
-0.01488576 0.72427720 0.00000634
-0.43792815 -0.00864624 0.00000187
-0.35280308 -0.43753265 0.00000083
-0.29126931 -0.10073051 0.00000218
-0.02830468 0.15325639 0.00000353
-0.23470724 0.12147788 0.00000755
-0.16702781 -0.21861305 0.00000218
-0.44523030 0.11237967 0.00000171
-0.57902232 -0.55335924 0.04949635
-0.30621714 0.12769401 0.07443231
-0.28564683 -0.04269698 0.00000284
-0.43635155 -0.67791464 0.00000046
-0.01640879 0.61923194 0.00000238
-0.32084838 -0.29325563 0.00000190
-0.49783537 -0.55505187 0.00000017
-0.58450886 -0.16739169 0.00000041
-0.03114159 -0.34807217 0.00000165
-0.46359388 -0.26595100 0.05921118
-0.33566364 -0.65217262 0.00000055
-0.17626643 0.12427327 -0.00000442
-0.03747411 -0.71837483 0.00000025
-0.27911760 0.41987829 0.00000414
-0.01609080 0.57307103 0.00000133
-0.39906943 0.04877187 0.23587468
-0.63348446 0.11563050 -0.00000030
-0.28356667 0.28937434 0.19336748
-0.06833910 0.30218763 0.00000413
-0.32194241 0.16523807 0.00000566
-0.74300862 -0.06936911 -0.00000135
-0.25090525 0.00983151 0.00000814
-0.27482569 0.16170554 0.02800091
-0.66308971 0.08866013 -0.00000060
-0.46605200 -0.46246361 0.00000127
-0.16440666 0.20763664 0.00000378
-0.10161764 0.56308763 0.00936761
-0.06413094 0.68022021 0.00000587
-0.03275055 0.30620246 0.00000415
-0.46983601 -0.19707417 0.00000165
-0.33217010 0.06313534 0.07231557
-0.06576096 0.51291782 0.00000482
-0.38966874 -0.18048491 0.00000232
-0.32826358 0.07983874 0.08039922
-0.05504992 0.01125962 0.00000304
-0.57595731 -0.43639783 0.00000068
-0.21665094 -0.52034432 0.00000072
-0.35530051 -0.47056087 0.00000124
-0.31193860 0.28699515 0.00000302
-0.34977338 0.02577179 0.07802158
-0.33874499 0.10131141 0.13240267
-0.25854399 -0.05040998 0.00000281
-0.19301319 0.59073778 0.00000422
-0.32937043 0.06459288 0.06643707
-0.40879041 -0.20683918 0.00000222
-0.37908174 0.07239339 0.20849007
-0.38238258 0.09823530 0.24607192
-0.60036244 0.13566672 0.00000059
-0.09561717 0.38948160 0.00000764
-0.41804330 -0.10276218 0.11836341
-0.13635268 0.49377599 0.02553459
-0.34550152 0.36557893 0.00000336
-0.39529824 -0.11231346 0.00000239
-0.05915189 0.08452749 -0.00000849
-0.56046933 -0.74358684 -0.00000063
-0.57022515 0.17835800 0.00000077
-0.69181794 0.07377900 -0.00000060
-0.54311967 0.09002593 0.00000210
-0.74246276 -0.38248299 -0.00000104
-0.09438001 0.53288061 0.00000486
-0.30188824 -0.67827921 0.00000046
-0.74946695 -0.08355357 -0.00000140
-0.09429845 0.55656050 0.00000308
-0.38718161 -0.28860473 0.00000192
-0.60365190 -0.42477333 0.25850197
-0.54660809 -0.67196956 -0.00000034
-0.17232460 -0.41677418 0.00000118
-0.03637317 -0.07819568 0.00000265
-0.00657231 0.28908310 -0.00000532
-0.37042341 -0.56615879 0.00000032
-0.19984321 0.33155374 0.01558418
-0.20855104 -0.21391815 0.00000220
-0.20704502 0.35143795 0.05701174
-0.64047007 -0.68933659 0.00000016
-0.56608135 -0.12287269 0.00000058
-0.39071251 -0.79552801 -0.00000057
-0.06087042 0.23856651 -0.00000498
-0.02499638 -0.59259888 0.00000074
-0.53468425 -0.53998148 0.00000017
-0.73641600 0.04752738 -0.00000122
-0.00939760 0.64524415 0.00000541
-0.58097690 -0.69068258 0.00000041
-0.42072172 0.32698504 0.00000183
-0.16495844 0.61584102 0.00000436
-0.74580046 -0.32079803 -0.00000120
-0.63521529 -0.27627178 -0.00000006
-0.02593117 0.71153372 0.00000627
-0.23651526 0.14830018 0.00000356
-0.14625067 0.38120285 0.00000421
-0.65975261 -0.16847025 -0.00000039
-0.70927506 -0.79458542 0.13088844
-0.65281348 -0.71537363 0.06742677
-0.03271268 -0.07101785 0.00000273
-0.39485047 -0.56425106 0.00000088
-0.01435005 0.50156188 0.00000802
-0.03198209 0.48428535 -0.00000023
-0.55064482 -0.42058995 0.00000094
-0.60434149 -0.63430822 0.02746354
-0.01937503 0.26270471 0.00000399
-0.19221187 0.04611346 0.00000875
-0.18548940 0.47969857 0.14173575
-0.14062154 0.51353807 0.05895382
-0.16780255 0.52604912 0.00000530
-0.18139381 0.42898429 0.07437943
-0.56600237 -0.67907946 -0.00000040
-0.13490509 0.33791818 -0.00000073
-0.45603545 0.31104059 0.00000174
-0.04150713 0.58537584 0.00000513
-0.47988396 -0.25417435 0.11601125
-0.04152704 0.43648537 0.00000810
-0.58226037 0.06655327 0.00000028
-0.28006076 0.21805216 0.10468868
-0.52063196 -0.32549233 0.14608272
-0.15579959 -0.75301044 0.00000018
-0.01035900 0.13252402 -0.00000874
-0.27997640 -0.61337751 0.00000028
-0.06433970 -0.25890299 0.00000203
-0.64550013 -0.65230202 0.11790433
-0.16099742 0.05244471 0.00000320
-0.44946087 -0.53585296 0.00000099
-0.17802156 -0.30858560 0.00000184
-0.46087276 0.19171175 0.00000149
-0.09020111 -0.18186092 0.00000218
-0.68040773 -0.12489282 -0.00000064
-0.59239875 -0.46995868 0.17808511
-0.43103829 -0.47522558 0.00000122
-0.33086535 -0.22186539 0.00000167
-0.15887968 0.49763861 0.09027155
-0.10722717 0.59572854 0.06069682
-0.50374040 -0.14578194 0.00000126
-0.55454040 -0.36626709 0.00000086
-0.48159737 -0.79940484 0.00000000
-0.17867517 0.51125224 0.00000523
-0.30237651 0.13013589 0.06685301
-0.12502641 0.34804145 0.00000412
-0.25712361 0.23475887 0.06170039
-0.18298233 -0.78601589 -0.00000022
-0.24546309 0.45081273 0.00000450
-0.04824984 -0.61372345 0.00000063
-0.03491353 0.52103754 0.00000495
-0.71580295 -0.57821977 -0.00000055
-0.05479948 -0.65830544 0.00000045
-0.26947540 -0.24038249 0.00000169
-0.48686647 0.30535845 0.00000120
-0.01440008 0.47177225 0.00000824
-0.40982668 -0.74111677 -0.00000040
-0.70007213 -0.03690633 -0.00000091
-0.55768183 -0.35647991 0.21105656
-0.53204322 0.21807678 0.00000071
-0.22070882 0.25261249 -0.00000032
-0.34293401 -0.44370628 0.00000134
-0.06319471 0.62059443 0.00000533
-0.61838399 -0.75078350 0.00000018
-0.27521768 -0.43738600 0.00000136
-0.21864542 0.29214090 0.02224051
-0.17904178 -0.02027864 0.00000292
-0.39050089 0.12294725 0.29532509
-0.63674174 -0.68734465 0.05545480
-0.46332905 -0.00681154 0.34652268
-0.03665467 0.00938746 -0.00001079
-0.77137418 -0.55039718 -0.00000062
-0.11236664 0.01379334 0.00000305
-0.39393988 -0.47299606 0.00000123
-0.32694808 0.36453198 0.00000280
-0.09248969 0.32872638 0.00000409
-0.25305289 0.31432021 0.13921670
-0.27949475 0.06845002 0.00000283
-0.61521373 -0.50527694 0.20004936
-0.39134132 -0.02956119 0.12806116
-0.16723434 0.49347975 0.00000442
-0.37636041 -0.09214893 0.01831270
-0.14315859 0.46829014 0.00000630
-0.70519280 -0.44323904 -0.00000069
-0.02894734 0.56929533 0.00000513
-0.46458624 -0.45128005 0.00000061
-0.12497710 0.59490195 0.00000549
-0.01103867 0.75822991 0.00000536
-0.43523926 0.03954265 0.32266956
-0.72894943 -0.41923074 -0.00000095
-0.33957816 0.15703758 0.19657058
-0.20510181 0.33803370 0.03689792
-0.30677849 0.20253243 0.15912452
-0.08545960 0.34355253 0.00000416
-0.28672193 -0.05690413 0.00000279
-0.04947427 0.25090598 0.00000937
-0.34646464 0.23077148 0.00000459
-0.68156436 -0.77172605 -0.00000007
-0.54989293 -0.22704116 0.33402226
-0.21948537 0.36381273 0.10415441
-0.23873881 0.19487968 0.00000694
-0.27297202 0.52150366 0.00000327
-0.17267997 -0.54601104 0.00000095
-0.58597506 -0.43594217 0.19865642
-0.26098576 0.51593495 0.00000341
-0.47857803 -0.06287602 0.32512344
-0.06120140 0.24961044 0.00000394
-0.51965065 -0.69268069 -0.00000038
-0.72217083 -0.63406725 -0.00000041
-0.03447886 -0.40606084 0.00000143
-0.15464652 0.40345545 0.00000428
-0.05316703 0.72645251 0.00000548
-0.02891275 0.39589074 0.00000444
-0.35674786 0.01627879 0.08618523
-0.06455673 0.54303838 0.00000197
-0.24880172 0.41871670 0.00000473
-0.04027609 0.03684238 0.00000314
-0.78381908 -0.75401737 -0.00000011
-0.02913149 -0.65539047 0.00000050
-0.23720074 -0.57498031 0.00000084
-0.37900159 -0.02081783 0.00000251
-0.41421059 -0.30872340 0.00000122
-0.30694771 -0.08423327 0.00000222
-0.09364080 0.25739329 -0.00000367
-0.63464255 -0.58868364 0.15947942
-0.29692408 -0.11889803 0.00000255
-0.28443608 0.25334655 0.15565706
-0.48795712 -0.38926976 0.00000080
-0.58623496 -0.38572922 0.25516328
-0.45232334 0.20788434 0.00000157
-0.33916881 -0.01178737 0.00783557
-0.09092116 0.59320313 0.01413380
-0.22585890 -0.34085494 0.00000138
-0.55984280 0.05338985 0.00000053
-0.49564749 -0.07001409 0.36299526
-0.43184167 0.03110412 0.30417483
-0.35180934 0.15951184 0.23214524
-0.48850996 0.00001218 0.00000398
-0.09464458 0.01987249 -0.00000898
-0.13732956 0.44342426 0.00000446
-0.40498173 0.16965664 0.00000402
-0.38999641 -0.03042704 0.12350307
-0.30393802 -0.21160520 0.00000175
-0.60487061 -0.35715747 0.00000032
-0.37042804 0.09304315 0.20822737
-0.20199506 -0.00510485 0.00000298
-0.34881769 0.09613543 0.15367770
-0.06052473 -0.36099479 0.00000165
-0.34099029 0.07634911 0.11067153
-0.38983138 0.25468241 0.00000353
-0.09809438 0.01802883 0.00000292
-0.05784399 0.54543590 0.00000505
-0.53029657 -0.20872848 0.30179349
-0.73235807 -0.66282983 -0.00000034
-0.40574450 -0.06101547 0.13176191
-0.49665147 -0.10041807 0.33189654
-0.31978368 -0.70072781 0.00000037
-0.39322496 0.05082079 0.22246352
-0.69042386 -0.72905984 0.15313422
-0.12966430 0.09902703 0.00000318
-0.72681542 -0.26124474 -0.00000104
-0.05255588 0.06541543 -0.00000910
-0.22015834 -0.13539520 0.00000249
-0.07015866 0.67461738 0.04891477
-0.53338318 -0.30010808 0.00000105
-0.39120489 0.11511039 0.28850325
-0.62751897 -0.47891588 0.00000016
-0.35298342 -0.07719250 0.00000271
-0.41838430 -0.01790811 0.21359000
-0.11578731 0.46024234 0.00000150
-0.45514775 0.23573999 0.00000152
-0.25205081 0.27816125 0.00000366
-0.37721600 -0.19000557 0.00000172
-0.24674329 -0.27906404 0.00000158
-0.77449049 -0.00275899 -0.00000173
-0.62380092 -0.66891518 0.04121452
-0.12661024 0.48362189 0.00000481
-0.50698779 -0.76372455 0.00000014
-0.64824170 -0.74301455 0.02443776
-0.03722409 0.56874747 0.00000181
-0.69661055 -0.35450381 -0.00000066
-0.23811276 0.06154182 0.00000287
-0.04942970 0.59520943 0.00000679
-0.66274526 -0.66160567 -0.00000009
-0.33045422 -0.27590988 0.00000197
-0.30602350 -0.01428751 0.00000248
-0.17004515 0.36598232 0.00000412
-0.25530707 0.29833387 0.12749200
-0.31218762 0.08528174 0.04331073
-0.07656676 0.09665321 0.00000325
-0.18831714 0.44904958 0.11525610
-0.58715306 -0.37305886 0.27170936
-0.68508522 -0.70061523 0.17042408
-0.21734141 0.28695016 0.01296060
-0.18231089 0.03909728 0.00000287
-0.22300530 -0.78915368 0.00000004
