ply
format ascii 1.0
element vertex 1380
property float x
property float y
property float z
end_header
-0.67028477 -0.63840729 0.41885422
-0.27525375 0.47292070 -0.00000060
-0.58099612 -0.33627234 -0.00000047
-0.52793816 -0.29864204 -0.00000031
-0.27726245 0.28800565 -0.00000028
-0.32267346 0.04344673 0.20163579
-0.15278206 0.52865524 0.09547060
-0.64759340 -0.60717795 -0.00000028
-0.45533732 0.20897961 0.28453729
-0.28373142 0.09531324 0.17730117
-0.14007481 -0.40788714 0.00000000
-0.04149200 -0.36107851 0.02592794
-0.64784049 -0.23146198 0.40483081
-0.67593929 -0.67348218 -0.00000028
-0.49781756 0.02363099 0.31108264
-0.15767754 0.52103490 -0.00000018
-0.13365203 0.57492192 0.00000119
-0.44857763 -0.60458820 0.28031172
-0.13662521 0.09868237 0.00000000
-0.60892395 -0.35224570 -0.00000056
-0.07816603 0.52704958 0.04884518
-0.06110150 0.61803824 0.00000181
-0.40235443 0.10556279 0.25142827
-0.05814324 0.53063787 0.00000000
-0.31849100 -0.49217329 0.00000000
-0.26746900 0.44544144 0.00000079
-0.78127815 -0.25156522 -0.00000137
-0.22312236 -0.28950714 0.00000000
-0.49099438 0.07437377 0.00000269
-0.58564512 0.10205488 0.36596577
-0.37836435 -0.03452468 0.23643665
-0.28743039 0.32700658 0.17961314
-0.73478600 -0.01097210 -0.00000170
-0.06658544 0.24468985 0.04160858
-0.36016166 0.27936454 0.22506070
-0.33578376 0.41781320 -0.00000076
-0.73062190 -0.11695296 -0.00000150
-0.20450745 0.58373812 -0.00000031
-0.54246048 0.10780761 0.33897900
-0.02978436 0.63780828 0.00000000
-0.31388583 0.27130451 -0.00000040
-0.04659201 0.39165430 0.02910865
-0.11962119 -0.07077539 0.07475010
-0.32787060 0.34393436 -0.00000059
-0.00391348 -0.75431478 0.00000000
-0.50649353 0.13541504 -0.00000099
-0.11363660 0.45740196 0.07101039
-0.26448105 0.28639338 -0.00000022
-0.63783043 -0.36396271 -0.00000066
-0.44262100 0.27022502 -0.00000095
-0.46887500 0.12948776 -0.00000082
-0.70757815 -0.31013584 -0.00000106
-0.37749275 0.14987898 0.00000361
-0.26369120 0.30451503 -0.00000025
-0.57156528 -0.58519778 0.00000000
-0.48134576 -0.52819863 0.00000000
-0.07072722 0.59753044 0.00000000
-0.24651546 -0.20140901 0.00000000
-0.27465820 -0.08203743 0.00000000
-0.01901807 0.18207817 0.00000898
-0.25298461 -0.00403394 0.15808757
-0.27516270 -0.50151768 0.17194644
-0.17851932 0.52070204 0.11155413
-0.04465147 0.47362815 0.00000000
-0.25066379 -0.29568490 0.15663732
-0.40261297 -0.02427002 -0.00000026
-0.35733713 0.33265332 0.22329673
-0.42636881 0.00478486 0.26642893
-0.05683067 0.51821235 0.03551292
-0.27791881 -0.02148716 0.00000000
-0.03501782 0.62075838 0.00000216
-0.15601914 0.17846166 0.00000697
-0.11117857 0.50051811 0.00000281
-0.48629964 -0.74079709 0.00000000
-0.09212670 -0.36460879 0.00000000
-0.10464800 -0.21218988 0.06539350
-0.43756940 -0.43446411 0.27343281
-0.39627726 0.04501363 0.00000500
-0.56936179 -0.47930268 -0.00000017
-0.04662744 0.28275613 0.00000000
-0.29030335 0.31564153 -0.00000038
-0.41498674 -0.66058742 0.25932110
-0.02425436 0.24581350 0.00000000
-0.26022129 0.16900971 0.16260372
-0.24084096 0.29759656 0.00000377
-0.02051172 0.15887892 0.00000931
-0.20134986 0.13935585 0.12581358
-0.21535398 0.17797788 0.00000000
-0.27716130 0.07006072 0.17319548
-0.31064751 0.28817486 -0.00000042
-0.09454055 -0.74680138 0.05907746
-0.13216408 0.48051487 0.08258500
-0.64492886 -0.05387055 0.40301176
-0.04593257 0.46162722 0.00000000
-0.43476083 -0.71916724 0.27167773
-0.39102443 -0.04187099 0.24434787
-0.25763728 0.09346127 0.00000000
-0.21350031 0.09092798 0.00000000
-0.51550190 -0.55596059 0.00000000
-0.55071561 0.10855940 0.00000097
-0.45760562 -0.52587267 0.28595321
-0.32616864 0.07034657 0.20381336
-0.24298693 0.41559382 0.00000175
-0.24449865 0.14726283 0.15277788
-0.41689901 0.03288692 0.00000481
-0.29636904 -0.11250561 0.00000000
-0.52281881 0.12582446 0.32670604
-0.21297218 -0.62359237 0.13308421
-0.57579718 0.07250543 0.35981191
-0.11476467 -0.05856720 0.07171530
-0.26420514 -0.75522624 0.00000000
-0.03765183 -0.52272068 0.00000000
-0.59845172 -0.03834417 0.37396841
-0.35776222 -0.46897634 0.00000000
-0.49985415 0.26384237 -0.00000119
-0.34638254 -0.23723555 0.00000000
-0.34454986 -0.11297029 0.00000000
-0.23402339 -0.17335001 0.00000000
-0.06614769 -0.15424459 0.00000000
-0.18209068 -0.69565807 0.11378666
-0.52539556 0.04690248 -0.00000091
-0.70269815 -0.02124220 -0.00000155
-0.27885189 -0.34376271 0.17425178
-0.00918654 0.59540745 0.00573721
-0.23899921 0.50716605 0.14934907
-0.23000358 0.34678646 0.14372390
-0.59054149 -0.36507711 0.36902463
-0.20566886 -0.77569337 0.12852043
-0.15042730 -0.48348541 0.09400053
-0.14271204 0.04332646 0.08916875
-0.35943789 0.23502163 -0.00000054
-0.77083052 -0.70812795 -0.00000023
-0.58893514 -0.05725953 0.36802149
-0.24286055 0.24235563 0.15175623
-0.13623368 -0.60707607 0.08513108
-0.00728139 0.36132676 0.00454265
-0.17477237 0.43584167 0.00000273
-0.50487007 -0.79361811 0.31548831
-0.17787779 0.30940717 0.11115410
-0.21081070 -0.39450403 0.00000000
-0.40516254 -0.69721176 0.25318206
-0.33577927 -0.02350523 0.20982542
-0.36499674 -0.43634405 0.00000000
-0.16658585 -0.48361271 0.00000000
-0.61507428 -0.14176108 -0.00000096
-0.02492355 -0.55101882 0.00000000
-0.49889673 -0.40498823 0.00000000
-0.36729971 0.08515288 0.00000489
-0.35342068 -0.18207866 0.00000000
-0.37608645 -0.29340229 0.23501269
-0.64058362 0.12585864 -0.00000154
-0.03805600 0.67716159 0.02377935
-0.23522564 0.31793935 0.14698664
-0.58349493 -0.14973955 -0.00000081
-0.63738350 0.10547949 -0.00000064
-0.38756451 -0.17762371 0.24218549
-0.28106929 0.02686682 0.00000736
-0.48241653 -0.35219512 -0.00000002
-0.06012106 -0.27412033 0.03756905
-0.04662943 0.05635986 0.02912628
-0.02446278 0.13375669 0.01527551
-0.22855550 -0.14549202 0.00000000
-0.67035304 -0.65340411 0.41889682
-0.54188978 -0.48312954 -0.00000004
-0.16049687 0.54237696 -0.00000023
-0.79910673 -0.42189167 -0.00000095
-0.42983820 0.33256111 -0.00000045
-0.62378801 -0.19816218 -0.00000090
-0.66247784 -0.67527377 0.41397565
-0.18110862 -0.79741458 0.11317298
-0.48679661 0.09344382 0.30419583
-0.03961608 0.73035921 0.00000040
-0.31027091 0.08793637 -0.00000007
-0.01815049 0.45924578 0.01134206
-0.50027456 0.06201377 0.31261809
-0.18674931 0.11483449 0.00000000
-0.58180849 -0.78203954 0.00000000
-0.24341354 -0.47433693 0.00000000
-0.20864094 0.24363514 0.00000520
-0.30060211 0.13930095 0.00000526
-0.58356052 -0.54789135 0.36466186
-0.13159695 0.02725726 0.00000961
-0.57538248 -0.60382328 0.00000000
-0.15264529 0.11735603 0.09538653
-0.06034430 0.23080834 0.00000763
-0.01016324 0.35872490 0.00635091
-0.02771290 -0.53008150 0.00000000
-0.35149268 0.12296435 0.21964499
-0.22187799 0.44881315 0.13864996
-0.41187457 -0.40872925 0.00000000
-0.34646698 -0.19809106 0.00000000
-0.45320892 -0.17052619 -0.00000022
-0.37592293 0.13060617 -0.00000042
-0.17119537 0.09727193 0.10696911
-0.36875145 0.11711495 0.00000433
-0.20656734 0.17470199 0.00000000
-0.31466163 0.09292513 0.00000577
-0.49758203 -0.36652054 0.31093461
-0.63881585 -0.50757736 -0.00000041
-0.01002959 -0.64459887 0.00626739
-0.38814162 0.20404506 0.24254429
-0.13357050 0.17961299 0.00000000
-0.46071701 0.05112770 0.28789476
-0.33285671 -0.16204548 0.20799886
-0.48208164 0.06213518 0.30124615
-0.59708833 -0.14015698 0.37311621
-0.64112614 -0.13679693 0.40063528
-0.51851174 0.16628421 -0.00000109
-0.00065705 0.61660145 0.00040744
-0.53307236 -0.20003154 -0.00000051
-0.06327120 0.55455492 0.00000000
-0.33621192 0.45623256 -0.00000071
-0.08649675 -0.00267122 0.05405096
-0.17324674 -0.00465141 0.10826017
-0.41445349 0.00196979 0.25898276
-0.66740028 -0.24354548 -0.00000100
-0.59641857 -0.50617060 -0.00000024
-0.75110000 -0.50460418 -0.00000074
-0.29660403 0.40670556 0.18534505
-0.20353150 -0.28310441 0.00000000
-0.03204651 -0.60383679 0.02002554
-0.57686242 -0.75923095 0.00000000
-0.05900027 0.04314999 0.03686868
-0.28348282 0.16494719 0.17714020
-0.42969956 -0.04393324 0.26851581
-0.53362981 -0.19361116 -0.00000052
-0.33455433 0.40162816 0.20906080
-0.29170621 -0.24972363 0.00000000
-0.06523403 0.00313421 0.04076410
-0.05472911 -0.61955853 0.03419968
-0.39664589 0.31456772 0.00000049
-0.43318933 -0.07074741 0.27069650
-0.38625762 0.00024603 0.24136259
-0.63087067 -0.06291309 0.39422684
-0.04115304 0.03618824 0.02570370
-0.15841100 -0.32214279 0.00000000
-0.32798155 0.46760442 -0.00000075
-0.12267237 0.26556390 0.07665675
-0.75619384 -0.57259637 -0.00000057
-0.40275716 0.10996889 0.00000379
-0.54065134 0.14530177 -0.00000115
-0.26447734 0.11253202 0.00000632
-0.22572111 0.10222801 0.14104271
-0.63757443 -0.53122827 0.39841451
-0.62127706 -0.69894133 -0.00000000
-0.22250367 0.02518634 0.13903079
-0.65979825 -0.30317358 0.41230272
-0.11546299 0.31440518 0.07215168
-0.06457490 0.69154228 0.04035238
-0.07813020 0.18508298 0.04881354
-0.04739472 0.54984439 0.02961649
-0.63792588 -0.09500383 -0.00000114
-0.22550288 0.07620325 0.00000000
-0.40204279 0.25949833 0.25123385
-0.11602533 0.53424653 0.07250322
-0.05617276 0.36547980 0.00000567
-0.55819784 -0.27674215 0.34881340
-0.38428632 0.29781856 0.24013704
-0.32802494 0.31175389 -0.00000054
-0.23354576 -0.11592143 0.14594043
-0.02570709 -0.70409377 0.00000000
-0.63493312 -0.30037396 -0.00000076
-0.27555694 -0.38497668 0.00000000
-0.40679422 -0.00327574 0.25420244
-0.44778435 -0.43846021 0.00000000
-0.35672817 -0.46078353 0.00000000
-0.29565931 0.20038875 0.00000434
-0.54533874 0.04073740 0.34077848
-0.20802975 -0.07606140 0.00000000
-0.04004365 -0.03381403 0.00000000
-0.05883051 0.45821582 0.00000000
-0.61102684 -0.43565640 -0.00000042
-0.36567829 0.15608961 -0.00000042
-0.34594848 0.02335142 0.21618022
-0.72852022 -0.02283045 -0.00000165
-0.21867417 -0.12870560 0.13664732
-0.02432178 0.17534882 0.01519844
-0.06621091 0.31267166 0.00000000
-0.39090339 -0.38640414 0.24427165
-0.68811681 0.03368648 -0.00000041
-0.00724749 0.00469756 0.00452888
-0.13996784 0.36376165 0.00000443
-0.60389408 -0.47711339 -0.00000032
-0.17052260 0.14451622 0.10655788
-0.34220156 0.20958635 0.21383560
-0.22899181 -0.74169460 0.00000000
-0.19640632 0.12910998 0.12273236
-0.57832989 -0.09282008 -0.00000089
-0.00329810 -0.35863863 0.00206095
-0.33342583 0.09652765 0.20835502
-0.22158277 0.14367669 0.13846488
-0.41332592 0.05125772 0.25828419
-0.37994186 0.09579396 0.23741780
-0.08420931 -0.49451333 0.00000000
-0.47698869 -0.19604140 -0.00000027
-0.39878845 0.12983509 0.24919995
-0.33076308 -0.56362122 0.00000000
-0.54631585 -0.58454843 0.00000000
-0.19342153 0.26522543 0.12086135
-0.40733954 0.04489720 0.25454331
-0.15572873 0.29507144 0.09731334
-0.17830049 0.47207818 0.00000205
-0.23995500 -0.39761625 0.00000000
-0.50091043 0.13529958 0.31301560
-0.47335336 0.01400506 0.29579503
-0.12622124 0.39772947 0.07886963
-0.29650164 0.39535678 0.18528188
-0.72645523 -0.59901970 -0.00000050
-0.24086371 -0.55325323 0.15051335
-0.04346480 0.58171097 0.02715771
-0.43993045 -0.79889838 0.00000000
-0.14894026 -0.29958715 0.00000000
-0.04972072 0.71835715 -0.00000007
-0.14644470 -0.12433458 0.09151184
-0.05611396 -0.37436943 0.03506506
-0.12059579 -0.41718092 0.00000000
-0.00886576 -0.55425181 0.00554013
-0.00336203 0.37928922 0.00209372
-0.62281091 -0.32487667 -0.00000067
-0.07935878 -0.09834303 0.00000000
-0.18079103 0.55261553 0.11297510
-0.05747721 -0.26449762 0.03591694
-0.42075261 0.08308506 -0.00000053
-0.04262116 0.24388874 0.00000770
-0.10340089 0.40876279 0.06460922
-0.29375220 0.12253041 0.18355682
-0.37067256 -0.43984662 0.23162961
-0.55041691 0.24503869 -0.00000137
-0.18805786 -0.65910734 0.11751550
-0.10232309 -0.22832712 0.06394069
-0.30180728 -0.67750979 0.00000000
-0.48500731 -0.09846911 0.30307730
-0.22189634 0.06848629 0.00000762
-0.48866678 0.23274738 -0.00000108
-0.46844893 0.23603355 0.00000042
-0.28980869 0.18711642 0.00000467
-0.63021797 -0.74287375 0.00000000
-0.10054270 -0.21801288 0.06282813
-0.01029295 -0.44059167 0.00000000
-0.60031809 -0.48289151 0.37513374
-0.45068115 0.12727615 0.28162750
-0.01682667 -0.30629705 0.01051482
-0.16389513 0.21976519 0.10240925
-0.15263380 0.27552427 0.09537935
-0.36105429 -0.55857128 0.22561925
-0.42524295 0.19384248 0.26573140
-0.45792022 -0.60760850 0.28614981
-0.18090893 0.09538706 0.11304820
-0.17429838 -0.20555419 0.10891733
-0.04413611 -0.45444097 0.00000000
-0.69057604 -0.24521181 -0.00000110
-0.24685817 -0.47471195 0.00000000
-0.28391904 -0.21489973 0.00000000
-0.16254925 0.24458254 0.00000588
-0.41185255 0.25478092 0.00000120
-0.48433079 -0.01828779 0.30265472
-0.49883029 -0.33074186 0.31171472
-0.61268977 -0.66475120 -0.00000003
-0.09310520 0.68333184 -0.00000019
-0.40804216 -0.18374912 -0.00000000
-0.30612866 0.03209413 0.19128918
-0.29860695 0.32107344 -0.00000043
-0.52330243 -0.47051689 0.32700697
-0.39673286 0.16150621 0.00000305
-0.19439219 0.00273581 0.00000000
-0.56797585 -0.08917235 0.35492404
-0.20949047 0.39307039 -0.00000017
-0.31493469 0.32413488 0.19680047
-0.23678931 0.11313858 0.14796729
-0.02042192 0.35046011 0.01275407
-0.58597472 -0.65758801 0.00000000
-0.26206182 -0.56914354 0.16375983
-0.04904942 -0.49087222 0.03065050
-0.11625109 -0.39265167 0.00000000
-0.15182251 0.53605435 0.09487274
-0.66370909 -0.76214604 0.41474469
-0.47695478 0.19468917 0.00000095
-0.23121602 -0.38930766 0.00000000
-0.39259444 0.19196032 0.24532668
-0.59010176 -0.10544564 0.36875040
-0.06387206 -0.28420444 0.00000000
-0.13006103 0.38005459 0.00000434
-0.56210920 -0.24421013 0.35125766
-0.52304097 -0.35776681 -0.00000019
-0.52286066 0.26487030 -0.00000110
-0.05957071 0.42490067 0.00000000
-0.27894179 0.05093171 0.17429999
-0.19624877 -0.34455365 0.12263391
-0.11407673 -0.37881763 0.07128542
-0.08129624 0.48025323 0.00000000
-0.12282377 -0.04773491 0.00000000
-0.08122466 -0.74827925 0.05075649
-0.00150437 0.66578144 0.00000199
-0.78217989 -0.09489252 -0.00000176
-0.55727286 0.03429671 0.00000209
-0.46168637 -0.36599444 0.00000000
-0.17231514 0.38523428 -0.00000000
-0.14420691 -0.67890374 0.00000000
-0.01932296 -0.75391193 0.00000000
-0.01442088 -0.51432024 0.00901146
-0.24770967 -0.57893783 0.15479132
-0.07654541 0.01283393 0.00000000
-0.06422177 -0.60790321 0.00000000
-0.38931696 0.19775843 0.24327865
-0.01620160 0.39684998 0.00000580
-0.33803471 0.24230025 -0.00000046
-0.59981692 -0.02785687 0.37482154
-0.36920447 0.05736867 0.00000532
-0.30183909 0.03903907 0.18861647
-0.25594572 0.43662369 0.15993873
-0.39594962 -0.49771108 0.00000000
-0.46834570 0.27392043 -0.00000021
-0.30489804 0.17716138 0.19052829
-0.11718564 0.33111969 0.07322207
-0.21034410 0.07339037 0.13144194
-0.38776611 0.34053275 -0.00000084
-0.74805456 -0.66297772 -0.00000034
-0.27766651 0.04376933 0.17350289
-0.07143613 0.52255264 0.00000000
-0.36520626 -0.41645878 0.22821377
-0.24242212 0.41621710 -0.00000036
-0.22465279 0.42723229 0.14038181
-0.70701498 0.02083341 -0.00000164
-0.22179983 0.02830174 0.00000000
-0.50309396 0.00079859 0.31437584
-0.09714109 0.65398169 0.06070218
-0.64117835 -0.65494258 0.40066604
-0.24101846 0.30042762 0.15060631
-0.40253324 0.22057925 0.25153824
-0.12919673 0.32602731 0.00000000
-0.02065391 0.37772454 0.00000602
-0.26244359 -0.73948231 0.00000000
-0.67287874 -0.03183346 -0.00000140
-0.06650833 0.26906251 0.04156040
-0.13447874 0.56831426 0.00000129
-0.14042374 0.54351659 -0.00000015
-0.04593200 0.41284986 0.02869657
-0.57050830 -0.40600734 0.35650588
-0.13970861 -0.17010525 0.08730252
-0.35902833 0.24019802 -0.00000054
-0.08498091 0.00025566 0.05310373
-0.06330440 0.51216057 0.03955441
-0.45398161 -0.15785900 0.28368932
-0.53789846 -0.73479538 0.00000000
-0.18164451 -0.57377700 0.11350786
-0.39502361 -0.38278453 0.00000000
-0.56547250 -0.42198114 0.35335899
-0.35359841 0.11583201 -0.00000030
-0.25339050 0.37815952 -0.00000034
-0.14416245 0.49110975 0.00000239
-0.11752182 -0.45610567 0.00000000
-0.13672644 0.64546766 -0.00000031
-0.06963277 -0.07447732 0.04351283
-0.07626826 -0.05959177 0.00000000
-0.05833692 -0.68741271 0.00000000
-0.11280245 0.00546570 0.00001022
-0.45599250 -0.05103421 0.28494616
-0.35249832 -0.22551679 0.22027271
-0.45353235 -0.06172886 0.28340879
-0.10372178 0.49464989 0.00000000
-0.43336684 -0.20055629 0.27080714
-0.33911344 0.13069846 0.00000467
-0.16467391 -0.50243419 0.10290309
-0.31026288 0.46226121 -0.00000073
-0.22184135 0.44911892 -0.00000033
-0.01512175 -0.52184536 0.00000000
-0.04840023 -0.78415412 0.00000000
-0.14814746 0.52146956 0.09257618
-0.27017039 -0.34806007 0.00000000
-0.09028921 0.04595027 0.05640940
-0.02777350 0.13735644 0.01734447
-0.09315070 -0.17305159 0.05820895
-0.72341506 -0.76942792 -0.00000008
-0.51342623 -0.59020387 0.32083512
-0.09069138 -0.41843440 0.05667214
-0.16143973 0.54036573 0.00000124
-0.51703641 0.14413756 0.00000103
-0.75825883 -0.09534385 -0.00000165
-0.07023934 0.13152966 0.04389187
-0.49623219 0.29969188 -0.00000117
-0.25352671 0.04568465 0.00000749
-0.35277451 -0.22029550 0.00000000
-0.22126259 0.27398413 0.13826502
-0.56594829 -0.06110290 -0.00000089
-0.00422830 -0.52328431 0.00264222
-0.20327853 0.02352980 0.00000858
-0.10205278 0.05603086 0.06376071
-0.35772477 0.25245683 0.22353726
-0.19628625 0.44960671 0.12265550
-0.26176398 -0.41696157 0.16357372
-0.05876270 0.30209773 0.00000000
-0.01718477 0.15858921 0.01072786
-0.38409817 -0.28308715 0.24001916
-0.08257679 0.24839416 0.05159334
-0.40921159 -0.14697772 0.25571273
-0.26022698 0.33347110 0.16261079
-0.18500876 -0.59044241 0.00000000
-0.23576442 -0.54091996 0.14732685
-0.38840975 0.39682974 -0.00000094
-0.52453187 -0.04181844 0.32777616
-0.62506966 -0.24365586 0.39060142
-0.01259745 0.69288352 0.00787202
-0.29328957 0.09509362 0.00000614
-0.57656501 0.00461729 0.00000221
-0.23356434 0.19756525 0.00000000
-0.19735211 0.49795884 0.12332261
-0.04723935 0.21899779 0.00000000
-0.03610261 0.18298722 0.02256016
-0.05023895 -0.46486797 0.00000000
-0.35111122 0.26650480 0.21940692
-0.61345289 -0.16161892 0.38334232
-0.34389541 0.24220109 0.21489774
-0.50742568 -0.35566949 -0.00000012
-0.51424340 0.07430810 0.32134490
-0.10671833 -0.58064729 0.06668722
-0.07378902 -0.08419509 0.00000000
-0.65747380 -0.37459819 0.41084992
-0.49529082 -0.12244231 -0.00000048
-0.05874731 0.62509191 0.03671061
-0.22848576 0.29298870 -0.00000008
-0.54707151 0.09591293 0.34186027
-0.37886879 0.24288259 0.23675036
-0.13399994 0.41831578 0.00000370
-0.38652477 -0.61156394 0.24153550
-0.32318844 0.19748432 0.00000386
-0.11893507 -0.79368123 0.07432134
-0.29230281 0.43210257 0.18265768
-0.18783160 0.28626304 0.11737415
-0.09371082 0.12676149 0.05854898
-0.32751244 0.39510724 0.20466041
-0.30974773 0.19912857 0.19355889
-0.34164524 -0.57128337 0.21349073
-0.57513805 0.01557976 0.00000206
-0.54783777 -0.68137289 0.34233856
-0.20478153 -0.31845752 0.12796595
-0.06557903 0.18408962 0.04097969
-0.17007848 -0.14050186 0.00000000
-0.15112195 0.05937578 0.09442444
-0.06083101 -0.30840980 0.03801270
-0.00756584 0.70491920 0.00472782
-0.04613278 0.61874713 0.00000202
-0.64880269 -0.50081439 -0.00000047
-0.41263904 0.23901059 0.25785394
-0.64382420 -0.08043187 -0.00000119
-0.71654015 -0.34804148 -0.00000103
-0.29762398 0.36869594 0.18598317
-0.20986940 0.24903314 0.00000000
-0.46495850 -0.56144934 0.00000000
-0.01005386 0.55020492 0.00000000
-0.64531155 -0.72884842 0.40324851
-0.52067263 -0.64855003 0.32536324
-0.44249075 -0.68973127 0.27650809
-0.58365392 0.05904855 0.36472153
-0.49074362 -0.35380073 -0.00000005
-0.19285463 0.48196954 0.12051344
-0.64738363 -0.10808627 -0.00000116
-0.49206304 -0.56290049 0.30748540
-0.19243548 0.50866489 0.00000117
-0.35447655 -0.58146863 0.22150888
-0.03685315 -0.58286492 0.00000000
-0.09993428 -0.30936753 0.06244794
-0.14985463 0.07071434 0.00000868
-0.20439896 0.01099109 0.12772689
-0.20040886 -0.37154172 0.12523351
-0.11020083 0.58841973 0.06886362
-0.46355558 0.04037018 0.00000379
-0.28439643 0.18857282 -0.00000013
-0.78105786 -0.30558046 -0.00000124
-0.66556724 -0.77701748 0.41590576
-0.03756540 -0.24006541 0.00000000
-0.08412335 0.09725572 0.05256785
-0.00593168 -0.46153764 0.00370665
-0.47397200 -0.78883836 0.00000000
-0.44390304 -0.05351730 -0.00000039
-0.20125763 -0.28753662 0.12576390
-0.10000330 -0.21460848 0.06249107
-0.43517300 0.28603478 0.27193683
-0.25921265 0.19070270 0.16197969
-0.00253474 0.42690723 0.00157756
-0.60129827 -0.45065553 0.37574632
-0.08775647 -0.47979038 0.05483815
-0.61726502 0.06373703 -0.00000133
-0.02996826 0.03641400 0.00000000
-0.61443823 0.01251852 -0.00000123
-0.04951037 0.49874623 0.03093420
-0.13585677 0.37766860 0.08489555
-0.13968706 -0.21974382 0.00000000
-0.52420131 -0.16122657 -0.00000054
-0.04153441 0.22650358 0.00000000
-0.65552101 -0.39713029 -0.00000068
-0.18125780 0.21990795 0.11325930
-0.57275315 -0.76826549 0.35790783
-0.25005773 -0.11446191 0.00000000
-0.15233418 -0.66262386 0.09519212
-0.53922950 0.11811455 -0.00000110
-0.50057664 0.16214298 0.31280707
-0.02390130 -0.63877509 0.00000000
-0.19515794 0.01855995 0.12194214
-0.06429802 -0.25120756 0.04017920
-0.23681000 -0.00327564 0.00000000
-0.67759735 -0.74146373 0.42342332
-0.09254642 -0.17356715 0.00000000
-0.36387962 -0.72961656 0.22738477
-0.32354761 -0.43930070 0.20218170
-0.00053930 0.45846093 0.00033701
-0.45060352 -0.72580378 0.00000000
-0.39726377 0.22766401 0.24824540
-0.56431578 -0.55876547 0.35263587
-0.12977232 0.54693082 0.00000174
-0.30135090 0.14587815 -0.00000013
-0.40554466 0.14825279 0.25341859
-0.67217692 -0.16376998 0.42003851
-0.29459318 -0.43606755 0.18408836
-0.10618798 0.57024185 0.06635597
-0.32090322 -0.41188737 0.20052924
-0.29437831 -0.17766417 0.18395409
-0.29452540 0.02303726 0.00000721
-0.47208814 0.23957736 -0.00000102
-0.33293155 0.36732551 0.20804596
-0.44821446 0.26465184 0.28008637
-0.26028174 0.21407072 0.16264781
-0.29149275 0.13693699 0.18214516
-0.19564785 -0.52988421 0.12225840
-0.06639352 0.73353721 -0.00000017
-0.71325911 -0.64874081 -0.00000038
-0.09983902 0.02546705 0.06237680
-0.53880548 -0.61315638 0.33669446
-0.31157088 -0.76417728 0.00000000
-0.02217254 -0.41405526 0.00000000
-0.30397321 -0.72961480 0.00000000
-0.22847735 0.02969180 0.00000811
-0.50173243 -0.37536156 0.31352817
-0.56306909 -0.15916855 -0.00000071
-0.16516601 -0.35773077 0.10321061
-0.06890702 0.67793682 0.00000072
-0.34708587 0.24737479 0.00000257
-0.64588715 -0.01796294 0.40361067
-0.55693375 -0.67890425 0.00000000
-0.31904569 -0.57450087 0.19936849
-0.06451163 -0.72718286 0.00000000
-0.50468577 -0.39811358 -0.00000004
-0.06556623 -0.68826332 0.04097169
-0.04108063 0.52346381 0.02566682
-0.03998195 -0.42580001 0.02498433
-0.56115299 0.09714713 0.00000096
-0.07896749 0.68863375 -0.00000014
-0.49836266 0.01148928 0.31142324
-0.22428441 -0.03259541 0.00000000
-0.21172186 -0.35610800 0.00000000
-0.04842801 0.26713414 0.00000726
-0.39093163 -0.62870294 0.00000000
-0.01096509 0.02383065 0.00001148
-0.51728115 0.19110046 -0.00000113
-0.13836333 0.12717168 0.08645265
-0.41296475 0.30475475 -0.00000089
-0.46223683 0.28526813 -0.00000106
-0.45498512 -0.10607405 -0.00000034
-0.44489365 -0.59059567 0.27800963
-0.57348956 -0.50450458 0.35836865
-0.66630302 -0.73099851 0.41636572
-0.13125682 -0.74193750 0.00000000
-0.27674982 -0.30935282 0.00000000
-0.21003328 -0.25277942 0.00000000
-0.46340276 0.12393717 -0.00000078
-0.38194061 0.36924046 -0.00000087
-0.29420287 0.50570096 -0.00000073
-0.44912971 0.04270424 0.28065345
-0.15004879 0.57283795 0.09376347
-0.07497753 -0.02260854 0.04685272
-0.63953971 -0.42300627 0.39964301
-0.28798816 -0.69539498 0.17996095
-0.33299080 -0.23378696 0.00000000
-0.52591362 0.05665141 0.32863983
-0.17001282 -0.05563522 0.00000000
-0.42367094 -0.20395775 -0.00000003
-0.18245905 -0.71416022 0.00000000
-0.47640904 0.14566663 0.00000178
-0.29006334 -0.12643712 0.00000000
-0.34100461 -0.17868591 0.21309040
-0.29033287 -0.18098347 0.00000000
-0.41691733 -0.39292798 0.26052751
-0.11024825 0.43652886 0.06889304
-0.52549069 -0.22081546 0.32837495
-0.07484557 -0.65423019 0.00000000
-0.09947984 -0.07409059 0.00000000
-0.23093870 0.31754968 0.14431168
-0.19949957 -0.17411598 0.00000000
-0.03801271 0.36790063 0.00000591
-0.22092951 0.48181387 0.13805622
-0.45051370 -0.56312125 0.00000000
-0.20734618 -0.34368053 0.00000000
-0.22429065 0.20379048 0.00000000
-0.37456143 -0.77249578 0.23405973
-0.43818600 0.14157233 0.00000258
-0.47525334 0.11137279 0.29698007
-0.07873315 -0.08638029 0.04919957
-0.56443185 0.04479786 -0.00000107
-0.40742059 -0.23192486 0.00000000
-0.29844227 0.19080109 -0.00000020
-0.09637019 -0.77648417 0.00000000
-0.38053863 0.25846702 0.23779598
-0.32344198 -0.67437121 0.00000000
-0.56274979 -0.20057363 0.35165806
-0.05781743 0.15695901 0.03612954
-0.18212288 0.19280915 0.00000636
-0.14308337 0.63373524 0.00000003
-0.02232305 0.10505978 0.01393789
-0.06622823 0.62524711 0.04138354
-0.30444427 -0.42653532 0.19024421
-0.60804572 -0.47670943 0.37996272
-0.36310391 0.17140826 0.22690091
-0.42396822 0.00906353 0.26493443
-0.62912422 -0.60738763 0.39313381
-0.04543087 0.37269941 0.00000572
-0.76075455 -0.66963117 -0.00000033
-0.60018551 -0.35146745 -0.00000053
-0.64623196 -0.79580784 0.00000000
-0.21350295 0.25466245 0.13341038
-0.10473805 -0.78874804 0.00000000
-0.00637041 0.35504503 0.00397327
-0.06940175 0.71996372 -0.00000015
-0.15828050 -0.05260704 0.09890792
-0.03127065 -0.55465339 0.00000000
-0.17120549 -0.26985548 0.10698461
-0.30289989 -0.62901339 0.18927914
-0.12115826 0.41856908 0.07570609
-0.53020200 0.05182453 0.33131725
-0.00293708 0.56140666 0.00183535
-0.21489957 0.31377048 -0.00000006
-0.03587144 -0.11535046 0.02241571
-0.14648349 -0.34547177 0.00000000
-0.00412329 -0.13010472 0.00000000
-0.08382022 -0.06664058 0.00000000
-0.21872664 0.44820759 0.13667889
-0.02757970 0.55678470 0.01723057
-0.13306245 0.08038120 0.08313929
-0.07053147 -0.51380789 0.04407442
-0.54784921 -0.05139289 -0.00000083
-0.47074125 0.20180971 0.00000095
-0.25933067 0.20200856 0.16205346
-0.24464622 0.07808903 0.15286873
-0.25057150 -0.28049456 0.00000000
-0.05609022 -0.71169065 0.00000000
-0.62482318 -0.42811317 -0.00000050
-0.01155715 0.65285477 0.00000203
-0.65097665 -0.79237383 0.40678828
-0.40895053 -0.71223251 0.25554914
-0.01331366 0.46735450 0.00831957
-0.49046205 -0.32528824 -0.00000010
-0.66456642 -0.06835034 -0.00000130
-0.12060706 0.60478679 -0.00000017
-0.02721743 0.65124987 0.00000000
-0.24005717 0.05438369 0.15000060
-0.62912879 0.05034291 -0.00000136
-0.17106986 0.18023272 0.10689986
-0.23021676 0.04687585 0.14386017
-0.48028475 -0.72213440 0.00000000
-0.48748720 -0.29476418 0.30462655
-0.25327392 -0.04224157 0.00000000
-0.28936478 -0.20877897 0.18082118
-0.44920004 0.19233925 0.28070060
-0.55007255 -0.04207145 0.34373644
-0.31723835 0.05083330 0.19823224
-0.31796193 0.33911933 -0.00000054
-0.25405126 -0.00103732 0.15875412
-0.52740481 0.07552847 -0.00000097
-0.28832778 0.15198109 0.18017354
-0.46966103 0.06466839 -0.00000070
-0.43903311 0.23871739 0.27434892
-0.16892189 -0.79185270 0.00000000
-0.65938813 -0.42340004 0.41204596
-0.27667946 0.38226986 0.17289329
-0.19361964 0.39546500 0.12098793
-0.06941146 0.56748741 0.00000244
-0.09771493 -0.14646467 0.00000000
-0.26984466 0.33219795 -0.00000032
-0.13353981 0.09028647 0.08344770
-0.69175915 -0.23841152 -0.00000112
-0.05688554 0.41548673 0.03554721
-0.24416806 -0.76342675 0.00000000
-0.49081061 0.29494324 -0.00000120
-0.62174753 -0.23980782 -0.00000082
-0.47609134 0.19296028 0.29750637
-0.00315962 0.79382144 0.00197438
-0.56893976 -0.66506941 0.00000000
-0.34357812 -0.21399010 0.21469856
-0.62172765 -0.31597599 -0.00000068
-0.24641749 0.26605645 0.00000419
-0.48388431 -0.45488701 0.30237477
-0.13961547 -0.22933117 0.08724432
-0.34072835 -0.12491886 0.00000000
-0.13076457 -0.34614712 0.00000000
-0.05362266 0.22758771 0.03350827
-0.22294371 0.00985620 0.00000849
-0.38548883 0.18405366 0.24088918
-0.35116088 0.30417149 0.00000154
-0.00047782 0.60964028 0.00029532
-0.31510363 -0.44327918 0.19690513
-0.04560548 -0.19774818 0.02849841
-0.32538915 -0.12662217 0.20333246
-0.36380433 -0.59984794 0.22733772
-0.25729841 0.25904832 0.00000410
-0.59175262 -0.78938491 0.36978019
-0.36984900 -0.22707455 0.00000000
-0.44183914 0.24207743 0.00000083
-0.19980411 0.46030044 0.12485610
-0.07678223 0.68517953 0.04798068
-0.20760155 -0.21722496 0.00000000
-0.66992465 -0.41786757 0.41863008
-0.38846717 0.26822101 0.24275052
-0.58294204 -0.72705454 0.36427485
-0.06615923 0.22018678 0.04134225
-0.23645047 0.13905345 0.14774825
-0.35487355 -0.64219748 0.22175696
-0.29759570 0.06350677 0.18595744
-0.10629039 -0.08764732 0.06641981
-0.47352105 -0.05439464 0.29589967
-0.41566912 0.05712454 -0.00000046
-0.32499126 0.33953674 -0.00000057
-0.38773800 0.13498127 0.24229059
-0.33269133 0.12861847 -0.00000023
-0.00761872 0.18212028 0.00476087
-0.28952079 -0.56928562 0.00000000
-0.51952458 -0.13332493 -0.00000057
-0.18791917 0.25263898 0.11742883
-0.05306980 -0.70111626 0.00000000
-0.07306444 0.41323667 0.04565183
-0.07711033 0.04051930 0.04818548
-0.08139979 -0.28172478 0.05086592
-0.60094826 -0.06440581 0.37552843
-0.12286814 -0.30603062 0.00000000
-0.04493250 0.55224303 0.02807438
-0.24247222 -0.75965756 0.00000000
-0.11586265 0.38008770 0.00000455
-0.16094181 0.61021441 0.00000008
-0.34664544 -0.18015642 0.21661531
-0.42851391 -0.47126381 0.00000000
-0.15695274 0.30489978 0.09807821
-0.31999759 -0.32182947 0.00000000
-0.77217363 -0.18666544 -0.00000153
-0.04252472 0.12042302 0.02657328
-0.15303366 0.19879330 0.00000000
-0.64669848 -0.22661652 0.40411720
-0.46942010 -0.27509003 -0.00000010
-0.09701684 0.02214934 0.00001020
-0.06056251 0.48105638 0.03784046
-0.28190472 -0.06910713 0.17615946
-0.67788091 -0.03946173 -0.00000141
-0.31562183 0.41779275 0.19723007
-0.24906799 -0.24771764 0.15564012
-0.62097241 -0.02130492 0.38804154
-0.42419790 0.23660944 0.26507845
-0.47423383 0.30411422 -0.00000082
-0.16828613 -0.11790130 0.00000000
-0.43817809 0.24886050 0.27381398
-0.03734721 0.68986253 0.02333664
-0.07325678 0.52364344 0.04577392
-0.16751447 0.50713390 0.10467670
-0.20719902 -0.09708848 0.12947661
-0.04771904 0.59909878 0.02981651
-0.15663687 -0.09423507 0.09788083
-0.26511948 -0.21047028 0.16567054
-0.45849176 0.13849900 0.28650602
-0.10823416 0.20808106 0.06763445
-0.02751191 0.29777452 0.01719192
-0.34513618 0.43368436 -0.00000051
-0.55647323 -0.27544250 -0.00000047
-0.15944189 0.42220518 -0.00000001
-0.62452832 0.13047578 -0.00000081
-0.19679000 0.54153510 0.12297226
-0.39993072 -0.64004858 0.24991275
-0.79735649 -0.08935991 -0.00000178
-0.60142653 -0.54513284 0.37582624
-0.58557021 -0.46020396 0.36591789
-0.37792624 0.14598070 0.23616327
-0.60434243 -0.65153640 0.37764790
-0.52248070 0.26616960 -0.00000112
-0.10456672 0.19750803 0.06534270
-0.65030808 0.03638329 -0.00000143
-0.39221470 -0.17600497 0.24509138
-0.60781073 -0.42878310 0.37981598
-0.38865437 0.27245636 0.24286751
-0.18890332 0.54133783 0.11804441
-0.10437403 -0.44000076 0.00000000
-0.12426258 -0.04279099 0.00000000
-0.50676515 0.22807741 -0.00000115
-0.40610837 0.33298219 0.00000000
-0.19564820 0.29237825 0.00000466
-0.11762300 -0.54082220 0.07350144
-0.63138860 0.06701906 -0.00000140
-0.63173057 -0.76584908 0.00000000
-0.61203198 -0.18478059 0.38245434
-0.37260806 0.26177996 0.23284021
-0.09998623 -0.23301074 0.06248041
-0.34389361 -0.45904597 0.00000000
-0.27365427 -0.67739127 0.17100384
-0.47831989 0.29435808 -0.00000074
-0.77862567 -0.41075734 -0.00000097
-0.65666506 -0.62052062 -0.00000029
-0.75834977 -0.11364974 -0.00000162
-0.24503021 -0.11090749 0.00000000
-0.25557808 0.29547735 -0.00000020
-0.06250257 -0.09578017 0.00000000
-0.19878275 -0.61721432 0.00000000
-0.52114089 0.18962519 0.00000019
-0.14227400 0.61101140 0.08890608
-0.08832219 -0.72191734 0.00000000
-0.16720219 0.38935129 0.10447904
-0.21959194 0.19061250 0.00000000
-0.59882281 -0.61035964 0.37419895
-0.66319886 -0.57098959 0.41442663
-0.43016212 0.35825697 -0.00000088
-0.45115368 -0.51593371 0.28192146
-0.39106187 0.18988719 0.24436891
-0.02286080 0.72296574 0.01428548
-0.12809084 -0.50260062 0.08004270
-0.75092134 -0.25506041 -0.00000134
-0.27643665 -0.05975777 0.00000000
-0.01398207 0.74620244 0.00873657
-0.16968959 0.09056188 0.00000808
-0.64684777 -0.75161354 -0.00000002
-0.21937733 0.28875208 0.13708697
-0.49498404 -0.49840171 0.30931086
-0.51384631 -0.49987370 0.00000000
-0.15743801 0.08764885 0.00000831
-0.62387532 -0.45164534 -0.00000045
-0.64395605 -0.19693768 -0.00000099
-0.62670599 -0.24980450 0.39162394
-0.51174890 -0.21479459 -0.00000039
-0.71017506 -0.49796265 -0.00000074
-0.12466059 0.58988119 -0.00000016
-0.08945689 0.09562054 0.00000000
-0.10372310 -0.46992391 0.06481554
-0.58061081 -0.59656867 0.36281849
-0.52611992 -0.09516211 -0.00000066
-0.48930704 -0.02147152 0.30576435
-0.43391866 -0.39519538 0.00000000
-0.18206018 0.53550685 0.11376815
-0.42274473 0.26249219 -0.00000085
-0.41053821 -0.60681592 0.25654126
-0.01153983 -0.06048594 0.00721112
-0.61374311 0.14232835 -0.00000080
-0.08108201 -0.15834024 0.05066734
-0.54360403 -0.15127354 0.33969405
-0.41001850 0.02670168 0.25621178
-0.12464710 -0.31876364 0.00000000
-0.09662545 -0.49486863 0.00000000
-0.34329516 0.28138142 -0.00000055
-0.07131962 0.11998798 0.04455644
-0.08392551 0.10837903 0.05244422
-0.04367000 0.74313165 0.00000011
-0.73404088 -0.79135040 -0.00000002
-0.15236161 0.03212138 0.00000922
-0.45849827 -0.28951696 0.28651149
-0.39868439 -0.78251190 0.00000000
-0.33178899 0.34654941 -0.00000061
-0.20996304 0.30942564 0.13119939
-0.37638863 0.31706159 0.00000084
-0.24594995 -0.65438325 0.00000000
-0.48881807 -0.03037095 -0.00000062
-0.56429597 -0.65429815 0.35262329
-0.20988534 0.49806616 0.13115486
-0.60848257 0.18422018 -0.00000151
-0.54422659 0.04355746 0.34008351
-0.25400046 -0.09686879 0.15872237
-0.59414998 -0.46543291 -0.00000030
-0.00711466 0.16686946 0.00444588
-0.40492487 -0.19283407 0.00000000
-0.54888030 0.05649300 0.34299162
-0.66797613 -0.32147582 0.41741287
-0.08269585 0.28645106 0.05166839
-0.16100944 -0.16399575 0.10061320
-0.42657468 0.04601264 0.26656328
-0.12479970 0.49093951 0.07798620
-0.29806438 0.46872729 -0.00000019
-0.26052105 0.04209661 0.16278841
-0.08395638 0.26911552 0.05245581
-0.64992639 0.06836516 -0.00000148
-0.08983372 -0.49651169 0.00000000
-0.26788377 0.10974452 0.16739089
-0.31456533 -0.45906873 0.19656876
-0.08305813 0.59806576 0.00000178
-0.04626975 0.45500353 0.02890836
-0.34154370 -0.72501623 0.21342727
-0.28356430 0.41607994 0.00000097
-0.63629703 -0.48222990 -0.00000045
-0.12301712 -0.45496483 0.00000000
-0.75983851 -0.45048197 -0.00000087
-0.37769437 -0.54933232 0.00000000
-0.54080421 0.15889806 0.33794505
-0.33338625 -0.78423178 0.00000000
-0.12575627 -0.60154589 0.07858384
-0.13901014 -0.12198086 0.08686606
-0.18966744 0.15156352 0.00000686
-0.36999221 0.15185709 0.23120127
-0.78794509 -0.12022006 -0.00000170
-0.24670913 -0.04467085 0.00000000
-0.18178625 0.12345224 0.11358788
-0.21685092 -0.60670066 0.13550799
-0.33553364 -0.67495367 0.00000000
-0.17147233 -0.65509370 0.10715136
-0.21809222 0.00610844 0.13627371
-0.54404823 -0.08960920 -0.00000075
-0.03931902 0.07445507 0.02457007
-0.23396024 0.39475486 0.14619752
-0.30093788 0.17640305 0.00000464
-0.09530187 -0.04283871 0.05955319
-0.60062848 -0.03041618 0.37532867
-0.16097389 -0.72755879 0.00000000
-0.23126701 0.27249812 0.14451186
-0.15793230 0.34266864 0.09868515
-0.21592604 -0.49443000 0.13493004
-0.34640692 -0.42871046 0.00000000
-0.07706013 -0.33124075 0.00000000
-0.58805818 -0.09664794 -0.00000092
-0.51678184 0.13060569 -0.00000102
-0.45294079 -0.11579818 -0.00000031
-0.37742795 0.01363864 0.23585160
-0.41507996 0.24317600 0.00000133
-0.15741951 0.19387493 0.09836989
-0.28252876 -0.70341832 0.17654942
-0.33768358 -0.22802942 0.00000000
-0.17325671 0.54054440 0.00000101
-0.09953999 0.57003474 0.00000193
-0.53458685 -0.13001859 0.33405930
-0.55918768 -0.37584584 0.34943173
-0.19325228 -0.47016499 0.00000000
-0.04451180 0.71313902 0.02781441
-0.24618113 0.39783117 -0.00000034
-0.26241176 0.22548677 0.00000456
-0.03691505 0.00655966 0.00000000
-0.23576966 0.42300474 0.14733076
-0.24368159 0.49610381 -0.00000050
-0.36267987 0.03848836 0.22663564
-0.40366858 0.05301715 0.25224936
-0.06699899 0.28046565 0.04186700
-0.12532426 0.54115986 0.00000192
-0.33536436 0.05770581 0.20956632
-0.35588372 0.19952708 0.22238563
-0.31647885 -0.34219429 0.00000000
-0.42179112 0.09436776 0.00000369
-0.64894951 -0.66908826 -0.00000017
-0.16732197 -0.41755587 0.10455784
-0.06988850 -0.10015210 0.04367263
-0.43946738 0.33662839 -0.00000070
-0.56224101 -0.67627109 0.00000000
-0.10719847 0.14848157 0.00000000
-0.63691136 -0.04453174 -0.00000123
-0.72255604 -0.03922438 -0.00000160
-0.01308333 0.14466750 0.00000963
-0.78921345 -0.20511768 -0.00000149
-0.00223465 0.24760606 0.00000000
-0.20225076 0.40568780 0.00000270
-0.50768633 -0.02038873 -0.00000072
-0.34683207 -0.71871342 0.00000000
-0.48515828 -0.53512532 0.00000000
-0.27538945 0.37136459 0.17208890
-0.39678154 -0.69130777 0.00000000
-0.39310622 0.28104198 0.24564841
-0.32664933 0.03160156 -0.00000004
-0.76546586 -0.13759527 -0.00000161
-0.41106212 0.01932174 -0.00000037
-0.16697256 0.58276437 0.10433966
-0.15060812 -0.05254801 0.00000000
-0.26865045 -0.73662646 0.16787700
-0.14542584 0.33665525 0.00000476
-0.25133677 -0.55636643 0.00000000
-0.07950564 0.66832360 0.04968176
-0.18651454 -0.55192960 0.00000000
-0.07435850 -0.38642785 0.04646589
-0.50917148 -0.48613584 0.31817656
-0.38754557 0.15950486 -0.00000052
-0.16355098 -0.54426869 0.10220138
-0.44772826 -0.26575934 0.27978140
-0.73734337 -0.03282440 -0.00000167
-0.46330816 0.12152841 0.00000244
-0.28156830 -0.51414498 0.17594924
-0.36202157 -0.16393891 0.22622383
-0.76527581 0.02036187 -0.00000189
-0.73318281 -0.04122179 -0.00000164
-0.01574852 0.75765020 0.00000000
-0.56167261 -0.72967197 0.00000000
-0.04240782 0.24313622 0.00000000
-0.14814384 -0.71440507 0.00000000
-0.07933536 0.44491628 0.04957112
-0.40507516 -0.73192969 0.00000000
-0.45678556 0.24071466 0.28544236
-0.48683028 0.00109160 0.30421668
-0.02900890 0.16413745 0.01811694
-0.19485752 0.22822642 0.12175801
-0.42982846 0.00740850 0.00000499
-0.43339647 -0.63779499 0.27082516
-0.05166523 0.67798455 0.03228515
-0.53308013 0.23433444 -0.00000128
-0.23930963 -0.42178143 0.14954222
-0.38326047 -0.62401098 0.23949567
-0.35984033 0.31557213 0.22486181
-0.10955158 0.57036470 0.06845788
-0.53264634 -0.13903808 -0.00000061
-0.62938205 -0.02977634 -0.00000122
-0.04210405 0.01562517 0.00000000
-0.46370757 -0.30173205 -0.00000003
-0.43642798 -0.09643499 -0.00000028
-0.47154903 -0.74447926 0.29466632
-0.38160535 0.34497077 0.00000027
-0.19577676 0.46450079 0.12233742
-0.54032915 0.03002789 0.33764798
-0.31457085 -0.21992460 0.19657221
-0.15967213 0.46654541 0.09977501
-0.11542536 0.47035689 0.07212816
-0.52313885 0.10774655 0.32690455
-0.38597724 0.13265498 0.00000374
-0.12885663 0.38440223 0.00000000
-0.46093489 -0.34221710 0.00000000
-0.07868587 0.45630329 0.04917002
-0.00997394 0.23037234 0.00623261
-0.40753136 -0.26443805 0.00000000
-0.03878636 -0.13855746 0.02423721
-0.36395620 -0.23107886 0.00000000
-0.02824679 0.17692768 0.00000000
-0.17235043 0.16082503 0.00000000
-0.39029147 0.08271091 -0.00000040
-0.20733887 0.03398580 0.12955435
-0.33883604 -0.23482681 0.21173528
-0.58016792 -0.56185902 0.36254181
-0.28939458 -0.24029266 0.00000000
-0.42299146 0.28989767 0.26432466
-0.21362243 0.26199951 0.13348520
-0.30364253 0.27206260 0.18974067
-0.16788581 -0.76139686 0.10491018
-0.44219511 -0.58813835 0.00000000
-0.54964459 -0.24332564 -0.00000050
-0.02484561 0.55804781 0.01552577
-0.77921174 -0.10970765 -0.00000172
-0.03653342 -0.71145601 0.00000000
-0.24167240 0.22633481 0.15101339
-0.45890236 -0.54778562 0.00000000
-0.48679455 0.13164738 0.30419282
-0.51272817 0.14038004 0.32039941
-0.00776737 -0.73409761 0.00485375
-0.12685099 -0.34723596 0.07926793
-0.22183604 0.29980136 0.00000410
-0.06803411 0.26138470 0.00000000
-0.24548309 0.00826463 0.15339050
-0.08811608 0.09485128 0.05506287
-0.43538608 -0.22545480 0.27206891
-0.28175116 -0.06231007 0.17606351
-0.37046573 -0.35532713 0.23150036
-0.37220820 0.26352558 0.00000181
-0.12804607 0.59820388 -0.00000019
-0.03144756 0.09066697 0.00000000
-0.13497394 0.18532239 0.08434388
-0.06476035 0.65832581 0.00000112
-0.23356782 -0.52571535 0.14595422
-0.66166502 -0.65695203 0.41346781
-0.19617003 0.54882614 -0.00000039
-0.12385793 0.61214802 0.07739715
-0.41873117 0.29557738 0.00000038
-0.06588783 -0.45506390 0.04117265
-0.24514789 0.46304520 0.15319126
-0.47190331 -0.01739258 0.29488883
-0.47850379 0.10601348 0.29901371
-0.27306854 0.04561610 0.17062958
-0.05968667 -0.78837644 0.03729761
-0.56481306 0.09771376 0.35294733
-0.39293442 -0.15436144 0.00000000
-0.01661516 0.71389400 0.01038145
-0.00787765 0.60336450 0.00000000
-0.47306569 -0.43277127 0.29561431
-0.54516735 -0.10634942 0.34067106
-0.09233157 0.04279943 0.00000000
-0.16956886 0.37633880 0.10595773
-0.12297273 -0.35095810 0.07684444
-0.27585374 0.21122236 -0.00000014
-0.42755214 0.25183059 -0.00000086
-0.76870162 -0.22932322 -0.00000143
-0.46011009 0.07027664 -0.00000067
-0.26076925 -0.29315359 0.16295212
-0.23830762 0.31154890 0.14891648
-0.02706156 0.51056695 0.01690598
-0.14652672 -0.33461672 0.09156309
-0.09422087 -0.76999894 0.00000000
-0.01818160 -0.57320894 0.00000000
-0.46149602 0.07217463 0.28838555
-0.67561551 -0.14759103 0.42218729
-0.58120999 -0.65573114 0.36319279
-0.12518122 0.12816534 0.07822450
-0.31361074 -0.08760832 0.19597225
-0.60138835 -0.52776551 -0.00000022
-0.38462337 -0.35198430 0.24034733
-0.76545718 -0.78195649 -0.00000005
-0.03767561 0.34465291 0.02354311
-0.19884828 0.05700522 0.12424892
-0.08722761 -0.33249592 0.00000000
-0.61827287 -0.14940656 -0.00000096
-0.54036600 -0.44467238 -0.00000011
-0.29022709 0.19984425 0.18135557
-0.09445359 0.02823381 0.05901145
-0.17350477 0.42391731 0.10841838
-0.33262069 -0.18541593 0.20785138
-0.51176860 -0.54571515 0.00000000
-0.65657225 -0.13269613 0.41028750
-0.60252123 -0.11831537 -0.00000095
-0.04933927 -0.78057342 0.00000000
-0.33541646 -0.10316438 0.00000000
-0.42996727 0.27566889 -0.00000091
-0.17636476 0.41835536 0.11020552
-0.61174352 -0.06620677 -0.00000108
-0.31202595 -0.78093683 0.00000000
-0.06261554 -0.38748027 0.03912783
-0.43638753 -0.35164509 0.27269444
-0.59343953 -0.08647637 0.37083620
-0.49508958 -0.13242776 0.30937759
-0.30822299 0.08154854 -0.00000005
-0.74904447 -0.61540276 -0.00000046
-0.08363784 0.06831648 0.00000000
-0.05010517 0.73211739 0.03131038
-0.34298559 0.37963638 0.00000044
-0.47609325 0.02318526 0.29750306
-0.22400145 -0.41220119 0.00000000
-0.15735088 0.36297404 0.09832703
-0.49413391 0.02394568 0.30877702
-0.32862249 -0.31924778 0.00000000
-0.45296059 0.05415997 0.00000376
-0.40051797 0.00914512 0.25027435
-0.42566093 -0.37189174 0.26599138
-0.15392248 -0.10786598 0.00000000
-0.10200503 0.45089786 0.00000370
-0.55993400 -0.65143287 0.00000000
-0.19986103 0.29956976 0.12488624
-0.17381721 0.36008342 0.10861226
-0.55080459 0.06401759 -0.00000105
-0.42958035 0.03781594 0.26844149
-0.15650734 -0.37094660 0.09779989
-0.78659298 -0.39533205 -0.00000101
-0.08713345 -0.76377347 0.05444883
-0.08207248 0.36214819 0.05128015
-0.19603711 0.10674844 0.12250165
-0.20276523 0.31046642 0.00000428
-0.10756680 0.06864101 0.00000000
-0.30535006 -0.44823943 0.00000000
-0.25310842 0.00234030 0.15816494
-0.40763862 -0.14524482 -0.00000007
-0.62065622 -0.18356445 -0.00000091
-0.28883562 0.01504144 0.18049060
-0.51490956 -0.11357754 0.32176307
-0.10603229 0.46219509 0.00000000
-0.35817355 -0.05201883 -0.00000002
-0.20097050 -0.23761035 0.00000000
-0.66345599 -0.55311786 -0.00000044
-0.06944951 0.70603402 -0.00000013
-0.29089021 0.12176372 0.00000574
-0.45746183 0.24674067 0.28586471
-0.33570714 -0.09768197 0.00000000
-0.06487271 0.18404393 0.00000826
-0.21128842 -0.59977689 0.13203204
-0.28209394 -0.36237379 0.17627771
-0.71781154 -0.16413603 -0.00000136
-0.33414070 0.34263759 0.20880227
-0.24133247 -0.02564146 0.15080627
-0.35190054 0.08185207 0.21989977
-0.27344091 -0.28938308 0.17087052
-0.18237811 -0.39592247 0.11396627
-0.27773360 -0.07725902 0.00000000
-0.58246227 0.09682038 0.36397664
-0.54763696 0.02007258 0.34221201
-0.09100951 0.60403021 0.05687107
-0.70229699 -0.22169239 -0.00000119
-0.47296035 -0.30381401 0.29554876
-0.08823157 -0.24398326 0.05513503
-0.31556110 -0.69694270 0.00000000
-0.06800397 0.14405534 0.00000881
-0.50620280 0.22551446 -0.00000012
-0.64719511 0.10832181 -0.00000154
-0.19661869 0.59380129 -0.00000033
-0.15008458 0.17917846 0.00000705
-0.21997204 -0.17812966 0.13745835
-0.20230644 0.40115596 0.12641660
-0.13137251 0.37506342 0.08209338
-0.17036546 -0.59783186 0.00000000
-0.16662045 -0.66452576 0.10411947
-0.04644330 -0.20500791 0.00000000
-0.23111471 -0.67372787 0.00000000
-0.13790052 -0.39275841 0.00000000
-0.44293153 0.26168044 -0.00000094
-0.51774137 0.01419233 0.32352956
-0.67273100 -0.75010283 0.42038238
-0.15602364 0.26894944 0.09749763
-0.09274408 0.00013895 0.05795486
-0.44331012 -0.56982262 0.00000000
-0.38461469 -0.79746004 0.00000000
-0.36717309 -0.44423149 0.22944282
-0.11802324 0.21955019 0.07374358
-0.12091729 0.03234602 0.00000969
-0.47210489 -0.03451730 -0.00000054
-0.00959841 -0.57032230 0.00599795
-0.07138475 0.59295616 0.04460527
-0.03685053 -0.05702882 0.02302753
-0.49560310 -0.32174137 -0.00000013
-0.55002926 0.09270828 0.00000125
-0.44749891 0.05231217 0.00000390
-0.29805816 0.05800443 0.00000663
-0.61443692 -0.17585089 0.38395720
-0.59400804 0.03869821 0.37119057
-0.11233391 0.36175590 0.00000488
-0.46680308 -0.32754798 0.29170105
-0.41997730 0.36679859 -0.00000083
-0.25244439 -0.37753076 0.00000000
-0.17410893 0.32111986 0.00000456
-0.21273008 0.23581286 0.00000525
-0.02824599 -0.39780294 0.00000000
-0.66014060 0.01526030 0.41251767
-0.79771857 -0.20715109 -0.00000148
-0.59451760 -0.25974383 0.37150951
-0.46429746 0.22939190 0.29013649
-0.05180510 0.04504682 0.03236040
-0.29005118 0.38899590 -0.00000051
-0.19475695 -0.74099118 0.12170169
-0.34102759 0.37839352 0.21310557
-0.12368404 -0.55027735 0.07728893
-0.17820104 0.10845340 0.00000768
-0.38479024 -0.21577918 0.24045178
-0.15879155 -0.38443113 0.00000000
-0.27689191 0.49505660 -0.00000022
-0.60029855 -0.45845641 -0.00000034
-0.79232561 -0.47927434 -0.00000080
-0.22529026 0.19076093 0.14078172
-0.21890653 0.06448463 0.00000773
-0.27152458 0.00671408 0.16966398
-0.24219135 -0.42943451 0.00000000
-0.24644905 -0.72068747 0.00000000
-0.00834131 -0.70536487 0.00000000
-0.06234308 0.72582378 0.03895778
-0.38813336 -0.79493636 0.24254069
-0.31559466 -0.00538166 0.19721218
-0.64137713 -0.24554269 0.40079189
-0.25707576 0.43572156 0.16064489
-0.27841348 0.38596125 -0.00000046
-0.24569239 0.39050442 0.00000212
-0.73051923 0.02375829 -0.00000175
-0.07577512 0.63910953 -0.00000004
-0.70508228 -0.18698069 -0.00000126
-0.57339852 -0.22513292 -0.00000063
-0.32460124 -0.30427800 0.20284010
-0.22536667 0.29907943 0.00000404
-0.39749550 0.07027424 0.24839186
-0.06043592 -0.11279239 0.03776581
-0.17529977 -0.69658340 0.10954309
-0.61704434 -0.77389656 0.38558462
-0.02246152 -0.68371673 0.01403598
-0.32805719 -0.01217034 0.00000000
-0.03188225 0.56080419 0.00000000
-0.31207764 -0.05094022 0.00000000
-0.02234948 -0.31010254 0.01396597
-0.15244124 0.45270461 0.09525921
-0.77915282 -0.56616235 -0.00000058
-0.14060922 0.22724359 0.00000647
-0.06765313 0.33423641 0.04227577
-0.04695346 0.31494845 0.02933321
-0.50650662 -0.79534301 0.00000000
-0.67119425 -0.22106307 -0.00000106
-0.11491727 -0.63829910 0.00000000
-0.28453126 0.29850349 0.17779824
-0.05528660 0.46027464 0.03454315
-0.43237294 -0.70033029 0.00000000
-0.55837748 -0.24855126 -0.00000053
-0.06006717 -0.22933824 0.03753538
-0.53788446 0.17876248 0.00000005
-0.00242104 0.06170880 0.00150024
-0.55251279 -0.75580531 0.34525980
-0.15191235 0.45786389 0.00000280
-0.30511843 -0.38678018 0.19066549
-0.25170290 -0.19727946 0.15728665
-0.63508237 -0.16340216 -0.00000101
-0.10098470 0.67061070 0.00000022
-0.38945101 -0.35286345 0.00000000
-0.00306612 0.56341483 0.00191197
-0.76446706 -0.36385840 -0.00000109
-0.54233022 -0.55560681 0.00000000
-0.33477823 -0.76273189 0.20919960
