ply
format ascii 1.0
element vertex 1373
property float x
property float y
property float z
end_header
-0.42982855 0.08412386 -0.00000041
-0.58870018 0.32596065 -0.00000026
-0.35688448 -0.61084107 -0.00000012
-0.43842306 -0.16387330 -0.00000036
-0.76673690 -0.69625698 0.00000000
0.21676174 -0.50348246 -0.00000019
-0.79865707 0.30028320 -0.00000000
0.72795139 -0.25458208 -0.00000065
-0.04249141 -0.05537642 -0.00000047
-0.21222519 0.27363377 -0.00000067
-0.13715976 0.48312445 -0.00000080
0.33436832 0.00199434 -0.00000051
-0.04356584 -0.19708148 -0.00000038
-0.13090032 0.20360076 -0.00000063
-0.42147372 0.47615542 -0.00000047
-0.62633749 0.33242761 -0.00000022
0.24840025 0.08476538 -0.00000055
-0.03174250 0.51610220 -0.00000082
0.36282514 0.11066415 -0.00000065
0.58111416 -0.47484770 -0.00000026
0.19524385 0.35221597 0.41070413
-0.66914183 -0.79055736 0.00000000
-0.50498457 -0.19849607 -0.00000028
0.20327393 0.22086263 -0.00000064
-0.16880344 0.37733575 -0.00000074
0.76234716 -0.61517809 -0.00000023
0.10950649 -0.44182086 -0.00000022
0.47429660 0.31925994 0.01047651
0.69029009 -0.11932847 -0.00000076
0.43806250 0.32601831 -0.00000096
0.15682882 0.61779285 0.04127061
0.34748498 0.40737096 0.07341595
-0.19547422 0.58540105 -0.00000075
0.17576284 0.19442415 -0.00000062
0.10080652 -0.77105348 -0.00000002
-0.66304770 0.76571456 -0.00000017
-0.47536856 -0.63606793 -0.00000010
-0.02173921 0.02088689 -0.00000051
0.32419504 0.00713094 -0.00000050
0.35215525 0.36761788 0.13047172
-0.63757081 0.31298708 -0.00000020
0.54666886 0.20603112 0.07692222
-0.35137603 0.14896792 -0.00000051
0.54672553 -0.68531063 -0.00000007
0.36217762 0.42568859 0.01973078
0.39196660 -0.57447944 -0.00000014
0.09441729 -0.21694163 -0.00000036
-0.67344411 -0.36211573 -0.00000007
0.28379628 0.44748621 -0.00000093
-0.10082274 -0.34859714 -0.00000028
0.31339657 -0.46224736 -0.00000021
0.62548288 -0.75146570 -0.00000003
-0.49154324 -0.68329547 -0.00000007
0.19915740 0.31504060 -0.00000070
-0.28804020 -0.42575831 -0.00000023
-0.25775576 0.72792961 -0.00000068
0.16770555 0.53004571 -0.00000089
-0.41767589 -0.67673399 -0.00000008
-0.60669152 0.71137861 -0.00000024
-0.65113792 0.01506281 -0.00000016
0.58417412 -0.37431241 -0.00000037
0.17364913 0.51744327 -0.00000088
-0.40834463 -0.72293860 -0.00000005
0.73842795 -0.43996999 -0.00000045
-0.66341295 -0.73896377 -0.00000001
0.26906691 0.42491385 0.17241828
0.48753525 0.28529810 -0.00000097
0.51750959 0.19790195 0.13756504
-0.08812651 0.45386260 -0.00000078
0.21121265 -0.67578871 -0.00000008
0.08873460 0.67584988 0.05759424
-0.18221551 0.00224027 -0.00000050
-0.43852606 0.18277925 -0.00000042
0.04330029 0.45245803 -0.00000078
-0.13866988 -0.09335066 -0.00000044
0.59324686 0.20166275 0.00827598
-0.26502611 -0.69107218 -0.00000007
0.00440568 -0.59956003 -0.00000013
0.23302292 0.52643809 0.06592663
0.14222927 0.61748759 0.06551055
0.04154099 -0.61169978 -0.00000012
-0.09861252 0.29301767 -0.00000068
0.73545650 -0.11470647 -0.00000081
-0.25022876 0.64187847 -0.00000069
-0.55812756 0.05277848 -0.00000027
0.38073723 0.41606970 0.00519034
0.63745353 -0.17710743 -0.00000064
-0.47497786 0.72601261 -0.00000041
0.32192422 0.21525196 0.42742941
0.70243999 -0.03321199 -0.00000086
0.09912352 0.19193595 -0.00000062
-0.43029185 0.21488840 -0.00000043
-0.23559703 0.66429259 -0.00000071
0.26406520 0.30331949 -0.00000075
-0.62407538 -0.02713664 -0.00000018
-0.39917992 -0.41883595 -0.00000024
-0.57167414 0.25162120 -0.00000029
-0.57029184 0.07455850 -0.00000026
-0.69460087 -0.43902219 -0.00000003
0.43652419 0.03379807 -0.00000065
-0.67071758 0.15656921 -0.00000016
-0.45520887 -0.40680443 -0.00000025
0.50231028 0.13960298 0.25709654
0.72740127 -0.21395988 -0.00000069
0.59036283 -0.20592054 -0.00000056
-0.09306073 -0.00393085 -0.00000050
0.74803078 -0.19468061 -0.00000074
0.24959401 -0.73957713 -0.00000004
-0.30949114 -0.08558216 -0.00000045
0.33985907 -0.17270876 -0.00000039
0.30627910 0.29510973 0.32300051
0.15944902 0.17837297 -0.00000061
-0.13170700 0.34860130 -0.00000072
-0.20825381 -0.07121282 -0.00000046
0.61709050 0.08413152 -0.00000089
-0.70478273 -0.76078212 0.00000000
-0.29389941 -0.26703318 -0.00000033
-0.61670686 0.52913863 -0.00000023
0.56978163 0.11696878 0.18417713
-0.57815847 0.63634270 -0.00000028
0.11326933 0.07136833 -0.00000054
-0.67375095 -0.11494861 -0.00000011
-0.26500911 0.11885184 -0.00000057
0.27053737 -0.72001180 -0.00000005
-0.64908782 0.75949279 -0.00000019
-0.56928713 -0.68594038 -0.00000007
0.09592572 0.41523001 -0.00000076
-0.59686396 -0.21873636 -0.00000018
-0.66102586 0.52907142 -0.00000017
-0.31550241 -0.43106255 -0.00000023
-0.74600659 -0.42007967 0.00000000
0.49154599 0.27752863 0.05029187
-0.05617864 0.32299482 -0.00000070
-0.74880591 -0.15753801 -0.00000003
-0.65516285 0.51184788 -0.00000018
0.29854855 -0.30012517 -0.00000031
-0.05131674 -0.64068751 -0.00000010
-0.38195995 -0.40473755 -0.00000025
0.22767955 0.33422752 0.38720888
0.30125867 0.18596543 -0.00000067
-0.44007293 0.26791303 -0.00000043
-0.53401296 -0.02126243 -0.00000028
0.18907017 0.31879008 -0.00000070
-0.02856545 -0.63022521 -0.00000011
0.52022981 -0.37043236 -0.00000031
0.10507826 -0.49685059 -0.00000019
-0.52120869 -0.61746296 -0.00000011
-0.15453707 0.16139663 -0.00000060
-0.67805096 -0.39974445 -0.00000006
-0.53452163 0.57899564 -0.00000033
-0.37097977 0.02769517 -0.00000046
-0.50242745 0.69983018 -0.00000037
-0.27591636 -0.01110422 -0.00000049
0.55136376 0.11145215 0.22310220
0.43537545 -0.61547943 -0.00000012
-0.41703830 -0.24721685 -0.00000035
0.07445293 0.72204597 0.00569129
-0.46741961 0.19556820 -0.00000039
0.07702503 0.70807613 0.02422762
-0.48170855 -0.15218721 -0.00000031
-0.71098134 0.13305330 -0.00000011
-0.02351366 -0.24445222 -0.00000035
-0.68563669 0.74899748 -0.00000014
-0.50824907 0.31357423 -0.00000036
0.25214570 0.46378443 0.13672165
-0.46952253 0.67424229 -0.00000041
-0.43783852 0.70057372 -0.00000045
-0.43167025 0.40708158 -0.00000046
-0.20585227 0.24624264 -0.00000065
0.64782232 0.12053716 0.05145490
-0.52132856 -0.29836482 -0.00000024
0.38909035 -0.41450714 -0.00000024
0.47529457 -0.37888485 -0.00000026
-0.41004193 0.40722848 -0.00000049
-0.31353592 -0.09004104 -0.00000044
-0.56516799 0.07285789 -0.00000026
0.17588702 0.55683094 0.10941932
-0.73112526 0.70845602 -0.00000009
0.57336027 -0.31904732 -0.00000042
0.24697060 -0.02601848 -0.00000048
-0.54346470 0.71072653 -0.00000032
0.57414020 0.15253974 0.11923906
0.33526858 0.13833936 -0.00000065
-0.22802615 0.38546859 -0.00000068
-0.42780576 -0.48791428 -0.00000020
0.60368631 -0.10861587 -0.00000067
0.08626173 -0.45421451 -0.00000022
-0.17839239 -0.47696050 -0.00000020
0.49446164 -0.67891920 -0.00000008
0.71801015 -0.71177967 -0.00000011
-0.05543503 0.29416204 -0.00000068
0.69477044 -0.65631171 -0.00000018
-0.46094327 0.50301939 -0.00000042
-0.36591182 0.65352884 -0.00000054
0.62972252 0.16487330 0.00878630
-0.70860212 -0.62995968 0.00000000
0.53410013 0.20311373 0.10210756
-0.38753488 -0.29975870 -0.00000031
-0.68055025 -0.11123580 -0.00000011
-0.40795712 -0.00212868 -0.00000042
-0.06726717 -0.10765508 -0.00000043
0.35575988 0.33731987 -0.00000089
0.19055163 -0.71842096 -0.00000005
-0.37054073 -0.44201265 -0.00000022
0.56005513 0.00604293 -0.00000075
-0.40720835 0.48289881 -0.00000049
-0.08321356 -0.52742934 -0.00000017
-0.05864927 -0.55534844 -0.00000015
-0.32996638 -0.10072579 -0.00000044
0.76018235 0.00725689 -0.00000097
-0.73924423 -0.54383059 0.00000000
0.31388502 0.44281263 0.07042073
0.12267129 0.06546539 -0.00000054
0.32891569 0.31860401 0.24797821
-0.07152515 0.42649584 -0.00000077
-0.09565593 0.54484060 -0.00000084
-0.13398581 0.62236295 -0.00000082
0.07036765 0.26550759 -0.00000067
0.62664406 -0.29375593 -0.00000050
-0.32788345 -0.14547161 -0.00000041
0.56187013 -0.44608330 -0.00000027
-0.39313871 0.16460457 -0.00000046
-0.64968941 -0.30272342 -0.00000010
0.04658876 0.20416141 -0.00000063
0.36934238 0.20593885 -0.00000076
0.00841626 0.36965437 -0.00000073
0.35165238 0.19707302 0.40864721
-0.57314750 0.74371190 -0.00000028
-0.73030422 -0.70378228 0.00000000
0.29738026 0.24083899 0.42573287
0.60680712 0.14763530 0.07408846
-0.53249371 -0.23493956 -0.00000024
-0.54212191 -0.47133934 -0.00000019
-0.59605845 0.08640344 -0.00000023
0.18558332 -0.62467011 -0.00000011
0.58234811 -0.53528119 -0.00000020
-0.26882781 0.50504539 -0.00000066
0.44465679 -0.04386471 -0.00000057
0.46311229 0.23557524 0.16476358
-0.27084075 0.46763361 -0.00000065
0.33220858 0.37492981 -0.00000090
0.03926101 0.71777579 0.06986860
-0.66758318 -0.29265144 -0.00000009
-0.26842916 0.07199333 -0.00000054
0.16289026 -0.05092874 -0.00000047
-0.06501767 -0.25163974 -0.00000034
0.07420542 -0.77213709 -0.00000002
-0.48191333 -0.36930990 -0.00000027
-0.56359020 -0.61457297 -0.00000012
-0.71397390 -0.49918327 -0.00000000
-0.16167914 0.15832650 -0.00000060
0.31949155 0.36620817 0.18588588
0.53305294 -0.36311189 -0.00000033
-0.75105637 0.64013136 -0.00000006
0.28798736 0.41828589 0.15242680
-0.20653792 0.67732421 -0.00000074
0.41753516 -0.61196624 -0.00000012
-0.21284241 -0.68733218 -0.00000007
-0.74147430 -0.46547293 0.00000000
0.24408558 0.39029692 0.26934250
-0.56987609 -0.56173524 -0.00000014
-0.34192517 0.47677846 -0.00000057
0.08027824 0.00804795 -0.00000051
-0.18391653 -0.00412865 -0.00000050
-0.24300252 0.67529237 -0.00000070
-0.14736962 0.50599353 -0.00000079
-0.79851995 -0.39557436 0.00000000
-0.42686024 0.63316893 -0.00000047
0.47548922 0.28015182 0.07213912
0.27168826 -0.56495317 -0.00000015
-0.59232113 0.40689904 -0.00000026
-0.19478661 0.33150317 -0.00000071
0.35112709 -0.07387088 -0.00000045
0.18199819 0.10527620 -0.00000057
-0.68163905 0.39635321 -0.00000015
0.43884280 -0.53441136 -0.00000017
0.54242253 -0.63203760 -0.00000010
-0.77216948 0.72532103 -0.00000003
-0.53717097 -0.79807444 -0.00000000
-0.56605751 0.23787410 -0.00000029
-0.23060454 -0.08938247 -0.00000044
0.18039336 -0.48279506 -0.00000020
-0.54022031 -0.64869251 -0.00000009
0.71722365 -0.37550312 -0.00000051
0.68811098 -0.04896272 -0.00000083
-0.10597543 -0.51438656 -0.00000018
-0.08236472 -0.20526387 -0.00000037
0.44160976 -0.10738205 -0.00000050
-0.70360888 -0.09141130 -0.00000009
-0.73724580 0.30623446 -0.00000008
-0.53747935 0.17385573 -0.00000031
0.56286122 0.17317076 0.10402966
0.42509118 0.32617447 -0.00000095
0.38099972 0.24428974 0.28413160
-0.77724002 0.33267236 -0.00000003
-0.39542394 0.66001028 -0.00000051
0.16815015 -0.75497306 -0.00000003
-0.35844810 -0.50995376 -0.00000018
0.10317018 -0.26518308 -0.00000033
0.69693337 0.04904847 -0.00000094
0.69631763 -0.23076931 -0.00000064
-0.56476261 -0.73720153 -0.00000004
0.62580511 0.14492898 -0.00000097
-0.62539294 0.20639495 -0.00000022
-0.34552613 0.44628258 -0.00000057
0.72112783 -0.52998822 -0.00000034
-0.66594247 -0.28535919 -0.00000009
-0.03406899 -0.05146356 -0.00000047
-0.45060272 0.25310317 -0.00000042
-0.71554165 0.29004824 -0.00000011
-0.62292510 0.61519360 -0.00000022
-0.71896367 -0.26135425 -0.00000004
0.23664391 -0.00485964 -0.00000050
-0.63107136 -0.74828404 -0.00000003
0.60514947 -0.43690424 -0.00000033
0.22913259 -0.03270294 -0.00000048
-0.55342149 -0.69123764 -0.00000007
-0.09180784 0.76917172 -0.00000089
-0.37610665 0.66266262 -0.00000053
0.70560395 -0.29211268 -0.00000059
0.15791772 0.62237383 -0.00000098
0.62547189 -0.73148517 -0.00000004
-0.44490932 0.06884197 -0.00000039
0.01914512 0.70459985 -0.00000094
-0.36314982 -0.70426598 -0.00000006
-0.24590098 -0.62132748 -0.00000011
-0.51180655 0.15612266 -0.00000034
0.62534569 -0.62242251 -0.00000015
-0.31413000 -0.28907412 -0.00000032
0.29102145 0.33261681 0.28681622
-0.66339993 -0.23647708 -0.00000010
-0.39820487 0.32268038 -0.00000049
-0.62582549 0.45290014 -0.00000022
-0.71058245 -0.26063581 -0.00000005
0.00533977 -0.00355153 -0.00000050
-0.46982477 -0.32113707 -0.00000029
-0.79077580 0.44898317 -0.00000001
-0.73310887 0.01023969 -0.00000007
0.06308055 0.44464598 -0.00000078
0.16359316 0.53068373 0.17193582
-0.65923432 -0.25149104 -0.00000010
0.04738311 0.70537879 0.07682093
0.75193840 -0.68064405 -0.00000015
-0.77404580 0.71251946 -0.00000003
0.60572016 -0.38420082 -0.00000038
0.03939115 -0.41811331 -0.00000024
-0.09826197 0.47028419 -0.00000079
0.18259401 0.59741588 -0.00000098
0.02283577 -0.62996888 -0.00000011
-0.06222392 0.59840376 -0.00000087
-0.26820699 -0.79027514 -0.00000001
-0.49146045 -0.75403833 -0.00000003
-0.22327227 -0.73952539 -0.00000004
-0.39505011 -0.32079778 -0.00000030
-0.25846436 0.41502744 -0.00000065
-0.66125613 0.74436503 -0.00000017
-0.47882719 0.17954764 -0.00000038
-0.24503508 0.21353136 -0.00000063
-0.64808991 -0.53203170 -0.00000006
-0.39725756 0.32575985 -0.00000049
-0.14614804 0.31008358 -0.00000069
-0.64750163 -0.44353742 -0.00000008
0.22806970 0.32287545 0.40503622
0.73219014 0.03766662 0.04901987
-0.77452729 0.74812605 -0.00000003
0.47209623 -0.19817254 -0.00000044
-0.18199068 -0.15069327 -0.00000041
-0.15981955 -0.32523428 -0.00000030
0.16567332 0.12682581 -0.00000058
-0.34737358 0.14277006 -0.00000051
0.33508944 -0.31138208 -0.00000031
0.31048639 -0.79552926 -0.00000000
-0.22014341 -0.35166325 -0.00000028
-0.55387256 0.50297983 -0.00000031
-0.10086906 -0.74202801 -0.00000004
-0.77467730 -0.79743498 0.00000000
0.21047152 -0.26194440 -0.00000034
-0.10090327 0.19613923 -0.00000062
-0.40349518 0.73101224 -0.00000050
0.79462802 -0.10718844 -0.00000087
-0.45541119 -0.53324454 -0.00000017
0.58539362 -0.08013181 -0.00000069
0.66086306 -0.61141671 -0.00000020
-0.53683792 0.78117484 -0.00000033
-0.12659828 0.40010996 -0.00000075
-0.30048029 -0.21882629 -0.00000036
-0.56321527 -0.66819707 -0.00000008
0.39442912 0.28353378 0.19846841
0.32298519 0.26641326 0.34250055
0.43071146 -0.39728849 -0.00000025
-0.10554509 0.61478434 -0.00000085
-0.18023548 0.10285560 -0.00000056
0.20513388 0.37600870 0.35592607
0.68465957 -0.66245629 -0.00000017
0.14160872 -0.54535186 -0.00000016
-0.27832638 0.69173645 -0.00000065
-0.03968331 -0.31024369 -0.00000031
-0.23095197 -0.34021150 -0.00000029
0.48858809 -0.47057604 -0.00000021
-0.34261898 -0.19929716 -0.00000038
0.39290380 -0.25936587 -0.00000034
-0.66051371 -0.65964034 -0.00000003
0.42860637 0.36952926 0.00302944
0.54940054 0.19080263 0.09724598
0.45919024 -0.62719593 -0.00000011
-0.05903708 -0.35112660 -0.00000028
-0.65038837 -0.42194050 -0.00000008
0.24722983 -0.74823956 -0.00000003
0.14333926 -0.43448203 -0.00000023
0.64452575 -0.11986250 -0.00000071
0.74883979 -0.00848829 -0.00000094
-0.44159168 0.64819088 -0.00000045
0.02762464 0.01420126 -0.00000051
-0.57568129 0.12299136 -0.00000026
0.15628817 -0.48850253 -0.00000019
-0.45354544 0.72701769 -0.00000043
0.34555806 -0.52259099 -0.00000017
-0.60159785 -0.37571527 -0.00000014
0.40370796 0.25357093 0.23210715
-0.72077248 0.58037248 -0.00000010
0.03797733 -0.24299988 -0.00000035
0.15403450 0.45502310 0.31052755
0.38123695 -0.41696100 -0.00000024
-0.27251775 -0.46397449 -0.00000021
0.60724944 -0.75029894 -0.00000003
0.30615196 0.25245708 0.39257311
0.25872925 -0.24566030 -0.00000035
0.31407780 -0.22235798 -0.00000036
-0.16875322 0.73579575 -0.00000079
0.45869914 -0.32786851 -0.00000030
0.11814720 0.09521121 -0.00000056
0.58834782 -0.01209272 -0.00000076
0.38704110 -0.67442493 -0.00000008
-0.37353256 0.02973682 -0.00000046
0.16473158 0.07046065 -0.00000054
0.68806034 0.09897450 0.02108286
-0.13118042 0.13669328 -0.00000059
0.25135541 -0.31898262 -0.00000030
0.53740420 -0.69686242 -0.00000006
0.37733006 0.24962618 0.28142090
0.14701084 -0.26639545 -0.00000033
-0.64050347 -0.55509338 -0.00000007
-0.04357789 0.08753137 -0.00000055
0.21108163 -0.07943321 -0.00000045
-0.50346903 -0.23885070 -0.00000027
0.35389559 0.23110773 0.34964859
-0.63779086 -0.65352101 -0.00000005
0.00483474 -0.29369542 -0.00000032
-0.09424912 -0.13970214 -0.00000041
-0.12472400 -0.78355106 -0.00000001
0.23171117 0.55495816 -0.00000099
0.71869075 -0.38540220 -0.00000050
-0.46621676 0.03894511 -0.00000036
-0.52009783 0.72817315 -0.00000035
-0.57783135 -0.30759126 -0.00000018
0.17253344 0.61641227 0.01797517
0.08656046 -0.63110263 -0.00000011
-0.16260112 -0.25691259 -0.00000034
0.24210077 0.54262013 0.02484604
0.49951652 0.27611883 0.03962204
-0.24330893 0.16361222 -0.00000060
0.18729673 0.37352638 -0.00000074
0.11609424 -0.78750977 -0.00000001
0.43875223 -0.27168790 -0.00000033
-0.67967800 -0.60747140 -0.00000002
0.04157311 0.68856415 -0.00000093
0.55242494 0.13377351 -0.00000088
-0.08440091 -0.72318176 -0.00000005
0.76317167 -0.14078277 -0.00000081
-0.18567354 0.28943047 -0.00000068
0.16613708 0.49581070 0.22451257
-0.57509303 0.36362131 -0.00000028
0.32195673 0.36870858 0.17781026
0.16161235 -0.60672717 -0.00000012
0.53912553 0.12654508 0.21845957
0.54000969 -0.72039477 -0.00000005
0.38023821 -0.36055209 -0.00000027
0.24473902 0.50921665 0.07488006
0.59954524 -0.55335585 -0.00000020
-0.28609066 0.26128716 -0.00000060
0.76527014 -0.13182041 -0.00000082
0.66463757 -0.56449698 -0.00000025
0.00068932 -0.25039583 -0.00000034
-0.68081794 0.59571236 -0.00000015
0.16473635 0.15193338 -0.00000059
-0.51752739 -0.60741102 -0.00000012
-0.07732739 -0.45692483 -0.00000021
0.23286901 0.49028918 0.12496652
0.66753338 0.03664780 -0.00000090
0.10469020 -0.47924860 -0.00000020
0.39810050 -0.68159911 -0.00000007
0.52162440 0.14026598 0.22460741
0.15491365 -0.43023037 -0.00000023
-0.28210134 0.09637082 -0.00000056
0.22164418 -0.30913346 -0.00000031
0.15923132 -0.72930212 -0.00000004
-0.36297695 -0.36161952 -0.00000027
-0.44467786 -0.49588483 -0.00000019
-0.44238228 0.60711348 -0.00000045
0.17173239 0.62587841 0.00388298
0.70031988 -0.52624728 -0.00000033
-0.41548782 0.06371165 -0.00000042
0.30441651 -0.71753446 -0.00000005
-0.41609574 -0.73082122 -0.00000004
0.14837051 0.56332001 -0.00000091
-0.40318047 -0.49643160 -0.00000019
-0.68110350 -0.26587649 -0.00000008
0.23129669 -0.31427081 -0.00000030
0.14921575 -0.77400321 -0.00000002
-0.03891924 0.41630214 -0.00000076
0.27047180 0.51727300 0.01992824
-0.22777757 0.23751950 -0.00000065
0.57796739 0.19386174 0.04581215
0.13612227 -0.07133971 -0.00000046
0.42002617 -0.67426278 -0.00000008
-0.28998289 -0.26228305 -0.00000034
-0.03217814 -0.13506645 -0.00000042
-0.59186671 -0.74215180 -0.00000004
-0.42544704 -0.23902632 -0.00000035
0.36432754 -0.65743303 -0.00000009
0.06835118 -0.20503117 -0.00000037
0.68888885 -0.07880326 -0.00000080
0.28338992 0.28172069 0.38199944
-0.03718404 -0.54833988 -0.00000016
0.27574213 -0.42385647 -0.00000024
0.11380198 0.42610031 -0.00000077
-0.68637447 -0.21038713 -0.00000008
-0.27750244 0.11313523 -0.00000057
-0.19269375 0.11179045 -0.00000057
0.78604918 -0.31782172 -0.00000060
0.04633004 -0.73151775 -0.00000004
0.03407920 -0.13367437 -0.00000042
0.48250845 -0.68116465 -0.00000007
-0.28254106 0.72650892 -0.00000065
0.64468946 -0.62820602 -0.00000016
-0.60436273 0.26870771 -0.00000024
-0.36666416 0.37420796 -0.00000053
0.52036528 0.22238575 0.09310237
0.25503869 0.15618156 -0.00000060
-0.37265257 0.00071748 -0.00000046
-0.30298903 0.66279056 -0.00000062
0.15328154 0.10963984 -0.00000057
-0.28899116 -0.34496811 -0.00000028
0.66563989 0.06437128 0.11382142
0.65539453 -0.51409943 -0.00000030
-0.15992965 -0.53302554 -0.00000017
0.02701196 0.24576507 -0.00000065
0.50886503 -0.22913507 -0.00000044
0.39917561 0.24385949 0.25527208
0.14830211 -0.03910228 -0.00000048
0.78584340 -0.44314731 -0.00000045
0.77703066 -0.08975748 -0.00000088
0.59498379 -0.72793120 -0.00000005
-0.50083693 -0.06357234 -0.00000031
-0.44468866 0.59939860 -0.00000044
-0.41566338 0.42734779 -0.00000048
-0.44933260 0.14610122 -0.00000040
-0.04064974 0.14427344 -0.00000059
0.21031657 0.35381192 0.38359606
-0.64643102 0.43653396 -0.00000019
-0.70947879 0.50904069 -0.00000011
0.03330506 0.14193920 -0.00000059
0.74289324 -0.37083454 -0.00000054
-0.17102678 -0.14998240 -0.00000041
0.26439480 -0.46058891 -0.00000021
-0.10268567 -0.31683894 -0.00000030
0.08235752 0.21503974 -0.00000063
0.09560803 0.24776130 -0.00000065
-0.17858354 0.18369225 -0.00000061
-0.41734386 0.07203866 -0.00000042
0.28421134 0.30046293 0.35018314
0.41438806 0.23501613 0.24491392
-0.24991535 -0.30824295 -0.00000031
-0.24528742 0.61965838 -0.00000069
0.22618252 0.45112933 -0.00000087
0.15971665 -0.76889796 -0.00000002
0.29727489 0.32020417 -0.00000081
-0.15914746 -0.68178421 -0.00000007
-0.06563765 -0.67192431 -0.00000008
-0.60930103 -0.43537738 -0.00000012
-0.54715781 -0.62954593 -0.00000011
0.73963231 -0.25643437 -0.00000066
0.14800767 0.57102119 0.13168166
-0.10014377 0.24496021 -0.00000065
0.49014888 -0.02715293 -0.00000064
-0.38799183 0.63571199 -0.00000052
0.57711219 -0.22027418 -0.00000053
-0.43927389 -0.45227709 -0.00000022
-0.24750880 0.29276813 -0.00000064
-0.30675242 -0.10638599 -0.00000043
-0.52080389 0.52255482 -0.00000035
-0.12809644 -0.77896845 -0.00000001
0.00828465 0.34293385 -0.00000071
-0.03824184 0.12849205 -0.00000058
0.26266606 -0.12866645 -0.00000042
-0.36671177 -0.45761630 -0.00000021
-0.77353077 0.72554911 -0.00000003
0.57079876 -0.68411628 -0.00000007
-0.00268365 -0.56685859 -0.00000015
-0.19807439 0.77529886 -0.00000075
0.60526513 -0.21762328 -0.00000056
0.42338896 0.09520306 -0.00000070
-0.30738972 0.31846717 -0.00000058
-0.66946876 -0.16353406 -0.00000011
0.11850623 0.54376107 0.22399254
-0.02420882 0.24811569 -0.00000066
0.42742375 -0.05649711 -0.00000054
0.09738909 0.65357283 0.07974862
-0.00954335 -0.55478525 -0.00000015
-0.03224195 -0.65521480 -0.00000009
0.36970561 0.01780864 -0.00000056
-0.61556874 -0.79538565 -0.00000000
-0.74130101 -0.07331735 -0.00000005
-0.24101744 0.72326993 -0.00000070
-0.78483618 -0.47780809 0.00000000
0.12415298 0.59723697 -0.00000092
0.15157964 0.64724251 0.00191295
-0.03972688 0.02272922 -0.00000051
0.49789647 -0.01431474 -0.00000066
0.29224851 -0.35894580 -0.00000028
0.01028843 -0.11925961 -0.00000043
-0.02042915 -0.03397494 -0.00000048
0.60651765 0.15023091 -0.00000095
-0.68949471 -0.43439208 -0.00000004
-0.37542717 0.20178676 -0.00000049
0.41131161 -0.35296550 -0.00000028
0.54603560 -0.63809083 -0.00000010
0.48995534 -0.12823260 -0.00000053
-0.49418752 0.18566436 -0.00000036
-0.17549422 0.35325305 -0.00000072
-0.20511602 -0.41051086 -0.00000024
-0.57014572 0.30882258 -0.00000029
-0.72878371 -0.24764307 -0.00000003
0.64092836 0.04640753 -0.00000088
0.19004166 0.51730224 0.15068521
-0.49302489 -0.65279859 -0.00000009
0.74110084 0.05437048 0.00736246
0.40716358 0.29430748 0.16023667
-0.18222052 0.30165655 -0.00000069
-0.20117385 0.15451774 -0.00000060
-0.40776315 -0.05830811 -0.00000041
0.02750609 -0.42036189 -0.00000024
-0.48851663 -0.43718723 -0.00000023
-0.65853370 0.24023291 -0.00000018
0.46975576 0.16019349 -0.00000082
0.50027098 0.04771554 -0.00000073
0.56610855 -0.46424930 -0.00000026
0.30913473 -0.77640429 -0.00000001
-0.00934939 0.36597338 -0.00000073
0.09178861 0.15095619 -0.00000059
0.29506615 0.27842673 0.36836748
0.27704856 -0.18849378 -0.00000038
-0.70239595 -0.33229311 -0.00000004
0.16904076 -0.59323437 -0.00000013
-0.68380714 -0.68226030 0.00000000
-0.65982589 -0.52277338 -0.00000005
-0.46112844 -0.78377635 -0.00000001
0.24030280 0.01657442 -0.00000051
0.66793610 -0.29429004 -0.00000055
0.47592227 0.13123091 -0.00000079
-0.24907848 0.30444203 -0.00000064
-0.29856810 0.73223102 -0.00000063
-0.09068111 0.11115039 -0.00000057
-0.63257062 -0.75529235 -0.00000003
-0.49595116 -0.05103466 -0.00000032
0.18338898 -0.18470828 -0.00000038
0.13702834 -0.18382343 -0.00000039
-0.61014348 -0.72481707 -0.00000005
0.36409252 0.39140382 0.07237445
-0.55228608 -0.16990426 -0.00000023
-0.05973624 0.10050464 -0.00000056
-0.47265191 0.14658298 -0.00000038
0.18526001 0.10231251 -0.00000056
0.67146015 -0.09735103 -0.00000076
0.04737282 -0.67888468 -0.00000008
-0.68554671 -0.78518972 0.00000000
-0.72954523 0.70082790 -0.00000009
0.29700993 -0.16147122 -0.00000040
-0.12548602 -0.18949994 -0.00000038
0.48827795 0.29643561 0.02485800
0.03234337 -0.06246259 -0.00000046
-0.38824135 0.26899787 -0.00000049
-0.26403894 -0.49952695 -0.00000019
0.73498744 0.02130285 -0.00000095
-0.50102030 0.47632783 -0.00000037
0.31562435 0.25198728 0.37793230
0.33261255 0.29865984 0.27440118
-0.78832294 0.15791356 -0.00000001
0.73372201 -0.39690754 -0.00000050
-0.14794531 -0.29291558 -0.00000032
0.02279591 0.69648211 -0.00000094
0.11952462 -0.49160557 -0.00000019
-0.12394518 0.03000745 -0.00000052
-0.39009376 -0.36001421 -0.00000027
-0.78011390 0.53608472 -0.00000002
0.65783620 -0.12604118 -0.00000071
-0.55467704 -0.16442847 -0.00000023
-0.71021355 -0.40005190 -0.00000002
0.52240792 -0.16046268 -0.00000053
0.47638360 -0.22714804 -0.00000041
0.34007522 0.33143893 0.20895611
0.40484561 -0.31039087 -0.00000031
-0.67403363 -0.78145314 0.00000000
-0.57525502 -0.04635250 -0.00000023
-0.67150953 0.57004593 -0.00000016
0.65530244 -0.21761642 -0.00000061
0.04957974 0.18644334 -0.00000062
0.13466363 -0.40284284 -0.00000025
-0.45013131 0.21282595 -0.00000041
0.19522589 0.17229440 -0.00000061
0.78336912 -0.75900320 -0.00000005
-0.50024004 0.18276775 -0.00000035
-0.25533966 -0.65403002 -0.00000009
0.09532773 0.57338546 -0.00000086
-0.28857646 0.29310257 -0.00000060
0.19387364 -0.57237298 -0.00000014
0.68479535 0.11423770 0.00156996
0.14691302 -0.28925663 -0.00000032
0.02862479 0.14921247 -0.00000059
-0.64629634 0.17596479 -0.00000019
-0.18406115 0.49619215 -0.00000075
0.63926484 -0.10847892 -0.00000071
0.08473665 -0.78722908 -0.00000001
0.58030886 -0.19235882 -0.00000056
-0.38835085 0.02473924 -0.00000044
0.37308302 0.19879940 -0.00000076
-0.60043091 -0.56045888 -0.00000011
0.56561672 -0.54310440 -0.00000017
0.40676692 -0.09408892 -0.00000048
-0.20150453 0.06338150 -0.00000054
-0.76000496 -0.01636109 -0.00000004
-0.22004534 0.69688400 -0.00000072
-0.55373221 0.08356707 -0.00000028
-0.24029811 -0.76772208 -0.00000002
-0.14663835 0.76489990 -0.00000082
-0.52500427 0.46706704 -0.00000034
-0.53397128 -0.64995214 -0.00000009
0.76417662 -0.08198790 -0.00000087
0.30713107 0.31160982 0.29478092
-0.36400162 0.53943229 -0.00000054
0.48956931 0.28513430 0.04113734
0.04729606 -0.40079254 -0.00000025
0.16951397 0.40765107 -0.00000076
-0.49222866 -0.36404893 -0.00000026
-0.61891564 -0.78202910 -0.00000001
-0.42699759 0.00502696 -0.00000040
0.00164829 0.59488757 -0.00000087
-0.52393364 -0.16602224 -0.00000026
0.40469198 -0.40785107 -0.00000025
-0.71718761 -0.20895557 -0.00000005
-0.78170462 0.36946826 -0.00000002
-0.34367794 -0.36725308 -0.00000027
0.62682999 -0.77221746 -0.00000002
-0.65713340 0.79088136 -0.00000018
0.23795148 0.12323608 -0.00000058
-0.16105119 0.20970718 -0.00000063
0.73667510 -0.23221614 -0.00000068
-0.49725558 0.14140935 -0.00000035
-0.64413827 -0.61227461 -0.00000005
0.57373635 0.16528654 -0.00000093
-0.76862948 0.78141248 -0.00000004
-0.49787915 -0.64903151 -0.00000009
0.53040930 0.15948254 -0.00000088
0.76665268 -0.01161053 -0.00000095
-0.76153862 -0.67271110 0.00000000
-0.46486775 0.38452955 -0.00000042
0.00928283 0.04882609 -0.00000053
-0.79682156 0.21693409 -0.00000000
-0.75848085 0.54364272 -0.00000005
0.27867486 -0.16472261 -0.00000040
-0.00367196 -0.75227187 -0.00000003
0.54712285 -0.12736484 -0.00000059
0.26277447 0.04026799 -0.00000053
0.38440393 0.24258512 -0.00000082
0.14978342 -0.66529835 -0.00000008
-0.65870392 -0.37837564 -0.00000008
-0.03470044 0.11734500 -0.00000057
-0.60221574 -0.63400094 -0.00000009
-0.40670698 0.19738937 -0.00000046
-0.47845806 0.79837942 -0.00000040
0.46284611 -0.64003290 -0.00000010
0.21291534 -0.62305825 -0.00000011
0.30635142 0.25827918 0.38278027
0.35269319 -0.55920172 -0.00000015
0.65677984 -0.10422688 -0.00000074
0.37413138 0.19100947 -0.00000075
-0.04705212 0.19614303 -0.00000062
0.27012417 -0.30151843 -0.00000031
-0.56425163 0.21281066 -0.00000029
-0.61644391 0.28506927 -0.00000023
0.51033360 -0.42842579 -0.00000023
-0.31672518 -0.18031422 -0.00000039
-0.11646013 -0.29054719 -0.00000032
-0.55212127 0.21973807 -0.00000030
-0.72638714 0.34293556 -0.00000009
0.33343373 0.10151418 -0.00000061
0.20776598 -0.07035212 -0.00000046
-0.03246125 0.27566083 -0.00000067
0.12284040 -0.74706292 -0.00000003
-0.33422862 -0.66410713 -0.00000008
0.26994065 0.32295237 0.33681690
-0.77839880 -0.03630977 -0.00000002
0.30045747 0.49865593 0.00143929
0.36642955 0.36764457 0.10721377
-0.15681178 -0.62033372 -0.00000011
-0.07445145 -0.16534882 -0.00000040
0.18436846 0.39271458 0.36252791
0.58383192 0.11540720 0.16386652
-0.33368387 0.76483637 -0.00000058
-0.54201087 -0.02096917 -0.00000027
-0.38738358 -0.27838406 -0.00000033
0.20487714 -0.25519188 -0.00000034
0.31956484 0.08577190 -0.00000058
-0.46610577 -0.02556118 -0.00000035
0.50572351 -0.66465520 -0.00000008
0.21408350 -0.75540214 -0.00000003
0.55101835 0.09972572 -0.00000084
-0.18799527 -0.04485383 -0.00000047
0.56329111 -0.05829414 -0.00000069
-0.74633807 -0.37030179 0.00000000
-0.22571081 0.65131741 -0.00000072
0.56727949 -0.52502900 -0.00000019
0.48200149 0.21195506 0.17245766
-0.02166294 0.17467356 -0.00000061
0.56417981 -0.38087892 -0.00000034
0.27624250 -0.41665731 -0.00000024
-0.62923579 0.54497760 -0.00000021
-0.76074344 0.49198751 -0.00000005
0.66506294 0.07626437 0.09541779
-0.70213137 -0.53074705 -0.00000001
-0.35498831 -0.32608375 -0.00000030
0.14420597 0.52217981 -0.00000086
-0.15220248 -0.41480220 -0.00000024
0.40745009 0.18741070 0.33361785
-0.09975532 -0.02152334 -0.00000049
-0.19664336 -0.60478428 -0.00000012
0.64530187 -0.78550438 -0.00000001
0.15175000 -0.71607378 -0.00000005
-0.55880573 0.06683912 -0.00000027
-0.79927362 -0.32442534 0.00000000
-0.51287743 -0.16887087 -0.00000028
0.41153733 0.18243937 0.33505568
-0.55760716 0.73740357 -0.00000030
0.64117813 -0.41139901 -0.00000039
0.79773353 -0.40103723 -0.00000050
-0.33667699 0.72500559 -0.00000058
0.20394537 0.16927585 -0.00000061
0.41378747 -0.50993801 -0.00000018
0.40291511 -0.78723195 -0.00000001
-0.15713621 0.62331484 -0.00000080
-0.44460668 0.21285007 -0.00000042
-0.12167712 0.76327727 -0.00000085
-0.13217723 0.10730478 -0.00000057
-0.01695860 0.16042061 -0.00000060
0.74963583 -0.02295857 -0.00000092
-0.67490689 0.58139893 -0.00000016
-0.78552241 0.37378709 -0.00000002
0.40238223 0.27875677 0.19330305
0.13632487 0.45418175 -0.00000078
0.78553096 -0.33298743 -0.00000058
0.26299239 0.41572663 0.19723836
-0.62780394 0.29404484 -0.00000022
0.62219981 -0.16266671 -0.00000064
-0.08591633 -0.27960241 -0.00000033
0.00941699 0.39920292 -0.00000075
0.21817024 0.29191300 -0.00000069
0.29904818 0.29780218 0.33038133
0.03313451 0.76468122 -0.00000100
-0.09536794 -0.11272519 -0.00000043
-0.11437000 0.69890824 -0.00000086
0.58573387 0.14323189 0.11552159
0.05068894 -0.76037383 -0.00000002
-0.78035800 0.53182433 -0.00000002
0.30767842 0.33972803 -0.00000084
0.33309752 -0.55962089 -0.00000015
0.78546817 -0.06263366 -0.00000092
-0.07130419 -0.08000967 -0.00000045
-0.77070527 0.53313429 -0.00000004
-0.00463101 0.72187977 -0.00000095
0.29382021 0.09660856 -0.00000056
-0.09757221 0.13001308 -0.00000058
0.21883508 0.47214094 -0.00000088
0.61726953 0.17718129 0.00902211
0.30463812 0.24866535 -0.00000074
0.47646521 -0.39103562 -0.00000026
-0.16244457 0.55396452 -0.00000078
-0.52131253 -0.56838410 -0.00000014
-0.73192142 -0.13281582 -0.00000005
0.60380694 -0.10221684 -0.00000068
0.35808020 0.33058831 -0.00000088
0.12565289 -0.72778875 -0.00000005
-0.65888934 0.28272366 -0.00000018
0.20725270 0.44635691 0.23807323
-0.38031867 0.31174651 -0.00000050
0.21389322 0.51061055 -0.00000092
0.18484189 0.47799763 0.22306247
0.17209277 0.45477089 0.28156976
0.77350224 -0.48340171 -0.00000040
0.68176311 -0.66907341 -0.00000016
0.49518267 0.09926337 -0.00000078
0.13197440 0.50132248 0.27110712
0.02022364 0.13574314 -0.00000058
0.03668449 -0.75329677 -0.00000003
-0.13430987 -0.66153139 -0.00000009
-0.21698482 0.28443765 -0.00000067
-0.40183488 -0.23462630 -0.00000035
-0.30850296 -0.56395676 -0.00000015
0.36609828 0.32839672 -0.00000089
-0.42456249 -0.19940974 -0.00000036
0.57165879 -0.14116433 -0.00000061
0.51175964 0.14906922 -0.00000085
-0.51662422 -0.47260279 -0.00000020
0.24213776 0.33585898 -0.00000076
0.26089887 -0.44150469 -0.00000022
0.44809861 -0.63212328 -0.00000010
0.55107340 0.22981566 -0.00000098
0.21057220 0.46851632 0.19663700
0.47977217 -0.25357441 -0.00000039
0.15946262 0.26656050 -0.00000067
-0.03986542 -0.42980817 -0.00000023
0.70392599 -0.72200195 -0.00000010
0.32230896 0.07086332 -0.00000057
0.39126587 -0.77313570 -0.00000002
0.19755052 -0.19490631 -0.00000038
0.11509469 0.57527134 0.17829565
-0.49469724 0.64571378 -0.00000038
-0.14552603 0.71481798 -0.00000082
-0.58137874 0.48491467 -0.00000027
0.40124298 -0.32468763 -0.00000030
-0.30299359 0.21674006 -0.00000057
-0.40630679 0.02387484 -0.00000042
-0.75539587 0.69297920 -0.00000006
-0.40208439 -0.15081062 -0.00000040
0.53575667 0.10413900 -0.00000083
0.78053439 0.01292067 0.01064154
0.02359911 0.77379427 0.00423658
0.27250214 0.33927446 0.30610664
0.19563414 0.59551335 -0.00000099
0.39013359 -0.49928146 -0.00000019
0.02023969 -0.37873064 -0.00000026
-0.69030304 0.12451112 -0.00000014
0.35917697 0.33093775 -0.00000088
-0.07782278 -0.47642394 -0.00000020
-0.28504043 -0.00241459 -0.00000050
0.35637808 0.41171116 0.05189442
-0.22362313 -0.07536185 -0.00000045
-0.76642651 0.40544334 -0.00000004
-0.21997201 0.42680943 -0.00000070
-0.38637064 0.07321604 -0.00000045
-0.49063872 -0.62272942 -0.00000011
-0.59255460 0.49613910 -0.00000026
-0.07422596 -0.68108967 -0.00000007
0.05282765 0.73535213 0.01922082
-0.64860903 0.06128351 -0.00000017
-0.12002392 -0.39884628 -0.00000025
-0.79801893 0.47506771 -0.00000000
-0.33998376 -0.45553479 -0.00000022
-0.59874593 0.15751941 -0.00000024
0.18153240 0.38104520 0.38611802
0.26178498 -0.03954482 -0.00000048
0.54711985 -0.65809493 -0.00000009
-0.11385129 -0.39960803 -0.00000025
0.20833939 0.33730697 0.41365346
-0.22873822 -0.00487306 -0.00000050
0.20418799 0.52047245 -0.00000092
-0.21597976 0.19310504 -0.00000062
0.31625598 -0.49458828 -0.00000019
-0.29559095 -0.15677377 -0.00000040
-0.29986087 -0.72973723 -0.00000004
-0.60058877 0.25163761 -0.00000025
-0.58764741 -0.39403105 -0.00000015
-0.57736537 0.73997044 -0.00000028
-0.59606917 -0.14694160 -0.00000019
-0.19176347 -0.79192079 -0.00000001
-0.72510435 -0.74236644 0.00000000
0.35752016 -0.74109611 -0.00000004
-0.10760133 0.66729033 -0.00000086
0.56975024 0.01577910 -0.00000077
-0.76249578 -0.38550654 0.00000000
-0.29236748 -0.27375643 -0.00000033
-0.65538414 0.39321790 -0.00000018
0.14786329 -0.55009950 -0.00000016
-0.44046411 0.51423352 -0.00000045
0.53007640 -0.37941178 -0.00000031
-0.37979807 0.35555602 -0.00000051
0.47913207 -0.12577843 -0.00000052
-0.36664040 -0.00781342 -0.00000046
0.43543527 0.32203546 0.06916347
-0.10462635 -0.59438483 -0.00000013
0.27790334 -0.32150366 -0.00000030
-0.71647779 -0.75594126 0.00000000
0.48908615 0.16903904 0.23073081
0.53622516 -0.09881742 -0.00000061
0.59955119 0.14582136 0.08883894
-0.45746393 0.67035522 -0.00000043
-0.33257447 -0.00960685 -0.00000049
-0.61468281 -0.06401992 -0.00000019
0.10177215 0.56704392 0.21334216
-0.61617173 0.65783086 -0.00000023
0.45630823 -0.50692808 -0.00000018
-0.73200896 -0.05108922 -0.00000006
-0.26221669 0.71962251 -0.00000067
-0.61313693 -0.06846609 -0.00000019
0.41714926 -0.55837336 -0.00000015
-0.61238919 -0.09543415 -0.00000018
-0.19553066 0.64909529 -0.00000076
0.51370057 0.19826038 0.14317679
0.14536968 0.11907704 -0.00000057
-0.59221745 0.68664004 -0.00000026
-0.59956830 0.14212383 -0.00000024
0.06828951 -0.68961630 -0.00000007
0.41915954 0.27100637 0.17862245
-0.08599259 -0.20000910 -0.00000037
-0.44420557 0.58875376 -0.00000044
-0.79322494 0.42765683 -0.00000001
-0.18078466 0.63832574 -0.00000077
0.33001957 -0.61539718 -0.00000012
0.18350142 0.55003768 0.10808387
-0.00433306 0.25948309 -0.00000066
-0.46552771 -0.04039219 -0.00000035
-0.26256317 0.15495835 -0.00000060
0.36058199 -0.25249332 -0.00000034
-0.12106669 -0.75688816 -0.00000003
-0.50569567 0.19012090 -0.00000035
0.20491275 0.58611220 0.01459365
0.08666516 -0.20273636 -0.00000037
0.34708230 -0.32639898 -0.00000030
-0.77605755 0.04283234 -0.00000003
-0.47806315 0.38055455 -0.00000040
0.23481535 -0.79546459 -0.00000000
0.38688995 0.07995192 -0.00000064
0.58854751 -0.52540749 -0.00000021
-0.16370437 0.69126152 -0.00000080
-0.49982810 0.75603287 -0.00000038
-0.77634571 0.45116833 -0.00000003
-0.33001479 -0.13446949 -0.00000042
-0.52510457 0.62492346 -0.00000034
-0.45438157 -0.76098579 -0.00000002
0.60709380 -0.18942879 -0.00000059
0.24549265 -0.34923881 -0.00000028
-0.64236814 -0.71505712 -0.00000004
0.17649471 -0.54721835 -0.00000016
0.16204867 0.63704438 0.00147238
0.19400647 0.24970828 -0.00000066
0.36795691 0.22625977 0.33466504
-0.15231443 -0.25512238 -0.00000034
-0.55435116 -0.57843520 -0.00000014
-0.73161944 -0.73812278 0.00000000
-0.45939800 -0.43693982 -0.00000023
-0.56715868 0.08481606 -0.00000026
0.61570336 -0.20986464 -0.00000058
-0.34013044 -0.11580031 -0.00000043
-0.55548271 0.23554977 -0.00000030
-0.77696248 -0.00373013 -0.00000002
-0.74765220 -0.24891357 -0.00000001
-0.14761053 0.23273707 -0.00000065
-0.25170636 -0.10474795 -0.00000043
0.52157724 -0.11633863 -0.00000058
0.06894523 0.10995752 -0.00000057
-0.13220270 0.75567563 -0.00000083
0.51021655 -0.47097654 -0.00000021
-0.56891318 0.00608903 -0.00000025
0.19726743 0.56003491 0.06943732
0.51361668 0.18682238 0.16191503
0.11757611 0.44365635 -0.00000078
-0.79901826 -0.15038439 0.00000000
-0.22967079 -0.72217003 -0.00000005
0.24411312 0.50310656 0.08583491
-0.73877675 0.30179875 -0.00000008
-0.74278823 -0.44590644 0.00000000
0.24730207 -0.60850851 -0.00000012
0.74936042 -0.75895994 -0.00000005
-0.08404980 -0.69269224 -0.00000007
0.35270201 -0.35336500 -0.00000028
-0.21807714 -0.60169624 -0.00000012
-0.05162701 -0.70016973 -0.00000006
0.18906015 0.13487768 -0.00000058
-0.35720534 0.65569827 -0.00000055
-0.34162895 0.49198968 -0.00000057
0.78012010 -0.58310108 -0.00000027
-0.12505418 0.02851436 -0.00000052
0.54180098 0.24974077 -0.00000099
0.76942585 -0.35106036 -0.00000056
-0.08138559 -0.30221539 -0.00000031
0.52081498 -0.73894755 -0.00000004
-0.09081748 -0.24723743 -0.00000035
-0.46965345 -0.09833060 -0.00000033
-0.01298317 0.07906428 -0.00000055
0.06730107 0.65702115 0.12307243
-0.74039600 -0.57161859 0.00000000
-0.56195850 0.68700912 -0.00000030
0.59625873 -0.74384146 -0.00000004
0.70502453 0.07564668 -0.00000098
-0.58906257 -0.55085235 -0.00000012
0.54002530 0.22097271 -0.00000096
-0.22533367 0.52339659 -0.00000071
-0.24244907 -0.42212380 -0.00000024
0.39604577 -0.51475729 -0.00000018
-0.69533800 -0.66902508 0.00000000
-0.40457326 0.54247915 -0.00000049
-0.70495545 0.14976983 -0.00000012
0.63107791 -0.37912582 -0.00000042
0.59861252 -0.32181785 -0.00000044
-0.77928722 -0.63525434 0.00000000
-0.18928128 -0.43006654 -0.00000023
0.63185630 -0.07393048 -0.00000074
-0.23707235 -0.18703077 -0.00000038
0.21713744 0.04954473 -0.00000053
-0.65759453 0.32690548 -0.00000018
0.28538887 0.34946435 -0.00000082
0.52156013 0.13274636 0.23694121
0.66231039 0.13764224 -0.00000100
-0.69924829 0.20303626 -0.00000013
0.46314385 -0.29225844 -0.00000033
-0.32590399 -0.34593083 -0.00000028
0.22278313 0.10340230 -0.00000056
-0.44400427 -0.11972996 -0.00000036
-0.06867839 0.57133531 -0.00000086
0.59267750 -0.69202031 -0.00000007
-0.09181725 -0.34213183 -0.00000029
0.71102737 -0.52524554 -0.00000034
0.22912817 0.14322357 -0.00000059
0.44560157 0.21391056 0.22847520
0.45470684 0.20806238 0.22317814
-0.34908248 -0.11184478 -0.00000043
0.17568800 0.54484999 0.12922759
-0.15273238 -0.79685639 -0.00000000
0.47081345 -0.29167720 -0.00000034
-0.61358903 0.56624655 -0.00000023
0.48416221 0.21058032 0.17117940
0.43925659 -0.15561056 -0.00000045
-0.49643778 0.58501342 -0.00000038
-0.64269950 -0.32128686 -0.00000011
0.73907097 -0.36696288 -0.00000054
-0.03594603 0.29605880 -0.00000069
0.36514695 0.23621387 0.32304653
0.48824139 0.19330224 -0.00000087
0.78406631 -0.45129651 -0.00000044
0.31364178 -0.75227247 -0.00000003
-0.54730919 -0.47027442 -0.00000018
-0.11112754 0.59401797 -0.00000084
0.48995631 -0.74286930 -0.00000004
-0.49880124 -0.52055677 -0.00000017
0.76754836 -0.19188816 -0.00000076
0.27860634 -0.06730120 -0.00000046
-0.78808781 0.46375158 -0.00000001
-0.46321827 0.59026161 -0.00000042
-0.43132104 -0.36379715 -0.00000027
0.40768466 0.17065403 0.36048769
-0.19947512 -0.72239416 -0.00000005
0.11612360 -0.78282666 -0.00000001
0.04268796 -0.69261708 -0.00000007
0.03721942 -0.58596905 -0.00000013
0.74503003 -0.66919773 -0.00000016
-0.50626866 0.35644257 -0.00000037
-0.75713088 0.08832847 -0.00000005
0.20620177 0.56308492 0.04994697
-0.60964162 0.19082495 -0.00000024
-0.31101005 0.49281734 -0.00000061
0.67207090 -0.62083589 -0.00000020
0.45409360 0.20997986 -0.00000085
-0.32218626 0.65848949 -0.00000060
0.36889037 0.08122981 -0.00000063
-0.23151668 0.21679175 -0.00000064
0.31424313 -0.50494120 -0.00000018
-0.66416184 -0.79660719 0.00000000
-0.65705703 -0.77888801 -0.00000001
-0.64935595 -0.32091453 -0.00000010
0.42565607 0.21282959 0.26267090
0.46715711 0.28298426 0.08108333
0.60993678 0.11917657 0.11528155
-0.47374497 -0.66544799 -0.00000008
-0.60539969 0.59338088 -0.00000024
0.29406178 -0.25989932 -0.00000034
0.60986077 0.10767843 0.13410478
0.76678234 -0.69946799 -0.00000013
0.25868049 -0.72769707 -0.00000005
-0.43951243 0.05265570 -0.00000039
-0.56163100 -0.08399580 -0.00000024
-0.39537647 0.74745234 -0.00000051
0.76137866 -0.22241915 -0.00000072
-0.50856274 0.19831853 -0.00000035
0.13174344 -0.66115112 -0.00000009
0.61271953 -0.56324947 -0.00000020
0.43654635 0.36173972 0.00278478
0.15599471 -0.59113309 -0.00000013
0.79156872 -0.21250011 -0.00000073
0.24855347 0.29830921 0.41167570
-0.55912419 0.05202922 -0.00000027
0.50285343 -0.74698630 -0.00000003
-0.41246856 -0.75900938 -0.00000003
-0.11212629 -0.11526791 -0.00000043
0.00899291 0.15364745 -0.00000060
-0.43677326 -0.34699453 -0.00000028
-0.09461275 -0.18074038 -0.00000039
0.49602478 -0.68343942 -0.00000007
-0.64298648 0.72408157 -0.00000020
0.06314987 0.71574014 0.03432893
-0.46371335 0.07176223 -0.00000037
0.29768691 0.09535294 -0.00000057
0.44304605 -0.51590024 -0.00000018
-0.04047585 -0.64391782 -0.00000010
-0.61629105 0.04104708 -0.00000020
-0.53717391 -0.14354820 -0.00000025
-0.41625209 -0.65753250 -0.00000009
0.65985604 0.12908625 0.01798073
0.32573333 0.35974238 0.18625020
-0.24707762 0.16307873 -0.00000060
0.71643272 -0.10151196 -0.00000080
0.69369701 -0.04525405 -0.00000084
-0.39373504 0.35817857 -0.00000050
0.36688799 0.21924303 -0.00000077
-0.22394905 0.36046250 -0.00000068
-0.60310621 -0.21954546 -0.00000017
-0.08334331 -0.62410598 -0.00000011
-0.07951272 0.05365151 -0.00000053
0.17443030 0.62066995 0.00796594
-0.19370723 -0.69054971 -0.00000007
0.25407948 0.37209095 -0.00000081
0.75627045 -0.31433835 -0.00000061
0.65135499 0.12247204 -0.00000097
-0.27163726 0.76074046 -0.00000066
-0.47073825 -0.02776702 -0.00000035
0.74235104 -0.26768193 -0.00000065
-0.07854003 -0.45937092 -0.00000021
-0.09634932 0.46921990 -0.00000079
0.14363950 -0.53925286 -0.00000016
-0.73181338 0.60005271 -0.00000009
0.30173735 -0.42653225 -0.00000023
-0.35141684 -0.29526190 -0.00000032
-0.63690684 -0.67920488 -0.00000005
0.46628997 0.30524280 0.04629414
0.53767082 0.13016133 -0.00000086
0.51446931 0.26370311 0.03549597
-0.16002511 0.20337454 -0.00000063
0.39130388 -0.39353416 -0.00000025
-0.23595127 -0.68005917 -0.00000007
0.07701817 -0.24315387 -0.00000035
0.45284105 -0.02409935 -0.00000060
-0.19560588 0.75711115 -0.00000076
-0.41678511 -0.53058662 -0.00000017
-0.75766059 -0.27731614 0.00000000
-0.26927659 0.68464383 -0.00000066
-0.59603882 0.47455332 -0.00000025
0.13746767 0.36981496 -0.00000073
-0.30252396 -0.53469300 -0.00000017
-0.39728573 0.32080526 -0.00000049
-0.76946359 0.76721992 -0.00000004
0.23741429 -0.04672437 -0.00000047
0.07084398 0.66044559 0.11174148
0.47303472 -0.51955562 -0.00000018
0.11112173 0.12695173 -0.00000058
-0.72696610 0.15923703 -0.00000009
0.57128212 0.12942060 -0.00000089
0.05991214 0.34892552 -0.00000072
0.09795659 -0.74665433 -0.00000003
0.28446123 -0.35438689 -0.00000028
-0.55355402 0.27228037 -0.00000031
0.51311551 0.16055015 0.20545706
0.17468235 0.39762254 0.37029852
-0.12879521 -0.37714854 -0.00000026
-0.24241504 0.56115114 -0.00000070
-0.61102124 -0.59133928 -0.00000009
-0.13995279 -0.10601033 -0.00000043
0.41644774 -0.52412205 -0.00000017
-0.53682298 -0.15087329 -0.00000025
0.62674064 -0.04362763 -0.00000077
-0.00106930 -0.45353868 -0.00000022
0.26083712 -0.20945275 -0.00000037
0.29208187 0.47591701 0.05204137
-0.06824340 -0.23920092 -0.00000035
0.21935975 0.55829563 0.03633683
0.52514159 -0.09684867 -0.00000060
-0.51284921 -0.65019337 -0.00000009
-0.49276629 0.21530884 -0.00000037
-0.72813350 -0.74895167 0.00000000
0.42748565 -0.66472896 -0.00000008
-0.06078264 -0.73084223 -0.00000004
0.13552206 -0.23255837 -0.00000035
0.75616666 -0.04550054 -0.00000090
0.44533807 0.17357365 0.29450425
-0.59969281 -0.33300935 -0.00000015
0.66223080 0.10353737 0.05566920
-0.02799258 0.17274149 -0.00000061
-0.58691045 -0.05797629 -0.00000022
-0.34880536 0.27540304 -0.00000053
0.71876209 -0.74473254 -0.00000007
0.71767326 -0.44276034 -0.00000044
0.30723042 0.08466918 -0.00000056
-0.79980954 -0.27543571 0.00000000
0.10537231 0.63815945 0.09183233
0.04856004 -0.55136563 -0.00000016
0.21793457 -0.50364699 -0.00000019
0.59739390 -0.08895375 -0.00000069
-0.36434680 -0.78894349 -0.00000001
0.01232866 -0.34725779 -0.00000028
0.31952576 -0.27362117 -0.00000033
0.45720405 0.07870026 -0.00000072
-0.03417510 0.46791734 -0.00000079
0.52550216 -0.79107418 -0.00000001
-0.74864772 -0.21024019 -0.00000002
-0.66148922 0.58913524 -0.00000017
-0.46407076 0.29784478 -0.00000041
-0.24286288 0.22108911 -0.00000063
-0.75727567 0.22828055 -0.00000005
0.60271547 -0.16349939 -0.00000062
-0.55850847 -0.60377432 -0.00000012
0.18823341 0.51476680 0.15774933
-0.23771264 -0.22167624 -0.00000036
0.62528307 -0.68103215 -0.00000009
0.15616078 0.01601242 -0.00000051
0.44281026 -0.06258750 -0.00000055
-0.07993760 0.54691813 -0.00000084
0.40424457 -0.55077520 -0.00000016
0.66468077 -0.35150030 -0.00000048
0.18900304 0.53570281 -0.00000092
-0.32549223 0.17464160 -0.00000054
-0.48320961 -0.27724169 -0.00000029
-0.66308777 0.49294860 -0.00000017
0.45742076 -0.73345587 -0.00000004
-0.71713130 -0.64628664 0.00000000
0.67407994 -0.57995152 -0.00000025
0.65537408 -0.05169586 -0.00000079
-0.04783166 -0.49125530 -0.00000019
-0.57925789 0.12710859 -0.00000026
0.75665123 -0.46830617 -0.00000041
0.70001891 0.07915712 0.03386378
-0.04029612 0.34823375 -0.00000072
0.47131798 -0.22516638 -0.00000041
0.39104893 0.22810526 -0.00000081
-0.10980720 -0.65179903 -0.00000009
-0.66522803 -0.64956048 -0.00000002
-0.44779238 0.29800219 -0.00000043
-0.75059275 -0.07866258 -0.00000004
0.25155078 0.46768903 0.13133905
0.35333072 -0.10357434 -0.00000044
-0.55044500 0.51790300 -0.00000031
0.51632452 -0.47400979 -0.00000020
0.10268726 -0.37566144 -0.00000027
0.00208829 -0.07126820 -0.00000046
-0.27200985 -0.64121067 -0.00000010
0.04118895 0.43735853 -0.00000077
0.75900918 -0.64990253 -0.00000019
0.36210835 -0.22841749 -0.00000036
-0.32143399 0.68135830 -0.00000060
-0.71445568 0.03719571 -0.00000010
0.01922724 0.76443954 -0.00000098
0.27315750 0.51146728 -0.00000098
0.43616173 0.20626830 -0.00000083
0.15094513 0.46579919 0.29802664
-0.27769829 -0.35838497 -0.00000028
-0.39897351 -0.00265992 -0.00000043
-0.43958642 0.52392822 -0.00000045
-0.32766488 -0.18252884 -0.00000039
-0.74580660 0.06576718 -0.00000007
0.41736070 0.26679419 -0.00000088
0.51520996 0.11873930 -0.00000082
-0.59925044 0.08725732 -0.00000023
0.66740685 0.01622184 -0.00000088
-0.33840675 0.42638561 -0.00000057
0.13753806 0.61668349 0.07444766
-0.23209635 -0.79982696 -0.00000000
0.72186978 -0.73697089 -0.00000008
-0.76478925 -0.48808076 0.00000000
-0.55043556 0.40119722 -0.00000031
0.14993590 0.61254929 0.06100837
0.17558182 0.10867546 -0.00000057
0.56989893 0.09468820 -0.00000086
-0.36624059 -0.41492352 -0.00000024
-0.15154771 0.43153545 -0.00000077
-0.02002990 0.31155495 -0.00000069
0.65412131 -0.29985547 -0.00000052
-0.51908197 -0.11185788 -0.00000028
