ply
format ascii 1.0
element vertex 1402
property float x
property float y
property float z
end_header
-0.13890882 -0.27409438 0.00000000
0.32435223 0.17298580 -0.00000014
-0.40726860 0.08484260 0.00000000
0.26869377 -0.70752675 0.00000000
0.03655614 -0.40356781 0.00000000
0.72481168 -0.48743572 -0.00000039
0.71423805 -0.30959846 -0.00000054
-0.29728890 0.05905713 0.00000000
0.30309738 -0.10780566 0.00000000
-0.77531811 0.78910899 0.00000000
-0.34081006 -0.48483755 0.00000000
-0.26839347 -0.52223719 0.00000000
-0.68299219 -0.30920206 0.00000000
-0.50564162 -0.47575832 0.00000000
0.37479745 0.42929500 0.33118852
0.23765212 0.56523949 0.23403674
0.79557374 -0.27217207 -0.00000066
-0.49651240 0.29367094 0.00000000
-0.73882617 0.08151221 0.00000000
-0.37148317 -0.36411488 0.00000000
-0.18724607 -0.03953160 0.00000000
-0.71059588 0.54925033 0.00000000
-0.26287245 0.64744874 0.00000000
-0.50317745 -0.35519927 0.00000000
-0.27092030 0.70494170 0.00000000
-0.13012142 0.48730973 0.00000000
0.28698221 0.21511145 -0.00000010
0.05096539 0.28140084 0.00000000
0.54311801 0.05379383 -0.00000050
0.66964535 0.13046357 0.00889014
-0.04884764 0.65748623 0.00000000
-0.31971893 0.27929310 0.00000000
0.33560231 -0.42409696 0.00000000
-0.74317384 -0.34669523 0.00000000
-0.61112320 0.78539499 0.00000000
-0.24936555 -0.24321200 0.00000000
0.29918633 0.44606851 -0.00000033
0.16887803 0.52664303 -0.00000012
-0.46921885 -0.79424908 0.00000000
-0.17337749 0.13687136 0.00000000
-0.68607803 -0.23149806 0.00000000
0.19450541 -0.71869414 0.00000000
-0.24396224 0.73553235 0.00000000
0.46131814 0.04432527 -0.00000032
-0.51488798 0.19477324 0.00000000
0.79054273 -0.12702445 -0.00000084
-0.44972971 -0.30648570 0.00000000
0.58255004 0.22098300 0.28589785
0.34999724 -0.35669088 0.00000000
0.50620852 -0.44243228 0.00000000
-0.21219270 0.76705412 0.00000000
0.28637914 0.51821848 0.37208415
0.68414111 0.03153340 -0.00000078
0.05592677 0.07948947 0.00000000
0.47374241 -0.59177276 0.00000000
0.59404664 0.02976767 -0.00000059
-0.58615895 0.13936237 0.00000000
-0.46852488 -0.09044119 0.00000000
0.31555938 0.35532727 -0.00000028
0.52621717 0.23141090 -0.00000062
0.17918946 0.19288638 0.00000000
0.39223025 0.40940113 0.13205658
0.63112887 -0.33161220 -0.00000035
-0.42108317 -0.04740172 0.00000000
-0.68650297 0.01673740 0.00000000
-0.79858854 0.47110406 0.00000000
0.22681710 0.52099957 -0.00000024
-0.10314568 -0.62547744 0.00000000
0.39237828 0.36404046 -0.00000045
-0.16007218 0.17856248 0.00000000
-0.05497870 -0.78487901 0.00000000
0.77933619 -0.33950600 -0.00000058
0.07678815 0.15198212 0.00000000
-0.11089977 0.36257257 0.00000000
-0.09475540 -0.09892606 0.00000000
0.33490280 -0.38071018 0.00000000
-0.73281010 0.69179032 0.00000000
-0.71058972 0.24010991 0.00000000
0.31576476 0.48653471 0.18610484
0.47257507 0.22702618 -0.00000050
0.78497068 -0.25311962 -0.00000068
-0.61775402 -0.31407387 0.00000000
0.02279519 -0.23914825 0.00000000
0.12777124 0.45495192 0.00000000
-0.14132302 -0.72595388 0.00000000
-0.61544778 -0.53871991 0.00000000
-0.24281972 -0.14773636 0.00000000
0.47138947 -0.56088948 0.00000000
0.70602244 -0.05599385 -0.00000075
0.07203374 -0.75783533 0.00000000
-0.63987065 0.09289905 0.00000000
0.18643169 -0.16861156 0.00000000
-0.44416622 0.02400585 0.00000000
0.18002756 0.02928530 0.00000000
-0.54630698 -0.25180570 0.00000000
-0.01921232 -0.14103115 0.00000000
-0.50303472 0.61034542 0.00000000
-0.31151368 0.71818439 0.00000000
0.10669531 -0.37961948 0.00000000
0.51524916 0.28936804 0.37362761
-0.47666922 0.41163837 0.00000000
0.67901523 -0.33611343 -0.00000044
-0.14391211 0.55620433 0.00000000
-0.47213041 0.01620018 0.00000000
-0.30899772 0.48718370 0.00000000
-0.78993258 0.46625547 0.00000000
-0.79618310 -0.11322686 0.00000000
-0.41537745 -0.31724725 0.00000000
-0.63993336 -0.60650264 0.00000000
0.67174025 -0.56497898 -0.00000023
-0.29633120 -0.32231827 0.00000000
0.65135010 -0.74877794 -0.00000002
-0.21550399 0.67693268 0.00000000
0.22321778 -0.64280298 0.00000000
0.19239401 0.46711094 -0.00000012
-0.39233852 -0.76345683 0.00000000
0.57747541 0.18396044 -0.00000069
0.20757471 -0.02518799 0.00000000
-0.43538615 -0.16799246 0.00000000
-0.75827848 -0.64226040 0.00000000
0.41920548 0.00838222 -0.00000019
0.39346539 0.40778750 0.10143693
-0.04878054 -0.74781167 0.00000000
-0.19518723 -0.65741907 0.00000000
0.55130528 -0.24088985 -0.00000026
0.47425497 -0.69077814 0.00000000
0.74023743 -0.18809450 -0.00000071
0.64272257 -0.22177612 -0.00000047
0.43738770 -0.04310225 -0.00000019
-0.33847996 0.06371907 0.00000000
-0.39582269 -0.41780726 0.00000000
-0.33046834 -0.02146729 0.00000000
-0.58791881 0.39658379 0.00000000
0.31894668 0.48134053 0.02331452
-0.58601730 0.69651744 0.00000000
-0.54912839 0.38544836 0.00000000
0.24022178 0.20087388 0.00000000
-0.22779543 0.28256559 0.00000000
0.44939488 0.35527986 0.37829600
-0.03737602 -0.34646133 0.00000000
0.08576969 0.28683299 0.00000000
-0.16309176 -0.54334300 0.00000000
0.63224271 -0.44167110 -0.00000025
0.22524042 -0.70608201 0.00000000
-0.08761524 0.44811500 0.00000000
-0.55922615 -0.77588119 0.00000000
0.35470158 -0.66592712 0.00000000
-0.42527317 0.46574977 0.00000000
-0.18543403 0.05054023 0.00000000
-0.14557576 0.74010642 0.00000000
-0.10415044 0.77095704 0.00000000
-0.68329565 -0.67304746 0.00000000
-0.02634106 0.36654440 0.00000000
-0.19186337 0.43892392 0.00000000
-0.11364789 -0.10999039 0.00000000
0.59286202 0.20918202 0.16543967
-0.77028135 0.55003731 0.00000000
-0.28326423 0.00028568 0.00000000
0.58964251 0.10011055 -0.00000064
-0.17165738 0.10948369 0.00000000
0.15806865 -0.61793123 0.00000000
0.42060837 0.38475869 0.43432596
-0.39051681 0.69074460 0.00000000
-0.64907348 -0.36756944 0.00000000
0.45558486 0.25831299 -0.00000049
-0.55205632 -0.35429034 0.00000000
-0.38686605 0.65486584 0.00000000
-0.31734027 0.47509282 0.00000000
0.05633099 0.02563093 0.00000000
-0.20947292 0.01974679 0.00000000
-0.39311861 0.63031353 0.00000000
-0.52363118 0.03168964 0.00000000
-0.27903276 0.32127284 0.00000000
0.40609084 -0.06845534 -0.00000010
-0.22305185 -0.27568213 0.00000000
-0.67247354 0.37734807 0.00000000
0.26036045 -0.59877969 0.00000000
-0.63702604 0.14035276 0.00000000
-0.64602174 -0.21885930 0.00000000
-0.58674494 0.06869053 0.00000000
-0.60234204 0.04592235 0.00000000
0.32585216 0.47875203 0.37260842
-0.08515178 0.10988096 0.00000000
0.01864683 0.77196462 -0.00000002
-0.73884001 -0.26017112 0.00000000
-0.18291535 -0.62690471 0.00000000
0.60375213 0.19861888 0.19189098
0.11238139 0.25270365 0.00000000
-0.62339267 -0.37135562 0.00000000
0.12012326 -0.22391295 0.00000000
-0.10083705 -0.41492481 0.00000000
-0.08845033 0.44664847 0.00000000
0.18530172 -0.33801795 0.00000000
0.65029250 -0.23966250 -0.00000047
-0.72081292 0.20751391 0.00000000
0.32851371 0.47163215 0.01187970
0.44008311 0.36362327 0.29993436
-0.41445061 0.42457668 0.00000000
-0.43460232 0.52661320 0.00000000
0.43934874 0.36687361 0.50353529
-0.51682919 0.02878123 0.00000000
-0.71182456 -0.60975276 0.00000000
-0.20787250 0.02830996 0.00000000
-0.10952475 -0.66119577 0.00000000
-0.29304138 0.75226944 0.00000000
0.19186181 0.37391076 -0.00000003
-0.35057497 -0.39662787 0.00000000
-0.48142248 -0.56602327 0.00000000
0.25514592 0.30393251 -0.00000011
0.02913618 -0.35062596 0.00000000
-0.57789923 -0.04972417 0.00000000
0.36058803 -0.31340604 0.00000000
0.32843719 0.47540971 0.31132568
0.19571401 -0.20057682 0.00000000
0.03132242 0.76871885 0.00341861
0.63182984 0.16968950 0.12299185
0.29139572 -0.51210043 0.00000000
-0.18532570 0.65733968 0.00000000
0.64437205 0.15616329 0.04338742
0.52041510 0.28273297 0.25475492
-0.17801055 -0.76512175 0.00000000
-0.01941520 0.32765839 0.00000000
0.33319841 0.06641339 -0.00000006
0.39261343 0.41303863 0.45739437
0.44221424 0.21936245 -0.00000043
0.70839245 -0.20242680 -0.00000063
-0.28405305 -0.45367143 0.00000000
-0.58759418 0.57632491 0.00000000
-0.39965235 -0.50666178 0.00000000
-0.11233511 0.06540410 0.00000000
0.15243632 0.48984559 -0.00000005
0.17742911 -0.73335029 0.00000000
-0.21809791 -0.24336301 0.00000000
0.13225454 0.14763912 0.00000000
-0.49365898 -0.32618446 0.00000000
-0.73669065 0.47494047 0.00000000
-0.24332418 -0.21421554 0.00000000
-0.13591825 -0.14714502 0.00000000
-0.76211060 -0.79909885 0.00000000
0.75703117 -0.32669034 -0.00000059
0.19651739 0.14451249 0.00000000
0.21892559 0.58150246 0.03470849
0.24303451 0.55922378 0.18278498
0.45976659 0.34238647 0.17425917
-0.63041996 -0.01958969 0.00000000
-0.55022897 -0.18042560 0.00000000
-0.33789141 -0.56586209 0.00000000
0.29495021 -0.52584732 0.00000000
0.11357707 -0.64256278 0.00000000
-0.48676400 0.45531179 0.00000000
-0.57605109 -0.42371762 0.00000000
-0.31955560 0.29840697 0.00000000
0.35351350 0.38182337 -0.00000038
-0.65061208 -0.08728214 0.00000000
0.38819895 -0.27535152 0.00000000
-0.28918558 -0.27281311 0.00000000
0.19833601 0.05232673 0.00000000
0.72288109 -0.31103893 -0.00000056
0.25075967 0.53137432 -0.00000030
-0.40194624 -0.13120304 0.00000000
-0.65625333 -0.53429572 0.00000000
-0.61258736 0.46251800 0.00000000
-0.15598569 -0.72481239 0.00000000
-0.42576997 -0.60406314 0.00000000
-0.75291626 0.41633179 0.00000000
-0.36306626 -0.61486419 0.00000000
0.36149090 -0.26501123 0.00000000
0.66797531 -0.06230009 -0.00000066
0.25413209 0.54995281 0.33059922
0.62223027 -0.76786948 0.00000000
-0.23811045 0.74265797 0.00000000
-0.42977435 0.79273178 0.00000000
-0.45580115 0.33421662 0.00000000
0.33719498 0.46839991 0.45277709
0.37571571 0.43067430 0.51711465
-0.01272031 -0.67267463 0.00000000
0.60519299 0.16781604 -0.00000073
-0.56474113 0.41135663 0.00000000
0.37194781 0.40520387 -0.00000044
-0.09672023 0.51184790 0.00000000
0.10319575 -0.45298246 0.00000000
0.34338231 -0.37654042 0.00000000
0.06517764 -0.34921728 0.00000000
0.79540091 -0.21801511 -0.00000073
0.35212550 0.24311756 -0.00000026
0.52769850 -0.64566366 0.00000000
-0.24255944 0.73091955 0.00000000
-0.08961005 0.22500607 0.00000000
0.65552049 -0.00184168 -0.00000069
0.06166473 0.53226852 0.00000000
0.19974475 -0.66362651 0.00000000
0.16840979 0.05512707 0.00000000
0.25970367 -0.14192127 0.00000000
-0.15133288 0.19110690 0.00000000
-0.46941470 0.15772334 0.00000000
-0.03040131 0.46242077 0.00000000
0.34540763 0.45981306 0.42249434
0.67894413 -0.75664437 -0.00000005
0.36388857 0.13889727 -0.00000019
0.77460411 -0.62467051 -0.00000022
0.46111812 0.33953030 0.05253561
0.31998747 0.28017482 -0.00000022
0.49395284 -0.24726641 -0.00000013
-0.46166869 -0.65173229 0.00000000
0.15051763 0.06872744 0.00000000
0.44408998 -0.57138905 0.00000000
-0.14959308 0.71377079 0.00000000
0.62306694 -0.58853887 -0.00000010
-0.60680012 -0.68882387 0.00000000
-0.08144470 0.52837787 0.00000000
0.20734551 -0.23847314 0.00000000
-0.51970744 -0.48902888 0.00000000
0.71171256 -0.33892042 -0.00000051
0.00600130 0.52388266 0.00000000
0.14656966 -0.44190030 0.00000000
-0.48926214 0.62103725 0.00000000
-0.14009228 -0.72532893 0.00000000
-0.11664980 -0.50377816 0.00000000
-0.34671585 0.71486010 0.00000000
-0.34830868 0.66665775 0.00000000
-0.02004157 0.41852207 0.00000000
-0.61980586 0.75532713 0.00000000
-0.35575309 0.71894994 0.00000000
0.73967448 -0.69951833 -0.00000013
0.08876788 -0.07224415 0.00000000
-0.50243920 -0.22959815 0.00000000
0.66886586 0.05133600 -0.00000077
-0.62296911 0.18066726 0.00000000
-0.15548139 0.36951415 0.00000000
-0.72164514 -0.19066733 0.00000000
0.76462965 -0.07553543 -0.00000086
-0.21660534 -0.30994118 0.00000000
0.28752312 -0.74908969 0.00000000
-0.28072028 -0.14961945 0.00000000
0.36667937 -0.06213352 -0.00000002
0.72469483 0.07553296 0.01850709
0.42738859 0.37845320 0.47274155
0.10753153 -0.62278022 0.00000000
-0.18729407 0.22484283 0.00000000
-0.01229487 0.25432040 0.00000000
-0.48166007 0.54597377 0.00000000
-0.35371860 -0.52163429 0.00000000
0.17603212 -0.78912245 0.00000000
0.40415163 0.40193320 0.49241338
-0.24520446 -0.31192271 0.00000000
0.01579881 -0.72997567 0.00000000
0.32138760 0.32360818 -0.00000026
0.78279469 -0.37468898 -0.00000053
-0.44304202 0.66042800 0.00000000
0.41340430 0.39335474 0.54697132
0.02857001 0.43014926 0.00000000
-0.64914187 -0.70325846 0.00000000
0.69923955 0.10132765 0.04596444
-0.70961514 -0.00396921 0.00000000
-0.36560712 -0.17878919 0.00000000
0.46619404 0.33936953 0.45021983
0.40047010 -0.07835653 -0.00000008
-0.17548137 -0.43396438 0.00000000
0.23872633 -0.46346401 0.00000000
0.45186669 -0.52398953 0.00000000
0.49657577 0.30558921 0.17522382
0.38874193 -0.71964563 0.00000000
0.60772215 0.19548953 0.25989994
-0.12449153 0.59976295 0.00000000
-0.63010480 0.39076128 0.00000000
0.42497392 0.37726371 0.18110150
-0.77286945 0.67296728 0.00000000
-0.60538913 0.59925167 0.00000000
-0.16460871 0.46095081 0.00000000
0.18273534 -0.24422213 0.00000000
-0.27422891 -0.37053898 0.00000000
-0.61461789 0.21399055 0.00000000
0.78698608 -0.75999271 -0.00000005
-0.28331970 0.71699484 0.00000000
-0.46989883 0.11786137 0.00000000
0.28350837 0.52015624 0.29658179
-0.77375159 -0.24123898 0.00000000
-0.52860763 0.75879860 0.00000000
0.56375320 -0.62858743 0.00000000
0.21747651 -0.59210416 0.00000000
0.30317111 -0.78838799 0.00000000
-0.38363072 0.67544611 0.00000000
-0.56289587 -0.32448162 0.00000000
-0.21803376 0.31884727 0.00000000
0.42413701 0.38105623 0.42025928
-0.68819457 0.46732865 0.00000000
0.39157929 -0.66044378 0.00000000
-0.74865360 -0.37323247 0.00000000
0.33831666 -0.01755101 0.00000000
-0.50294659 -0.60103134 0.00000000
-0.44148955 -0.43588521 0.00000000
0.23242459 0.57155558 0.32212747
-0.59649496 0.37562081 0.00000000
0.16703357 -0.63447646 0.00000000
-0.32981099 0.00595565 0.00000000
0.31486709 0.48657783 0.11697144
-0.43337194 -0.42171588 0.00000000
0.53493101 -0.07553479 -0.00000037
0.36503090 -0.29362151 0.00000000
0.70923151 -0.04163712 -0.00000077
0.33382346 0.14548598 -0.00000013
0.14018791 -0.12329493 0.00000000
0.51743398 0.28562858 0.24783726
-0.67201205 0.50729077 0.00000000
0.23717210 0.43175781 -0.00000018
0.25335466 -0.29119912 0.00000000
-0.18363743 -0.00271424 0.00000000
0.21874611 0.50336393 -0.00000020
-0.72405412 0.25691690 0.00000000
-0.35061789 -0.76472654 0.00000000
-0.32294519 -0.10215670 0.00000000
-0.08379674 0.60370740 0.00000000
0.64874957 -0.44666786 -0.00000028
-0.39038153 0.47506943 0.00000000
0.61687676 0.18415738 0.08373992
-0.49193122 -0.22895434 0.00000000
-0.43196022 -0.02099260 0.00000000
-0.68038216 -0.05042827 0.00000000
0.67821831 -0.75355882 -0.00000006
0.36049935 0.44285747 0.27166151
-0.55962020 0.38776845 0.00000000
-0.79629628 -0.49159430 0.00000000
0.69752134 -0.36851255 -0.00000046
-0.14686732 0.71978783 0.00000000
0.18201531 -0.63221319 0.00000000
0.38950199 0.41268657 0.17713146
-0.66232983 -0.74890928 0.00000000
0.53737431 0.13915171 -0.00000056
-0.74274215 0.49439564 0.00000000
-0.55278476 0.05451598 0.00000000
0.53796446 0.26609193 0.32824010
-0.75912813 0.07801277 0.00000000
-0.79540710 0.68623924 0.00000000
0.33380161 -0.64519571 0.00000000
0.27154069 -0.27423291 0.00000000
0.21182466 -0.42978247 0.00000000
0.13342140 0.66778464 0.09765293
0.60185143 0.20138220 0.26167636
-0.11387887 -0.70932385 0.00000000
0.48089160 -0.49273897 0.00000000
-0.32081164 0.22424047 0.00000000
0.34524285 0.31606874 -0.00000031
0.16676694 -0.26921069 0.00000000
0.42995405 0.37167818 0.13212547
-0.32279157 -0.66465374 0.00000000
0.24558356 -0.45393914 0.00000000
0.20090104 0.34493206 -0.00000003
-0.35455479 -0.56420243 0.00000000
0.54220774 0.25036086 -0.00000067
-0.57293581 -0.19073984 0.00000000
0.61683365 -0.35683492 -0.00000029
-0.40974673 0.66216474 0.00000000
0.37024934 0.24648705 -0.00000030
0.07375388 -0.29058366 0.00000000
0.09664302 0.48514279 0.00000000
0.11327537 0.08566608 0.00000000
-0.04654431 -0.35493956 0.00000000
0.44845923 0.09681366 -0.00000034
0.23375151 0.56711261 0.06998603
0.64219528 -0.64168198 -0.00000010
-0.48966122 0.12809255 0.00000000
0.11011814 0.33234851 0.00000000
0.26127731 0.54264754 0.31764531
-0.10086791 0.64488791 0.00000000
-0.70504657 0.09108006 0.00000000
-0.21334391 -0.70599102 0.00000000
-0.23270057 -0.44116341 0.00000000
0.75207189 -0.03869428 -0.00000086
0.25565287 -0.73474192 0.00000000
0.33608118 0.46810920 0.33911983
0.47393309 0.04870063 -0.00000035
-0.47492648 -0.11016207 0.00000000
0.43530375 0.36805241 0.27159427
-0.56798111 0.29359202 0.00000000
-0.76642591 0.44791573 0.00000000
-0.10730464 0.61405923 0.00000000
0.07252634 0.08616697 0.00000000
0.43215902 0.36976976 0.15611594
0.58285969 -0.02434779 -0.00000052
0.21382189 0.25399875 0.00000000
0.65972623 0.11603684 -0.00000080
-0.30825014 0.53268541 0.00000000
-0.57821850 0.58625301 0.00000000
-0.48166673 -0.01930468 0.00000000
0.05778181 -0.56362396 0.00000000
0.07830095 0.03787388 0.00000000
0.66015959 0.14064649 0.06529038
-0.06484331 0.15645090 0.00000000
-0.78740369 0.74887024 0.00000000
-0.58229819 -0.46329406 0.00000000
0.65806178 -0.49939755 -0.00000026
0.19609327 -0.29480066 0.00000000
-0.58901009 -0.69361175 0.00000000
-0.48480545 -0.20288046 0.00000000
0.17158239 0.62906712 0.05262467
-0.58923922 -0.20754646 0.00000000
-0.13385104 0.42309212 0.00000000
-0.56495830 -0.70087031 0.00000000
0.53622713 0.26629501 0.20411739
0.17719913 0.08305843 0.00000000
-0.51998051 0.29646210 0.00000000
0.52144545 0.27877947 0.01827529
-0.61059161 -0.67242322 0.00000000
0.40427567 0.40200009 0.50786439
-0.75763612 -0.43471228 0.00000000
0.09677862 -0.10416381 0.00000000
0.41049543 -0.58303523 0.00000000
0.29819427 -0.24235373 0.00000000
-0.02697983 -0.41105308 0.00000000
0.39580374 -0.77842973 0.00000000
0.53467619 -0.54223874 0.00000000
-0.53610344 0.07575309 0.00000000
-0.03382680 -0.11371430 0.00000000
0.60293185 -0.29126864 -0.00000032
-0.37386283 0.20978230 0.00000000
-0.23159687 0.60022774 0.00000000
-0.06374081 0.15029040 0.00000000
0.22684549 -0.67004398 0.00000000
-0.62117020 0.43018370 0.00000000
0.37991998 0.42175610 0.13567240
0.45909793 0.34110619 0.01659256
-0.58489771 -0.28135190 0.00000000
-0.25335813 -0.34610575 0.00000000
0.62996161 -0.53979856 -0.00000016
-0.01775797 0.04954393 0.00000000
-0.00952870 0.60884708 0.00000000
0.28826081 0.49782933 -0.00000035
0.31442618 0.49047411 0.39657219
0.13428201 -0.60981543 0.00000000
-0.20908375 0.32729826 0.00000000
-0.75438188 -0.13199497 0.00000000
-0.20408971 -0.11255614 0.00000000
-0.00533428 0.41265503 0.00000000
-0.13817176 0.12897788 0.00000000
0.19901254 0.60138964 0.03261523
-0.34997705 0.57810225 0.00000000
-0.65476226 -0.47106944 0.00000000
0.25768232 0.16195931 0.00000000
0.61599355 0.09523997 -0.00000069
-0.25581222 -0.29575944 0.00000000
0.15871346 -0.62556856 0.00000000
0.35975736 0.44233320 0.16920369
-0.06661053 0.50394596 0.00000000
-0.09024480 0.21625967 0.00000000
0.47568540 -0.76081711 0.00000000
-0.49115053 -0.32045528 0.00000000
0.05654779 0.09578857 0.00000000
-0.33692212 -0.64350537 0.00000000
0.17542952 0.28851674 0.00000000
-0.63407490 0.32878417 0.00000000
0.13271635 0.57529242 -0.00000008
-0.38636169 0.22179694 0.00000000
0.33397835 -0.23563943 0.00000000
0.04812363 -0.36547293 0.00000000
0.78513679 -0.29135721 -0.00000064
0.73934794 -0.60322520 -0.00000025
-0.66817568 0.60429086 0.00000000
-0.18823044 -0.58428089 0.00000000
0.34051711 0.26100876 -0.00000025
-0.28329985 0.30140576 0.00000000
0.53995769 -0.76718667 0.00000000
-0.37325941 0.68075613 0.00000000
0.00457024 -0.38024509 0.00000000
0.61554762 0.18548337 0.08348467
-0.33188827 0.59673518 0.00000000
-0.67366755 -0.54295555 0.00000000
-0.53196263 -0.25747539 0.00000000
0.44918869 0.05758974 -0.00000030
0.32919338 0.32250227 -0.00000028
-0.26809790 -0.58610195 0.00000000
0.41823324 0.34115526 -0.00000049
-0.76407464 0.59963067 0.00000000
0.69366430 0.02228463 -0.00000079
-0.04943811 0.73673578 0.00000000
-0.64604009 0.60856184 0.00000000
-0.66623483 -0.75229652 0.00000000
-0.73518756 0.69482910 0.00000000
-0.21733408 0.11265053 0.00000000
0.00371142 -0.63588326 0.00000000
-0.22031035 -0.04853420 0.00000000
0.01241699 0.63361595 0.00000000
-0.62535427 0.21023440 0.00000000
0.29394292 0.50986002 0.30777434
0.10975013 -0.28710900 0.00000000
-0.17996497 -0.70764849 0.00000000
0.63483637 0.06374061 -0.00000070
0.55105949 0.11139501 -0.00000057
-0.13302328 -0.42625842 0.00000000
-0.00510859 0.66019130 0.00000000
0.33644561 0.30994042 -0.00000028
0.24804130 -0.72532909 0.00000000
-0.60674631 0.21186660 0.00000000
-0.49573073 -0.42552277 0.00000000
0.24981649 0.49135828 -0.00000026
0.58399751 -0.73297418 0.00000000
0.21875650 -0.32263548 0.00000000
0.11808099 0.68284746 0.07519252
0.15094875 0.56800636 -0.00000012
-0.13117554 -0.36104737 0.00000000
-0.79193009 0.47026891 0.00000000
-0.24445405 0.36163093 0.00000000
-0.17888945 -0.34115455 0.00000000
-0.60991903 -0.34674717 0.00000000
-0.75213573 -0.05358730 0.00000000
0.28406876 -0.48128292 0.00000000
0.38536379 0.41959403 0.40121539
-0.42266124 -0.62134749 0.00000000
0.26942067 0.38586754 -0.00000021
-0.44334913 0.02847290 0.00000000
0.60304937 -0.39707762 -0.00000023
-0.52104520 0.74109415 0.00000000
0.62400976 0.00839206 -0.00000063
0.41865441 0.13833890 -0.00000031
-0.10086476 0.27380298 0.00000000
0.60432179 -0.20479418 -0.00000040
0.04234419 0.05553545 0.00000000
-0.74674249 -0.24357514 0.00000000
-0.03698983 0.61900452 0.00000000
0.10944449 0.56731459 -0.00000003
-0.05172576 -0.53136726 0.00000000
-0.11300971 -0.62246639 0.00000000
0.34383069 -0.71069126 0.00000000
0.12072105 -0.37852197 0.00000000
0.50984535 0.29223655 0.16850258
0.59837731 -0.22766333 -0.00000037
0.38307829 -0.61624546 0.00000000
-0.63593544 0.24345261 0.00000000
-0.62128931 -0.64861885 0.00000000
0.54978146 0.25419505 0.32177510
-0.11520862 -0.72172850 0.00000000
-0.64477118 -0.38992253 0.00000000
0.40163370 0.16999947 -0.00000030
0.12736173 0.01940689 0.00000000
-0.19308909 -0.34161985 0.00000000
0.32853803 0.47355385 0.16931045
-0.79419670 -0.69864375 0.00000000
-0.20914658 0.47466134 0.00000000
-0.58380265 0.40726398 0.00000000
-0.47148588 -0.13151990 0.00000000
0.25982240 -0.72575234 0.00000000
-0.43858294 0.26040007 0.00000000
-0.13562064 0.68858390 0.00000000
-0.57358104 -0.34596404 0.00000000
0.08689814 0.32422343 0.00000000
0.57282444 -0.59136493 0.00000000
0.76343441 -0.27118938 -0.00000066
-0.64732567 -0.70523569 0.00000000
0.45874146 -0.68319071 0.00000000
0.15193181 0.65032743 0.18287844
0.25578314 -0.15785979 0.00000000
0.10879832 0.56731472 -0.00000003
0.07669868 0.36927470 0.00000000
0.17841973 -0.79225727 0.00000000
0.55354733 0.24938705 0.23746682
-0.25983331 -0.26835250 0.00000000
-0.69332245 -0.40647153 0.00000000
-0.51468080 -0.44270053 0.00000000
-0.68105462 0.78274043 0.00000000
0.48611474 0.31558978 0.13797364
-0.29563330 -0.38225497 0.00000000
-0.66172102 -0.05980477 0.00000000
-0.17786427 -0.38826246 0.00000000
0.33689527 0.46807684 0.40237977
0.44299352 -0.74156707 0.00000000
-0.36924632 0.48506280 0.00000000
-0.02103622 0.58258593 0.00000000
0.07334971 0.48070083 0.00000000
-0.09950600 0.06440625 0.00000000
0.48634768 0.11075431 -0.00000043
0.49760298 -0.38400368 -0.00000002
0.47792644 0.32437716 0.18643806
-0.57103280 -0.66694226 0.00000000
0.28812893 0.51658603 0.38157937
-0.73421971 -0.69663345 0.00000000
-0.77989712 -0.33201819 0.00000000
-0.54747542 -0.13310441 0.00000000
0.07870136 0.72149510 0.01597322
-0.38667767 -0.73061058 0.00000000
-0.56595153 -0.23614641 0.00000000
0.33811166 -0.12759194 0.00000000
0.09088595 -0.27090476 0.00000000
-0.65360665 -0.48946233 0.00000000
-0.13954433 0.71973665 0.00000000
-0.50766880 -0.17297300 0.00000000
-0.53156212 -0.59284520 0.00000000
-0.44327619 -0.69391994 0.00000000
0.27145274 0.06094642 0.00000000
0.64331659 0.15801766 0.10801826
-0.03988841 0.60865102 0.00000000
0.22510816 0.40833366 -0.00000013
-0.44165707 0.06375464 0.00000000
-0.58256099 -0.16416063 0.00000000
-0.39191516 -0.62456136 0.00000000
-0.06291891 0.30415867 0.00000000
-0.11570557 0.02100842 0.00000000
-0.13965787 -0.76018008 0.00000000
0.78668956 -0.33494719 -0.00000058
-0.73456051 0.09011988 0.00000000
-0.18205079 0.63117690 0.00000000
0.68824901 -0.66035147 -0.00000017
0.43410314 -0.60817882 0.00000000
-0.41825816 -0.72975223 0.00000000
-0.30236673 -0.70045821 0.00000000
0.53754044 -0.56057397 0.00000000
0.71399042 0.08637141 0.02935122
-0.13496074 0.37270902 0.00000000
-0.01605784 0.74568491 0.00000000
0.22876154 0.37260792 -0.00000011
0.20345331 0.59993876 0.27454152
0.39559103 0.41077695 0.51532756
-0.11628053 -0.57874616 0.00000000
-0.66782795 -0.72969753 0.00000000
-0.22267404 0.14307619 0.00000000
0.09977337 -0.78477890 0.00000000
0.54958408 0.25233260 0.15513633
0.38807105 -0.03570564 -0.00000009
-0.64055547 -0.47827382 0.00000000
0.14007383 -0.19333238 0.00000000
-0.40384385 -0.32119627 0.00000000
-0.44000871 -0.49203557 0.00000000
-0.36256382 0.65989926 0.00000000
0.02671898 0.64299628 0.00000000
-0.35117372 -0.33969228 0.00000000
0.08102812 0.32829431 0.00000000
-0.07102699 -0.02378506 0.00000000
-0.79511603 0.09003679 0.00000000
-0.31598980 -0.75116085 0.00000000
0.38250779 -0.74560217 0.00000000
0.38288118 0.42226483 0.41644456
-0.53954690 -0.05470824 0.00000000
-0.00146693 -0.48848440 0.00000000
0.73491476 -0.59671090 -0.00000025
-0.72111117 -0.66788165 0.00000000
0.63533054 0.08443348 -0.00000072
-0.46119383 -0.33926194 0.00000000
-0.60987395 -0.72819262 0.00000000
-0.79207856 0.59976691 0.00000000
-0.58572606 -0.19437515 0.00000000
-0.21565648 0.69354969 0.00000000
0.11560728 -0.69209012 0.00000000
0.78983251 -0.37935127 -0.00000053
0.54766880 -0.31580219 -0.00000018
-0.12199182 -0.19001135 0.00000000
0.50538948 0.05860455 -0.00000042
0.22675225 0.45559987 -0.00000018
-0.38247881 0.20686462 0.00000000
0.22845568 0.10391258 0.00000000
-0.36926400 0.33701455 0.00000000
-0.67496616 -0.34470927 0.00000000
-0.37510405 -0.47459951 0.00000000
0.24591432 0.12879559 0.00000000
-0.42949228 -0.36744410 0.00000000
0.01724661 -0.68178679 0.00000000
0.25453451 -0.31729045 0.00000000
-0.25282306 -0.40869090 0.00000000
0.00677273 0.76116520 0.00000000
-0.04868510 0.39794629 0.00000000
0.27077798 -0.08704461 0.00000000
-0.29603012 -0.74958411 0.00000000
0.37158937 0.43207671 0.29668530
0.45578410 -0.14827518 -0.00000013
-0.36567268 0.59519933 0.00000000
0.30571926 0.49433380 0.00437153
-0.34958759 0.61389392 0.00000000
-0.28687127 -0.65047395 0.00000000
0.07645448 0.63062490 -0.00000001
0.35625680 0.21672313 -0.00000024
0.75716556 0.04309643 0.02127346
-0.20086825 0.14337153 0.00000000
-0.74643736 -0.07762838 0.00000000
-0.67851590 -0.59793435 0.00000000
-0.68761252 0.48149769 0.00000000
0.61701496 0.12176575 -0.00000072
0.01041795 -0.74460906 0.00000000
0.64958294 -0.16235419 -0.00000054
0.18606786 0.61673297 0.22669943
-0.48039472 0.10096056 0.00000000
0.55964062 -0.35779827 -0.00000017
0.22335610 -0.18124683 0.00000000
0.78820484 -0.11338888 -0.00000086
0.07098826 0.72938640 0.03038950
0.46355894 0.33911698 0.21655842
0.56327843 0.23813046 0.11405610
0.55840475 -0.57306795 0.00000000
-0.45152943 -0.33389989 0.00000000
-0.42518995 0.32168576 0.00000000
0.14880485 -0.69132492 0.00000000
-0.33494638 -0.07485120 0.00000000
-0.47914766 -0.12996434 0.00000000
0.33458486 0.46558779 0.01404674
-0.46329459 -0.63449981 0.00000000
-0.28310594 0.60370725 0.00000000
-0.10658493 -0.75576383 0.00000000
0.49905533 0.30185649 0.07384428
-0.64843817 0.45769564 0.00000000
-0.41592722 0.79284680 0.00000000
0.24127098 0.56049446 0.14290271
-0.01353320 -0.07565446 0.00000000
-0.61731267 0.05972390 0.00000000
0.79809843 -0.36710060 -0.00000054
0.57205266 -0.50864204 -0.00000006
-0.31795432 -0.77498060 0.00000000
-0.75856844 -0.43204919 0.00000000
0.08973218 0.06610935 0.00000000
-0.71482814 -0.52475724 0.00000000
-0.38403432 0.11896611 0.00000000
-0.47477414 0.11473780 0.00000000
-0.28434994 0.76202660 0.00000000
-0.09266761 -0.44846555 0.00000000
0.23888760 0.56447260 0.27195651
0.77493217 -0.03857195 -0.00000091
0.54082064 -0.46835626 -0.00000003
0.13869058 0.53429004 -0.00000006
-0.79278179 -0.17232577 0.00000000
0.41526727 0.38784500 0.25186105
0.35099876 0.45166425 0.21551744
0.58106843 -0.67665321 0.00000000
0.28601345 0.51740474 0.27664060
0.09930117 -0.29802169 0.00000000
0.02287980 -0.45930996 0.00000000
0.75475041 0.02514507 -0.00000093
0.26659394 0.46518052 -0.00000027
0.11249460 0.36639089 0.00000000
-0.55406437 -0.37871971 0.00000000
0.30444293 0.16204365 -0.00000009
0.49918997 0.28041078 -0.00000061
0.15412283 0.55872507 -0.00000012
0.16283850 0.19418526 0.00000000
0.41366618 -0.53454097 0.00000000
0.12444843 -0.51009908 0.00000000
0.36777536 0.15495717 -0.00000021
-0.27299139 -0.06913982 0.00000000
0.06478312 0.32043831 0.00000000
0.29076160 0.51062256 0.11205619
-0.46926577 -0.23563084 0.00000000
0.65039110 0.03075914 -0.00000071
0.22876243 0.45967434 -0.00000019
-0.78770702 0.22927417 0.00000000
0.43227462 -0.35404760 0.00000000
0.64661725 0.15461571 0.09982408
-0.78762267 0.63649998 0.00000000
-0.73388564 -0.15847656 0.00000000
-0.77622391 0.03745375 0.00000000
0.25738836 0.43129507 -0.00000022
-0.61186535 -0.33179266 0.00000000
0.50603206 0.24262515 -0.00000059
-0.11254097 -0.43594392 0.00000000
0.28197014 0.10510418 0.00000000
-0.23279132 0.28057446 0.00000000
0.51626377 0.09326553 -0.00000048
0.11153376 -0.79051719 0.00000000
-0.64308870 -0.77168561 0.00000000
0.29720929 -0.33164777 0.00000000
0.63298346 0.01299493 -0.00000066
0.07115236 0.03390062 0.00000000
-0.11702439 0.45038060 0.00000000
0.23558865 0.48925809 -0.00000023
-0.32494961 -0.56800235 0.00000000
0.35011030 0.45408007 0.33911695
0.17365240 -0.11737498 0.00000000
0.30267150 -0.31105217 0.00000000
0.18188606 0.61999666 0.15240435
-0.49668069 0.49191952 0.00000000
0.30485261 -0.28976312 0.00000000
-0.62976281 -0.73486831 0.00000000
-0.66368593 0.46988248 0.00000000
0.25869030 0.54505759 0.30332583
-0.62908727 0.58336468 0.00000000
0.51049228 -0.35655613 -0.00000007
-0.57225721 0.34138119 0.00000000
0.19129352 0.60899547 0.02345885
-0.02410569 -0.17924818 0.00000000
-0.24850119 0.54228618 0.00000000
-0.78688867 0.07445205 0.00000000
-0.04517456 -0.31719707 0.00000000
-0.62559680 -0.40371306 0.00000000
0.44247507 0.35984186 0.18751662
-0.43139312 -0.54073148 0.00000000
-0.48720520 0.33231611 0.00000000
0.14635843 -0.56980269 0.00000000
-0.28567961 -0.70604166 0.00000000
0.25245950 -0.64882784 0.00000000
0.60516441 -0.36770145 -0.00000026
-0.42157390 0.52827144 0.00000000
0.61923223 -0.68071609 -0.00000001
-0.59446896 -0.17535992 0.00000000
0.25488024 0.54593353 0.06591233
-0.04602793 -0.65028993 0.00000000
0.26877933 -0.44983242 0.00000000
0.77812095 -0.32150532 -0.00000060
-0.18736063 -0.59983459 0.00000000
0.09764323 0.04291203 0.00000000
-0.43318046 0.67775734 0.00000000
0.25700863 -0.26105486 0.00000000
-0.64812555 -0.08040652 0.00000000
0.30316835 0.50043146 0.29133499
-0.61169203 -0.46940592 0.00000000
0.03496925 0.59698779 0.00000000
0.40507215 -0.18990676 0.00000000
-0.70515374 0.70783131 0.00000000
-0.69855672 -0.75607328 0.00000000
0.45498507 0.34874179 0.30158941
-0.15822792 -0.36724337 0.00000000
-0.17017481 -0.69864290 0.00000000
0.04959778 0.50892170 0.00000000
-0.52773172 -0.03232591 0.00000000
-0.08897335 -0.69971502 0.00000000
-0.42006686 0.27317796 0.00000000
-0.16938447 -0.45796130 0.00000000
0.30247603 0.29217130 -0.00000020
-0.00832262 0.44747286 0.00000000
-0.01873043 0.29779526 0.00000000
-0.26869130 -0.57966043 0.00000000
0.25450120 0.54832515 0.22875178
-0.00793859 -0.62872476 0.00000000
0.41830251 -0.65233415 0.00000000
-0.33148576 0.57978611 0.00000000
0.28392638 0.51680825 0.05951088
-0.38388225 -0.40875340 0.00000000
0.30300238 -0.12748020 0.00000000
-0.71781712 0.44064094 0.00000000
-0.25862110 0.34314382 0.00000000
-0.43128659 0.34205591 0.00000000
0.47327472 -0.26246780 -0.00000007
-0.44583007 0.51809558 0.00000000
-0.30003706 -0.12985866 0.00000000
-0.01103550 0.21969879 0.00000000
-0.78140605 -0.30493141 0.00000000
0.56320229 -0.59790278 0.00000000
-0.66783546 0.40567595 0.00000000
0.29827772 0.50173463 0.00107871
0.23423731 0.39262896 -0.00000014
0.23806871 0.56449816 0.20775782
0.76491957 -0.23354375 -0.00000071
-0.28181257 0.06378739 0.00000000
0.55759960 0.24403921 0.13265675
0.68701930 0.08356153 -0.00000083
0.20436255 0.59897156 0.26985115
0.61107501 0.17388158 -0.00000075
0.43777536 0.36710801 0.39518115
0.17186988 0.62934930 0.09871041
0.47495307 0.32698075 0.15652348
0.49508821 0.30899080 0.33007900
0.52751854 0.27400003 0.12292990
-0.62482126 -0.49292823 0.00000000
-0.75133900 -0.32256842 0.00000000
-0.40150921 0.56922906 0.00000000
0.28153712 -0.67124078 0.00000000
-0.35486251 0.76912159 0.00000000
0.53076167 0.27247072 0.26157621
0.30404878 -0.71202700 0.00000000
0.54037723 0.26155381 0.15629838
-0.18647609 0.06629754 0.00000000
-0.74596065 0.33504899 0.00000000
-0.32551750 0.49931328 0.00000000
0.61417512 -0.13327362 -0.00000049
-0.08381293 0.78643718 0.00000000
0.70819814 -0.55446959 -0.00000031
-0.05706795 -0.42800670 0.00000000
-0.12123533 0.40585172 0.00000000
-0.59106314 0.04716295 0.00000000
-0.43220479 0.41454618 0.00000000
0.34070093 -0.39476691 0.00000000
0.60062330 -0.55388153 -0.00000008
0.35854175 -0.61250283 0.00000000
0.39212585 -0.18681002 0.00000000
0.62548213 -0.56073543 -0.00000013
0.61435279 -0.74438695 0.00000000
0.19844678 -0.51677784 0.00000000
0.41997648 0.38664399 0.53575627
-0.34276105 0.66985062 0.00000000
0.10925035 -0.34169461 0.00000000
0.19123637 0.61012992 0.11061144
-0.11255202 0.26185668 0.00000000
0.72330838 0.07698798 0.02405400
0.37423927 -0.25215652 0.00000000
0.29301430 0.51020524 0.26056367
-0.17774039 -0.23857720 0.00000000
-0.44578464 -0.59510410 0.00000000
-0.38863846 0.16274572 0.00000000
-0.57160034 -0.76023954 0.00000000
0.47224941 0.32853611 0.06362727
-0.58866013 0.75905890 0.00000000
-0.76354774 0.75708495 0.00000000
-0.07108796 -0.50623018 0.00000000
0.41452606 0.14331455 -0.00000030
0.28289816 0.51866568 0.12659223
0.29476729 -0.26089356 0.00000000
0.57870378 0.22313113 0.14852137
0.37243200 0.43137731 0.30827611
-0.50727037 -0.69711232 0.00000000
0.02574595 0.19595048 0.00000000
-0.36709384 -0.01873376 0.00000000
-0.59331933 -0.43754044 0.00000000
-0.28842502 -0.57400715 0.00000000
-0.36893475 -0.37394931 0.00000000
0.32041615 0.48398841 0.35645497
-0.09021049 -0.33624084 0.00000000
-0.49410105 -0.61962251 0.00000000
-0.14713382 0.27653190 0.00000000
-0.13671617 0.07601395 0.00000000
0.57912810 0.22440448 0.28586069
-0.67002692 -0.61115764 0.00000000
-0.08043782 0.06082438 0.00000000
-0.29739658 0.70774193 0.00000000
-0.11764292 -0.04329232 0.00000000
-0.79033607 0.67333656 0.00000000
-0.77439574 -0.63115275 0.00000000
-0.54280508 -0.18010694 0.00000000
0.70732817 -0.64695886 -0.00000019
0.49024446 0.01379595 -0.00000035
0.71133958 0.00086629 -0.00000081
0.40044560 0.06808018 -0.00000021
-0.15336736 0.18938146 0.00000000
0.38363369 0.06509611 -0.00000017
0.14965120 -0.32646956 0.00000000
-0.46820327 -0.78471485 0.00000000
0.39743820 -0.10796808 -0.00000005
-0.41456153 -0.12052263 0.00000000
0.41448674 0.39205279 0.52920727
0.67306895 -0.70482428 -0.00000011
0.39470258 0.22805144 -0.00000034
0.07431896 -0.19397624 0.00000000
0.08548884 0.52731676 0.00000000
-0.77235254 0.15171809 0.00000000
-0.68014975 -0.77381594 0.00000000
0.23077962 0.53221476 -0.00000026
0.26689046 0.53643611 0.26922978
-0.00139795 0.37272578 0.00000000
-0.23218556 0.06926566 0.00000000
-0.27983506 0.64219517 0.00000000
0.53070059 -0.57955013 0.00000000
0.02016458 0.78016845 0.02702630
0.10480068 -0.64817558 0.00000000
-0.78576539 -0.79782415 0.00000000
-0.54146367 -0.71937126 0.00000000
0.79331355 -0.24370411 -0.00000070
0.47275524 0.32749473 0.02030205
-0.49009174 0.57137910 0.00000000
-0.69744590 -0.72540920 0.00000000
-0.01964115 -0.06087510 0.00000000
0.14400319 0.65796229 0.15910696
-0.15417248 0.05480906 0.00000000
0.09857292 -0.57457341 0.00000000
-0.33378511 0.41101867 0.00000000
0.46325446 0.26256139 -0.00000051
0.39320417 -0.18927197 0.00000000
-0.66637766 -0.41114034 0.00000000
0.77923635 -0.75491851 -0.00000006
-0.13291482 -0.54625558 0.00000000
-0.17460010 0.28436453 0.00000000
0.58543502 0.21495075 0.03128727
-0.56373735 0.64474817 0.00000000
-0.14838586 0.24481231 0.00000000
0.22420777 0.24523727 0.00000000
-0.23059601 0.36609080 0.00000000
-0.78857800 -0.10698947 0.00000000
-0.10393696 0.50388873 0.00000000
0.60422535 -0.20563611 -0.00000040
-0.34970982 -0.21838989 0.00000000
-0.05229623 -0.47343467 0.00000000
0.34088629 0.46126549 0.17415633
-0.43142497 -0.35880165 0.00000000
0.40446513 -0.05688842 -0.00000011
0.72420285 -0.75389224 -0.00000006
-0.10609817 0.24063358 0.00000000
-0.10753048 -0.57205230 0.00000000
-0.75712843 0.48874989 0.00000000
-0.00733169 -0.45297440 0.00000000
0.69788617 0.10260071 0.03946665
-0.21394786 0.72768871 0.00000000
0.24527491 -0.38873112 0.00000000
0.07281213 -0.22386303 0.00000000
0.77285743 0.00777730 -0.00000095
0.61024910 -0.07807739 -0.00000053
0.52390196 0.27898477 0.23361232
0.68951607 -0.62685334 -0.00000021
0.17586666 0.03312192 0.00000000
-0.38763421 -0.16105608 0.00000000
0.11621791 0.28726203 0.00000000
0.21790650 -0.48681252 0.00000000
0.26043350 0.54022330 0.05321362
-0.59010121 0.68441873 0.00000000
-0.71265009 0.09590750 0.00000000
0.23518741 -0.27755322 0.00000000
-0.42282990 0.47635126 0.00000000
0.64036245 0.16118808 0.12551566
-0.27627354 -0.07900852 0.00000000
-0.64718587 0.41373537 0.00000000
-0.04560958 0.50761693 0.00000000
0.26651215 -0.47079384 0.00000000
-0.60117285 -0.64611379 0.00000000
0.13653354 0.14570532 0.00000000
0.47362988 -0.47865405 0.00000000
-0.18767161 0.04272862 0.00000000
0.18811290 0.61212859 0.01961545
-0.18827876 0.48023740 0.00000000
0.20462742 -0.55337268 0.00000000
0.08930539 -0.20777343 0.00000000
0.57310668 -0.53756965 -0.00000004
-0.09765614 -0.12909451 0.00000000
0.52642323 0.25465191 -0.00000064
0.30814473 0.40761894 -0.00000031
0.20188699 -0.73380027 0.00000000
-0.67484337 -0.12388892 0.00000000
0.73634586 -0.52551289 -0.00000034
0.05320931 0.28721487 0.00000000
0.64104272 -0.07478263 -0.00000059
-0.13369652 -0.63955161 0.00000000
0.46561263 -0.76110925 0.00000000
-0.79513424 0.68657367 0.00000000
-0.03563428 -0.07837733 0.00000000
0.55992323 -0.36077765 -0.00000017
0.15797669 0.60438941 -0.00000016
-0.35565234 -0.41794059 0.00000000
0.71980341 -0.37166741 -0.00000050
0.77185593 -0.18188034 -0.00000077
0.06290614 0.52885700 0.00000000
0.52063195 -0.55203483 0.00000000
0.08526577 -0.23111129 0.00000000
0.30230486 0.50155408 0.31230431
0.06428839 0.27487036 0.00000000
-0.11613323 0.58510611 0.00000000
0.27399315 0.52835680 0.19019686
0.49989053 0.30510169 0.40397858
0.18025868 0.09329017 0.00000000
0.43986586 -0.34750528 0.00000000
-0.23779681 -0.03279256 0.00000000
0.66219691 0.13915114 0.10913503
0.30164267 0.50329962 0.39997331
0.43883181 -0.74703229 0.00000000
0.06379738 -0.05305614 0.00000000
0.07634960 0.02767708 0.00000000
-0.27710425 0.30128870 0.00000000
-0.75394855 -0.48608796 0.00000000
-0.64587926 -0.46977699 0.00000000
-0.35352076 0.56233174 0.00000000
0.36321307 -0.45221037 0.00000000
0.25691269 -0.65507153 0.00000000
0.45592637 0.18682169 -0.00000043
0.69670758 -0.00190243 -0.00000078
-0.56241415 0.39877268 0.00000000
-0.02756680 -0.71713656 0.00000000
-0.20254979 0.32144784 0.00000000
-0.15885446 -0.74917332 0.00000000
0.27872562 0.52385059 0.20850543
-0.00661042 0.57503233 0.00000000
-0.51018312 -0.17649387 0.00000000
-0.37796979 0.79179755 0.00000000
-0.45505531 -0.59254484 0.00000000
0.28082610 -0.33526961 0.00000000
0.10053838 -0.61235655 0.00000000
0.20491429 0.59622987 0.09264102
0.41404852 -0.66640972 0.00000000
0.13359163 -0.57242887 0.00000000
-0.15313398 0.14528752 0.00000000
0.02489634 -0.04511329 0.00000000
0.30144235 0.50335481 0.38822877
-0.49489202 -0.41869224 0.00000000
-0.03578579 -0.54071181 0.00000000
0.43051534 -0.63125457 0.00000000
0.17432057 -0.27017577 0.00000000
-0.02956612 0.60857860 0.00000000
-0.06202145 -0.41369555 0.00000000
0.30522693 0.49645991 0.13654281
-0.65186946 0.78253405 0.00000000
0.57415495 0.22895308 0.25151478
0.50317788 0.30149148 0.37785065
0.54829135 -0.11829501 -0.00000036
-0.37937445 -0.33936649 0.00000000
0.70050871 -0.19702970 -0.00000061
-0.67095120 -0.28537105 0.00000000
0.29641001 -0.19669174 0.00000000
0.78094676 -0.16819106 -0.00000079
0.24687465 0.45436157 -0.00000022
0.31170749 0.48955071 0.10186716
0.37238490 -0.51062255 0.00000000
0.12477976 -0.22596453 0.00000000
0.37997213 0.25480973 -0.00000033
-0.55968357 -0.70056722 0.00000000
0.72139949 -0.20163156 -0.00000065
-0.39741958 -0.31186494 0.00000000
0.13703795 -0.38669195 0.00000000
0.52112662 -0.04641823 -0.00000036
-0.71042112 0.42445387 0.00000000
0.38174176 0.37074630 -0.00000044
-0.03760495 -0.53531145 0.00000000
-0.64466002 -0.55444926 0.00000000
0.15892204 0.64191106 0.06747653
0.06750836 0.73359274 0.08917284
-0.11084968 -0.44166734 0.00000000
0.73103968 -0.70791046 -0.00000012
-0.16891327 0.64895136 0.00000000
0.56498100 0.23837694 0.27173282
0.09321058 0.45991858 0.00000000
-0.35408658 0.75003312 0.00000000
-0.34820690 0.64335312 0.00000000
-0.50471000 -0.28295816 0.00000000
0.07237844 0.52907348 0.00000000
0.78475958 -0.65568695 -0.00000018
-0.26760407 -0.48891522 0.00000000
0.38030541 0.23609690 -0.00000031
-0.56731687 0.28661470 0.00000000
-0.58863981 -0.49071138 0.00000000
-0.51745698 -0.53105547 0.00000000
-0.71214581 0.28499490 0.00000000
-0.46417937 -0.78892990 0.00000000
-0.45361393 -0.13661192 0.00000000
0.41954452 0.03363912 -0.00000022
0.19012090 -0.62904328 0.00000000
0.01433800 0.56755065 0.00000000
-0.19392248 0.00268369 0.00000000
-0.59457132 -0.46978028 0.00000000
-0.40463929 0.37225821 0.00000000
0.25353532 -0.42908639 0.00000000
-0.08382574 0.66919039 0.00000000
-0.11693464 -0.41530362 0.00000000
0.74343752 0.05686519 0.02456812
-0.66617427 0.38031322 0.00000000
-0.14572336 0.17257245 0.00000000
-0.71233090 0.57093507 0.00000000
-0.02551609 -0.16622349 0.00000000
-0.64431456 0.24703499 0.00000000
-0.12906859 -0.33395413 0.00000000
-0.29174697 -0.79678505 0.00000000
0.56600462 -0.03971709 -0.00000047
-0.11699873 0.78774278 0.00000000
0.18821523 0.55476847 -0.00000018
0.37332863 0.38901259 -0.00000043
0.73857104 0.06202691 0.04845228
0.63226661 -0.25460361 -0.00000042
0.28879017 -0.42325505 0.00000000
-0.51553327 -0.09353236 0.00000000
0.52709657 -0.10715164 -0.00000032
-0.44452266 -0.74506612 0.00000000
-0.37793124 0.09177062 0.00000000
0.28440892 0.12543969 -0.00000001
-0.13723311 -0.60683935 0.00000000
-0.47376725 0.70700124 0.00000000
0.49505458 0.03606377 -0.00000038
0.61761116 0.18338841 0.08094348
-0.57452107 0.07945807 0.00000000
0.24582725 0.55508714 0.07405314
-0.29690278 0.33253969 0.00000000
0.20882064 0.15232441 0.00000000
-0.43154147 -0.46102904 0.00000000
0.74082607 -0.70884405 -0.00000011
-0.70934139 -0.29254826 0.00000000
-0.22161287 0.26748502 0.00000000
-0.60439684 0.73437323 0.00000000
0.76178595 -0.52231339 -0.00000035
0.01084472 0.67471595 0.00000000
-0.72497770 -0.42342051 0.00000000
0.49546546 0.30829568 0.30435544
0.03128265 0.01859137 0.00000000
-0.08665478 -0.44452397 0.00000000
0.62410927 0.08999399 -0.00000070
-0.53015885 0.41200104 0.00000000
0.20426558 -0.43842842 0.00000000
-0.15263408 0.70519682 0.00000000
-0.16777997 -0.17309811 0.00000000
-0.00868853 0.16598511 0.00000000
-0.19360063 -0.57486960 0.00000000
-0.77344399 0.59995274 0.00000000
-0.32350203 -0.76891003 0.00000000
0.77748748 -0.10449590 -0.00000086
0.43761653 -0.75972006 0.00000000
-0.02440630 0.13711578 0.00000000
-0.11508219 -0.17524641 0.00000000
-0.53695704 -0.17813668 0.00000000
-0.35454918 0.10201760 0.00000000
-0.08441092 0.30415447 0.00000000
-0.57062727 -0.56249534 0.00000000
0.22994246 0.57390933 0.31173876
0.19332273 -0.00385357 0.00000000
0.33126218 0.03148969 -0.00000003
0.55299573 -0.12689184 -0.00000036
0.73136680 -0.63669034 -0.00000020
0.11875335 0.34132491 0.00000000
-0.62469437 0.38200080 0.00000000
-0.20428024 0.39985899 0.00000000
0.15037277 0.52327489 -0.00000008
0.29378612 0.15624788 -0.00000006
-0.24012710 -0.59225349 0.00000000
-0.78314348 -0.71910179 0.00000000
0.24211142 0.52423003 -0.00000027
-0.55977427 -0.22356931 0.00000000
0.59060568 0.21273758 0.27054489
0.59465840 -0.44631562 -0.00000017
0.43031469 0.37431888 0.37496776
-0.42811935 -0.57510033 0.00000000
-0.13934980 0.68584574 0.00000000
-0.33076078 -0.34242545 0.00000000
-0.21650098 0.43071158 0.00000000
-0.60473195 0.22745719 0.00000000
-0.40321340 0.74124593 0.00000000
-0.61734310 0.66858523 0.00000000
0.29098800 0.51289210 0.31401931
-0.22531103 -0.53538351 0.00000000
0.19018553 0.03134402 0.00000000
-0.09371468 -0.17067021 0.00000000
-0.12253369 -0.21291344 0.00000000
0.61191770 0.19037349 0.18543320
0.53559801 0.22477043 -0.00000063
0.34325818 -0.27725516 0.00000000
0.45085747 -0.25845835 -0.00000003
-0.15357876 0.02473923 0.00000000
-0.49630161 -0.03649720 0.00000000
-0.01656316 0.05820035 0.00000000
0.27119878 -0.26349563 0.00000000
0.58860836 0.01940804 -0.00000057
-0.68403245 0.38395936 0.00000000
0.58712434 0.21416850 0.10466817
0.69713034 0.10342148 0.04472020
0.23352135 0.40113582 -0.00000015
-0.04322465 0.16677595 0.00000000
0.41029400 -0.63718832 0.00000000
0.22450605 0.57652288 0.08331858
0.00679358 -0.07680128 0.00000000
0.19799609 -0.12986766 0.00000000
0.72147294 0.04787323 -0.00000087
-0.27440950 -0.59849940 0.00000000
-0.38784872 -0.14700458 0.00000000
0.52490791 -0.73970411 0.00000000
0.70013774 -0.54433327 -0.00000031
0.61911238 -0.58726491 -0.00000009
0.33078505 0.32047849 -0.00000028
-0.15209231 0.10862397 0.00000000
-0.20280246 0.76435870 0.00000000
-0.67608202 -0.04893117 0.00000000
-0.22415533 0.71148256 0.00000000
0.39168252 -0.08407815 -0.00000005
-0.76762246 0.06549335 0.00000000
0.26383837 -0.68439022 0.00000000
0.57376432 0.22833181 0.16965380
0.73729869 0.06368251 0.07945666
-0.19792579 -0.05285054 0.00000000
0.36672629 0.43474418 0.11903897
-0.55698335 0.66301593 0.00000000
0.38619716 -0.41913324 0.00000000
0.37927825 -0.12650483 0.00000000
0.09017654 0.34975762 0.00000000
-0.67384917 0.44960434 0.00000000
-0.30963064 0.07061921 0.00000000
0.70664045 0.08698960 -0.00000088
0.13760268 -0.56879909 0.00000000
0.38069871 0.05940666 -0.00000016
-0.56472767 0.05895705 0.00000000
0.24976804 -0.04774027 0.00000000
-0.27839763 -0.66131675 0.00000000
0.26072879 0.53931567 0.00367647
-0.77210127 0.06709562 0.00000000
0.45221374 -0.33746546 0.00000000
0.33643205 -0.75033141 0.00000000
-0.49735384 0.63015627 0.00000000
-0.41071372 0.46460279 0.00000000
0.59844641 -0.18562837 -0.00000041
0.07040571 0.23120404 0.00000000
0.75040825 -0.34120872 -0.00000057
0.72105773 -0.46887278 -0.00000041
-0.56229983 -0.69782130 0.00000000
-0.60983973 -0.27360394 0.00000000
0.03543666 0.63036253 0.00000000
-0.57321893 0.70313032 0.00000000
0.13598922 0.66624367 0.18074823
0.34868488 0.45300888 0.13710313
0.58911517 -0.46967562 -0.00000013
0.40817583 -0.44723777 0.00000000
-0.31199333 -0.74328804 0.00000000
0.15339527 -0.31738590 0.00000000
0.72260512 0.07874040 0.10892973
0.42902859 -0.02951827 -0.00000018
0.29290593 0.50727547 0.01475507
0.59447126 0.14701000 -0.00000069
0.20438326 -0.71350670 0.00000000
-0.23054204 -0.34977209 0.00000000
-0.42406374 0.68197157 0.00000000
-0.70836073 0.02745812 0.00000000
0.01555542 0.14054219 0.00000000
-0.24739026 0.23713418 0.00000000
-0.15526802 -0.66906410 0.00000000
0.36488522 0.43740136 0.18506146
-0.35092894 0.19709189 0.00000000
-0.25169904 0.36288368 0.00000000
-0.23110880 0.75669678 0.00000000
0.43899246 0.36367729 0.21605879
-0.66223856 0.31750312 0.00000000
-0.61409149 -0.20829094 0.00000000
0.09182736 -0.67170192 0.00000000
0.35945095 0.44626265 0.46237998
0.27203005 -0.11077335 0.00000000
0.73921594 -0.16500969 -0.00000072
0.75107250 -0.38530300 -0.00000052
0.75906580 -0.05240357 -0.00000087
0.55043728 -0.73858064 0.00000000
0.71466827 0.08629555 0.07805090
0.54587292 0.25612346 0.16158391
-0.58435258 0.51063087 0.00000000
-0.46238193 0.63333337 0.00000000
0.33226971 -0.49405086 0.00000000
0.14404913 0.47454121 -0.00000002
0.50156066 0.30044658 0.16246272
