ply
format ascii 1.0
element vertex 1393
property float x
property float y
property float z
end_header
0.02740602 0.23404061 0.00000000
-0.56787737 -0.39118540 -0.00000016
-0.19689017 -0.14414431 0.00000000
0.26920637 0.32740310 0.00000272
0.30393812 0.25607539 -0.00000034
0.13861410 -0.16728095 0.00000000
-0.53808453 0.24712155 0.03126453
-0.02771128 0.40687534 0.00000000
-0.06275751 0.48986947 0.00000000
0.25306412 0.18598245 0.00000539
0.50958357 -0.71157807 0.00000000
0.63936737 -0.72348989 -0.00000004
-0.60060303 -0.77752207 0.00000000
0.32827565 0.25159314 -0.00000043
-0.30720574 0.46264262 0.06372348
0.00404604 -0.76170759 0.00000000
-0.36845786 0.13422014 -0.00000020
-0.52758573 0.16519152 0.22660636
0.58776288 -0.72003345 0.00000000
0.47629459 -0.56296460 0.00000000
0.07253537 -0.38979987 0.00000000
-0.33458026 0.43883286 0.05618945
0.09539167 -0.73867429 0.00000000
-0.43546953 0.22658504 0.29153696
-0.10660507 0.59746596 0.20273846
0.59181972 -0.54403820 -0.00000015
-0.31159750 -0.40362993 0.00000000
-0.20005634 0.44999987 0.31689350
0.24984729 -0.32699197 0.00000000
0.60092824 -0.01206747 -0.00000113
0.40179177 0.22357284 0.00000191
0.09779668 0.57845063 -0.00000003
-0.38940722 0.24975121 0.33992545
0.13834925 0.26412885 0.00000595
-0.46659495 0.27171018 0.13038683
0.44472527 0.12984986 0.00000265
0.30831630 -0.73148516 0.00000000
0.32791385 -0.38470830 0.00000000
0.59177541 0.11887764 0.00000001
0.70072886 -0.69185867 -0.00000027
0.31568576 0.34826285 0.00000148
0.11237059 0.25624273 0.00000000
-0.57262431 -0.15327394 -0.00000038
-0.29414060 0.00691354 0.00000000
0.03963434 0.61135049 0.00000223
0.49407725 -0.69376690 0.00000000
0.22083825 0.21202613 0.00000549
0.41979382 0.19414994 0.00000206
0.50761349 -0.57838748 0.00000000
0.21429230 -0.75642297 0.00000000
0.33637252 0.33486835 0.00000131
-0.41161442 -0.53076869 0.00000000
0.62689073 -0.72326659 0.00000000
-0.31430046 -0.74599054 0.00000000
0.24744941 -0.74322381 0.00000000
-0.21238128 0.46192825 0.26563667
-0.42865418 -0.51457044 0.00000000
-0.30240717 -0.36780432 0.00000000
-0.23090174 0.51047407 0.12389870
0.44216465 0.19901220 0.00000155
0.13632980 0.01676035 0.00000969
-0.78380402 -0.77546529 -0.00000003
-0.46023942 0.27302134 0.14104778
0.22331309 0.05196308 0.00000785
-0.15199518 -0.26763202 0.00000000
0.66784147 -0.62759886 -0.00000033
-0.14927053 0.63962001 0.02348020
0.62652214 -0.66242406 -0.00000009
0.32740881 -0.58299037 0.00000000
0.16879237 -0.42032960 0.00000000
-0.61540813 -0.19048131 -0.00000044
-0.48226795 0.22957097 0.18632118
0.28278638 0.17237830 -0.00000010
-0.27420736 -0.33825316 0.00000000
-0.38195727 -0.30863413 0.00000000
0.72644323 0.04722678 -0.00000138
0.78794859 -0.66927348 -0.00000033
0.39453462 -0.22282652 0.00000000
-0.31350445 -0.66366651 0.00000000
-0.34365215 0.04394528 -0.00000007
-0.57951038 -0.13071288 -0.00000041
-0.15000327 -0.18633224 0.00000000
0.67718400 -0.53557919 -0.00000053
0.49412578 -0.63894884 0.00000000
-0.72530855 -0.52891803 -0.00000034
0.42266410 0.27456640 -0.00000087
-0.59382229 -0.76971370 0.00000000
0.35052909 0.02253240 -0.00000012
0.06114962 0.07891018 0.00000989
0.78269813 -0.01285142 -0.00000190
0.00762868 0.41146995 0.00000571
0.53911677 -0.58119495 0.00000000
-0.06452247 -0.75366152 0.00000000
-0.18994862 0.60800810 0.00431921
-0.46391679 -0.25321515 -0.00000006
0.35933443 -0.14319419 0.00000000
0.67729070 -0.08553675 -0.00000133
0.26949098 -0.20333165 0.00000000
-0.10429094 -0.37656266 0.00000000
-0.40653502 -0.05033230 -0.00000012
0.42842980 0.26718327 -0.00000089
0.37426602 -0.07061849 -0.00000006
0.53667863 0.23557945 -0.00000088
-0.30386732 0.31287139 0.38730694
-0.10601384 0.39537612 0.00000000
-0.50308179 -0.28505678 -0.00000011
0.42191478 0.20737321 -0.00000075
-0.28397152 -0.26159013 0.00000000
-0.42824996 0.26249343 0.23090545
0.30694780 0.01819204 0.00000710
0.04940429 -0.16247691 0.00000000
0.61066616 0.02132888 -0.00000123
0.78161293 -0.40855692 -0.00000098
-0.04772680 -0.33386171 0.00000000
-0.35350508 0.38209032 -0.00000038
0.63588065 0.15491989 -0.00000144
-0.50028380 0.23099527 0.14523569
-0.44612580 -0.12198234 -0.00000014
0.19742498 0.50770221 -0.00000033
-0.21032146 0.43287282 0.33139552
0.23401514 0.35962876 0.00000286
-0.47084907 0.23109679 0.20722953
-0.23906988 -0.17234911 0.00000000
0.50055509 0.18125183 -0.00000104
0.75963311 -0.42929629 -0.00000093
-0.43788447 0.24105985 0.25584186
0.52319166 -0.47407995 0.00000000
0.22112017 -0.43139551 0.00000000
-0.54633038 0.25057439 0.00654012
-0.27030953 -0.24557203 0.00000000
0.18027681 -0.19450638 0.00000000
-0.01583318 -0.60305053 0.00000000
-0.23349559 0.43448857 0.27900475
0.21895942 0.40070368 -0.00000023
-0.65794355 -0.38095763 -0.00000036
-0.77408716 0.02097873 0.01042497
0.62503312 -0.50482181 -0.00000036
-0.00903702 -0.65479575 0.00000000
-0.24777787 -0.30454604 0.00000000
0.16974245 0.07624190 0.00000000
-0.23888023 -0.57894066 0.00000000
-0.61625507 -0.62930686 -0.00000005
0.01738342 0.20470890 0.00000000
-0.77925220 -0.03655239 -0.00000092
0.12735422 0.16255348 0.00000000
-0.43822377 -0.78868289 0.00000000
0.09759783 -0.51509832 0.00000000
-0.50687832 -0.12773372 -0.00000026
-0.66677364 0.11871298 0.03067079
-0.13010679 0.49037285 -0.00000000
0.33369978 0.23160922 0.00000309
-0.03537708 -0.67845691 0.00000000
0.08919996 0.27058804 0.00000660
-0.46201650 0.24386352 0.19891501
0.23378922 0.24701204 -0.00000002
-0.08825995 -0.38105552 0.00000000
0.14408649 -0.13310284 0.00000000
-0.34964406 0.44379062 0.01387519
0.63223557 -0.27123917 -0.00000080
-0.39686367 0.25921414 0.30416813
-0.36207996 -0.37419117 0.00000000
0.06015326 0.12105683 0.00000928
0.37989709 -0.26304868 0.00000000
0.35124469 0.10815742 0.00000481
-0.39046863 -0.69625984 0.00000000
-0.43501194 -0.47080281 0.00000000
0.67548912 -0.55688310 -0.00000048
0.55574438 -0.24509011 -0.00000052
-0.30344914 0.47703142 0.04125312
0.06744826 0.32478227 0.00000000
-0.18768200 0.07689557 0.00000000
0.77344082 -0.36589261 -0.00000109
0.07929980 -0.03631642 0.00000000
0.28083940 -0.51483907 0.00000000
0.61710932 -0.47123563 -0.00000039
-0.19794709 -0.67923714 0.00000000
-0.24626883 -0.43239495 0.00000000
0.71967526 -0.49398058 -0.00000077
0.50784271 -0.34797893 -0.00000014
-0.40517566 0.26919454 0.26550905
0.30893226 -0.46213511 0.00000000
-0.00605021 -0.41728703 0.00000000
-0.29243609 0.22424555 -0.00000012
-0.68862514 -0.30533020 -0.00000049
0.37973452 0.21131640 -0.00000058
-0.26314153 0.45297885 0.17727393
0.14469443 0.32602295 0.00000000
-0.39075182 -0.65992710 0.00000000
-0.38424656 0.23449718 0.38306980
-0.25375178 -0.24236711 0.00000000
-0.46990305 -0.17664791 -0.00000014
0.41360178 0.19094755 0.00000223
0.13219464 -0.32235824 0.00000000
0.07198472 0.09649810 0.00000947
0.36205094 0.36963524 0.00000024
0.12622859 -0.49579238 0.00000000
0.48947422 -0.56304291 0.00000000
0.73097431 -0.44470640 -0.00000089
-0.34540479 -0.52614811 0.00000000
-0.51507021 0.13890697 -0.00000051
-0.68233206 -0.23158255 -0.00000054
0.73583910 -0.79833635 -0.00000000
-0.52909407 -0.08209463 -0.00000035
-0.28708235 -0.07938392 0.00000000
0.07386216 0.20537315 0.00000780
-0.00774307 0.09423840 0.00000000
0.06750291 0.73078872 -0.00000014
0.31130080 0.12025776 -0.00000013
-0.06884401 0.50583166 0.00000000
0.58965938 0.12699916 -0.00000008
-0.20905814 0.58754758 0.00717434
-0.63551991 0.04361264 -0.00000069
-0.36469342 0.14804610 -0.00000020
-0.32796356 -0.29011953 0.00000000
-0.78270977 -0.07657691 -0.00000090
0.46419638 0.12958192 -0.00000080
-0.31853961 0.13658933 -0.00000009
-0.06831771 0.73002482 0.00350463
0.01401473 -0.59585971 0.00000000
-0.16481088 -0.27196487 0.00000000
0.56485890 -0.55430905 -0.00000002
-0.53274200 0.23805070 0.06172620
-0.33393612 -0.13755954 0.00000000
-0.26036630 0.52623998 0.02830712
0.37176042 0.06541911 -0.00000029
-0.04859863 -0.42634909 0.00000000
-0.36608615 -0.44578154 0.00000000
-0.39281255 0.36875094 0.08123241
0.11948242 0.03199093 0.00000972
0.53459477 -0.11236443 -0.00000067
-0.48316611 0.17498400 0.29978866
0.21894427 0.14718577 0.00000000
-0.51489150 0.26256798 0.04763655
-0.01739478 -0.09094508 0.00000000
-0.08625253 0.66365550 -0.00000006
-0.64243416 0.14968060 0.01666283
0.37010925 -0.75347543 0.00000000
0.01474442 0.58270379 0.00000000
0.55689576 -0.25912132 -0.00000050
0.54339896 0.22419332 -0.00000130
0.26412631 0.22136396 -0.00000010
0.05139644 0.52319314 0.00000338
0.55306104 -0.26247339 -0.00000048
0.04160397 -0.42847678 0.00000000
0.24888847 0.03269009 0.00000000
-0.08090517 0.69448478 0.05201320
0.48075956 0.25084018 -0.00000006
0.48055124 0.07031931 0.00000296
-0.41435333 -0.30645865 0.00000000
0.47753002 0.19873209 0.00000087
-0.16396122 0.50809927 0.27038962
0.43985274 -0.32368980 0.00000000
0.09979659 0.05646598 0.00000965
0.69902500 0.07442176 -0.00000170
0.06197495 0.67580468 -0.00000004
-0.26143721 -0.19109299 0.00000000
0.49495751 -0.59813266 0.00000000
-0.70016125 0.07339642 0.05588155
0.42030014 -0.42022026 0.00000000
-0.47964258 -0.19437156 -0.00000014
0.41450601 -0.48219399 0.00000000
-0.06641367 -0.63208052 0.00000000
0.46229680 -0.03842723 -0.00000049
-0.37599920 0.31234700 -0.00000037
0.26984515 -0.63838588 0.00000000
-0.26820754 0.48243863 0.10430621
-0.68187461 -0.62466355 -0.00000020
0.66193767 -0.22965832 -0.00000100
-0.26516583 -0.20868816 0.00000000
0.26312525 -0.27434024 0.00000000
0.48732264 -0.60994744 0.00000000
0.05106309 0.27832137 0.00000705
-0.36253909 0.30818973 0.27320461
-0.25536963 -0.41220101 0.00000000
0.61665921 0.09432650 -0.00000138
0.42454573 -0.72942938 0.00000000
-0.50426935 -0.79713025 0.00000000
-0.07670427 0.18010887 0.00000000
0.39722406 0.10883870 -0.00000047
0.65573764 -0.58175423 -0.00000036
0.73739001 -0.73294208 -0.00000017
0.20354062 0.36270332 0.00000340
0.05474477 -0.67477180 0.00000000
0.56384887 0.16114767 -0.00000016
0.22788924 0.04274375 0.00000792
0.33094544 -0.07038673 0.00000000
-0.03431617 -0.00732037 0.00000000
-0.45299118 0.28457920 0.13193976
-0.33034501 -0.09000610 0.00000000
-0.32495365 -0.78420346 0.00000000
-0.07940355 0.67320219 0.10016526
-0.44977551 -0.33803213 0.00000000
-0.53796263 -0.01667165 -0.00000043
0.63575208 -0.58838175 -0.00000026
0.11883885 0.16513551 0.00000773
0.28644607 0.02947887 0.00000724
0.31603845 -0.21432590 0.00000000
-0.36208412 -0.75832715 0.00000000
-0.71154671 -0.21012712 -0.00000063
-0.12296573 0.08776747 0.00000000
-0.49997553 -0.26821927 -0.00000012
0.57150077 -0.22671320 -0.00000062
-0.22271173 0.02322408 0.00000000
-0.19608772 0.16869377 0.00000000
-0.06891730 -0.65846418 0.00000000
0.47055665 0.08818755 0.00000285
0.21748584 -0.29449590 0.00000000
-0.43334984 0.36525490 0.00294809
-0.66386598 0.07119487 -0.00000077
-0.07082912 0.56264164 0.00000000
0.26244636 -0.11242760 0.00000000
0.19576633 -0.20738326 0.00000000
0.07519208 -0.22525186 0.00000000
-0.74940815 -0.57169444 -0.00000029
0.52059447 0.15380933 0.00000080
0.16727288 0.05493145 0.00000865
0.22986980 -0.78941334 0.00000000
-0.57488257 0.06491685 -0.00000058
-0.06352312 -0.21382028 0.00000000
-0.20518328 0.35011691 -0.00000004
-0.01150828 0.58312478 0.00000000
-0.50100528 0.16222937 0.28904273
-0.27615256 0.27141474 -0.00000012
-0.73186387 -0.76536896 -0.00000004
-0.48099644 -0.42175401 0.00000000
-0.38072317 -0.50179427 0.00000000
0.47472941 -0.56148866 0.00000000
0.64767418 -0.65995647 -0.00000018
0.54135437 -0.30687361 -0.00000035
0.23056128 -0.63383147 0.00000000
-0.12921504 0.61957681 0.10822569
0.30143708 -0.66108976 0.00000000
-0.65473845 -0.62319134 -0.00000014
-0.70312425 -0.61350840 -0.00000023
0.26602268 0.44958615 -0.00000052
0.04610826 0.64137187 0.00000000
0.10466070 -0.49184840 0.00000000
-0.18425324 0.46290113 -0.00000010
-0.40391464 0.17449877 -0.00000031
-0.15790505 -0.69325289 0.00000000
0.54522123 -0.52100568 0.00000000
0.11714343 0.60413375 0.00000102
-0.79912616 -0.20477951 -0.00000074
0.04719225 0.11485237 0.00000000
0.10740604 0.67164044 -0.00000023
-0.17756966 0.41271773 -0.00000004
-0.69931449 0.05334680 -0.00000083
0.01043611 0.19579187 0.00000891
-0.74986625 -0.29410710 -0.00000063
-0.21338448 -0.34843583 0.00000000
-0.52627259 -0.16757406 -0.00000027
0.52319897 0.15268161 -0.00000109
0.00408628 0.42005558 0.00000564
0.65437421 -0.14583120 -0.00000112
0.63204882 0.06572212 0.00000013
0.38439091 0.09336538 -0.00000039
0.65228405 0.13488929 -0.00000161
-0.51662664 -0.42773889 -0.00000002
-0.69927556 -0.03879569 -0.00000075
-0.37839286 0.27207781 -0.00000034
0.58977262 -0.41708555 -0.00000037
0.20894005 0.55739152 -0.00000046
0.12283095 0.38317044 0.00000440
0.34209319 -0.34384610 0.00000000
-0.37236739 0.34915689 0.16585259
0.26104865 -0.19433511 0.00000000
-0.63762485 0.08732976 0.15860108
-0.11356628 0.31783030 0.00000000
0.35982062 -0.69771440 0.00000000
0.52078110 0.05838082 0.00000239
0.63882686 0.09226478 -0.00000148
0.37802362 -0.18600989 0.00000000
0.21801117 0.00728597 0.00000000
-0.45283094 -0.30819291 0.00000000
0.32590899 0.19173990 0.00000390
0.62899645 -0.25159898 -0.00000083
0.63618029 -0.61268999 -0.00000022
-0.60220712 -0.61462552 -0.00000003
0.08728681 -0.06070113 0.00000000
0.26519505 -0.02667161 0.00000000
-0.49969603 -0.38219167 -0.00000002
-0.62556708 0.11280956 0.13023467
0.11031619 0.41448520 0.00000412
-0.02675313 -0.14518777 0.00000000
0.15524102 -0.77566207 0.00000000
0.50975087 0.14716078 -0.00000102
0.64071968 0.05045197 -0.00000141
-0.58000397 0.15936065 0.12814693
0.15869774 0.15064983 0.00000735
0.65297879 -0.04708278 -0.00000129
-0.24152415 0.11376427 0.00000000
0.34845943 0.29947735 0.00000167
-0.43850988 -0.26113643 0.00000000
0.71610685 -0.07239956 -0.00000151
0.74919025 0.01317691 -0.00000181
0.03120180 0.49348343 0.00000413
-0.16985262 0.27031152 0.00000000
-0.13218088 -0.43590076 0.00000000
-0.72444414 0.00749515 -0.00000085
0.25309572 0.37499354 0.00000224
0.33346895 -0.13841100 0.00000000
-0.53014305 0.16168371 0.22861514
-0.38442765 0.19197116 -0.00000028
0.34424402 0.31853410 -0.00000062
0.76164650 -0.11894787 -0.00000163
0.38603835 0.29111673 -0.00000075
0.49158801 0.02031082 0.00000358
-0.15657647 -0.32057875 0.00000000
0.77778530 -0.20291717 -0.00000149
0.21738820 0.08505839 0.00000000
-0.07164981 0.46412642 0.00000000
0.64984485 0.03905744 0.00000023
0.00932108 0.59956917 0.00000287
0.04257741 -0.09029248 0.00000000
0.34402572 0.42754695 -0.00000081
-0.11118861 0.59822306 -0.00000006
0.78455995 -0.15883905 -0.00000160
0.36329540 -0.44959060 0.00000000
0.07474498 -0.07079351 0.00000000
-0.44407237 0.07174534 -0.00000030
0.30444170 0.36901866 0.00000135
-0.42099276 -0.18323212 -0.00000003
0.24137111 -0.23097581 0.00000000
-0.43545072 0.29937191 0.13774704
0.08925754 0.14445667 0.00000000
-0.37821138 0.26928442 -0.00000034
-0.66048476 -0.27711330 -0.00000046
0.51781403 0.26957729 -0.00000127
0.21931029 -0.77311003 0.00000000
-0.32872941 0.34978184 0.25675713
-0.57025626 0.12498199 0.22140495
0.15784322 0.10766800 0.00000800
-0.68831788 -0.30007383 -0.00000050
0.34817758 0.24157267 -0.00000050
0.21359715 0.45711608 0.00000163
-0.29342492 -0.42159555 0.00000000
0.23589734 -0.63828136 0.00000000
-0.59014710 0.12944722 0.16992999
0.12600330 0.17229912 0.00000751
0.54704474 -0.35515754 -0.00000029
0.43457801 -0.63159143 0.00000000
-0.23876699 0.51771133 0.09198055
0.33575225 0.19221359 -0.00000036
-0.50174702 0.12887407 -0.00000048
-0.46543617 -0.66565124 0.00000000
0.19189726 -0.78221208 0.00000000
-0.06723149 0.06702739 0.00000000
0.68517967 0.05725778 -0.00000161
0.16250272 0.15496882 0.00000000
-0.33573253 0.02752305 -0.00000003
-0.26529495 0.46191908 -0.00000027
0.54456287 -0.32851019 -0.00000033
0.37085280 -0.07634208 -0.00000003
-0.18871288 -0.30841654 0.00000000
-0.26603258 0.09256009 0.00000000
-0.21577377 0.43506994 -0.00000014
-0.42642580 -0.47243236 0.00000000
-0.36317014 0.23894714 -0.00000028
-0.06295987 -0.38722342 0.00000000
-0.56782914 -0.13815849 -0.00000038
0.20234920 0.08339514 0.00000770
-0.30766762 0.05234767 0.00000000
-0.53087008 -0.39796290 -0.00000007
-0.67414174 0.11067024 0.03209655
0.12281577 0.29898991 0.00000000
0.19258939 0.37566382 0.00000339
-0.21673445 -0.37069094 0.00000000
0.49330725 -0.30375054 -0.00000015
-0.55608900 -0.02354232 -0.00000046
0.54066894 -0.21777915 -0.00000051
0.71436130 -0.45129491 -0.00000084
-0.52693341 -0.18646160 -0.00000025
0.01183477 0.08524725 0.00000000
0.01268758 0.22906759 0.00000000
-0.07369140 0.30062492 0.00000000
0.50038156 -0.13434326 -0.00000048
0.27301846 -0.03679427 0.00000000
0.11371622 0.22986442 0.00000000
-0.21636235 0.55430704 -0.00000024
-0.25236972 -0.43335349 0.00000000
-0.75594280 -0.71485608 -0.00000011
0.15042795 0.07081013 0.00000867
-0.62545411 0.12137737 0.11236595
-0.00476756 -0.06132220 0.00000000
0.44918910 0.10389789 0.00000300
0.13900860 0.05190532 0.00000000
-0.16208649 0.11772783 0.00000000
-0.37425407 0.27325935 0.32226801
-0.45587081 0.31430801 0.06302411
-0.41412272 -0.07658283 -0.00000011
-0.00534906 0.02884979 0.00000000
-0.70882545 -0.11884229 -0.00000070
-0.37794257 0.40699715 0.03182852
-0.14309672 -0.60214824 0.00000000
0.12829307 -0.60862423 0.00000000
-0.78284879 -0.01084679 -0.00000095
0.35813769 -0.40516764 0.00000000
-0.41040328 -0.28947048 0.00000000
0.15157046 -0.67198012 0.00000000
-0.52448456 -0.13326257 -0.00000029
0.34118953 0.30258304 -0.00000058
-0.73186108 -0.29724579 -0.00000059
-0.11975027 0.05702540 0.00000000
-0.08331549 -0.39711041 0.00000000
0.63480768 0.05702997 0.00000022
0.57563991 -0.52269904 -0.00000012
0.48928881 -0.09278307 -0.00000051
0.36514838 0.13889209 0.00000403
0.23826239 0.18674783 0.00000560
0.13712622 0.51034045 0.00000221
-0.47765061 -0.34426617 -0.00000001
-0.00890590 -0.56037331 0.00000000
0.50013164 0.12374885 -0.00000094
-0.19634945 0.50888325 0.20028369
-0.58613368 -0.77325336 0.00000000
0.20666266 -0.48593570 0.00000000
-0.51535483 -0.48449297 0.00000000
-0.04929630 -0.01638575 0.00000000
-0.31778405 -0.36273219 0.00000000
0.09183476 0.56155239 0.00000219
-0.15106491 0.18015900 0.00000000
-0.72939408 -0.74899180 -0.00000006
-0.61532071 0.12287060 0.13062640
0.36167060 0.04417531 -0.00000021
-0.49151492 -0.39303667 0.00000000
0.02063122 -0.47062919 0.00000000
0.03235531 0.20796886 0.00000839
-0.28959712 0.50173140 -0.00000035
-0.24722322 -0.27775306 0.00000000
0.25225054 -0.69430715 0.00000000
0.43690422 0.31525891 -0.00000101
-0.08794562 -0.28568141 0.00000000
-0.37384835 0.39541279 0.06496409
0.21941118 0.13417671 0.00000668
-0.53584199 0.22529397 0.08213504
0.31470390 0.04062058 -0.00000000
0.11383197 0.30862877 0.00000000
-0.60825586 -0.25934750 -0.00000036
-0.41495301 -0.77407910 0.00000000
-0.45950580 -0.75679631 0.00000000
-0.38527292 0.22177619 -0.00000031
-0.70561237 -0.28699657 -0.00000054
-0.34184019 0.37646338 0.17265951
0.08185882 0.10345714 0.00000000
-0.25898625 0.36118417 0.38005424
-0.26195334 0.45463250 0.17629020
0.12408915 -0.17953750 0.00000000
0.51866861 0.01446810 -0.00000082
-0.26841801 0.13059941 0.00000000
0.34303919 -0.67699563 0.00000000
-0.49027385 -0.73721524 0.00000000
-0.01767060 0.13537051 0.00000000
0.07756935 0.64054442 0.00000117
-0.05438425 0.70593943 -0.00000003
0.74850168 -0.06713444 -0.00000166
-0.56296371 -0.29326832 -0.00000023
-0.25432632 0.40862258 0.28964631
-0.53721385 0.01747463 -0.00000045
-0.23189848 0.49689066 0.15049969
0.42524381 -0.58135696 0.00000000
-0.41582662 0.06091359 -0.00000023
-0.25872782 0.50510099 0.07644569
0.77942029 -0.04129552 -0.00000184
-0.59822552 0.20147062 0.00064041
-0.22048335 0.35359194 -0.00000008
-0.03753670 -0.75455521 0.00000000
0.62670266 -0.76669428 0.00000000
-0.53834949 -0.31431076 -0.00000016
-0.31629914 0.41740080 0.14012054
0.18484829 -0.35638412 0.00000000
0.03660629 -0.70285213 0.00000000
0.41945431 0.21924993 -0.00000076
-0.21026361 0.30786217 -0.00000001
-0.12924376 0.60715868 0.13440944
0.00117010 -0.43892784 0.00000000
-0.22862594 -0.39350433 0.00000000
-0.30924445 -0.41873118 0.00000000
0.20632829 0.52866306 -0.00000040
-0.39677800 0.24588531 0.33251827
-0.35749972 -0.77970219 0.00000000
-0.15515299 -0.02179068 0.00000000
-0.60267697 0.10554958 0.19395487
-0.52951644 0.24499925 0.05385795
-0.35841514 0.34377786 0.20670794
0.36954835 0.24898113 0.00000211
0.02727020 -0.74658875 0.00000000
0.06136488 0.61624566 0.00000183
0.28344505 0.15289473 0.00000537
0.23790193 0.27344820 0.00000423
0.36081785 0.13286891 -0.00000036
0.68139428 -0.74434430 -0.00000014
0.03241651 -0.57474541 0.00000000
-0.64240574 -0.50010716 -0.00000022
0.12455760 -0.50234495 0.00000000
0.13570666 -0.38250641 0.00000000
-0.64838391 -0.40260052 -0.00000032
0.14529019 0.59855350 -0.00000026
-0.16029130 0.27014158 0.00000000
0.67311081 -0.41698858 -0.00000072
0.61302326 0.03279656 0.00000104
0.24084356 -0.06864647 0.00000000
-0.43185430 -0.22225533 -0.00000002
0.48868714 0.16789580 -0.00000097
-0.22179249 0.43055325 0.31205490
0.09273541 0.41019321 0.00000445
0.25620395 0.14347449 0.00000000
0.45021814 -0.21756457 -0.00000012
-0.05986491 0.12386255 0.00000000
0.67263552 0.11509783 -0.00000166
0.30770988 0.02572482 0.00000697
0.06672789 0.40499982 0.00000000
-0.50416899 0.16586275 0.27467757
-0.78640687 -0.25803065 -0.00000068
-0.06842671 0.53654264 0.00000000
-0.67061204 -0.26102241 -0.00000049
0.23011634 -0.25268574 0.00000000
0.23708309 0.51646127 -0.00000051
0.14376611 0.65168009 -0.00000028
-0.52090210 0.17354681 0.22307348
0.08072716 -0.20678610 0.00000000
0.00892900 0.50259109 0.00000000
0.74162488 0.03594143 -0.00000148
-0.04605253 0.39777754 0.00000000
0.37740168 0.18453569 0.00000303
0.00747251 -0.50851497 0.00000000
0.31141027 -0.71283524 0.00000000
-0.34636332 0.33080608 0.25959306
-0.69254106 -0.15884359 -0.00000063
-0.33692781 -0.42166672 0.00000000
-0.27302581 0.41235059 0.24224817
-0.18696459 -0.42301176 0.00000000
-0.28535068 0.38858634 0.26642416
-0.58681130 0.04409632 -0.00000058
0.24595997 0.43587893 -0.00000041
-0.70611066 0.06773228 0.05527862
0.19608169 -0.68973378 0.00000000
0.50022887 -0.32909557 -0.00000014
0.31324850 -0.18180953 0.00000000
0.70369502 -0.68458789 -0.00000029
-0.26786245 -0.30047281 0.00000000
-0.18681982 -0.01994617 0.00000000
0.69293582 -0.26638390 -0.00000107
-0.53605108 -0.45338792 -0.00000004
-0.18624234 0.60562246 0.01719409
0.37029520 0.35935287 0.00000025
0.42265755 -0.72158095 0.00000000
0.13449929 -0.27468889 0.00000000
0.54976728 -0.07080425 -0.00000081
0.54274424 -0.71631216 0.00000000
0.29921297 -0.25668493 0.00000000
0.02299315 -0.66441935 0.00000000
-0.08832387 0.66192400 -0.00000007
-0.39686383 0.27126503 0.27869946
0.28018305 -0.62003536 0.00000000
-0.14984352 0.02269830 0.00000000
0.23512681 0.29445906 -0.00000011
0.57054859 0.01504342 -0.00000105
0.65875022 0.06931385 -0.00000045
-0.77065880 -0.64672895 -0.00000019
-0.03677252 -0.14059402 0.00000000
0.76552699 -0.19843105 -0.00000150
-0.45173946 0.21249205 0.28693628
0.27672448 0.27645687 0.00000343
0.59664563 -0.34548140 -0.00000052
-0.62419959 0.11465453 0.12922553
-0.70600243 -0.53411544 -0.00000033
-0.38972099 0.29070843 0.25270348
0.11423062 0.45076339 0.00000351
0.37074700 0.02792555 -0.00000022
0.31062986 -0.51184539 0.00000000
0.73835689 0.03453719 -0.00000139
-0.10506983 0.06118085 0.00000000
0.03222826 0.02357245 0.00000000
-0.02537526 -0.48220776 0.00000000
-0.53821121 -0.77439487 0.00000000
-0.40254365 -0.70157342 0.00000000
-0.27547976 -0.70717024 0.00000000
0.71855653 -0.59313533 -0.00000052
0.35078438 -0.20127541 0.00000000
-0.24654774 -0.62320733 0.00000000
-0.51578909 0.25707035 0.05735841
0.44895411 -0.61700705 0.00000000
0.29467128 -0.33341814 0.00000000
0.77086518 -0.03422494 -0.00000182
0.40462395 0.22771028 -0.00000072
-0.22849876 -0.13723756 0.00000000
-0.17742734 -0.53552002 0.00000000
0.28541803 0.36167342 -0.00000044
0.62952376 0.08266632 -0.00000011
-0.25088622 0.46778888 0.17187473
-0.02058680 0.02681446 0.00000000
0.29576107 -0.60968382 0.00000000
0.55963914 -0.36557041 -0.00000033
0.66551531 -0.76054633 -0.00000008
0.24242590 0.15986181 0.00000000
-0.26046857 -0.75300979 0.00000000
-0.51418660 -0.56404386 0.00000000
-0.66135905 -0.49484922 -0.00000027
0.22930679 -0.70330967 0.00000000
-0.26873042 0.28368428 -0.00000012
-0.40569000 0.30827565 0.18182698
-0.58172550 0.21300711 0.01113059
-0.21871587 0.52087575 0.12766955
0.01472623 0.01756434 0.00001151
0.45367126 0.16460840 -0.00000081
-0.12401231 -0.06471195 0.00000000
-0.20334386 0.44611003 0.31816647
0.01530533 0.71606329 0.00000103
-0.69526050 -0.41085128 -0.00000041
-0.46389484 -0.00055489 -0.00000028
0.10789268 0.08161539 0.00000000
0.31959665 -0.09544658 0.00000000
-0.01165285 0.60137201 0.00000000
0.38321473 -0.46024612 0.00000000
-0.08646405 0.67551178 0.08036258
-0.64578528 -0.55110387 -0.00000018
0.49379611 0.25991554 -0.00000046
-0.72883361 0.05299871 0.03839347
0.59154423 0.18964373 -0.00000145
-0.33680379 0.27166095 0.40479325
-0.30369434 -0.34300739 0.00000000
0.43150273 -0.16946501 -0.00000013
-0.11447291 -0.31527171 0.00000000
-0.13876554 0.55839381 -0.00000008
0.25929045 0.22913783 -0.00000010
-0.03503517 0.71590641 -0.00000000
0.59680528 -0.62849521 -0.00000002
0.23268618 -0.49177547 0.00000000
-0.63826288 -0.39728771 -0.00000030
-0.51260057 -0.14798891 -0.00000026
-0.64582837 -0.66823906 -0.00000008
0.35112076 0.30430445 0.00000154
0.43467938 -0.33096372 0.00000000
-0.54512470 -0.31335889 -0.00000018
0.32877254 -0.10759832 0.00000000
0.25954005 0.04404307 0.00000742
-0.57792546 0.03751280 -0.00000056
-0.39956912 -0.61055090 0.00000000
-0.48118079 -0.76668649 0.00000000
0.08457063 0.44328961 0.00000407
0.57064629 -0.44420586 -0.00000024
-0.12486249 -0.37980700 0.00000000
0.11122217 0.16084070 0.00000791
0.09154513 0.64584156 -0.00000012
0.08142258 0.06615915 0.00000978
0.51596970 -0.69614826 0.00000000
0.71503054 0.06724258 -0.00000176
-0.47389492 -0.45796616 0.00000000
-0.17149478 -0.15382880 0.00000000
-0.16182247 -0.60580601 0.00000000
0.08086231 0.32898680 0.00000585
0.16151392 0.47014761 0.00000241
-0.09331458 0.10752145 0.00000000
0.16440921 0.21532739 0.00000629
-0.35440090 -0.77832888 0.00000000
-0.37173546 -0.66522728 0.00000000
-0.33077561 -0.61824689 0.00000000
-0.55523431 -0.37892081 -0.00000014
0.20842273 -0.32871195 0.00000000
-0.19357328 0.40745680 -0.00000007
0.11832588 0.24502527 0.00000000
-0.29032622 0.30995571 0.42208660
0.71324059 -0.57403895 -0.00000056
-0.24607561 0.29850304 -0.00000008
0.19584621 0.42830774 0.00000245
-0.18568688 0.52577291 0.18712334
-0.20773799 -0.36518150 0.00000000
-0.60072463 -0.37090989 -0.00000025
-0.24916009 -0.57298411 0.00000000
0.00967652 -0.01702738 0.00000000
-0.18140610 -0.40832466 0.00000000
0.52164711 -0.57113242 0.00000000
-0.34956216 0.14438322 -0.00000017
0.52457140 -0.36369323 -0.00000018
0.78109868 -0.02470258 -0.00000188
-0.63955164 -0.26431183 -0.00000042
0.05493156 -0.79004130 0.00000000
-0.00839314 -0.50985550 0.00000000
-0.51525003 -0.60609445 0.00000000
0.25624065 -0.01074444 0.00000000
-0.44966473 -0.61821694 0.00000000
0.32253236 -0.43884323 0.00000000
-0.22134850 -0.24277632 0.00000000
-0.40748235 -0.76754568 0.00000000
0.25980914 0.20809977 -0.00000006
-0.16026143 -0.19885942 0.00000000
-0.34378958 0.36615303 0.19032980
0.03697995 0.25589765 0.00000000
0.40954875 -0.07047919 -0.00000021
-0.79199339 -0.46179163 -0.00000042
0.43896857 -0.59980083 0.00000000
0.67029383 0.07541218 -0.00000077
0.03676043 -0.23869447 0.00000000
-0.55918794 0.17308222 0.14314070
-0.68423137 -0.08177768 -0.00000068
0.26451999 0.34961504 -0.00000033
-0.34879712 0.25887887 -0.00000027
0.35421697 0.35692679 -0.00000073
-0.13011821 0.18661914 0.00000000
-0.33864210 -0.30087756 0.00000000
-0.78188252 -0.74083981 -0.00000007
0.43101679 -0.40051258 0.00000000
-0.10688314 0.66737559 -0.00000011
0.06460996 0.66735963 -0.00000004
-0.59601392 0.18339904 -0.00000073
0.16032310 -0.05185828 0.00000000
0.23383461 0.48084031 -0.00000043
0.12264053 -0.30353564 0.00000000
-0.00415897 -0.46632011 0.00000000
-0.08264546 -0.68430395 0.00000000
-0.72011645 -0.54150063 -0.00000032
0.04862622 0.47952355 0.00000407
0.44935859 -0.18728410 -0.00000017
0.06350593 0.50473221 0.00000347
-0.23622935 0.36437415 0.42140683
0.14168545 0.52485930 -0.00000012
0.59205210 -0.06542950 -0.00000100
-0.00354465 0.59710622 0.00000000
-0.61137020 -0.47662284 -0.00000018
-0.14227173 -0.63887683 0.00000000
-0.51419131 -0.41941426 -0.00000002
0.08169175 0.54657113 0.00000257
-0.43193674 0.21606301 0.32124038
-0.29045081 0.19393481 -0.00000008
-0.02014839 -0.52834828 0.00000000
-0.33899484 -0.50821908 0.00000000
0.70470564 -0.32639696 -0.00000102
0.38310154 -0.14373794 0.00000000
0.73775775 -0.57883031 -0.00000055
-0.08174139 0.64826134 -0.00000004
-0.33401915 0.44415475 0.04612787
-0.43570420 -0.18331093 -0.00000006
-0.23955345 0.27099471 -0.00000004
-0.06656798 0.34795600 0.00000000
0.03172163 0.65725079 0.00000000
0.74430606 -0.69788152 -0.00000026
0.11354690 0.38997141 0.00000444
-0.13371066 0.51926125 -0.00000004
-0.05244447 0.01622379 0.00000000
0.00265279 0.23431154 0.00000845
0.16765237 0.39041546 0.00000000
-0.28023015 -0.07978992 0.00000000
-0.27484445 0.42108262 -0.00000025
-0.51456347 -0.78883603 0.00000000
0.67228394 -0.73457501 -0.00000016
0.76127739 -0.49445355 -0.00000076
-0.75371571 -0.64969116 -0.00000019
-0.19231366 -0.39625498 0.00000000
-0.26686214 -0.23783788 0.00000000
0.22280632 0.10894077 0.00000700
-0.42779318 0.05116186 -0.00000025
0.03915541 -0.46645735 0.00000000
0.01027295 -0.30074092 0.00000000
-0.06555988 -0.77494466 0.00000000
-0.11424779 0.01811193 0.00000000
-0.37612933 -0.53588117 0.00000000
-0.54930365 -0.53232967 0.00000000
0.55831196 -0.21698973 -0.00000058
0.54581556 0.11828351 0.00000091
0.74504535 -0.45425542 -0.00000086
-0.28570673 -0.76279425 0.00000000
-0.11999168 -0.44507328 0.00000000
-0.47588824 -0.58723253 0.00000000
-0.73635495 -0.63732822 -0.00000020
0.19202972 0.08535620 0.00000000
0.02968720 -0.28235913 0.00000000
-0.40944640 -0.38348212 0.00000000
0.58317761 -0.05005780 -0.00000099
-0.20498584 0.49806394 0.20489708
0.58345568 -0.75677315 0.00000000
-0.68319100 -0.67278566 -0.00000016
-0.50259643 0.18210915 0.24366542
-0.43875708 0.30878915 0.11085659
-0.42086329 -0.01341652 -0.00000018
0.16523985 -0.79259987 0.00000000
0.05831438 0.29668017 0.00000667
-0.57728479 -0.65712352 0.00000000
0.26556919 0.20751854 -0.00000009
0.28574023 0.15144422 0.00000535
-0.43095313 0.32732588 -0.00000050
0.36418302 0.34994301 0.00000052
0.15547466 0.44649807 -0.00000004
-0.36341648 0.39687735 0.08391592
0.22764766 -0.07923589 0.00000000
0.51071583 0.13950769 0.00000123
0.06479537 0.08027655 0.00000000
0.11373571 -0.52075992 0.00000000
0.08305134 -0.27091555 0.00000000
-0.31526091 -0.51062906 0.00000000
-0.02907244 -0.01174792 0.00000000
0.31514284 0.06382132 -0.00000004
-0.17168647 -0.35082635 0.00000000
0.03784525 0.59389978 0.00000252
0.01549909 0.20700545 0.00000000
-0.03235400 0.71263386 0.00000000
0.29373913 -0.15068275 0.00000000
-0.56165678 -0.62061979 0.00000000
0.79261547 -0.55912258 -0.00000060
0.10573344 -0.68361459 0.00000000
-0.33623730 -0.25083462 0.00000000
-0.39383062 0.26164650 0.30543762
-0.49570444 0.24811039 0.11874227
0.34442175 -0.13732779 0.00000000
-0.74975018 -0.66718533 -0.00000017
0.52847532 -0.63259800 0.00000000
-0.24178366 0.44912329 0.23055982
0.32295212 -0.18132700 0.00000000
-0.43584259 0.06130976 -0.00000028
0.67550678 -0.59895771 -0.00000041
-0.44533819 -0.13901864 -0.00000012
0.51475664 -0.40905613 -0.00000006
0.20370442 0.16946803 0.00000638
-0.36891606 0.41849654 0.02660231
-0.12300925 0.64454455 0.06857408
-0.13598193 0.60961293 0.11498223
-0.35216266 -0.64664659 0.00000000
-0.32256961 0.39597953 0.17214064
0.02885660 -0.33894284 0.00000000
-0.61623539 0.05499038 -0.00000066
0.66523999 -0.24237450 -0.00000100
-0.15879148 -0.17956726 0.00000000
0.15831219 0.43816289 0.00000300
0.23960525 0.52246341 -0.00000053
-0.06950017 -0.05964418 0.00000000
0.16656266 0.53353341 0.00000125
-0.64411292 0.10365363 0.11038962
-0.77558840 -0.43543528 -0.00000046
-0.18230471 0.55671439 0.12887958
-0.48091309 -0.70426912 0.00000000
0.18750052 0.02797622 0.00000875
-0.49321018 0.18789169 0.25128167
0.46295368 -0.17703845 -0.00000025
0.13326738 -0.32739166 0.00000000
0.02296051 0.74150595 0.00000053
0.34454174 0.44657974 -0.00000071
-0.09606102 0.65892638 0.09513193
-0.43391598 -0.64394947 0.00000000
-0.25442966 0.53985682 0.01207558
-0.40111080 -0.39000414 0.00000000
0.76818128 -0.60382599 -0.00000049
0.46171660 -0.12186732 -0.00000034
-0.35203050 -0.65483924 0.00000000
-0.22061086 0.36664497 -0.00000009
-0.33759944 -0.02605865 0.00000000
-0.57568698 -0.70510595 0.00000000
0.18241548 0.03880502 0.00000000
-0.57786412 -0.31649205 -0.00000025
-0.15995127 0.58849824 0.10894928
-0.52595669 0.15654612 0.24832067
0.57984812 -0.78347537 0.00000000
0.33974760 -0.56676308 0.00000000
0.44398917 -0.61284263 0.00000000
0.71262444 -0.13945028 -0.00000138
0.12133428 -0.58898064 0.00000000
-0.19724875 0.34256917 -0.00000002
0.66327430 -0.11382111 -0.00000122
-0.03911725 0.39295780 0.00000000
-0.29541135 0.35868387 0.30835777
0.20756845 0.33797856 0.00000373
0.07025102 0.70640866 -0.00000013
-0.01576479 0.57259341 0.00000000
-0.49652136 0.18348627 -0.00000051
-0.60941859 -0.69136834 0.00000000
0.47030244 0.12933329 0.00000217
-0.20339958 -0.08670688 0.00000000
0.00141239 -0.52388447 0.00000000
0.00638439 -0.76869179 0.00000000
0.51977589 -0.09465375 -0.00000064
0.56241882 0.07252143 -0.00000111
0.46243804 -0.20612135 -0.00000019
0.64385211 -0.51680038 -0.00000042
0.20389388 0.14006349 0.00000682
-0.60004519 -0.73437133 0.00000000
0.50921793 -0.23690735 -0.00000034
0.28197694 0.39346513 -0.00000048
0.29265089 0.43964991 -0.00000061
-0.07777763 -0.18576199 0.00000000
0.66666437 0.00263045 0.00000052
0.13916836 -0.63700272 0.00000000
0.06503788 0.53572663 0.00000298
0.47372396 -0.56381863 0.00000000
0.54939272 -0.76371063 0.00000000
-0.02562716 -0.32573114 0.00000000
-0.24884411 -0.57281423 0.00000000
-0.01686022 -0.58145128 0.00000000
-0.28927208 0.14503578 -0.00000004
-0.53562333 -0.63264472 0.00000000
-0.69725453 -0.09784772 -0.00000069
-0.49658192 0.04889712 -0.00000040
-0.02276433 -0.05741270 0.00000000
0.63879557 0.01953034 0.00000077
-0.41461499 -0.06147757 -0.00000012
-0.54574424 -0.78540783 0.00000000
-0.26630097 0.43863507 0.20091086
-0.28895702 -0.14780687 0.00000000
0.15426822 0.50117358 0.00000203
-0.61536018 -0.68476057 -0.00000000
0.07326525 0.24667076 0.00000719
-0.29725945 -0.43868340 0.00000000
-0.02242336 0.38377026 0.00000000
0.35257339 -0.42287505 0.00000000
-0.04153648 0.22993617 0.00000000
-0.52884017 0.22863058 0.08988124
-0.34735303 0.35924079 0.19740719
-0.59137549 -0.44118718 -0.00000016
0.43762065 -0.28225939 0.00000000
0.23008979 -0.30823420 0.00000000
0.59379461 -0.71615530 0.00000000
-0.68071743 -0.45463691 -0.00000034
-0.10343049 0.13893952 0.00000000
0.01346830 0.32485002 0.00000000
0.76776484 -0.42017833 -0.00000095
0.43364761 -0.37020825 0.00000000
0.31818577 -0.77626465 0.00000000
0.38102532 0.31337535 0.00000081
-0.54949217 -0.74695509 0.00000000
0.64602492 -0.30981003 -0.00000080
0.27676972 0.29555989 0.00000311
-0.44291444 -0.38650947 0.00000000
-0.05525819 -0.52621171 0.00000000
0.19594165 0.29935078 0.00000000
0.06171063 0.00741288 0.00001096
-0.71814001 -0.44690230 -0.00000043
0.01606409 0.35740956 0.00000640
-0.25299679 0.42835264 0.25075868
0.73297023 -0.48777472 -0.00000078
0.50449017 -0.14250060 -0.00000049
-0.70226302 -0.68042943 -0.00000015
-0.00765901 0.75426007 0.00000000
-0.23008148 0.50809096 0.13066882
0.64282459 -0.13122867 -0.00000110
0.07870909 0.36672581 0.00000531
0.64141533 0.04882125 0.00000023
0.14841961 -0.31850887 0.00000000
-0.09771142 0.09636353 0.00000000
-0.62734616 -0.74516048 0.00000000
0.17888192 0.20545616 0.00000622
-0.16741583 0.59084752 0.08820850
-0.78996299 -0.23525040 -0.00000071
0.17794715 0.32990929 0.00000437
-0.04090695 0.37267554 0.00000000
0.14769029 0.03279236 0.00000000
0.31141629 -0.56870302 0.00000000
-0.14785886 -0.09393527 0.00000000
-0.53799924 -0.47640084 -0.00000002
0.54857222 0.09739800 -0.00000110
0.04860749 0.16036545 0.00000886
0.47331179 -0.48142921 0.00000000
-0.09007304 -0.18377444 0.00000000
0.66706590 -0.47473411 -0.00000059
0.70523948 -0.35442348 -0.00000097
0.33834749 -0.74087021 0.00000000
0.37385030 -0.03919053 -0.00000011
0.15283489 -0.07622078 0.00000000
-0.01496266 0.55062036 0.00000000
-0.38100123 -0.07367051 -0.00000004
0.68337807 -0.12186819 -0.00000129
0.79606461 -0.56747520 -0.00000058
-0.41933163 0.19828941 0.38544261
-0.52648977 -0.32779923 -0.00000013
-0.49714540 0.29821684 -0.00000062
0.49133488 -0.46420404 0.00000000
0.49795611 0.18986672 -0.00000105
-0.04273198 0.31055950 0.00000000
-0.68622915 -0.69687618 -0.00000013
-0.72074037 0.05001661 0.06180047
-0.24901464 -0.12210197 0.00000000
-0.22568121 0.45011000 0.26250533
-0.44478327 0.22048291 -0.00000044
-0.28302008 -0.40151982 0.00000000
-0.51451435 0.27901117 0.01368214
-0.63103853 -0.49038721 -0.00000021
0.45564246 0.14528296 0.00000219
-0.41075692 0.29935817 -0.00000043
-0.12288730 -0.67689926 0.00000000
-0.76191499 -0.13248292 -0.00000080
-0.00751779 0.14696780 0.00000000
-0.30192806 0.43943978 0.12391507
-0.33610157 0.15974653 -0.00000015
-0.43639180 -0.29470658 0.00000000
-0.11218360 0.62753265 0.12740599
0.58668307 -0.11858900 -0.00000088
-0.01142631 0.04278258 0.00000000
0.36227945 -0.63923198 0.00000000
-0.35740832 -0.53619896 0.00000000
-0.73549096 -0.54160964 -0.00000032
-0.18981769 0.21656784 0.00000000
0.09626640 -0.27505463 0.00000000
0.46368953 -0.31964955 0.00000000
-0.78267549 -0.17433433 -0.00000078
0.66250768 -0.46738046 -0.00000059
0.12975554 -0.68669766 0.00000000
-0.48677611 -0.63163792 0.00000000
0.00443122 0.38917954 0.00000610
0.14109315 -0.29632616 0.00000000
0.05817608 0.12718791 0.00000000
-0.11110605 0.20192191 0.00000000
0.43451370 -0.06974918 -0.00000032
-0.23637800 -0.64861397 0.00000000
0.13155108 -0.01627716 0.00000000
-0.76710796 -0.76965919 -0.00000004
-0.44260292 -0.76013321 0.00000000
-0.62930646 -0.51506183 -0.00000018
-0.31959141 -0.72665355 0.00000000
0.15757306 -0.72394744 0.00000000
-0.22674136 -0.56050918 0.00000000
0.16654929 0.28984691 0.00000000
0.38221620 -0.36983265 0.00000000
0.23785483 0.39915938 -0.00000031
0.53122650 0.15260845 -0.00000112
-0.03179731 -0.61202679 0.00000000
-0.40730917 0.27379219 -0.00000040
0.20963988 0.45076596 0.00000181
0.40991609 -0.14588054 -0.00000008
-0.17833876 0.41527030 -0.00000004
-0.22794212 -0.49367016 0.00000000
0.11840247 -0.01072073 0.00000000
-0.69759410 0.05587840 0.09833016
-0.65626968 -0.13277320 -0.00000058
-0.00474118 -0.03989841 0.00000000
-0.51966952 -0.72569680 0.00000000
0.30048916 0.06673282 0.00000646
-0.59521373 0.10652899 0.20765803
-0.46319246 0.18829926 0.31386057
0.38147021 0.09645590 0.00000443
0.26138651 -0.60244020 0.00000000
-0.56816568 -0.29363121 -0.00000025
-0.27231149 0.23595777 -0.00000008
-0.51362040 -0.07964147 -0.00000032
-0.54138333 -0.15167483 -0.00000031
-0.70042921 -0.32398692 -0.00000050
-0.54756255 0.22429779 0.05946973
0.60132786 -0.52373426 -0.00000023
-0.02748224 -0.59428437 0.00000000
0.16303376 -0.78828810 0.00000000
0.44491169 0.30987673 -0.00000103
-0.17522993 0.48363666 0.29827359
-0.15254960 -0.14347488 0.00000000
-0.58943855 -0.41148471 -0.00000019
0.53524461 -0.60694886 0.00000000
-0.51946590 -0.66491166 0.00000000
0.35929191 -0.50202378 0.00000000
0.22237401 -0.45631417 0.00000000
0.76224573 -0.15614383 -0.00000156
-0.17773292 0.30338238 0.00000000
0.18595056 -0.55287935 0.00000000
0.05973299 -0.56394904 0.00000000
0.22437162 0.57316044 -0.00000052
0.25364802 -0.03596253 0.00000000
-0.38705191 0.25019921 -0.00000034
-0.28240422 0.50742271 -0.00000034
-0.62065095 -0.49763804 -0.00000018
0.30059729 -0.60887642 0.00000000
-0.25331648 0.39582549 0.31882585
0.33506430 -0.12022793 0.00000000
-0.68210171 -0.21519821 -0.00000056
0.73569102 -0.57859078 -0.00000055
0.65120988 -0.64912832 -0.00000022
0.40830828 0.23616057 -0.00000075
-0.30534726 0.33808941 -0.00000024
-0.25062198 0.43046747 0.25130814
-0.64484277 -0.68342901 -0.00000006
0.63175004 -0.35770371 -0.00000065
0.56236155 -0.33330746 -0.00000040
-0.23315386 0.47440643 -0.00000021
-0.04968253 0.62052186 0.00000000
0.17902819 0.41423575 -0.00000008
0.71838031 -0.17106097 -0.00000135
-0.47275964 -0.16478465 -0.00000016
0.28424378 -0.51591320 0.00000000
-0.48075926 -0.27631631 -0.00000007
-0.24633305 0.54133936 0.02605401
-0.26666784 0.46460423 -0.00000027
-0.20584857 0.34927799 -0.00000004
-0.73368829 -0.03271326 -0.00000083
-0.47523718 -0.31474014 -0.00000003
0.00956772 0.70724348 0.00000125
-0.18577627 -0.74689448 0.00000000
0.08266465 -0.33615156 0.00000000
0.11062386 0.07270784 0.00000000
0.14846560 0.61123865 -0.00000030
0.14035942 -0.08553945 0.00000000
0.03337322 -0.09926491 0.00000000
0.60046424 -0.62358061 -0.00000005
0.28082910 0.15231314 -0.00000005
-0.02669404 0.75599223 -0.00000002
0.37562238 0.37011386 -0.00000084
-0.13354444 -0.18238929 0.00000000
0.22285970 0.06566396 0.00000000
-0.20063024 0.12190136 0.00000000
0.76456898 0.03395949 -0.00000189
0.07893931 0.56912731 0.00000000
0.35437776 -0.73149538 0.00000000
-0.02510841 0.41529729 0.00000000
0.39684487 0.26914402 -0.00000076
0.43950109 0.04170670 -0.00000054
-0.50932852 0.20949716 0.17155497
0.56290558 -0.22226413 -0.00000060
0.14464588 0.19655996 0.00000000
-0.09881341 -0.79864807 0.00000000
0.24593266 0.39624684 0.00000202
0.06332467 -0.78509288 0.00000000
-0.60169319 -0.58226377 -0.00000006
0.50082868 -0.65886521 0.00000000
-0.05871462 -0.38910164 0.00000000
0.03240877 -0.61702965 0.00000000
-0.49766679 -0.27438003 -0.00000011
0.71529873 -0.79164764 -0.00000002
0.05153777 0.70425143 0.00000061
0.33949081 -0.41199678 0.00000000
-0.51680259 -0.66362116 0.00000000
0.24828042 0.00759083 0.00000814
-0.58470649 -0.76645249 0.00000000
0.01598707 0.60441181 0.00000000
-0.58049846 0.15705851 0.13196726
0.09546214 -0.65361298 0.00000000
0.65158818 -0.02858609 -0.00000132
0.72691754 0.02351498 -0.00000099
-0.50185765 -0.23894923 -0.00000015
0.73378816 -0.39064856 -0.00000102
-0.39731973 0.32074716 0.17315936
0.52518554 -0.50019635 0.00000000
-0.58196901 -0.11499981 -0.00000043
0.37710950 -0.64577910 0.00000000
-0.24947931 -0.73011699 0.00000000
-0.39505559 -0.05365999 -0.00000009
0.24904597 -0.06843795 0.00000000
-0.00206502 0.35708428 0.00000000
0.29736951 -0.26492518 0.00000000
-0.22676799 0.43966159 0.28229018
0.59051717 0.14796271 -0.00000137
-0.30049069 -0.40035928 0.00000000
-0.21090918 -0.54716353 0.00000000
0.70903090 -0.69125887 -0.00000027
0.52897061 0.10860211 -0.00000104
0.36118112 0.39308855 -0.00000082
0.47333601 -0.71837415 0.00000000
0.07225681 0.31880494 0.00000613
-0.42586127 0.22785851 -0.00000040
0.26131836 -0.10965915 0.00000000
-0.01344543 -0.38922224 0.00000000
0.69519575 -0.19613656 -0.00000121
0.79920416 -0.29239412 -0.00000127
-0.12935761 -0.59325331 0.00000000
0.33847597 -0.00571579 -0.00000002
0.21084985 0.44269538 0.00000192
0.24445148 0.16165071 0.00000000
-0.32716820 0.31581966 0.33183215
0.14877282 -0.43576862 0.00000000
-0.40843992 -0.46063468 0.00000000
0.08069874 -0.31216373 0.00000000
-0.21820023 0.23380307 0.00000000
0.00757360 0.07634456 0.00001074
0.11747321 0.08502229 0.00000895
0.18644770 -0.30824462 0.00000000
-0.41236067 -0.05237406 -0.00000013
-0.54763931 -0.48708981 -0.00000003
0.16248725 -0.03446202 0.00000000
0.27884334 -0.50439448 0.00000000
0.37459701 -0.22170083 0.00000000
0.27584637 0.06748277 0.00000683
0.66996287 -0.00156495 -0.00000144
0.28493004 -0.55701984 0.00000000
0.29837058 0.04235668 0.00000686
-0.30815408 0.31986842 0.36345984
-0.35122392 0.36484490 0.17738244
-0.01589000 0.23693864 0.00000000
0.61470524 -0.25854776 -0.00000075
-0.29393735 -0.79765918 0.00000000
-0.50986605 -0.23655141 -0.00000017
0.45138687 0.17597323 0.00000176
0.15416763 -0.12064862 0.00000000
-0.60345810 -0.39656650 -0.00000023
-0.45938613 -0.51965533 0.00000000
-0.29258395 0.39766888 -0.00000027
-0.33238456 0.21038272 -0.00000019
-0.60531902 0.12789480 0.14114605
-0.27971520 -0.26803236 0.00000000
-0.17233534 0.40858085 -0.00000002
0.16967517 0.52114538 -0.00000023
0.26467539 0.11095624 0.00000634
-0.04029909 0.41160394 0.00000000
0.02501420 0.33907563 0.00000654
-0.01436232 -0.37670520 0.00000000
0.65960223 -0.54255303 -0.00000044
0.77658114 0.01567302 -0.00000193
0.24415664 0.47847092 0.00000068
0.37809508 0.14338144 0.00000371
-0.29391434 0.42550006 0.17031216
0.34413604 0.01404497 0.00000652
0.76953296 -0.63254273 -0.00000042
-0.11134102 0.22605329 0.00000000
0.63171468 -0.22276065 -0.00000089
-0.61283007 -0.79073350 0.00000000
-0.70709081 -0.26619067 -0.00000057
-0.50128616 -0.41069319 0.00000000
-0.08783570 0.60183518 -0.00000001
-0.38504546 -0.15351272 0.00000000
-0.32359899 -0.65563453 0.00000000
0.30498399 -0.52337552 0.00000000
0.03620839 0.40232212 0.00000542
-0.39851827 0.24599340 0.32861195
0.42211684 -0.54542309 0.00000000
0.17428870 0.43896516 0.00000268
0.40484948 0.07453795 -0.00000045
-0.12633541 0.60164155 -0.00000009
-0.21253560 0.35273901 -0.00000006
-0.33058953 0.21580921 -0.00000019
0.60167238 -0.72496171 0.00000000
0.63787390 -0.11198787 -0.00000111
-0.12655129 0.05555123 0.00000000
-0.23175559 -0.47570885 0.00000000
0.08097698 -0.74807369 0.00000000
0.20259978 -0.20064605 0.00000000
-0.38537165 0.39396414 0.04367196
-0.34428101 0.15998705 -0.00000017
-0.53343212 -0.07592725 -0.00000036
0.33752438 0.07666049 -0.00000016
-0.53682115 -0.48320755 -0.00000001
0.68622276 -0.60286108 -0.00000045
-0.42890577 0.18978832 -0.00000038
0.07669142 0.49675125 0.00000339
0.17952027 -0.64138917 0.00000000
0.20055814 -0.62760201 0.00000000
0.01006723 0.61126684 0.00000000
-0.27951176 0.42789931 0.19568019
0.18633949 -0.41190790 0.00000000
0.05933571 0.25169766 0.00000000
-0.06065425 -0.79389472 0.00000000
-0.77831916 -0.59036467 -0.00000026
0.13333046 -0.07170578 0.00000000
0.72057013 0.04641409 -0.00000125
-0.67239929 -0.13501787 -0.00000061
-0.27035708 -0.09311508 0.00000000
0.13626286 0.05964527 0.00000905
-0.02384385 -0.09949388 0.00000000
-0.49563248 -0.33908190 -0.00000005
0.60234602 -0.33377574 -0.00000057
0.20925720 -0.22742792 0.00000000
0.37387245 0.11863313 -0.00000039
0.55583893 -0.23309698 -0.00000055
0.73686705 0.00885083 -0.00000175
-0.64881260 -0.16500971 -0.00000053
-0.26636425 -0.02967878 0.00000000
0.35558372 -0.76868811 0.00000000
0.39967721 0.28903281 -0.00000080
-0.37193431 0.33787245 0.19061674
-0.41652343 -0.48377129 0.00000000
-0.69609663 -0.12147710 -0.00000067
0.14708873 0.06909454 0.00000874
-0.38393565 0.00955268 -0.00000012
-0.32261195 0.09956183 -0.00000007
0.32231096 0.04733770 0.00000638
0.61913931 -0.73473109 0.00000000
-0.30051508 -0.42516747 0.00000000
-0.73744631 -0.36206748 -0.00000055
0.52007118 -0.41142267 -0.00000008
-0.41402568 -0.49378425 0.00000000
-0.31203362 0.47480479 0.02781618
-0.08952380 0.55742013 0.00000000
-0.59582690 -0.74157212 0.00000000
0.36116953 0.16440484 0.00000368
0.33916947 -0.57096895 0.00000000
0.67236305 -0.37911037 -0.00000079
-0.07748651 -0.30502942 0.00000000
0.38620888 0.22139654 -0.00000063
-0.45670689 0.22713943 0.24548172
-0.67288771 -0.55559428 -0.00000024
-0.45254456 -0.35035308 0.00000000
-0.41552872 -0.39617391 0.00000000
-0.46512489 -0.43389021 0.00000000
0.62121241 -0.66665084 -0.00000006
-0.23880837 -0.75092210 0.00000000
-0.42073050 0.24154252 0.29107526
0.20372062 0.37719797 0.00000315
0.63332713 0.12885628 -0.00000152
0.76976888 -0.11031508 -0.00000168
0.15121120 0.38066184 0.00000000
0.07136027 0.66089298 0.00000095
0.02978386 -0.70535479 0.00000000
0.61654814 0.04405195 -0.00000129
-0.54039413 0.14342582 0.24553690
0.62470915 0.04687201 0.00000058
-0.29705329 0.31650271 0.39403325
0.06668438 -0.64621417 0.00000000
0.35758654 0.10996154 0.00000466
-0.66614905 -0.78301303 -0.00000002
0.30139905 0.43732796 0.00000027
0.14310452 0.21073104 0.00000668
-0.31585414 0.38615534 -0.00000031
0.17673951 0.31087292 0.00000467
-0.34403494 0.33340711 0.25901683
0.64398751 0.00558012 0.00000090
