ply
format ascii 1.0
element vertex 1372
property float x
property float y
property float z
end_header
-0.34217533 -0.55179254 0.00000336
-0.34154949 -0.02459468 0.36190177
-0.47648467 -0.60661589 0.00000420
-0.63242676 -0.38930578 -0.13374186
-0.08453539 0.59985628 -0.00155873
-0.20198798 -0.17125707 0.00000349
-0.30518472 0.06320398 0.20873309
-0.25730137 -0.03079145 0.00000434
-0.02628229 0.42239468 0.00000783
-0.13941985 -0.21215774 0.00000100
-0.47271724 -0.12573665 -0.08539459
-0.44053800 0.16524717 -0.16992009
-0.05839047 0.10691310 0.00001001
-0.08623725 -0.62771099 0.00000119
-0.22675651 0.25255563 0.11953179
-0.51715367 -0.79637805 0.00000391
-0.28216457 0.26570263 -0.05820978
-0.14538325 0.44900719 0.02375800
-0.26453653 -0.13744838 0.00000047
-0.11649927 -0.63663988 0.00000139
-0.09468908 0.35136782 0.00000721
-0.27083120 -0.14743410 0.00000408
-0.67766177 -0.83602796 0.12881275
-0.29108970 0.09722831 0.31151811
-0.45514623 -0.69292703 0.00000377
-0.26158465 0.16846368 0.21926798
-0.16797708 0.37201930 0.00000265
-0.06924041 0.21696335 0.00000370
-0.42454191 0.12280738 -0.13779713
-0.13153568 0.57692976 -0.03743817
-0.45600515 -0.10524741 -0.07752552
-0.24266990 -0.39025111 -0.00000018
-0.68931749 -0.28593669 -0.22913354
-0.32857505 0.30275316 -0.11729670
-0.23434307 0.34754524 -0.04489420
-0.33755163 0.36269502 -0.14963888
-0.04559181 0.53986290 0.00000085
-0.23131889 0.33556928 -0.03725235
-0.60383473 -0.73803386 -0.00000345
-0.31305007 -0.59444466 -0.00000125
-0.14839455 -0.16563395 0.00000109
-0.51380439 -0.46179763 0.00000493
-0.28652638 -0.14655762 0.00000420
-0.27508998 0.37072706 -0.09306397
-0.16176707 0.15413147 -0.00000384
-0.69869009 -0.52344066 -0.14398049
-0.34532701 -0.36817632 -0.00000073
-0.09829189 0.49048924 0.00000593
-0.55554054 -0.02791507 -0.20339817
-0.21410842 -0.09935916 0.00000380
-0.02209762 0.52006182 0.00000429
-0.00582731 0.55721151 0.00000421
-0.32239192 0.28977156 -0.10623517
-0.00148005 0.04705585 0.00000264
-0.20200660 0.18041653 0.00000459
-0.31838700 0.03133634 0.20889972
-0.34539179 0.01929530 -0.02104957
-0.02702806 0.64024816 0.00000470
-0.23564401 -0.43474923 0.00000292
-0.64293915 -0.44395059 -0.12214418
-0.35154848 -0.57381488 0.00000336
-0.30581291 -0.52608461 0.00000316
-0.29051454 -0.64127825 0.00000269
-0.26821596 0.25699537 -0.04141398
-0.04909827 -0.27742407 0.00000134
-0.18455277 -0.37860429 0.00000020
-0.14942394 -0.23951552 0.00000288
-0.07780257 0.17876699 0.00000903
-0.25870088 0.17542749 0.17564790
-0.61658886 -0.68858837 0.07217262
-0.34717385 -0.03816959 0.27383047
-0.16360939 0.16449119 0.00000203
-0.01415802 -0.32129273 0.00000141
-0.01825642 -0.25500563 0.00000184
-0.52084623 -0.39547300 -0.02454727
-0.56905272 -0.66419366 0.00000472
-0.15311432 0.60600592 -0.06960614
-0.39070069 0.30570345 -0.17790229
-0.24747035 0.05617099 0.00000703
-0.16267427 0.40726205 0.04465079
-0.26259016 0.16604358 0.16066811
-0.29381239 0.35638629 -0.10529289
-0.10999324 0.53029740 0.00000499
-0.50900620 0.04911840 -0.18940377
-0.10361463 0.36913306 0.00000444
-0.21440288 0.28312020 -0.00028636
-0.28902174 -0.21381013 0.00000401
-0.00323040 0.60936858 0.00000438
-0.36314581 -0.07671888 0.01174582
-0.23628141 0.45736214 -0.09026764
-0.12885592 0.14288040 0.00000392
-0.18445384 0.56166344 -0.08201663
-0.32184900 -0.19258431 0.00000433
-0.54562588 -0.79325651 -0.00000327
-0.27731515 0.13048518 0.25995990
-0.09111491 -0.04895437 0.00000180
-0.03900114 0.73058739 -0.00980220
-0.43975713 -0.18579778 -0.03005978
-0.28134788 0.12075285 0.23852987
-0.21322713 0.35768324 -0.02870986
-0.20664804 0.38817108 -0.03449749
-0.35173693 -0.04917489 0.00066169
-0.58467730 -0.10075363 -0.20240873
-0.12076619 0.50843514 0.09936123
-0.12552397 0.34124922 0.00000451
-0.09222039 -0.64360293 0.00000118
-0.27630151 0.13293358 0.22901698
-0.31976589 0.02801578 0.10641856
-0.20679201 -0.15796051 0.00000076
-0.44681540 -0.68128542 0.00000374
-0.39107118 -0.14414427 0.19700382
-0.31781456 0.03273517 0.00143168
-0.40281260 0.12837851 -0.11921838
-0.03461660 0.59124885 0.00000620
-0.35903285 -0.66883780 0.00000312
-0.19546597 -0.46583958 -0.00000014
-0.30963979 -0.15582634 0.00000014
-0.09111693 0.54073991 0.00000488
-0.29150165 -0.04354599 0.00000060
-0.20710483 0.29999826 0.01170939
-0.56295913 -0.61289650 0.00000483
-0.11706923 -0.30235049 0.00000244
-0.07392442 -0.67312025 -0.00000005
-0.61750584 -0.69080232 0.18746283
-0.04638169 -0.26940191 0.00000201
-0.45790996 -0.63100702 -0.00000224
-0.38007785 0.11498449 -0.09215986
-0.32053480 0.38178467 -0.14092363
-0.35650308 -0.06068646 0.12622340
-0.01018594 -0.58358079 0.00000061
-0.00561803 0.10630118 0.00001097
-0.33468555 -0.05039565 0.00000032
-0.38610165 -0.13214950 0.26548247
-0.14132367 0.45880815 0.01760856
-0.01437017 0.28030776 0.00000348
-0.05823756 0.61367018 0.00000486
-0.07532869 0.61086937 0.00000395
-0.38352215 0.07916320 -0.08125956
-0.12947194 0.44589707 0.00000575
-0.60067512 -0.65016976 0.08820504
-0.50581294 0.10891394 -0.21004663
-0.22734767 0.47420114 -0.08839368
-0.10872532 0.55537169 -0.00707290
-0.28852476 0.18288565 -0.03147813
-0.50194445 -0.79278246 0.00000381
-0.43851837 -0.77265939 -0.00000256
-0.34232012 -0.18632725 0.00000450
-0.59402572 -0.67894941 0.00000486
-0.71219306 -0.38127507 -0.21323714
-0.27973681 -0.07410385 0.00000438
-0.04197289 -0.78760378 -0.00000021
-0.28039470 0.04630629 0.00000652
-0.50616501 -0.67854081 -0.00000268
-0.45926427 -0.70159448 -0.00000246
-0.68409439 -0.22363917 -0.24882431
-0.64151718 -0.74876936 0.10655211
-0.64580737 -0.62336105 -0.05379024
-0.45998884 -0.36694329 -0.00000142
-0.59623975 -0.20247643 -0.17315928
-0.65695235 -0.78603208 0.00708206
-0.44984962 -0.18926241 -0.03834241
-0.02559288 -0.56101381 0.00000059
-0.48917819 -0.27623968 -0.04150063
-0.08772896 0.45791304 0.00000340
-0.22374619 0.14002550 0.00000672
-0.25737761 0.15305992 0.00000492
-0.26926538 -0.23359416 0.00000380
-0.53167076 0.11916448 -0.23884732
-0.35128492 0.22965351 -0.11005510
-0.31238451 0.39801500 -0.13955785
-0.41216210 -0.19506856 0.35074584
-0.35821640 0.17794500 -0.09619514
-0.02064064 0.49657535 0.00000728
-0.11730028 0.32185811 0.00000706
-0.10795084 0.26956070 0.00000769
-0.45160645 -0.29029578 0.37511497
-0.04686140 0.68686308 0.00615703
-0.23328435 -0.22429690 0.00000039
-0.34269030 -0.02733168 0.15490193
-0.17895441 -0.49421731 -0.00000012
-0.37854449 -0.21614442 -0.00000046
-0.24719408 -0.68634991 0.00000222
-0.14794866 0.43670177 0.00000498
-0.04279009 0.53358102 0.00000449
-0.39105634 -0.14411580 0.37997882
-0.05828391 -0.06479441 0.00000195
-0.20144938 -0.22219465 0.00000333
-0.68381615 -0.66916816 -0.07200069
-0.67820167 -0.77322953 -0.02539115
-0.44737667 -0.74266075 -0.00000252
-0.48019531 -0.35930984 0.20638424
-0.10540771 0.05021542 0.00000965
-0.63045540 -0.45744547 -0.10485296
-0.39875116 -0.63171542 -0.00000188
-0.56423602 -0.58017771 -0.00000272
-0.58790497 -0.23086778 -0.15393416
-0.16469620 0.11017552 0.00000409
-0.32490771 -0.49763785 0.00000340
-0.28873079 0.10294541 0.03898647
-0.28469049 -0.63888766 -0.00000121
-0.29236577 -0.56729404 -0.00000104
-0.67325566 -0.68732742 -0.05470122
-0.05627067 0.28908756 0.00000845
-0.21142544 0.53191200 -0.09603072
-0.34950909 -0.02352079 -0.00802650
-0.03365245 0.31711840 0.00000329
-0.22284128 0.26853874 -0.00257720
-0.14181039 0.25978814 0.00000716
-0.03649619 0.55447290 0.00000451
-0.24195704 0.36343851 -0.05847486
-0.43277539 -0.17925854 -0.02597166
-0.20227907 0.45744092 -0.05776700
-0.22234419 0.01953879 0.00000122
-0.01753215 0.21692502 0.00000307
-0.47520637 -0.65171075 0.00000405
-0.15741833 0.37029402 0.00000271
-0.72251866 -0.56812131 -0.14907085
-0.32354528 0.23840081 -0.08698029
-0.09012339 0.56367429 0.00000372
-0.16532621 -0.71614798 -0.00000074
-0.40698138 -0.18256338 0.40572233
-0.68337747 -0.49558189 -0.14037102
-0.39283544 -0.26992781 -0.00000071
-0.12604810 0.21713768 0.00000242
-0.59764449 -0.61807315 -0.00980769
-0.53476075 -0.49104297 0.22560230
-0.09768988 0.18211330 0.00000248
-0.21178308 0.12338610 0.00000709
-0.11336822 0.45515640 0.00000596
-0.37565240 -0.66292694 0.00000326
-0.55714941 -0.54509263 0.22246661
-0.47301673 -0.75218729 -0.00000271
-0.28302557 0.11670270 0.16702514
-0.09505375 -0.55772400 0.00000147
-0.34420127 -0.31357366 -0.00000056
-0.23857766 0.11123375 0.00000465
-0.01621641 0.10267820 0.00001081
-0.36193062 -0.54852662 -0.00000140
-0.62923277 -0.71911289 0.10311558
-0.39031263 -0.52839414 -0.00000151
-0.28511593 -0.63280435 -0.00000120
-0.36720571 -0.10783136 0.00000493
-0.10666322 0.52600410 0.00000495
-0.20397310 -0.00003915 0.00000404
-0.30383011 0.06648767 0.10482005
-0.55465688 0.08320158 -0.24658650
-0.17347932 0.38117476 0.08250532
-0.26371113 0.14220236 0.00000598
-0.49578593 -0.52012313 0.00000462
-0.32006878 0.02726564 0.33247968
-0.29121904 0.05191903 -0.00000211
-0.44660206 -0.10247630 -0.06962762
-0.17690568 -0.56656242 -0.00000034
-0.26010754 0.17204512 0.06162743
-0.20076488 0.23531277 0.00000202
-0.05849534 0.23813400 0.00000886
-0.11278397 0.02965157 0.00000970
-0.05455929 -0.22444427 0.00000147
-0.44492775 -0.15349499 -0.04780775
-0.13834674 0.22748692 0.00000238
-0.39316044 -0.47770330 -0.00000137
-0.05821230 0.67527545 -0.00626270
-0.44958715 0.00414771 -0.11473719
-0.57929848 0.06788331 -0.26409134
-0.19549833 0.30322409 0.00000034
-0.42755774 0.10878829 -0.13512904
-0.56026818 -0.55261573 0.01762768
-0.55129601 -0.53096161 0.20511760
-0.07606834 -0.07467049 0.00000181
-0.14118843 0.18375614 0.00000222
-0.44272113 0.22971790 -0.19755865
-0.12735431 -0.02887298 0.00000164
-0.09219615 0.14101684 0.00000910
-0.01055540 0.00289570 -0.00001162
-0.45237056 -0.63547092 -0.00000222
-0.07040383 0.32614596 0.00000787
-0.18894907 0.26177660 0.00000218
-0.02702466 0.75073091 -0.00632684
-0.16104679 0.41119619 0.04789325
-0.14011568 -0.61113561 0.00000165
-0.06507559 -0.09682056 0.00000269
-0.21096705 -0.19295679 0.00000062
-0.09157664 0.13986048 0.00000363
-0.16056632 0.41539915 -0.00120061
-0.30256965 0.06953051 0.10643470
-0.64931672 -0.21911195 -0.21734629
-0.13291663 0.44753941 0.00000310
-0.25128859 0.19332118 0.20572766
-0.18033841 0.36461435 0.10923344
-0.42744021 0.15132173 -0.15187204
-0.27011326 0.06223402 0.00000473
-0.00885792 -0.44577110 0.00000117
-0.26934609 0.44371484 -0.11649254
-0.33308691 -0.72698124 0.00000274
-0.07956411 -0.32545277 0.00000100
-0.02317267 -0.04875106 0.00000252
-0.22063478 -0.40978731 0.00000288
-0.33449238 -0.15905586 0.00000453
-0.06315199 -0.41646970 0.00000167
-0.10364342 0.43146576 0.00000322
-0.43985442 -0.71068918 -0.00000238
-0.02045682 -0.66392542 0.00000058
-0.33770981 -0.17088916 0.00000451
-0.40721677 -0.18313052 0.37722134
-0.19119881 -0.73334011 -0.00000095
-0.13837639 -0.33194120 0.00000251
-0.14684326 0.44548930 0.00701973
-0.39090796 -0.68926264 0.00000330
-0.22307226 0.11172021 0.00000150
-0.46315279 -0.31816983 0.31474724
-0.35383634 -0.05425390 0.26365097
-0.12458537 -0.70389538 0.00000124
-0.12977791 0.23138317 0.00000420
-0.36205163 -0.02074710 -0.02112529
-0.18399241 0.08712937 0.00000416
-0.01967172 0.35812434 0.00000377
-0.61356602 -0.77282681 -0.00000362
-0.57082978 -0.01614664 -0.22268773
-0.10547532 -0.23781597 0.00000112
-0.31863458 -0.31617285 -0.00000041
-0.40665955 0.13616336 -0.12598149
-0.10776239 -0.43688681 0.00000195
-0.37127122 0.10705124 -0.08058713
-0.03435775 0.72090004 -0.00152061
-0.51698209 -0.69328198 -0.00000279
-0.02217469 0.18291479 0.00000324
-0.18040451 0.54178978 -0.07026702
-0.15673081 0.42160981 0.07064252
-0.46446577 -0.32133783 0.26983285
-0.68585795 -0.32468986 -0.21046642
-0.40527534 0.24739781 -0.16873963
-0.45243622 -0.29229190 0.17130922
-0.12461178 -0.25481023 0.00000095
-0.08934598 0.35718848 0.00000308
-0.43429246 -0.24848310 0.02745056
-0.34509268 -0.03313386 0.18464587
-0.41941395 -0.09478738 -0.04666341
-0.06996246 -0.38960601 0.00000086
-0.22620815 0.23144280 0.00000493
-0.21873193 -0.00218020 0.00000117
-0.28075279 -0.19929801 0.00000400
-0.22664185 -0.07449999 0.00000090
-0.65560175 -0.12452589 -0.26084247
-0.27718675 0.13081006 0.09672924
-0.29581681 0.08582688 0.04194473
-0.05797835 0.32814040 0.00000396
-0.73181727 -0.78032155 -0.07387457
-0.57311809 -0.41517828 -0.06674752
-0.19504789 0.14932296 -0.00000294
-0.50183205 -0.41154076 0.08401331
-0.36620894 -0.47994392 0.00000376
-0.04603474 0.73068144 -0.01656875
-0.26870130 -0.01519216 0.00000448
-0.01938111 -0.61040964 0.00000074
-0.11482719 0.52277245 0.11798563
-0.04272366 -0.23625598 0.00000208
-0.32752055 0.05412273 -0.01775375
-0.05726985 -0.67537082 0.00000082
-0.21464047 0.16852989 0.00000664
-0.14271230 0.48066458 -0.00998326
-0.34110850 -0.33590901 -0.00000061
-0.08974138 -0.22677253 0.00000125
-0.19882489 0.40737857 -0.03462465
-0.31380159 0.04241025 0.16075923
-0.59540522 -0.07141353 -0.22429937
-0.07584197 -0.48671833 0.00000052
-0.32643408 -0.51301497 -0.00000107
-0.11942937 -0.41757212 0.00000210
-0.66154455 -0.66190415 -0.05357209
-0.44900737 0.04760133 -0.13139971
-0.60123652 -0.04958674 -0.23852792
-0.27293859 0.14105027 0.28206177
-0.27012029 -0.73796423 -0.00000144
-0.26885221 0.15092065 0.15843037
-0.54985039 -0.52746811 0.09735791
-0.12753193 0.14764711 0.00000219
-0.17363520 0.56286952 -0.07214405
-0.01609451 0.26027510 -0.00000598
-0.01996880 0.76915436 -0.00687760
-0.04972645 -0.61192049 0.00000029
-0.19500730 -0.40682351 0.00000005
-0.25689474 0.27107776 -0.03616663
-0.20794815 0.43399563 -0.05390098
-0.53641416 -0.07894693 -0.16487644
-0.63768366 -0.73951334 0.00989454
-0.29845212 0.18057077 -0.04005467
-0.29069538 0.09818521 0.18956887
-0.22801264 -0.25248043 0.00000033
-0.22740727 -0.50809594 0.00000263
-0.09349302 0.28119932 0.00000408
-0.50221720 0.10042837 -0.20324276
-0.39081164 0.19858627 -0.13555931
-0.62263462 -0.70318312 0.04601518
-0.36822970 -0.78986192 -0.00000219
-0.11996097 -0.12577096 0.00000138
-0.04322441 0.69564144 0.01356021
-0.01683967 0.38674865 0.00000384
-0.51825822 -0.59399848 0.00000455
-0.61219852 -0.55391428 -0.04915704
-0.02706752 0.74042581 -0.00228391
-0.44390722 -0.40905445 -0.00000146
-0.54005187 -0.50381071 0.05748452
-0.14873065 -0.48555347 0.00000008
-0.07916256 -0.39719468 0.00000078
-0.50287629 -0.55907747 -0.00000228
-0.06012093 0.22840194 0.00000285
-0.16095996 -0.17486312 0.00000098
-0.03006926 0.53848284 0.00000035
-0.22536216 0.25591557 0.14853931
-0.54777193 0.04338928 -0.22422280
-0.59414004 0.03918285 -0.26691661
-0.67115463 -0.18212160 -0.25289770
-0.23275206 0.23807959 0.14069565
-0.03892773 -0.36987813 0.00000164
-0.39218678 -0.14683143 0.04407588
-0.35980149 -0.06865753 0.35734535
-0.66355681 -0.29744538 -0.19992746
-0.22732179 -0.51114621 0.00000262
-0.18590297 0.35118235 0.13021419
-0.25961789 0.03487917 0.00000457
-0.19087601 -0.72782148 0.00000167
-0.41111389 -0.19253931 0.38478589
-0.22389929 -0.30863538 0.00000018
-0.33907747 0.22099814 -0.09494372
-0.24109998 0.11321780 0.00000140
-0.50761214 -0.36819505 -0.02269594
-0.02950832 0.41989528 0.00000779
-0.35466945 -0.79277776 0.00000270
-0.24012606 -0.19768659 0.00000043
-0.38051393 0.12808921 -0.09777030
-0.25070235 0.19475176 0.05076311
-0.10504352 0.66567507 -0.04726226
-0.63355855 -0.10431867 -0.24776130
-0.29538957 0.08685503 0.12402973
-0.62323919 -0.48870236 -0.08556242
-0.23788755 0.22567803 0.11074033
-0.71135181 -0.48503344 -0.17131421
-0.05434721 0.18517149 -0.00000643
-0.60508721 -0.51100967 -0.05935609
-0.23945416 0.22189487 0.13656404
-0.51831746 0.12476611 -0.22829188
-0.49481215 -0.39459096 0.02863437
-0.21051136 0.29177301 0.03985675
-0.64519506 -0.44498584 -0.12389219
-0.38749376 0.19664778 -0.13161506
-0.50749106 -0.42520134 0.04653385
-0.24647472 -0.75324917 0.00000201
-0.14957185 0.43889548 0.01205025
-0.23965097 -0.55861518 0.00000256
-0.40166747 0.29128323 -0.18267974
-0.15250145 -0.37782008 0.00000040
-0.19390886 0.33184837 0.20693792
-0.24419111 -0.51161242 -0.00000057
-0.31444974 0.04083144 0.32690193
-0.34309959 0.18408470 -0.08416576
-0.33324814 -0.60396840 -0.00000140
-0.13483601 0.29793664 0.00000445
-0.48883486 0.05959189 -0.17425586
-0.02360519 0.51501326 0.00000429
-0.27924329 0.43191648 -0.12128607
-0.19454214 0.46754256 -0.05436813
-0.08985720 0.60785148 -0.00981857
-0.14753826 -0.31346648 0.00000263
-0.51305532 -0.17408801 -0.10482556
-0.29425858 0.07481065 0.00000495
-0.21633999 0.24043935 0.00000195
-0.41120631 0.19223147 -0.15255284
-0.10392250 -0.45491717 0.00000186
-0.69303184 -0.34574812 -0.20898454
-0.43720069 -0.56176939 0.00000404
-0.09322458 0.20616654 0.00000385
-0.07332443 0.50289454 0.00000627
-0.44520899 -0.00901182 -0.10532977
-0.63739587 -0.16954013 -0.22558610
-0.27204509 0.33409852 -0.07563548
-0.38440267 -0.12805185 0.36662715
-0.38341348 -0.10865296 -0.00672652
-0.36073254 -0.07089658 0.10822494
-0.20936380 0.29455244 0.02359494
-0.23556440 -0.56466089 -0.00000069
-0.08480108 0.18284905 0.00000256
-0.40977016 -0.70608338 -0.00000218
-0.60903961 -0.67036020 0.00650928
-0.45473710 -0.44204762 -0.00000163
-0.45805631 -0.53491267 -0.00000194
-0.45688942 -0.30304966 0.35086911
-0.00717770 0.16554388 0.00000297
-0.11083200 -0.63688795 0.00000135
-0.20522501 0.30453703 0.11216743
-0.04203192 0.65328807 0.00000486
-0.38708610 -0.13451591 0.00995509
-0.14450978 0.11244506 -0.00000525
-0.45774105 -0.07698432 -0.09038658
-0.14759889 0.25826132 0.00000442
-0.26437930 0.27132056 -0.04342043
-0.41970873 -0.68508492 0.00000353
-0.30339975 -0.10541990 0.00000446
-0.02676506 -0.68908903 0.00000019
-0.14364748 -0.64550648 0.00000157
-0.63617944 -0.73588299 0.03899452
-0.20610830 0.47139754 -0.06696158
-0.10026158 0.18253433 0.00000247
-0.24470737 0.20921081 0.22180273
-0.11854779 0.37974835 0.00000297
-0.25901429 -0.17160070 0.00000392
-0.57986043 -0.69848231 0.00000469
-0.32197757 -0.79481386 -0.00000193
-0.18071677 0.36370305 0.05588364
-0.43476143 -0.16219254 -0.03463476
-0.14938215 0.43935934 0.01492009
-0.53163489 -0.47622556 -0.00286775
-0.42625572 -0.29563381 -0.00000100
-0.34407918 -0.74581358 0.00000277
-0.01108128 0.28346466 0.00000347
-0.31741561 0.03367975 0.11348171
-0.43462879 -0.77519561 -0.00000255
-0.18748887 -0.69924088 0.00000173
-0.11279744 0.52767357 0.10916224
-0.07840421 0.23557906 0.00000276
-0.12265574 0.50387458 0.10089353
-0.16152863 0.57151657 -0.06398815
-0.13463567 0.08138832 0.00000194
-0.09824843 0.11743959 0.00000919
-0.22369262 0.25995125 0.13363834
-0.43934097 -0.70442525 -0.00000235
-0.24930148 -0.60542177 0.00000249
-0.38866762 0.30016641 -0.17376278
-0.07427584 0.62067502 0.06538521
-0.51070793 -0.08319486 -0.13859955
-0.44916166 -0.28438443 0.12223732
-0.10377594 0.05086529 -0.00000779
-0.26253605 0.16618697 0.00375589
-0.28979187 0.10037121 0.19374320
-0.11380872 -0.28570529 0.00000092
-0.14045518 0.38560302 0.00000043
-0.35517340 -0.48843330 0.00000365
-0.51747784 -0.44931100 0.03121884
-0.65693505 -0.45790788 -0.13000316
-0.45034271 -0.28724492 0.37156125
-0.41498021 0.02182764 -0.08863065
-0.26434272 0.23013665 -0.02706415
-0.61235842 -0.20882422 -0.18606467
-0.62901923 -0.36351520 -0.14070229
-0.33689292 -0.79181742 0.00000257
-0.62609725 -0.62488769 -0.03432831
-0.18621066 0.35044148 0.00908713
-0.26579727 -0.18039256 0.00000033
-0.60272127 0.03346240 -0.27285968
-0.26102505 -0.04252004 0.00000434
-0.62393867 -0.70633191 0.05897735
-0.30807212 0.04400663 0.00000078
-0.29893453 0.07829667 0.12541769
-0.29931072 0.07739224 0.03112439
-0.30358650 0.06706252 0.20660467
-0.34060455 -0.63941032 0.00000307
-0.02970085 0.22522133 -0.00000632
-0.04421699 0.04850499 0.00000238
-0.05607207 -0.46931764 0.00000069
-0.20463590 -0.20249183 0.00000341
-0.10944416 0.14946707 0.00000379
-0.29492034 0.08800362 0.02858491
-0.11399443 -0.05969240 0.00000163
-0.75941451 -0.79652473 -0.09385565
-0.45347595 -0.12298310 -0.06807738
-0.68653345 -0.16222341 -0.27549603
-0.06177476 0.29068902 -0.00000396
-0.41608525 -0.38588191 -0.00000122
-0.51458292 -0.24704385 -0.07737560
-0.43603790 -0.25270390 0.19953216
-0.29207113 0.16381473 -0.02731343
-0.30057999 0.37340580 -0.11851140
-0.40339022 -0.50925746 0.00000395
-0.09111326 0.13809261 -0.00000632
-0.39418174 -0.29523147 -0.00000080
-0.02320850 -0.20295317 0.00000204
-0.07569026 0.61725993 0.07062417
-0.10652268 -0.52052641 0.00000023
-0.17640155 -0.21271040 0.00000317
-0.09355680 0.57413051 0.02699088
-0.56888234 0.02599952 -0.23752809
-0.28723644 0.17849802 -0.02850681
-0.67621426 -0.40653582 -0.16880582
-0.51324286 0.11629175 -0.22007807
-0.24083813 -0.57906889 0.00000251
-0.66832252 -0.50278967 -0.12311164
-0.14870649 0.44098468 0.08677399
-0.03931676 -0.10475740 0.00000194
-0.32085678 0.02536987 0.25816483
-0.35702635 -0.28768942 0.00000429
-0.43482347 -0.68878506 0.00000363
-0.19175193 0.03596519 0.00000406
-0.04300758 -0.50020392 0.00000126
-0.30188278 -0.43336874 -0.00000068
-0.21573210 -0.77014031 0.00000172
-0.40768139 -0.18425049 0.33456671
-0.13523822 0.00587793 0.00000950
-0.40822541 -0.18556061 0.25313777
-0.40450893 -0.17658290 0.12083366
-0.46830324 -0.13639904 -0.07694629
-0.07752535 0.45448693 0.00000345
-0.28612798 0.10923023 0.02436920
-0.08951366 0.27022313 0.00000801
-0.27418748 0.13803695 0.23768833
-0.34982238 -0.04456778 0.37484270
-0.70811671 -0.78806875 -0.04813019
-0.35309230 -0.75375792 0.00000281
-0.53203641 0.00555179 -0.19417198
-0.33169434 -0.00078950 0.04601044
-0.55332225 -0.53584655 0.01365620
-0.09252421 -0.00153379 0.00000319
-0.05057701 -0.50058311 0.00000063
-0.01742187 0.62347312 0.00000434
-0.25673762 0.18016623 0.20077689
-0.04964712 0.42195967 0.00000741
-0.08894051 -0.20643312 0.00000132
-0.08939104 0.09474632 -0.00000729
-0.25220081 0.32409243 -0.05268247
-0.12220890 0.50495439 0.04271776
-0.33283827 0.19645004 -0.07924885
-0.26910260 -0.06113355 0.00000068
-0.05808961 0.37726435 0.00000333
-0.43463048 -0.24930057 0.06239258
-0.75537842 -0.74581752 -0.11008894
-0.09803030 0.41439597 0.00000320
-0.09128656 -0.20485593 0.00000255
-0.29951360 -0.24001337 0.00000401
-0.24307390 0.21315886 0.06568199
-0.30882484 0.05442875 0.11445467
-0.10760156 0.54021882 0.06473774
-0.26448416 0.34668770 -0.07339076
-0.22521459 0.10292553 0.00000452
-0.16268591 0.24603140 0.00000690
-0.38632801 -0.64735598 -0.00000185
-0.38476717 -0.12892489 0.19403851
-0.22839030 -0.15867726 0.00000063
-0.13002875 0.48607522 0.05109009
-0.09382986 -0.50548342 0.00000035
-0.18557485 0.11580277 0.00000763
-0.22151217 0.29042665 -0.00998336
-0.28921120 -0.34961303 0.00000359
-0.25004752 -0.31905725 0.00000339
-0.66067472 -0.74003057 -0.02177944
-0.31421403 0.04141248 0.18610934
-0.33550436 0.23592129 -0.09744147
-0.09786910 0.62581178 -0.02460109
-0.23190323 0.05703571 0.00000730
-0.22776609 0.14204132 0.00000663
-0.08765271 -0.18788695 0.00000257
-0.38232011 -0.12302100 0.35231305
-0.29440983 0.08921700 0.20697519
-0.05961491 0.49159007 0.00000662
-0.20274134 0.31053647 0.07009005
-0.28357822 0.11536510 0.25175620
-0.19795686 -0.22681692 0.00000328
-0.28704465 -0.79410860 -0.00000171
-0.09610044 0.65210647 -0.03332881
-0.01004660 0.48079991 0.00000394
-0.55476907 -0.53934280 0.09551657
-0.23943365 -0.57825164 -0.00000075
-0.27871051 -0.31963787 0.00000360
-0.34991109 -0.04478011 0.35416988
-0.34506426 -0.70929715 -0.00000180
-0.17430814 0.17402847 -0.00000304
-0.48042909 -0.35987009 0.10321652
-0.47383509 0.20142041 -0.21611203
-0.25875025 -0.43130581 -0.00000041
-0.35662565 -0.06098699 0.24095679
-0.08182216 -0.76137436 -0.00000037
-0.05419856 0.08755391 0.00000318
-0.03565761 0.60269624 0.00000465
-0.14917103 -0.03108899 0.00000353
-0.45246672 0.07730761 -0.14648441
-0.31197320 -0.39272209 0.00000363
-0.13098453 0.04102006 0.00000184
-0.13013192 -0.61843841 -0.00000022
-0.11347014 -0.09653610 0.00000151
-0.04659715 -0.33642061 0.00000117
-0.05134914 -0.16331489 0.00000238
-0.08226635 0.51087664 0.00000472
-0.59138588 -0.28348739 -0.13641193
-0.01156174 -0.71595919 0.00000019
-0.05852221 -0.15685669 0.00000245
-0.06401242 0.14104730 0.00000342
-0.57782053 -0.79258210 0.00000438
-0.10664774 0.36306803 0.00000299
-0.23410895 0.05834746 -0.00000370
-0.23986413 -0.67257528 0.00000221
-0.06733176 0.27107366 0.00000841
-0.60877114 -0.79664388 -0.00000366
-0.00072831 0.11851082 0.00000287
-0.41433666 0.20085735 -0.15896601
-0.02622427 0.19605573 0.00000295
-0.26869641 0.00512416 0.00000089
-0.44113684 -0.26501828 0.30973367
-0.61072735 -0.34910316 -0.12891351
-0.38533198 -0.65005777 -0.00000186
-0.38777504 -0.75017005 -0.00000218
-0.33365137 -0.69633255 -0.00000169
-0.19214743 0.21055733 0.00000461
-0.16392997 -0.20151884 0.00000088
-0.29992856 0.07590686 0.10275395
-0.36979255 -0.42417583 0.00000396
-0.14561737 -0.28967465 0.00000269
-0.61180955 -0.79276276 0.00000464
-0.37008553 -0.09347848 0.27723892
-0.16018986 -0.45137320 0.00000012
-0.12261700 -0.55342487 0.00000003
-0.06933105 -0.57293774 0.00000029
-0.12776116 0.49154891 0.10476461
-0.22548332 -0.50354947 -0.00000043
-0.49980286 -0.17905925 -0.09017672
-0.28440239 0.11338002 0.13566520
-0.38938109 0.15298356 -0.11611651
-0.10485329 0.33232392 -0.00000177
-0.37769763 -0.76230352 -0.00000216
-0.60475123 -0.72457136 -0.00000341
-0.02860556 -0.20789817 0.00000168
-0.12318636 -0.21061710 0.00000277
-0.31283124 -0.61818780 -0.00000132
-0.35245735 -0.56521577 0.00000339
-0.32241164 0.02163648 0.00792367
-0.28439714 0.28133656 -0.06654151
-0.14422184 -0.29057639 0.00000268
-0.02210229 0.59026907 0.00000121
-0.49471894 -0.39437593 0.30328881
-0.15030886 0.58923438 -0.06027577
-0.33872656 0.07673897 -0.03744233
-0.13770632 -0.56958669 -0.00000011
-0.33493741 0.18079102 -0.07505166
-0.32991096 0.00351307 0.23863702
-0.13791588 0.57079650 -0.04111256
-0.27665600 -0.62835720 0.00000262
-0.54919887 -0.56596671 -0.00000258
-0.21824132 0.27310745 0.13345960
-0.44328078 -0.58015968 -0.00000199
-0.52044107 -0.50422322 -0.00000222
-0.18716617 -0.29502851 0.00000299
-0.08915046 -0.11239539 0.00000161
-0.04077290 0.66010756 0.00000432
-0.50160197 0.10796465 -0.20564175
-0.60733602 -0.54681889 -0.04731683
-0.26357250 0.04559960 0.00000105
-0.42037787 -0.49741179 -0.00000159
-0.20222636 0.31178498 0.00511884
-0.55627355 -0.65108836 -0.00000289
-0.15849282 0.05066472 -0.00000614
-0.26184080 0.16785103 0.07626578
-0.14533284 0.44912783 0.10428221
-0.35580212 0.32002707 -0.15019012
-0.25719955 0.33173166 -0.06049460
-0.34887162 -0.35878403 -0.00000073
-0.41520821 -0.20241197 0.08794990
-0.30468424 0.09948296 -0.01388673
-0.19675549 -0.08298961 0.00000373
-0.67357695 -0.43003131 -0.15697175
-0.27207814 -0.46596172 0.00000310
-0.63742569 -0.19676737 -0.21482484
-0.41115350 -0.27618891 0.00000474
-0.02424547 -0.58322564 0.00000086
-0.60697652 -0.38672261 -0.11041695
-0.06770142 0.63655134 0.00974308
-0.18283446 0.42319079 -0.02559256
-0.42386860 0.13696220 -0.14276254
-0.42619370 -0.22893557 0.14249278
-0.00782092 0.41377076 -0.00000297
-0.15806030 -0.08622599 0.00000128
-0.63013885 -0.04878724 -0.26649600
-0.41268623 -0.19633097 0.27682235
-0.63890208 -0.06174695 -0.26974414
-0.63599616 -0.70777507 -0.01095156
-0.08335061 0.54244359 0.00000204
-0.35727072 -0.05300027 -0.00376982
-0.04851380 0.58209238 0.00000603
-0.50703893 -0.67694016 -0.00000268
-0.29147370 -0.77984693 -0.00000170
-0.23302556 0.23741354 0.17066145
-0.30925095 0.05338505 0.26290910
-0.43617808 -0.51027607 -0.00000173
-0.01002050 0.68232261 0.00000471
-0.34482758 -0.31447180 0.00000412
-0.51186548 -0.41431103 -0.00849000
-0.03239424 0.04953015 0.00000290
-0.07289158 0.41789755 0.00000337
-0.36433179 -0.26962259 0.00000441
-0.00508192 0.74881415 0.00000536
-0.57514230 -0.73255711 0.00000455
-0.29490745 -0.58172043 -0.00000110
-0.57237702 -0.19512227 -0.15324383
-0.42005072 -0.28063708 -0.00000091
-0.04478220 0.06118954 0.00000303
-0.11349131 -0.47770659 0.00000186
-0.02226280 0.40146278 0.00000392
-0.45090022 -0.28858666 0.24572280
-0.22317557 0.36046561 -0.03933028
-0.40102510 0.05938064 -0.09016168
-0.21714901 0.34937286 -0.02916596
-0.04737869 -0.33341109 0.00000182
-0.03196358 -0.63506472 0.00000032
-0.61902660 -0.62315561 -0.02825013
-0.63422558 -0.73116443 0.00127727
-0.51592984 -0.14717839 -0.11823959
-0.31146175 0.36680103 -0.12630486
-0.33013518 -0.44493182 0.00000360
-0.51825949 -0.45120495 0.20219413
-0.20795009 0.34666327 -0.01929417
-0.24670339 -0.61557481 -0.00000091
-0.10866918 0.26108046 0.00000414
-0.20285175 0.21226964 0.00000469
-0.17209775 -0.05156561 0.00000130
-0.49161905 0.06335400 -0.17841234
-0.08450081 0.37734326 0.00000317
-0.14244257 -0.30529362 0.00000262
-0.43958835 0.10418154 -0.14481329
-0.38930394 -0.39831874 0.00000419
-0.48499744 -0.37090672 0.32021818
-0.27772598 0.12950120 0.06431625
-0.50744682 -0.37272648 -0.02074203
-0.53031666 -0.03399270 -0.17685765
-0.26554288 0.07593067 0.00000474
-0.04715169 0.25067708 0.00000895
-0.02793537 -0.21078427 0.00000205
-0.06939876 0.18168205 0.00000915
-0.54108709 0.02403620 -0.21015647
-0.16024879 -0.45240019 0.00000230
-0.09475219 0.56311064 0.00000536
-0.49761606 -0.00332705 -0.15772221
-0.31925559 0.02923316 0.22546648
-0.42810986 -0.16969963 -0.02529616
-0.32414755 0.01742554 0.25607544
-0.02280908 0.13826103 0.00000279
-0.13237394 -0.49083883 0.00000017
-0.06517003 0.38838723 0.00000742
-0.18449774 0.35458197 0.04194740
-0.11634812 0.19352654 0.00000820
-0.35110289 -0.43991250 -0.00000099
-0.32843326 -0.59646717 0.00000311
-0.48202021 -0.36371518 0.19683641
-0.29141306 0.09645474 0.13514910
-0.35940257 0.15298686 -0.08743639
-0.07746999 -0.17647346 0.00000148
-0.54404719 -0.51345417 0.00451264
-0.23445716 -0.52721584 -0.00000056
-0.41421702 0.01678286 -0.08590123
-0.61743023 -0.33626315 -0.14041457
-0.30020430 0.10122887 -0.01029259
-0.03568660 0.56359134 0.00000105
-0.50882444 -0.16849358 -0.10299482
-0.24192096 0.21594314 0.04522384
-0.35419119 -0.75976100 -0.00000201
-0.22208171 0.27253127 -0.00343655
-0.34364115 -0.02964217 0.30573218
-0.11775174 0.51571421 0.09460178
-0.58433125 0.03372262 -0.25536832
-0.00796164 0.35202325 0.00000878
-0.16000298 0.59023415 -0.06994633
-0.22010022 -0.61615043 -0.00000075
-0.42376985 -0.72520769 -0.00000232
-0.06506437 0.57337727 0.00000580
-0.26509258 -0.21069236 0.00000024
-0.26907241 -0.35511151 0.00000342
-0.11950710 0.20193286 0.00000241
-0.15129726 -0.17142499 0.00000311
-0.29840161 0.07957850 0.28368896
-0.18608921 -0.01412215 0.00000133
-0.19068656 0.27743262 0.00000481
-0.03147492 0.05271556 0.00000247
-0.16579981 0.39971646 0.04058029
-0.51502859 -0.44340654 0.29173595
-0.53609765 -0.40912431 -0.03372868
-0.20992059 0.12993478 0.00000164
-0.44237450 -0.26800243 0.21396534
-0.14457146 0.38494628 0.00000283
-0.09011782 0.29901093 0.00000411
-0.36716256 -0.53336221 0.00000360
-0.14657992 0.21823205 0.00000429
-0.59064279 -0.79092073 0.00000448
-0.08246300 0.47212751 0.00000348
-0.49273939 -0.71389257 0.00000399
-0.02952116 0.25572602 0.00000312
-0.31386302 0.37198349 -0.13065605
-0.37928832 0.07344252 -0.07493815
-0.30721370 0.05831760 0.12328515
-0.23998477 0.46976307 -0.09872457
-0.11544397 0.32170632 0.00000709
-0.47350719 -0.41384051 -0.00000165
-0.05147436 0.01509163 0.00000224
-0.23646958 -0.47659422 0.00000279
-0.21781800 -0.67094602 -0.00000091
-0.20279044 -0.40727126 0.00000276
-0.36265718 -0.07553889 0.00355275
-0.35116971 -0.04781827 0.31828417
-0.28755313 0.07225338 0.00000616
-0.04171630 0.30544387 0.00000320
-0.21611636 0.27824422 0.10222839
-0.16423143 0.06767851 0.00000843
-0.34504672 -0.50141268 0.00000354
-0.05325814 0.52591135 0.00000382
-0.35267919 -0.60323830 0.00000328
-0.45689127 0.11850741 -0.16704273
-0.29907285 0.07796734 0.16876889
-0.15665685 0.24818159 -0.00000200
-0.08946220 -0.25266546 0.00000239
-0.06256925 0.62865495 0.00000494
-0.29001352 0.40173965 -0.11963088
-0.09358106 -0.48944178 0.00000168
-0.23858393 0.24079312 -0.00664703
-0.28412510 0.11405391 0.16764694
-0.52289171 -0.46238737 0.18278843
-0.09278948 0.28723010 0.00000781
-0.15777507 0.38540026 0.00000577
-0.38781247 -0.13628442 0.38051487
-0.62755688 -0.50899304 -0.08165229
-0.56623003 -0.67812649 0.00000465
-0.08482429 -0.63587284 0.00000000
-0.33097650 0.09622836 -0.03775113
-0.64192369 -0.34469293 -0.16050718
-0.02045625 -0.00500862 0.00000236
-0.00844244 -0.21433948 0.00000178
-0.39707851 -0.15865077 0.28375145
-0.30343429 0.23755610 -0.06740468
-0.46196915 -0.24771907 -0.02677172
-0.20601832 0.40434904 -0.04030613
-0.44873866 -0.31291361 0.00000491
-0.27259898 0.14187887 0.06557241
-0.21788541 0.27396475 0.20901142
-0.50728257 0.02077724 -0.17652523
-0.46058039 -0.65548426 0.00000393
-0.29005376 0.09974149 0.00865845
-0.23845906 -0.57124533 -0.00000072
-0.65074003 -0.77103473 0.09838934
-0.19691977 -0.12078195 0.00000361
-0.42005805 -0.63776105 -0.00000203
-0.24176708 0.21632620 0.01222867
-0.01770020 0.23821102 0.00000338
-0.31857814 0.03087030 0.18486019
-0.57889661 -0.59759371 0.20418441
-0.28463970 0.11280986 0.06693790
-0.26291146 0.37532228 -0.08323219
-0.29418882 0.07021059 0.00000606
-0.55692809 -0.24549197 -0.11850279
-0.03167987 0.10687316 0.00000264
-0.34357161 0.01438906 -0.01736379
-0.17594685 0.45940145 -0.03335290
-0.17158663 -0.68339248 -0.00000067
-0.08392131 0.17685301 0.00000255
-0.15990434 0.41394875 0.05738735
-0.28835396 -0.02872899 0.00000067
-0.18739480 0.55393454 -0.08176736
-0.06129454 0.18260085 0.00000353
-0.12548536 -0.43298762 0.00000209
-0.34970177 0.19801967 -0.09600192
-0.18937817 0.16744859 0.00000445
-0.14830577 0.33131561 0.00000465
-0.43903084 -0.25992738 0.14650383
-0.14789016 0.22092927 0.00000431
-0.04969134 -0.04871527 0.00000205
-0.03331150 -0.27882686 0.00000143
-0.44215902 -0.48104925 -0.00000167
-0.30433848 0.31393388 -0.09853842
-0.38529141 -0.13018491 0.05445805
-0.19413613 -0.31087254 0.00000036
-0.10917836 -0.00090588 0.00000332
-0.16025703 0.41813934 -0.00198784
-0.35312796 0.02242015 -0.02969451
-0.62223935 -0.70222865 0.04095903
-0.47186236 -0.33918735 0.08394031
-0.36120216 -0.07203510 0.22592574
-0.35474740 0.19064736 -0.09791009
-0.11173138 0.53025007 0.02638667
-0.31051046 -0.32997780 -0.00000041
-0.40170751 -0.16983209 0.43042768
-0.23545461 0.42166046 -0.07532725
-0.25256934 0.19024005 0.10584599
-0.44626027 0.21077075 -0.19343586
-0.38145135 0.23149515 -0.13964418
-0.18887264 -0.22742100 0.00000065
-0.30952072 -0.22668866 -0.00000008
-0.33990558 -0.29133219 -0.00000046
-0.27174084 0.27214993 -0.05079213
-0.54823389 -0.54818268 -0.00000252
-0.40805003 0.20881422 -0.15610471
-0.44185481 0.03957122 -0.12137428
-0.54902047 -0.01923810 -0.20059889
-0.06396680 0.43822608 0.00000348
-0.24212494 0.21544908 0.17454804
-0.33976198 -0.47887577 0.00000357
-0.72586938 -0.73477694 -0.08623298
-0.00047928 0.56903219 0.00000428
-0.33603083 -0.01124996 0.09813873
-0.16392507 0.56674148 -0.06438853
-0.19825567 0.19067004 -0.00000197
-0.32174209 0.02323917 0.17701762
-0.39768079 -0.12585607 -0.01355888
-0.05597966 0.61385461 0.00000273
-0.07934355 -0.02195213 0.00000303
-0.41404929 -0.18396944 -0.00618928
-0.42499087 -0.22603062 0.11657072
-0.36239588 0.15895142 -0.09266680
-0.05302418 0.67198229 0.02255653
-0.10074243 0.61112693 -0.02153063
-0.15886327 0.44836825 -0.01263417
-0.63579769 -0.28278856 -0.17917824
-0.13547456 0.46643454 0.00000200
-0.37624346 0.02068396 -0.05112139
-0.39639382 -0.15699156 0.12874465
-0.26461542 0.16115483 0.01840118
-0.65743575 -0.03417251 -0.29840294
-0.51802741 -0.45064591 0.23332596
-0.03791223 0.51429476 0.00000388
-0.11262070 0.31867586 0.00000717
-0.30657864 0.05983881 0.20723315
-0.53751064 0.10242213 -0.23779928
-0.10896010 0.53693951 0.08570618
-0.23277085 0.23804212 0.04359401
-0.32365698 0.01862326 0.09100777
-0.10043860 0.02294168 0.00000197
-0.29353572 0.27504473 -0.07279361
-0.04326023 0.03670988 0.00000294
-0.31998057 0.02748278 0.28794996
-0.58504065 0.01816053 -0.24987974
-0.10945823 -0.23078997 0.00000112
-0.18033832 -0.74530722 -0.00000092
-0.30775627 0.13996051 -0.03286232
-0.23396179 -0.16380374 0.00000058
-0.01547538 -0.46670427 0.00000095
-0.40455024 -0.17669193 0.35257944
-0.10255637 0.39368432 0.00000311
-0.33539313 -0.17999037 -0.00000009
-0.61885981 -0.36452291 -0.13058330
-0.27960846 0.12495451 0.11377451
-0.14041570 0.08454242 -0.00000597
-0.73196993 -0.53361811 -0.17178603
-0.33508916 -0.56108453 0.00000327
-0.40626625 -0.59523938 -0.00000181
-0.20058316 -0.42218625 -0.00000003
-0.41568758 -0.34311867 -0.00000108
-0.53950102 -0.50248455 0.15009393
-0.02990829 -0.35497588 0.00000162
-0.45674560 -0.30270243 0.33866066
-0.57130383 -0.58786841 -0.00000279
-0.31043406 0.05055207 0.01244791
-0.32258903 0.22760087 -0.08178536
-0.07520525 -0.32502172 0.00000103
-0.43517893 -0.57629867 0.00000398
-0.48380766 -0.41304502 0.00000486
-0.11814441 0.51476614 0.06301509
-0.29816640 -0.17128120 0.00000421
-0.13910858 -0.29728856 0.00000262
-0.24185447 -0.32354604 0.00000331
-0.33698286 -0.25280602 -0.00000032
-0.10110715 0.37379301 -0.00000101
-0.68137520 -0.79510567 -0.01975802
-0.05506244 0.66706448 0.00435743
-0.03988296 -0.47794651 0.00000131
-0.43220273 -0.28455410 0.00000487
-0.11925421 0.12150064 0.00000378
-0.00292075 0.69688783 0.00000290
-0.32614366 -0.29469108 0.00000404
-0.42568571 0.14148018 -0.14629151
-0.20064949 -0.20578079 0.00000337
-0.22239513 -0.10795279 0.00000082
-0.35519306 -0.56604797 0.00000341
-0.18905062 0.27919376 0.00000223
-0.16157030 0.18024651 0.00000750
-0.01573665 0.48749743 0.00000414
-0.46426300 -0.32083794 0.01207329
-0.07609643 -0.52514125 0.00000040
-0.02450000 0.69721681 0.00000356
-0.14190381 0.50159571 -0.01750450
-0.34936358 -0.04345984 0.36726765
-0.11610756 0.51423595 0.00000498
-0.19986361 0.31747505 0.17770556
-0.05319375 -0.16054692 0.00000240
-0.40622273 -0.18072451 0.22335396
-0.32082147 -0.15852745 0.00000007
-0.42015789 0.16143453 -0.14891252
-0.35552071 -0.13374906 -0.00000006
-0.40981160 0.05425488 -0.09653666
-0.13736465 0.30885238 0.00000681
-0.52413565 -0.45877280 -0.00260943
-0.27832277 -0.14826722 0.00000036
-0.30914138 0.05365944 0.01681861
-0.03604806 0.27019614 0.00000362
-0.20512551 0.00621857 0.00000128
-0.36384894 0.18740352 -0.10532977
-0.68289452 -0.13482273 -0.28287322
-0.15580499 0.45580557 -0.01265564
-0.16154987 -0.78942244 -0.00000094
-0.31012229 0.05129174 0.00617418
-0.42730980 -0.54798811 0.00000401
-0.67621929 -0.68042762 -0.06027082
-0.16672061 0.39748816 0.17635528
-0.21096170 0.29067997 0.18479651
-0.41189503 -0.11351327 -0.03204913
-0.44758301 -0.42892671 0.00000454
-0.07317024 -0.56949852 0.00000127
-0.13647693 0.27037477 0.00000252
-0.51790239 -0.67472393 0.00000430
-0.02696971 0.19981862 0.00000296
-0.24789490 0.42912644 -0.09018806
-0.34914369 -0.04291443 0.19364196
-0.65864763 -0.22144429 -0.22534901
-0.34381951 -0.29089318 -0.00000048
-0.11620636 -0.14038227 0.00000294
-0.40308771 -0.17315340 0.16174133
-0.11411926 -0.71211854 0.00000114
-0.30152318 0.07205154 0.01479310
-0.58515221 -0.44201377 -0.06762618
-0.17580945 0.36304913 0.00000564
-0.27455874 0.13714414 0.15054141
-0.19687540 -0.64139387 0.00000198
-0.20222249 -0.57253485 -0.00000051
-0.02579474 0.02094490 -0.00001078
-0.08518002 -0.22629769 0.00000128
-0.49013081 -0.38329500 0.17352244
-0.07096824 -0.68063303 0.00000091
-0.21932607 -0.17510426 0.00000361
-0.33260560 0.17515651 -0.07058473
-0.32703989 0.10854252 -0.03886486
-0.23358133 0.07640352 -0.00000333
-0.04867739 -0.04500475 0.00000207
-0.24640795 0.13207220 0.00000638
-0.48328933 -0.36678121 0.24920909
-0.36190419 -0.07373110 0.25489932
-0.51721132 -0.10336683 -0.13682754
-0.22143453 -0.69918401 -0.00000102
-0.22964850 -0.22730036 0.00000352
-0.02269138 0.68132528 0.00000316
-0.31157968 0.04777386 0.16622797
-0.06616946 0.65461574 -0.00568825
-0.39345296 -0.14989872 0.30394018
-0.04220323 -0.46133824 0.00000138
-0.38199150 -0.12223112 0.37582797
-0.52209613 -0.01567756 -0.17624855
-0.56594750 -0.02863103 -0.21306910
-0.06916470 -0.05558320 0.00000191
-0.60939152 -0.74112591 -0.00000349
-0.18481322 0.30909578 0.00000595
-0.21637292 0.26155320 0.00000495
-0.50763709 -0.42556126 0.22955078
-0.03678165 0.14801702 0.00001004
-0.21204450 0.28807145 0.04563478
-0.17969445 -0.54083008 0.00000217
-0.11873258 0.13973635 0.00000863
-0.46892110 -0.19169336 -0.05562499
-0.05295446 0.22290723 0.00000288
-0.51803952 -0.63202996 -0.00000260
-0.38309276 -0.58516400 0.00000356
-0.57757535 0.06094982 -0.25969492
-0.48065932 -0.29367914 -0.02643948
-0.15157234 -0.06451795 0.00000344
-0.39381254 -0.15076741 0.31816655
-0.39960100 0.24606713 -0.16278425
-0.18509595 -0.27148663 0.00000305
-0.18847208 0.15281887 -0.00000306
-0.07503659 0.50089835 0.00000091
-0.50740008 -0.62802600 0.00000437
-0.39570383 -0.15532068 0.00214527
-0.01771559 0.75722609 0.00705175
-0.09890514 0.49757877 0.00000156
-0.35976813 0.01914229 -0.03474325
-0.58731842 -0.13193597 -0.19257837
-0.29408487 0.35669404 -0.10567441
-0.64671081 -0.18268391 -0.22928913
-0.02606875 0.03813973 0.00000246
-0.33409122 -0.68219525 -0.00000165
-0.15702330 -0.49276446 0.00000001
-0.21879305 0.27177415 0.16535220
-0.30802292 0.05635227 0.20055882
-0.25020212 -0.03880264 0.00000427
-0.02254556 0.50721371 0.00000426
-0.38094529 -0.11970448 0.35432200
-0.26379196 0.00354908 0.00000719
-0.04975693 0.44646506 0.00000719
-0.40082672 -0.14339772 -0.00961711
-0.41579396 -0.58917984 0.00000380
-0.14395116 0.02366763 0.00000366
-0.04766009 0.45526250 -0.00000089
-0.18875091 0.16934963 0.00000189
-0.22359398 0.26018692 0.08434085
-0.14019741 -0.22365998 0.00000286
-0.11738439 0.12558650 0.00000378
-0.26364802 0.15252221 0.00000589
-0.03179905 0.31218853 0.00000869
-0.54387461 -0.39626733 -0.04626405
-0.39054590 -0.14288480 0.41773155
-0.36774651 0.25975720 -0.13773262
-0.63204413 -0.65724246 -0.02719601
-0.43629507 -0.21245608 -0.01618324
-0.15126913 0.43480458 0.00591797
-0.54806590 -0.71605824 0.00000440
-0.09063884 -0.35696612 0.00000207
-0.29126874 -0.40636818 -0.00000053
-0.12885724 0.00611436 0.00000349
-0.21924995 -0.75292927 -0.00000118
-0.58080365 -0.36593211 -0.09361601
-0.16453672 0.52290085 -0.04759958
-0.17608839 0.37487370 0.13676586
-0.05320211 0.38830475 0.00000411
-0.00304516 0.76606805 0.00000488
-0.19757353 0.08925211 0.00000159
-0.22198836 -0.00274941 0.00000115
-0.35688440 0.06603444 -0.05057211
-0.51630952 -0.44649004 0.02130794
-0.40330198 -0.78022352 -0.00000237
-0.23600531 0.23021773 0.23856132
-0.36087289 -0.07124235 0.28056890
-0.26320021 0.08625988 0.00000648
-0.25802042 0.17706652 0.26891256
-0.28414947 -0.59955472 -0.00000109
-0.25689651 0.17978583 0.12096002
-0.29952201 0.07688485 0.14586293
-0.02021361 0.36973671 0.00000353
-0.44804301 -0.37807317 0.00000470
-0.20821912 0.29730596 0.06518142
-0.31202962 0.04667911 0.27130605
-0.06478486 -0.45450302 0.00000157
-0.56013108 -0.55228898 0.12327730
-0.00062659 0.77614519 0.00000493
-0.28601700 0.10949265 0.09243164
-0.14552780 0.47684481 -0.01116101
-0.67656096 -0.47188971 -0.14323859
-0.05142501 0.12617305 0.00000328
-0.51952800 -0.45426367 0.10938174
-0.19337014 0.33314999 0.18144232
-0.43592253 0.09859766 -0.13909334
-0.07907409 0.59502182 0.00000536
-0.69311898 -0.23275271 -0.25384653
-0.32323768 0.01961939 0.28978382
-0.04681870 -0.14891653 0.00000239
-0.37660857 -0.10922167 0.03043793
-0.09752491 0.47821896 0.00000341
-0.44760575 -0.75562497 -0.00000256
-0.42412531 -0.22394774 0.28497760
-0.33274780 -0.00333224 0.03238048
-0.53023524 -0.22537988 -0.10093553
-0.36028475 0.15010037 -0.08713648
-0.04592650 -0.72855963 -0.00000005
-0.25558490 0.18295398 0.08030577
-0.50854784 -0.42775911 0.20735973
-0.40785304 -0.01098333 -0.06881337
-0.21391984 0.10917037 -0.00000322
-0.26414099 0.13964875 0.00000134
-0.69116225 -0.28336547 -0.23191734
-0.33678347 -0.69524681 -0.00000171
-0.13448871 0.02207144 -0.00000747
-0.24412701 0.21061744 0.04041925
-0.14460285 -0.26623460 0.00000080
-0.05861152 -0.12322881 0.00000256
-0.32593239 -0.75587113 0.00000260
-0.63333594 -0.77326639 0.00000486
-0.16344984 0.48761121 -0.03257437
-0.38930334 -0.26310051 0.00000461
-0.50629935 0.00677867 -0.17003471
-0.02560197 0.67048670 0.00000444
-0.42546555 -0.22717877 0.17100006
-0.13806599 0.46511119 0.00000500
-0.60295628 -0.01558973 -0.25364581
-0.40321456 -0.68870573 0.00000339
-0.24759501 -0.54735209 0.00000266
-0.16398083 0.10152558 0.00000183
-0.31664582 0.03554561 0.13798974
-0.30560511 0.10236582 -0.01590538
-0.70286935 -0.52726872 -0.14646177
-0.27529511 -0.20846557 0.00000019
-0.36917034 0.32583227 -0.16528070
-0.39206774 0.15134324 -0.11803685
-0.14131724 -0.57406830 -0.00000015
-0.47043856 0.16291290 -0.19760185
-0.35133262 -0.04821206 0.33066722
-0.12064781 0.50872694 0.04107251
-0.35871045 -0.06602015 0.24093748
-0.18525703 0.13899867 0.00000433
-0.46677615 -0.32690569 0.02326180
-0.42219951 -0.21930053 0.33756899
-0.08943524 0.40753838 0.00000323
-0.13651205 0.05171964 0.00000184
-0.19064641 0.33972519 0.19364702
-0.30908780 0.17770304 -0.04909368
-0.37457006 -0.10431023 0.27848412
-0.10576461 0.65430772 -0.04344740
-0.52613776 -0.49539432 0.00000492
-0.38158219 -0.12123864 0.26838005
-0.11810062 0.08120598 0.00000364
-0.08124271 -0.11000677 0.00000167
-0.28160577 0.38422823 -0.10464710
-0.46824782 -0.33046576 0.20083424
-0.04358257 0.42634740 0.00000357
-0.42054622 -0.21529941 0.09547463
-0.08703555 0.38030130 0.00000316
-0.21899456 -0.28379705 0.00000327
-0.53622613 -0.32980241 -0.06528583
-0.36109296 -0.07176983 0.18526322
-0.02716856 -0.40627270 0.00000144
-0.67177125 -0.53582387 -0.11332000
-0.63342967 -0.42782396 -0.11943710
-0.43729554 -0.25573817 0.15108245
-0.04200163 0.06595634 0.00001066
-0.23466106 0.23347553 0.08411866
-0.30804798 0.05630196 0.14215140
-0.39795083 0.03772723 -0.07863913
-0.66262483 -0.79972643 0.02107394
-0.54326140 -0.51156484 0.23695955
-0.42236050 -0.21967622 0.01479652
-0.51612599 0.14240152 -0.23318381
-0.31984006 0.07945673 -0.02044550
-0.57447731 0.05325429 -0.25368118
-0.06904489 -0.48744274 0.00000056
-0.52564794 -0.46904255 0.20878792
-0.09722757 0.27475779 -0.00000323
-0.44444230 0.12822544 -0.15898541
-0.13077071 -0.11253105 0.00000313
-0.61989997 -0.50631444 -0.07538831
-0.70539967 -0.32531746 -0.22891320
-0.49924927 0.03787271 -0.17561438
-0.71735402 -0.61916925 -0.12390020
-0.10270052 -0.16431110 0.00000137
-0.38672607 -0.13364836 0.05059979
-0.14197426 -0.68358883 0.00000143
-0.25008705 0.37401412 -0.07044595
-0.58493823 -0.03957348 -0.22690325
-0.37001999 -0.09331908 0.26250463
-0.00230910 0.01027774 0.00000252
-0.09609538 0.38223311 0.00000311
-0.04888221 0.13879694 0.00000990
-0.01820885 0.56827208 0.00000417
-0.33363350 -0.00547258 0.08376384
-0.08190037 0.60227234 0.01267356
-0.31020476 0.03154669 0.00000073
-0.57354125 -0.09461700 -0.19418658
-0.29736216 -0.23042286 -0.00000001
-0.12216552 -0.15768176 0.00000127
-0.29662001 0.11543336 -0.01248774
-0.50805214 -0.42656414 0.25139218
-0.36117576 -0.54202995 -0.00000137
-0.33417658 0.34090508 -0.13777426
-0.27932997 -0.11523585 0.00000045
-0.09011201 -0.44557583 0.00000056
-0.14131457 0.06017999 -0.00000646
-0.15847723 -0.40817178 0.00000242
-0.04905790 0.27376725 -0.00000470
-0.37244351 -0.24813561 -0.00000052
-0.22414073 0.25886344 0.17142347
-0.53347822 0.11786930 -0.24006327
-0.40148588 -0.52571478 0.00000389
-0.30545232 0.10909588 -0.01842634
-0.63149343 -0.12054995 -0.23935333
-0.03740684 0.16074233 0.00000328
-0.02208655 0.01356528 0.00001148
-0.09729550 0.24522286 0.00000809
-0.29280578 -0.15472117 0.00000025
-0.47447627 0.15002847 -0.19635874
-0.18556508 0.07897562 0.00000163
-0.38620094 0.07773831 -0.08325411
-0.50614822 -0.06463189 -0.14159347
-0.34192424 -0.02549634 0.32800136
-0.01977736 0.46068743 0.00000761
-0.19383476 0.33204285 0.01638919
-0.03179989 0.69834736 0.00000380
-0.09983881 -0.61076883 0.00000134
-0.10342762 0.55029436 0.09680395
-0.21956316 -0.01764455 0.00000410
-0.58522290 0.02287723 -0.25192399
-0.01216123 0.49565123 0.00000398
-0.25990781 -0.61776695 -0.00000100
-0.54518796 -0.51621186 0.09470725
-0.68063653 -0.24091375 -0.23867049
-0.15199870 -0.35243075 0.00000048
-0.04119164 0.70054998 0.01720860
-0.25649087 -0.60695507 0.00000254
-0.47629484 -0.34988780 0.07032612
-0.09802042 0.65454151 -0.03613108
