ply
format ascii 1.0
element vertex 1378
property float x
property float y
property float z
end_header
-0.22792144 -0.05268287 -0.00000047
-0.00078006 0.54729685 -0.00000084
0.00160163 -0.24745574 -0.00000035
0.51509162 -0.39316744 -0.00000032
0.07024599 -0.53620542 -0.00000016
0.21856434 0.43689181 -0.00000099
0.43656357 -0.61935771 -0.00000011
0.45758914 0.18822988 -0.00000127
-0.35985786 0.34428842 -0.00000053
0.78361188 -0.04021468 -0.00000187
-0.06107042 0.37662596 -0.00000074
-0.69710109 -0.76980355 0.00000000
0.11633301 0.66225734 -0.00000076
-0.22566134 -0.34219748 -0.00000029
0.44585490 0.24884159 0.00000033
0.24561314 -0.10861640 -0.00000043
-0.32765561 0.53337101 0.04468428
-0.00134298 0.71602755 -0.00000095
-0.55865801 -0.00166738 -0.00000026
-0.77818717 -0.25184944 0.00000000
-0.09824570 0.68130425 -0.00000087
-0.53899825 -0.41480259 -0.00000020
0.24981550 -0.26928946 -0.00000033
0.55910959 -0.48699317 -0.00000028
0.78450345 -0.67197405 -0.00000032
0.33727473 0.24828026 -0.00000100
-0.23292717 -0.31451024 -0.00000030
0.18302187 0.53459054 0.00000025
0.20536656 0.48162380 0.00000077
0.57209715 -0.59006413 -0.00000013
0.64345212 -0.36628890 -0.00000078
0.03858519 -0.30817645 -0.00000031
0.50795319 -0.61748348 -0.00000011
-0.23924227 -0.31335816 -0.00000030
0.04564923 0.55380062 0.00000231
0.74781929 -0.61895425 -0.00000045
-0.58835959 0.22754016 0.01164221
-0.06331570 -0.43027274 -0.00000023
0.61786886 -0.37600524 -0.00000068
-0.61873932 -0.61770043 -0.00000008
0.45000664 0.34665777 -0.00000156
-0.41265112 0.64736783 0.19039096
0.04735910 0.15912260 -0.00000060
-0.57541889 0.38974392 0.12093585
-0.11587063 -0.55372092 -0.00000015
-0.27343106 0.51548311 -0.00000066
-0.74992500 0.23923772 0.13850964
0.00432161 -0.72706223 -0.00000005
-0.38618626 0.54811593 0.09833844
-0.35965037 0.57092733 0.09561121
-0.01015661 0.29270619 -0.00000068
0.33494292 0.21907312 -0.00000094
0.13328703 0.13714199 0.00000776
0.75534333 -0.52629156 -0.00000068
-0.43031644 -0.08346254 -0.00000038
-0.50566075 -0.79079261 -0.00000001
0.17151800 0.58134399 -0.00000037
-0.01897926 -0.52457107 -0.00000017
0.26643778 0.13699871 -0.00000059
0.33995303 -0.42275416 -0.00000024
0.48277526 -0.77537741 -0.00000002
-0.33943782 0.44859233 -0.00000057
-0.35143006 -0.13454138 -0.00000042
-0.24996195 -0.04101724 -0.00000047
-0.11725034 -0.70569874 -0.00000006
0.28962293 0.01286760 -0.00000051
0.41395727 -0.38386458 -0.00000026
0.57635349 -0.63493430 -0.00000010
-0.04533215 0.47876607 -0.00000080
-0.47556067 -0.38180175 -0.00000026
0.28615676 -0.57773187 -0.00000014
0.05861371 0.13132668 0.00000898
0.17731515 -0.56096905 -0.00000015
-0.69444278 0.02429872 -0.00000012
-0.26622611 0.24435804 -0.00000061
-0.34880322 -0.78109195 -0.00000001
-0.13829410 -0.61598481 -0.00000012
-0.69197969 0.20405118 0.07031628
-0.74963410 0.25340400 0.14866949
-0.17085475 0.40857661 -0.00000075
-0.49926001 0.28673782 -0.00000037
-0.28155103 0.10562184 -0.00000057
-0.20277886 -0.42949544 -0.00000023
0.06238316 -0.79337205 -0.00000000
-0.54319866 0.44615302 0.13864736
-0.77914518 -0.23134277 0.00000000
-0.02176224 -0.24127509 -0.00000035
0.55765227 0.18505624 -0.00000159
-0.44126673 -0.51449121 -0.00000018
-0.64933893 -0.76802963 -0.00000002
-0.04287141 0.54148211 -0.00000084
-0.76787058 -0.08327628 -0.00000002
-0.61062887 -0.34228253 -0.00000014
-0.50882686 0.26164203 -0.00000036
-0.56574474 -0.28953688 -0.00000020
-0.59408798 0.55566075 0.25609360
-0.64615623 -0.70700515 -0.00000003
0.38293842 -0.45580652 -0.00000022
-0.67171592 0.20460585 0.05588479
-0.30391834 -0.07456102 -0.00000045
0.18314711 -0.02412657 -0.00000048
0.33447689 0.21485782 -0.00000093
-0.33630137 -0.30659705 -0.00000031
-0.52981201 -0.29296321 -0.00000023
0.54954125 0.02595737 -0.00000125
-0.42163636 -0.45530447 -0.00000022
-0.69485416 -0.22307406 -0.00000007
0.77549474 -0.70214145 -0.00000024
-0.30502985 0.26399380 -0.00000058
-0.33576528 -0.10319891 -0.00000044
0.49704657 -0.10761977 -0.00000082
-0.58103924 0.35573483 0.10014900
-0.41971474 -0.79133139 -0.00000001
-0.57560224 -0.76059315 -0.00000002
0.72252515 -0.22507469 -0.00000131
0.27291355 0.48767123 -0.00000063
0.00756931 0.52286576 0.00000339
-0.13387086 -0.07353227 -0.00000045
0.60317989 0.08520259 0.00000025
0.10023246 0.60968049 -0.00000095
-0.49778561 0.62179385 0.23400269
0.33859973 0.24209906 -0.00000100
-0.33751000 0.24085741 -0.00000054
0.17037401 0.12206012 0.00000745
-0.65552988 0.31110078 0.12201089
-0.48789154 0.43526295 0.09017617
-0.79323914 -0.35836668 0.00000000
0.20445172 -0.36115330 -0.00000027
0.42413310 0.20160691 0.00000160
0.10478296 0.12894434 -0.00000058
-0.17659844 0.65242751 0.02125224
-0.56618783 0.34128810 0.07869622
0.04159127 0.17505579 0.00000853
0.14109645 -0.65648522 -0.00000009
0.11636017 -0.26376629 -0.00000034
-0.40337727 -0.31437345 -0.00000030
-0.18097896 0.61972431 0.00051377
0.12060724 -0.52549681 -0.00000017
-0.62042430 0.22131887 0.03056543
-0.60880265 -0.04427562 -0.00000020
-0.56688353 -0.36685113 -0.00000018
0.54677324 -0.29395440 -0.00000062
-0.08822218 0.55339058 -0.00000085
0.38504256 0.11736480 -0.00000090
0.30992738 -0.43407421 -0.00000023
0.16879735 -0.44878581 -0.00000022
-0.62677865 0.50009459 0.23934383
-0.29035120 -0.72019461 -0.00000005
-0.05098371 -0.41791818 -0.00000024
-0.49300981 0.50377280 0.14408830
0.25454332 0.42446148 0.00000085
-0.76834180 0.14839404 0.08547715
-0.73592433 -0.41677604 0.00000000
-0.43324118 -0.28782988 -0.00000032
-0.26097201 -0.26044179 -0.00000034
0.31070222 0.45073356 -0.00000070
0.09367390 -0.00963102 -0.00000049
-0.28898743 0.28069657 -0.00000060
-0.49088212 0.01334688 -0.00000033
0.01875516 0.76524406 -0.00000074
-0.51131202 0.54164801 0.18522265
0.35437895 0.05917228 0.00000550
0.23148956 -0.13011042 -0.00000042
0.67186805 -0.44775070 -0.00000072
-0.75016363 -0.02620268 -0.00000005
0.00036713 0.43267409 0.00000496
-0.48991144 -0.27464233 -0.00000028
-0.42787444 0.09202774 -0.00000041
0.06701857 0.01584845 0.00001073
-0.44821170 -0.26144676 -0.00000033
0.57250429 -0.60708260 -0.00000012
-0.46675879 0.13621963 -0.00000038
-0.30115878 0.12865380 -0.00000056
0.05132976 -0.42211391 -0.00000024
-0.29961839 -0.17393565 -0.00000039
-0.14828578 0.70920128 0.04209200
-0.27015219 -0.60416445 -0.00000012
-0.63776747 0.67703455 0.37694912
-0.55507216 -0.63659085 -0.00000010
-0.22309322 0.23674770 -0.00000065
0.02194130 0.21278799 -0.00000063
0.78657654 -0.76897258 -0.00000008
-0.41696650 0.36182303 -0.00000047
0.13384367 0.52774657 0.00000132
-0.62758598 0.10984291 -0.00000020
-0.38675541 -0.76502896 -0.00000002
0.68555827 -0.58257561 -0.00000050
0.74408119 -0.37234759 -0.00000107
0.61078343 -0.71407803 -0.00000005
0.16589543 -0.71180715 -0.00000006
-0.33388531 0.14448450 -0.00000052
-0.12503215 0.18238044 -0.00000061
0.28696567 0.30787284 -0.00000096
0.44579888 -0.53967645 -0.00000016
0.05654499 0.60189277 -0.00000088
-0.35269054 0.48385261 0.02675704
-0.11669821 0.38840334 -0.00000074
-0.23018669 -0.79898190 -0.00000000
0.33925771 -0.69200564 -0.00000007
-0.08679992 -0.34040863 -0.00000029
-0.51508003 -0.09968085 -0.00000029
-0.19481542 -0.10686293 -0.00000043
-0.56130582 -0.74020415 -0.00000004
0.32799872 0.18821664 -0.00000086
-0.00582366 0.07812267 -0.00000055
0.39644919 0.30071334 0.00000035
0.77526683 -0.50500227 -0.00000074
0.61092064 0.10599754 -0.00000160
0.15684921 -0.43913935 -0.00000023
0.34406885 -0.13637529 -0.00000041
-0.06625568 -0.38386809 -0.00000026
-0.47560623 -0.38076452 -0.00000026
-0.61775182 -0.04803822 -0.00000019
-0.74070444 0.09315333 0.02479194
0.03367132 0.68034033 0.00000044
-0.39243959 -0.63018945 -0.00000011
0.38931311 0.24145840 -0.00000116
-0.70067448 -0.50846144 -0.00000001
-0.53969523 -0.12815750 -0.00000025
-0.57564459 -0.47271725 -0.00000015
-0.35212376 0.22834808 -0.00000052
0.32014682 0.34266865 -0.00000113
0.62451792 -0.61816507 -0.00000023
-0.17424661 0.14488831 -0.00000059
0.02013566 0.35215428 -0.00000072
0.25898259 -0.41940108 -0.00000024
-0.72936531 -0.76363300 0.00000000
0.63301862 -0.24224239 -0.00000099
-0.54327228 0.37738059 0.08834459
0.71122000 -0.22021233 -0.00000129
-0.03914101 0.78080127 0.01460055
0.18752509 -0.58558215 -0.00000013
-0.55385900 -0.74826388 -0.00000003
-0.26512210 -0.18572431 -0.00000038
-0.31490452 -0.10727016 -0.00000043
0.13634502 -0.03937294 -0.00000048
0.21630362 0.14657470 -0.00000059
0.57974623 -0.36258925 -0.00000059
0.05944834 0.65945610 -0.00000092
-0.75446136 -0.64621183 0.00000000
0.02362643 0.24438635 -0.00000065
0.45498289 0.12053710 -0.00000113
-0.73746596 0.20287755 0.10276311
0.35177929 -0.47428758 -0.00000020
-0.78139044 -0.43538789 0.00000000
0.00736292 -0.14073694 -0.00000041
0.28476588 0.15000681 0.00000520
0.37767805 0.15898512 -0.00000096
0.11704760 -0.04910169 -0.00000047
0.41318199 0.32680699 -0.00000044
-0.72101276 0.07957295 0.00042935
0.30793480 0.22698730 0.00000337
-0.43041730 0.30198202 -0.00000045
0.14784536 -0.02449215 -0.00000048
0.77307979 -0.11363749 -0.00000169
0.71039078 -0.56027955 -0.00000060
0.52331536 0.20292849 -0.00000151
-0.57241650 0.55732961 0.24144720
-0.63937227 0.59213774 0.31596103
0.07642640 -0.46609820 -0.00000021
0.46596927 -0.08971713 -0.00000076
-0.10843814 0.02754142 -0.00000052
0.42531209 0.16545319 -0.00000112
0.09159119 0.46118832 0.00000312
0.61928328 -0.52827340 -0.00000039
0.50216709 -0.30053882 -0.00000046
0.58376665 -0.71077655 -0.00000006
-0.07663537 0.53914169 -0.00000084
-0.19486788 0.70856958 0.07573799
-0.78049667 -0.53492655 0.00000000
0.16624471 -0.20270205 -0.00000037
0.62556124 0.04808772 0.00000049
-0.37087033 0.53457024 0.07720528
0.49467796 0.11215651 0.00000185
0.43418876 0.09549063 -0.00000102
0.36770528 0.02267527 0.00000590
-0.26619721 0.40099551 -0.00000064
0.21151709 -0.13545921 -0.00000042
0.02582873 -0.63197893 -0.00000011
-0.68951311 -0.43894370 -0.00000004
-0.61527884 0.37494845 0.13928873
0.04577046 0.66955540 0.00000043
0.65547565 0.02524118 -0.00000159
-0.12197684 -0.70809206 -0.00000006
-0.67097059 0.45309902 0.23729112
0.31804486 -0.51913435 -0.00000018
-0.09212424 0.13290756 -0.00000058
-0.33558403 -0.63662758 -0.00000010
-0.56535332 0.14256555 -0.00000028
0.09377729 0.51228125 -0.00000082
0.72105740 -0.04314142 -0.00000166
0.11427146 -0.65419580 -0.00000009
0.17692411 0.31332056 -0.00000070
0.19299495 0.55611148 -0.00000114
0.24487951 0.51892272 -0.00000124
0.72543866 -0.31993311 -0.00000114
-0.39632125 -0.19722646 -0.00000038
-0.58646721 0.11590523 -0.00000025
-0.15474392 -0.31141474 -0.00000031
-0.32718832 0.65852428 0.13598202
0.21353559 0.05969542 -0.00000054
-0.21068184 -0.68880149 -0.00000007
0.13838639 0.49273113 0.00000186
-0.36877512 0.28935761 -0.00000051
-0.50513412 0.51527605 0.16138895
0.55177268 0.14656615 0.00000014
0.76694452 -0.14105790 -0.00000162
0.06677641 0.28286031 -0.00000068
-0.45290346 0.48953334 0.10429498
0.17241325 0.40371201 0.00000280
-0.59568374 0.13054214 -0.00000024
0.06551773 0.06402585 0.00000997
-0.58501836 -0.08816879 -0.00000021
0.18085354 -0.34400747 -0.00000028
-0.67435266 0.34523699 0.16078867
-0.31709718 -0.57708718 -0.00000014
-0.79620840 -0.13386033 0.00000000
0.54505519 -0.02311132 -0.00000114
0.00092336 0.13770609 0.00000975
-0.37387696 0.32420619 -0.00000051
-0.41616051 -0.63628889 -0.00000010
-0.08703653 0.01495301 -0.00000051
-0.03811825 0.40174879 -0.00000075
-0.71552168 -0.29128019 -0.00000004
0.32262487 -0.31802778 -0.00000030
-0.54431232 0.28524725 0.02164410
-0.39661225 0.18393976 -0.00000046
0.17710943 0.58956942 -0.00000116
-0.49355547 0.12865056 -0.00000035
-0.26061083 -0.30806118 -0.00000031
-0.27356088 0.74947024 0.16330719
-0.42364349 -0.66691378 -0.00000008
-0.16732574 0.57809831 -0.00000078
0.48917927 0.01379735 -0.00000103
-0.46433101 -0.60515023 -0.00000012
-0.03431423 0.37942840 -0.00000074
0.48728564 -0.61595341 -0.00000012
-0.14241434 -0.43744685 -0.00000023
0.70173301 -0.40881053 -0.00000089
0.00785195 -0.35951374 -0.00000028
0.64119759 0.10568018 -0.00000085
-0.71075175 0.21439012 0.09163205
0.09064002 0.33763273 -0.00000071
-0.79582703 -0.22074434 0.00000000
-0.72178811 -0.40081760 -0.00000001
0.49115925 0.12646620 0.00000166
0.17973265 0.46085813 0.00000164
0.26281901 0.30694419 -0.00000088
-0.65282084 -0.42068494 -0.00000008
-0.59339119 -0.33054602 -0.00000016
-0.23409228 0.55798899 -0.00000071
-0.39550222 0.10337409 -0.00000045
0.47916110 0.01897293 -0.00000101
-0.00267883 -0.13904553 -0.00000041
0.03061577 0.25606648 0.00000738
0.08522876 0.06536174 0.00000965
-0.52103104 0.00251983 -0.00000030
-0.55837831 -0.20979206 -0.00000022
0.60643190 -0.43979861 -0.00000052
-0.15875681 0.40632211 -0.00000075
0.04048000 0.07833361 -0.00000055
-0.53787138 0.15286762 -0.00000031
0.39218553 0.37842919 -0.00000096
0.24528934 0.53839132 -0.00000127
0.35151810 -0.30821445 -0.00000031
0.40171582 -0.06136871 -0.00000061
0.34435763 -0.27433122 -0.00000033
-0.11203713 -0.57753990 -0.00000014
0.15591442 -0.50161361 -0.00000019
-0.60718527 0.44003100 0.18101727
0.14144323 -0.01818386 -0.00000049
0.12137649 0.63302320 -0.00000033
0.15525651 -0.75024449 -0.00000003
-0.64743567 0.57393263 0.30853510
0.01819879 0.26890971 -0.00000067
-0.34159855 -0.17369274 -0.00000039
0.76696364 -0.35397839 -0.00000112
-0.01702309 -0.35749251 -0.00000028
-0.51884414 -0.38061597 -0.00000023
0.03966897 -0.77447062 -0.00000002
0.24647662 0.29104235 0.00000340
0.68645565 0.03002525 -0.00000170
0.69830887 -0.30794140 -0.00000107
-0.47332688 0.06204729 -0.00000036
-0.72948081 -0.34261702 -0.00000001
-0.27415026 0.18841556 -0.00000060
0.14316167 0.57179766 -0.00000101
-0.26270692 0.70309203 0.12140060
0.58878154 -0.27801006 -0.00000078
-0.23123780 -0.72552436 -0.00000005
0.19622670 -0.65780124 -0.00000009
-0.08474794 0.42748955 -0.00000077
0.28849408 0.40927506 -0.00000116
0.27616858 -0.75238644 -0.00000003
0.02441979 -0.23710817 -0.00000035
0.40919066 -0.30983322 -0.00000031
-0.64940288 0.45043121 0.21954530
0.61299857 -0.31848488 -0.00000078
0.47485515 -0.36213338 -0.00000027
-0.28122368 0.33483845 -0.00000061
0.79982231 -0.05444032 -0.00000186
-0.02228496 0.47985554 -0.00000080
0.07329768 -0.51952172 -0.00000018
0.02216807 0.62350122 -0.00000089
-0.05903388 0.40907317 -0.00000076
-0.25168112 0.69507877 0.10745977
-0.01837944 0.05332051 -0.00000053
0.51050984 0.06058645 0.00000247
-0.24528354 0.58572802 0.02270635
0.24877625 0.08774590 0.00000682
0.33231883 0.11709789 0.00000488
-0.08570647 0.70543812 -0.00000089
-0.27712041 -0.35697122 -0.00000028
0.48618119 0.29377154 -0.00000125
-0.68051692 -0.24948882 -0.00000008
0.60135791 -0.77529170 -0.00000002
-0.05060196 -0.45139906 -0.00000022
0.02334923 0.74101294 -0.00000096
-0.02004968 0.65749930 -0.00000091
-0.71544953 -0.64228283 0.00000000
0.48104425 -0.69085591 -0.00000007
-0.08214604 0.29531534 -0.00000068
0.53273589 -0.30395903 -0.00000055
0.38611380 -0.53664805 -0.00000016
0.10036895 -0.30518474 -0.00000031
0.79596919 -0.50379276 -0.00000074
-0.04692020 0.73152990 -0.00000094
-0.18838950 -0.77060389 -0.00000002
0.12973102 -0.58302479 -0.00000014
-0.17570475 0.21949273 -0.00000064
-0.19554413 -0.25761752 -0.00000034
0.40485295 -0.16118525 -0.00000042
-0.19655972 -0.06067503 -0.00000046
0.66243536 -0.77779017 -0.00000004
0.35290096 -0.58340961 -0.00000014
0.40098560 -0.70449251 -0.00000006
0.07218593 0.18688410 -0.00000062
0.38338671 0.12516692 -0.00000091
-0.29400296 0.30865549 -0.00000060
-0.73944470 -0.72706547 0.00000000
-0.27419626 -0.29088507 -0.00000032
0.36699471 0.15713770 -0.00000092
-0.12160679 -0.62962808 -0.00000011
0.11084819 0.18688920 -0.00000062
0.12538393 -0.76401601 -0.00000002
-0.21882561 -0.23206011 -0.00000035
-0.78837376 -0.12635196 0.00000000
-0.75238305 -0.48209336 0.00000000
0.01155098 -0.70702615 -0.00000006
0.13385341 -0.20531254 -0.00000037
-0.74839803 -0.44808809 0.00000000
-0.59821606 0.59878500 0.29069273
-0.21099999 0.19761407 -0.00000062
-0.02547946 -0.39354528 -0.00000025
-0.16944979 0.19271979 -0.00000062
0.43212561 0.11497677 -0.00000105
-0.66979582 0.03113074 -0.00000014
0.24779510 0.33289868 -0.00000088
-0.73356324 -0.21678430 -0.00000003
0.03359277 0.18433810 -0.00000062
0.01197911 0.37304917 0.00000576
0.33010477 0.22374853 0.00000301
-0.65587222 -0.29936514 -0.00000010
0.30302885 0.02408191 -0.00000052
-0.10648373 -0.33385239 -0.00000029
0.24123913 -0.22649116 -0.00000036
-0.21592026 0.15932165 -0.00000060
0.03206358 -0.41553022 -0.00000024
-0.53150623 -0.53306279 -0.00000017
-0.69237787 0.34600874 0.17455227
-0.67054150 0.48131992 0.25764085
-0.47580948 -0.21226160 -0.00000031
0.21380877 0.09379119 -0.00000056
-0.52238614 -0.09355515 -0.00000028
0.31337229 -0.23889320 -0.00000035
-0.19231458 0.23240635 -0.00000065
0.33216705 -0.19425070 -0.00000038
0.38169879 0.00781968 -0.00000068
0.48011065 0.14679950 0.00000151
-0.13768187 -0.77316254 -0.00000002
-0.31192222 -0.03180816 -0.00000048
-0.29611885 0.54294155 0.02860005
0.12766682 -0.67406028 -0.00000008
0.17721901 0.25963106 -0.00000066
0.62101037 0.09682901 -0.00000030
0.71088728 -0.77009860 -0.00000007
-0.35465382 0.07592035 -0.00000049
-0.40746694 0.62473674 0.17002404
0.25330624 0.52960607 -0.00000128
-0.03595880 -0.53488814 -0.00000017
0.32216976 -0.32698367 -0.00000030
-0.47684457 0.05494743 -0.00000035
-0.23252933 -0.60791838 -0.00000012
0.29069498 0.13733494 0.00000532
0.33372752 0.10168409 -0.00000071
-0.69469970 -0.16631972 -0.00000008
-0.63493889 0.28607725 0.08861087
0.22725878 -0.79100608 -0.00000001
0.06174328 0.14538037 0.00000871
-0.44446661 0.17899796 -0.00000041
-0.74897347 -0.32901247 0.00000000
-0.15892782 0.76558246 0.09116781
-0.52477084 0.16110696 -0.00000032
0.28071234 -0.75690136 -0.00000003
-0.57627504 0.16834347 -0.00000027
-0.41556818 0.02167368 -0.00000041
-0.00994315 -0.72785756 -0.00000005
0.10722947 -0.72868365 -0.00000004
0.37682740 0.35965284 -0.00000033
-0.23799906 0.53381884 -0.00000070
0.19419487 -0.46619809 -0.00000021
0.25049125 -0.45078838 -0.00000022
0.04508823 0.01666749 0.00001105
-0.17827628 -0.52191002 -0.00000017
0.30548531 -0.56254192 -0.00000015
0.36682195 -0.57251832 -0.00000014
-0.35256433 -0.73933645 -0.00000004
0.44302660 -0.52523021 -0.00000017
0.27022915 -0.01529793 -0.00000049
-0.29093348 0.26001325 -0.00000059
-0.47323154 0.41067127 0.06143518
0.77526845 -0.32177677 -0.00000120
-0.64852784 0.50334652 0.25765024
-0.09947284 -0.58141336 -0.00000014
0.26990783 0.16789278 0.00000517
0.71367367 -0.03497760 -0.00000166
-0.48628372 -0.28331701 -0.00000028
-0.49563332 0.63608886 0.24289382
0.29142487 0.22315239 0.00000376
-0.57798699 0.14401459 -0.00000026
-0.28555224 0.05101092 -0.00000053
0.29691869 -0.17807390 -0.00000039
0.06183774 0.33031168 -0.00000071
-0.13069102 0.69538133 0.01908940
-0.61740590 0.54714693 0.26693355
0.25199113 -0.53563471 -0.00000017
0.35764517 -0.60273975 -0.00000012
0.32390628 -0.22597071 -0.00000036
0.33869689 -0.55853440 -0.00000015
-0.56537651 -0.79479220 -0.00000000
0.22876644 -0.63060196 -0.00000011
-0.68570020 0.19094211 0.05611954
-0.38996175 0.19129538 -0.00000047
-0.48268431 0.54718226 0.16831304
0.26624618 -0.19982799 -0.00000038
0.31692243 0.16139169 -0.00000077
0.30807885 0.38795916 -0.00000118
-0.29462913 0.06250766 -0.00000054
-0.45742483 0.01800918 -0.00000037
0.69419454 -0.26463035 -0.00000115
-0.52873636 0.44057333 0.12397213
0.75286714 -0.27178431 -0.00000132
0.00901298 0.15504181 -0.00000060
0.67833151 0.09598008 -0.00000139
-0.53896888 0.37713875 0.08501646
0.34298616 -0.26299275 -0.00000034
0.00990785 0.71735784 0.00000019
-0.48675888 0.21733720 -0.00000037
-0.31848328 0.14458198 -0.00000054
0.25467445 -0.30570139 -0.00000031
-0.69669455 -0.58088917 -0.00000000
-0.62073745 -0.75485799 -0.00000003
-0.20516252 -0.23294990 -0.00000035
0.43349358 0.00392308 -0.00000083
-0.20366130 0.55442814 -0.00000074
-0.53346519 -0.05197751 -0.00000027
0.16898693 0.36300522 0.00000355
0.23053834 0.18430748 -0.00000062
-0.47482777 0.41340592 0.06460635
0.54118838 -0.78930074 -0.00000001
0.68128119 -0.78192297 -0.00000005
0.63343716 0.04113629 -0.00000155
0.10986967 0.14722554 0.00000795
-0.40268834 -0.10030142 -0.00000041
0.42102620 0.17426593 -0.00000113
-0.37245482 0.17003099 -0.00000049
0.08956411 0.39622855 0.00000421
0.74057152 -0.44423944 -0.00000089
-0.28094981 0.33763895 -0.00000062
-0.73628157 -0.79815921 0.00000000
-0.21155522 0.41015877 -0.00000070
0.25082278 0.48911910 -0.00000024
0.10377380 0.34990866 -0.00000072
0.11619821 0.65039939 -0.00000108
-0.19342030 0.63551730 0.02118760
0.01759124 -0.08227975 -0.00000045
-0.48623963 -0.53198230 -0.00000017
-0.69125529 -0.09023405 -0.00000010
-0.03990602 -0.15088266 -0.00000041
0.16849883 0.17710194 0.00000658
-0.48401196 0.00680201 -0.00000034
-0.00390865 -0.53883006 -0.00000016
0.01226862 0.34763830 0.00000617
0.22481238 0.40660597 -0.00000095
-0.75805407 0.04120995 -0.00000005
0.03004393 0.51239321 -0.00000082
-0.33361118 -0.19709838 -0.00000038
0.76025473 -0.70117268 -0.00000025
-0.08854649 -0.78561099 -0.00000001
0.31334766 0.15903392 -0.00000075
0.03883024 -0.45401292 -0.00000022
0.48454022 0.15121031 -0.00000129
0.22041864 -0.41479369 -0.00000024
0.17928422 -0.11392620 -0.00000043
0.10357778 0.66103908 -0.00000106
-0.51501703 0.43475106 0.10966331
-0.58650158 -0.41976960 -0.00000015
0.10893064 0.11660707 -0.00000057
-0.24521483 -0.51144529 -0.00000018
0.53026393 0.21247505 -0.00000063
-0.59998504 0.26224142 0.04556368
0.11315750 -0.44405213 -0.00000022
0.20850496 0.04913811 -0.00000053
-0.70235242 0.52929710 0.31606343
0.44868318 -0.79388432 -0.00000000
-0.07914984 -0.41821028 -0.00000024
-0.64146686 0.26616991 0.07881422
0.19715828 -0.79817724 -0.00000000
0.57333783 -0.65100373 -0.00000009
-0.49509204 -0.29796653 -0.00000027
-0.36098580 0.32270002 -0.00000053
-0.15891206 0.65057090 0.00694238
0.50750080 0.25399580 -0.00000094
0.53541122 -0.64550690 -0.00000010
-0.06575017 0.27542477 -0.00000067
-0.45088429 -0.27594553 -0.00000032
-0.73267125 0.09888822 0.02310905
0.78793156 -0.72038360 -0.00000020
-0.38409370 0.66123574 0.17963489
0.73297987 -0.05885329 -0.00000167
0.76016680 -0.50009880 -0.00000075
-0.55647319 -0.20134776 -0.00000022
-0.33560777 -0.54134397 -0.00000016
0.48753202 -0.23266436 -0.00000055
-0.78071416 -0.65672599 0.00000000
0.32603419 0.39878930 -0.00000126
-0.32318189 0.71137301 0.17174533
-0.01124028 0.72413034 -0.00000095
-0.08908102 0.78300919 0.05278451
-0.76256395 -0.16217487 -0.00000001
-0.59629679 -0.74435863 -0.00000003
0.05471963 0.54000053 -0.00000084
-0.44461290 -0.57867452 -0.00000014
-0.62431468 0.26086400 0.06236987
0.03771520 -0.33583597 -0.00000029
-0.46092103 0.07630410 -0.00000038
-0.33492317 0.20378102 -0.00000053
-0.21352900 0.65399271 0.04943979
-0.79927424 -0.32352039 0.00000000
0.10989443 -0.23200261 -0.00000035
0.67774746 -0.16552008 -0.00000129
-0.47097966 0.69616255 0.26882900
-0.38235518 -0.59319472 -0.00000013
-0.62314994 0.22660417 0.03643123
0.49362195 0.28211425 -0.00000157
-0.44654678 -0.37758493 -0.00000026
-0.02779538 0.79486559 0.01659118
0.42930881 -0.11975443 -0.00000058
0.26396899 0.11294182 0.00000618
0.07878274 -0.38318607 -0.00000026
0.14396175 -0.30125974 -0.00000031
-0.33551734 -0.02991291 -0.00000048
-0.13574593 -0.38082227 -0.00000026
-0.26612944 0.34632222 -0.00000063
0.15393483 -0.79275432 -0.00000000
0.58672493 0.03699027 0.00000143
0.00708040 0.79040541 -0.00000100
0.00067599 0.69235135 0.00000074
-0.55517241 -0.73360898 -0.00000004
0.25736235 0.21559449 -0.00000068
-0.66111874 0.05992343 -0.00000016
0.21580515 -0.44519635 -0.00000022
-0.08954697 0.52780320 -0.00000083
0.75985900 -0.15136136 -0.00000158
0.27475510 0.17271307 -0.00000066
-0.14508260 -0.45924943 -0.00000021
-0.14775071 -0.21933545 -0.00000036
-0.18637108 0.58624526 -0.00000076
-0.56376679 -0.53217402 -0.00000015
0.28603843 -0.54393800 -0.00000016
-0.25724654 0.28748904 -0.00000063
-0.75563023 0.16168823 0.08590372
0.36198586 0.41921095 -0.00000142
0.23088146 0.31602248 -0.00000079
0.43819859 -0.32738678 -0.00000030
0.00331598 0.37749172 0.00000582
-0.21716427 -0.11411864 -0.00000043
0.04996302 -0.01430467 -0.00000049
0.14938598 -0.45692440 -0.00000021
0.00865960 0.05218309 -0.00000053
-0.33373252 -0.78164013 -0.00000001
0.00581768 -0.62562701 -0.00000011
0.48264819 -0.58540480 -0.00000013
-0.70973493 0.09193221 0.00122117
-0.54175839 -0.63686662 -0.00000010
0.32273050 0.46296230 -0.00000138
0.42605743 0.35476513 -0.00000150
-0.23507672 0.42153504 -0.00000068
0.16337421 0.12374355 -0.00000058
0.65757148 -0.12193484 -0.00000131
0.04339191 0.72589402 -0.00000099
0.55860383 -0.44067422 -0.00000037
0.50614676 -0.69275683 -0.00000007
0.73362932 0.01288251 -0.00000096
-0.30656525 -0.63022145 -0.00000011
0.02202811 0.54684701 0.00000278
-0.55933342 0.39164689 0.11055106
0.03508146 0.53847975 0.00000272
0.75475581 -0.13491623 -0.00000159
-0.60726490 -0.30218800 -0.00000015
0.01684874 0.33734320 -0.00000071
-0.31309118 0.54371327 0.04159268
-0.55456657 0.36039932 0.08418050
-0.14833696 -0.24555948 -0.00000035
-0.03680144 0.53985307 -0.00000084
-0.68359922 0.50314696 0.28318422
-0.26495942 0.55644516 0.01567198
-0.41893028 -0.34218805 -0.00000029
-0.34814803 0.71761391 0.19459584
0.57782910 -0.17293481 -0.00000095
0.47847744 -0.21145542 -0.00000056
-0.74578252 0.23724011 0.13401372
-0.25551894 0.09903866 -0.00000056
0.37888868 0.06246098 0.00000497
-0.56536231 -0.79483647 -0.00000000
0.44523570 -0.53687906 -0.00000016
0.56635331 -0.74378559 -0.00000004
-0.32450957 0.10340625 -0.00000053
0.59626265 -0.02819094 -0.00000129
0.05677603 -0.43002926 -0.00000023
0.40674548 -0.34580826 -0.00000028
0.66678632 0.10723248 -0.00000137
-0.32284020 -0.32910507 -0.00000029
0.10939820 0.20430255 0.00000703
-0.34978167 -0.21764287 -0.00000036
0.21929729 0.23509135 0.00000487
0.14768691 0.14846185 0.00000736
0.35241639 -0.75657382 -0.00000003
-0.47822420 0.38248906 0.04445530
-0.02539036 0.24792506 -0.00000065
-0.20820081 0.55788093 -0.00000073
0.77801851 -0.14652844 -0.00000163
-0.43590095 0.33514263 -0.00000045
0.60474896 -0.70723071 -0.00000006
0.05313459 -0.01408990 -0.00000049
0.20268296 -0.75471258 -0.00000003
-0.50212568 0.31513306 0.01263703
0.63572983 -0.46473661 -0.00000057
0.13124730 0.25972318 0.00000580
0.29237954 0.27726841 0.00000277
-0.21390745 -0.18365125 -0.00000039
0.15728790 0.57858621 -0.00000107
0.02509769 0.50719803 -0.00000082
0.08441533 0.56560200 -0.00000085
-0.50300237 -0.15921385 -0.00000029
-0.12629881 0.04029333 -0.00000053
0.10608073 0.16318771 0.00000775
-0.45640407 -0.43547954 -0.00000023
0.21364156 -0.34505816 -0.00000028
0.26384738 0.50087995 -0.00000070
-0.07944285 -0.69325207 -0.00000007
-0.62576197 -0.38000165 -0.00000012
-0.28124687 0.30498708 -0.00000061
0.07439834 -0.23536232 -0.00000035
-0.79481018 -0.62183854 0.00000000
0.17074188 -0.38690082 -0.00000026
0.25113611 0.35459408 -0.00000093
-0.02813465 -0.54928703 -0.00000016
0.37260215 -0.58581062 -0.00000013
0.14110058 0.62189162 -0.00000051
-0.72204929 0.41002192 0.24315025
-0.28375042 -0.06184952 -0.00000046
-0.70476245 0.42088450 0.23844621
0.76653240 -0.20579055 -0.00000149
-0.02376800 -0.07787945 -0.00000045
0.59491005 0.06975295 -0.00000148
0.66614623 -0.45351903 -0.00000069
0.77237691 0.01820336 -0.00000195
0.28321580 -0.69684116 -0.00000006
-0.11461989 0.62967976 -0.00000085
-0.53842322 0.11994556 -0.00000030
0.08032632 -0.75539785 -0.00000003
0.01325449 0.12772910 0.00000972
0.13803852 -0.26409367 -0.00000033
-0.56630295 0.47795546 0.17885134
0.17976271 -0.22755768 -0.00000036
-0.04487264 0.49786206 -0.00000081
0.28751972 -0.01264922 -0.00000049
0.63963747 -0.13745025 -0.00000122
-0.34862954 0.67563192 0.16420836
0.57401366 -0.37104566 -0.00000055
-0.11434891 0.20780055 -0.00000063
0.50982400 -0.20916393 -0.00000066
-0.31163875 -0.23851558 -0.00000035
0.09282036 0.10952166 -0.00000057
0.09965848 0.15603732 0.00000796
-0.03503206 0.23656892 -0.00000065
-0.36274522 0.19276640 -0.00000050
0.25955359 0.25115610 -0.00000076
0.34953229 0.38368725 -0.00000131
-0.55617902 0.43017357 0.13645140
-0.26804827 -0.44563895 -0.00000022
-0.23098602 -0.43922060 -0.00000023
0.63597424 0.03233289 0.00000057
0.59761315 0.02751207 0.00000139
0.04185428 0.36062127 -0.00000073
-0.58891178 0.38718450 0.12894161
0.71327079 -0.51907981 -0.00000070
0.36189599 0.09056883 0.00000479
0.71228127 0.04664105 -0.00000115
-0.30829381 0.15496978 -0.00000055
-0.60467377 0.46300141 0.19599772
-0.45467972 0.29997926 -0.00000042
0.32899379 0.33382932 0.00000105
-0.37747737 0.73070644 0.22565810
0.04834640 0.55443759 0.00000226
-0.55355285 0.27879637 0.02368677
0.66964976 -0.45545747 -0.00000069
-0.60947605 -0.79036321 -0.00000001
0.30579122 -0.17994474 -0.00000039
-0.71911197 -0.40002762 -0.00000001
0.45532958 -0.62426545 -0.00000011
0.74506718 -0.35353208 -0.00000112
0.00237420 -0.47700143 -0.00000020
0.06254738 0.25108047 0.00000698
-0.73234154 -0.19407386 -0.00000004
-0.15759216 -0.23731745 -0.00000035
-0.64502503 -0.22234199 -0.00000012
0.47215298 0.20906655 0.00000054
-0.44740683 -0.28963720 -0.00000032
-0.48271567 0.04519941 -0.00000035
-0.02158105 -0.74321253 -0.00000004
-0.76360485 -0.51678095 0.00000000
0.39560943 0.01427167 0.00000551
0.28495049 -0.79607856 -0.00000000
-0.24414816 0.67848288 0.08979212
0.22943342 -0.50041173 -0.00000019
-0.33385575 0.52262832 0.04135815
0.52141540 -0.11027847 -0.00000089
-0.05804621 -0.78469901 -0.00000001
-0.41838337 0.54270661 0.11795314
0.43523817 -0.04673695 -0.00000074
0.07245633 0.16604233 0.00000821
0.15545004 0.02046965 -0.00000051
-0.29372459 -0.32415180 -0.00000030
-0.22869106 0.04430017 -0.00000053
0.04577594 0.37384848 -0.00000073
-0.11736339 0.08579669 -0.00000055
-0.41568651 0.48706117 0.07523364
-0.47275076 0.69471283 0.26906432
0.53088170 0.06108512 0.00000207
-0.07121719 -0.10933947 -0.00000043
-0.51270306 0.14397807 -0.00000033
-0.58931327 -0.18184052 -0.00000019
-0.28249090 0.44064593 -0.00000063
-0.70848028 -0.57564081 0.00000000
0.29100660 0.03117045 0.00000710
-0.05944367 0.66141410 -0.00000091
-0.27606621 0.52704382 0.00227634
0.45886955 -0.30387935 -0.00000032
0.40333612 -0.17983337 -0.00000039
-0.17554352 -0.24328893 -0.00000035
-0.58795491 -0.19800976 -0.00000019
0.39454982 0.16663020 0.00000279
-0.72841865 0.28918920 0.15933771
-0.04933625 0.44842258 -0.00000078
0.14427099 0.30073682 -0.00000069
-0.68349323 0.02846827 -0.00000013
-0.70489175 -0.66161165 0.00000000
-0.01039566 0.10526650 -0.00000057
0.16331355 0.15073752 -0.00000059
0.00476531 -0.04830070 -0.00000047
0.44052518 -0.14259251 -0.00000057
-0.06427947 0.35933451 -0.00000072
0.30342636 0.49340312 -0.00000137
-0.08627754 0.58835135 -0.00000087
0.40951242 -0.56222228 -0.00000015
0.31244551 -0.15798308 -0.00000040
-0.70578783 0.13838747 0.03234655
0.35284974 0.26627904 -0.00000109
-0.27140257 0.24937991 -0.00000061
0.78095607 -0.47557758 -0.00000081
0.70946440 -0.51542136 -0.00000070
-0.50839053 0.31772197 0.01911996
0.55012942 -0.70761320 -0.00000006
-0.65055690 -0.28686773 -0.00000011
-0.06454469 0.40459034 -0.00000075
0.54647715 0.03918424 -0.00000126
0.28617342 0.39757783 -0.00000113
0.76666509 -0.11839322 -0.00000166
-0.55683265 0.04498329 -0.00000027
0.11470755 0.09066328 0.00000880
0.22905843 0.33993903 0.00000286
0.21797300 0.44025227 0.00000127
-0.68941840 0.26421876 0.11249686
0.00597584 0.50061265 -0.00000081
0.26163877 -0.55370666 -0.00000015
-0.62273848 -0.49759045 -0.00000010
0.36088227 0.28436213 0.00000133
-0.07414761 -0.65528445 -0.00000009
-0.14056056 -0.01448120 -0.00000049
-0.31469717 -0.14994419 -0.00000041
-0.47890892 0.47140699 0.11006432
-0.02734553 -0.56651246 -0.00000015
0.18744684 0.22321502 -0.00000064
0.45338075 0.17704566 0.00000148
-0.21428854 -0.70013678 -0.00000006
-0.72263575 0.28115847 0.14922306
0.02949458 0.38064360 0.00000537
-0.63668246 0.54567447 0.27997015
0.36565016 -0.75905292 -0.00000003
-0.22291134 -0.47757694 -0.00000020
-0.17284832 0.29485223 -0.00000068
-0.69365904 -0.21680884 -0.00000007
0.15432297 -0.76023770 -0.00000002
0.79982957 -0.76201767 -0.00000009
-0.42496830 -0.06522043 -0.00000039
-0.44241145 -0.76863467 -0.00000002
-0.29632185 -0.15548800 -0.00000040
-0.76964731 -0.71375587 0.00000000
-0.07488191 -0.77253732 -0.00000002
-0.38628009 -0.67075215 -0.00000008
0.17206464 0.38550184 -0.00000074
0.41021563 -0.04667412 -0.00000066
0.02273490 -0.64776678 -0.00000010
0.02913799 0.36164253 -0.00000073
-0.68369939 -0.72025276 0.00000000
-0.64790312 0.64157315 0.35840513
0.73566195 -0.71411193 -0.00000021
0.69029087 -0.44643561 -0.00000078
-0.46306844 0.38153397 0.03265854
0.10291357 0.25468407 -0.00000066
-0.24254637 0.51749242 -0.00000069
0.04488182 0.42567699 0.00000441
0.61103108 -0.67266226 -0.00000008
-0.46898640 -0.79060219 -0.00000001
-0.14038659 0.56390375 -0.00000081
0.15424674 0.31345856 -0.00000070
-0.36027079 0.70373737 0.19331174
-0.71125185 -0.26588156 -0.00000005
-0.53446038 0.43255196 0.12228999
0.42891112 -0.20658769 -0.00000041
0.27556123 -0.47722909 -0.00000020
-0.54590845 -0.68088256 -0.00000007
-0.66805992 -0.70166082 -0.00000001
0.42672304 -0.57350821 -0.00000014
-0.68135225 0.39561506 0.20280187
-0.19010219 0.19309034 -0.00000062
0.32326388 0.06608611 0.00000597
-0.21443966 0.40406508 -0.00000070
0.03639499 0.74497073 -0.00000101
-0.42783883 -0.64854806 -0.00000009
-0.48052027 -0.16421280 -0.00000031
0.18538324 0.08425040 0.00000783
0.63855782 0.03505786 -0.00000155
0.50172979 0.12586520 0.00000147
0.24910702 -0.63505398 -0.00000010
0.04914830 0.55922506 0.00000217
-0.06587086 0.06384725 -0.00000054
0.08566275 0.67330255 -0.00000037
-0.15934922 0.68994335 0.03609185
0.46225800 -0.74303168 -0.00000004
-0.48634590 0.12918349 -0.00000036
0.16222314 -0.67312876 -0.00000008
-0.03749285 -0.00872236 -0.00000049
-0.44374462 0.64285331 0.20985274
-0.65435464 -0.01450680 -0.00000015
-0.36575267 0.69769883 0.19290416
0.08986317 0.23564797 0.00000681
0.50707191 0.09723012 0.00000188
-0.24338606 0.61319855 0.04143149
0.30259912 0.15847813 0.00000471
-0.20768067 0.02835496 -0.00000052
-0.62418195 0.34849682 0.12643934
-0.65999608 -0.63287999 -0.00000003
0.16768006 0.40601186 -0.00000077
0.26102822 0.29285644 0.00000309
-0.72142551 -0.62684646 0.00000000
0.09360848 0.41950338 -0.00000076
-0.56377498 -0.56087554 -0.00000015
0.06227216 0.56483892 -0.00000085
-0.43260616 0.68366316 0.23157869
0.68713012 -0.78235074 -0.00000004
0.21149086 -0.08531448 -0.00000045
0.31075151 0.41310757 -0.00000002
0.48015631 -0.34072568 -0.00000031
0.38593691 -0.45194296 -0.00000022
0.09489052 -0.01452865 -0.00000049
-0.25679643 -0.00661249 -0.00000050
0.10250090 0.52245812 -0.00000083
0.46743286 0.28216808 -0.00000149
0.57103564 -0.26187841 -0.00000076
-0.42024082 0.62539556 0.17985978
-0.40133186 0.63209150 0.17091708
-0.14051076 -0.00417095 -0.00000050
-0.35540905 -0.75822570 -0.00000003
-0.08402774 0.65490411 -0.00000088
0.64989672 -0.75761752 -0.00000004
0.50701504 -0.13974806 -0.00000079
-0.37733134 0.69991185 0.20300276
-0.45443733 0.70111653 0.26034371
-0.02029598 -0.62833991 -0.00000011
0.32749245 0.32739520 0.00000120
-0.08145403 -0.61144538 -0.00000012
-0.49747121 0.62443570 0.23570689
0.42080616 0.02862786 -0.00000084
-0.76776603 -0.21326240 0.00000000
-0.44150336 -0.68685583 -0.00000007
-0.08195439 -0.44558038 -0.00000022
0.18704861 0.07458721 0.00000797
0.03621291 0.65699424 -0.00000091
0.00159401 0.47904517 0.00000419
0.40431583 0.35825085 -0.00000143
0.54009568 -0.21094235 -0.00000076
0.03488503 -0.44020654 -0.00000022
-0.31627313 -0.01960300 -0.00000049
0.36640151 -0.39108896 -0.00000026
0.56428304 -0.70852187 -0.00000006
0.09633058 0.45633086 0.00000313
0.29474537 -0.21104757 -0.00000037
-0.48144174 0.46990704 0.11082062
-0.41090655 -0.47233692 -0.00000020
-0.42921210 0.70909587 0.24771582
-0.21729616 -0.40515886 -0.00000025
-0.49611047 -0.77531028 -0.00000002
0.21499527 0.47381133 0.00000073
0.65414844 0.10180775 -0.00000173
0.67145005 -0.59015020 -0.00000044
0.59830951 -0.01876453 -0.00000132
0.76164240 -0.57290461 -0.00000057
-0.51114585 -0.75403939 -0.00000003
-0.15438335 -0.30145207 -0.00000031
-0.38429568 -0.31291997 -0.00000030
0.31298110 -0.18264056 -0.00000039
-0.71267170 -0.77987542 0.00000000
-0.08332577 0.30100978 -0.00000069
-0.43328108 -0.60281853 -0.00000012
0.65901241 -0.44883714 -0.00000067
-0.58311009 -0.37643862 -0.00000016
0.10130117 -0.22109444 -0.00000036
0.52291412 -0.47180634 -0.00000021
0.53342391 -0.07993658 -0.00000099
0.48783940 0.23356784 -0.00000146
-0.78980285 0.03748205 0.01997929
0.14506006 -0.02642406 -0.00000048
-0.14512741 -0.17393318 -0.00000039
0.67497658 0.10571975 -0.00000150
-0.09880871 0.59309314 -0.00000086
-0.74747571 -0.34939840 0.00000000
-0.50753014 -0.69553490 -0.00000007
-0.65481730 -0.69536960 -0.00000003
0.00379038 0.46076830 -0.00000079
0.04541390 0.03498337 0.00001075
-0.44929514 0.66816993 0.23245430
-0.22433052 0.46854170 -0.00000070
0.19028761 0.08554026 -0.00000055
0.19022114 -0.57618602 -0.00000014
-0.01709936 -0.33622744 -0.00000029
-0.56243251 0.01052938 -0.00000026
-0.69587742 -0.21879519 -0.00000007
-0.01097445 -0.45511841 -0.00000022
0.63989627 -0.71045221 -0.00000010
-0.21044067 -0.65307137 -0.00000009
-0.56714748 0.52255166 0.21212398
-0.36829774 -0.32134258 -0.00000030
-0.28960025 -0.35800695 -0.00000028
-0.47759321 0.04249012 -0.00000035
0.30241947 0.27941418 0.00000254
-0.68050521 0.17755513 0.04251340
-0.21532397 -0.61401415 -0.00000012
0.27399895 -0.56617175 -0.00000015
-0.13531502 -0.36992116 -0.00000027
-0.11785675 0.27796559 -0.00000067
-0.76867553 -0.59216568 0.00000000
0.68984114 -0.17495588 -0.00000131
-0.62162901 -0.24611461 -0.00000015
0.53314368 -0.38536299 -0.00000039
0.70148771 -0.39158900 -0.00000092
0.01216071 -0.03983777 -0.00000048
0.38708983 -0.59798449 -0.00000013
-0.53063374 -0.43520837 -0.00000021
0.15824102 -0.66755526 -0.00000008
0.60945088 -0.22722879 -0.00000095
-0.29237565 -0.39225302 -0.00000025
-0.49611832 -0.76654440 -0.00000002
-0.26105878 -0.01280560 -0.00000049
-0.63868520 -0.37177859 -0.00000010
0.41307111 -0.41663505 -0.00000024
0.46209763 0.19669688 -0.00000130
0.03860998 0.52296322 -0.00000083
0.31871934 0.46934242 -0.00000118
0.23476970 0.03465793 0.00000789
-0.38464907 0.39193104 -0.00000051
-0.14263656 0.68589254 0.02088833
-0.08900548 -0.25381802 -0.00000034
-0.66302021 0.66901750 0.38956954
0.40610427 0.30987982 0.00000000
0.44467924 0.22328450 -0.00000130
0.36878876 0.06619239 -0.00000075
0.47795189 -0.46157268 -0.00000021
0.12976685 -0.38209114 -0.00000026
0.53316599 0.26134526 -0.00000157
-0.21893640 0.13497727 -0.00000058
-0.51413740 -0.22360043 -0.00000026
0.45035906 -0.71018029 -0.00000006
-0.14916024 -0.36566873 -0.00000027
0.29640672 0.02381967 -0.00000051
-0.43771496 -0.36631665 -0.00000027
-0.14028827 -0.73216843 -0.00000004
-0.31495308 0.04122011 -0.00000053
-0.28626519 0.54662971 0.02408551
-0.06598523 0.14294421 -0.00000059
0.27801318 -0.72075434 -0.00000005
0.26650374 0.34427710 0.00000206
-0.16773031 -0.55212631 -0.00000015
0.43147090 0.19172463 0.00000164
0.57056964 0.09954393 -0.00000146
-0.60517210 -0.30195561 -0.00000015
-0.76226181 -0.25478636 0.00000000
-0.00720955 -0.61768230 -0.00000011
-0.11663356 -0.26481561 -0.00000033
-0.36059437 0.54031090 0.07388441
-0.61819160 0.22009617 0.02803531
-0.17264863 0.45031835 -0.00000075
-0.11933273 0.02579321 -0.00000052
0.07556936 -0.04006196 -0.00000047
0.40454476 -0.56727830 -0.00000015
0.09891393 0.58608440 0.00000094
-0.41215193 0.60237408 0.15708010
-0.20282295 -0.59362830 -0.00000013
-0.19323104 0.39295477 -0.00000072
0.64924638 0.02526046 -0.00000157
-0.66366700 0.40932351 0.19988991
-0.26002238 0.08494513 -0.00000055
0.11343084 0.16860035 0.00000755
-0.00673869 0.31467971 -0.00000070
0.36679237 -0.36857855 -0.00000027
-0.46665290 -0.66414116 -0.00000008
-0.46908280 0.55981797 0.16760581
0.24482071 0.38071888 0.00000183
0.00515374 -0.27778332 -0.00000033
-0.49044813 -0.18163071 -0.00000030
0.20838093 0.37410244 0.00000264
-0.45153040 -0.08548256 -0.00000036
-0.43895258 -0.61153238 -0.00000012
0.34415433 0.14492105 0.00000415
-0.19797739 -0.62995638 -0.00000011
-0.32579894 0.53817697 0.04684382
-0.20482865 0.52039541 -0.00000073
-0.72503058 -0.67721038 0.00000000
-0.24415663 -0.01944912 -0.00000049
0.58502485 -0.02516262 -0.00000126
0.25062729 0.50444130 -0.00000051
0.08869466 0.19377913 -0.00000062
0.33996114 -0.08998883 -0.00000044
-0.24707110 0.12511596 -0.00000058
-0.37289436 0.26419712 -0.00000050
0.00690783 -0.24791865 -0.00000035
-0.64285249 -0.78771317 -0.00000001
-0.71920607 -0.62437859 0.00000000
0.46086357 -0.22351462 -0.00000048
-0.31238552 0.48440611 -0.00000061
0.31816380 -0.49737004 -0.00000019
-0.45129635 -0.53393471 -0.00000017
0.65548438 -0.52078341 -0.00000052
0.45265042 0.18126246 0.00000142
0.00708331 0.38483091 -0.00000074
-0.66366588 0.56961113 0.31725496
0.26890341 0.27624770 0.00000324
-0.63366882 0.66434322 0.36465514
-0.41151791 0.18792148 -0.00000045
-0.19834405 0.59427707 -0.00000075
-0.36799969 -0.58963003 -0.00000013
0.12809472 0.20706060 0.00000670
-0.26197345 -0.69350894 -0.00000007
-0.25071693 0.41940764 -0.00000066
-0.41407980 -0.20107472 -0.00000037
-0.00466392 -0.07051789 -0.00000046
0.33733515 0.42724830 -0.00000079
0.79570641 -0.75350311 -0.00000012
-0.75710179 -0.25785671 0.00000000
0.03220250 0.42281974 -0.00000076
-0.49685105 0.25895999 -0.00000037
0.02141167 0.77767897 -0.00000101
0.64387292 -0.28568991 -0.00000094
-0.06205438 0.70299035 -0.00000092
0.05484585 0.42807734 0.00000422
0.35124751 0.23922645 -0.00000103
0.35001360 -0.41588055 -0.00000024
0.42834468 0.35118899 -0.00000117
0.40184414 0.09723401 -0.00000092
0.13359886 0.57912630 -0.00000100
0.55962380 -0.23952320 -0.00000076
-0.44995040 0.67440710 0.23750108
0.61273787 0.10449157 -0.00000160
0.30021547 0.44200320 -0.00000126
0.00322275 0.48849026 -0.00000081
-0.56109683 -0.12541772 -0.00000023
-0.49252441 0.45131307 0.10532072
-0.22109215 -0.39033356 -0.00000026
-0.31324978 0.56510873 0.05737504
0.63352633 -0.38172414 -0.00000072
0.51182056 0.07582516 -0.00000123
-0.60834875 -0.39397770 -0.00000013
0.44849001 -0.51860730 -0.00000018
-0.30209131 0.19169589 -0.00000057
0.37081435 0.25822006 0.00000161
-0.16270189 0.04854335 -0.00000053
-0.04029150 0.59416089 -0.00000087
0.42819016 0.00812215 -0.00000083
0.38758216 -0.41905223 -0.00000024
-0.09511612 0.53835985 -0.00000084
0.14575455 0.31935175 -0.00000070
-0.23730486 -0.73777369 -0.00000004
0.71497288 -0.14979603 -0.00000144
0.19976566 -0.60702131 -0.00000012
0.03729920 0.19709258 0.00000823
0.78077361 -0.20529892 -0.00000149
-0.57814223 -0.02066654 -0.00000023
-0.47561608 -0.25881641 -0.00000030
0.47955634 -0.35823231 -0.00000028
0.41769447 0.34316922 -0.00000145
-0.61053211 0.03669115 -0.00000021
-0.13275424 -0.77872923 -0.00000001
-0.42066309 -0.31564368 -0.00000030
-0.56156505 0.50015763 0.19163902
0.74370075 -0.19152546 -0.00000145
-0.59194518 0.18942248 -0.00000026
0.56492028 0.04081723 -0.00000133
0.37337273 -0.66333938 -0.00000009
0.74320692 -0.44904169 -0.00000088
0.28264740 -0.44955510 -0.00000022
0.16047093 0.22220766 -0.00000064
0.30976001 -0.54830789 -0.00000016
-0.70386972 0.03988639 -0.00000011
-0.75866704 -0.50058553 0.00000000
0.68249341 0.07234692 -0.00000104
-0.53189440 0.56047974 0.21408253
0.33605155 0.04451823 0.00000611
-0.29300496 -0.47247806 -0.00000020
0.24190021 -0.50282703 -0.00000019
-0.44419571 0.17049699 -0.00000041
0.33940409 0.38098701 -0.00000127
0.23681297 -0.03930983 -0.00000048
-0.33818480 0.57241813 0.08098518
0.10281729 0.50498310 -0.00000082
-0.40734155 0.42733842 0.02539294
0.16518538 0.12408754 -0.00000058
0.13083267 0.58861402 0.00000028
0.17171923 0.12468561 -0.00000058
-0.24517798 -0.52187035 -0.00000017
0.08934566 0.00598849 0.00001055
-0.35497166 -0.58130151 -0.00000014
-0.37641567 0.57800567 0.11307009
0.66443743 -0.56617413 -0.00000046
0.47246760 0.14500550 -0.00000123
0.77231882 -0.76180860 -0.00000010
0.11970211 0.51568716 -0.00000083
0.26913114 0.23627959 0.00000395
0.55722554 -0.79147901 -0.00000001
-0.17615662 -0.36230916 -0.00000027
-0.79600263 -0.29739325 0.00000000
-0.19342608 0.74523956 0.10153278
0.34516072 -0.10902584 -0.00000043
0.71356503 -0.70935847 -0.00000023
-0.36716028 -0.63095217 -0.00000011
-0.72936107 -0.72055394 0.00000000
0.07896489 0.22898626 0.00000709
-0.62635993 0.30713743 0.09774987
0.65232719 -0.63641682 -0.00000029
-0.77164540 -0.03166535 -0.00000002
-0.43716349 0.44103371 0.05725730
0.11140935 0.44316656 -0.00000078
0.18906938 0.19483370 -0.00000062
0.44767473 0.26029206 0.00000009
0.38282181 0.08234859 -0.00000083
-0.66160061 0.60969994 0.34509655
-0.44042173 0.20025311 -0.00000042
-0.10382379 -0.03638209 -0.00000048
0.65197423 -0.57180364 -0.00000041
0.17957123 0.12183469 0.00000731
0.14926014 -0.69882930 -0.00000006
-0.02345635 0.56763483 -0.00000085
-0.35924827 0.45583805 0.01104590
-0.70190655 -0.35896562 -0.00000004
-0.18783153 -0.17735556 -0.00000039
0.41061495 0.08944525 0.00000387
-0.33453217 0.70021476 0.17188597
0.00819953 0.37966858 0.00000571
-0.35974151 -0.72212001 -0.00000005
0.14899831 0.57921594 -0.00000105
0.69234576 -0.76903957 -0.00000008
0.51943679 -0.47485514 -0.00000020
-0.78911249 -0.41435898 0.00000000
0.41068273 0.04079457 -0.00000083
-0.64993763 -0.77266318 -0.00000002
0.13197807 -0.71950698 -0.00000005
-0.19848799 0.67277924 0.05218229
-0.28409515 0.23856827 -0.00000059
0.00116489 0.65348349 -0.00000091
-0.30483459 -0.56336587 -0.00000015
0.44561038 -0.64411072 -0.00000010
0.11954785 0.24671954 -0.00000065
-0.66511094 0.21051711 0.05537682
-0.10781612 -0.11418282 -0.00000043
-0.28494935 -0.09957376 -0.00000044
0.60384539 0.01777371 0.00000145
0.70301770 -0.50851055 -0.00000070
0.28497522 -0.50643343 -0.00000018
-0.23627166 -0.38766266 -0.00000026
0.25802053 -0.11278276 -0.00000043
0.31070483 0.02610937 0.00000689
-0.10674843 0.64392775 -0.00000086
0.78149290 -0.43334844 -0.00000092
-0.41892467 -0.45242335 -0.00000022
0.07423057 0.46340820 0.00000335
-0.66930557 -0.21432194 -0.00000010
0.09898195 0.22885115 0.00000679
-0.70857368 -0.17815828 -0.00000006
0.15880005 0.16217152 0.00000697
0.31537102 0.08670991 -0.00000062
0.15183678 0.06491934 0.00000865
-0.67257523 -0.65937144 -0.00000002
0.59717287 0.04043432 0.00000117
-0.62298125 -0.30155055 -0.00000013
0.14446990 -0.31931256 -0.00000030
-0.70086926 -0.49074954 -0.00000002
-0.13100709 0.03980632 -0.00000052
0.32272790 -0.35743455 -0.00000028
0.17619405 0.48938530 -0.00000096
0.40498699 -0.77173883 -0.00000002
-0.50340999 0.16252268 -0.00000035
-0.46415239 -0.75202845 -0.00000003
0.26290725 -0.16888812 -0.00000039
0.43590268 0.22575954 0.00000094
0.07286586 0.22962228 0.00000717
-0.57478590 0.24892177 0.01735930
-0.15689845 -0.75934395 -0.00000003
-0.13590493 0.20254027 -0.00000063
-0.07336599 -0.57420100 -0.00000014
-0.13055910 0.55831390 -0.00000082
-0.50136728 -0.47824565 -0.00000020
-0.67903854 0.66072450 0.39522624
-0.59144437 -0.08898580 -0.00000021
-0.61567363 0.44837332 0.19334110
0.61354769 0.11890591 -0.00000164
0.33085935 0.14716111 -0.00000079
-0.17725749 -0.41629534 -0.00000024
0.57199808 -0.09558865 -0.00000108
0.07847715 -0.56519490 -0.00000015
0.17822049 -0.03201770 -0.00000048
-0.32332756 0.08902922 -0.00000052
-0.39657456 -0.49389064 -0.00000019
0.50065692 -0.49273632 -0.00000019
-0.01240135 0.63232847 -0.00000090
-0.19867885 -0.39537877 -0.00000025
-0.53545642 0.04840365 -0.00000029
0.47896222 0.30378482 -0.00000129
-0.61816559 0.32613007 0.10565659
-0.69747079 0.48266469 0.27834379
0.20203154 0.27188876 -0.00000067
-0.21794977 -0.09292422 -0.00000044
-0.60864929 0.66433370 0.34632827
-0.18339945 -0.46569113 -0.00000021
0.08280944 0.29626921 0.00000594
-0.55371102 -0.70487794 -0.00000006
0.35109160 0.07783834 -0.00000071
-0.13767592 0.76587909 0.07582385
0.58522741 -0.39868157 -0.00000053
0.40982039 -0.26672483 -0.00000033
-0.61852308 -0.55272980 -0.00000009
0.05998693 0.43036978 0.00000410
-0.37171228 0.15161825 -0.00000048
0.35685816 0.08702994 -0.00000075
-0.34391036 0.45420299 -0.00000057
-0.36909460 -0.26134077 -0.00000034
-0.32969088 -0.20290103 -0.00000037
0.31857256 0.35955115 -0.00000116
