ply
format ascii 1.0
element vertex 1374
property float x
property float y
property float z
end_header
-0.28954414 0.75789608 -0.00000064
-0.79058197 0.01164970 -0.00000001
0.21887474 -0.25660797 -0.00000034
-0.34291120 -0.46946767 -0.00000021
-0.57451709 -0.65958670 -0.00000009
0.35336483 0.37508131 0.18245168
-0.02641371 -0.77976606 -0.00000001
0.36948248 -0.18791339 -0.00000038
0.12265859 0.59947920 0.19853645
0.01784152 0.70798382 -0.00000094
-0.69547373 -0.57006248 -0.00000001
-0.03389040 -0.38685564 -0.00000026
0.31445003 -0.76859991 -0.00000002
-0.14830827 -0.55518341 -0.00000015
0.25237587 -0.21822888 -0.00000036
0.06093714 -0.23545074 -0.00000035
0.02346641 0.76822161 0.02119115
0.29075494 0.48548689 0.06057745
-0.06762413 -0.13065492 -0.00000042
-0.54310803 -0.49958894 -0.00000018
-0.15776142 -0.42250833 -0.00000024
0.54784905 -0.31180572 -0.00000040
-0.57732518 0.72304927 -0.00000028
-0.71596142 0.60132060 -0.00000011
0.05735888 0.48552739 -0.00000080
0.55921151 -0.45846505 -0.00000025
0.35291098 -0.47831727 -0.00000020
0.48637891 0.26144564 0.13303868
0.35941925 0.37188043 0.17517545
0.37105077 -0.41103938 -0.00000024
-0.48554925 -0.23300300 -0.00000029
-0.42879220 -0.23013192 -0.00000035
0.69922723 -0.56941660 -0.00000028
0.72063774 -0.24455781 -0.00000065
-0.43638531 -0.55395512 -0.00000015
0.67472832 -0.59360936 -0.00000023
-0.12615462 -0.26603608 -0.00000033
-0.79796169 0.24938685 -0.00000000
0.07741751 0.07446670 -0.00000055
-0.75534285 0.68219756 -0.00000006
0.51629132 -0.12792203 -0.00000056
-0.61635376 -0.47799856 -0.00000011
-0.55000255 -0.10954379 -0.00000025
0.36321104 0.30452464 0.33725649
-0.21172291 0.61814242 -0.00000074
0.22739478 -0.36508493 -0.00000027
0.09597448 -0.62147417 -0.00000011
-0.56420993 -0.53352270 -0.00000015
-0.75291142 -0.27331476 -0.00000000
-0.07813983 -0.00264643 -0.00000050
0.16132221 0.09524979 -0.00000056
0.37254697 -0.67152477 -0.00000008
0.17062644 -0.13462807 -0.00000042
0.51108373 -0.10009455 -0.00000058
0.14575550 0.47815062 -0.00000081
0.46454770 -0.18186864 -0.00000045
0.70622856 -0.63799655 -0.00000020
0.51041354 -0.56292344 -0.00000015
-0.20855421 -0.53531571 -0.00000017
-0.19816563 0.75390630 -0.00000075
0.33502806 0.43716724 0.07089569
-0.47636552 -0.51779341 -0.00000018
0.47409407 -0.39614485 -0.00000025
-0.24454320 0.49462999 -0.00000068
0.38308016 0.41231792 0.01173092
0.43650503 0.25138068 -0.00000088
0.34901112 0.39216641 0.14998792
-0.43973772 -0.57896990 -0.00000014
0.01865044 0.60822638 -0.00000088
-0.73172231 0.33720247 -0.00000009
-0.23057089 -0.24402915 -0.00000035
-0.57530589 -0.43101761 -0.00000016
-0.24937439 -0.14841682 -0.00000041
-0.78765969 -0.15393910 0.00000000
0.45768602 -0.28464960 -0.00000033
0.43364866 -0.08497310 -0.00000052
-0.59452236 0.32791342 -0.00000026
0.38798865 0.11416022 -0.00000068
-0.32414639 0.24487256 -0.00000055
0.21004826 0.47313571 0.29786447
-0.19651221 0.45832044 -0.00000073
-0.32198313 0.44367674 -0.00000059
0.05568087 -0.29001268 -0.00000032
0.02091635 0.68343542 -0.00000093
0.36917717 0.32851140 0.26088024
-0.61544053 0.02442607 -0.00000020
-0.52607465 0.64729294 -0.00000034
0.74969305 -0.26739062 -0.00000066
-0.10983394 -0.17186527 -0.00000039
-0.78031366 0.65778547 -0.00000002
0.44900570 -0.44276685 -0.00000022
-0.39191950 -0.48697655 -0.00000020
0.30883404 -0.47865923 -0.00000020
0.20430103 0.38130622 -0.00000077
-0.21387375 0.48130898 -0.00000071
-0.37873281 -0.21475655 -0.00000037
0.55559155 0.16387308 0.20535365
-0.61240434 0.23266862 -0.00000023
-0.44060115 -0.54138024 -0.00000016
-0.54172510 0.46852171 -0.00000032
-0.44398656 -0.28846096 -0.00000032
-0.07264186 0.41187696 -0.00000076
-0.10308456 0.01308559 -0.00000051
0.14598223 0.23464935 -0.00000065
-0.23938741 -0.18997220 -0.00000038
0.10973698 0.15795130 -0.00000060
-0.17170753 0.57919668 -0.00000078
0.65577149 0.12877919 0.03939069
0.33453788 -0.70652038 -0.00000006
0.03964379 -0.41702898 -0.00000024
0.75584021 -0.51131484 -0.00000036
-0.10134474 -0.57033702 -0.00000014
0.01808746 0.32162818 -0.00000070
0.34220279 0.40979830 0.12238891
0.50096866 -0.13875414 -0.00000053
0.06887015 0.51449354 -0.00000082
-0.21395224 0.10470002 -0.00000057
-0.23190145 -0.12958351 -0.00000042
0.11622249 0.30939991 -0.00000069
0.37913405 0.39182247 0.07405445
0.33040225 -0.70974974 -0.00000006
0.58994162 -0.32421658 -0.00000043
-0.26344882 -0.56205962 -0.00000015
-0.50618107 -0.62775081 -0.00000011
-0.16706676 0.61584217 -0.00000079
-0.33385337 -0.44635564 -0.00000022
-0.21874883 -0.24397638 -0.00000035
-0.68790397 -0.00582711 -0.00000012
-0.66410813 0.76503140 -0.00000017
-0.40853143 0.78754412 -0.00000049
0.15728378 -0.60138208 -0.00000012
0.14872999 0.00469870 -0.00000050
0.57766013 -0.57658708 -0.00000015
-0.34980700 -0.64765795 -0.00000010
0.45056047 0.32726248 0.05654575
-0.64720892 0.44376738 -0.00000019
0.25708807 0.02005287 -0.00000051
0.30646803 0.16349527 -0.00000065
-0.37872688 0.05831268 -0.00000046
0.03329236 0.61649920 -0.00000089
-0.56989581 0.30013546 -0.00000029
0.06159617 0.24285372 -0.00000065
-0.71164410 0.48747858 -0.00000011
0.38608814 -0.12296900 -0.00000043
-0.74389575 0.20741631 -0.00000007
0.55852613 -0.36480497 -0.00000035
0.35747994 0.04168255 -0.00000057
-0.16680589 -0.01698943 -0.00000049
0.59229840 -0.20426414 -0.00000056
-0.17488928 -0.44426286 -0.00000022
0.11386471 0.62539598 -0.00000094
-0.22008781 0.56650456 -0.00000072
-0.28768492 0.68502246 -0.00000064
0.50432301 0.21130257 0.21514285
-0.36041488 0.76085486 -0.00000055
-0.58808253 -0.77309365 -0.00000002
-0.56937498 -0.47043222 -0.00000016
0.46067531 -0.22578449 -0.00000040
-0.10447428 0.59337776 -0.00000085
0.59018776 -0.21802527 -0.00000054
0.40118805 -0.52037468 -0.00000017
0.27433671 0.01630759 -0.00000051
0.46088682 0.24428457 0.24179999
0.39341077 -0.40564606 -0.00000025
-0.47478825 -0.11439307 -0.00000033
-0.40053328 -0.06601361 -0.00000041
-0.66607238 0.33868427 -0.00000017
0.23856315 -0.75621554 -0.00000003
-0.05846027 0.40137069 -0.00000075
-0.11761441 0.47098408 -0.00000079
0.36372671 0.11052383 -0.00000065
0.59872707 0.17260072 0.07310776
0.54627258 0.16916084 -0.00000091
-0.21027021 0.69028635 -0.00000074
0.12539203 0.46947247 -0.00000079
-0.36709747 0.56553754 -0.00000054
0.06269963 0.27703216 -0.00000067
0.12139314 -0.41675224 -0.00000024
-0.28383624 0.44710516 -0.00000063
0.33953604 -0.41697954 -0.00000024
-0.00194329 0.26974418 -0.00000067
-0.57438428 0.05823204 -0.00000025
-0.59179119 -0.58456654 -0.00000012
-0.09945828 0.34596063 -0.00000072
-0.35447968 0.65375989 -0.00000056
0.55665744 0.05326853 -0.00000080
0.20395536 -0.41682566 -0.00000024
-0.69619851 0.41172523 -0.00000013
-0.58703289 0.28114971 -0.00000027
0.29450495 0.43964239 0.16791419
0.39339601 -0.01480076 -0.00000055
0.72161993 -0.15471470 -0.00000075
-0.25309127 -0.09377184 -0.00000044
-0.63132971 -0.71613448 -0.00000005
-0.37742372 -0.74725541 -0.00000003
0.40187448 -0.60848000 -0.00000012
0.09494854 -0.78209715 -0.00000001
-0.18787072 0.36045346 -0.00000072
-0.71696522 0.31900310 -0.00000010
0.02642798 0.01588328 -0.00000051
0.11709566 -0.31031123 -0.00000031
0.02753715 0.46034476 -0.00000079
-0.12639380 -0.11603836 -0.00000043
-0.32011899 0.63558360 -0.00000060
0.35187955 -0.78554151 -0.00000001
0.22630282 0.10951615 -0.00000057
-0.33897534 0.16998794 -0.00000052
0.36895302 0.41152326 -0.00000098
0.23349871 0.03110804 -0.00000052
0.76473799 -0.00373651 -0.00000096
0.19146866 -0.29862138 -0.00000031
0.44646051 -0.70263941 -0.00000006
-0.65131590 -0.44316789 -0.00000008
-0.55513744 -0.77877146 -0.00000001
0.16220286 0.57276540 0.16582045
0.70946225 -0.01482070 -0.00000089
0.33087314 -0.07160534 -0.00000046
-0.76863269 0.59137416 -0.00000004
-0.19430660 -0.45476625 -0.00000022
0.04457166 -0.74880334 -0.00000003
-0.15319393 0.31204703 -0.00000070
-0.30112846 -0.35190199 -0.00000028
-0.35257460 -0.04724335 -0.00000047
-0.34189193 0.55506487 -0.00000057
0.21163426 0.57590154 -0.00000099
-0.25167678 -0.57433533 -0.00000014
-0.21137752 -0.32789419 -0.00000030
-0.38992271 -0.07826940 -0.00000042
-0.37990183 0.31362067 -0.00000051
0.62250072 0.11935855 -0.00000094
-0.22496416 0.07942968 -0.00000055
0.15937470 -0.55356868 -0.00000015
0.16088620 0.52324724 -0.00000088
-0.60110511 -0.50399971 -0.00000012
-0.43077148 0.13874702 -0.00000042
-0.27829846 0.79854290 -0.00000065
0.37378978 0.27121279 0.39522328
-0.33627159 -0.07274990 -0.00000045
-0.57024591 0.50562294 -0.00000029
0.46443660 0.05368464 -0.00000070
-0.75989462 0.24099543 -0.00000005
-0.03329208 -0.36725828 -0.00000027
0.47108651 0.16982417 -0.00000083
-0.37403656 0.05745687 -0.00000046
-0.05881802 0.25014225 -0.00000066
0.59699022 0.04171013 -0.00000083
0.59876848 0.14028266 0.15540999
-0.44561867 0.72350427 -0.00000044
0.30039611 0.31628827 0.46743094
-0.60480199 0.27645375 -0.00000024
0.56734213 -0.66817259 -0.00000008
-0.21578098 -0.13265237 -0.00000042
0.10581068 -0.41944998 -0.00000024
-0.11540261 -0.29343732 -0.00000032
-0.55840008 -0.48408371 -0.00000017
-0.08806503 -0.10375621 -0.00000044
0.57376805 -0.45735681 -0.00000027
-0.56573528 0.18936792 -0.00000028
-0.07436126 -0.08815009 -0.00000044
-0.07971817 0.60301626 -0.00000088
-0.19679234 0.58361480 -0.00000075
0.41338331 -0.34123871 -0.00000029
-0.59640741 0.34188256 -0.00000025
0.26320296 0.51135283 0.06487666
-0.53120532 -0.55979822 -0.00000015
-0.56270126 -0.76943548 -0.00000002
0.12500328 0.67383753 0.00295229
0.42007697 0.14394527 -0.00000075
0.00725431 -0.26951873 -0.00000033
0.18259803 0.53297867 0.21526672
-0.50731344 0.20690004 -0.00000035
-0.23687341 -0.38668277 -0.00000026
-0.36065567 -0.56120341 -0.00000015
0.27593037 0.47578388 0.12312033
0.27253624 0.40419379 0.31432155
0.16588492 -0.13040585 -0.00000042
-0.79342673 0.57547575 -0.00000001
0.24349164 0.40567730 0.38459890
-0.27924790 0.77823105 -0.00000065
0.33295660 -0.66582474 -0.00000008
0.56130534 0.19797878 0.10381792
0.00013311 -0.02654165 -0.00000048
0.56257417 0.20508425 -0.00000097
-0.65400993 -0.61117859 -0.00000004
0.35369902 0.39689351 -0.00000095
0.72917479 -0.12560882 -0.00000079
0.55595122 -0.06905428 -0.00000067
-0.16166772 0.59726367 -0.00000079
-0.39075382 0.60783579 -0.00000051
0.55730845 0.23004904 0.03223363
0.55051942 0.14147419 -0.00000088
-0.01322796 -0.12324387 -0.00000042
-0.26058406 0.53224477 -0.00000067
0.15519385 -0.61875342 -0.00000011
0.00450400 0.31661506 -0.00000070
-0.62990835 0.48278916 -0.00000021
-0.50024520 0.61420871 -0.00000037
0.79454280 -0.61402880 -0.00000023
-0.18188084 0.58286648 -0.00000077
-0.19119462 -0.53256830 -0.00000017
-0.74551690 0.26473183 -0.00000007
-0.16989954 0.42460906 -0.00000075
0.69292340 -0.71532518 -0.00000011
-0.69096139 0.73808432 -0.00000014
0.26917857 -0.06579501 -0.00000046
-0.33117376 0.38170768 -0.00000057
-0.52578349 0.54882850 -0.00000034
-0.70213748 0.16330845 -0.00000012
0.17437991 -0.76702245 -0.00000002
0.11413065 0.66915533 0.04261555
0.66106315 -0.54401163 -0.00000027
-0.36271826 0.13193617 -0.00000049
0.79218565 -0.57624079 -0.00000028
0.21508064 -0.67585137 -0.00000008
-0.53229477 -0.27647820 -0.00000024
-0.13297468 -0.45479628 -0.00000022
0.21840246 0.46989122 -0.00000088
-0.24158689 0.70895356 -0.00000070
0.68029501 0.08308612 0.09337095
0.12360120 0.17978454 -0.00000061
0.63233829 0.10190181 0.16767767
-0.53828601 -0.11947757 -0.00000026
-0.40661719 0.63757103 -0.00000049
-0.63355612 0.07659939 -0.00000019
-0.63862080 0.56346566 -0.00000020
-0.75560387 -0.49100038 0.00000000
-0.37707966 0.33891615 -0.00000051
-0.30658443 -0.43560672 -0.00000023
-0.23146580 0.44879551 -0.00000069
-0.40618149 -0.04842124 -0.00000041
0.00546845 -0.78033125 -0.00000001
-0.13640170 0.19730196 -0.00000062
-0.36487664 0.34570700 -0.00000053
0.52032388 0.21139939 -0.00000093
0.73258335 -0.59813160 -0.00000025
0.18786749 -0.10027652 -0.00000044
-0.45749337 0.33747187 -0.00000043
-0.65462054 -0.09996510 -0.00000014
-0.23713393 0.27495478 -0.00000065
0.47394554 0.32099009 0.01291013
-0.57052955 -0.37554047 -0.00000018
-0.50900907 -0.43504279 -0.00000023
0.38666723 0.25206055 -0.00000083
0.47906622 -0.41269095 -0.00000024
0.42867154 0.34607608 0.06438754
0.19229091 0.55698156 0.12934657
-0.79928335 0.59031653 -0.00000000
0.17614347 -0.39215382 -0.00000025
-0.50493109 -0.37999133 -0.00000025
0.41071013 0.05034138 -0.00000064
0.61534625 -0.11721118 -0.00000068
-0.44744275 -0.15384755 -0.00000035
-0.05593401 0.20576371 -0.00000063
0.24852126 -0.27041299 -0.00000033
-0.32972681 -0.72378874 -0.00000005
-0.20589767 -0.05069754 -0.00000047
0.70480063 0.08458955 0.02705048
0.11704903 0.05287008 -0.00000053
-0.37989314 -0.48279673 -0.00000020
-0.42332236 0.79574824 -0.00000047
-0.09914426 -0.31417895 -0.00000030
-0.24368386 0.71485266 -0.00000070
-0.04192679 -0.31660384 -0.00000030
0.43301743 0.30541417 0.15698977
0.23253774 0.42537225 0.36231022
-0.74998047 -0.46314669 0.00000000
0.77112344 -0.74509960 -0.00000007
-0.69994187 -0.66474532 0.00000000
-0.06496356 -0.16949922 -0.00000039
-0.19475932 -0.47952227 -0.00000020
-0.07789146 0.66135246 -0.00000089
-0.43831013 0.51676059 -0.00000045
-0.26408579 0.23412017 -0.00000061
0.23910231 0.08761873 -0.00000055
-0.09533440 0.21312957 -0.00000063
-0.34500277 0.60239669 -0.00000057
-0.54681015 0.76351879 -0.00000032
-0.17475792 0.58952064 -0.00000078
0.37254522 0.40990648 0.04474290
0.54324294 0.03652040 -0.00000077
-0.06045130 0.37634918 -0.00000074
0.19170018 0.21414783 -0.00000063
-0.19413695 -0.45496096 -0.00000022
0.32807918 0.20677249 -0.00000072
0.61071829 0.14738023 0.10684108
0.73244954 0.06623985 0.00333842
-0.66975491 0.23301674 -0.00000016
-0.74308042 0.35671542 -0.00000007
-0.22962358 0.46230428 -0.00000069
0.47784775 -0.21577059 -0.00000043
0.60130230 -0.67334698 -0.00000008
-0.37001445 0.60756291 -0.00000054
0.30324440 -0.47241793 -0.00000020
-0.65478733 -0.11704860 -0.00000013
0.22751900 0.53156625 0.10432500
-0.46819748 -0.41986166 -0.00000024
-0.75571314 0.62513792 -0.00000006
-0.24993564 -0.38450760 -0.00000026
-0.66990355 0.55548421 -0.00000016
-0.79205319 0.43587489 -0.00000001
-0.73588542 0.57112901 -0.00000008
0.17278520 0.53339475 0.23922727
0.27449278 0.47945379 0.11742813
-0.24514533 -0.47715370 -0.00000020
-0.26122681 0.18723694 -0.00000061
-0.02117037 -0.10553106 -0.00000043
-0.66535572 0.66340158 -0.00000017
0.11144182 -0.49615160 -0.00000019
0.19981901 0.49629579 0.26489233
0.65905211 -0.29301336 -0.00000054
0.08995849 0.69553733 -0.00000098
0.41047324 0.26995597 -0.00000087
0.04049674 -0.36548143 -0.00000027
-0.14640438 0.07199366 -0.00000054
-0.74216149 -0.21441736 -0.00000002
-0.78243688 -0.56163391 0.00000000
0.14604579 0.60092334 0.13521960
-0.58649426 -0.53469445 -0.00000013
-0.03790432 -0.01252414 -0.00000049
0.56258929 -0.04452424 -0.00000070
-0.52424013 -0.45842989 -0.00000021
0.50811521 0.23565676 -0.00000094
-0.72678194 0.38436115 -0.00000009
-0.33151531 -0.56905850 -0.00000014
-0.72099417 0.69621913 -0.00000010
-0.12529948 -0.02906064 -0.00000048
0.45641746 -0.15084053 -0.00000047
0.38456344 -0.41037242 -0.00000024
0.27298586 -0.34033419 -0.00000029
-0.41148866 -0.34348490 -0.00000029
0.12451332 0.64511659 -0.00000097
0.29882009 -0.45963066 -0.00000021
0.44022517 0.28443679 0.19210098
0.36311529 -0.22465781 -0.00000036
-0.34869095 -0.39482382 -0.00000025
0.27075627 -0.64830795 -0.00000009
-0.72152413 0.35156906 -0.00000010
-0.75753640 -0.29478241 0.00000000
0.40709785 0.28732034 0.26921948
-0.73468100 0.32058505 -0.00000008
0.65709176 -0.18129843 -0.00000065
0.05292533 -0.21021040 -0.00000037
0.11386578 0.29674010 -0.00000069
-0.66124910 0.21460401 -0.00000017
-0.19416352 0.69569091 -0.00000076
0.37791349 0.39192364 0.07690880
0.40168019 0.23917827 -0.00000083
0.19953569 -0.10822621 -0.00000043
0.10798432 0.66660752 0.06478477
0.49101653 -0.27279328 -0.00000038
-0.33624236 0.74996833 -0.00000058
0.33876135 0.44738397 0.03532452
-0.50080058 -0.42988780 -0.00000023
0.25428392 0.36366049 0.46421781
0.01844373 0.35060634 -0.00000072
-0.01814044 0.67809140 -0.00000092
0.35076252 -0.44905320 -0.00000022
0.00087081 -0.56842321 -0.00000014
0.26761397 0.53016289 0.00566526
-0.40069905 0.03804266 -0.00000043
0.14960584 0.19278476 -0.00000062
0.45511307 -0.01795881 -0.00000061
-0.15914420 -0.65397280 -0.00000009
0.50131754 -0.26971561 -0.00000039
0.70845610 -0.51391316 -0.00000035
-0.37237405 -0.72631379 -0.00000005
0.11179921 -0.20834890 -0.00000037
-0.45432558 0.34588081 -0.00000043
0.65885954 0.01211248 -0.00000086
-0.17586289 0.17873260 -0.00000061
0.44809007 -0.66005411 -0.00000009
0.05246194 -0.02576990 -0.00000048
-0.39122363 -0.49983112 -0.00000019
0.09973077 -0.20595663 -0.00000037
-0.25353665 0.12696827 -0.00000058
-0.58768471 -0.02456266 -0.00000022
-0.64443767 -0.22643888 -0.00000012
-0.62806644 -0.40960038 -0.00000011
-0.58447935 -0.73653670 -0.00000004
-0.77464015 0.65503476 -0.00000003
0.13556217 0.48726552 -0.00000081
0.40148830 0.31018199 0.22522841
-0.70378327 0.26183214 -0.00000012
-0.22881016 -0.57968385 -0.00000014
0.53813606 0.14945920 -0.00000088
0.10832526 0.65136158 0.10279078
-0.65476907 0.67038902 -0.00000018
-0.22108790 -0.26656026 -0.00000033
-0.72157135 -0.43313436 -0.00000000
-0.64991739 -0.05277365 -0.00000015
0.44725562 -0.72840217 -0.00000004
-0.71214599 -0.39843708 -0.00000002
-0.68015002 0.63240417 -0.00000015
0.50023505 0.27425206 0.06505182
-0.07557044 0.16104033 -0.00000060
0.63197757 -0.49028183 -0.00000030
0.41082101 0.26643793 0.31297355
0.03864060 -0.44046034 -0.00000022
-0.25826285 -0.47373827 -0.00000020
-0.09102797 -0.29278503 -0.00000032
-0.71512342 -0.57142063 0.00000000
0.49650285 -0.14557511 -0.00000052
0.13115237 0.41424441 -0.00000076
-0.42825960 0.21665577 -0.00000044
-0.06517063 0.73452571 -0.00000092
0.40863093 0.33804828 0.13595919
0.26232275 -0.33565634 -0.00000029
-0.05261971 0.50468202 -0.00000082
-0.11343007 0.67985001 -0.00000086
0.35511948 -0.00111175 -0.00000052
0.20738894 -0.22529425 -0.00000036
0.32070632 0.01205836 -0.00000051
-0.79605610 -0.76127600 0.00000000
0.44967961 -0.22174907 -0.00000039
0.15414919 -0.55994346 -0.00000015
0.67829384 -0.66763080 -0.00000016
-0.27317101 -0.48369925 -0.00000020
0.30289223 -0.70319950 -0.00000006
0.23174965 0.47613202 0.23488839
0.10299261 -0.19298385 -0.00000038
-0.47115195 0.41350373 -0.00000041
-0.47005590 0.34398277 -0.00000041
-0.57706102 0.20924608 -0.00000028
0.38172524 0.24386257 0.44472866
-0.43453779 0.61786899 -0.00000046
0.08915380 0.29971907 -0.00000069
0.43588811 -0.25663250 -0.00000034
0.53601924 -0.53616949 -0.00000016
0.06059105 0.53604305 -0.00000084
0.08231210 0.44985715 -0.00000078
0.36562239 0.26943389 0.42058510
-0.67423566 -0.18944066 -0.00000010
-0.68212911 -0.35607288 -0.00000006
0.76563517 -0.68123087 -0.00000015
-0.48338524 -0.54553916 -0.00000016
-0.28645422 0.42799387 -0.00000063
-0.19539483 0.45985309 -0.00000073
0.38027620 0.33942130 0.20475983
-0.22434970 0.42050177 -0.00000069
-0.38074184 0.69473998 -0.00000052
-0.50362646 -0.28191730 -0.00000026
-0.46271352 0.77213713 -0.00000042
0.01751908 0.10261310 -0.00000056
-0.12113629 -0.48972066 -0.00000019
0.37478665 -0.12127923 -0.00000042
-0.62906198 0.08710159 -0.00000020
0.27220316 0.39658216 0.33457961
-0.02501333 -0.39562835 -0.00000025
0.05165444 -0.66775276 -0.00000008
-0.22083649 0.35885605 -0.00000068
-0.20884028 0.22201844 -0.00000064
-0.03292044 0.18563408 -0.00000062
0.53946145 -0.74483300 -0.00000003
-0.01591152 -0.00553164 -0.00000050
-0.20418465 -0.59814306 -0.00000013
0.39403582 -0.35934382 -0.00000028
-0.60755411 -0.13439933 -0.00000018
0.15770895 0.41484903 -0.00000076
0.52930810 0.17331494 0.24829801
0.17299171 -0.27935522 -0.00000033
0.13426249 0.62003018 0.11654538
0.10637395 0.67530852 0.04670435
0.00708248 0.45880963 -0.00000079
0.21520403 0.30529541 -0.00000070
0.01495477 0.25128521 -0.00000066
-0.71706063 -0.67856168 0.00000000
-0.53267989 -0.08091426 -0.00000027
-0.13527528 0.15166857 -0.00000059
0.72523032 0.05418064 0.05249648
-0.27157567 0.64303509 -0.00000066
0.34214838 0.34864270 0.27846788
0.04175346 -0.59896306 -0.00000013
-0.47845910 -0.73248278 -0.00000004
0.35071494 -0.43105218 -0.00000023
0.65922244 -0.14978176 -0.00000069
0.60680698 0.15482288 0.09783652
-0.24714267 0.48139725 -0.00000068
-0.53335683 -0.20611401 -0.00000025
-0.65893090 -0.58822111 -0.00000004
0.69467021 -0.32891588 -0.00000054
0.01536691 0.20296030 -0.00000063
-0.44663326 -0.62850895 -0.00000011
0.02835881 0.45141418 -0.00000078
0.44970764 -0.37677481 -0.00000026
0.30664158 -0.12417792 -0.00000042
-0.31515237 -0.33714753 -0.00000029
-0.13614644 0.48234641 -0.00000080
-0.69509151 -0.08214188 -0.00000010
-0.38888240 0.19786697 -0.00000047
-0.38733300 0.34382158 -0.00000050
0.00653146 0.61165444 -0.00000088
-0.70796930 0.08608784 -0.00000011
-0.68582407 0.54463352 -0.00000014
-0.62718630 0.65331155 -0.00000022
0.33700303 -0.02625051 -0.00000048
0.62144509 -0.50517220 -0.00000027
-0.48968940 0.07439034 -0.00000034
0.18839940 0.47909032 -0.00000086
0.42794641 -0.30719934 -0.00000031
0.11697040 -0.57758781 -0.00000014
-0.70317234 -0.06818907 -0.00000009
-0.72619277 0.68191339 -0.00000009
-0.75707710 0.08577702 -0.00000005
-0.51142162 -0.55638653 -0.00000015
0.43002046 -0.43278594 -0.00000023
0.30531918 -0.48175256 -0.00000020
-0.51300206 -0.74524412 -0.00000003
0.44059766 -0.72438497 -0.00000005
0.58666931 0.09752584 -0.00000088
0.48758263 0.22089853 -0.00000090
0.45575350 0.24569233 -0.00000089
0.63837327 -0.51477076 -0.00000028
0.05309476 0.73745880 -0.00000099
0.26479819 0.18236261 -0.00000062
-0.47937910 -0.79197249 -0.00000001
-0.17060716 -0.00762578 -0.00000050
-0.73208431 -0.10265239 -0.00000005
-0.08147313 0.70218872 -0.00000090
-0.10525809 0.25896244 -0.00000066
-0.15483909 0.72642135 -0.00000081
-0.45710125 0.39751541 -0.00000043
-0.16803358 0.01539184 -0.00000051
-0.55122462 -0.58108357 -0.00000014
0.17602399 -0.12977910 -0.00000042
0.11976285 -0.77268821 -0.00000002
-0.38179802 -0.63214153 -0.00000010
-0.38526076 0.57797615 -0.00000052
-0.09291869 -0.49287766 -0.00000019
0.11201797 -0.57660575 -0.00000014
0.32708919 0.23392220 -0.00000075
-0.49270045 0.61234115 -0.00000038
0.16027828 -0.50090406 -0.00000019
0.17743984 0.01711848 -0.00000051
0.38887279 0.36761245 0.11095477
-0.28110960 -0.68797735 -0.00000007
0.38260842 0.39623781 0.05393648
0.42743914 0.36466299 0.02013524
0.57142669 -0.53983362 -0.00000018
0.40693693 0.34275543 0.12827594
-0.30580958 0.78730222 -0.00000062
0.70355841 -0.01636205 -0.00000088
0.40012182 -0.59115698 -0.00000013
0.27174822 -0.28294358 -0.00000032
0.22477188 0.03712188 -0.00000052
-0.74465695 0.08345232 -0.00000007
-0.14282758 0.66057866 -0.00000082
0.16738545 0.61363706 0.04838719
-0.59040582 0.31229203 -0.00000026
0.68192107 -0.51294603 -0.00000033
-0.40356248 0.67411216 -0.00000050
-0.07184765 -0.56133472 -0.00000015
0.36911333 0.40767302 0.05918896
-0.55395367 -0.48572772 -0.00000017
0.54506456 -0.45039905 -0.00000025
-0.16870022 -0.66216553 -0.00000009
-0.65250293 0.39869852 -0.00000018
-0.60189794 0.41953923 -0.00000025
-0.17948025 0.12299035 -0.00000058
-0.37596151 0.40480790 -0.00000053
-0.72988002 0.73326119 -0.00000009
-0.59978370 -0.59181362 -0.00000011
0.70239519 0.04217899 -0.00000094
-0.32258841 0.10821381 -0.00000053
0.59491112 -0.30385161 -0.00000046
0.12740092 -0.26784629 -0.00000033
-0.64617209 -0.10906235 -0.00000014
-0.40242809 -0.26274175 -0.00000034
-0.29417821 -0.17637657 -0.00000039
-0.44249671 0.28283629 -0.00000043
0.52779185 0.10526250 -0.00000082
0.77204997 -0.61637905 -0.00000023
-0.77131501 -0.42687725 0.00000000
0.34911578 0.26615058 -0.00000080
0.09786993 0.06116438 -0.00000054
-0.01456238 0.17992584 -0.00000061
0.63578468 -0.00930797 -0.00000081
0.35408491 0.32902540 0.29805296
0.25178581 0.46989997 0.19968965
0.25626961 0.45613970 0.22334354
0.73281227 -0.73585791 -0.00000008
0.69325396 -0.71209440 -0.00000011
0.76376373 -0.78840444 -0.00000001
-0.56323183 0.06799833 -0.00000027
-0.66909718 0.15737828 -0.00000016
0.49772737 0.28592411 0.04168359
-0.73425796 -0.08201298 -0.00000006
-0.25432221 0.62946878 -0.00000068
-0.39821168 -0.40694784 -0.00000025
-0.45576110 0.68595890 -0.00000043
-0.16034534 -0.17255637 -0.00000039
-0.08597092 -0.54750605 -0.00000016
-0.44313986 -0.03116382 -0.00000038
0.34963659 -0.17578276 -0.00000039
-0.60471579 -0.35350047 -0.00000014
0.04493643 0.69746387 -0.00000094
-0.76439474 0.42852571 -0.00000004
-0.07563437 0.10573957 -0.00000057
0.21763872 0.37790668 -0.00000078
0.50582507 0.21916599 0.19126181
0.46410418 0.21972734 0.29621450
-0.28685930 -0.36019965 -0.00000027
-0.76961559 -0.58621123 0.00000000
-0.69261010 -0.60995784 -0.00000000
-0.66452646 -0.56708122 -0.00000004
-0.26704907 0.12669150 -0.00000058
-0.23932792 -0.78889168 -0.00000001
-0.78658869 0.76512885 -0.00000002
0.28265435 0.07092487 -0.00000054
-0.78914688 0.15779654 -0.00000001
0.48329075 -0.09784472 -0.00000056
-0.18110933 -0.73943581 -0.00000004
-0.30440321 -0.31056292 -0.00000031
0.06307113 0.49738288 -0.00000081
-0.31349084 0.73182147 -0.00000061
-0.51740058 0.01750596 -0.00000030
-0.22937372 -0.70639279 -0.00000006
0.60227877 0.10091319 -0.00000090
-0.76306770 0.76064890 -0.00000005
-0.32654095 0.03889907 -0.00000051
0.65080965 0.03739993 -0.00000088
0.65169713 -0.46813750 -0.00000034
-0.48845757 -0.53178657 -0.00000017
-0.11718900 0.71288560 -0.00000085
0.36036503 0.33595618 0.26436677
0.71505127 -0.67302655 -0.00000016
0.11680408 -0.61735647 -0.00000011
0.39443344 0.36633399 -0.00000096
-0.32602515 -0.63102586 -0.00000011
-0.26492838 0.42075751 -0.00000065
0.25319250 -0.67093694 -0.00000008
0.15949547 0.54022974 0.25568603
-0.62060484 -0.64297088 -0.00000007
0.23990984 0.55231662 0.01981824
-0.59237184 -0.40295536 -0.00000015
0.10993007 -0.11003444 -0.00000043
0.62611562 0.15428534 0.04997210
0.27717222 0.49781821 0.06376838
0.15619960 0.62594013 0.04553838
0.38144768 0.34499631 -0.00000092
0.39322536 0.30627318 -0.00000089
0.27135330 0.24180615 -0.00000069
0.03217989 -0.14067012 -0.00000041
-0.42427595 0.79880159 -0.00000047
-0.34937325 0.03089821 -0.00000049
0.57303268 0.15351145 0.18730161
0.35112171 0.41418976 -0.00000096
-0.67414606 0.21777100 -0.00000016
-0.62998510 -0.33456400 -0.00000012
-0.27706820 -0.00452655 -0.00000050
0.54927949 0.22415019 -0.00000097
0.25712883 0.48883636 0.13777986
0.41421621 0.24398112 -0.00000085
0.37899791 -0.77121490 -0.00000002
0.33852759 0.34129844 0.30642742
-0.53486297 0.09829559 -0.00000030
-0.28652354 0.32034948 -0.00000061
-0.36908383 0.48449302 -0.00000054
-0.06563978 0.75923119 -0.00000092
-0.19965857 -0.06511936 -0.00000046
-0.43978310 -0.03667992 -0.00000038
0.32242028 -0.73579318 -0.00000004
0.08841655 -0.43569005 -0.00000023
0.54838157 -0.62146687 -0.00000011
-0.11325062 0.00005084 -0.00000050
0.02645741 0.53509875 -0.00000083
0.24707939 0.42218544 0.33335680
-0.05152824 -0.70965378 -0.00000006
0.08145842 -0.14779873 -0.00000041
-0.03601361 0.74441001 -0.00000095
-0.21315621 -0.67990353 -0.00000008
-0.44722119 0.20755139 -0.00000041
0.31622497 0.43771027 0.11745703
-0.23120957 0.28734929 -0.00000066
-0.04259590 0.15644728 -0.00000060
-0.24675952 -0.52811303 -0.00000017
-0.66481421 -0.16919410 -0.00000011
0.43880219 -0.11372562 -0.00000049
0.28491501 0.02232816 -0.00000051
0.66588015 0.11287776 0.05416168
0.37555344 0.17672162 -0.00000074
0.53560038 0.17248136 -0.00000090
-0.54538194 0.38874289 -0.00000032
0.50115414 -0.50870029 -0.00000018
0.23512456 -0.51818205 -0.00000018
0.49850766 0.23288786 0.17493107
0.20484756 0.56666737 0.07263058
-0.63795428 0.69123372 -0.00000020
0.07723149 -0.07326491 -0.00000045
0.07473236 0.69526413 -0.00000097
0.28261952 0.38621723 -0.00000086
-0.65702432 -0.14908781 -0.00000013
-0.78117578 -0.14271024 0.00000000
0.04061117 -0.15864200 -0.00000040
-0.48090953 -0.04098872 -0.00000033
-0.18421470 0.74412566 -0.00000077
-0.76470115 0.24598446 -0.00000004
-0.78473066 -0.27475747 0.00000000
0.41383114 -0.38974334 -0.00000026
-0.45683459 -0.69550019 -0.00000007
0.45987088 -0.63915120 -0.00000010
-0.12173090 0.65594010 -0.00000084
-0.45587118 0.58326819 -0.00000043
0.29745765 0.43264722 0.17822210
-0.27701726 -0.13686502 -0.00000041
-0.46150360 0.36828500 -0.00000042
0.26757214 -0.17225280 -0.00000039
-0.49980804 0.43049459 -0.00000038
-0.09089942 0.40861549 -0.00000076
-0.21199671 -0.59440551 -0.00000013
0.32655744 -0.28098489 -0.00000032
-0.74587165 -0.76341281 0.00000000
0.43913143 0.23128685 0.33041655
-0.31679142 -0.00406563 -0.00000050
-0.62089294 -0.59489174 -0.00000008
-0.35377970 -0.28106002 -0.00000032
-0.65880096 0.17623697 -0.00000018
-0.03745764 0.69305678 -0.00000093
0.13360611 0.57019477 0.24529343
0.35173643 -0.52659675 -0.00000017
-0.30700276 -0.71947123 -0.00000005
-0.56832671 0.59993481 -0.00000029
-0.22203454 -0.40616214 -0.00000025
0.46905725 0.26160162 0.17680943
-0.35821067 0.37249360 -0.00000054
0.62281313 0.11709820 0.15321660
0.24322556 0.45769687 0.25263366
0.37921269 0.36553415 0.14088653
0.40939943 -0.54218130 -0.00000016
0.01758383 0.19332521 -0.00000062
-0.00416574 -0.71111749 -0.00000006
-0.20967221 0.55688620 -0.00000073
0.76332166 -0.16838191 -0.00000078
-0.47185494 0.14465154 -0.00000038
-0.50940601 0.48013247 -0.00000036
0.04846685 -0.66414735 -0.00000008
0.58165898 0.17368676 0.11386040
0.37462817 0.06437222 -0.00000061
-0.26341557 -0.31015432 -0.00000031
-0.08371604 0.36310861 -0.00000073
0.63583472 -0.59913503 -0.00000019
-0.02880536 0.77560143 -0.00000096
-0.55209691 -0.62780904 -0.00000011
0.77835293 -0.76876821 -0.00000004
0.65970348 0.04592143 -0.00000090
0.13484258 0.65213349 -0.00000099
-0.63818653 -0.12934915 -0.00000015
0.15826153 0.54351966 0.25044352
0.32652091 0.36190938 0.28448753
0.37557124 -0.75265806 -0.00000003
-0.15553348 0.62914253 -0.00000080
0.16556568 0.62656136 0.02007174
-0.02760658 -0.72391336 -0.00000005
0.26496075 0.48164795 0.13613898
-0.19971724 -0.79548635 -0.00000000
-0.60154701 -0.79605584 -0.00000000
-0.68292209 -0.63307429 -0.00000001
0.39869428 0.14618655 -0.00000073
-0.13185032 -0.03805834 -0.00000048
-0.30203287 -0.47743434 -0.00000020
-0.27937120 -0.04327888 -0.00000047
0.39192078 0.25177278 0.39856117
-0.07830990 -0.49129593 -0.00000019
-0.53534658 -0.76545371 -0.00000002
-0.77212434 0.64179686 -0.00000003
0.31164801 -0.19617001 -0.00000038
0.13355415 0.22673877 -0.00000064
-0.55296239 -0.15142251 -0.00000024
-0.56699600 0.75612528 -0.00000029
0.59392132 0.12438171 -0.00000091
0.37485822 0.36580722 -0.00000094
-0.64348236 0.66493388 -0.00000020
0.40949487 0.38496230 0.01413015
-0.50187065 0.07801696 -0.00000033
-0.38323145 -0.77418947 -0.00000002
0.32610603 0.36409637 0.27996886
0.20128457 0.54564596 -0.00000094
0.05824756 -0.19514964 -0.00000038
0.46344214 0.23477612 0.25952977
0.14075472 -0.21053534 -0.00000037
0.63435094 -0.12929104 -0.00000069
-0.50176161 -0.27205889 -0.00000027
-0.56098899 0.43234500 -0.00000030
0.33517802 0.38935850 0.19242082
-0.12286376 0.24917920 -0.00000066
-0.53312981 0.49141214 -0.00000033
-0.04860502 0.75645409 -0.00000094
-0.08399280 -0.78761344 -0.00000001
0.06248520 -0.48590222 -0.00000020
-0.13625103 -0.74130499 -0.00000004
-0.67726661 0.24652099 -0.00000015
0.21974144 0.56198214 0.04659955
0.01511518 -0.22128458 -0.00000036
0.04880596 0.46537369 -0.00000079
0.00688514 0.25249282 -0.00000066
-0.26436675 0.56748143 -0.00000067
-0.51318365 -0.01195604 -0.00000030
0.07629193 0.68997128 0.08602163
0.53769718 0.21385747 -0.00000095
-0.05583924 -0.60543293 -0.00000012
0.58713778 0.02525853 -0.00000080
-0.21815652 0.59315516 -0.00000073
0.69906369 -0.61884549 -0.00000023
0.17228818 0.58685142 0.10418643
0.24415278 0.28497751 -0.00000071
-0.67456522 0.13528391 -0.00000016
0.30838747 0.44288971 0.12423482
0.74457074 -0.40346450 -0.00000050
0.27170878 0.47873029 -0.00000095
-0.41885835 -0.11566157 -0.00000039
-0.07036620 -0.22427842 -0.00000036
0.54799591 -0.47623878 -0.00000022
0.04231076 0.62068401 -0.00000089
0.40166430 0.31138594 -0.00000091
0.16264593 -0.33760469 -0.00000029
-0.59342002 -0.60763090 -0.00000011
-0.27544090 0.37345770 -0.00000063
-0.29853968 0.11644037 -0.00000056
-0.32584017 0.05070911 -0.00000052
-0.10276331 0.45008061 -0.00000078
-0.46288086 -0.16444565 -0.00000033
0.44193920 -0.53749612 -0.00000016
-0.40868855 -0.24365149 -0.00000035
0.10019134 -0.25534700 -0.00000034
0.19547521 0.47498135 0.33031778
-0.48730813 0.75536653 -0.00000039
-0.63233164 -0.66739211 -0.00000006
0.52019967 -0.67141263 -0.00000008
-0.54257375 0.07212719 -0.00000029
0.10261349 0.41243616 -0.00000076
0.06911653 0.68155210 0.12578594
-0.77381660 0.56421259 -0.00000003
0.68751526 -0.16363512 -0.00000071
0.68751353 -0.77486232 -0.00000003
-0.24919006 0.08750537 -0.00000055
0.18658417 0.59928558 0.03602722
-0.55415274 0.64154768 -0.00000031
0.35456114 -0.11450237 -0.00000043
0.38377626 0.28492813 -0.00000086
-0.54786742 0.67041789 -0.00000032
0.35923967 0.24703142 -0.00000079
-0.16035832 -0.77873467 -0.00000001
-0.72159548 0.17559288 -0.00000010
0.59172971 0.13617666 0.18382805
0.22221514 -0.12711172 -0.00000042
-0.01910861 -0.67957736 -0.00000008
-0.48520708 0.61935016 -0.00000039
-0.18054817 0.36045876 -0.00000073
0.36966331 0.35050970 0.20354734
-0.10347705 -0.58079735 -0.00000014
0.24893946 0.38879359 -0.00000083
-0.71750116 0.15221525 -0.00000010
-0.33272052 -0.35389472 -0.00000028
-0.51162916 0.37734553 -0.00000036
0.73981434 -0.52225874 -0.00000035
-0.57801630 -0.09233805 -0.00000022
-0.25066341 -0.46079339 -0.00000021
-0.41506082 -0.71173264 -0.00000006
-0.41610163 0.66958728 -0.00000048
0.36519615 0.18465861 -0.00000073
0.76117498 -0.74270872 -0.00000007
0.62917326 0.13273853 0.09711761
0.77372206 -0.10383558 -0.00000086
0.21500244 0.51579578 0.17645380
-0.79084059 0.43044794 -0.00000001
0.34439360 0.40725935 0.12327664
0.01542793 0.66783910 -0.00000092
-0.26459978 0.79024654 -0.00000067
-0.42286830 -0.36960800 -0.00000027
-0.65371590 0.14567019 -0.00000018
-0.19976660 0.28661308 -0.00000068
-0.75054212 -0.39753048 0.00000000
-0.43771781 0.66917645 -0.00000045
0.45243632 0.22295788 0.31772862
0.27838894 0.36990310 -0.00000084
0.48428800 0.03056428 -0.00000070
0.01535622 0.25978565 -0.00000066
0.27110601 -0.21744041 -0.00000036
0.52577202 -0.23748065 -0.00000045
0.53585653 0.00524761 -0.00000072
0.39242677 -0.12608942 -0.00000043
-0.03328420 0.00599321 -0.00000050
-0.64248158 0.50156503 -0.00000020
-0.47506577 0.68247078 -0.00000041
-0.10252956 -0.32213229 -0.00000030
-0.44749265 0.22060121 -0.00000042
-0.72565829 0.65864025 -0.00000009
0.45216821 -0.50332053 -0.00000019
0.41982875 0.23078721 -0.00000084
0.64468145 -0.78158661 -0.00000001
0.04526056 0.59975383 -0.00000087
-0.06953301 -0.26376868 -0.00000034
-0.64260793 0.26029004 -0.00000020
-0.78269444 -0.42216610 0.00000000
-0.03549131 -0.54519378 -0.00000016
-0.23753700 -0.14931051 -0.00000041
-0.15416004 0.10546678 -0.00000057
0.55295408 -0.53873511 -0.00000016
-0.21450314 -0.24560166 -0.00000035
0.31203595 -0.66098310 -0.00000009
-0.47753227 -0.00240902 -0.00000034
0.29713301 -0.23690740 -0.00000035
-0.00662669 -0.00862388 -0.00000049
0.05564349 -0.27028523 -0.00000033
-0.75046483 0.42232310 -0.00000006
0.01255208 0.66159644 -0.00000091
0.64023058 -0.57687854 -0.00000021
0.26918120 -0.46905022 -0.00000021
0.33241465 0.45749821 0.02571766
0.24462141 -0.78761888 -0.00000001
0.08541794 0.68425634 0.07732387
-0.24307052 0.19609751 -0.00000062
0.64082775 -0.04301061 -0.00000078
-0.05231291 -0.29205675 -0.00000032
0.01195657 0.58782783 -0.00000087
0.48459298 0.27102786 0.11315889
-0.39866396 0.19729245 -0.00000046
0.71115531 0.04576842 -0.00000095
-0.50901113 0.08147512 -0.00000033
-0.09263007 -0.67268734 -0.00000008
0.09427293 0.70427458 0.00370017
-0.24630737 -0.20637394 -0.00000037
0.44646890 0.34358494 0.02535819
-0.08551869 0.00928754 -0.00000051
0.13130940 -0.54909452 -0.00000016
0.39612111 0.24114159 0.41495913
-0.54598720 -0.27845484 -0.00000022
-0.76828927 0.42367888 -0.00000004
0.75157731 0.04428794 0.01053968
-0.67208279 -0.58120786 -0.00000003
-0.73991497 0.59941000 -0.00000008
-0.46402932 0.58532664 -0.00000042
-0.40136747 0.29174478 -0.00000048
0.58086500 0.15550040 0.16225837
-0.56304430 0.57343463 -0.00000030
-0.67766409 -0.14909871 -0.00000010
0.31034516 0.43941852 0.12809408
-0.14450845 -0.43720509 -0.00000023
-0.79441243 -0.12058906 0.00000000
-0.58548948 0.04211839 -0.00000024
0.72169241 -0.61567110 -0.00000023
-0.29124147 -0.61563130 -0.00000012
-0.04240766 -0.56388705 -0.00000015
-0.19487362 -0.64614909 -0.00000010
-0.00997630 -0.34500857 -0.00000028
-0.38610861 0.30614474 -0.00000050
0.76444858 -0.53199873 -0.00000034
0.07308143 0.69105938 -0.00000096
0.25222433 0.53755879 -0.00000099
0.40277999 0.23374719 0.41683464
-0.12125124 -0.08198773 -0.00000045
-0.66703065 0.51941444 -0.00000017
-0.34584764 -0.37730874 -0.00000026
0.57430466 0.21798140 0.01966625
0.25572359 0.04942129 -0.00000053
0.52028962 0.26371956 0.04077149
-0.60027104 -0.58434987 -0.00000011
-0.35809344 -0.22081492 -0.00000036
0.36657680 -0.17097421 -0.00000039
0.34558523 0.21785442 -0.00000075
0.38524199 0.06181374 -0.00000062
-0.16033715 0.67613617 -0.00000080
0.58455997 -0.51219763 -0.00000022
0.08687602 -0.09092906 -0.00000044
-0.29234562 -0.38046472 -0.00000026
0.61824372 -0.40632652 -0.00000037
0.20342942 0.08445592 -0.00000055
-0.13734692 -0.28865353 -0.00000032
0.09264402 0.69849333 -0.00000099
-0.02865983 0.78791972 -0.00000096
0.24088077 -0.52499552 -0.00000017
-0.48680208 0.40934017 -0.00000039
0.00742216 0.51679027 -0.00000082
-0.52648788 -0.24450201 -0.00000025
-0.07243912 0.19609846 -0.00000062
-0.23843530 0.61803729 -0.00000070
-0.30718377 -0.67277971 -0.00000008
-0.21495033 -0.02322421 -0.00000049
0.27974118 0.36331726 0.40018015
-0.33763324 0.54680330 -0.00000058
0.23172658 0.43292218 -0.00000086
-0.39362830 -0.30213949 -0.00000031
0.01607952 0.25536745 -0.00000066
0.06362998 0.14326313 -0.00000059
0.37830307 0.28241606 -0.00000085
-0.67822820 -0.39925392 -0.00000006
0.13634157 0.26006603 -0.00000066
-0.73865020 -0.69817463 0.00000000
-0.47568255 0.44743488 -0.00000041
0.13773274 0.28643778 -0.00000068
-0.52026639 0.65027393 -0.00000035
-0.16359561 -0.51804730 -0.00000018
0.40663443 -0.71251467 -0.00000005
-0.76874858 0.03187259 -0.00000004
0.10832854 0.68195593 0.02477011
-0.30630753 -0.33022413 -0.00000029
0.34467813 0.00536324 -0.00000052
0.76123038 -0.20181590 -0.00000074
0.28953738 -0.46081130 -0.00000021
-0.52782219 0.64587175 -0.00000034
0.37345439 0.37706601 0.12616453
-0.06812052 -0.72052633 -0.00000005
0.25743980 0.43912726 -0.00000089
0.20133759 -0.04909437 -0.00000047
0.22502282 -0.75433786 -0.00000003
-0.27424924 0.50410787 -0.00000065
-0.16575394 0.68724552 -0.00000079
0.07314816 -0.20377857 -0.00000037
-0.26889116 -0.33800595 -0.00000029
0.56270787 0.20160409 0.09099741
0.07254456 -0.26710360 -0.00000033
0.14672109 0.43306299 -0.00000077
0.05215098 0.67533545 -0.00000092
-0.02143346 0.57626033 -0.00000086
0.21783298 -0.55563836 -0.00000015
0.37223076 -0.36512067 -0.00000027
-0.27101682 -0.39066606 -0.00000026
-0.02630190 0.04346624 -0.00000053
0.10470447 -0.16411507 -0.00000040
-0.16270114 -0.60181731 -0.00000012
0.07384072 -0.00777612 -0.00000050
-0.29775611 -0.66228665 -0.00000009
0.49945561 -0.19557217 -0.00000047
0.41179410 0.31353116 0.19040962
0.24929410 -0.28329679 -0.00000032
-0.25029463 0.14266199 -0.00000059
-0.55990646 -0.48548350 -0.00000017
0.29413046 -0.35622379 -0.00000028
-0.60457537 -0.63040605 -0.00000009
-0.71768714 -0.76953711 0.00000000
0.09113360 -0.24102147 -0.00000035
0.37751685 0.42058332 -0.00000100
0.14540455 0.45735618 -0.00000079
0.15400429 0.53382747 -0.00000088
-0.73863814 -0.21360202 -0.00000003
0.66199280 0.08784131 0.12791449
-0.71829868 -0.02011010 -0.00000008
-0.71084054 0.00080998 -0.00000010
-0.53642104 -0.53366829 -0.00000017
0.33188762 0.21573565 -0.00000073
-0.33500585 -0.37632875 -0.00000026
-0.36848876 -0.06300534 -0.00000045
-0.22259249 -0.27386528 -0.00000033
-0.20302946 -0.27636361 -0.00000033
-0.74919355 -0.57364881 0.00000000
-0.30552417 -0.07294605 -0.00000045
-0.04725981 0.64064863 -0.00000090
0.09858037 0.41392054 -0.00000076
0.59427555 0.03962632 -0.00000082
0.63069215 -0.36631904 -0.00000043
-0.12885041 0.24062428 -0.00000065
-0.50476773 0.63800354 -0.00000037
-0.35399397 0.33420813 -0.00000054
0.41952945 -0.49518998 -0.00000019
0.08098414 -0.39305016 -0.00000025
0.51881772 -0.66556771 -0.00000008
-0.12968998 -0.65564127 -0.00000009
-0.72937682 -0.47751178 0.00000000
-0.05003803 -0.56158388 -0.00000015
-0.62780574 -0.76517145 -0.00000002
0.36498460 -0.56019976 -0.00000015
0.44122480 -0.33891661 -0.00000029
-0.46869650 -0.44049711 -0.00000022
-0.47363902 0.42771149 -0.00000041
-0.51795176 0.47057605 -0.00000035
-0.04424537 -0.09525625 -0.00000044
0.71391615 0.08547199 0.00155665
0.73074893 -0.08022735 -0.00000084
0.22086275 0.40826211 -0.00000082
-0.64595168 -0.64230129 -0.00000005
0.53325162 -0.22545797 -0.00000047
-0.22339318 0.75695595 -0.00000072
0.00767576 -0.18650086 -0.00000038
0.31322661 0.47760487 0.02337530
0.54582902 -0.45815733 -0.00000024
-0.11498525 0.48559986 -0.00000080
0.67580356 -0.43035536 -0.00000041
0.11857019 -0.62506170 -0.00000011
-0.33738232 -0.72793401 -0.00000005
-0.47828693 -0.40728803 -0.00000025
0.68569814 -0.38022615 -0.00000047
-0.26337097 0.02161817 -0.00000051
-0.68208709 -0.48902521 -0.00000004
-0.04303074 -0.78430838 -0.00000001
-0.01899554 -0.16251806 -0.00000040
-0.52376640 -0.78664048 -0.00000001
-0.67316977 -0.41968512 -0.00000006
0.68507376 -0.61123690 -0.00000023
-0.32239890 0.06684644 -0.00000052
0.08583557 0.44265926 -0.00000078
0.14328206 0.32502058 -0.00000070
0.27966502 0.28676559 -0.00000075
-0.49645241 -0.72448236 -0.00000005
-0.37074851 -0.20316736 -0.00000037
0.24764425 0.17868896 -0.00000061
-0.05240595 0.55810425 -0.00000085
0.02520877 0.68120487 -0.00000093
-0.41982576 0.21141551 -0.00000044
0.23611847 0.48960564 0.18939230
-0.18191041 -0.73650027 -0.00000004
-0.09592887 -0.39694642 -0.00000025
0.36736372 0.30017776 0.33775171
-0.57747029 0.34787013 -0.00000028
-0.17943213 0.48878315 -0.00000075
0.78535046 -0.18211081 -0.00000077
-0.49702766 -0.32354047 -0.00000026
0.32103493 0.47624220 0.00693955
-0.02789634 -0.03795048 -0.00000048
0.47588780 0.28650668 0.09588680
-0.56500026 0.32327441 -0.00000029
-0.24042462 -0.40022042 -0.00000025
0.20425891 -0.69064815 -0.00000007
-0.68429273 -0.26229824 -0.00000008
-0.30467703 0.06420004 -0.00000054
-0.08477739 0.00192289 -0.00000050
0.13767976 0.53321387 -0.00000086
-0.68155127 -0.16563379 -0.00000010
0.05318790 0.67876101 -0.00000093
-0.08573668 0.05185068 -0.00000053
-0.52552882 0.19002024 -0.00000033
0.11626024 -0.10269976 -0.00000044
-0.27609118 -0.02218623 -0.00000049
-0.75712345 0.24116409 -0.00000005
-0.17002011 0.20665120 -0.00000063
-0.48599352 -0.44842778 -0.00000022
-0.12292316 0.01963715 -0.00000051
-0.20349930 0.49296953 -0.00000073
-0.70861429 0.28670878 -0.00000011
0.47296942 -0.56940581 -0.00000014
-0.52383872 0.62568962 -0.00000035
0.50560373 -0.06573297 -0.00000062
0.09347277 0.68454067 0.05606000
0.30389221 0.41107397 -0.00000091
-0.75742403 0.75057066 -0.00000005
-0.46115022 -0.15825272 -0.00000033
0.57879001 0.15183382 -0.00000093
0.15999880 0.24003489 -0.00000065
-0.11701745 -0.70453945 -0.00000006
-0.26024070 0.75438787 -0.00000067
0.11084209 0.42342551 -0.00000076
0.02663840 -0.46967567 -0.00000021
-0.14736734 0.20294735 -0.00000063
0.42498799 -0.76711972 -0.00000002
-0.35149464 -0.69327137 -0.00000007
-0.73747377 -0.73912809 0.00000000
-0.49837566 -0.21365548 -0.00000028
-0.64654536 0.73002792 -0.00000019
-0.36196933 0.25972667 -0.00000051
-0.64079927 0.24509366 -0.00000020
0.69545002 -0.41067561 -0.00000045
-0.59193390 0.34124455 -0.00000026
0.31291641 -0.63639955 -0.00000010
0.14613625 -0.50156295 -0.00000019
-0.60492929 -0.35699003 -0.00000014
0.30516613 0.44118287 0.13680118
0.32446623 0.39357976 0.20897103
-0.25615343 -0.17935603 -0.00000039
0.11390256 -0.50041360 -0.00000019
0.61597456 -0.61294510 -0.00000015
-0.33225408 0.70551919 -0.00000058
0.68249456 -0.37151729 -0.00000048
-0.57072436 0.35329718 -0.00000029
-0.46706183 -0.77046776 -0.00000002
0.59749115 0.11108812 -0.00000090
0.65485141 -0.73032849 -0.00000007
0.32679485 -0.11889795 -0.00000043
-0.62334115 -0.02321825 -0.00000018
-0.33513225 0.43902477 -0.00000058
0.36879504 0.36676389 0.16431476
-0.15932702 -0.51022776 -0.00000018
0.41856675 0.32398461 0.14648478
-0.25272180 0.08588102 -0.00000055
-0.18323200 0.57423703 -0.00000076
-0.53908665 0.61375023 -0.00000033
0.46409553 0.32186606 0.03579302
0.62852074 -0.73688761 -0.00000004
0.05326113 0.70873143 0.09691119
-0.44071055 0.77951369 -0.00000045
-0.32214444 0.34519108 -0.00000057
0.46618674 0.24187216 0.23443710
-0.35412347 0.48959459 -0.00000056
-0.61803820 0.57765485 -0.00000023
0.37982581 -0.39039024 -0.00000026
0.46777332 0.28628210 0.11715059
-0.28105236 -0.47217771 -0.00000020
-0.55569717 -0.18350716 -0.00000023
-0.07220777 -0.31951026 -0.00000030
0.56393016 -0.18828390 -0.00000055
-0.36665792 0.45497565 -0.00000054
0.07332992 0.29034678 -0.00000068
0.54613308 -0.56948501 -0.00000014
-0.72974983 -0.55641173 0.00000000
-0.70165769 0.63107343 -0.00000012
0.59187395 0.18189159 -0.00000097
0.13600401 -0.60105678 -0.00000012
0.17084264 -0.19420445 -0.00000038
-0.31173127 0.23003264 -0.00000056
-0.13240368 -0.50943180 -0.00000018
-0.09409712 -0.50775903 -0.00000018
-0.22661988 -0.46576432 -0.00000021
0.36089419 0.22699569 -0.00000077
-0.05286890 -0.50305784 -0.00000019
0.11977718 0.64688475 0.08500516
0.58990637 -0.41130838 -0.00000034
0.01807506 0.54479628 -0.00000084
-0.23154216 -0.44143676 -0.00000022
0.31109355 0.33728132 -0.00000084
-0.01005521 -0.77192786 -0.00000002
0.43537737 0.12619496 -0.00000075
0.54961373 -0.30351872 -0.00000041
0.28321494 -0.56770828 -0.00000015
-0.24840651 0.22780245 -0.00000063
-0.21754044 0.50193785 -0.00000071
-0.42512717 -0.31469668 -0.00000030
0.19189573 -0.71108717 -0.00000006
0.25485449 -0.30573245 -0.00000031
0.43423598 0.36541053 0.00089785
-0.73787181 -0.64039465 0.00000000
0.11248715 -0.70964776 -0.00000006
-0.00115444 0.56358983 -0.00000085
-0.39149084 -0.44479926 -0.00000022
-0.16059054 -0.30649569 -0.00000031
-0.08327769 -0.04990789 -0.00000047
-0.76342980 -0.18544515 -0.00000001
0.38522583 0.41040083 0.01114805
0.13612719 -0.23222323 -0.00000035
0.28567360 0.34322185 0.43629411
0.07013017 -0.27436792 -0.00000033
-0.08156005 0.50792635 -0.00000082
0.52207815 0.10792423 -0.00000082
-0.01981754 -0.32276884 -0.00000030
0.37797533 0.40008009 0.05595296
0.64257484 0.13758618 0.05058391
0.09115581 -0.49924976 -0.00000019
0.31816241 0.22470050 -0.00000073
0.24458002 0.43978720 -0.00000088
0.15745510 0.20783539 -0.00000063
0.73915403 0.05384839 0.01783961
0.76512703 -0.11522387 -0.00000084
0.32996189 -0.54730524 -0.00000016
0.53182190 0.22615948 0.10713978
-0.66447605 0.08862548 -0.00000016
-0.24357076 0.72960831 -0.00000070
-0.27388409 0.65322182 -0.00000066
0.24298621 0.16558151 -0.00000060
-0.72736241 0.77119896 -0.00000009
0.33613678 0.31009061 0.39209997
0.13158101 0.28673543 -0.00000068
0.38482998 -0.22479180 -0.00000036
-0.55619489 0.77636394 -0.00000030
-0.15564688 0.47913510 -0.00000078
-0.39324147 -0.35375758 -0.00000028
-0.11180173 -0.74349607 -0.00000004
-0.31554954 -0.50590888 -0.00000018
0.01800018 -0.41372109 -0.00000024
-0.58794897 -0.44181097 -0.00000015
0.59323906 0.15835842 0.12341808
-0.24141698 0.45201733 -0.00000068
-0.24407708 0.22300552 -0.00000063
0.01979935 0.67809652 -0.00000092
0.05996047 -0.52732872 -0.00000017
-0.04667715 0.28057724 -0.00000068
-0.70215836 -0.13275528 -0.00000008
-0.28494749 -0.59266420 -0.00000013
-0.57751550 0.69010332 -0.00000028
0.45496857 0.01402905 -0.00000065
0.53243450 -0.43581736 -0.00000025
-0.70980993 0.03252853 -0.00000010
-0.01914876 0.61055370 -0.00000088
0.76530707 -0.23492636 -0.00000071
-0.42088939 0.01776064 -0.00000041
0.38160545 -0.34043784 -0.00000029
0.65094479 0.09297360 0.14299899
0.34946528 0.32015663 -0.00000086
0.29470170 0.42197505 0.21246227
