ply
format ascii 1.0
element vertex 1381
property float x
property float y
property float z
end_header
-0.23580493 -0.06618138 0.00000000
-0.60405565 0.00340019 0.14502960
-0.01349750 0.61799853 0.00000000
-0.00606303 0.10270085 0.00001037
-0.14079837 -0.79134810 0.00000000
-0.22351016 0.09296215 0.05365644
-0.10641012 0.16246073 0.00000000
-0.11353527 0.04517893 0.02724978
-0.04876986 0.51520946 0.01170591
-0.66975518 0.09367810 0.16080672
-0.19568127 0.04319908 0.04697375
-0.52701478 0.13845931 -0.00000108
-0.13793662 -0.78062412 0.00000000
-0.35923114 -0.56675372 0.00000000
-0.46583222 -0.51555725 0.11184438
-0.00332979 0.70748268 0.00079947
-0.01298883 0.50858278 0.00311856
-0.09690983 -0.31476868 0.00000000
-0.23445331 -0.15391545 0.00000000
-0.03551492 0.10236460 0.00000993
-0.37827223 -0.64745554 0.00000000
-0.68422666 -0.03134160 -0.00000145
-0.30763507 0.15710621 -0.00000018
-0.23691853 0.32517072 0.05688334
-0.24316761 0.36063306 0.05838380
-0.25033430 0.13027807 0.06009770
-0.10526533 -0.09124988 0.00000000
-0.21751562 -0.40724019 0.05222460
-0.21815807 -0.31261185 0.05237885
-0.17019201 -0.02152186 0.04086239
-0.09304654 0.53847922 0.00000000
-0.31762001 -0.52578144 0.07625924
-0.14577401 0.63458992 0.03499981
-0.30427726 -0.47649896 0.07305571
-0.13460666 -0.70278667 0.00000000
-0.09004038 0.35628479 0.00000000
-0.08244644 0.15877047 0.00000000
-0.65944993 -0.67173470 0.15833146
-0.27741488 0.07341092 0.00000000
-0.54445927 -0.61440987 0.13072241
-0.65568662 -0.24787154 0.15742858
-0.36381727 -0.69917003 0.08735101
-0.39965800 0.38412345 -0.00000097
-0.55816772 -0.03972658 0.13401464
-0.32030638 0.20019088 0.07690455
-0.68858344 0.07403854 -0.00000166
-0.27254339 0.32105166 -0.00000032
-0.04450433 0.08971029 0.01068530
-0.16739657 0.33683359 0.00000442
-0.22506677 0.53027053 0.05403807
-0.02253080 0.05067662 0.00001090
-0.39943209 0.25449135 0.09590271
-0.39290254 -0.49296942 0.09433427
-0.50557786 -0.29736966 0.12138740
-0.12551840 0.65111761 0.03013640
-0.41849337 -0.04443118 0.10047884
-0.10479290 0.39363090 0.02515577
-0.06230277 0.51343091 0.00000336
-0.25051448 0.41742028 0.06014788
-0.30626745 -0.32493292 0.07353354
-0.03063841 -0.55125925 0.00735615
-0.25693512 0.37748744 0.00000212
-0.05792414 0.10629481 0.00000953
-0.60776501 -0.30781056 -0.00000064
-0.61800290 -0.73064535 0.00000000
-0.77721552 -0.56121616 -0.00000060
-0.00782349 0.56096502 0.00000000
-0.52575522 0.17596967 -0.00000114
-0.53633817 0.07846523 0.12877085
-0.04290456 -0.15802356 0.00000000
-0.08872109 -0.20464049 0.00000000
-0.69331371 -0.59002732 -0.00000050
-0.14883619 0.40145032 0.03573107
-0.21248343 0.30160750 -0.00000003
-0.31873221 0.00291797 0.00000715
-0.33558847 -0.13971349 0.00000000
-0.68443630 -0.25029026 -0.00000106
-0.76260022 -0.75011095 0.18309776
-0.01879182 0.38049321 0.00451184
-0.11697081 -0.63790131 0.00000000
-0.61155056 0.15550566 0.14683217
-0.27561744 -0.72744209 0.00000000
-0.43824273 0.07350191 -0.00000059
-0.52364693 -0.60346806 0.00000000
-0.08711040 -0.73508396 0.00000000
-0.48359304 -0.45814885 0.11610868
-0.04155569 -0.70913235 0.00000000
-0.36415826 0.32815306 0.08743359
-0.55665086 -0.27468895 -0.00000048
-0.26912422 0.36693126 0.00000207
-0.62296599 -0.42944610 -0.00000049
-0.20055265 0.01051859 0.04814293
-0.36438378 -0.26473242 0.08748703
-0.37658581 -0.06653441 -0.00000008
-0.12282259 0.24600772 0.02948269
-0.18585420 0.44589157 0.04462039
-0.32362969 0.28262529 0.00000243
-0.09252061 0.53420961 0.00000000
-0.46963694 -0.54632543 0.11275788
-0.61779521 -0.24357892 0.14833086
-0.16020893 0.55386131 0.03846445
-0.29090560 -0.17783155 0.00000000
-0.72899580 -0.50921954 -0.00000073
-0.06193413 0.01076372 0.00000000
-0.19371747 0.11435436 0.04650326
-0.70205343 0.06141228 0.16856148
-0.06339123 0.63129381 0.00000157
-0.45894917 0.26291114 0.00000016
-0.41696091 -0.37404618 0.00000000
-0.58697410 -0.41772956 -0.00000035
-0.47494653 -0.54637692 0.00000000
-0.09243629 0.50445319 0.00000304
-0.16043163 0.33259150 0.00000000
-0.08861099 -0.43484664 0.00000000
-0.05632761 0.08200975 0.01352402
-0.06046154 0.64936974 0.01451656
-0.31203737 -0.29035730 0.07491887
-0.37204987 -0.18197688 0.00000000
-0.08426913 -0.29380216 0.00000000
-0.44505362 -0.05804469 0.10685593
-0.33367661 0.40592352 -0.00000073
-0.43812936 0.27799407 -0.00000095
-0.69112004 -0.21518062 0.16593619
-0.03691737 0.15398464 0.00886371
-0.02071569 0.54082393 0.00000000
-0.29483813 -0.09911696 0.07078941
-0.62678669 -0.21329580 0.15048976
-0.48255782 -0.37312556 0.11586017
-0.20818956 -0.41656252 0.04998545
-0.15286981 0.41020464 0.03669971
-0.06281037 0.25301094 0.00000000
-0.23148658 0.16996893 0.05557897
-0.61953402 -0.27328898 -0.00000075
-0.33638318 0.31181418 0.08076250
-0.13812266 -0.65686516 0.03316268
-0.04749053 0.54138651 0.01139912
-0.21959432 0.30101897 0.05271940
-0.30466871 0.17389441 0.00000461
-0.72959313 -0.76424374 0.17517272
-0.44130550 0.06584723 0.00000379
-0.33639536 0.43852980 0.08076765
-0.68800594 -0.53590851 0.16518797
-0.38456430 0.14039232 0.09232855
-0.48779869 0.10216356 0.00000229
-0.44417274 -0.44476909 0.00000000
-0.44271855 -0.77440580 0.10629488
-0.19838820 0.35643543 -0.00000006
-0.02549945 -0.63926438 0.00612231
-0.51633636 -0.68545097 0.00000000
-0.68502332 0.03631970 0.16447183
-0.74321029 -0.42250679 -0.00000094
-0.02505257 0.44410473 0.00000496
-0.53824855 -0.39369879 0.12923147
-0.60294352 -0.64849609 0.14476431
-0.06708354 -0.54278268 0.01610648
-0.16548827 0.00169427 0.03972353
-0.26336465 0.10377188 0.06322602
-0.59919387 0.11107777 -0.00000134
-0.09509093 0.02017771 0.02282076
-0.45835311 0.11324893 0.11004597
-0.20163031 0.14502252 0.00000000
-0.50489120 0.06905023 0.00000251
-0.48226841 -0.70382756 0.11579064
-0.36632465 0.41478927 -0.00000060
-0.15405193 0.32243155 0.03698226
-0.25860511 0.27020611 0.00000388
-0.09548103 0.44149108 0.00000394
-0.06629251 0.06591696 0.00000000
-0.16807022 0.28088917 0.00000525
-0.13916809 0.02054426 0.03340409
-0.27528147 -0.52550807 0.00000000
-0.03547460 0.36335763 0.00000601
-0.26489691 -0.55830053 0.06360065
-0.53787532 -0.78247748 0.12914163
-0.08761034 0.15867090 0.00000830
-0.35714767 0.19387592 0.00000327
-0.55132301 -0.29127755 -0.00000042
-0.38779602 -0.12849963 0.09310827
-0.47678686 -0.67420880 0.00000000
-0.22983354 0.10259640 0.05517488
-0.15004670 -0.60713493 0.00000000
-0.02992643 0.09537866 0.00001012
-0.05457375 0.07345059 0.00000000
-0.66399437 -0.54406834 0.15942279
-0.28410439 0.01572057 0.06821228
-0.74030233 -0.46007508 -0.00000085
-0.01976532 0.53819716 0.00000000
-0.66381692 -0.39814505 0.15938042
-0.26088939 -0.52703490 0.00000000
-0.42876795 0.07287139 -0.00000054
-0.68142089 -0.54645931 0.16360689
-0.44573621 -0.52513568 0.00000000
-0.39240403 0.14334950 -0.00000051
-0.32554592 0.28812327 0.00000230
-0.03949425 0.27659625 0.00947526
-0.38937244 0.20321974 -0.00000061
-0.52133647 -0.05321066 -0.00000072
-0.03251222 0.03032164 0.00780605
-0.46102334 0.19104960 0.11069066
-0.30745602 0.18253368 0.07381434
-0.29228036 -0.75534919 0.00000000
-0.67317038 0.02905401 0.16162688
-0.17081071 -0.38124662 0.00000000
-0.00312974 0.59152741 0.00000308
-0.28101419 -0.25896642 0.06747034
-0.74997150 -0.28653446 0.18006631
-0.12396156 -0.54723921 0.02976266
-0.71401908 -0.37500435 0.17143399
-0.03540552 0.17530829 0.00850072
-0.57299263 0.10270682 0.00000064
-0.40769429 -0.70057547 0.00000000
-0.22805814 -0.15305597 0.00000000
-0.40935093 0.32823272 0.00000002
-0.72547204 -0.02405474 0.17418441
-0.73419183 -0.02671622 -0.00000167
-0.45768053 -0.02034827 0.10988771
-0.16132002 0.23912925 0.00000598
-0.75520595 -0.35465969 -0.00000111
-0.57164538 0.08841694 0.00000091
-0.52604338 -0.54609051 0.12630083
-0.04310777 -0.06855888 0.01035000
-0.37124232 0.06946583 0.00000507
-0.15864470 -0.64796770 0.03808993
-0.01644313 0.01226514 0.00394793
-0.61928704 -0.56365940 0.14868853
-0.02368649 0.01285156 0.00568703
-0.13766617 0.07465977 0.00000000
-0.02113425 0.28931384 0.00506704
-0.39159567 -0.01699292 -0.00000023
-0.67798872 -0.33962173 -0.00000088
-0.34025981 -0.27319816 0.00000000
-0.06563074 0.69312127 0.01575776
-0.03053746 0.76575829 0.00733194
-0.13495054 0.39333979 0.03239688
-0.16978624 -0.52783704 0.00000000
-0.28697539 0.27096793 0.00000333
-0.34637806 -0.24959139 0.08316393
-0.12628306 0.61581625 0.00000065
-0.07344676 -0.32918653 0.01763426
-0.52767952 0.07264807 0.12669166
-0.64817543 0.10642416 -0.00000086
-0.33617793 -0.71457644 0.00000000
-0.06036830 -0.40602235 0.00000000
-0.48573484 0.16554095 0.00000127
-0.74381559 -0.31098148 0.17858824
-0.14020430 0.57695544 0.03366142
-0.59524771 -0.03063042 0.14291756
-0.76347425 -0.43680144 0.18330809
-0.17457055 0.49260746 -0.00000020
-0.41571183 -0.39310307 0.00000000
-0.43246610 0.07503824 -0.00000056
-0.40530598 0.05877680 0.09730753
-0.45833720 0.14941464 0.11004565
-0.26476160 0.10673439 0.00000000
-0.64976534 -0.34613177 -0.00000075
-0.33798931 -0.16289371 0.08114983
-0.25826868 -0.25809024 0.00000000
-0.52085270 -0.45712966 0.12505463
-0.00996127 0.21587657 0.00000000
-0.73995802 -0.04976409 0.17766246
-0.20676800 -0.03004949 0.04964414
-0.76510151 -0.19165502 -0.00000151
-0.56894700 -0.32033549 0.13660229
-0.32881177 -0.32172305 0.00000000
-0.17848537 0.37538746 0.04285363
-0.10450558 0.01881426 0.02508128
-0.01154374 -0.28479659 0.00000000
-0.39008313 -0.75228053 0.00000000
-0.36868552 0.01417746 0.08852007
-0.71789626 -0.05390116 -0.00000155
-0.37505567 -0.10014614 0.09004936
-0.53000461 0.15392674 0.00000061
-0.08229539 -0.26892887 0.00000000
-0.09924995 -0.34819531 0.02382950
-0.64190508 -0.60830198 -0.00000025
-0.08605468 -0.43674571 0.00000000
-0.08435849 -0.65455349 0.02025412
-0.52097603 -0.64637727 0.00000000
-0.67923650 -0.78633246 -0.00000003
-0.01674966 -0.04382024 0.00000000
-0.19734703 -0.54538677 0.00000000
-0.58667056 -0.66059776 0.00000000
-0.39118548 -0.68670146 0.09392201
-0.27419488 -0.55185717 0.06583305
-0.28246216 -0.71075687 0.06781799
-0.61146149 -0.31673514 -0.00000064
-0.79390805 -0.34614577 -0.00000113
-0.34513635 0.37743192 0.00000043
-0.09225809 0.46965424 0.02214716
-0.37504097 0.03513180 0.09003999
-0.41042824 -0.55333716 0.09854212
-0.56934757 0.06096279 0.13669663
-0.25364267 0.25457982 0.00000424
-0.04907113 0.63631860 0.01178002
-0.16281178 0.37281355 0.03908631
-0.09535905 0.00495496 0.02288492
-0.50100875 -0.28149634 0.12029038
-0.15912373 -0.56717810 0.03820495
-0.65400877 -0.30854908 0.15702563
-0.55375624 -0.50666161 -0.00000005
-0.04426180 0.31026440 0.00000000
-0.71492667 -0.51390207 0.17165169
-0.01985357 -0.31308634 0.00000000
-0.03816531 0.67572088 0.00916333
-0.05599689 0.37442141 0.00000554
-0.73809275 -0.44495238 -0.00000089
-0.55349915 -0.26491113 -0.00000048
-0.37180066 -0.02250782 -0.00000013
-0.52621368 0.16045304 -0.00000112
-0.56573035 -0.15949215 -0.00000072
-0.03192038 0.34597481 0.00000000
-0.36642639 -0.49983044 0.00000000
-0.52997742 -0.02727494 0.12724617
-0.31110736 0.26986753 0.00000288
-0.35236957 0.25100965 0.08460002
-0.29358011 -0.56885360 0.00000000
-0.61051112 0.11512519 0.14658163
-0.16247920 -0.09200027 0.03901058
-0.10658750 0.41303364 0.00000420
-0.26941969 -0.45924736 0.06468655
-0.76201332 -0.27581406 -0.00000131
-0.60549903 -0.73525318 0.14537780
-0.06395135 0.47089851 0.01535047
-0.34798604 0.44445432 -0.00000086
-0.50320907 -0.08217948 0.12081900
-0.40780115 0.16916835 0.09790861
-0.75385261 -0.03459802 -0.00000174
-0.09294413 -0.40140474 0.00000000
-0.09793308 0.45553935 0.02350957
-0.35408994 -0.06525141 0.00000000
-0.49906903 -0.79585704 0.00000000
-0.31849442 -0.63840856 0.07646919
-0.33342639 0.23789356 -0.00000043
-0.54189644 -0.50156271 0.13010716
-0.14975248 -0.74944861 0.03595495
-0.04836309 -0.23026612 0.01161178
-0.54549189 0.24904124 -0.00000127
-0.64848504 -0.19458508 -0.00000101
-0.30283211 -0.30405773 0.00000000
-0.18290112 0.35936977 0.04391382
-0.39408310 0.32869509 -0.00000085
-0.52561981 -0.55935083 0.00000000
-0.23537906 -0.52769088 0.00000000
-0.00687839 -0.40694099 0.00165147
-0.37515514 0.41446572 -0.00000076
-0.12688661 -0.02998032 0.03046495
-0.03831196 0.37901651 0.00000000
-0.63170737 0.15782685 -0.00000140
-0.39620240 -0.71030806 0.09512655
-0.72356570 -0.27608927 -0.00000119
-0.11473150 0.67606479 0.02754672
-0.02431931 0.33943112 0.00583254
-0.56778595 0.11738880 0.00000050
-0.73802915 0.04331717 -0.00000181
-0.38932029 -0.46381772 0.09347418
-0.31204762 0.34237229 0.07491967
-0.30076551 0.14066215 0.07221269
-0.63460664 -0.11282936 0.15236750
-0.22658040 0.54580345 0.05440151
-0.78343988 0.00959515 -0.00000184
-0.59290070 -0.76315952 0.14235299
-0.40043908 0.39210307 -0.00000088
-0.11992476 0.61810249 0.00000074
-0.57238236 -0.50923373 0.13742681
-0.05383385 0.47033374 0.01292116
-0.24681335 -0.20195674 0.00000000
-0.57950208 -0.66010234 0.00000000
-0.29761565 0.45352541 0.07145692
-0.31141371 0.15465053 -0.00000019
-0.40886229 0.11458212 0.09816244
-0.23831995 -0.59340462 0.05721963
-0.13529077 0.25347993 0.03247652
-0.30359336 -0.39475904 0.07289150
-0.04483594 -0.44978446 0.00000000
-0.54068056 0.20965434 -0.00000126
-0.09863172 -0.19807669 0.00000000
-0.13238936 0.05723072 0.00000000
-0.00750374 -0.26038033 0.00180162
-0.42133616 0.09344659 0.10115725
-0.62797728 -0.18661889 0.15077567
-0.47465563 -0.71420978 0.11396284
-0.41069613 0.35496977 0.09860737
-0.03952608 0.32128593 0.00000000
-0.55891967 0.15905789 -0.00000125
-0.38559115 -0.46640217 0.00000000
-0.11506799 -0.31624485 0.00000000
-0.13829702 0.30080973 0.00000000
-0.69829372 -0.30847696 -0.00000102
-0.04130120 0.06663476 0.00000000
-0.07008610 -0.49516498 0.01682738
-0.06921247 0.47113988 0.00000000
-0.11453304 0.37679335 0.02749891
-0.77104752 -0.18132142 0.18512684
-0.70616527 -0.10125752 0.16954874
-0.59553507 0.14556256 -0.00000050
-0.34788311 -0.01137526 -0.00000005
-0.14172312 0.47028990 0.03402423
-0.11083676 0.12271839 0.02660298
-0.21653786 0.27358753 0.05198986
-0.21503552 0.15139925 0.05162914
-0.37862114 0.16033650 0.09090585
-0.21686201 -0.72957178 0.05206767
-0.47266016 -0.64180982 0.11348374
-0.09578805 0.21205882 0.02299831
-0.51412104 -0.47458319 0.00000000
-0.02161205 -0.02151455 0.00000000
-0.15671824 0.62526014 0.03762753
-0.21079377 0.06551205 0.05060272
-0.52153505 0.17115537 0.12521948
-0.75369518 -0.29189063 0.18096036
-0.26511470 -0.68664423 0.00000000
-0.53628622 -0.11370807 -0.00000067
-0.78870652 -0.39797223 -0.00000101
-0.71670932 -0.20604790 0.17208019
-0.29491445 -0.62118792 0.00000000
-0.13462657 0.64825118 -0.00000005
-0.46902981 -0.01193766 -0.00000057
-0.13722793 0.21026841 0.00000000
-0.14332566 -0.34977566 0.03441190
-0.30278786 0.45263326 0.07269877
-0.01378575 -0.20248825 0.00330990
-0.43291145 0.10951024 -0.00000063
-0.10492077 0.40148847 0.00000439
-0.73559561 0.00520348 0.17661452
-0.10593609 0.00168203 0.00000000
-0.32025964 0.27884709 0.00000256
-0.16416139 0.13556252 0.00000000
-0.17090368 0.17727920 0.04102639
-0.65140256 -0.01285241 0.15640036
-0.30893275 -0.20416871 0.07417347
-0.39548703 0.36288156 -0.00000092
-0.53857787 -0.35206309 0.12931061
-0.30901058 0.29465348 0.07419258
-0.14245152 0.18795892 0.00000703
-0.31076191 -0.24265764 0.00000000
-0.00985121 -0.70519383 0.00236523
-0.31639229 0.11521490 0.07596464
-0.54234577 0.25763435 -0.00000136
-0.30708260 0.34846570 0.07372976
-0.15129371 -0.57371886 0.00000000
-0.78112356 -0.37923404 -0.00000105
-0.37486607 -0.14584358 0.00000000
-0.04739386 -0.14803819 0.01137907
-0.51223192 0.04574818 0.00000276
-0.06252161 0.27961867 0.01500438
-0.22815367 0.42701196 -0.00000031
-0.35300450 -0.11790788 0.08475491
-0.15683298 0.59513529 -0.00000031
-0.44120983 0.01820726 -0.00000050
-0.19906702 0.19037439 0.04779516
-0.26595592 0.33378835 0.00000268
-0.58079215 0.17812104 -0.00000138
-0.18795614 0.36262818 -0.00000003
-0.77014997 -0.67906040 -0.00000030
-0.04639170 -0.51876298 0.00000000
-0.21401342 -0.66444591 0.05138373
-0.08786205 0.60828063 0.00000152
-0.30517916 0.41516836 0.07327286
-0.03552356 0.11280797 0.00851946
-0.14220324 0.64385314 -0.00000033
-0.33449411 0.20359778 0.00000354
-0.22012339 -0.50173506 0.00000000
-0.10759910 -0.63048699 0.00000000
-0.61497194 0.01057564 0.14765341
-0.60856872 -0.47133259 0.14611521
-0.65012840 -0.66779363 0.15609337
-0.14180774 0.51155592 0.03404528
-0.54421668 -0.57947867 0.13066416
-0.70251308 -0.15106134 -0.00000132
-0.05089939 0.11904707 0.01221142
-0.06689740 0.20945756 0.00000785
-0.00177797 0.78158872 0.00042688
-0.45345400 0.14664659 0.10887319
-0.04437452 0.56589585 0.01065129
-0.51069994 0.04415286 0.12261777
-0.09319235 0.54150089 0.02237253
-0.08634559 0.21361224 0.00000000
-0.19715164 0.35768776 0.04733154
-0.11942425 -0.71904169 0.02867327
-0.36008135 -0.73536420 0.08645403
-0.04470879 0.34374140 0.00000000
-0.72504495 -0.72131811 0.17408077
-0.03720253 0.03210549 0.00892141
-0.51222330 0.26584516 0.12298389
-0.26899511 -0.65330369 0.06458461
-0.22577543 0.10032553 0.05420046
-0.04083521 -0.19898602 0.00000000
-0.28464961 -0.25466899 0.00000000
-0.19321434 -0.66710494 0.04638996
-0.16826594 -0.31423664 0.04039995
-0.20308326 0.14691944 0.04875945
-0.52979042 -0.02381752 -0.00000080
-0.71432380 -0.22300699 -0.00000124
-0.59884695 -0.65050610 0.00000000
-0.31573876 0.40816866 0.00000048
-0.57556875 0.11464955 0.00000039
-0.15841895 0.32578308 0.03803087
-0.44416315 -0.46319653 0.00000000
-0.28940431 -0.41209353 0.06948477
-0.17009008 -0.14685367 0.00000000
-0.31156917 -0.31672717 0.00000000
-0.44322218 0.21981887 0.00000118
-0.24482655 -0.56878841 0.00000000
-0.29997041 -0.61551234 0.07202165
-0.46431455 -0.69852235 0.11147999
-0.49951856 0.06272463 -0.00000083
-0.42556513 -0.46657118 0.10217642
-0.68899305 -0.05688149 0.16542576
-0.06885354 0.42623754 0.00000000
-0.20075935 -0.52331219 0.00000000
-0.18111222 0.53361427 0.04348459
-0.18921593 0.40837629 0.04543009
-0.33463070 -0.16882246 0.08034344
-0.56025986 -0.68256953 0.13451606
-0.23378813 -0.02035604 0.00000000
-0.16415036 -0.51546471 0.00000000
-0.36893399 -0.52893413 0.00000000
-0.61981060 0.16986113 -0.00000138
-0.30512709 0.10092594 0.07325369
-0.39314604 0.26388448 -0.00000073
-0.23565504 0.55692749 0.05658035
-0.22729876 -0.03977595 0.05457349
-0.32497528 0.19353622 -0.00000031
-0.16741863 0.06288636 0.00000000
-0.04243449 0.55505360 0.01018531
-0.40393470 0.21869340 0.00000195
-0.50684089 -0.35400955 0.12169056
-0.08871768 0.70631254 0.02130091
-0.70973329 -0.47192608 -0.00000078
-0.02253332 0.69672325 0.00541016
-0.56052589 -0.05541511 -0.00000088
-0.30615570 0.34570232 0.07350721
-0.51650170 -0.11077256 -0.00000059
-0.43503289 -0.42634557 0.10444959
-0.13045143 0.15003284 0.03131304
-0.28875662 -0.79103953 0.00000000
-0.10198759 0.53902938 0.02448431
-0.32341398 0.07303507 -0.00000010
-0.26870662 0.38789885 0.06451576
-0.41549418 -0.74584744 0.09975843
-0.47634614 0.18906642 -0.00000095
-0.43006813 0.35972154 -0.00000090
-0.09037774 -0.25194700 0.02169932
-0.19877603 0.04427075 0.04771684
-0.59646564 0.06514658 0.14320820
-0.61072403 -0.22671045 -0.00000079
-0.03055536 0.04779999 0.00732560
-0.07498969 0.32182493 0.00000604
-0.30994064 0.39094685 0.07441461
-0.65385485 -0.56711103 -0.00000037
-0.24145783 -0.63264880 0.00000000
-0.56220976 -0.71655687 0.00000000
-0.51662328 -0.26810417 -0.00000032
-0.28347480 -0.48688313 0.00000000
-0.26026512 -0.71256995 0.00000000
-0.09088184 -0.06364178 0.02182035
-0.32541631 0.14984192 -0.00000024
-0.46599823 -0.45213598 0.00000000
-0.45149986 -0.52385640 0.10840324
-0.32725040 0.35488811 0.07857033
-0.73877604 -0.31463838 0.17737824
-0.62217173 -0.36935926 0.14938146
-0.13085226 -0.20000078 0.00000000
-0.56779653 -0.40592378 -0.00000029
-0.04616554 -0.69688676 0.00000000
-0.23460584 0.06169489 0.05632789
-0.13982591 -0.57485088 0.03357162
-0.65933946 0.03661481 0.15830609
-0.32940848 -0.01751121 0.07908961
-0.20552093 0.30880045 0.00000426
-0.48609215 0.13095290 0.11670958
-0.57923865 0.00027214 0.13907058
-0.28931446 -0.52627764 0.00000000
-0.11017187 0.05817340 0.02644239
-0.48237080 0.17348458 -0.00000095
-0.44907589 -0.57797958 0.10782126
-0.04232420 0.08026217 0.00001016
-0.76502844 -0.34007422 0.18368141
-0.40516324 -0.06823210 -0.00000019
-0.36711321 -0.28057794 0.08814236
-0.68433103 0.05684026 0.16430660
-0.22454419 0.36538434 0.00000295
-0.17700553 -0.50590880 0.04249829
-0.36538512 -0.15358877 0.08772745
-0.22865257 -0.43804098 0.05489853
-0.36850493 0.12632770 0.00000418
-0.15954591 -0.27802998 0.03830631
-0.60779713 -0.08999625 -0.00000102
-0.39782445 0.15315720 0.09551655
-0.48278438 -0.66913829 0.00000000
-0.36249029 -0.56902279 0.08703241
-0.73744428 -0.70368025 -0.00000024
-0.56810097 0.02747828 0.00000199
-0.79485043 -0.31480705 -0.00000121
-0.53370112 0.23518670 0.12814041
-0.34263489 0.02952964 0.00000629
-0.06974569 0.19773388 0.01673774
-0.37136310 -0.18501427 0.08916274
-0.24867608 -0.28644225 0.00000000
-0.39838981 0.05485314 -0.00000038
-0.22513320 -0.15386077 0.00000000
-0.38902704 -0.73088450 0.09340378
-0.44474380 -0.58123090 0.10678114
-0.32115810 -0.02471267 0.00000000
-0.30475698 0.03774182 0.00000684
-0.17849319 0.09018131 0.04284742
-0.00900436 0.02165432 0.00001154
-0.06725037 -0.26837935 0.00000000
-0.21259382 0.38773814 0.00000280
-0.20483076 0.51716033 0.04917938
-0.14687028 0.18814632 0.03526295
-0.10638290 -0.08793866 0.00000000
-0.12939751 0.02911140 0.03106781
-0.65437666 -0.53465780 0.15711359
-0.12876872 -0.55413287 0.03091683
-0.50451751 0.28741841 -0.00000113
-0.31444145 -0.13500608 0.00000000
-0.60337869 -0.70925576 0.14486872
-0.61364250 0.11726569 -0.00000038
-0.07520281 0.37239176 0.01805588
-0.10973169 0.37931234 0.00000465
-0.54335173 -0.29979976 0.13045690
-0.24848585 0.31896550 0.05965704
-0.13472351 0.45689022 0.03234330
-0.10695226 -0.03335548 0.00000000
-0.20579153 -0.75911468 0.04940969
-0.00481377 0.61222247 0.00115308
-0.37213224 0.40226516 -0.00000089
-0.51681837 -0.72448700 0.12408594
-0.27850621 -0.57617588 0.06686818
-0.08904134 0.51319551 0.02137845
-0.18984891 0.23761179 0.04558193
-0.73947796 -0.44222602 -0.00000089
-0.35694165 0.21967523 0.08569730
-0.67642632 -0.08445526 -0.00000132
-0.07265564 0.12662170 0.01744432
-0.45390953 0.34143950 -0.00000113
-0.04366712 -0.58463136 0.01048430
-0.21468833 -0.49476280 0.05154578
-0.60513355 -0.29832984 0.14529071
-0.37336502 0.29701414 0.08964408
-0.00180834 0.67090094 0.00000191
-0.22032604 -0.47108079 0.00000000
-0.18834192 -0.43575480 0.04522011
-0.08480136 0.61771595 -0.00000004
-0.66640788 -0.77811195 0.16000190
-0.33314113 0.07723967 0.00000568
-0.12656101 0.21647014 0.00000684
-0.08242810 0.07471075 0.00000964
-0.14410207 0.54155717 0.00000155
-0.29139566 0.18606374 0.06995805
-0.47863421 -0.62007241 0.11491809
-0.21644105 -0.11404014 0.05196660
-0.03718839 0.74099974 -0.00000005
-0.75149760 0.03089348 -0.00000158
-0.17015371 0.28321973 0.04085320
-0.02185607 -0.50435232 0.00000000
-0.22714349 0.23427851 0.05453091
-0.53373438 -0.70977825 0.00000000
-0.60264808 -0.09284415 -0.00000099
-0.20492591 0.18207932 0.04920186
-0.07616787 0.31249497 0.00000616
-0.54176027 0.07134364 0.00000177
-0.23506315 -0.25477087 0.05643769
-0.15408049 -0.45768850 0.03699408
-0.75885906 -0.45945824 -0.00000085
-0.24705917 0.49572189 0.05931838
-0.25600275 0.14660713 0.00000000
-0.02337435 0.26609704 0.00561208
-0.54581323 0.18161804 -0.00000015
-0.52278142 -0.02433984 -0.00000077
-0.75783354 -0.44479652 0.18195375
-0.14945006 0.10868000 0.03588234
-0.18327027 0.18823338 0.00000641
-0.58553250 0.00135519 0.14058185
-0.33823750 -0.13011643 0.00000000
-0.28750949 -0.47694955 0.00000000
-0.48270809 -0.49314960 0.00000000
-0.00288236 0.03885999 0.00068093
-0.14146045 0.25610581 0.00000000
-0.34305405 -0.71431282 0.00000000
-0.56092979 -0.25593403 -0.00000053
-0.40389201 0.19605786 -0.00000066
-0.17349176 -0.70508582 0.04165465
-0.03705127 0.27982981 0.00000000
-0.13382910 -0.05578253 0.00000000
-0.66010100 -0.44186632 0.15848815
-0.37497011 0.38533447 -0.00000087
-0.14152862 0.27155674 0.00000579
-0.28643603 -0.78609510 0.00000000
-0.34562186 0.15136559 -0.00000033
-0.08409883 0.29347252 0.00000000
-0.10745450 -0.73771372 0.02579938
-0.24026601 -0.18872630 0.05768687
-0.22207421 0.48734233 0.05331948
-0.26582799 0.38504829 0.06382234
-0.53311710 0.14023722 0.12800028
-0.61885933 -0.37088582 0.14858615
-0.08918622 -0.63794498 0.00000000
-0.70163074 -0.57635255 0.16845923
-0.37532090 -0.49193182 0.00000000
-0.28909143 -0.28847954 0.00000000
-0.12041534 -0.40782621 0.02891122
-0.58786143 -0.22661245 -0.00000069
-0.13110374 0.56526647 -0.00000014
-0.34431751 0.14087334 0.00000440
-0.37789127 -0.52223195 0.00000000
-0.06270702 -0.47457899 0.00000000
-0.00676066 -0.52714070 0.00000000
-0.49321599 0.29341297 -0.00000121
-0.07763433 0.46903526 0.00000379
-0.27028804 -0.39468623 0.00000000
-0.61918277 0.07580456 0.00000021
-0.31908814 0.04665322 0.00000646
-0.38464191 -0.33162792 0.09235092
-0.59040792 -0.43072911 0.14175487
-0.39811986 -0.43625219 0.09558692
-0.29531246 0.13979380 -0.00000009
-0.49454352 0.25552853 -0.00000040
-0.40002426 0.01461602 0.00000544
-0.17120971 -0.39550829 0.04110674
-0.53116755 0.10458006 0.00000142
-0.10217163 -0.79152915 0.02453098
-0.30411217 -0.18808127 0.07301607
-0.64585460 -0.53292325 -0.00000040
-0.51654386 -0.60044461 0.00000000
-0.54481644 -0.05640727 -0.00000081
-0.04444905 0.10330746 0.00000978
-0.44042567 -0.04064506 0.10574479
-0.08337063 0.52566839 0.00000286
-0.67535036 -0.59384690 0.16214928
-0.51891687 0.20417079 0.12458992
-0.51012885 -0.59995099 0.00000000
-0.73248333 -0.37063538 0.17586727
-0.06859418 0.37364766 0.01646918
-0.71584447 0.02346738 -0.00000168
-0.08637194 0.49716198 0.00000000
-0.22204951 -0.08357806 0.00000000
-0.40942618 0.17587695 0.09830216
-0.09020349 0.15502995 0.00000000
-0.63605433 -0.75616081 0.15271404
-0.25378530 0.44238848 0.00000110
-0.00628621 0.46383986 0.00150929
-0.59014517 -0.51802741 0.14169164
-0.55760232 0.21489685 0.13387930
-0.70376491 -0.31448457 0.16897206
-0.16907383 -0.33500265 0.00000000
-0.22974483 -0.14804905 0.05516078
-0.19513902 -0.03553940 0.04685207
-0.26588954 -0.72069651 0.06383897
-0.64747369 -0.40163876 0.15545640
-0.16652572 -0.78335092 0.03998213
-0.50375026 -0.79688152 0.00000000
-0.42878223 -0.11637012 -0.00000021
-0.25827978 0.06250324 0.06200449
-0.22907483 0.53667088 -0.00000000
-0.57761130 -0.23959158 0.13868271
-0.18509069 0.18667920 0.04443295
-0.70520459 -0.73987559 0.16931706
-0.23785157 0.24056891 0.00000478
-0.23759793 0.32714665 0.05704647
-0.06370269 0.70361271 0.01529485
-0.33013056 0.11460281 0.07926319
-0.05111058 0.16346623 0.01227144
-0.23880431 0.26581978 -0.00000007
-0.66890838 -0.34402359 0.16060296
-0.15512623 -0.67214880 0.03724516
-0.61718522 -0.67779348 -0.00000002
-0.53621065 0.10655222 -0.00000106
-0.54122550 -0.78467906 0.12994599
-0.53814207 0.03560266 -0.00000095
-0.53065279 0.24396977 -0.00000128
-0.06207287 0.16002679 0.00000866
-0.00041203 0.64273198 0.00000235
-0.56191879 0.01122713 -0.00000100
-0.37491767 0.14295274 0.00000378
-0.49004223 -0.15309428 -0.00000041
-0.24641664 0.35539155 0.00000269
-0.64800266 -0.65651300 0.15558299
-0.52481769 0.24134725 -0.00000075
-0.10905218 0.28623922 0.00000606
-0.08686494 0.20144628 0.00000000
-0.37105635 -0.37860653 0.08908909
-0.15958111 -0.34969411 0.00000000
-0.06693214 -0.06232209 0.00000000
-0.12189282 0.41513501 0.00000393
-0.19521828 0.46395154 -0.00000024
-0.27215714 0.22211444 0.06534396
-0.39220078 0.14181150 -0.00000051
-0.11812010 0.08276331 0.00000898
-0.04937027 0.55002708 0.01185058
-0.02539467 -0.26429319 0.00000000
-0.47472212 0.03436564 -0.00000067
-0.04581761 0.37834015 0.01100062
-0.06926606 0.50025984 0.00000345
-0.05578108 -0.71228588 0.00000000
-0.26279659 0.11876589 0.00000000
-0.47320952 0.09832472 0.11361298
-0.66163330 -0.63250317 -0.00000029
-0.54401063 -0.46747138 0.13061483
-0.24738236 -0.25527243 0.00000000
-0.34352276 -0.74452025 0.08247839
-0.08267744 -0.71774867 0.00000000
-0.25198041 -0.05143047 0.00000000
-0.21686826 -0.66105030 0.00000000
-0.10800174 0.46279743 0.02592725
-0.53142943 0.07703786 -0.00000099
-0.00334657 0.43839712 0.00080350
-0.58622292 -0.74118095 0.00000000
-0.44679132 0.25727246 -0.00000095
-0.01016312 0.08225670 0.00001061
-0.67568749 -0.41421156 -0.00000074
-0.57626817 -0.33947730 0.13836007
-0.62184624 -0.55890426 -0.00000025
-0.77671203 -0.04907539 0.18648709
-0.49229585 -0.29796696 0.11819839
-0.59617014 -0.65755821 0.00000000
-0.41953082 -0.02530938 -0.00000033
-0.26275375 -0.58719515 0.06308608
-0.59745705 0.05243880 0.14344815
-0.49973968 -0.14086953 -0.00000047
-0.38770877 0.12504544 0.00000383
-0.36883332 -0.01417989 -0.00000013
-0.11653183 0.61577715 -0.00000017
-0.45827330 0.21689071 0.11003042
-0.17385399 0.45774454 0.00000238
-0.15495772 0.55820988 0.00000106
-0.13458223 0.04361167 0.00000000
-0.12227544 0.25014035 0.00000640
-0.53438926 0.06962428 0.00000194
-0.57673543 0.06436275 0.13847064
-0.73636981 -0.47035685 -0.00000082
-0.32619084 -0.23289498 0.00000000
-0.17275975 -0.12982951 0.00000000
-0.51119051 -0.50841173 0.00000000
-0.35159048 -0.14504354 0.00000000
-0.11213072 0.49238766 0.02691909
-0.54284753 0.12541116 0.13033468
-0.72660127 -0.26303513 -0.00000122
-0.18452822 -0.65366159 0.04430446
-0.02456912 0.41809445 0.00589367
-0.31954251 0.02208094 0.00000685
-0.27056729 -0.68369564 0.00000000
-0.12673222 0.13374682 0.03042788
-0.57811726 0.16669731 -0.00000052
-0.03143009 0.66978074 0.00754474
-0.51221007 0.24729153 0.12298068
-0.07147112 -0.43495144 0.00000000
-0.37944148 -0.24857040 0.00000000
-0.51256666 0.18614291 -0.00000110
-0.50335604 -0.55445130 0.00000000
-0.55545234 -0.45134247 0.13336201
-0.62627719 -0.56793497 0.15036685
-0.40308192 -0.71009110 0.09677829
-0.06899289 0.72316016 -0.00000004
-0.30713355 -0.23443966 0.00000000
-0.31453562 0.40207624 -0.00000064
-0.03962296 0.55793574 0.00000303
-0.09085190 0.68706516 0.00000014
-0.14039892 -0.45910074 0.00000000
-0.06155983 0.67837132 0.00000085
-0.17273942 -0.54496416 0.04147402
-0.61234791 -0.79278469 0.14702219
-0.65215944 -0.36501293 0.15658151
-0.17139964 0.59952100 0.00000006
-0.75902227 -0.71355035 -0.00000022
-0.16265499 0.03488472 0.00000000
-0.24038595 0.46691846 0.00000095
-0.50011705 -0.02740969 0.12007670
-0.10135902 0.63294770 0.00000084
-0.68364901 -0.04210688 -0.00000143
-0.25093560 -0.19273606 0.06024860
-0.78710153 -0.35833833 -0.00000110
-0.04393429 0.02907681 0.00001090
-0.35053068 -0.12266497 0.00000000
-0.48793634 0.07163104 0.11714866
-0.31789062 -0.13760318 0.07632422
-0.68170488 -0.13217269 -0.00000126
-0.31647054 -0.22493340 0.07598326
-0.31033876 -0.33100698 0.07451105
-0.22350695 0.47485543 0.05366194
-0.09081494 -0.28209977 0.02180429
-0.50743137 -0.49558491 0.12183216
-0.01508833 -0.47492436 0.00000000
-0.27777739 -0.69010932 0.06669320
-0.58069019 -0.49337647 0.13942154
-0.63861099 -0.06067905 -0.00000120
-0.05465559 0.02117414 0.00000000
-0.09284145 0.22375032 0.02228362
-0.13086753 -0.33698972 0.00000000
-0.03703643 0.73297823 0.00889233
-0.40412821 0.31668715 0.09703035
-0.29116494 -0.72267818 0.06990749
-0.51576010 0.16624186 0.00000068
-0.29361528 0.17112840 0.07049075
-0.77754484 -0.25336652 -0.00000137
-0.70384649 -0.44084657 0.16899144
-0.21343525 0.11748718 0.05124492
-0.62157068 -0.16335416 0.14923748
-0.12348845 0.03489511 0.00000961
-0.67677097 0.06768649 -0.00000159
-0.46417411 -0.08453796 0.11144671
-0.14545982 -0.66718935 0.03492430
-0.01743612 -0.07070574 0.00418634
-0.75162706 -0.12604614 0.18046407
-0.48539614 -0.75249217 0.00000000
-0.75290102 -0.64247668 -0.00000039
-0.03533707 0.09043937 0.00848428
-0.05621674 0.35554826 0.00000000
-0.09843591 0.06985132 0.00000000
-0.33303155 0.04730519 -0.00000009
-0.18936981 0.49202025 0.04546536
-0.27809985 0.47675472 -0.00000062
-0.69154984 0.06047357 0.16603984
-0.10237344 0.14487494 0.00000000
-0.44802248 -0.52591940 0.00000000
-0.68077482 -0.43228380 -0.00000073
-0.16730941 0.56568188 0.04017059
-0.63152107 0.04379428 0.00000050
-0.12451079 0.47087491 0.02989134
-0.19303570 -0.52743399 0.04634707
-0.50386597 0.16376177 0.12097713
-0.08983942 0.41964022 0.02157007
-0.12019422 0.20160815 0.00000716
-0.09576357 0.53602688 0.00000000
-0.21755165 -0.15645312 0.00000000
-0.27958995 0.08159672 0.00000000
-0.67998840 -0.71532936 0.16326268
-0.47817623 0.22532340 0.00000042
-0.12810800 -0.24308806 0.03075820
-0.54295843 0.02488864 0.13036300
-0.03423831 0.62560506 0.00000210
-0.40954383 -0.04690215 0.09833005
-0.51777921 0.19550828 0.00000015
-0.75305066 -0.13534082 0.18080586
-0.78095837 -0.43882025 -0.00000090
-0.06548262 0.18117158 0.01571390
-0.08325718 0.44825031 0.00000402
-0.04502894 0.73557523 -0.00000008
-0.41257692 0.25899537 -0.00000080
-0.03369908 -0.50925799 0.00000000
-0.55004040 0.11851941 0.00000082
-0.35621856 -0.23935777 0.00000000
-0.66149950 0.11926346 -0.00000133
-0.01368827 0.09417389 0.00000000
-0.14848278 0.17181733 0.00000000
-0.48463969 -0.20684736 -0.00000029
-0.40033152 -0.47580976 0.00000000
-0.59443322 0.13893396 -0.00000037
-0.20873882 0.13159611 0.05011028
-0.27249166 0.22854087 0.06542429
-0.76986399 -0.00435231 -0.00000186
-0.46347499 -0.06282446 -0.00000045
-0.50060647 -0.66623021 0.00000000
-0.74405112 -0.27190895 0.17864485
-0.50167880 0.19798796 -0.00000108
-0.09246235 -0.20378362 0.02219983
-0.59558555 -0.75807186 0.14299762
-0.53784905 0.13544023 -0.00000112
-0.03937418 0.53301738 0.00945358
-0.33545435 -0.46129401 0.08054119
-0.11447881 0.47239261 0.02748589
-0.71910909 -0.61423771 -0.00000046
-0.21053820 0.54861298 0.00000016
-0.32607609 -0.38512176 0.07828951
-0.14241653 -0.48349958 0.03419362
-0.11306655 0.62263653 -0.00000017
-0.30815758 0.01869748 0.00000707
-0.50282569 0.08640751 0.12072409
-0.41869169 -0.46560302 0.10052613
-0.32160999 -0.36490260 0.07721722
-0.15413220 -0.35199956 0.03700650
-0.07139989 -0.36765832 0.01714282
-0.73494744 -0.41008851 0.17645884
-0.12766481 0.38477863 0.00000000
-0.32805781 -0.14814451 0.00000000
-0.49474746 0.10016897 0.11878462
-0.05236043 0.43771218 0.01256690
-0.20207051 -0.78223132 0.04851629
-0.02591090 0.11469516 0.00621140
-0.10441083 0.69390554 -0.00000023
-0.44940983 -0.15693181 0.10790169
-0.59183933 -0.77679703 0.14209816
-0.07608814 -0.31588293 0.00000000
-0.21276183 0.51244733 0.05108253
-0.17038739 0.39341216 0.00000352
-0.68436338 -0.69027382 0.16431315
-0.14633715 -0.50817264 0.00000000
-0.27167399 -0.35387163 0.00000000
-0.02786199 0.42623927 0.00000000
-0.27862391 -0.70629168 0.00000000
-0.26794022 -0.48511665 0.00000000
-0.42380447 -0.43186276 0.10175369
-0.08186963 -0.74267642 0.00000000
-0.25739821 -0.66918075 0.00000000
-0.37006901 -0.21339037 0.00000000
-0.13025582 0.34299542 0.03126890
-0.48766136 0.19920518 0.11708488
-0.14726320 -0.32658179 0.00000000
-0.06408879 0.71335792 -0.00000012
-0.26611117 0.19711864 -0.00000007
-0.04745861 0.67396393 0.00000117
-0.21706010 0.50961937 0.05211563
-0.36636110 0.26518408 0.00000190
-0.41477125 -0.19107594 -0.00000002
-0.01648112 0.17066030 0.00394805
-0.08913775 0.31301480 0.00000596
-0.72125867 -0.21702212 0.17317247
-0.40433869 0.16145617 0.09708064
-0.59049088 0.11424871 -0.00000131
-0.32230461 0.05056034 -0.00000005
-0.77195851 -0.77268354 0.18534465
-0.28989337 -0.26075908 0.00000000
-0.66452157 0.00420176 0.15955026
-0.35551920 -0.69654290 0.08535868
-0.13337444 -0.30117707 0.00000000
-0.26612751 -0.74583592 0.00000000
-0.46200896 -0.34779729 0.00000000
-0.65489943 -0.20706290 -0.00000101
-0.68156447 -0.64211812 0.16364121
-0.11008731 -0.37594897 0.00000000
-0.45636088 0.22323066 0.10956954
-0.14073674 0.28447778 0.03379031
-0.46515365 -0.43460957 0.11168146
-0.14886319 0.09964844 0.03574143
-0.06581306 0.68920120 0.00000059
-0.30892530 0.19390787 0.07416734
-0.37097663 -0.48953693 0.08906995
-0.48346535 -0.37665250 0.11607806
-0.39737863 -0.47904224 0.00000000
-0.51749909 -0.54961270 0.12424938
-0.08152166 0.36007410 0.01956764
-0.09551228 0.23615995 0.02293210
-0.03936865 0.50413310 0.00000000
-0.07347155 -0.67710843 0.01764021
-0.74274178 -0.30540823 0.17833043
-0.50764124 0.08116172 0.12188029
-0.57128260 -0.56653245 -0.00000002
-0.03563060 0.03900917 0.00001088
-0.42539541 -0.42851994 0.00000000
-0.01987569 0.23748698 0.00476409
-0.65719408 -0.16337830 -0.00000110
-0.06575731 0.23981497 0.01578071
-0.27239681 0.48887528 -0.00000003
-0.01076711 0.48390419 0.00000458
-0.13833237 -0.37618007 0.03321303
-0.40998162 -0.46955392 0.00000000
-0.11670770 -0.11026408 0.00000000
-0.19574118 -0.13062219 0.04699664
-0.42966203 -0.11255861 0.10316032
-0.38341921 -0.71614301 0.09205736
-0.09891199 0.49724035 0.02374522
-0.40240288 0.02537492 0.09660986
-0.07437209 0.64576965 0.01785648
-0.53478547 -0.64021581 0.00000000
-0.55037309 -0.77022332 0.13214229
-0.54059963 -0.70001331 0.12979573
-0.05171437 0.27100266 0.01241641
-0.41842316 0.29910744 0.10046141
-0.70496254 0.09484923 -0.00000176
-0.11907314 -0.10663389 0.00000000
-0.33339960 0.24478422 0.08004491
-0.11802139 -0.56783648 0.00000000
-0.27425598 0.23607942 -0.00000017
-0.14109131 0.46144297 0.03387237
-0.39832819 0.29619947 0.09563623
-0.64465407 -0.79911600 0.00000000
-0.28135144 0.20361901 0.06755148
-0.06089929 0.47771727 0.00000000
-0.21764156 -0.25108332 0.05225483
-0.00935985 -0.33385326 0.00000000
-0.74045185 -0.41660470 0.17778044
-0.03183176 0.16474746 0.00764267
-0.61641040 -0.78139286 0.14799758
-0.21254783 -0.77470252 0.00000000
-0.63999118 -0.56104909 -0.00000033
-0.25793359 0.17564271 0.06192881
-0.36800623 -0.60587226 0.08835677
-0.34022005 0.40181614 -0.00000075
-0.15010076 0.35799310 0.03603857
-0.54185870 -0.19995260 0.13009858
-0.57096339 -0.76981204 0.13708594
-0.30203922 0.49695575 -0.00000075
-0.09517589 -0.68626298 0.02285134
-0.72333195 -0.21559144 0.17367027
-0.13436373 0.33676794 0.00000000
-0.33631647 0.42244786 -0.00000015
-0.05659493 0.04297349 0.00001050
-0.11647617 0.25678307 0.00000000
-0.36399461 0.25921339 0.08739418
-0.06103591 0.30866533 0.00000645
-0.36800634 0.40328186 -0.00000087
-0.36966579 -0.36681518 0.00000000
-0.37220998 0.09627698 0.00000461
-0.56732063 -0.47085374 0.13621155
-0.71814674 -0.26859934 -0.00000118
-0.21680850 -0.16724892 0.05205482
-0.09364166 -0.30349661 0.00000000
-0.11106372 0.39914317 0.00000000
-0.38780593 -0.68780900 0.00000000
-0.24200352 0.20568189 0.00000000
-0.50914902 -0.67866165 0.12224456
-0.02189426 0.20369960 0.00524827
-0.18813561 0.57043722 -0.00000040
-0.42206266 -0.61908423 0.00000000
-0.53949894 -0.71503004 0.12953145
-0.02510907 0.20991058 0.00000847
-0.53901003 0.16781687 0.12941398
-0.14866105 0.13241079 0.00000777
-0.03470459 0.03078537 0.00832162
-0.51113049 0.16993049 0.00000071
-0.03888394 -0.79475465 0.00000000
-0.19955235 0.55418749 -0.00000042
-0.30375576 0.16375787 -0.00000017
-0.46108388 -0.42020334 0.11070432
-0.12205562 -0.46061630 0.02930505
-0.28285702 0.11578233 0.06791283
-0.50190213 0.07723851 -0.00000086
-0.17466002 0.38934877 0.00000351
-0.44811548 -0.30100316 0.10759068
-0.46531907 -0.10581232 -0.00000038
-0.17212776 -0.31129570 0.00000000
-0.11995442 0.01158053 0.00000000
-0.45702194 -0.03166688 -0.00000048
-0.45363437 0.00061134 0.10891094
-0.02972177 0.00503552 0.00712482
-0.10273345 0.68636031 -0.00000024
-0.13381331 0.32938420 0.03212802
-0.67682377 -0.12883761 -0.00000125
-0.41876466 0.35230812 -0.00000056
-0.01525323 0.29378389 0.00000736
-0.17176289 0.43794986 0.04123966
-0.59066978 0.11156786 -0.00000130
-0.25485507 0.15289754 0.06118352
-0.26574840 -0.52580956 0.00000000
-0.34939596 0.21567902 0.00000305
-0.12300269 0.05243529 0.02952310
-0.52639233 0.23738786 -0.00000125
-0.37410144 -0.72620937 0.00000000
-0.16375924 -0.02956272 0.00000000
-0.67993625 -0.27683737 -0.00000100
-0.11211715 0.19987358 0.00000731
-0.03945410 -0.47391859 0.00000000
-0.36505299 -0.79900800 0.08764771
-0.00330842 0.69104530 0.00079434
-0.33390146 -0.22130103 0.08016835
-0.29946784 -0.17553530 0.07190098
-0.28944199 0.03702652 0.06948645
-0.69981115 -0.33036637 0.16802274
-0.52374521 -0.41075459 0.12574919
-0.49113208 0.15910948 0.00000127
-0.14305342 0.19333587 0.00000000
-0.20947183 0.37275655 0.05029009
-0.13965480 0.37869238 0.03353054
-0.65359738 -0.22304847 0.15692699
-0.41982217 -0.50273088 0.10079756
-0.45895566 0.00546074 0.11018876
-0.00509632 0.39044843 0.00122361
-0.37328187 0.02248997 -0.00000022
-0.40273307 0.12611894 -0.00000053
-0.00299635 0.55876662 0.00000357
-0.46188493 0.06327445 0.00000344
-0.28151244 0.41868627 0.06758902
-0.46513353 0.14055721 0.00000208
-0.22391154 0.48567027 0.05376062
-0.14666647 -0.77459062 0.00000000
-0.34602996 0.03501573 0.08308051
-0.25503021 0.42857149 0.06123038
-0.66916125 0.05009985 0.16066432
-0.53513251 -0.12055713 0.12848376
-0.48329327 -0.00684344 -0.00000064
-0.13897317 -0.70455077 0.03336688
-0.05072629 -0.41621906 0.01217917
-0.16460365 0.19077188 0.00000000
-0.20178963 0.45719492 0.00000185
-0.07505345 -0.10879231 0.00000000
-0.02843583 0.56351569 0.00000312
-0.24950840 -0.28948927 0.00000000
-0.53504201 0.11450807 0.12846241
-0.20277966 -0.50525586 0.00000000
-0.00098352 -0.63484874 0.00023614
-0.53432393 -0.48888119 0.12828902
-0.16045891 0.51404957 0.03852570
-0.71561654 -0.36087425 -0.00000100
-0.08244333 -0.41805263 0.01979430
-0.42386685 0.27085150 -0.00000087
-0.18547667 0.22063395 0.04452613
-0.14946143 -0.72021378 0.03588507
-0.19270848 0.09356078 0.00000769
-0.26193860 -0.56241363 0.06289037
-0.05306814 -0.12005548 0.01274144
-0.37913304 0.12917739 0.09102422
-0.25257775 -0.69155416 0.00000000
-0.43859116 -0.33813992 0.10530391
-0.61129290 -0.50648747 -0.00000030
-0.32614725 -0.46681142 0.00000000
-0.66320952 -0.56154068 0.15923431
-0.32852104 0.16591030 0.00000428
-0.41760491 -0.42961640 0.00000000
-0.20862961 0.07472310 0.00000000
-0.14489360 0.61687206 0.00000028
-0.62254333 -0.46487846 -0.00000042
-0.31513013 -0.51093874 0.07566143
-0.16314544 0.61192883 -0.00000036
-0.57773419 -0.09248543 0.13871246
-0.31690421 0.46998760 -0.00000057
-0.33842579 0.09319106 0.08124912
-0.70320647 -0.28475465 0.16883803
-0.37261847 0.28097585 -0.00000067
-0.04119645 0.57947170 0.00989110
-0.03482293 0.61232700 0.00000000
-0.13187040 -0.36384440 0.00000000
-0.02314200 -0.60795460 0.00555630
-0.01350741 -0.76264714 0.00000000
-0.30545129 -0.09985767 0.00000000
-0.73035969 -0.30096940 0.17535749
-0.78337870 -0.64056300 -0.00000040
-0.04207600 -0.09129345 0.01010227
-0.10899973 -0.26812719 0.00000000
-0.01841645 -0.19933313 0.00442171
-0.37370046 -0.36769612 0.00000000
-0.03093119 0.61302676 0.00000234
-0.32593721 0.42422403 0.07825623
-0.08543078 0.30711477 0.00000610
-0.16606149 -0.66548942 0.00000000
-0.36050713 -0.07785719 0.08655629
-0.53329127 -0.05284130 0.12804179
-0.42023393 -0.52539119 0.10089642
-0.04812727 0.31177144 0.01154864
-0.32648176 -0.65184302 0.00000000
-0.09500055 -0.79445833 0.02280924
-0.01565750 0.46466934 0.00375459
-0.02590828 -0.23465498 0.00622047
-0.14106907 -0.63737747 0.03387010
-0.16488366 0.24685153 0.00000581
-0.03840452 0.55783510 0.00000000
-0.02918997 0.38579565 0.00000000
-0.29997260 0.42283727 -0.00000061
-0.38429247 -0.73886877 0.00000000
-0.48492292 0.27964705 0.11642909
-0.02058973 -0.37529706 0.00494351
-0.75499160 0.01943920 -0.00000146
-0.39806425 -0.27253899 0.09557357
-0.04482348 0.14938263 0.01076193
-0.14107811 -0.32915944 0.00000000
-0.43479887 0.10065285 0.00000333
-0.64510531 -0.05088929 -0.00000125
-0.41785719 -0.58052728 0.00000000
-0.37756911 -0.14184221 0.00000000
-0.20057874 0.49516656 -0.00000032
-0.73652518 -0.51654691 -0.00000071
-0.19912511 -0.53920787 0.00000000
-0.60017002 0.09967391 0.14409829
-0.04201542 0.60720691 0.00000000
-0.76774265 -0.07194902 0.18433351
-0.28046524 -0.13221900 0.06733854
-0.21484415 -0.38400918 0.05158319
-0.51978933 0.01743925 -0.00000083
-0.32141920 0.46553573 -0.00000078
-0.04086158 -0.67226213 0.00981069
-0.12609699 -0.68408218 0.03027536
-0.71015224 -0.19477158 0.17050585
-0.02254391 0.18573177 0.00000887
-0.07151201 -0.10189785 0.01716974
-0.78914221 -0.63813478 -0.00000040
-0.13838504 0.22418279 0.00000655
-0.04248120 -0.39946267 0.00000000
-0.02864844 -0.20956469 0.00000000
-0.18339819 -0.63559231 0.04403314
-0.58585886 0.00345176 0.14066335
-0.58378305 0.14189538 0.14016517
-0.10468668 0.23237212 0.00000693
-0.33179163 0.22131148 0.07965840
-0.06323424 0.50615779 0.00000000
-0.27832502 -0.13269347 0.00000000
-0.10667448 0.30026836 0.00000589
-0.33224174 -0.55525652 0.00000000
-0.65421532 -0.21890967 0.15707537
-0.22472493 -0.58381796 0.00000000
-0.44468655 -0.04279207 -0.00000041
-0.00061802 0.57736863 0.00014513
-0.13307429 0.11306501 0.00000830
-0.51081736 0.04342076 -0.00000084
-0.25065127 0.27441110 0.06017621
-0.08228320 0.37458908 0.00000514
-0.45414701 0.24043125 0.10903974
-0.11128398 -0.73835737 0.02671882
-0.13757197 0.17393155 0.03303046
-0.01096559 0.54096066 0.00263279
-0.22097020 -0.17601214 0.00000000
-0.31222128 0.18002858 0.07496329
-0.13616605 -0.59373350 0.00000000
-0.75723086 0.01823626 -0.00000185
-0.56160083 0.01010867 0.13483562
-0.06224628 0.11837212 0.00000929
-0.64766013 0.09968290 0.15550199
-0.24535602 -0.60906939 0.05890896
-0.61765951 -0.25377102 -0.00000077
-0.59941114 -0.03326409 -0.00000109
-0.01502902 -0.01361246 0.00000000
-0.11089289 -0.42264225 0.02662492
-0.27582203 0.11042312 0.06621725
-0.35803517 0.12294377 0.00000443
-0.49446414 -0.28333521 -0.00000020
-0.56744168 -0.12243481 -0.00000079
-0.41271477 0.19841134 -0.00000070
-0.10896381 0.39442654 0.00000000
-0.30545885 -0.23976497 0.07333940
-0.34879718 -0.29577710 0.08374475
-0.63487648 0.05154264 -0.00000139
-0.02859038 -0.44067113 0.00000000
-0.34979156 -0.07208861 0.00000000
-0.52578011 -0.77217392 0.00000000
-0.53634870 -0.33291024 -0.00000029
-0.23055008 -0.01256263 0.00000000
-0.30640542 -0.16520377 0.00000000
-0.57435956 -0.66197812 0.00000000
-0.19072194 -0.43368332 0.04579154
-0.02253985 0.74839349 0.00541128
-0.03572641 -0.31852270 0.00857776
-0.35596010 0.16072407 0.08546058
-0.16119949 -0.10133863 0.03870333
-0.16775963 -0.21677417 0.00000000
-0.17354043 0.49523507 0.00000176
-0.22969629 -0.32075246 0.00000000
-0.30997667 0.21907951 -0.00000030
-0.31123457 0.38423960 0.07472671
-0.56013740 -0.05210743 -0.00000088
-0.11166402 -0.10938486 0.02681007
-0.15353149 0.12338611 0.03685438
-0.18922272 -0.54724860 0.00000000
-0.20745013 0.43301813 0.04980570
-0.56973645 0.06004660 0.13679245
-0.18510406 -0.69582224 0.04444272
-0.24342868 0.02592525 0.00000794
-0.13292324 0.59962347 0.00000079
-0.74715249 -0.32295979 -0.00000119
-0.62267108 0.14360658 0.14950193
-0.64655748 -0.52072352 -0.00000042
-0.41000814 0.32792665 0.09844214
-0.06442054 0.71435678 0.01546722
-0.16986879 0.41466577 0.04078149
-0.35513258 0.22891107 0.00000272
-0.11093826 -0.73400651 0.00000000
-0.38203936 0.33538040 0.09172685
-0.49555568 -0.52813201 0.11898086
-0.49491853 -0.58280461 0.11882788
-0.14292309 0.23100815 0.03430878
-0.21007960 -0.19133915 0.00000000
-0.13246848 -0.30869766 0.00000000
-0.08994910 -0.18532804 0.00000000
-0.15845211 0.40813774 0.00000349
-0.37975573 0.19797656 -0.00000056
-0.37663354 -0.27598827 0.00000000
-0.50334861 -0.75534682 0.00000000
-0.44871612 0.29133699 -0.00000102
-0.13284313 0.64980712 0.03189516
-0.00894336 0.09550586 0.00000000
-0.26958545 -0.16759314 0.00000000
-0.05349405 0.41595610 0.00000000
-0.64450974 -0.70792686 0.15474426
-0.08358960 0.44320976 0.00000000
-0.06557641 0.32019608 0.01574462
-0.07161684 -0.33773714 0.00000000
-0.26866420 -0.49011315 0.06450516
-0.06348449 -0.07746758 0.01524236
-0.56471881 0.18684502 0.13558793
-0.52956016 0.19707808 0.12714636
-0.61716973 0.13513055 -0.00000075
-0.42694434 0.11501924 0.00000324
-0.07859671 0.00872421 0.00001068
-0.58908351 -0.43775431 0.14143687
-0.14711856 0.28933405 0.00000544
-0.29020759 0.32327423 0.06967803
-0.05628844 0.50850930 0.01351462
-0.55710470 -0.21575180 0.13375912
-0.17352511 0.27503457 0.00000000
-0.46167362 -0.32326024 0.00000000
-0.03866186 0.42701036 0.00928255
-0.26272925 -0.19768827 0.06308020
-0.23235170 0.31941821 0.05578684
