ply
format ascii 1.0
element vertex 1370
property float x
property float y
property float z
end_header
-0.16163519 -0.45277528 -0.00000011
-0.08652920 -0.48057366 0.00000028
-0.08891982 -0.76939720 0.00000075
-0.51602703 0.05007951 -0.25644624
-0.47764398 0.12706190 -0.24833697
-0.36369640 -0.07804947 0.22149606
-0.57319147 -0.58382062 0.20442759
-0.40988990 -0.18957305 0.11990716
-0.11770248 -0.43563799 0.00000180
-0.21522909 0.31916172 -0.02004564
-0.39758433 -0.15986536 0.13615951
-0.09070379 -0.40347151 0.00000044
-0.57871716 -0.76756821 -0.00000341
-0.19965831 0.31797466 0.07769414
-0.20177872 0.52065621 -0.10746018
-0.53914908 -0.69964190 -0.00000300
-0.45116848 -0.28922641 0.06507413
-0.45260382 -0.67157453 -0.00000241
-0.24013196 -0.45543589 0.00000267
-0.26086255 0.17021070 0.15522573
-0.23247884 -0.27272757 -0.00000008
-0.15841589 0.17305750 0.00000148
-0.37355814 -0.14652539 -0.00000062
-0.64917688 -0.76726078 0.01738747
-0.25388330 0.18707214 0.06190806
-0.35026662 -0.04563014 0.14309535
-0.40373371 -0.66607707 0.00000338
-0.17597562 0.07068472 -0.00000528
-0.03061882 0.01106779 0.00000226
-0.16135307 0.10492454 0.00000129
-0.29343563 0.03483608 -0.00000245
-0.35593671 -0.05932013 0.16948046
-0.27147218 0.14461140 0.03671175
-0.18893309 -0.65309398 0.00000179
-0.40342897 0.13998580 -0.16235901
-0.18321465 0.35767631 0.00689875
-0.03063373 -0.67298612 0.00000013
-0.51959954 -0.45443694 0.12899285
-0.61100219 -0.05201483 -0.32222851
-0.33311850 -0.00421350 0.02967969
-0.51080542 -0.70910557 -0.00000286
-0.54082107 -0.52193129 -0.00000257
-0.59982112 -0.57695949 -0.03677945
-0.60570067 -0.20656089 -0.23568173
-0.31982411 0.02786450 0.24301755
-0.26294023 0.16520432 0.09595203
-0.16790266 0.39464811 0.02351333
-0.11707206 -0.54982108 -0.00000008
-0.39466531 0.25522360 -0.21101514
-0.34134444 -0.02409029 0.14986070
-0.24595390 0.20621739 0.03381209
-0.01495782 0.06340447 0.00001110
-0.57437769 -0.29571741 -0.15046348
-0.31050157 -0.61547735 0.00000280
-0.00384759 0.41617370 0.00000777
-0.19485294 0.00598161 -0.00000600
-0.38232990 -0.12303361 0.03859770
-0.54999594 -0.43913307 -0.04585025
-0.08718932 0.58950039 0.07869259
-0.34929300 -0.04327649 0.21478413
-0.21193056 0.28835745 0.01495416
-0.25836677 0.17623292 0.25314055
-0.34175221 -0.02507148 0.21264034
-0.44497160 -0.09681324 -0.09176068
-0.47324316 0.12298774 -0.24073522
-0.28770212 -0.64730980 -0.00000135
-0.49881232 -0.74688231 0.00000390
-0.27344103 -0.51215295 -0.00000093
-0.35484589 -0.07574660 0.00000449
-0.17648591 -0.40127432 0.00000233
-0.13076519 -0.72613254 -0.00000060
-0.55400182 -0.53749389 0.24292492
-0.67323599 -0.76326672 -0.03208851
-0.36102440 0.25683754 -0.16984638
-0.58967084 -0.68497702 0.00000474
-0.20015050 0.27934427 0.00000149
-0.06621488 0.48846145 0.00000592
-0.18754846 0.50999256 -0.08417725
-0.26374020 -0.39537757 0.00000300
-0.59296257 -0.06445485 -0.29327128
-0.05759426 0.04981343 0.00000256
-0.17321702 0.38181256 0.01304445
-0.42095864 0.19935207 -0.21494866
-0.37778652 -0.11207610 0.35294955
-0.47287382 -0.37300245 -0.00000179
-0.61249176 -0.74604034 0.00000476
-0.17755454 0.37134298 0.07038754
-0.03921464 0.12745246 0.00000208
-0.65702677 -0.22971114 -0.28779250
-0.09713441 -0.66330680 0.00000107
-0.13835157 -0.34966083 0.00000217
-0.40160080 0.02907926 -0.10271821
-0.00951275 0.18197128 -0.00000807
-0.34442514 -0.03152375 0.05453341
-0.17809706 0.37003386 0.06243496
-0.17952315 0.01172723 0.00000863
-0.19961108 0.31808590 0.14301790
-0.24773757 0.21911972 -0.00889510
-0.12400435 -0.39223136 0.00000027
-0.04385509 0.23828354 0.00000293
-0.22785661 0.17776555 0.00000610
-0.48214565 -0.33175684 -0.01666749
-0.64006132 -0.68096532 -0.03323243
-0.09624932 0.56762602 0.10222132
-0.32257514 -0.67612512 -0.00000164
-0.44675177 -0.27857000 0.21899082
-0.03887819 -0.52586703 0.00000045
-0.27551130 0.32280027 -0.09719338
-0.26191378 -0.24716943 0.00000336
-0.67219479 -0.67553085 -0.07616338
-0.35319299 0.21238491 -0.13707945
-0.18061866 -0.46609031 0.00000220
-0.51801220 -0.06800588 -0.19785473
-0.27350839 0.23055842 -0.04698734
-0.39656786 -0.47135217 -0.00000157
-0.17932067 0.51335577 -0.07564434
-0.66569432 -0.34509208 -0.23894212
-0.37717434 -0.11060177 0.38823645
-0.06054861 -0.70838357 0.00000069
-0.07127167 -0.70657178 -0.00000020
-0.59539438 -0.29245304 -0.17839234
-0.44647291 0.04998762 -0.16955705
-0.08150408 0.35540718 0.00000240
-0.30477034 -0.63464532 0.00000271
-0.22808418 -0.12001075 0.00000342
-0.19100127 0.32355629 0.00000166
-0.05629620 0.36568133 -0.00000299
-0.45237610 -0.29214141 0.05401208
-0.32658446 -0.71201134 -0.00000175
-0.05407870 0.66944007 0.02130954
-0.57014894 -0.68187269 -0.00000315
-0.01631533 0.19510487 0.00000261
-0.40125106 -0.50465150 0.00000377
-0.38449373 -0.12827094 0.38313081
-0.22144424 0.16556578 0.00000108
-0.43190674 -0.24272314 0.03816527
-0.13195810 0.06664852 -0.00000668
-0.64487881 -0.52878006 -0.11795394
-0.27798646 0.09803407 0.00000599
-0.05761598 0.03566119 0.00000174
-0.35236530 -0.05070102 0.24190308
-0.18958114 -0.39041452 -0.00000012
-0.14025759 0.32286337 0.00000387
-0.59900698 -0.28242319 -0.18809008
-0.03699290 0.24112078 -0.00000606
-0.12083628 0.38525731 0.00000387
-0.09591029 0.38892592 0.00000239
-0.67972828 -0.48095024 -0.18620165
-0.33607867 -0.52397506 -0.00000134
-0.09345967 -0.55429447 0.00000132
-0.22754523 0.25065919 0.03486270
-0.00516492 -0.68823419 0.00000025
-0.12602710 -0.32375317 0.00000043
-0.04506842 0.00218349 -0.00001060
-0.18797216 -0.39722661 0.00000243
-0.02121937 -0.08334199 0.00000166
-0.19425859 -0.20500916 0.00000295
-0.22880192 0.22996137 0.00000430
-0.18135666 -0.21529597 0.00000037
-0.18893449 -0.05680226 0.00000072
-0.17382382 -0.74140962 -0.00000090
-0.24508157 0.25867037 -0.02603003
-0.45646753 -0.72671018 -0.00000257
-0.26669413 0.36450322 -0.10775237
-0.08466684 -0.79511190 -0.00000050
-0.27196778 0.27670290 -0.06892600
-0.21114498 0.29024533 0.12283026
-0.06330151 0.43344506 0.00000652
-0.52114426 0.07517442 -0.27581472
-0.50714344 -0.53711735 -0.00000240
-0.26001366 -0.34282621 0.00000310
-0.02013985 -0.00612035 0.00000186
-0.36839749 0.17849945 -0.13853843
-0.34507250 0.23695710 -0.13964707
-0.26101391 0.16984563 0.21066636
-0.23022480 -0.46175422 0.00000258
-0.21296903 -0.60297893 -0.00000079
-0.30791777 -0.11054719 -0.00000013
-0.19647495 0.24978850 -0.00000108
-0.38174314 -0.12162542 0.23614587
-0.37405880 -0.55591794 0.00000343
-0.13883892 0.51599517 -0.02646384
-0.19234459 -0.50673139 0.00000218
-0.45720564 0.06715159 -0.19183240
-0.56109927 -0.55462820 0.23065011
-0.32553834 0.01407053 0.11720102
-0.41924793 -0.49796780 -0.00000178
-0.38032474 -0.73563837 0.00000303
-0.25688261 0.17981693 0.20784659
-0.00649230 0.58305778 0.00000605
-0.13374799 -0.49440099 0.00000177
-0.16490710 0.40186755 0.17844909
-0.42861031 -0.60456463 0.00000372
-0.23266691 0.23828803 0.11582237
-0.32379203 0.01827682 0.34797827
-0.33883957 -0.01803271 0.12344073
-0.24777525 -0.18141758 0.00000342
-0.28358377 0.11535425 0.21057959
-0.20196684 0.42563256 -0.05855110
-0.06196119 -0.47734726 0.00000127
-0.24973377 -0.64483119 0.00000227
-0.05056218 0.58464956 0.00000524
-0.36650055 0.06152942 -0.07567179
-0.04738556 0.22990638 0.00000884
-0.08106494 -0.10956964 0.00000124
-0.19952848 0.31829041 0.11362068
-0.56537115 -0.79535546 0.00000428
-0.39525286 -0.49933847 0.00000373
-0.13958629 0.39474846 0.00000404
-0.55321905 -0.54188667 -0.00000269
-0.30135953 -0.62800440 0.00000270
-0.33869892 -0.01770531 0.27525893
-0.12907245 0.51717667 -0.01488066
-0.47649773 0.14110323 -0.25416746
-0.12322553 0.00993374 0.00000128
-0.25755636 0.44405081 -0.13748333
-0.16058567 0.41230209 0.15567284
-0.61416356 -0.39191704 -0.15038638
-0.52314103 -0.46298407 0.06234997
-0.44533878 -0.20120811 -0.03822860
-0.09768049 -0.31882787 0.00000061
-0.03734987 0.22897491 0.00000285
-0.64753657 -0.41716140 -0.17899880
-0.01107927 0.04504384 -0.00001076
-0.07668385 0.61486872 0.00139096
-0.31856919 -0.34947806 -0.00000080
-0.03420292 0.26360593 0.00000874
-0.45176102 -0.63581388 -0.00000232
-0.01149021 0.67281217 0.00000180
-0.07635305 -0.41560871 0.00000050
-0.55035624 -0.23520980 -0.15176434
-0.25917632 0.17230774 -0.00000073
-0.24506884 0.20835038 0.08009856
-0.55802273 -0.65600076 0.00000457
-0.10219716 0.16982625 0.00000845
-0.03382591 0.08511954 -0.00000928
-0.22198364 0.00625452 0.00000369
-0.00167815 -0.53360908 0.00000068
-0.37034210 -0.09410259 0.27916719
-0.30641406 0.09557951 -0.01826418
-0.18150416 0.18810558 -0.00000276
-0.01832441 -0.23317109 0.00000156
-0.11876037 0.51327986 0.08825593
-0.65104206 -0.60494486 -0.08625850
-0.12135265 0.32438388 0.00000656
-0.37968953 -0.40107718 -0.00000129
-0.64144941 -0.37931056 -0.19097417
-0.18172098 -0.16628077 0.00000296
-0.19487999 0.47398048 -0.07470609
-0.10801082 -0.10709031 0.00000108
-0.17634242 -0.60006326 0.00000183
-0.18021567 0.36490941 0.18435074
-0.32450655 0.01655221 0.33676503
-0.27381454 0.13893649 0.27821165
-0.34806163 -0.26095582 0.00000397
-0.13374861 0.47709719 0.03428578
-0.36426444 -0.10745796 -0.00000047
-0.60610193 -0.66326811 0.01406509
-0.18376972 0.35633546 0.02555313
-0.10781798 -0.64832276 -0.00000027
-0.37366891 -0.47144884 -0.00000143
-0.27165266 -0.57552011 0.00000261
-0.37896647 -0.11491740 0.12955383
-0.68703666 -0.79232993 -0.03428851
-0.45976654 -0.65405628 -0.00000241
-0.28580531 0.10999952 0.00892394
-0.20196492 -0.44976667 0.00000240
-0.42927302 0.11012197 -0.17918019
-0.17759051 0.20073264 0.00000678
-0.46981926 0.04506487 -0.19615846
-0.04712044 0.33159916 0.00000783
-0.29930061 -0.00235213 0.00000019
-0.54611042 -0.51843570 0.02459900
-0.27064438 -0.48331723 -0.00000084
-0.00255116 -0.10209184 0.00000173
-0.34405483 -0.35333252 0.00000371
-0.09167914 -0.16787922 0.00000227
-0.33438253 -0.50214172 0.00000327
-0.12632131 0.58981443 -0.04901338
-0.36896236 -0.09076552 0.25982776
-0.39017101 -0.05312655 -0.04593255
-0.11707425 0.61624817 -0.05113901
-0.66694494 -0.63513213 -0.09050194
-0.22954262 0.24583528 0.05781133
-0.23274599 0.23810143 0.06222413
-0.58553214 -0.61361287 0.13055309
-0.33655138 0.27667204 -0.14954916
-0.55737161 -0.27920766 -0.13776881
-0.17993122 0.36559620 0.17295370
-0.19032040 0.44984066 -0.05652810
-0.03576226 0.35723184 -0.00000378
-0.35861711 -0.06578551 0.03509584
-0.30860410 0.05494992 0.20349474
-0.60966344 -0.21071452 -0.23848132
-0.65577902 -0.66749213 -0.05982493
-0.26302774 -0.21391628 -0.00000012
-0.18535636 0.53337757 -0.09353481
-0.34533034 0.28752074 -0.16612018
-0.15218803 0.31307796 0.00000611
-0.06346585 0.41375500 0.00000671
-0.40770589 -0.14986893 -0.01779306
-0.34352812 -0.02935069 0.11055304
-0.02898734 -0.65516702 0.00000058
-0.11771612 -0.47719671 0.00000010
-0.21778758 -0.56823445 0.00000222
-0.10287063 0.52659611 0.00000409
-0.38129283 -0.12053482 0.15454067
-0.36239934 -0.07492540 0.24116117
-0.43908604 -0.57372413 0.00000388
-0.28748557 -0.72021141 0.00000237
-0.09557257 0.31779575 0.00000352
-0.05406556 0.63361240 0.00000230
-0.27654883 0.13234479 0.16966360
-0.12664982 0.41791387 0.00000018
-0.17320860 0.23134451 0.00000655
-0.11156106 0.39853879 0.00000232
-0.04926055 0.61767871 0.00000184
-0.03921582 0.51087981 -0.00000060
-0.50103340 -0.40961602 0.17300299
-0.29165806 0.09587378 0.10173327
-0.22472875 -0.56354487 -0.00000077
-0.28375128 -0.41925293 -0.00000076
-0.40182214 0.14461438 -0.16274471
-0.64615364 -0.75419720 -0.00296527
-0.22499205 -0.23868677 0.00000310
-0.51299490 -0.37170947 -0.03452210
-0.35873163 -0.41295140 -0.00000120
-0.21639616 0.04185756 0.00000766
-0.55777912 -0.03135729 -0.26645990
-0.28796835 0.10476804 0.26887531
-0.58169135 -0.22763698 -0.19480460
-0.64758106 -0.33158629 -0.22331175
-0.64644139 -0.57279527 -0.09714129
-0.42121440 -0.21692051 0.29921352
-0.17000730 0.31450818 -0.00000058
-0.06779161 -0.51342556 0.00000123
-0.01046263 -0.48158993 0.00000073
-0.37285965 -0.10018216 0.31769309
-0.41377142 -0.01438428 -0.09543566
-0.56687835 -0.25821680 -0.16049452
-0.20416615 -0.50077863 -0.00000048
-0.61196949 -0.60452397 -0.03769173
-0.01963861 0.45320795 0.00000301
-0.31355640 -0.49954618 0.00000312
-0.43470459 -0.24947646 0.00708198
-0.24653748 0.19803913 0.00000101
-0.65233138 -0.50971464 -0.13711909
-0.18618174 0.28513212 -0.00000068
-0.38691039 -0.03901017 -0.04916212
-0.46245302 -0.31647428 0.17076018
-0.02734766 -0.77149180 0.00000028
-0.15488793 -0.45286350 -0.00000007
-0.51033336 -0.51896185 -0.00000238
-0.45047740 -0.15528979 -0.06839232
-0.02495728 -0.72954325 0.00000036
-0.17999814 -0.72917801 -0.00000091
-0.16991635 0.21496757 0.00000677
-0.25727474 0.19910900 -0.01045376
-0.23724834 0.22721981 0.17535607
-0.07631517 0.31479395 0.00000747
-0.48977790 -0.27839680 -0.05379336
-0.43899627 -0.53430903 0.00000398
-0.25850545 -0.31902375 0.00000315
-0.09389811 -0.08623897 0.00000122
-0.44380611 -0.27146456 0.38075244
-0.28805490 -0.55732795 -0.00000113
-0.15025054 0.29561362 -0.00000155
-0.00690338 0.01689394 0.00000209
-0.48498321 -0.24373816 -0.06573152
-0.04444524 -0.35395558 0.00000145
-0.09493828 -0.13132538 0.00000239
-0.10118697 0.51372221 0.00000503
-0.57511098 -0.00735432 -0.30051353
-0.07069787 -0.55489303 0.00000115
-0.53942717 -0.33030332 -0.08893864
-0.18634999 0.11171314 0.00000115
-0.30694198 0.05896445 0.16031104
-0.18762873 0.02108803 0.00000347
-0.14458762 0.38414638 0.00000005
-0.25466775 0.20305467 -0.00923939
-0.04171271 0.48558303 0.00000353
-0.53745219 -0.44181304 -0.02880260
-0.33514765 -0.00912195 0.15102018
-0.47734424 -0.35242792 0.23935254
-0.03030409 -0.21553737 0.00000128
-0.13354015 0.12133498 0.00000837
-0.21536157 0.28005870 0.19074390
-0.35788532 0.18678816 -0.12969792
-0.23911349 0.13359091 0.00000089
-0.22298864 -0.31312928 0.00000290
-0.23594536 0.27109266 -0.02104743
-0.59652578 -0.62166336 -0.00954524
-0.33384512 -0.22012251 -0.00000057
-0.06043070 0.16827475 0.00000288
-0.55056194 -0.63926400 0.00000456
-0.24151971 0.21691063 0.10791588
-0.44735609 -0.62616339 0.00000381
-0.39344669 -0.28599245 -0.00000109
-0.34069728 -0.02252253 0.18555468
-0.37378874 -0.26314527 0.00000416
-0.08217215 0.43765743 0.00000260
-0.01474365 -0.03297947 0.00000183
-0.38717759 -0.13473543 0.00095279
-0.40826119 0.18435430 -0.19133865
-0.22790103 -0.18714514 0.00000016
-0.25962641 0.17319762 0.09331592
-0.63325577 -0.73975087 0.00000493
-0.26180999 -0.16795326 -0.00000000
-0.61995347 -0.33679910 -0.18612111
-0.23413579 0.38672081 -0.07859011
-0.46742459 0.04037383 -0.19074446
-0.49588724 -0.15408951 -0.12570999
-0.25874648 0.10530996 0.00000422
-0.42673163 0.13906212 -0.19097469
-0.24268559 0.21409050 0.23588962
-0.37710071 -0.50583721 0.00000358
-0.46864751 -0.76736506 0.00000362
-0.08775724 0.54130710 0.00000282
-0.36544787 -0.54543277 -0.00000157
-0.45151580 -0.34621705 0.00000454
-0.02503927 0.03570051 0.00000228
-0.22220657 -0.13325769 0.00000334
-0.12457902 -0.73220004 -0.00000058
-0.37184709 -0.09773843 0.33712649
-0.45053537 0.09141830 -0.19605458
-0.05663728 -0.65232911 0.00000080
-0.44765310 -0.28073785 0.02653756
-0.64877895 -0.30800717 -0.23700192
-0.27202473 0.10544697 0.00000602
-0.05694278 0.47696361 0.00000285
-0.42427939 -0.62095005 -0.00000211
-0.40847118 -0.58679761 0.00000361
-0.28515351 -0.28036627 0.00000345
-0.41342425 -0.19810968 0.21256668
-0.38905946 0.26876034 -0.21101687
-0.11240292 0.62367652 -0.04914836
-0.29522664 0.08725451 0.00458026
-0.29844358 0.21845635 -0.07186152
-0.43526235 -0.27304549 0.00000460
-0.64089130 -0.74725839 0.15062467
-0.54227314 -0.50917527 0.11000430
-0.02491011 0.30744540 0.00000847
-0.27896398 0.29745028 -0.08839384
-0.15939378 -0.21287334 0.00000267
-0.01549336 0.45962461 0.00000327
-0.16961146 0.39187009 -0.00069232
-0.23661954 -0.53177646 -0.00000076
-0.31140323 0.04821263 0.01078227
-0.62502296 -0.10579115 -0.31192246
-0.59999247 -0.63168466 -0.00869084
-0.35341583 -0.05323064 0.08677193
-0.24397373 0.21098283 0.18431716
-0.28602163 -0.22798969 -0.00000030
-0.21789248 0.27395568 0.02136528
-0.58504107 -0.61242738 0.17601240
-0.43809220 -0.16232877 -0.04928827
-0.29657441 0.08399583 0.11930527
-0.18134187 -0.01020866 0.00000334
-0.29194898 -0.43748082 -0.00000086
-0.68213121 -0.58506864 -0.13535432
-0.43810095 -0.49366416 0.00000407
-0.09212742 -0.78658253 -0.00000052
-0.61608957 -0.30273815 -0.19891230
-0.35133755 0.15586432 -0.10553172
-0.34294644 -0.02796660 0.36271411
-0.31464288 0.04036604 0.31887684
-0.01762637 0.28975539 0.00000262
-0.02555913 -0.30084429 0.00000109
-0.27379724 -0.64831620 -0.00000127
-0.50339697 -0.41531773 0.06758100
-0.19463871 0.04942911 -0.00000514
-0.29121497 0.09692649 0.31314105
-0.47129600 -0.33782840 0.29304465
-0.05336739 0.02712677 -0.00000985
-0.16110158 0.54790002 -0.07076160
-0.42629421 -0.07328567 -0.08060873
-0.34845090 -0.04124817 0.18022052
-0.34834767 0.07057573 -0.05768510
-0.49125624 -0.54311710 -0.00000232
-0.54445259 -0.11958566 -0.20419131
-0.60590071 -0.45524827 -0.10731632
-0.09011336 0.43155855 0.00000254
-0.19812700 -0.37786296 0.00000255
-0.11131763 0.30868666 -0.00000247
-0.33061766 -0.29729336 0.00000375
-0.00522972 0.78737183 0.00323918
-0.25828188 0.34668414 -0.08803358
-0.24280965 -0.65740640 -0.00000111
-0.47930419 -0.41033360 0.00000459
-0.40668673 0.09863663 -0.14503917
-0.32062938 0.02593779 0.02618844
-0.52650801 -0.34257167 -0.06646340
-0.26922108 -0.57432452 -0.00000106
-0.02521266 0.00582736 0.00000186
-0.53558109 -0.04192479 -0.23327906
-0.09229704 -0.48473464 0.00000023
-0.08178977 0.54765949 0.00000288
-0.32375439 0.25666771 -0.12322560
-0.30843988 -0.51151918 -0.00000114
-0.44126604 -0.37117970 -0.00000159
-0.32796194 0.07609465 -0.03508616
-0.32354724 -0.13860202 -0.00000030
-0.50350340 -0.54859421 0.00000443
-0.31259955 0.16621250 -0.06251326
-0.29290351 -0.31028483 0.00000343
-0.08508162 0.24016616 0.00000324
-0.11699175 0.30041742 0.00000204
-0.65547538 -0.67338925 -0.05639597
-0.55669129 -0.05413045 -0.25332394
-0.34781600 -0.03972072 0.33933937
-0.30268830 0.06923173 0.20925691
-0.28748869 0.25192330 -0.07549199
-0.60942533 -0.67129472 0.17952403
-0.25937367 0.03928448 0.00000691
-0.65852831 -0.72065527 -0.03576288
-0.52497737 -0.46741623 0.03470893
-0.69612053 -0.61833760 -0.13561472
-0.06614803 -0.14447610 0.00000124
-0.73251506 -0.80461986 -0.08471433
-0.11665508 0.35852726 -0.00000131
-0.47540024 -0.06180142 -0.14785993
-0.59028101 -0.76641807 0.00000454
-0.49881715 -0.40425880 0.01498073
-0.63587601 -0.53480542 -0.10359722
-0.20802778 -0.06385344 0.00000341
-0.15472658 0.11727997 0.00000136
-0.07173522 -0.43020887 0.00000049
-0.27676166 0.13183132 0.04630026
-0.13089789 0.08121413 0.00000882
-0.13712889 -0.19313222 0.00000069
-0.51116881 -0.43408411 0.14820746
-0.01442064 0.67565328 0.00000498
-0.19111317 -0.11854528 0.00000315
-0.00466265 -0.53606287 0.00000070
-0.50932806 -0.60948490 0.00000432
-0.40308952 -0.17316404 0.32376573
-0.37496650 -0.76135275 0.00000293
-0.45686700 -0.00795384 -0.15256557
-0.16637681 0.03546798 0.00000334
-0.08462342 0.03773441 0.00001009
-0.61313324 -0.56346321 -0.06038038
-0.01588341 0.09178569 0.00000235
-0.63942978 -0.76431453 -0.00000377
-0.27983727 -0.30598890 0.00000335
-0.34820898 -0.04066557 0.29107534
-0.35407292 0.20750301 -0.13565329
-0.03779515 0.70875101 0.02776212
-0.13409111 -0.27666026 0.00000050
-0.45311674 -0.29393094 0.08869540
-0.29141297 0.37600598 -0.14456429
-0.17625524 0.09436714 -0.00000479
-0.36285622 0.17281363 -0.12867926
-0.09056775 0.50075145 0.00000535
-0.39943363 -0.38765886 0.00000404
-0.43104119 -0.24064797 0.37898583
-0.12633372 -0.15798399 0.00000084
-0.00815697 -0.21121223 0.00000142
-0.31505374 0.35505360 -0.16324514
-0.22237637 0.26312395 0.17776857
-0.26400567 0.16262590 0.17425895
-0.02612980 0.09779198 -0.00000926
-0.52105439 -0.45850030 -0.00000229
-0.64407763 -0.50874693 -0.12731427
-0.24489819 0.23814798 -0.01519092
-0.47896367 -0.70094519 -0.00000264
-0.12978308 -0.13470288 0.00000264
-0.08351899 0.19679018 0.00000852
-0.17557986 0.37610714 0.03685110
-0.26589942 0.12014287 0.00000598
-0.32589017 0.01321294 0.33049229
-0.63977274 -0.35460301 -0.20165891
-0.64668561 -0.76124675 0.14654321
-0.02068865 0.74404545 0.00000402
-0.11218098 -0.55040008 -0.00000005
-0.04501076 0.71026288 -0.00978551
-0.23148940 -0.63055135 0.00000217
-0.13926765 0.36080397 0.00000206
-0.10204778 0.35866043 -0.00000175
-0.20574253 0.08042551 0.00000096
-0.71894294 -0.67734947 -0.13359005
-0.19204358 -0.13826122 0.00000050
-0.11937847 0.39085860 0.00000226
-0.51665729 -0.44733845 0.27314891
-0.09918424 0.06823500 0.00000952
-0.06412960 0.70403355 -0.03043520
-0.09215861 -0.38885162 0.00000172
-0.41230628 -0.40503061 -0.00000150
-0.50417441 -0.55157054 -0.00000242
-0.26291585 0.16525903 0.14768707
-0.29533210 0.04790367 0.00000617
-0.30203632 0.07081179 0.06680744
-0.05165801 -0.14053224 0.00000134
-0.06716504 -0.05288563 0.00000237
-0.17085272 0.19709523 0.00000378
-0.45435477 0.05576620 -0.18238657
-0.16368041 0.31352606 0.00000590
-0.43944632 0.11835713 -0.19614157
-0.28996854 -0.45040028 0.00000306
-0.46501616 -0.32266563 0.25000808
-0.17704830 0.37256255 0.02372234
-0.60948639 -0.14171646 -0.27394441
-0.37781285 -0.11213745 0.32526824
-0.55975323 -0.37121902 -0.09315634
-0.07776870 -0.63426631 -0.00000006
-0.33275552 0.13275293 -0.07037829
-0.41743224 -0.38492596 0.00000419
-0.36824899 -0.20192095 -0.00000073
-0.39694545 0.17670274 -0.17325164
-0.09296755 0.21506784 -0.00000489
-0.18530344 0.27940384 0.00000158
-0.26556122 0.23861410 -0.04122761
-0.27846058 0.12772951 0.05149827
-0.25455559 -0.20342355 -0.00000004
-0.46669540 0.07818671 -0.20938845
-0.34801343 -0.04019503 0.25136379
-0.11744560 0.18464976 0.00000803
-0.12674968 -0.55382895 -0.00000015
-0.08603425 0.61168429 -0.01002379
-0.24671471 0.20436694 0.15002097
-0.44946730 -0.28512565 0.21280779
-0.32238136 -0.77607762 0.00000249
-0.20581990 0.30309546 0.16612385
-0.07606761 0.33227980 0.00000340
-0.59881302 -0.21010427 -0.22524952
-0.08439995 0.12389867 0.00000295
-0.21749149 -0.54627744 -0.00000068
-0.14101704 0.40008109 0.00000545
-0.62380768 -0.77634418 -0.00000371
-0.16458736 -0.16491968 0.00000059
-0.26369216 0.16338488 0.02550122
-0.58389052 -0.60964845 0.09955288
-0.17860368 -0.16898283 0.00000292
-0.04459475 0.06460589 0.00000189
-0.58211006 -0.03562247 -0.29463269
-0.18953026 0.36645684 -0.01241900
-0.52968463 -0.47878056 0.03356664
-0.44923743 0.06676835 -0.18168730
-0.13574284 0.23996834 0.00000714
-0.10491621 -0.75797965 0.00000090
-0.06840160 0.63486109 0.03239380
-0.10824595 0.14241791 -0.00000589
-0.51463080 -0.44244594 0.23851247
-0.42086525 -0.32529338 -0.00000135
-0.28522013 -0.44687883 -0.00000084
-0.08482493 -0.12839092 0.00000232
-0.13710867 -0.18149314 0.00000072
-0.13547057 0.21301470 -0.00000365
-0.51326287 -0.34518119 -0.04857646
-0.10545815 -0.04058132 0.00000269
-0.07611927 0.61623070 0.01383227
-0.40186868 -0.17020708 0.09738438
-0.39251288 -0.37418384 -0.00000130
-0.22213185 0.26371676 0.11920853
-0.19174311 0.37059616 -0.01731976
-0.25856333 0.12078226 0.00000074
-0.17718624 0.36721976 0.00000512
-0.59652143 -0.20141338 -0.22688306
-0.14738485 0.51495055 -0.03659534
-0.03707028 -0.14080976 0.00000142
-0.24304607 -0.23172802 -0.00000005
-0.03989211 0.14832299 0.00000213
-0.32720254 0.01005185 0.13944219
-0.03669357 0.58157118 0.00000552
-0.27797552 0.10467658 -0.00000152
-0.00893014 0.62287626 0.00000350
-0.46888219 0.00006838 -0.17171656
-0.08529280 0.10784027 -0.00000727
-0.00630067 0.62266907 0.00000064
-0.00243327 -0.41646189 0.00000094
-0.21860653 0.27222492 0.20859491
-0.21067633 0.23929125 -0.00000086
-0.58560099 -0.61377688 0.07527171
-0.00960926 0.33902083 0.00000279
-0.32441335 0.32236796 -0.15802631
-0.38665905 -0.13349915 0.39233486
-0.25392886 0.18694828 0.19975268
-0.43987520 0.18436030 -0.23081344
-0.23515212 -0.01617378 0.00000054
-0.34753257 0.26315063 -0.15626579
-0.10754904 0.15507783 -0.00000565
-0.14616891 -0.40119778 0.00000210
-0.30108972 0.07309816 0.04130776
-0.38581151 -0.00352901 -0.06614011
-0.48343366 -0.36712498 0.14128978
-0.38060982 -0.11887961 0.00714074
-0.25109157 0.24797230 -0.02800464
-0.05455568 0.11445266 -0.00000806
-0.15745280 0.02729309 0.00000888
-0.53294134 -0.48664572 0.09796879
-0.24902450 0.23638062 -0.01942499
-0.29481606 -0.05934246 0.00000007
-0.31108841 0.01790574 0.00000017
-0.28876763 0.29144265 -0.09752531
-0.32137556 -0.40844538 -0.00000096
-0.38007633 -0.08980750 -0.01435823
-0.01376801 0.25586802 -0.00000647
-0.22064817 -0.60488402 0.00000215
-0.32728468 0.00985342 0.24179327
-0.02615511 0.33951042 0.00000269
-0.50465877 -0.42215726 -0.00000210
-0.19500133 0.32921961 0.11569381
-0.44976308 0.11265846 -0.20607559
-0.00977854 0.46551672 -0.00000239
-0.01673663 -0.14781161 0.00000153
-0.21496043 0.28102675 0.21520714
-0.05498489 0.15748265 -0.00000719
-0.24794776 0.20139336 0.07276232
-0.16068539 0.00590327 0.00000323
-0.25814887 0.17675689 0.27897493
-0.16093485 -0.56878857 -0.00000039
-0.11370439 0.52548926 0.01396697
-0.30378088 0.06659498 0.25295864
-0.07888308 -0.55740264 0.00000120
-0.12777214 0.37724312 0.00000391
-0.08084823 0.25363165 -0.00000449
-0.08428686 0.24081032 -0.00000464
-0.56552286 -0.76031155 -0.00000331
-0.22034597 0.42624555 -0.08181557
-0.11077166 0.08093646 0.00000304
-0.34425244 0.10815172 -0.07200972
-0.34012708 0.24614023 -0.13822176
-0.09441690 -0.28411541 0.00000072
-0.18694319 0.45565912 -0.05532218
-0.36010014 -0.06937646 0.28492272
-0.16382829 -0.28447236 0.00000252
-0.01656355 -0.27455053 0.00000144
-0.47487510 -0.43302370 0.00000450
-0.14996041 0.01620486 -0.00000715
-0.25563368 0.18283202 0.24138214
-0.25012537 -0.34078122 0.00000304
-0.42105593 -0.21653865 0.31643948
-0.50524745 -0.68235757 0.00000411
-0.36450237 0.01952949 -0.05145482
-0.57687518 -0.59270932 0.04011770
-0.04937795 -0.36684553 0.00000078
-0.21170301 -0.08326794 0.00000339
-0.57561103 -0.18217551 -0.21072453
-0.20372823 -0.65011564 -0.00000085
-0.01590004 0.06170911 0.00001110
-0.27546096 -0.65268549 -0.00000129
-0.09078703 -0.38384463 0.00000049
-0.02020261 0.55875480 -0.00000022
-0.15242449 -0.41976870 0.00000210
-0.17027949 0.34696719 0.00000545
-0.22686203 0.12028978 0.00000401
-0.05730083 -0.27318706 0.00000097
-0.28346475 0.11565531 0.08441763
-0.41810251 -0.28663509 0.00000444
-0.32287788 -0.44210436 -0.00000105
-0.08400161 0.24624814 0.00000802
-0.06741448 0.63724217 0.04335674
-0.04713735 0.68619825 0.01503099
-0.01167985 -0.16433479 0.00000168
-0.30819785 -0.04943739 0.00000002
-0.02179394 0.47164420 -0.00000191
-0.55574216 -0.59590309 0.00000470
-0.34642569 -0.04810642 -0.00000021
-0.12727572 0.33568685 0.00000207
-0.08054552 0.60891803 -0.00174014
-0.43543449 -0.25125072 0.29288695
-0.43388309 -0.24750886 0.38409393
-0.42826545 0.08491819 -0.16488919
-0.30943489 0.37605069 -0.16708880
-0.40919536 -0.22242868 -0.00000103
-0.50066304 -0.54718770 -0.00000239
-0.54342256 -0.51195087 0.12568125
-0.41317090 -0.19283316 -0.00239638
-0.66870551 -0.55645348 -0.13339077
-0.01662058 0.11543438 0.00001054
-0.49044757 -0.21576188 -0.08702276
-0.08719796 0.22906784 0.00000813
-0.34465039 -0.49114010 -0.00000131
-0.02173374 -0.29816740 0.00000142
-0.40233140 0.20094945 -0.19251667
-0.28400650 -0.54664002 -0.00000108
-0.16844140 -0.76050587 0.00000137
-0.68047427 -0.53195116 -0.16075661
-0.12272909 0.50370524 0.02498991
-0.37868813 0.13284195 -0.12777135
-0.17616697 0.35037373 0.00000181
-0.17341555 0.19332983 0.00000693
-0.50868360 -0.42808070 0.06449248
-0.61582392 -0.30250103 -0.19870326
-0.16580342 -0.05155566 0.00000087
-0.04293706 0.29702028 -0.00000476
-0.02103746 -0.09083126 0.00000193
-0.56160010 0.02484512 -0.30029696
-0.33472418 -0.00811009 0.28178509
-0.10026362 0.16898593 0.00000182
-0.07317311 0.51704031 0.00000055
-0.23582639 0.12178604 0.00000088
-0.26676404 0.15597991 0.00913064
-0.06841198 -0.45521659 0.00000138
-0.33941293 -0.71372626 0.00000278
-0.52031326 0.07819876 -0.27634128
-0.33893084 -0.68701113 0.00000284
-0.46599175 -0.66937650 0.00000384
-0.25159452 0.16326249 0.00000089
-0.06673125 0.47365955 -0.00000051
-0.28243786 0.06664747 0.00000430
-0.37212340 -0.30532964 -0.00000101
-0.17815043 -0.54229325 -0.00000043
-0.71089421 -0.62331039 -0.15148854
-0.43236059 -0.38974826 0.00000429
-0.48013389 -0.35915563 0.07160979
-0.09646216 -0.52981692 0.00000009
-0.28235616 -0.61838732 -0.00000125
-0.24839093 0.30302471 -0.05310452
-0.29981098 0.07617559 0.27140445
-0.61372597 -0.66923385 -0.00641840
-0.10821723 0.20571480 0.00000333
-0.42930304 -0.58454729 0.00000378
-0.43885980 -0.25950855 0.01900889
-0.08816532 0.49369665 0.00000547
-0.39591522 -0.65335782 0.00000335
-0.44059416 -0.44829829 0.00000420
-0.03232270 0.00673586 0.00000182
-0.18858110 0.49610519 -0.07828415
-0.43080081 -0.53998449 -0.00000195
-0.24275647 0.21392612 0.07713662
-0.11457915 -0.12742321 0.00000255
-0.25643478 0.31526061 -0.06947586
-0.08648325 -0.62947028 -0.00000010
-0.66472562 -0.80479811 0.11702861
-0.30870239 0.05471925 0.04708458
-0.05373888 -0.46734712 0.00000051
-0.12663858 -0.33771551 0.00000211
-0.41389150 0.16406735 -0.18787650
-0.13695865 0.46935332 0.01443359
-0.01119613 0.49365879 0.00000332
-0.39188504 -0.14610938 0.21649093
-0.24876505 0.24773236 -0.02497575
-0.55847385 0.00606091 -0.28667852
-0.71638128 -0.70572064 -0.11571884
-0.45871576 -0.54296075 -0.00000213
-0.61826100 -0.22485983 -0.24190027
-0.21452593 -0.61823336 -0.00000084
-0.08576413 0.22857750 0.00000322
-0.13137922 0.06501025 0.00000897
-0.28000941 0.12398117 0.26674682
-0.18556844 -0.65268350 0.00000177
-0.58266571 -0.01148148 -0.30781126
-0.18003146 0.36535484 0.15804301
-0.48727347 -0.37638953 0.00914776
-0.01704864 0.68622203 0.00000361
-0.10471100 0.41378327 0.00000597
-0.54257309 -0.50990217 0.17507618
-0.06393414 0.64564404 0.05426356
-0.07997154 -0.19931099 0.00000102
-0.06274791 -0.39933655 0.00000062
-0.06204455 -0.61818147 0.00000092
-0.43573226 -0.32689244 0.00000447
-0.33166041 -0.03799586 0.00000441
-0.14855883 -0.05443725 0.00000298
-0.56425089 -0.58999020 0.00000478
-0.22800362 0.20518790 0.00000423
-0.20243269 0.52419484 -0.11010679
-0.26568070 0.15857725 0.18720369
-0.43113047 -0.36662933 0.00000434
-0.34261314 -0.56879404 0.00000316
-0.29378743 0.09071673 0.29602482
-0.40399113 -0.17533144 0.10470891
-0.53543560 -0.49266883 0.13123592
-0.43452208 -0.71819352 -0.00000242
-0.38865697 -0.79240439 0.00000295
-0.42214402 -0.21916765 0.36568849
-0.33912961 -0.75125832 -0.00000192
-0.25350751 0.18796999 0.09393063
-0.52452508 0.07333710 -0.27908543
-0.08944865 0.67385375 -0.04643935
-0.20860608 -0.29792815 -0.00000000
-0.32139430 0.04540833 -0.01102058
-0.49358636 -0.39163857 0.20527586
-0.72938369 -0.74682262 -0.11069600
-0.37558968 0.16121250 -0.13857573
-0.27135816 -0.38842347 0.00000308
-0.44066086 0.16528084 -0.22192724
-0.22045050 -0.42519647 -0.00000039
-0.37230710 -0.10893996 0.00000454
-0.41105072 -0.19238153 0.26162961
-0.44392116 -0.05972190 -0.10963189
-0.34158697 0.13760717 -0.08391537
-0.10588757 0.54435830 0.07328332
-0.23381628 -0.17672585 0.00000015
-0.46157241 -0.31434587 0.11353366
-0.33651149 -0.37002509 0.00000361
-0.70217113 -0.78337657 -0.05781505
-0.34587667 0.28909006 -0.16761466
-0.09544403 0.35518048 0.00000672
-0.14445760 0.02053421 0.00000918
-0.14888545 0.44055985 0.01441599
-0.04842496 0.58373940 0.00000114
-0.28740376 -0.12916124 0.00000385
-0.67255537 -0.48122234 -0.17710521
-0.04843672 0.45295213 -0.00000148
-0.19457036 0.33025426 0.16850932
-0.37911114 0.24894053 -0.18834491
-0.08631012 -0.28443783 0.00000077
-0.66378990 -0.80253910 0.03849631
-0.27235224 0.20637749 -0.03303802
-0.48322925 -0.46630833 0.00000448
-0.27441330 0.11754155 0.00000436
-0.12798943 -0.20837728 0.00000244
-0.28877483 0.10282012 0.25221673
-0.32805601 -0.17512728 0.00000404
-0.16994442 0.18873371 0.00000704
-0.23134213 0.09695302 0.00000085
-0.18478573 0.35388357 0.00232021
-0.36564698 -0.08276348 0.18337144
-0.26081229 -0.77628184 0.00000203
-0.35014747 -0.04534918 0.33754725
-0.44295107 -0.26939928 0.33674788
-0.25031011 -0.62468036 -0.00000107
-0.04343158 0.02959900 0.00000181
-0.10543419 -0.43840737 0.00000170
-0.24947792 0.19769559 0.21092102
-0.37380675 -0.10246994 0.34800578
-0.13812268 0.39423425 0.00000403
-0.25264276 -0.41072149 0.00000288
-0.06521386 0.41943087 0.00000265
-0.10138899 0.55521841 0.09616425
-0.10726520 0.54103647 0.04262771
-0.12136738 -0.40561628 0.00000025
-0.13586907 -0.76304733 -0.00000073
-0.39105588 -0.37414818 0.00000401
-0.01334235 0.55459569 -0.00000051
-0.58444964 -0.61099957 0.18722250
-0.36688713 -0.36092673 0.00000387
-0.16322434 0.52881876 -0.06354419
-0.59170340 -0.62850912 0.06767496
-0.03591671 0.20026524 -0.00000691
-0.01505700 0.06041332 0.00000226
-0.52150451 -0.40957178 -0.02556537
-0.69017485 -0.73687785 -0.06688514
-0.19143451 0.49578948 -0.08168358
-0.34567172 -0.03453977 0.20746819
-0.52006977 -0.45557627 0.22523519
-0.22472051 -0.48120110 0.00000249
-0.31092201 0.04936300 0.15291863
-0.63812293 -0.11017664 -0.32601049
-0.19181441 -0.14531633 0.00000308
-0.09794902 -0.71293040 0.00000096
-0.48119972 0.01740859 -0.19606646
-0.04497545 0.18344644 0.00000280
-0.25967119 -0.01369362 0.00000392
-0.38621687 -0.77627883 -0.00000227
-0.36226826 -0.07460679 0.19052913
-0.16501137 0.03132133 0.00000108
-0.43867935 -0.50916701 -0.00000192
-0.24002246 0.22052546 0.10482757
-0.25400746 -0.77979131 -0.00000148
-0.67232984 -0.77319012 -0.02582501
-0.08172712 0.56485582 0.00000403
-0.08756841 -0.47853530 0.00000028
-0.04311146 0.26697626 0.00000855
-0.49938464 -0.18827904 -0.11239470
-0.13488362 -0.06738936 0.00000285
-0.14080644 -0.44648203 0.00000003
-0.32141609 0.22762413 -0.10528313
-0.48682192 0.09601981 -0.24374196
-0.39910996 -0.16355803 0.35943492
-0.39525715 0.18968828 -0.17785969
-0.31781017 -0.57809638 -0.00000136
-0.61312320 -0.04194814 -0.33008298
-0.19211594 0.17408447 0.00000388
-0.19767652 0.11620730 0.00000726
-0.11887535 -0.07885079 0.00000270
-0.01412936 0.13609663 0.00000225
-0.18248288 0.35985451 -0.00020537
-0.52144002 -0.45888470 0.28503808
-0.03695907 0.53659750 0.00000362
-0.41902883 0.12253811 -0.17281100
-0.28223193 -0.29144107 -0.00000043
-0.37035444 -0.09413568 0.37763576
-0.07138128 0.16622006 -0.00000652
-0.05829994 0.58990492 0.00000312
-0.00559109 0.74348553 0.00000390
-0.22020399 -0.56559189 0.00000225
-0.48757206 -0.76128600 0.00000378
-0.15137940 -0.43360170 0.00000206
-0.37477210 -0.10480175 0.37700575
-0.42984310 -0.23774393 0.10600059
-0.32059696 -0.20711406 0.00000390
-0.70828576 -0.79198813 -0.06099576
-0.44546983 -0.27548069 0.35035396
-0.03779730 0.09537957 0.00001036
-0.03415499 -0.16628437 0.00000138
-0.35881633 0.30179153 -0.19033931
-0.24526722 0.20786639 0.03499448
-0.29433417 0.17613171 -0.04484138
-0.23029138 0.22465740 0.00000117
-0.34720688 -0.03823860 0.19436167
-0.43849831 0.13255362 -0.20230022
-0.70073187 -0.60010511 -0.15080160
-0.36218185 0.08941737 -0.08470299
-0.44564554 -0.27590110 0.26080024
-0.14461813 0.45085063 0.15572573
-0.21885047 0.23305314 0.00000423
-0.13673630 -0.66677580 0.00000136
-0.58808967 -0.67835649 -0.00000325
-0.57685495 -0.61379420 -0.00000302
-0.30763011 0.21381643 -0.08093181
-0.45848405 -0.30689771 0.29787983
-0.46337731 0.14278937 -0.23865806
-0.32941594 -0.59355137 -0.00000147
-0.15251560 0.43179005 0.02109299
-0.01428663 0.49945375 0.00000316
-0.59642872 -0.78534138 -0.00000356
-0.28935924 -0.61130353 0.00000265
-0.44937170 -0.03913371 -0.12708493
-0.53674983 -0.05069262 -0.23020380
-0.45051050 -0.28763906 0.09267011
-0.28573601 0.21420925 -0.05379550
-0.27766286 -0.24874334 -0.00000030
-0.36300996 -0.34958072 -0.00000106
-0.08246991 0.24775732 0.00000212
-0.54361801 -0.65428846 -0.00000292
-0.48454224 -0.36980783 0.33697411
-0.45648899 -0.30207730 0.20617871
-0.28428435 0.11366729 0.10693246
-0.22948936 0.16520210 -0.00000177
-0.27966439 0.04794298 0.00000646
-0.11428590 0.52408167 0.10121416
-0.18149671 -0.27734916 0.00000021
-0.01936622 0.69501022 0.00000248
-0.09200937 0.57786739 0.03547399
-0.31611434 -0.45200025 -0.00000104
-0.44198596 -0.55990890 0.00000393
-0.11019060 -0.20820522 0.00000231
-0.38983674 -0.14116414 0.21177788
-0.15561729 -0.69213602 -0.00000067
-0.26873365 -0.45339188 -0.00000076
-0.52675705 -0.66537917 0.00000431
-0.48781822 -0.37771133 0.16630034
-0.17992421 0.44411081 -0.04058415
-0.12967704 0.32530569 -0.00000158
-0.05089853 -0.57423261 0.00000095
-0.12304251 -0.69843570 0.00000118
-0.12421130 0.00342246 0.00000295
-0.11677145 -0.77104549 -0.00000063
-0.04782554 0.40750279 0.00000338
-0.10539134 0.54555727 0.08039723
-0.08285939 0.68123466 -0.04202958
-0.59463303 -0.30657594 -0.17013771
-0.40970206 -0.27176860 -0.00000115
-0.55516493 -0.31006828 -0.11905326
-0.31173038 0.29844425 -0.12981739
-0.05047104 0.61759404 0.00000187
-0.29468473 0.08855739 0.13190057
-0.26045014 0.16743181 -0.00000079
-0.10096173 0.54505219 0.00000195
-0.14756150 -0.37301999 0.00000018
-0.02939435 0.19715134 0.00000232
-0.14546135 0.44881869 0.06579803
-0.29090154 -0.70260500 0.00000244
-0.20567506 0.30345998 0.00710226
-0.39918942 -0.61748297 0.00000347
-0.41101083 -0.19227472 0.01389634
-0.34736547 -0.03862271 0.06257072
-0.27716903 0.06166137 0.00000636
-0.17447206 0.53983715 -0.08328570
-0.32049030 -0.41969580 0.00000337
-0.26159435 -0.38478702 -0.00000054
-0.04208201 0.01678381 0.00001107
-0.62998630 -0.40328216 -0.16426425
-0.21145767 0.18292217 0.00000118
-0.69310676 -0.80380458 -0.03593290
-0.32819698 0.02760009 -0.01029858
-0.18573160 0.35159442 0.13472819
-0.35649801 -0.50213896 -0.00000141
-0.40512319 -0.76292790 -0.00000235
-0.31969680 -0.12406901 0.00000410
-0.17980451 -0.22583320 0.00000279
-0.37911580 0.25844362 -0.19326610
-0.31589395 0.03734813 0.26140584
-0.57555861 -0.53791245 -0.02668045
-0.08767392 -0.62542473 0.00000110
-0.50431397 -0.01685000 -0.20720827
-0.49593396 -0.46417490 -0.00000215
-0.05407670 0.47649245 0.00000286
-0.21161864 -0.71730916 -0.00000107
-0.58766944 -0.58559131 -0.01714318
-0.12046613 0.32833025 0.00000209
-0.14565922 -0.07425619 0.00000291
-0.23728899 -0.01703487 0.00000053
-0.18632121 -0.42964063 0.00000233
-0.24765005 0.01241721 -0.00000428
-0.17423731 0.37934686 0.12671369
-0.28258073 0.02897132 0.00000037
-0.15320830 0.29938336 0.00000182
-0.23615786 0.16281318 0.00000098
-0.09596099 0.65891850 -0.04684615
-0.39992259 -0.16552143 0.39558501
-0.06189539 -0.48430428 0.00000042
-0.42416109 -0.22403637 0.34407037
-0.57161712 -0.41512371 -0.08526265
-0.18058147 0.02751661 -0.00000600
-0.09788316 -0.35739098 0.00000184
-0.34947614 -0.15903725 -0.00000051
-0.06955839 0.01348665 0.00000256
-0.06856337 -0.14724497 0.00000122
-0.28062585 -0.70914536 -0.00000147
-0.68704252 -0.39672436 -0.23889338
-0.74517078 -0.78052964 -0.11297446
-0.11369949 0.54182986 -0.00843671
-0.44447185 -0.47796290 -0.00000188
-0.17520074 0.28088400 -0.00000110
-0.51358271 -0.43990853 0.07121015
-0.68092751 -0.57802898 -0.13749218
-0.38625720 -0.10415818 -0.01465359
-0.07466448 0.45451503 0.00000610
-0.16310616 0.15961516 -0.00000389
-0.17491408 -0.56254169 0.00000191
-0.61664406 -0.68127421 -0.00383483
-0.04117854 0.03964499 -0.00000996
-0.15419132 -0.15672855 0.00000277
-0.55508162 -0.76426974 0.00000428
-0.26238617 0.40560666 -0.12363070
-0.36019548 -0.52310097 -0.00000148
-0.22081377 0.26691223 0.00894305
-0.53630011 0.01919755 -0.26578781
-0.57861631 -0.59691646 0.12600573
-0.07612868 0.06422356 0.00000170
-0.58877011 -0.79073926 -0.00000353
-0.48862878 -0.37967054 0.22136220
-0.44555280 -0.66967191 -0.00000236
-0.35782834 -0.06388913 0.22137186
-0.30769951 0.20272035 -0.07527678
-0.50652579 -0.42287004 0.03581226
-0.24593528 0.20626018 0.06075686
-0.56243597 -0.38623955 -0.08873764
-0.53210684 0.04604840 -0.27443836
-0.32655932 -0.28593905 -0.00000069
-0.38663150 -0.34861958 -0.00000121
-0.17391083 -0.27694245 0.00000262
-0.22307311 0.26144344 0.14033700
-0.12010020 0.50423259 0.00000171
-0.33613925 -0.01153167 0.33517424
-0.53539497 -0.49256664 0.03471899
-0.13388286 0.47677869 0.01633104
-0.65373707 -0.64679135 -0.06798139
-0.26822811 0.15243672 0.11705210
-0.05003882 0.67919427 0.00615861
-0.24712673 -0.77411464 0.00000193
-0.01319032 0.24692336 -0.00000666
-0.32774665 -0.22872096 0.00000390
-0.10660450 0.34664487 0.00000222
-0.26794041 0.15312253 0.16986777
-0.23672765 -0.27413811 0.00000310
-0.03343883 0.54202166 0.00000315
-0.29431989 0.01310853 0.00000425
-0.39089557 0.17438647 -0.16449989
-0.62152970 -0.65983196 -0.02102425
-0.56813160 -0.57160533 0.24499202
-0.17801411 0.35520065 0.00000181
-0.35832422 0.21841151 -0.14660130
-0.54241725 -0.50952062 0.04976212
-0.37304543 -0.24374888 -0.00000086
-0.51604968 -0.44586813 0.16068662
-0.00206784 0.71520255 0.00000380
-0.64973159 -0.23767509 -0.27456536
-0.28888523 0.10255567 0.25456481
-0.36842276 0.13417683 -0.11564739
-0.01187527 -0.44366666 0.00000082
-0.25192057 0.03318504 0.00000398
-0.57056066 -0.57746566 0.06343252
-0.44556844 -0.17061843 -0.05433559
-0.69708884 -0.66417475 -0.11311785
-0.39475757 -0.15305166 0.38936149
-0.17613445 -0.35990626 0.00000243
-0.06738140 -0.62893911 0.00000094
-0.08625314 -0.74524215 -0.00000038
-0.64584302 -0.61201026 -0.07611314
-0.35797609 -0.06424999 0.35124191
-0.49551935 -0.56347642 -0.00000240
-0.17354881 -0.22797779 0.00000038
-0.42657029 0.14113344 -0.19184451
-0.50960996 -0.43032174 0.17326633
-0.12165560 -0.48856563 0.00000170
-0.56496396 -0.01982314 -0.28139490
-0.43669581 -0.41883891 0.00000425
-0.03956994 -0.25437400 0.00000166
-0.06864619 0.11937419 0.00000188
-0.45100225 0.17088023 -0.23773469
-0.36430689 0.28751623 -0.18981165
-0.09307984 -0.68843250 -0.00000028
-0.05157417 0.67088074 0.00000297
-0.22432203 0.25843937 0.04987386
-0.37323054 -0.50022048 0.00000357
-0.36935062 0.13999391 -0.11981433
-0.16963992 -0.03340905 0.00000089
-0.37593303 0.05120625 -0.08211402
-0.18553013 0.00830751 -0.00000624
-0.38000575 -0.78098638 -0.00000225
-0.03794065 -0.39504847 0.00000078
-0.07140882 -0.44943595 0.00000142
-0.18783200 -0.78879842 0.00000145
-0.47603640 -0.79093968 0.00000361
-0.02713430 0.60533612 0.00000372
-0.64166834 -0.21114045 -0.27822108
-0.15311705 -0.72893457 -0.00000075
-0.18801598 0.15844584 0.00000126
-0.21880401 0.43254614 -0.08314766
-0.40029888 -0.16642830 0.35816646
-0.16540245 0.40067373 0.12962863
-0.53491673 -0.28161298 -0.10848856
-0.41501352 -0.43001045 -0.00000158
-0.08344614 0.59182368 0.00000235
-0.00029633 -0.71300599 0.00000022
-0.34440791 -0.03148699 0.26471678
-0.33200027 0.10166231 -0.05335598
-0.13657824 -0.18248241 0.00000072
-0.32158727 -0.25511826 -0.00000058
-0.41588502 0.00471727 -0.10794955
-0.55129409 -0.22443501 -0.15850777
-0.02442396 -0.54503491 0.00000049
-0.48482454 -0.37047702 0.00308239
-0.01608870 0.40891690 0.00000314
-0.47110906 0.09831812 -0.22531109
-0.21097417 -0.55308076 0.00000221
-0.08634864 -0.62748764 0.00000108
-0.37442699 0.06877584 -0.08931641
-0.20288906 0.30509208 0.00000154
-0.02678956 0.45465555 0.00000697
-0.41794061 -0.79953637 -0.00000252
-0.56961490 -0.11487492 -0.23804426
-0.08451824 0.28777581 -0.00000369
-0.10207166 0.55357255 0.03082589
-0.55248142 -0.61518626 -0.00000287
-0.43095504 0.18275494 -0.21884614
-0.18970900 0.20668282 0.00000137
-0.39848446 -0.16204821 0.36607775
-0.28224940 -0.27660936 -0.00000040
-0.24860005 -0.72918174 -0.00000132
-0.17906222 -0.43780299 -0.00000018
-0.20025172 -0.18998173 0.00000032
-0.54663496 -0.67747547 0.00000443
-0.66900987 -0.75075507 -0.03328273
-0.55050278 -0.52904663 0.19812994
-0.26736537 0.15451044 0.17884127
-0.05539961 0.02941806 -0.00000974
-0.51079274 0.09080338 -0.27097290
-0.32980227 -0.04833191 0.00000437
-0.33729012 -0.58072179 0.00000309
-0.28184794 -0.13224417 -0.00000003
-0.22022544 0.14817263 0.00000653
-0.28871885 0.26095633 -0.08169708
-0.27195410 -0.42845412 -0.00000071
-0.55659602 -0.16244761 -0.19718594
-0.21134342 -0.14529132 0.00000323
-0.03103651 0.36371641 0.00000272
-0.43329174 -0.28556325 0.00000456
-0.13222273 -0.29151657 0.00000227
-0.47941676 0.09005624 -0.23141196
-0.16845271 0.50319016 -0.05681763
-0.31317233 -0.62956370 -0.00000146
-0.36870403 0.26802617 -0.18522172
-0.25390520 0.04359523 0.00000058
-0.43874448 -0.25924500 0.37283581
-0.23310562 -0.78376508 0.00000180
-0.24461046 0.20944968 0.08888537
-0.63824784 -0.09695760 -0.33300302
-0.24531931 0.06404263 0.00000401
-0.26121732 0.43086895 -0.13523678
-0.36509586 0.15742311 -0.12351348
-0.50882340 -0.26320701 -0.08542860
-0.39706883 0.18022023 -0.17522491
-0.10435678 -0.10702889 0.00000110
-0.12119037 -0.79664813 0.00000092
-0.21561925 -0.25760939 0.00000005
-0.45623022 -0.16126857 -0.07248298
-0.02241820 -0.06698033 0.00000170
-0.65094022 -0.77151800 0.06507206
-0.51071840 -0.15607528 -0.14320060
-0.54919680 -0.52589384 0.25891764
-0.41768884 -0.20839907 0.06460691
-0.09067175 0.40305568 0.00000246
-0.56270649 -0.55850777 0.15355839
-0.01774960 0.48159721 0.00000334
-0.02893318 -0.39081989 0.00000124
-0.66638482 -0.53811661 -0.13997667
-0.05761520 0.12767977 0.00000968
-0.45411260 -0.76687193 0.00000351
-0.09878491 0.21682609 0.00000329
-0.16627628 -0.09949934 0.00000301
-0.01388961 0.31798721 -0.00000522
-0.22779766 -0.41874168 0.00000267
-0.10960411 0.01565527 -0.00000838
-0.28436604 0.37517235 -0.13533398
-0.14173662 0.45817063 -0.00017541
-0.33651570 -0.15590790 -0.00000042
-0.47747601 -0.10882165 -0.12613392
-0.16278727 0.13815062 0.00000767
-0.08275511 0.40480726 0.00000251
-0.05967328 0.03871533 0.00000174
-0.63405702 -0.27685147 -0.23473373
-0.29672001 0.23570449 -0.07862713
-0.13824815 0.21932299 0.00000359
-0.47582128 -0.34875344 0.29354562
-0.13696231 0.26489039 0.00000687
-0.35423404 -0.75112853 0.00000279
-0.25621103 -0.43660290 0.00000284
-0.03143461 0.56979161 0.00000573
-0.39374988 -0.15061691 0.34321335
-0.04119484 0.71689134 -0.00844920
-0.03123342 0.08567355 0.00001058
-0.27261164 0.33770868 -0.10128169
-0.37990178 -0.15185777 0.00000449
-0.25440530 -0.41269435 -0.00000057
-0.16642250 0.39822149 0.02370825
-0.39646509 -0.32904199 -0.00000122
-0.03666825 -0.35859734 0.00000138
-0.12832132 0.62517184 -0.06979718
-0.16357381 -0.48140709 -0.00000019
-0.40444464 0.21819102 -0.20407300
-0.11525265 0.52174996 0.04829980
-0.28998742 -0.74518520 0.00000232
-0.52083005 -0.01088704 -0.23091173
-0.37471513 0.01143643 -0.06002539
-0.69483708 -0.79135307 -0.04453291
-0.10339675 0.55037220 0.08503602
-0.08827115 -0.09362183 0.00000243
-0.22977338 -0.22625838 0.00000317
-0.08601395 0.41026731 -0.00000120
-0.18070330 0.31473930 0.00000170
-0.22111822 0.26617445 0.04385779
-0.18179783 -0.40361555 -0.00000011
-0.43303323 -0.24545270 0.27297523
-0.12410258 0.50038507 0.07864100
-0.43095822 -0.55404626 0.00000387
-0.63925687 -0.36331600 -0.19650867
-0.08125592 0.49690874 0.00000386
-0.64038323 -0.71129520 -0.01794847
-0.26754527 0.15407908 0.10899713
-0.27340291 0.20551653 -0.03390078
-0.23788630 0.22568292 0.09768108
-0.19380520 0.06466812 0.00000099
-0.37137930 -0.09660862 0.36195197
-0.60252315 -0.74001802 0.00000470
-0.23075169 0.24290663 0.17967010
-0.38913334 -0.74176523 -0.00000220
-0.09150253 0.28663335 0.00000748
-0.28813663 0.10437011 0.03422343
-0.60638351 -0.05014043 -0.31743076
-0.38637464 -0.15599189 0.00000452
-0.59247230 -0.30598610 -0.16774496
-0.22166308 0.26484644 0.16721777
-0.63073010 -0.43771257 -0.14738635
-0.00763226 0.30797912 -0.00000561
-0.50038812 -0.40805750 0.15766357
-0.09861039 0.55940363 0.00000414
-0.18903135 0.12903553 0.00000375
-0.01311357 -0.17081709 0.00000167
-0.01857611 -0.26306218 0.00000123
-0.64312888 -0.28497140 -0.24186105
-0.26647166 0.11404873 0.00000603
-0.24860290 0.19980991 0.18764622
-0.19364558 -0.30036863 0.00000008
-0.66827068 -0.61052102 -0.10488546
-0.19392509 0.48119094 -0.07724395
-0.32631430 -0.35729315 0.00000357
-0.08872682 0.65684042 -0.03673930
-0.30567093 -0.76635605 0.00000239
-0.57352662 -0.46343200 -0.06266289
-0.00488586 0.54957005 0.00000341
-0.26484423 -0.33329321 0.00000316
-0.65485947 -0.78097965 0.04696759
-0.57969467 -0.25029549 -0.18059318
-0.27061580 0.36348331 -0.11212135
-0.30994194 0.05172659 0.04926525
