ply
format ascii 1.0
element vertex 1408
property float x
property float y
property float z
end_header
0.10368636 0.70233506 0.00037251
0.54595095 0.54919548 0.01825893
0.34904793 -0.01531322 0.00000000
-0.54497151 0.73803630 0.00000000
0.16803997 -0.42644235 0.00000000
0.20045467 0.02927135 0.00000000
-0.57686110 -0.74047598 0.00000000
-0.21746813 -0.64779787 0.00000000
-0.00374817 0.21180879 0.00000000
-0.20399136 0.05583348 0.00000000
0.46191043 0.24708510 0.00000000
-0.44327252 -0.42167977 0.00000000
0.08900798 -0.76948284 0.00000000
-0.50148331 -0.14073634 0.00000000
-0.19097777 0.62283605 0.00000000
0.25509576 -0.05477853 0.00000000
0.00384347 -0.40744383 0.00000000
-0.27355310 0.68475472 0.00000000
0.39323655 -0.46686312 0.00000000
0.61266204 -0.75667761 0.00000000
-0.65041278 -0.55262598 0.00000000
0.19181724 -0.34529151 0.00000000
-0.61586660 -0.72927086 0.00000000
0.35071157 -0.05039350 0.00000000
0.11834760 -0.69699789 0.00000000
-0.75305533 -0.14861189 0.00000000
0.52270572 0.39630301 0.00736235
0.62306311 0.43814023 0.01615907
0.13827031 0.61033323 0.00000000
-0.38855199 -0.01665022 0.00000000
0.14292928 -0.73363094 0.00000000
-0.14545457 0.50654868 0.00000000
0.61370653 -0.00236818 0.00000000
0.57064211 -0.55481856 0.00000000
0.60433522 -0.00737545 0.00000000
-0.16011799 -0.20152224 0.00000000
0.41626783 -0.11953128 0.00000000
-0.47831928 0.56096569 0.00000000
0.43845892 -0.19430584 0.00000000
0.33814170 0.26239036 0.00000000
-0.03536231 0.58563568 0.00000000
-0.20416640 -0.54594403 0.00000000
-0.09436604 0.72399567 0.00000000
-0.02706046 0.39409824 0.00000000
-0.06869261 -0.33926111 0.00000000
-0.45219222 -0.27999094 0.00000000
-0.55572910 -0.41602243 0.00000000
0.70638112 -0.75405689 0.00000000
0.08921090 0.19637287 0.00000000
0.25499418 0.23954966 0.00000000
0.59142014 -0.24445168 0.00000000
-0.72234774 0.70138379 0.00000000
0.28690979 0.57495425 0.00382715
0.02395928 -0.02106372 0.00000000
-0.68961535 -0.14081545 0.00000000
0.39523214 -0.76219182 0.00000000
-0.39467613 0.37104082 0.00000000
0.25461098 -0.62112104 0.00000000
-0.55186123 0.63163591 0.00000000
-0.78248966 0.01887549 0.00000000
-0.75490061 0.29736793 0.00000000
-0.15353828 -0.78184682 0.00000000
0.24732815 0.10685333 0.00000000
0.35561792 -0.51524274 0.00000000
0.72555066 -0.16952431 0.00000000
0.62859917 0.13487698 0.00000000
-0.69476706 -0.32116598 0.00000000
-0.72243569 0.13588777 0.00000000
-0.51038643 0.02008143 0.00000000
-0.67323463 -0.79523130 0.00000000
0.23121518 -0.58068596 0.00000000
-0.79088971 0.22470463 0.00000000
-0.29089998 -0.65514525 0.00000000
-0.46662927 -0.27170172 0.00000000
-0.42698016 0.13269023 0.00000000
-0.31139336 -0.78355019 0.00000000
-0.23775802 -0.74401651 0.00000000
-0.28855339 0.27053883 0.00000000
0.22954904 0.76664471 0.01213735
0.49075122 0.46629734 0.00971564
-0.33736428 -0.16875961 0.00000000
-0.62088726 0.07143628 0.00000000
0.24016885 -0.03719620 0.00000000
0.28078018 0.12820576 0.00000000
0.53839921 0.40677653 0.00898114
-0.01418101 0.22594583 0.00000000
-0.19540228 -0.45356390 0.00000000
0.57123378 -0.11484287 0.00000000
0.08174534 0.71202504 0.00000000
0.50700814 -0.00176161 0.00000000
0.20053300 0.77198973 0.01067296
0.67327298 -0.49596490 0.00000000
-0.38211484 0.06416829 0.00000000
-0.71398649 0.62586437 0.00000000
0.33671136 0.44616040 0.00000000
0.70389096 0.45357504 0.02211426
0.69155544 -0.29576144 0.00000000
0.16594465 0.00566962 0.00000000
-0.53377102 -0.53051072 0.00000000
-0.41053662 -0.53735917 0.00000000
-0.11747987 0.22139264 0.00000000
0.46208130 0.60571573 0.01656698
-0.01936068 -0.52887686 0.00000000
-0.17780922 -0.40757398 0.00000000
0.65870550 0.71026947 0.03519912
-0.56046355 -0.74115956 0.00000000
0.52294838 -0.57853022 0.00000000
-0.37993985 0.44844107 0.00000000
-0.41071527 0.31155465 0.00000000
0.60861341 0.09212406 0.00000000
-0.04181682 -0.09440002 0.00000000
0.01322970 -0.06527031 0.00000000
-0.30486003 -0.67067668 0.00000000
0.01039964 -0.09849817 0.00000000
0.23613821 0.37324653 0.00000000
0.40046933 0.67586673 0.01709526
0.73493502 0.56514625 0.03093704
-0.24424812 0.20810430 0.00000000
-0.52208943 -0.00862004 0.00000000
0.06391602 0.23830779 0.00000000
-0.54990046 0.56287227 0.00000000
0.55360633 -0.20786314 0.00000000
-0.72993299 -0.77192143 0.00000000
-0.02484441 -0.13413470 0.00000000
-0.74585215 0.70746413 0.00000000
0.22624996 0.43004963 0.00000000
-0.48119725 0.56712298 0.00000000
0.49828104 -0.32115353 0.00000000
0.70874434 0.66051775 0.03521687
-0.17246335 -0.63280456 0.00000000
0.71977378 0.27786659 0.01222681
0.29487347 -0.57181878 0.00000000
-0.40835580 -0.51555951 0.00000000
0.11858797 -0.70827940 0.00000000
-0.34294142 0.38586037 0.00000000
0.59430874 0.37291095 0.01034487
0.00216621 -0.00435505 0.00000000
0.42343815 -0.76928180 0.00000000
-0.32153118 0.43207712 0.00000000
-0.62950084 0.06625210 0.00000000
-0.02708579 -0.43597415 0.00000000
0.11598080 0.68043591 0.00000000
0.60592119 -0.08862654 0.00000000
0.04275008 -0.24504342 0.00000000
-0.39308391 -0.00895645 0.00000000
-0.32828952 0.64669464 0.00000000
-0.36327329 -0.68009268 0.00000000
0.41796446 0.37674234 0.00000000
0.67327896 0.33773824 0.01305436
0.45036331 -0.75532117 0.00000000
-0.35887992 -0.37910461 0.00000000
0.41193268 -0.19731226 0.00000000
-0.35063109 -0.24895597 0.00000000
-0.70759225 0.66077034 0.00000000
-0.78947662 -0.12963042 0.00000000
-0.26454290 0.46836518 0.00000000
-0.24904566 -0.33415589 0.00000000
-0.53360899 0.13630333 0.00000000
0.18201866 -0.45883232 0.00000000
0.63382047 -0.79489071 0.00000000
0.20271783 0.41776653 0.00000000
0.69513493 -0.70032042 0.00000000
-0.42517860 -0.17119013 0.00000000
-0.19115959 -0.51175551 0.00000000
-0.53271665 -0.23449167 0.00000000
-0.04922968 0.38712777 0.00000000
-0.76388846 -0.66628707 0.00000000
0.48210837 -0.30576242 0.00000000
-0.54791049 0.69057388 0.00000000
0.69432741 0.35324450 0.01531578
0.51402837 -0.20803352 0.00000000
-0.66844233 -0.18286632 0.00000000
0.36894728 0.48690864 0.00345547
-0.62985988 -0.63748728 0.00000000
-0.39401328 -0.13568390 0.00000000
0.14207623 0.51196153 0.00000000
0.09799772 -0.78766363 0.00000000
-0.42221428 0.71963025 0.00000000
0.04715432 0.76199677 0.00056612
-0.32244380 -0.44964873 0.00000000
0.63390127 -0.03771529 0.00000000
0.49314420 -0.36748796 0.00000000
-0.63611294 -0.70572779 0.00000000
0.59287056 -0.65583685 0.00000000
-0.63703829 0.45221953 0.00000000
0.54092093 -0.58873417 0.00000000
-0.05949769 -0.75570476 0.00000000
-0.12819843 0.09888063 0.00000000
0.19786209 -0.11211883 0.00000000
-0.24807919 0.59381384 0.00000000
0.53740199 0.72702122 0.02873112
0.25133343 0.48224841 0.00000000
0.60464189 0.40010900 0.01266670
0.53775294 -0.12275812 0.00000000
0.70574042 -0.71890473 0.00000000
0.46848655 0.75745908 0.02635075
-0.58032652 -0.31008086 0.00000000
-0.67239028 0.25719267 0.00000000
0.59073168 0.15607464 0.00000000
-0.64314701 0.68082552 0.00000000
0.12684783 0.79350065 0.00744525
-0.01593032 0.58405870 0.00000000
0.33869646 -0.11281330 0.00000000
-0.50882879 -0.46960507 0.00000000
0.74165759 0.16244570 0.00644024
0.18786694 -0.78280241 0.00000000
0.44636735 -0.19212656 0.00000000
0.53589982 0.34563964 0.00504435
-0.57817436 -0.05432848 0.00000000
-0.75571659 -0.07703198 0.00000000
0.54263520 -0.19028249 0.00000000
0.11673212 -0.43570209 0.00000000
-0.09274841 0.24181467 0.00000000
-0.45365359 0.47242551 0.00000000
-0.23572466 -0.57451238 0.00000000
-0.57272702 0.65990163 0.00000000
-0.14197708 0.60351822 0.00000000
0.24926638 -0.28735290 0.00000000
-0.18549874 0.16740901 0.00000000
0.39765103 0.12362360 0.00000000
-0.01998037 0.18470281 0.00000000
-0.12982464 0.54384365 0.00000000
0.40367246 0.43267899 0.00224884
0.44043075 -0.47952655 0.00000000
-0.23135075 0.47499385 0.00000000
-0.78083588 0.19868875 0.00000000
-0.31975647 0.67005157 0.00000000
-0.52617536 0.25519338 0.00000000
-0.76322580 -0.66433409 0.00000000
-0.78489284 0.09972273 0.00000000
-0.70810076 0.22839885 0.00000000
0.12397325 0.38021632 0.00000000
-0.24818460 0.75153940 0.00000000
0.66728331 0.68296397 0.03404054
0.01432056 0.39477402 0.00000000
-0.16653168 0.13243441 0.00000000
-0.75517354 0.17011231 0.00000000
0.79430876 -0.49132249 0.00000000
0.35624622 -0.57093058 0.00000000
0.13410228 0.45304882 0.00000000
0.04394622 0.77650602 0.00126526
-0.04065477 0.05956140 0.00000000
0.05254021 -0.34074780 0.00000000
0.36197924 0.37974312 0.00000000
-0.17194045 -0.21951915 0.00000000
-0.45582637 -0.65463748 0.00000000
0.56388216 -0.20891797 0.00000000
-0.65308086 0.66675817 0.00000000
0.61619927 -0.12439037 0.00000000
-0.74237370 -0.17704467 0.00000000
-0.21895113 0.14665011 0.00000000
0.06993458 0.17870919 0.00000000
0.32315946 0.30156066 0.00000000
-0.14632122 -0.69316462 0.00000000
0.45355810 -0.37851993 0.00000000
-0.46642967 0.44493646 0.00000000
0.63672694 -0.45207428 0.00000000
0.45630549 -0.33957479 0.00000000
0.59212543 0.72983281 0.03229048
-0.16212513 0.48886564 0.00000000
-0.54392775 -0.73816398 0.00000000
0.53216209 -0.38475090 0.00000000
0.76870024 -0.14425484 0.00000000
-0.55296318 -0.35314490 0.00000000
-0.40756906 -0.57876001 0.00000000
0.26845558 -0.45849117 0.00000000
0.75002235 -0.33783006 0.00000000
-0.50405933 -0.09805977 0.00000000
-0.48165876 -0.04190229 0.00000000
0.06090137 0.32643726 0.00000000
-0.15989766 0.49655481 0.00000000
-0.02723495 0.56220048 0.00000000
0.30753123 -0.53979334 0.00000000
0.61487570 -0.03494865 0.00000000
-0.38140389 0.62024233 0.00000000
0.18256177 -0.72535269 0.00000000
0.63393621 -0.01096124 0.00000000
0.77877782 -0.60752361 0.00000000
0.34218368 0.32894024 0.00000000
-0.23645585 0.74353815 0.00000000
0.33967681 -0.68425171 0.00000000
-0.72192407 0.46644085 0.00000000
-0.67228631 0.51050373 0.00000000
0.68059267 0.58349532 0.02871035
-0.78991273 0.02644510 0.00000000
-0.40732432 -0.70256290 0.00000000
-0.20446137 0.38281285 0.00000000
0.75188114 -0.75587393 0.00000000
0.26959065 0.73838290 0.01286609
-0.60335251 -0.02151509 0.00000000
-0.52595549 -0.51880872 0.00000000
0.36145913 -0.27452854 0.00000000
0.40250136 0.74240810 0.02133751
0.32122398 0.44078623 0.00000000
-0.69367600 -0.75204974 0.00000000
-0.32048552 -0.26815216 0.00000000
0.48844370 -0.45423428 0.00000000
-0.01684803 0.63057312 0.00000000
0.06394274 -0.25149094 0.00000000
0.71139265 -0.36956619 0.00000000
0.51213571 -0.03051737 0.00000000
-0.29237242 -0.66988979 0.00000000
0.46778151 -0.47167225 0.00000000
0.50469969 -0.14346227 0.00000000
0.06804958 0.37476410 0.00000000
0.79291778 -0.46537278 0.00000000
0.58557070 0.34899373 0.00832469
0.10724994 -0.43948173 0.00000000
-0.67962576 -0.41438752 0.00000000
-0.58202232 -0.54425394 0.00000000
-0.67692281 0.39951311 0.00000000
0.76662992 0.39357267 0.02228356
-0.17959817 0.33366848 0.00000000
0.03825887 0.34659613 0.00000000
-0.32668395 0.29764522 0.00000000
-0.08111087 -0.38988551 0.00000000
0.24170169 0.67189249 0.00702738
-0.07571535 -0.45791072 0.00000000
-0.59474526 -0.74250826 0.00000000
0.13047555 0.56524527 0.00000000
-0.11739806 0.28546080 0.00000000
-0.51898467 -0.04461107 0.00000000
0.45708330 0.79111093 0.02772715
0.25285582 0.29362400 0.00000000
-0.25038369 0.25883204 0.00000000
0.57101460 -0.17173549 0.00000000
-0.13384306 -0.26456405 0.00000000
0.35988628 0.71544199 0.01703292
-0.60914925 -0.35341027 0.00000000
0.52250341 0.22057805 0.00000000
-0.13986573 -0.57956647 0.00000000
-0.05793326 -0.28711193 0.00000000
-0.37690852 -0.15870592 0.00000000
-0.41590499 -0.08457725 0.00000000
-0.09488737 0.03405435 0.00000000
-0.41369832 -0.20678661 0.00000000
-0.70609752 0.71226861 0.00000000
-0.77449089 0.56701514 0.00000000
0.62992667 -0.60066666 0.00000000
-0.30079263 -0.60194965 0.00000000
0.02368412 -0.46912531 0.00000000
-0.29463093 -0.05063624 0.00000000
0.71829040 0.54676287 0.02877005
-0.11453460 0.25134028 0.00000000
0.52103267 0.01937788 0.00000000
0.44309987 -0.23840375 0.00000000
-0.39854716 -0.44134955 0.00000000
-0.63383973 -0.77629380 0.00000000
0.05871373 -0.26740419 0.00000000
0.32727664 -0.20506181 0.00000000
-0.35431038 0.29545058 0.00000000
-0.69056446 0.10864553 0.00000000
-0.71025652 -0.35587781 0.00000000
0.67828702 0.46016160 0.02093777
-0.14559495 -0.73008309 0.00000000
-0.32836727 0.08364109 0.00000000
0.60547039 0.61154064 0.02579798
-0.74808252 0.58784085 0.00000000
-0.70536707 -0.59912841 0.00000000
-0.05175527 -0.06858665 0.00000000
-0.12059802 0.79176776 0.00000000
-0.66943002 -0.07633172 0.00000000
0.52248110 -0.07699299 0.00000000
-0.32337964 -0.14293427 0.00000000
0.01425867 0.21119458 0.00000000
-0.35349700 -0.55918218 0.00000000
0.44756817 0.49480729 0.00880791
0.30456502 0.09722382 0.00000000
-0.77670452 -0.67137697 0.00000000
0.22339500 -0.55170918 0.00000000
-0.64569036 -0.39873030 0.00000000
0.38914081 -0.37385295 0.00000000
-0.74967866 0.15867330 0.00000000
0.41164342 -0.28752022 0.00000000
-0.25960374 0.12756909 0.00000000
-0.57015783 0.45399085 0.00000000
0.76922642 -0.39012642 0.00000000
0.11973446 0.36322304 0.00000000
0.28178762 0.05007513 0.00000000
-0.61660708 -0.08925159 0.00000000
-0.35706888 0.35886272 0.00000000
0.32115660 0.32446822 0.00000000
-0.37348780 -0.17848354 0.00000000
-0.14552605 -0.55597034 0.00000000
0.10037736 0.23443062 0.00000000
0.00444520 -0.66379692 0.00000000
0.40908502 -0.77137785 0.00000000
-0.28925273 0.33563459 0.00000000
-0.55743783 0.47563013 0.00000000
-0.10098835 0.46058702 0.00000000
0.27103023 -0.31455770 0.00000000
0.57754135 -0.05175188 0.00000000
0.33649271 -0.70763544 0.00000000
0.74556020 0.03344258 0.00000000
0.18654210 -0.60426510 0.00000000
0.13191536 -0.57939495 0.00000000
0.59832464 -0.28712495 0.00000000
0.02177954 -0.60208925 0.00000000
-0.59345425 -0.07902564 0.00000000
-0.32721250 -0.78188514 0.00000000
-0.39820687 0.27089989 0.00000000
0.06541525 -0.10846639 0.00000000
-0.43440927 0.20017901 0.00000000
0.43025579 -0.21948123 0.00000000
0.50112815 -0.70738449 0.00000000
-0.03981220 -0.19216673 0.00000000
-0.73760721 -0.59656364 0.00000000
0.24087538 0.70887834 0.00926436
-0.36938764 -0.14293217 0.00000000
-0.63032483 0.44182338 0.00000000
-0.66590164 -0.47353184 0.00000000
0.44239195 0.41347376 0.00345607
-0.60645188 0.44731203 0.00000000
0.54368256 -0.47020578 0.00000000
0.19364740 -0.38529056 0.00000000
-0.08356850 0.21357428 0.00000000
0.08489400 -0.55964957 0.00000000
-0.56858201 -0.45688821 0.00000000
-0.25775916 0.78794584 0.00000000
-0.31716873 -0.30136127 0.00000000
-0.65373269 0.61614571 0.00000000
-0.21391866 0.12987697 0.00000000
0.15307207 -0.60820685 0.00000000
0.04570377 -0.20906020 0.00000000
-0.58023698 0.71436545 0.00000000
0.53665762 0.14410620 0.00000000
-0.09148564 0.06976457 0.00000000
-0.19967532 0.12560216 0.00000000
0.46813788 0.47111764 0.00861490
-0.20675357 -0.57295449 0.00000000
-0.06435936 -0.13956888 0.00000000
-0.20574337 -0.73111264 0.00000000
0.76941017 0.60605843 0.03560082
0.42186253 -0.61472838 0.00000000
-0.16278727 0.23370276 0.00000000
-0.70570649 -0.21482175 0.00000000
-0.63406317 0.42222203 0.00000000
-0.41433233 0.63285483 0.00000000
-0.78742791 0.56670658 0.00000000
-0.22809127 0.12539152 0.00000000
0.69960755 -0.48368700 0.00000000
-0.71716042 0.79962821 0.00000000
0.00804877 0.34295107 0.00000000
0.23652020 0.76951960 0.01274647
0.31271567 0.62221813 0.00834754
0.77454826 0.05546285 0.00185661
0.76032634 0.57865294 0.03334343
0.06328586 0.05760660 0.00000000
0.72973313 -0.37661997 0.00000000
0.26814269 -0.76221727 0.00000000
0.66079914 -0.20147414 0.00000000
-0.03701414 0.12266964 0.00000000
-0.23503695 0.43647658 0.00000000
0.53174220 -0.78405820 0.00000000
-0.25178505 0.79719909 0.00000000
0.28565301 -0.49490926 0.00000000
0.00849370 0.53460221 0.00000000
0.08066152 -0.65417929 0.00000000
-0.34478676 -0.45458555 0.00000000
-0.13499004 -0.31254372 0.00000000
-0.38460796 0.63495990 0.00000000
-0.67313913 0.19284744 0.00000000
-0.50432519 -0.60768822 0.00000000
-0.07802444 0.33715172 0.00000000
-0.34598802 0.54046459 0.00000000
-0.17500958 -0.22446428 0.00000000
-0.38523911 0.34109329 0.00000000
0.14708658 -0.44209895 0.00000000
-0.09072109 -0.70619875 0.00000000
-0.50108162 -0.41569890 0.00000000
-0.48512717 -0.39830390 0.00000000
0.67475892 0.39472171 0.01667114
0.73806129 0.79235622 0.04518665
-0.05868770 -0.25266397 0.00000000
-0.03977788 0.73127872 0.00000000
0.30668920 0.14215637 0.00000000
0.74748087 0.66990142 0.03819379
0.40420891 -0.42932558 0.00000000
-0.73299327 -0.22754512 0.00000000
-0.37327883 0.36570312 0.00000000
0.20600789 0.42337825 0.00000000
-0.29781011 0.51956331 0.00000000
0.45982461 -0.34606952 0.00000000
-0.66311536 0.03237280 0.00000000
-0.56106443 0.03726581 0.00000000
0.14665846 -0.48017929 0.00000000
0.77104333 -0.72592788 0.00000000
0.16878479 -0.27168059 0.00000000
0.77774302 -0.43992566 0.00000000
-0.10702109 0.48402392 0.00000000
0.05225773 -0.27824740 0.00000000
-0.07404130 0.38587219 0.00000000
0.78198086 -0.39323091 0.00000000
0.03066128 -0.36932654 0.00000000
0.72388824 0.18222099 0.00656434
-0.57779610 0.71534972 0.00000000
0.48281690 -0.10210667 0.00000000
0.63374613 0.55947084 0.02432597
0.42363416 -0.46186714 0.00000000
0.00047770 -0.22207682 0.00000000
-0.70571877 0.74926940 0.00000000
-0.07704821 -0.59794505 0.00000000
-0.12962768 -0.09709240 0.00000000
0.73366282 -0.30307115 0.00000000
0.16469577 -0.25341171 0.00000000
-0.77216893 -0.62158269 0.00000000
0.64369988 0.50877474 0.02180547
-0.06042107 0.25062807 0.00000000
-0.36479065 0.08156976 0.00000000
-0.64894412 -0.44630922 0.00000000
-0.66862924 0.61886390 0.00000000
-0.45046424 0.69124172 0.00000000
-0.03975211 0.37540857 0.00000000
-0.19593008 -0.48676167 0.00000000
0.27993536 -0.41797561 0.00000000
-0.62364082 -0.31494882 0.00000000
-0.78565389 0.53217044 0.00000000
0.15205947 -0.01767608 0.00000000
0.14172798 -0.55259030 0.00000000
0.12213364 -0.08732917 0.00000000
0.28066353 -0.76623978 0.00000000
0.34189942 0.03141022 0.00000000
-0.51493807 -0.28565885 0.00000000
-0.46910694 0.51527364 0.00000000
-0.66141434 0.42309262 0.00000000
-0.46889688 0.33694140 0.00000000
0.31336658 0.04758134 0.00000000
0.02637310 -0.64989443 0.00000000
-0.39446008 0.14023932 0.00000000
0.41361676 0.71556365 0.02036444
0.53530992 -0.46172192 0.00000000
0.44727438 -0.26183999 0.00000000
0.64481313 -0.27166011 0.00000000
0.56109848 0.15965089 0.00000000
0.79226311 0.44896943 0.02729639
-0.62256475 -0.11585794 0.00000000
-0.16149172 0.25614917 0.00000000
-0.65799050 0.39493091 0.00000000
-0.66845027 0.27451989 0.00000000
0.70129707 0.22996307 0.00812027
-0.44223990 0.04677703 0.00000000
-0.16943034 -0.34103417 0.00000000
0.69767998 0.03960163 0.00000000
-0.77178461 -0.11912996 0.00000000
0.57251490 -0.39923169 0.00000000
-0.49657831 -0.43862545 0.00000000
0.13937580 0.44957337 0.00000000
0.20863355 0.61859253 0.00168431
0.51557718 0.17782613 0.00000000
-0.61335122 0.09942312 0.00000000
0.15946099 -0.72677160 0.00000000
-0.00967665 0.57247178 0.00000000
-0.31751197 0.39657479 0.00000000
0.66744171 0.65701262 0.03244488
-0.11725792 0.74689249 0.00000000
0.60957961 0.19176615 0.00008325
0.59401134 0.01989683 0.00000000
0.66791878 0.16609077 0.00210396
0.29490397 -0.48852921 0.00000000
-0.69225216 0.04294602 0.00000000
-0.19269665 -0.65981904 0.00000000
-0.28624860 0.46227654 0.00000000
0.70102514 0.09663475 0.00000000
-0.11759928 0.57607578 0.00000000
-0.58641764 -0.65182922 0.00000000
-0.74361786 -0.10907297 0.00000000
-0.75651628 0.22390157 0.00000000
-0.50025438 -0.52499071 0.00000000
-0.12906268 -0.05577067 0.00000000
-0.15304814 0.05653668 0.00000000
-0.02622112 0.65464414 0.00000000
0.63268242 0.59816700 0.02665408
-0.02639424 0.45987296 0.00000000
-0.71939851 0.10425756 0.00000000
0.15082573 0.59935494 0.00000000
0.09578931 -0.55613718 0.00000000
-0.24664829 -0.65074582 0.00000000
0.02110713 0.35216566 0.00000000
0.38681461 0.61637104 0.01256987
0.12275051 0.33718618 0.00000000
-0.04023414 -0.18855256 0.00000000
-0.51774640 0.15244290 0.00000000
0.45137979 0.20122711 0.00000000
0.41280660 0.74033663 0.02184689
0.23523253 -0.11189369 0.00000000
-0.39048511 0.17056929 0.00000000
0.33129239 -0.13977281 0.00000000
0.33859418 0.56657288 0.00650605
-0.49259098 0.33109997 0.00000000
-0.35890217 0.65859806 0.00000000
-0.19409972 -0.13245259 0.00000000
0.72624225 0.00577836 0.00000000
0.57034654 0.42060175 0.01181282
-0.65202686 -0.23753124 0.00000000
-0.56482157 -0.40153923 0.00000000
-0.49256170 -0.05953522 0.00000000
0.69992835 0.63852405 0.03331085
0.38803688 -0.55360733 0.00000000
0.47123161 0.63165829 0.01873798
0.45434847 0.73090945 0.02383363
-0.44523143 -0.24006055 0.00000000
0.71376506 0.03077613 0.00000000
0.11867339 -0.00449206 0.00000000
-0.40629952 -0.73617645 0.00000000
-0.37811167 -0.72523756 0.00000000
-0.68766828 0.15007296 0.00000000
0.45779298 0.07274811 0.00000000
-0.10709221 -0.32010216 0.00000000
-0.03462852 -0.31910286 0.00000000
-0.20908278 0.26927824 0.00000000
0.75118604 0.54955005 0.03097754
-0.60392962 0.22329969 0.00000000
0.54778891 -0.07772900 0.00000000
-0.56292018 -0.07701607 0.00000000
0.39340458 -0.23607917 0.00000000
0.58498028 -0.34260222 0.00000000
0.42003884 0.51445523 0.00832033
0.35584416 -0.43804082 0.00000000
-0.58364435 0.69292829 0.00000000
-0.67286294 0.72271197 0.00000000
0.36954435 0.70043789 0.01670219
-0.70758643 0.39497236 0.00000000
0.43191141 0.01179765 0.00000000
0.56999859 0.22852108 0.00000000
0.50783108 0.76292081 0.02912265
-0.54671521 -0.15998564 0.00000000
-0.16244852 0.39747285 0.00000000
0.02616655 0.02447465 0.00000000
0.73119315 0.77717612 0.04382265
-0.21210359 -0.14961141 0.00000000
0.76569710 0.39044660 0.02203246
-0.07390989 -0.15866983 0.00000000
-0.23066661 -0.73541292 0.00000000
0.67350007 0.47920850 0.02181995
0.21056387 -0.71362317 0.00000000
0.27177649 -0.77397887 0.00000000
-0.53733302 -0.07582289 0.00000000
0.38777743 -0.61433547 0.00000000
0.30405193 0.29303018 0.00000000
0.04771455 -0.42842910 0.00000000
0.30423282 0.70184274 0.01274866
-0.24138313 0.29343263 0.00000000
0.63527872 0.00443253 0.00000000
0.03194635 0.38390878 0.00000000
0.13243155 -0.50376466 0.00000000
-0.59334391 -0.50061711 0.00000000
-0.56942708 -0.37300198 0.00000000
0.08593883 0.20256704 0.00000000
0.58118152 -0.10990701 0.00000000
-0.71429953 0.61909967 0.00000000
0.04867601 0.45400639 0.00000000
-0.38784544 0.54312788 0.00000000
-0.37917421 0.60337992 0.00000000
0.56346189 -0.65521914 0.00000000
-0.01694145 -0.55974049 0.00000000
0.41666492 0.53293748 0.00925500
-0.22919542 0.39268340 0.00000000
-0.04297659 0.19469905 0.00000000
0.04608311 -0.71393387 0.00000000
0.68211844 0.12228194 0.00027222
-0.20186958 -0.15260837 0.00000000
0.34269847 -0.01735988 0.00000000
-0.16567887 -0.46969028 0.00000000
0.01850372 0.48160110 0.00000000
0.35134196 -0.75263920 0.00000000
0.45196022 -0.23354254 0.00000000
0.78924104 -0.05346296 0.00000000
-0.68203792 -0.44228555 0.00000000
-0.35867388 0.00615232 0.00000000
-0.10731741 -0.27888313 0.00000000
0.37069837 -0.37605834 0.00000000
0.72232643 0.29072565 0.01318024
0.20986044 -0.29147368 0.00000000
0.56954048 -0.70498931 0.00000000
-0.16756880 0.20828719 0.00000000
-0.32515720 -0.69949408 0.00000000
0.31079893 -0.79663505 0.00000000
0.08300112 0.14751987 0.00000000
-0.03457231 -0.15149220 0.00000000
-0.74216314 -0.34699828 0.00000000
-0.47676235 -0.74911584 0.00000000
-0.35628135 0.52779973 0.00000000
-0.76669567 -0.04329803 0.00000000
-0.48747120 -0.21731453 0.00000000
0.52335234 0.02395404 0.00000000
0.65390804 0.05257292 0.00000000
0.38875049 0.48657247 0.00465978
-0.72438152 0.29491883 0.00000000
0.15064373 0.03193594 0.00000000
-0.35208379 -0.06480064 0.00000000
-0.25826538 0.22984001 0.00000000
-0.60873028 -0.43931987 0.00000000
0.33052986 0.25263448 0.00000000
-0.59555971 -0.10040405 0.00000000
-0.38395456 -0.73636874 0.00000000
-0.65208304 0.52222652 0.00000000
0.52397738 -0.23139794 0.00000000
-0.77303692 0.16874647 0.00000000
0.32675231 -0.54267129 0.00000000
-0.18190178 -0.71208033 0.00000000
0.09519344 -0.28553444 0.00000000
0.74777283 -0.31927104 0.00000000
0.22200795 0.08028217 0.00000000
0.43588810 -0.06637866 0.00000000
-0.55687330 -0.51801688 0.00000000
0.35943599 -0.00989587 0.00000000
-0.69052125 -0.57056906 0.00000000
0.61095475 -0.32192445 0.00000000
-0.11414838 -0.05456252 0.00000000
-0.52835711 0.57116369 0.00000000
-0.48920548 -0.44057916 0.00000000
0.56120830 0.17587109 0.00000000
-0.54820843 0.50764290 0.00000000
0.57499493 0.18982054 0.00000000
-0.00930113 0.22867334 0.00000000
0.49567820 -0.27458853 0.00000000
-0.05678069 -0.01863649 0.00000000
-0.65604494 0.13594327 0.00000000
0.16286964 -0.07003438 0.00000000
0.15730139 -0.09315083 0.00000000
0.78521377 -0.40767982 0.00000000
0.49603937 -0.37407705 0.00000000
-0.09811101 0.20362434 0.00000000
0.39174990 -0.03768818 0.00000000
0.56563940 -0.61358851 0.00000000
-0.64943303 0.62136031 0.00000000
0.12091931 0.41379143 0.00000000
0.25259306 0.45055334 0.00000000
0.73923801 -0.18835176 0.00000000
-0.60620739 0.53379407 0.00000000
-0.33093382 -0.10509206 0.00000000
0.11221891 -0.07217083 0.00000000
-0.76643707 0.40525139 0.00000000
-0.59920122 0.32664306 0.00000000
0.66553402 -0.30022927 0.00000000
-0.68253963 0.58917002 0.00000000
0.16846772 -0.39989571 0.00000000
-0.43163030 0.05575859 0.00000000
0.04069750 -0.05866230 0.00000000
-0.34731702 0.31726536 0.00000000
0.53248439 -0.25588156 0.00000000
-0.36092279 0.43890815 0.00000000
0.40606190 0.32725825 0.00000000
-0.11400005 0.15166064 0.00000000
0.51766215 0.21962072 0.00000000
-0.21531727 -0.51999680 0.00000000
-0.03043035 0.03733962 0.00000000
0.48576572 -0.01410645 0.00000000
-0.22615153 -0.35493646 0.00000000
0.21193671 -0.05219845 0.00000000
0.76265791 -0.54672246 0.00000000
0.52869285 0.77107214 0.03091752
0.25835209 -0.47751800 0.00000000
0.69621251 0.50010699 0.02451789
0.20242285 0.72002049 0.00757483
-0.14677061 0.52506320 0.00000000
0.01222010 0.79355484 0.00035726
-0.48450140 -0.40994122 0.00000000
0.15210511 -0.68637731 0.00000000
-0.17960885 -0.25214154 0.00000000
0.65294350 -0.51632979 0.00000000
0.30208216 0.45607893 0.00000000
0.38139931 0.45489955 0.00224559
0.05133007 -0.40698455 0.00000000
0.27956078 -0.08102208 0.00000000
0.17353879 -0.02882601 0.00000000
-0.79314014 0.20915977 0.00000000
0.14691573 -0.48658042 0.00000000
-0.50502784 -0.57431562 0.00000000
0.00616683 -0.09628265 0.00000000
0.50891216 -0.68569758 0.00000000
-0.22541225 0.44711343 0.00000000
0.04482543 0.31016902 0.00000000
0.73290051 0.21519912 0.00916203
0.16500192 -0.14782951 0.00000000
0.35188523 0.73994998 0.01805412
-0.19774140 0.20102902 0.00000000
0.73186005 -0.70562179 0.00000000
-0.60528001 -0.76215020 0.00000000
0.08975876 0.17017707 0.00000000
-0.39665137 0.49706241 0.00000000
0.39146394 0.36724186 0.00000000
0.18607904 0.03717678 0.00000000
0.36165882 -0.46585246 0.00000000
-0.03987253 0.15051304 0.00000000
-0.17345402 0.52797698 0.00000000
0.24849926 -0.70405049 0.00000000
-0.38818578 -0.60007982 0.00000000
-0.30262373 0.10515363 0.00000000
-0.16383111 -0.08415202 0.00000000
-0.11105853 -0.64770123 0.00000000
0.78027510 -0.06518345 0.00000000
-0.59516367 0.64489600 0.00000000
-0.39223827 0.01890973 0.00000000
0.14139987 0.78452409 0.00779017
-0.43033865 0.28899549 0.00000000
0.16826648 -0.19449671 0.00000000
-0.47729651 -0.53655888 0.00000000
-0.00519280 0.43294541 0.00000000
-0.74326405 0.17937904 0.00000000
-0.14854826 -0.03734546 0.00000000
0.20692009 -0.09819865 0.00000000
0.02248842 0.08033096 0.00000000
0.06627290 -0.32925264 0.00000000
-0.79421405 -0.40132634 0.00000000
-0.58816437 -0.44063195 0.00000000
0.59191894 0.49390071 0.01768193
-0.20215963 -0.15585225 0.00000000
-0.12883092 -0.02897855 0.00000000
-0.33631746 -0.07194068 0.00000000
0.48447577 0.69217405 0.02330109
0.48664223 0.41158130 0.00607650
-0.64801677 0.65700620 0.00000000
0.33794538 0.19310818 0.00000000
-0.62940839 0.47879339 0.00000000
0.06387231 0.34069458 0.00000000
0.06728543 -0.46631768 0.00000000
-0.75583192 -0.08921699 0.00000000
0.69103820 -0.62279230 0.00000000
0.16844393 0.68384243 0.00323464
0.10780106 -0.48146926 0.00000000
0.40753129 -0.56352273 0.00000000
-0.44230728 -0.08230919 0.00000000
0.75320444 -0.22230286 0.00000000
0.31669119 -0.47805872 0.00000000
-0.55059951 0.68047085 0.00000000
0.64179342 0.73075336 0.03542010
0.22943196 -0.13547047 0.00000000
-0.72685781 -0.35559433 0.00000000
0.35843635 0.50411786 0.00386985
-0.46181398 0.57228352 0.00000000
0.31593403 0.39956431 0.00000000
-0.31585312 -0.57224684 0.00000000
0.34977889 0.69249018 0.01498774
0.72365662 0.73351695 0.04065546
0.04197124 -0.46146012 0.00000000
0.13595845 -0.50046684 0.00000000
0.65334123 -0.78058661 0.00000000
-0.23988620 -0.71904110 0.00000000
0.48306536 0.18858962 0.00000000
0.50998080 0.71333666 0.02618815
0.19007700 -0.29392566 0.00000000
0.28273965 0.33890320 0.00000000
0.47443942 -0.45037095 0.00000000
0.70657761 -0.21896723 0.00000000
-0.28111348 -0.02180789 0.00000000
-0.13289928 -0.06196208 0.00000000
-0.18633383 0.14007287 0.00000000
-0.44067810 0.19459647 0.00000000
0.10582872 0.22395094 0.00000000
0.68132582 -0.20912763 0.00000000
-0.35518569 0.38221767 0.00000000
0.53359647 0.28905639 0.00140139
-0.45548553 -0.12521409 0.00000000
-0.73830872 0.59993802 0.00000000
0.09188542 -0.23141328 0.00000000
-0.21979670 0.68271904 0.00000000
-0.13626312 -0.38816536 0.00000000
-0.16244343 -0.31277783 0.00000000
-0.09756745 0.03994809 0.00000000
0.24431904 -0.45918563 0.00000000
-0.11047370 0.34509732 0.00000000
-0.55278007 0.11900509 0.00000000
0.54324335 -0.23840107 0.00000000
-0.19832573 0.27854554 0.00000000
0.72290513 0.09948637 0.00138523
0.51748851 -0.10759371 0.00000000
-0.35691306 -0.48723030 0.00000000
-0.47320470 -0.76703231 0.00000000
-0.14786960 -0.42486149 0.00000000
0.67505285 -0.11213711 0.00000000
0.08760728 -0.76731219 0.00000000
0.36095306 0.09126151 0.00000000
-0.60235863 0.20125258 0.00000000
0.18344680 0.11232289 0.00000000
-0.50158183 0.41464883 0.00000000
0.73897818 0.09441435 0.00206579
-0.26578352 0.09480669 0.00000000
-0.04271955 0.64369418 0.00000000
-0.50580149 0.65245310 0.00000000
-0.43871989 -0.02818221 0.00000000
-0.15132124 0.66492064 0.00000000
-0.36196302 0.53044412 0.00000000
0.44620206 -0.10469624 0.00000000
-0.35953371 0.73309580 0.00000000
-0.48806851 -0.04723426 0.00000000
0.78894120 -0.73818890 0.00000000
-0.77428791 0.54811458 0.00000000
0.35277252 -0.11352136 0.00000000
0.42699084 -0.35732815 0.00000000
0.40917466 0.33271268 0.00000000
-0.15649507 -0.34745290 0.00000000
0.13070939 0.72179353 0.00324804
-0.03354789 -0.02912113 0.00000000
-0.23440213 -0.67641367 0.00000000
-0.56853515 -0.24760785 0.00000000
-0.39267411 -0.62944146 0.00000000
-0.32790186 -0.48374232 0.00000000
0.05082310 -0.05334941 0.00000000
-0.11490408 0.59285456 0.00000000
-0.09924910 -0.55003126 0.00000000
-0.78981909 -0.35170433 0.00000000
0.09902391 0.28281416 0.00000000
0.35557348 0.20195324 0.00000000
0.39457997 0.54732850 0.00877902
0.59583405 -0.53822845 0.00000000
-0.31478745 0.39875589 0.00000000
-0.74628862 -0.67290986 0.00000000
0.49773881 -0.60974734 0.00000000
0.64433708 0.70921345 0.03424490
-0.72837256 0.15742689 0.00000000
-0.37251385 -0.71817372 0.00000000
0.79280408 0.59017797 0.03606563
0.06818812 -0.11111055 0.00000000
0.49657972 0.13729918 0.00000000
0.04797652 0.11320732 0.00000000
-0.44823978 -0.75451943 0.00000000
-0.33792358 0.35827917 0.00000000
0.00850111 -0.42395619 0.00000000
-0.33560786 -0.54639105 0.00000000
0.30208764 -0.53359121 0.00000000
-0.74438084 -0.75987903 0.00000000
-0.35682650 -0.52446220 0.00000000
0.75716050 0.13579732 0.00575074
-0.27507758 0.38976364 0.00000000
-0.25617536 -0.41937509 0.00000000
0.18384344 -0.49577581 0.00000000
0.11988518 0.43745955 0.00000000
-0.38492682 0.61228834 0.00000000
0.23930515 -0.20473857 0.00000000
-0.50706474 -0.62033165 0.00000000
-0.51451203 -0.26598729 0.00000000
0.70023065 -0.53241769 0.00000000
0.66004313 0.27842716 0.00856632
0.43031454 0.03927611 0.00000000
0.28863230 -0.08583662 0.00000000
-0.33894249 -0.26038257 0.00000000
0.58467553 0.10434125 0.00000000
0.63040248 0.57414670 0.02502703
-0.17811120 0.27285932 0.00000000
-0.79756340 -0.48119898 0.00000000
-0.48323566 -0.73719034 0.00000000
0.51975980 0.25546085 0.00000000
-0.63176471 -0.26182652 0.00000000
-0.05694433 0.77543563 0.00000000
0.36032461 -0.34415557 0.00000000
-0.40984581 0.66957160 0.00000000
-0.35172710 0.55652401 0.00000000
0.05310328 0.69520141 0.00000000
0.36170093 -0.01322055 0.00000000
0.50073337 0.58019051 0.01737906
0.48006347 -0.43101467 0.00000000
-0.42369216 0.48082234 0.00000000
0.00801006 -0.52308842 0.00000000
0.40274650 0.35454468 0.00000000
-0.62168625 -0.60425982 0.00000000
-0.72491221 0.40643685 0.00000000
0.52964740 0.30852629 0.00236158
-0.40548838 -0.19970018 0.00000000
-0.23495964 0.75225094 0.00000000
-0.19115997 0.16005298 0.00000000
-0.61691643 0.47535802 0.00000000
-0.42410510 -0.49157143 0.00000000
0.31043661 0.43641272 0.00000000
0.03449337 0.34146090 0.00000000
0.22583079 0.68568677 0.00689892
0.15757394 0.26861515 0.00000000
0.71851604 0.55904023 0.02954354
0.45175636 -0.67271715 0.00000000
0.39879241 0.74511036 0.02127523
0.44981889 -0.37059222 0.00000000
0.50399707 -0.08252375 0.00000000
0.23683772 -0.54924037 0.00000000
0.03330556 -0.76442970 0.00000000
0.07874480 -0.49164093 0.00000000
0.05060800 -0.64645994 0.00000000
-0.28673880 0.40359860 0.00000000
-0.61983691 -0.00759514 0.00000000
-0.12850220 0.32598157 0.00000000
0.20957850 0.28020712 0.00000000
0.62791349 0.77100088 0.03705131
-0.23576094 -0.68004626 0.00000000
0.14845266 -0.39738139 0.00000000
-0.62560343 -0.30601930 0.00000000
0.19083278 -0.38186856 0.00000000
-0.22753231 -0.25154485 0.00000000
-0.68024609 -0.78970967 0.00000000
0.23880700 0.45806888 0.00000000
0.51040435 0.24529615 0.00000000
0.44109471 -0.17174220 0.00000000
0.79050385 0.05916639 0.00307280
-0.20324368 0.46303498 0.00000000
0.20295692 -0.41006484 0.00000000
0.02977316 -0.10399513 0.00000000
0.49461036 0.02560336 0.00000000
0.01847213 -0.29260619 0.00000000
0.27291016 0.76832876 0.01492403
-0.33480724 0.01401269 0.00000000
0.04089207 -0.22175693 0.00000000
0.62340043 0.26998253 0.00577704
-0.13003736 0.76805274 0.00000000
0.68978863 0.72612974 0.03810324
0.61165667 0.51036820 0.01992173
0.12484759 -0.31547342 0.00000000
-0.45767684 -0.32040921 0.00000000
-0.08321062 0.79722721 0.00000000
0.05311174 -0.49528215 0.00000000
-0.53925921 0.26173185 0.00000000
-0.29682138 0.62555460 0.00000000
0.03800568 0.34845169 0.00000000
-0.25873369 0.33068146 0.00000000
0.43619248 0.15219183 0.00000000
0.39958960 0.53884782 0.00856429
-0.35523800 0.46077519 0.00000000
-0.01961562 -0.76085904 0.00000000
-0.39221451 -0.26023396 0.00000000
0.68393007 0.74134421 0.03868204
0.33321344 0.28389354 0.00000000
0.38722496 0.54331737 0.00807586
-0.08981239 -0.45818367 0.00000000
-0.17776337 -0.53059349 0.00000000
0.74032313 0.60713277 0.03386784
0.51288506 0.56791990 0.01737170
0.24358498 0.56423865 0.00048400
0.35794203 0.37703650 0.00000000
-0.07349805 -0.42189807 0.00000000
0.21024837 -0.17209263 0.00000000
0.75897382 -0.78728009 0.00000000
-0.78042532 0.14338237 0.00000000
0.73358176 0.72555696 0.04077703
0.69879256 -0.61248915 0.00000000
0.74306449 0.61880804 0.03475971
-0.23218781 0.39311574 0.00000000
0.10535652 -0.25858941 0.00000000
0.02637909 0.45359579 0.00000000
-0.67988782 0.60721446 0.00000000
-0.32726827 0.26947704 0.00000000
0.35050132 0.45487572 0.00033264
-0.10441380 0.47083494 0.00000000
0.55944896 -0.72464814 0.00000000
0.51085198 -0.60375932 0.00000000
0.38794293 -0.31983083 0.00000000
-0.29789968 0.45312858 0.00000000
-0.38670956 -0.69372374 0.00000000
-0.47793516 0.54437327 0.00000000
-0.16493780 0.20665608 0.00000000
-0.33663360 0.24527490 0.00000000
-0.36831191 0.62654005 0.00000000
-0.75702516 -0.54088642 0.00000000
0.54490986 -0.46485311 0.00000000
-0.31082024 0.71812245 0.00000000
-0.18872378 -0.53332073 0.00000000
-0.26510220 -0.75260903 0.00000000
-0.17658587 -0.73057526 0.00000000
-0.13830742 0.56434839 0.00000000
-0.75490503 0.60253341 0.00000000
-0.60460218 -0.60178205 0.00000000
-0.30165681 0.29723611 0.00000000
-0.50448587 -0.42266742 0.00000000
-0.28902286 0.03853034 0.00000000
-0.44199152 -0.15566269 0.00000000
-0.08090266 0.49198989 0.00000000
-0.11523822 0.78682073 0.00000000
0.53051831 0.52966398 0.01609590
-0.20033404 0.56361338 0.00000000
0.60167444 -0.04127079 0.00000000
-0.37050035 0.01593595 0.00000000
0.44005565 -0.73385235 0.00000000
-0.14424655 -0.10809912 0.00000000
0.75656554 -0.55151367 0.00000000
0.26342371 -0.24728282 0.00000000
0.31797584 0.70720848 0.01393081
-0.64974824 0.39993621 0.00000000
0.04922473 0.40870115 0.00000000
-0.23081190 -0.17657176 0.00000000
0.27182828 0.63024019 0.00631436
-0.08156871 -0.23207591 0.00000000
-0.25958668 0.21299197 0.00000000
0.38430366 0.73608103 0.01982031
-0.47390177 0.47639213 0.00000000
0.51815323 -0.48998613 0.00000000
-0.79343937 -0.47593492 0.00000000
0.37212308 0.14008293 0.00000000
-0.69605575 0.63386763 0.00000000
-0.39005453 -0.26224559 0.00000000
0.37412461 0.59388142 0.01039352
-0.20284585 -0.29306104 0.00000000
0.03341503 -0.62480171 0.00000000
0.11272860 -0.36394579 0.00000000
-0.42702394 -0.75095004 0.00000000
0.60962312 0.37410485 0.01136614
0.70213397 -0.73875448 0.00000000
-0.08102493 0.77322990 0.00000000
-0.65544183 0.41887726 0.00000000
0.24035172 -0.35435510 0.00000000
0.28423755 -0.64658512 0.00000000
-0.08488524 0.39543400 0.00000000
-0.42411685 0.37087394 0.00000000
-0.04818793 0.76778363 0.00000000
-0.03251197 0.43135158 0.00000000
0.62371038 -0.35027559 0.00000000
0.29115161 0.64832321 0.00862846
-0.24143622 0.78696767 0.00000000
-0.16236507 0.12159375 0.00000000
-0.75661889 -0.73115007 0.00000000
-0.67974264 -0.76398886 0.00000000
0.77162111 0.65844496 0.03897846
0.68650034 0.46326964 0.02163815
-0.68325237 -0.26291908 0.00000000
0.04400370 0.76823529 0.00075715
-0.00442456 0.33889946 0.00000000
0.39600368 -0.14386514 0.00000000
0.33623596 -0.43121472 0.00000000
-0.75170241 -0.54993950 0.00000000
0.53543551 0.37121131 0.00659759
-0.12853768 -0.42104995 0.00000000
0.46688560 -0.28356940 0.00000000
0.55702781 0.30039568 0.00355244
-0.50854435 0.58240296 0.00000000
-0.71236942 0.72648520 0.00000000
-0.10331245 0.12278234 0.00000000
0.50484316 0.07635833 0.00000000
0.78329948 0.29573365 0.01726209
0.21128260 0.39643840 0.00000000
0.58216202 0.51599761 0.01844533
0.36599847 0.21238089 0.00000000
0.63227842 -0.57194342 0.00000000
0.02788931 -0.63425594 0.00000000
0.42297001 0.14699639 0.00000000
-0.07632881 -0.31810724 0.00000000
-0.22076702 -0.59140902 0.00000000
0.11526815 -0.03700380 0.00000000
-0.79674280 0.18136817 0.00000000
-0.07050210 0.45232859 0.00000000
-0.68431376 -0.79023434 0.00000000
-0.13521006 0.07090083 0.00000000
0.56883518 0.08872543 0.00000000
-0.52990247 0.54813147 0.00000000
-0.24144776 0.49322245 0.00000000
-0.52202296 0.16323391 0.00000000
0.59395368 0.32054351 0.00708325
0.54342557 -0.62907459 0.00000000
0.52838078 0.72967479 0.02833720
-0.15386026 -0.39947073 0.00000000
-0.67280388 -0.46351375 0.00000000
0.75443991 -0.14439135 0.00000000
0.76825443 -0.34713420 0.00000000
-0.35019620 -0.18071967 0.00000000
0.53539364 -0.65759418 0.00000000
0.31283159 -0.61493621 0.00000000
-0.15357129 -0.57410793 0.00000000
-0.56142880 0.52424064 0.00000000
0.43644949 0.25219874 0.00000000
-0.06707901 -0.57720495 0.00000000
-0.32504379 0.25362895 0.00000000
0.36777449 -0.56989138 0.00000000
-0.18961995 0.09404867 0.00000000
0.79174831 -0.00529732 0.00000000
0.09795146 0.64190487 0.00000000
-0.47244875 -0.70820978 0.00000000
0.76128141 -0.40626479 0.00000000
-0.42569216 0.34024318 0.00000000
0.53415422 0.24624135 0.00000000
0.19880165 0.76911452 0.01038798
-0.37402606 -0.51659650 0.00000000
0.29716749 0.07625537 0.00000000
0.35122960 -0.03028648 0.00000000
-0.06523360 0.78773895 0.00000000
0.47355922 0.58108735 0.01575344
-0.34164693 0.17385703 0.00000000
0.06295276 0.64229820 0.00000000
0.27648358 0.31930642 0.00000000
0.46655760 0.50207693 0.01043240
0.66786578 0.38559213 0.01567991
-0.58734859 -0.57032566 0.00000000
0.09561910 -0.09317443 0.00000000
0.58566546 -0.48809410 0.00000000
0.73080633 -0.08378090 0.00000000
0.44440605 -0.01654205 0.00000000
-0.61691001 0.57047604 0.00000000
-0.39343539 0.40211540 0.00000000
0.62478917 -0.57715049 0.00000000
-0.52754894 -0.64734658 0.00000000
-0.10205212 0.42361915 0.00000000
-0.25512261 -0.18630553 0.00000000
0.10264592 0.44930529 0.00000000
0.39923316 0.62901291 0.01412020
-0.75869190 -0.42699892 0.00000000
0.29445825 0.58850403 0.00513237
-0.15224061 0.07753283 0.00000000
-0.21172009 -0.02026245 0.00000000
0.29164112 0.74294952 0.01451273
-0.72416421 0.34155374 0.00000000
0.75501860 -0.01687972 0.00000000
0.37951626 0.28774913 0.00000000
0.09652899 -0.57303372 0.00000000
-0.01775416 -0.52379234 0.00000000
0.41141761 0.67575386 0.01776558
-0.66085450 0.57543513 0.00000000
-0.16908297 0.19503508 0.00000000
-0.71973700 -0.26009094 0.00000000
-0.00295097 0.40299375 0.00000000
-0.76658167 -0.66212217 0.00000000
-0.42872187 -0.69086030 0.00000000
0.24538138 0.41441507 0.00000000
-0.10528854 -0.63234422 0.00000000
-0.17925139 -0.26861715 0.00000000
0.43529820 0.03020219 0.00000000
-0.04421387 0.62601304 0.00000000
0.53363608 -0.00620393 0.00000000
-0.14184484 -0.15222385 0.00000000
0.24674611 -0.71686422 0.00000000
0.64862017 -0.71793285 0.00000000
0.58751555 0.46317609 0.01550878
-0.75436424 0.54989058 0.00000000
-0.09101782 -0.79199829 0.00000000
-0.42746220 0.72993635 0.00000000
-0.01741077 0.06721011 0.00000000
0.41269299 -0.62749298 0.00000000
0.40290856 -0.46158175 0.00000000
0.78218347 -0.05759570 0.00000000
0.05456819 0.12102740 0.00000000
-0.58248749 -0.64788694 0.00000000
-0.22563524 -0.44693264 0.00000000
-0.52558116 0.71435958 0.00000000
0.60372536 -0.28246326 0.00000000
-0.78672004 -0.50914385 0.00000000
0.73360730 -0.50026793 0.00000000
-0.64824165 -0.79014365 0.00000000
0.06872271 0.71959059 0.00000000
0.22910498 -0.55130296 0.00000000
0.00620018 0.34967892 0.00000000
0.35395155 -0.42716379 0.00000000
0.67703415 -0.03069705 0.00000000
-0.22552995 0.38047582 0.00000000
-0.75683408 0.03242816 0.00000000
-0.29552615 -0.65950847 0.00000000
-0.08537950 -0.09719041 0.00000000
-0.31612269 0.62370384 0.00000000
0.40169055 -0.50937976 0.00000000
-0.19351741 -0.33623540 0.00000000
0.35147439 -0.53402204 0.00000000
-0.61898226 0.17410130 0.00000000
-0.37730139 0.15236321 0.00000000
0.37465667 0.63875411 0.01320243
0.23452769 -0.12601681 0.00000000
0.14584920 0.24679062 0.00000000
-0.56084625 -0.28744095 0.00000000
-0.35241689 -0.21039359 0.00000000
-0.34839862 -0.32465394 0.00000000
-0.02523265 0.43711193 0.00000000
0.48009250 -0.54616741 0.00000000
-0.61287853 0.54069585 0.00000000
-0.27341275 -0.65115979 0.00000000
0.01590389 0.75256565 0.00000000
-0.65990929 -0.53755917 0.00000000
-0.46245018 0.03000076 0.00000000
0.36051311 -0.60015439 0.00000000
-0.17899010 -0.03129115 0.00000000
0.28347420 -0.57076196 0.00000000
-0.11890925 -0.54767387 0.00000000
-0.67853984 -0.28036978 0.00000000
-0.50175633 -0.39231654 0.00000000
-0.26410496 -0.24629610 0.00000000
-0.02732931 -0.09487716 0.00000000
-0.25977906 0.39085885 0.00000000
0.64122186 0.36348051 0.01266370
-0.69479471 -0.53949950 0.00000000
0.58077560 0.39935930 0.01114386
-0.28281272 0.10565928 0.00000000
0.09831237 -0.44617473 0.00000000
-0.45679310 0.50064423 0.00000000
-0.36152255 -0.27074762 0.00000000
0.57966372 0.75050129 0.03279819
0.70509901 -0.09093559 0.00000000
-0.55399336 -0.75452043 0.00000000
0.37439172 0.03340339 0.00000000
-0.25542932 0.55890351 0.00000000
0.21927943 0.67095355 0.00558217
0.75820292 0.74533606 0.04352382
-0.21003015 0.21245305 0.00000000
-0.27345252 0.57845244 0.00000000
-0.23381092 0.62332600 0.00000000
-0.37945421 -0.75103080 0.00000000
-0.22905043 0.03375570 0.00000000
-0.20512565 -0.17630397 0.00000000
-0.73941098 -0.24988676 0.00000000
-0.70809721 0.09512561 0.00000000
-0.61291048 0.26207782 0.00000000
-0.15938391 0.70544496 0.00000000
0.59552691 -0.60907251 0.00000000
0.42649939 -0.56584857 0.00000000
0.53630596 0.52864534 0.01639093
0.10266689 0.19115268 0.00000000
0.53362818 -0.28122842 0.00000000
0.41780950 -0.28835043 0.00000000
-0.27252949 -0.30472865 0.00000000
0.21828479 0.61421281 0.00201043
0.59372296 -0.27092204 0.00000000
0.06534535 0.31441762 0.00000000
0.23632897 -0.57704896 0.00000000
-0.04138938 0.23398212 0.00000000
-0.77667960 0.02401044 0.00000000
-0.53758724 -0.42521482 0.00000000
-0.77673723 -0.22747058 0.00000000
-0.10121154 -0.58782148 0.00000000
-0.03557571 -0.70049399 0.00000000
0.13552407 -0.29671943 0.00000000
0.27585616 -0.43901397 0.00000000
0.26439632 0.44986729 0.00000000
0.41931937 0.48660827 0.00655310
-0.43242599 0.48755267 0.00000000
-0.37539252 0.55887738 0.00000000
0.40278020 0.52651154 0.00799850
-0.36055508 -0.02109140 0.00000000
0.09982406 0.67161716 0.00000000
-0.29547014 -0.57548373 0.00000000
0.53529135 -0.75076245 0.00000000
-0.27338690 -0.41484772 0.00000000
-0.66561576 0.48755468 0.00000000
-0.40300641 0.34370226 0.00000000
-0.57254324 0.77980488 0.00000000
0.59715551 -0.63650403 0.00000000
-0.66747183 -0.62339811 0.00000000
0.56954990 -0.44330741 0.00000000
-0.02397604 -0.79496574 0.00000000
-0.17846975 -0.56089318 0.00000000
0.63044198 0.45138553 0.01743496
0.16595507 -0.55530036 0.00000000
-0.14758585 0.49608596 0.00000000
-0.69604951 0.20526190 0.00000000
-0.18148673 0.72227876 0.00000000
0.18469196 -0.38322801 0.00000000
-0.49686371 0.74080098 0.00000000
0.00290249 -0.65766193 0.00000000
-0.40317702 0.61550473 0.00000000
0.72827667 -0.02245526 0.00000000
0.64102714 0.26551953 0.00659140
0.19311103 0.01035889 0.00000000
-0.39434472 -0.48273610 0.00000000
0.33047565 -0.30001056 0.00000000
-0.19948815 0.67670893 0.00000000
0.06979736 0.25481822 0.00000000
0.11092363 -0.53912841 0.00000000
0.05717379 0.34075376 0.00000000
0.34332070 0.57029289 0.00702859
0.37976795 0.74548234 0.02012132
-0.48320951 -0.23673065 0.00000000
-0.25743854 0.43542200 0.00000000
-0.39705520 0.70805483 0.00000000
0.40704486 0.33450380 0.00000000
-0.43881678 0.70745892 0.00000000
-0.01411435 -0.26050272 0.00000000
0.77932504 0.37219775 0.02174659
0.67061822 -0.78163030 0.00000000
-0.25969216 0.44765556 0.00000000
0.10381719 -0.13154775 0.00000000
-0.34719415 -0.40902491 0.00000000
0.20427093 -0.10496595 0.00000000
0.76542949 0.00254229 0.00000000
-0.75616592 -0.13070948 0.00000000
0.70125702 0.77389470 0.04176767
-0.15877142 0.19732553 0.00000000
-0.15920695 -0.51691647 0.00000000
0.61501514 0.64771026 0.02862607
-0.29820328 0.73348469 0.00000000
-0.41996451 -0.70298775 0.00000000
-0.76114672 -0.48271362 0.00000000
0.75351898 -0.74647551 0.00000000
-0.32292965 -0.27887759 0.00000000
-0.57893573 0.18422704 0.00000000
0.70657027 -0.38616094 0.00000000
0.05437534 0.19922041 0.00000000
-0.22722967 -0.76628384 0.00000000
-0.33709582 0.76063109 0.00000000
-0.59918482 0.02728481 0.00000000
0.41766995 -0.41265172 0.00000000
-0.25031777 -0.12829823 0.00000000
-0.09584518 -0.39465925 0.00000000
0.64963362 0.71014505 0.03463020
-0.34638138 0.56776508 0.00000000
-0.69652445 0.24878931 0.00000000
-0.30792021 0.70621625 0.00000000
-0.22550013 0.05249790 0.00000000
-0.78457824 -0.39571151 0.00000000
-0.60752038 0.52087112 0.00000000
0.75117838 -0.27406243 0.00000000
-0.52078600 -0.39314450 0.00000000
-0.64114037 -0.25781791 0.00000000
0.65020368 -0.71350259 0.00000000
-0.70682716 0.40263373 0.00000000
0.71315170 0.65086299 0.03489224
-0.19261657 0.38928375 0.00000000
-0.72222271 -0.00538252 0.00000000
0.37861391 0.79626032 0.02319127
0.00171448 -0.72618079 0.00000000
-0.59046321 0.22793340 0.00000000
-0.37849759 0.71546368 0.00000000
0.16361026 -0.64066812 0.00000000
0.32033809 0.31020569 0.00000000
-0.18005914 -0.30479654 0.00000000
0.63944457 0.27408637 0.00702347
0.78027273 0.66877150 0.04015253
-0.26445012 0.36790676 0.00000000
0.24149725 0.24614748 0.00000000
-0.75499689 0.41203273 0.00000000
-0.13434602 -0.21452535 0.00000000
-0.64591111 0.40361173 0.00000000
