ply
format ascii 1.0
element vertex 1376
property float x
property float y
property float z
end_header
-0.27250366 -0.73820626 -0.00000004
0.16430710 0.26948244 0.26815841
0.55141692 0.05086389 -0.00000079
-0.64573651 0.02924485 -0.00000017
0.20851117 0.52316836 0.05002667
0.56079758 -0.01007981 -0.00000073
-0.31723583 -0.42918994 -0.00000023
-0.78811200 -0.73909214 0.00000000
0.31292942 -0.21354069 -0.00000037
0.11419933 0.16891047 0.37849413
0.28088152 -0.36389100 -0.00000027
0.70139131 -0.00967428 -0.00000088
-0.26920594 -0.04426107 -0.00000047
-0.57625139 0.51062584 -0.00000028
0.00335801 0.04074471 -0.00000053
-0.79098730 0.08439134 -0.00000001
0.67048620 0.03978309 0.06570454
0.08026128 -0.19561556 -0.00000038
0.19639589 0.47702608 0.09268638
-0.04033624 0.28520547 -0.00000068
0.05999788 -0.30571260 -0.00000031
-0.07724690 -0.49583773 -0.00000019
0.15682739 0.02021020 -0.00000051
-0.43849217 -0.32618195 -0.00000030
-0.78301255 0.68368379 -0.00000002
0.59839259 0.00711931 -0.00000079
-0.51990722 0.18829899 -0.00000033
0.03512565 -0.57447935 -0.00000014
0.77405290 -0.42368145 -0.00000047
0.13296501 0.44890204 -0.00000078
-0.32136454 0.09129039 -0.00000053
0.34278208 0.13683226 -0.00000066
-0.27689395 0.65720778 -0.00000065
-0.37823648 -0.77785181 -0.00000001
0.12185160 0.08897769 -0.00000056
-0.66136722 0.06472253 -0.00000016
-0.78687086 0.55984157 -0.00000002
0.57275473 0.20246844 0.01814137
-0.58304700 0.41722037 -0.00000027
-0.43223476 -0.21919792 -0.00000035
-0.09086011 0.05014443 -0.00000053
0.07034189 0.48089363 0.18215758
-0.30304092 -0.74477547 -0.00000003
0.43406588 -0.03073269 -0.00000058
0.49604340 -0.12447506 -0.00000054
-0.15455158 0.62379679 -0.00000080
0.67347331 -0.30513797 -0.00000054
-0.19275817 -0.22691470 -0.00000036
-0.75648517 -0.71293294 0.00000000
0.76988500 -0.36958822 -0.00000054
-0.71791848 -0.75967423 0.00000000
0.78912461 -0.67964822 -0.00000015
-0.12004331 0.48987456 -0.00000081
-0.07114872 -0.64912050 -0.00000009
-0.04555315 -0.75618214 -0.00000003
0.00683373 -0.43195896 -0.00000023
-0.41372459 0.41410629 -0.00000048
-0.06384693 -0.78084805 -0.00000001
0.18911412 0.53320812 0.05687864
0.14200767 -0.28375971 -0.00000032
-0.63605792 0.50334479 -0.00000020
-0.75270921 -0.07201598 -0.00000004
-0.11242150 0.62751595 -0.00000085
-0.72465295 -0.51597226 0.00000000
-0.79117453 -0.68979278 0.00000000
-0.41096078 -0.20777879 -0.00000037
0.63773805 0.14036415 0.01603317
-0.12541962 0.26402975 -0.00000067
-0.63680485 0.46852384 -0.00000020
-0.65484287 0.13862353 -0.00000018
0.03424898 0.61005601 -0.00000088
0.17976070 -0.67719773 -0.00000008
-0.48478197 -0.64363839 -0.00000010
0.00717659 0.09032895 -0.00000056
-0.64789774 0.50422184 -0.00000019
-0.38481466 -0.13265625 -0.00000042
-0.37772488 0.75371003 -0.00000053
0.27042720 0.27023552 0.18990052
0.15004875 -0.06743096 -0.00000046
-0.16865335 -0.65532587 -0.00000009
-0.31068904 0.39467043 -0.00000059
0.01499186 0.53734507 -0.00000084
0.42633837 0.25217717 0.08895656
-0.58344635 -0.66422591 -0.00000008
0.25746541 -0.04533042 -0.00000047
0.32565518 -0.04897890 -0.00000047
0.31735010 0.24920600 -0.00000075
0.10365596 -0.55700541 -0.00000015
-0.39125164 -0.07490098 -0.00000042
-0.12257600 -0.61262329 -0.00000012
-0.07013253 0.64999385 -0.00000090
-0.06475091 0.12307303 -0.00000058
0.43599666 0.36289597 -0.00000100
0.75079697 -0.78731165 -0.00000002
-0.26503370 -0.66569804 -0.00000008
0.36672270 -0.36730892 -0.00000027
0.26314461 0.34232817 0.14244290
0.29208090 -0.50968485 -0.00000018
-0.43637863 -0.63322837 -0.00000010
0.27525955 0.31921520 0.15049632
0.33168681 -0.35644583 -0.00000028
0.62707170 -0.63823765 -0.00000013
-0.13464205 0.54761331 -0.00000081
-0.77838528 0.61929966 -0.00000003
-0.09766261 0.78203093 -0.00000088
0.38579477 -0.53776671 -0.00000016
0.11122733 0.07179208 -0.00000054
0.62119157 -0.03809217 -0.00000077
0.48301550 -0.65191293 -0.00000009
-0.46687617 0.15341022 -0.00000038
-0.33803492 -0.19705300 -0.00000038
0.77603190 -0.12944564 -0.00000084
0.78020059 -0.56048119 -0.00000030
-0.74322041 -0.78697589 0.00000000
0.10196831 0.68632044 0.00857396
-0.41532116 0.07962218 -0.00000043
0.06652640 -0.37395309 -0.00000027
-0.46361870 -0.14857008 -0.00000033
0.27527451 0.33266076 -0.00000080
-0.73839406 -0.28543550 -0.00000001
-0.71204824 -0.68191878 0.00000000
0.23733108 0.39109822 0.12563274
0.18148740 0.33403928 -0.00000071
0.40236793 -0.77285014 -0.00000002
0.14193305 0.17153791 0.35626215
-0.62587031 -0.72541402 -0.00000005
0.01865442 -0.53575111 -0.00000017
-0.65378047 -0.17754192 -0.00000012
-0.62664829 0.52989986 -0.00000022
0.14631235 0.50127069 0.11160701
-0.39571260 -0.21112853 -0.00000037
0.15133222 0.61932485 0.02148495
0.21917726 -0.72750803 -0.00000005
-0.40342881 -0.47051923 -0.00000021
-0.23430197 -0.78941621 -0.00000001
-0.00495607 0.04965079 -0.00000053
-0.76609322 0.52765075 -0.00000004
0.55117176 -0.08620745 -0.00000064
0.55271351 0.22362428 0.01732518
-0.71195095 -0.79501623 0.00000000
0.53335342 0.16450463 0.07479280
-0.24899277 -0.76758706 -0.00000002
0.72791732 -0.09826477 -0.00000082
-0.48708283 -0.43754693 -0.00000023
0.19453377 0.46487087 -0.00000085
0.68085511 -0.16196470 -0.00000070
0.35950101 -0.67400792 -0.00000008
-0.47613017 0.60126816 -0.00000040
0.50007905 0.13981730 -0.00000083
0.17329063 -0.77027016 -0.00000002
-0.19544339 -0.03857326 -0.00000048
0.59711806 -0.51819063 -0.00000023
0.00801550 -0.55005156 -0.00000016
-0.32535090 0.79035448 -0.00000059
-0.64341777 0.43396215 -0.00000020
-0.44458479 -0.22834830 -0.00000034
-0.13648951 -0.42157508 -0.00000024
-0.71684617 0.24254170 -0.00000010
0.17191583 -0.50740690 -0.00000018
0.35387290 0.31756376 0.09414014
0.35234337 0.27401875 0.12714646
-0.50207276 -0.13382762 -0.00000029
0.27285635 -0.58059315 -0.00000014
-0.39193013 0.62863100 -0.00000051
-0.30675486 0.56368479 -0.00000062
-0.60667574 -0.64772153 -0.00000009
0.00684917 0.76150514 -0.00000098
0.63980182 0.09868141 -0.00000093
0.25650302 -0.75812045 -0.00000003
-0.40892729 0.36287109 -0.00000048
0.03042927 0.36463346 -0.00000073
0.09415768 -0.04888110 -0.00000047
0.29609876 -0.04369130 -0.00000047
-0.57116141 -0.79972904 -0.00000000
0.45483146 0.16996997 -0.00000081
0.11028947 0.24995967 -0.00000066
-0.53066339 -0.77125129 -0.00000002
0.06852958 -0.54116516 -0.00000016
-0.72238987 0.07039998 -0.00000010
0.47192977 -0.62428402 -0.00000011
-0.36686661 -0.02982658 -0.00000046
-0.41100285 -0.52732134 -0.00000017
-0.02001594 -0.56303663 -0.00000015
-0.75560999 -0.40798655 0.00000000
0.06328449 0.70274268 0.02487524
0.37174949 0.30405735 -0.00000087
0.34435310 -0.42826955 -0.00000023
0.25046649 0.37713099 0.12624185
0.04377578 -0.76567579 -0.00000002
-0.50420854 -0.01298446 -0.00000031
-0.29386835 0.36350545 -0.00000061
0.40270811 0.28144867 -0.00000088
0.75433887 0.02800309 0.01292856
-0.00771770 0.65673137 -0.00000091
0.02445006 -0.06024625 -0.00000046
0.17681549 -0.08493957 -0.00000045
0.32453260 -0.49093634 -0.00000019
-0.21237716 0.28410679 -0.00000068
0.04286809 0.68664217 -0.00000093
0.61851699 0.10563568 0.05553829
0.11592666 -0.50201085 -0.00000019
0.75319186 -0.61529138 -0.00000023
0.33468863 0.40299944 0.04562685
0.24227148 -0.67105367 -0.00000008
0.39357875 -0.72417732 -0.00000005
0.02109159 0.76185741 -0.00000098
0.36285367 -0.05648238 -0.00000047
0.21175599 -0.60643524 -0.00000012
-0.14290860 0.60846447 -0.00000081
-0.58930581 -0.14445413 -0.00000020
-0.53900127 -0.74339258 -0.00000004
0.27484108 0.39345886 0.09643704
0.71593815 -0.19123616 -0.00000071
0.00724056 -0.40627763 -0.00000025
0.44888434 -0.33681563 -0.00000029
-0.38981938 -0.01524565 -0.00000043
0.07734241 -0.66064670 -0.00000009
0.32208353 -0.63855104 -0.00000010
0.30836955 -0.73705206 -0.00000004
0.16486896 0.14133513 0.36158346
-0.09387270 0.31694713 -0.00000070
-0.22676774 -0.54742764 -0.00000016
0.30125503 0.25394624 0.17925474
-0.34482832 0.46353842 -0.00000057
0.64917629 -0.15213721 -0.00000068
0.26728739 -0.33226970 -0.00000029
0.52829633 0.07262290 -0.00000079
-0.00020246 -0.17072539 -0.00000039
0.11126561 -0.10100615 -0.00000044
0.12229157 -0.76804725 -0.00000002
0.73862909 -0.27680673 -0.00000064
0.08280503 -0.63914326 -0.00000010
0.07907707 0.29542614 -0.00000068
-0.29914935 0.36844168 -0.00000060
0.39934373 -0.28024848 -0.00000032
-0.08867687 -0.20941942 -0.00000037
-0.13848697 -0.65971963 -0.00000009
0.25330621 0.05694328 -0.00000054
-0.46723059 0.29137633 -0.00000041
0.10650673 0.42866481 -0.00000077
-0.17188792 -0.66992012 -0.00000008
-0.26266950 0.45865112 -0.00000066
0.33352721 0.03630630 -0.00000054
-0.67150879 -0.52579470 -0.00000004
0.27041141 0.08620138 -0.00000055
0.28971136 0.13012973 0.27837282
-0.69762004 0.31321959 -0.00000013
0.18231072 -0.67992315 -0.00000008
0.51306568 0.27674078 0.00746261
0.13685433 -0.21789586 -0.00000036
-0.59639020 -0.76139736 -0.00000002
-0.18533443 0.44397040 -0.00000074
0.31151665 -0.04805307 -0.00000047
-0.11330376 0.25449893 -0.00000066
0.47466905 0.14081833 -0.00000080
-0.77470816 -0.14453402 -0.00000000
0.02063076 -0.10315196 -0.00000044
0.06605253 0.65577616 0.05723990
-0.72103841 -0.14798284 -0.00000006
0.55617244 0.05508994 -0.00000080
0.03696850 0.66203520 0.07395348
0.53806837 -0.73908846 -0.00000004
-0.58167032 -0.18924551 -0.00000020
-0.05177680 0.61117484 -0.00000088
0.13319663 -0.48119469 -0.00000020
0.49876089 -0.70070524 -0.00000006
0.26900185 -0.52977312 -0.00000017
0.38257045 0.37842572 0.02855925
-0.27719780 0.58638562 -0.00000065
0.43532022 0.36090341 -0.00000100
0.02267286 0.09683458 -0.00000056
-0.33988746 0.14213707 -0.00000052
-0.47724513 0.43287578 -0.00000040
0.34300132 -0.02204923 -0.00000049
-0.61026152 0.14048198 -0.00000023
0.64368605 -0.35769986 -0.00000045
-0.01936672 -0.07209261 -0.00000045
0.59534379 -0.23454781 -0.00000053
0.14800631 -0.09289453 -0.00000044
-0.29025066 -0.40838915 -0.00000024
0.09587521 0.61671912 0.06400195
-0.03951999 0.40252064 -0.00000075
0.38703839 0.34681744 0.04843305
0.20147634 -0.62554954 -0.00000011
0.26448249 0.39951099 0.09959049
0.12247877 -0.58275950 -0.00000014
-0.75971164 -0.24342389 0.00000000
0.68576598 -0.21503957 -0.00000065
0.15373293 -0.72208959 -0.00000005
-0.02636146 0.54244899 -0.00000084
-0.64056669 -0.51014422 -0.00000008
0.13635919 -0.66837136 -0.00000008
-0.18210048 0.47531720 -0.00000075
-0.10661850 -0.79836622 -0.00000000
0.43308570 -0.69909106 -0.00000006
-0.26760265 0.75099793 -0.00000067
0.29060782 -0.48815378 -0.00000019
0.43847128 -0.31769414 -0.00000030
-0.29381979 -0.01625422 -0.00000049
0.08263760 0.26383292 -0.00000066
0.32686206 0.15572264 0.23242869
-0.69570344 -0.74672179 0.00000000
0.25115448 0.16808342 0.27881433
-0.54891210 0.29832546 -0.00000031
0.27383657 -0.65545335 -0.00000009
-0.77132961 0.77429515 -0.00000004
-0.59366497 0.12490088 -0.00000024
0.60592651 -0.38342269 -0.00000038
0.47352302 -0.49084483 -0.00000019
0.31461294 0.31827108 0.12237072
-0.08196052 0.55265339 -0.00000085
-0.39502132 -0.17130020 -0.00000039
0.43017564 0.15362368 0.15831352
-0.29770737 0.55932273 -0.00000063
-0.31874943 0.46894426 -0.00000060
-0.53612735 -0.52544669 -0.00000017
0.64684750 -0.75700394 -0.00000003
0.19198570 0.54062786 -0.00000093
0.27175893 -0.24966753 -0.00000034
0.41016489 -0.38096603 -0.00000026
0.44174525 0.08904892 -0.00000071
-0.34140713 -0.67006173 -0.00000008
0.24936865 0.39796479 -0.00000084
0.26019620 0.51681695 -0.00000098
0.25062640 -0.10960369 -0.00000043
-0.21770722 -0.79532478 -0.00000000
-0.42818796 0.62155813 -0.00000046
0.01333783 -0.76576623 -0.00000002
0.35800425 -0.31155389 -0.00000031
0.29288164 -0.02004134 -0.00000049
0.42871429 0.15655500 -0.00000077
0.43855031 -0.22420378 -0.00000038
0.58361362 -0.54507287 -0.00000019
-0.02129549 0.50337824 -0.00000081
-0.26455889 -0.53676279 -0.00000016
0.28597865 -0.59303246 -0.00000013
0.48707561 0.18952236 0.09036072
-0.06480033 -0.51125053 -0.00000018
0.70229685 -0.52782494 -0.00000033
-0.77519139 0.41038270 -0.00000003
0.50147972 0.07989961 -0.00000077
0.37424663 0.36718073 0.04288871
-0.17751886 -0.31741790 -0.00000030
0.68370007 -0.72531837 -0.00000009
-0.31339642 0.60751590 -0.00000061
-0.08687389 0.42034515 -0.00000076
0.51233299 -0.00629261 -0.00000069
0.02718912 -0.19254088 -0.00000038
0.26026674 -0.68064384 -0.00000007
-0.00612179 0.28562853 -0.00000068
-0.45576656 -0.15426262 -0.00000034
0.12658578 0.24911243 0.31069589
-0.11319661 -0.10812608 -0.00000043
-0.57139780 0.20652341 -0.00000028
0.48020935 0.27360857 0.03381560
0.30417469 -0.33039205 -0.00000029
-0.36169535 0.06200172 -0.00000048
-0.42531800 -0.77754932 -0.00000001
-0.12032751 -0.39452220 -0.00000025
0.02518365 0.06548226 -0.00000054
-0.58598584 0.38422358 -0.00000027
0.38197408 -0.06848427 -0.00000048
-0.23725457 0.40386226 -0.00000067
0.09091257 -0.65235109 -0.00000009
0.12364605 -0.32531779 -0.00000030
0.26828294 -0.63974133 -0.00000010
-0.54173728 0.45122138 -0.00000032
-0.46053834 -0.17938595 -0.00000033
0.05729747 0.57768036 0.12083682
0.33233593 -0.03781332 -0.00000048
-0.54316092 -0.62059857 -0.00000011
0.06671794 0.28533001 -0.00000068
0.18340484 0.32084998 0.21655996
0.79287318 -0.64880578 -0.00000019
-0.06490346 -0.66526217 -0.00000008
-0.19894239 -0.69472768 -0.00000007
-0.50682853 -0.07267108 -0.00000030
-0.79347975 -0.65052320 0.00000000
0.38940683 0.15206605 -0.00000072
0.20705068 0.47935166 0.08318137
-0.58501992 -0.78187569 -0.00000001
-0.76423743 -0.33139423 0.00000000
0.39856419 -0.06091411 -0.00000051
0.73540583 -0.55728516 -0.00000030
0.70466607 -0.01246397 -0.00000088
0.17405915 0.49454983 0.09621074
0.00289709 0.67116785 -0.00000092
0.34254269 0.33892995 -0.00000087
0.09219750 0.39508298 -0.00000075
0.63820104 0.03227885 0.09484075
-0.59753453 0.22244396 -0.00000025
-0.46744067 -0.15397464 -0.00000033
-0.61318312 0.65577872 -0.00000023
-0.20188134 -0.79341725 -0.00000000
-0.69734653 0.04879736 -0.00000012
0.09864826 -0.61396174 -0.00000012
0.42969286 0.15975659 -0.00000078
0.39679081 -0.30852364 -0.00000031
0.48932932 0.03867917 -0.00000071
-0.52539704 0.07181487 -0.00000031
-0.39062749 -0.78343711 -0.00000001
-0.04205164 -0.13125089 -0.00000042
-0.03688228 -0.17545253 -0.00000039
-0.04038195 -0.22260623 -0.00000036
0.60741987 -0.32076826 -0.00000045
-0.78931686 0.67369030 -0.00000001
0.26335104 -0.54513131 -0.00000016
0.05281760 -0.05092771 -0.00000047
-0.76119472 -0.61981933 0.00000000
-0.72293401 0.66781394 -0.00000010
0.44452918 0.19724859 -0.00000083
0.03499715 -0.26712085 -0.00000033
0.11898042 0.41557961 -0.00000076
-0.07643080 0.49163990 -0.00000081
0.52024108 0.13087809 0.10901784
0.37758327 -0.39774456 -0.00000025
-0.60822786 -0.33169996 -0.00000014
0.26558485 0.50738468 0.01979163
0.15574376 0.29916907 -0.00000069
-0.34922300 0.00474255 -0.00000048
-0.44807299 -0.26635995 -0.00000033
0.50922457 -0.12508695 -0.00000056
-0.51349745 0.18330259 -0.00000034
-0.23956924 -0.06000566 -0.00000046
-0.00065238 0.52179363 -0.00000083
-0.61874212 0.28018035 -0.00000023
-0.02439592 0.55755457 -0.00000085
-0.16590551 0.64188215 -0.00000079
0.09732214 0.48222954 0.16142307
-0.08179909 0.74071563 -0.00000090
0.55313041 -0.51850625 -0.00000018
-0.64048208 0.53648678 -0.00000020
-0.58292058 0.46350350 -0.00000027
-0.68893498 0.16991001 -0.00000014
0.39800311 0.12552940 -0.00000071
0.45917268 0.01231719 -0.00000065
0.29064035 0.24096718 -0.00000071
-0.70130773 0.28491389 -0.00000012
-0.57229545 -0.05647310 -0.00000023
-0.69612949 0.73936531 -0.00000013
0.67189577 -0.02088690 -0.00000084
0.66264592 0.04155103 -0.00000090
-0.30136751 0.50046537 -0.00000062
0.22334078 -0.54101185 -0.00000016
-0.12311063 -0.47867545 -0.00000020
-0.44765599 -0.70557782 -0.00000006
-0.41075477 -0.54238264 -0.00000016
0.23190386 0.54455202 0.01723871
-0.12243905 -0.56959110 -0.00000014
0.27888545 0.29088321 0.16858759
0.17498266 0.55791525 0.04913449
0.15618757 0.58405815 0.04375398
-0.20728414 0.21471534 -0.00000063
0.22641143 0.16814159 -0.00000061
0.67074670 -0.75250975 -0.00000006
-0.62244128 0.23822972 -0.00000022
-0.12588277 0.34817011 -0.00000072
0.53334142 0.12790710 0.10160052
0.02546645 0.10120974 -0.00000056
0.34357221 -0.01603750 -0.00000050
0.44362758 0.32210059 -0.00000096
0.69355563 -0.08146122 -0.00000080
-0.01150502 -0.50591792 -0.00000018
0.52869849 -0.06250595 -0.00000064
-0.75883527 -0.17885545 -0.00000001
0.46732737 0.25046327 0.06019696
-0.30769275 -0.31246464 -0.00000030
0.33723127 0.14560029 -0.00000066
-0.69625673 -0.79837976 0.00000000
-0.24503152 -0.64397971 -0.00000010
-0.22736434 0.11262799 -0.00000057
0.10735843 0.31987997 -0.00000070
-0.61585363 -0.08377411 -0.00000018
0.48490329 -0.49133720 -0.00000019
-0.21730820 0.24577396 -0.00000065
-0.21977882 0.52636648 -0.00000072
0.35459886 -0.68778334 -0.00000007
0.26249614 0.12968496 -0.00000058
0.04230871 0.21965855 -0.00000064
0.59264626 -0.12249513 -0.00000065
0.05361354 0.72907127 0.01267751
-0.73811868 -0.32019097 -0.00000001
0.34486542 -0.64157705 -0.00000010
0.36949367 -0.20974908 -0.00000037
-0.67906805 0.38858397 -0.00000015
0.60208485 -0.54035707 -0.00000021
0.66195027 -0.12600584 -0.00000072
-0.60668818 0.17907543 -0.00000024
0.25655780 0.33774576 -0.00000078
0.25433738 0.13216911 0.30278207
0.22272893 -0.08926581 -0.00000044
-0.74777205 0.71027943 -0.00000007
-0.69786332 -0.06623752 -0.00000010
0.75413532 -0.21299757 -0.00000072
0.35736790 0.06032632 -0.00000059
0.08913930 0.19913375 -0.00000062
-0.26655454 0.35757636 -0.00000063
0.13486983 0.22927260 -0.00000064
-0.32997049 0.45595443 -0.00000058
-0.33501630 -0.12236021 -0.00000042
-0.40514741 0.59810189 -0.00000049
0.40588283 0.28871423 0.07718070
0.33133234 0.11670273 0.25772784
0.35572945 -0.70782170 -0.00000006
-0.40597282 -0.58074307 -0.00000014
0.32999489 -0.65741164 -0.00000009
0.36755044 0.15942504 -0.00000071
-0.04022388 -0.42015846 -0.00000024
-0.59965299 0.58776831 -0.00000025
0.74408133 -0.17113521 -0.00000076
-0.25905120 0.34752953 -0.00000064
-0.19289242 0.29212396 -0.00000068
0.50044910 -0.51221404 -0.00000018
0.60818607 0.07049409 0.08883602
-0.40290811 0.20396979 -0.00000046
-0.73660183 -0.62642517 0.00000000
0.12061737 -0.35671273 -0.00000028
0.77828212 -0.52780638 -0.00000034
-0.51613761 -0.07675208 -0.00000029
-0.28809133 0.09313946 -0.00000056
0.05077252 -0.17115312 -0.00000039
-0.33775203 -0.43464141 -0.00000023
0.20324535 -0.78132477 -0.00000001
0.26431665 0.27129682 -0.00000072
0.34155456 -0.41983071 -0.00000024
0.03913295 -0.68977905 -0.00000007
0.26044433 -0.71880186 -0.00000005
-0.40477854 -0.57915224 -0.00000014
-0.33943727 0.49050376 -0.00000058
-0.22858339 -0.67565805 -0.00000008
0.43712822 -0.64544551 -0.00000010
-0.31576700 0.27884461 -0.00000057
0.56373391 -0.47779912 -0.00000024
-0.17202238 0.12942576 -0.00000058
0.08811459 -0.43560476 -0.00000023
0.06271406 -0.27665909 -0.00000033
0.06014793 0.54837806 0.14020632
0.52335479 -0.46381593 -0.00000021
0.23505361 0.12537653 0.32187651
-0.53022893 -0.00950597 -0.00000029
-0.07705177 0.54453086 -0.00000084
0.44660120 -0.07193760 -0.00000055
0.63043990 -0.46146943 -0.00000033
0.57547989 -0.53230620 -0.00000019
-0.57772384 -0.23816680 -0.00000019
-0.37826998 0.66187385 -0.00000053
-0.23462982 -0.12024630 -0.00000042
-0.48321215 0.70125006 -0.00000040
0.11385015 0.40047062 -0.00000075
-0.16902045 -0.24853135 -0.00000034
-0.35016794 0.42301341 -0.00000056
-0.57918374 0.48664621 -0.00000028
-0.78280824 -0.31555850 0.00000000
0.58427229 -0.61470736 -0.00000012
0.14943042 0.62316464 0.02006583
-0.11829484 -0.26148228 -0.00000034
0.49033991 -0.75707069 -0.00000003
0.64202159 -0.33584826 -0.00000047
0.26713416 0.46970333 0.04624969
0.14586433 0.63639656 0.01298793
0.33677590 0.34769238 0.08459761
-0.50711576 0.74383463 -0.00000037
-0.13622259 -0.09960466 -0.00000044
-0.68943451 0.48327341 -0.00000014
-0.79333227 0.27815188 -0.00000001
0.41464264 -0.21439833 -0.00000037
0.01059831 -0.74637892 -0.00000003
-0.55180974 0.73972749 -0.00000031
0.02096832 -0.16656117 -0.00000040
0.37438410 -0.69026458 -0.00000007
-0.21456869 0.34521449 -0.00000069
-0.34182123 -0.43380814 -0.00000023
-0.66976833 0.21395996 -0.00000016
0.06075817 0.08284116 -0.00000055
-0.15540107 -0.27150611 -0.00000033
-0.66983396 0.22189155 -0.00000016
0.14136882 0.62600482 -0.00000097
-0.73042846 0.59296449 -0.00000009
0.16716533 0.44127319 -0.00000080
-0.40334131 0.11008549 -0.00000044
0.12531963 0.40223474 0.19949848
-0.27907623 0.00279215 -0.00000050
0.27955585 -0.23688365 -0.00000035
0.69543912 -0.71526399 -0.00000011
-0.70735600 0.15107894 -0.00000012
0.49031412 0.15784787 0.11118327
0.24779722 -0.29519186 -0.00000032
-0.58397905 0.14104351 -0.00000026
0.61172579 -0.21711759 -0.00000057
-0.45447133 0.36142821 -0.00000043
-0.34649500 0.79214802 -0.00000057
0.47902855 -0.73822952 -0.00000004
-0.40145786 -0.03391359 -0.00000042
0.35081977 0.26690036 0.13347465
-0.22174930 -0.70266266 -0.00000006
0.69081063 -0.65476131 -0.00000018
-0.65105444 -0.27945443 -0.00000011
-0.68709252 -0.22005521 -0.00000008
0.35512915 -0.70931597 -0.00000006
0.19307019 -0.08940313 -0.00000044
0.25900634 -0.79349080 -0.00000000
0.29947036 -0.16770469 -0.00000040
0.62572196 -0.17578348 -0.00000063
-0.69375955 0.03659170 -0.00000012
0.06032640 0.66091034 -0.00000092
-0.49174795 0.65542764 -0.00000039
-0.32711667 0.44629278 -0.00000059
-0.22500637 -0.65663290 -0.00000009
-0.66341149 -0.51357089 -0.00000005
0.47072810 -0.72143828 -0.00000005
0.54132315 -0.11328704 -0.00000060
0.39860484 0.15708231 0.17889896
-0.79380504 -0.17254377 0.00000000
-0.26147772 0.40797242 -0.00000065
-0.29124667 0.41955720 -0.00000062
-0.37133726 -0.53897097 -0.00000016
-0.66673883 -0.46672054 -0.00000006
-0.07979948 0.08952309 -0.00000056
0.01554386 0.14799795 -0.00000059
0.08726649 -0.29330461 -0.00000032
0.33441902 -0.72517990 -0.00000005
0.79237450 -0.20518329 -0.00000074
-0.18276840 0.68258741 -0.00000077
0.50717800 0.09158257 0.14735798
0.45913472 -0.59903977 -0.00000013
0.11367123 0.29727321 0.28488661
0.16370060 0.26605403 -0.00000067
-0.60673205 0.18719855 -0.00000024
0.42563470 0.07777031 -0.00000068
-0.15183732 -0.33287505 -0.00000029
0.20854311 -0.12463407 -0.00000042
0.39779967 -0.66432654 -0.00000008
0.71200095 -0.12337133 -0.00000077
0.07202018 -0.18147760 -0.00000039
-0.78360165 0.64067023 -0.00000002
-0.68298862 0.34824796 -0.00000015
-0.70524492 -0.17611437 -0.00000007
0.40385391 -0.24896139 -0.00000034
-0.64891284 0.19967810 -0.00000019
-0.19308232 -0.37761397 -0.00000026
-0.28899093 0.61887036 -0.00000064
0.25819354 -0.53426794 -0.00000017
-0.43536581 0.22208222 -0.00000043
-0.20463052 -0.08716279 -0.00000045
-0.44804085 0.50657663 -0.00000044
0.71238405 -0.16162625 -0.00000073
-0.24719940 -0.61174150 -0.00000012
0.26200337 0.18056517 -0.00000062
0.78026396 -0.45948031 -0.00000043
0.16075604 0.47710110 -0.00000083
-0.15476239 0.18085553 -0.00000061
-0.58822346 -0.61023947 -0.00000011
0.24236523 0.28315782 -0.00000071
0.02100237 -0.48632368 -0.00000020
-0.25253437 -0.21260181 -0.00000037
0.54601937 0.21670997 -0.00000096
0.06803935 0.53141954 0.14684578
0.11332236 -0.47351961 -0.00000020
-0.00576787 0.67133392 -0.00000092
-0.41076365 -0.11338209 -0.00000039
0.12096559 0.53026719 -0.00000084
-0.63801071 -0.57206966 -0.00000007
0.20885789 -0.38281460 -0.00000026
-0.00622339 0.20518100 -0.00000063
-0.66498556 -0.00486288 -0.00000014
0.11893674 0.30578699 0.27479668
0.22583530 0.31103452 -0.00000072
0.48216419 0.09486363 0.16327202
-0.05029981 -0.39634568 -0.00000025
0.03591219 0.68771480 -0.00000093
-0.07644158 -0.51883208 -0.00000018
-0.75711417 0.24797593 -0.00000005
-0.64019543 0.55863632 -0.00000020
-0.16880285 0.53582190 -0.00000077
-0.32439396 0.17891461 -0.00000054
0.18496803 -0.65370327 -0.00000009
-0.08873924 0.78623840 -0.00000089
-0.62806578 -0.08931907 -0.00000017
-0.08288335 -0.42219423 -0.00000024
-0.08840474 0.50804865 -0.00000082
-0.73153875 -0.51091013 0.00000000
0.19534270 0.27484439 0.24150628
-0.39607710 0.76971026 -0.00000050
0.70416093 -0.74388152 -0.00000007
0.65591075 -0.02731669 -0.00000082
-0.11196160 0.03280964 -0.00000052
-0.52972787 0.16478676 -0.00000032
0.59554841 0.18046383 -0.00000097
-0.78181427 -0.74363861 0.00000000
0.16864855 0.40449598 -0.00000076
-0.21888043 -0.04991188 -0.00000047
0.21377102 0.42714634 -0.00000083
0.10660615 -0.77675610 -0.00000001
-0.07879372 0.27036526 -0.00000067
0.01301843 0.61090307 -0.00000088
-0.52119680 -0.14505493 -0.00000027
0.23035505 0.31980409 -0.00000073
-0.08953782 -0.07944303 -0.00000045
-0.16796940 0.48043096 -0.00000076
0.52082791 0.27793763 0.00090222
0.45881456 0.13617372 -0.00000078
-0.53241100 -0.38374260 -0.00000022
0.21108068 0.24125804 0.25457590
0.34754344 -0.28617232 -0.00000032
0.34867772 -0.06148830 -0.00000046
-0.13787905 0.14605072 -0.00000059
-0.22323165 -0.54728899 -0.00000016
-0.33825021 -0.69919862 -0.00000006
0.37830718 0.17725372 0.17899140
0.57323388 0.20014104 0.01949478
0.68660644 -0.51332698 -0.00000033
-0.10849551 -0.68894521 -0.00000007
-0.12166863 -0.39905334 -0.00000025
-0.03949106 0.13116846 -0.00000058
-0.13213018 0.26603650 -0.00000067
-0.34945397 -0.37871167 -0.00000026
-0.45219236 -0.11843480 -0.00000035
0.17271625 0.55470789 0.05314272
0.06887228 -0.15386013 -0.00000040
0.73592630 -0.11569004 -0.00000081
0.18171492 0.61738726 -0.00000100
0.29259542 0.10552453 0.29427824
-0.19868242 -0.04187465 -0.00000047
-0.59343204 -0.75270673 -0.00000003
-0.40717096 -0.40114216 -0.00000025
-0.14357184 -0.54031147 -0.00000016
-0.41051732 0.46083892 -0.00000049
0.06444747 -0.16937669 -0.00000039
-0.62548341 -0.58481578 -0.00000008
-0.56756660 0.42477122 -0.00000029
-0.50287310 0.49367494 -0.00000037
0.47494113 -0.11021504 -0.00000054
0.09425230 0.38442799 0.23528661
-0.62197186 0.04924084 -0.00000020
0.56668686 -0.42658507 -0.00000030
0.17072723 -0.44331084 -0.00000022
0.27282644 -0.11023152 -0.00000043
-0.03662384 0.40485972 -0.00000075
0.29627016 -0.12917862 -0.00000042
0.44568820 0.17019977 0.13481627
-0.26806237 -0.16914822 -0.00000039
-0.66304137 -0.59093138 -0.00000004
-0.13925200 0.60445187 -0.00000082
0.07695423 0.35563371 -0.00000072
-0.70720484 0.79670849 -0.00000012
0.24293430 -0.41638196 -0.00000024
0.41336438 0.09172904 -0.00000069
0.34623613 0.12624379 -0.00000065
0.20046782 0.12632797 0.34650526
0.09189586 0.41349317 0.21572899
0.39586227 0.32012649 0.06151640
-0.34749841 0.03980077 -0.00000049
0.67153426 0.12444637 -0.00000100
-0.30700561 -0.33826974 -0.00000029
0.39074742 0.23526281 0.12740413
0.53597394 -0.41343373 -0.00000028
0.39959876 -0.07598607 -0.00000049
0.12272371 0.17756911 0.36591182
0.12605440 0.25280487 -0.00000066
0.15479564 0.28039032 0.26713583
0.71352737 0.06463571 0.01598859
0.07325284 0.61955182 -0.00000089
0.72395725 -0.30984857 -0.00000059
-0.17483265 0.73562907 -0.00000078
-0.31469125 -0.65552790 -0.00000009
0.31121481 0.44031682 0.03548975
0.46061756 0.08377942 0.18716630
0.26302222 -0.48899295 -0.00000019
0.29720437 0.16459482 0.24764884
0.15063601 0.48785063 -0.00000083
0.38306071 0.24345511 0.12703391
-0.62619539 -0.12043458 -0.00000016
0.25620596 -0.44092493 -0.00000022
-0.00693744 -0.14276351 -0.00000041
-0.42377457 -0.50421258 -0.00000018
-0.71141391 0.13729390 -0.00000011
-0.59024184 -0.48124980 -0.00000014
0.22739184 -0.42045284 -0.00000024
0.54714897 -0.55975931 -0.00000015
0.10705396 -0.01131891 -0.00000049
-0.40002062 -0.64477248 -0.00000010
0.73350041 -0.27720843 -0.00000063
-0.23427500 0.46280211 -0.00000069
-0.40592308 -0.51783982 -0.00000018
0.43490595 -0.51500943 -0.00000018
0.08919115 0.52847071 -0.00000083
0.13285035 0.27572614 0.28662063
-0.15713143 0.32181096 -0.00000070
0.10970010 0.24286556 -0.00000065
-0.19465453 -0.40814625 -0.00000024
0.72410365 -0.23636019 -0.00000067
0.17817964 0.14649407 0.34805906
0.27528929 0.30838712 -0.00000077
-0.05760423 0.46521529 -0.00000079
0.57619444 -0.41831738 -0.00000031
0.59203486 0.18985288 0.01326117
-0.39385128 -0.47564374 -0.00000020
-0.25969495 -0.62623092 -0.00000011
0.46563185 0.25686164 0.05675324
-0.71046422 -0.72323519 0.00000000
-0.08168142 0.78331404 -0.00000090
0.19717597 0.25750871 0.25285800
-0.41197625 0.32989464 -0.00000047
-0.43164205 -0.59219994 -0.00000013
-0.48219979 0.61127901 -0.00000040
-0.07066538 -0.38344959 -0.00000026
-0.07329366 0.24210166 -0.00000065
0.15768691 -0.16842368 -0.00000039
0.47010964 0.19862134 -0.00000086
0.60126266 -0.40920524 -0.00000035
-0.26236459 0.35933918 -0.00000064
-0.58163678 -0.36071273 -0.00000017
0.00071554 0.20601790 -0.00000063
0.32295964 -0.79226068 -0.00000000
-0.15387273 0.67310429 -0.00000081
-0.29562101 -0.15089005 -0.00000041
0.53414179 0.22025822 -0.00000095
0.22883341 0.10783945 0.33927287
-0.67820813 -0.28247291 -0.00000008
0.19546873 0.48346383 -0.00000087
0.17115678 0.45795752 -0.00000082
-0.59405944 0.31076500 -0.00000026
-0.35781127 0.74245778 -0.00000055
-0.16504140 -0.04709517 -0.00000047
0.34023368 0.20811239 0.18427454
0.11562400 -0.33808378 -0.00000029
0.56253577 -0.11197461 -0.00000063
0.06467715 0.62116938 0.08358800
-0.47510607 0.63175371 -0.00000041
-0.54184257 0.05525262 -0.00000029
-0.37139861 -0.53871461 -0.00000016
-0.45990032 -0.04063727 -0.00000036
-0.49187449 -0.26706426 -0.00000028
0.43364158 -0.72816223 -0.00000004
0.06149274 0.04400075 -0.00000053
-0.30130253 0.36842511 -0.00000060
-0.48729222 -0.16238309 -0.00000030
-0.78892005 0.22377763 -0.00000001
-0.38355607 0.49402304 -0.00000052
0.24497610 0.53494323 0.01470256
-0.66898410 -0.69815589 -0.00000001
0.51250857 0.11040880 0.12966891
-0.54953570 -0.30595412 -0.00000021
-0.50719914 0.27686306 -0.00000036
0.11902295 0.65823729 0.01664971
-0.33243566 -0.70776713 -0.00000006
0.60444062 -0.14748390 -0.00000063
0.71362908 -0.33466801 -0.00000055
0.63121915 -0.50611000 -0.00000028
-0.52433322 0.59830264 -0.00000034
-0.08496384 0.50219981 -0.00000081
-0.63734813 -0.14265099 -0.00000015
-0.33336847 0.75083502 -0.00000058
0.11420428 0.67162073 -0.00000098
0.28140812 0.34250027 -0.00000081
0.08531810 0.62288779 0.06721536
-0.70752908 -0.75628633 0.00000000
0.57326298 0.05537765 -0.00000082
0.77308330 0.01758325 -0.00000099
-0.20910607 -0.35407653 -0.00000028
0.58400885 0.18808590 0.02043219
0.12438386 0.12362499 0.40419702
-0.12641546 0.40076599 -0.00000075
-0.74402563 -0.40281380 0.00000000
0.19033163 0.55036220 -0.00000094
0.08007803 0.30657199 -0.00000069
-0.20620062 -0.35718834 -0.00000028
-0.03328828 0.32218561 -0.00000070
0.79020722 -0.72986537 -0.00000009
0.14075025 -0.07465744 -0.00000045
-0.61154434 -0.49665286 -0.00000011
-0.06730389 -0.19296461 -0.00000038
-0.75057253 0.29968294 -0.00000006
0.39961508 0.31970404 -0.00000091
-0.65612078 0.60111524 -0.00000018
0.07556088 0.32950506 -0.00000071
0.24028141 0.33078388 0.16763795
-0.76374891 0.31587796 -0.00000005
-0.22844184 0.14413432 -0.00000059
-0.55272565 0.78834479 -0.00000031
0.56786314 0.19176497 0.02956102
-0.70787472 -0.15651332 -0.00000007
0.46776689 0.23963458 0.06780453
0.07707443 0.53464912 0.13786497
-0.75732871 0.24085978 -0.00000005
0.05857689 -0.08827902 -0.00000044
-0.12813068 -0.12434076 -0.00000042
0.19296130 -0.21084019 -0.00000037
-0.54789363 -0.60790383 -0.00000012
0.09367192 0.68923776 0.01251285
-0.00532299 0.04294253 -0.00000053
-0.08008025 -0.36355817 -0.00000027
0.55926698 0.02581638 -0.00000077
0.50409996 -0.51949755 -0.00000018
-0.26691171 -0.47820194 -0.00000020
0.42360358 -0.78284454 -0.00000001
-0.40878476 -0.72240633 -0.00000005
-0.32757182 0.35282811 -0.00000057
0.51629252 0.13518153 -0.00000084
0.27191905 -0.46785005 -0.00000021
0.66283034 -0.09230943 -0.00000076
-0.04565613 0.05830328 -0.00000054
-0.61384641 0.59730685 -0.00000023
0.35504247 -0.09146949 -0.00000044
0.12301335 -0.06450265 -0.00000046
-0.24354581 -0.25090212 -0.00000034
0.74829287 -0.53188744 -0.00000034
-0.05646445 0.22140842 -0.00000064
-0.26421023 -0.16351520 -0.00000040
0.06484963 -0.23026424 -0.00000036
-0.40588446 0.21936647 -0.00000046
-0.53093981 0.57495019 -0.00000034
0.50150590 -0.26553201 -0.00000040
0.32906567 -0.37264108 -0.00000027
-0.09482807 0.29702414 -0.00000069
0.15351456 0.63818021 -0.00000099
-0.08998351 -0.09189394 -0.00000044
0.78169657 -0.56614276 -0.00000029
0.03998172 -0.21870237 -0.00000036
0.05600240 0.19732030 -0.00000062
0.07545571 0.02915320 -0.00000052
0.00576328 0.62561195 -0.00000089
0.13900544 0.32329504 -0.00000070
-0.71506096 0.78791420 -0.00000011
0.25307812 0.14110539 -0.00000059
0.35346891 -0.43977497 -0.00000023
0.57641794 0.12813302 0.06989185
0.07093063 -0.16238185 -0.00000040
-0.57736399 0.40516013 -0.00000028
-0.57087596 0.45847075 -0.00000029
-0.40301238 -0.25164447 -0.00000034
0.78271039 0.00804513 -0.00000099
0.65580967 -0.40430238 -0.00000041
0.65105851 -0.34685696 -0.00000047
0.06823468 0.67122892 0.04432667
0.26455178 0.17695025 -0.00000062
0.34658878 0.03205116 -0.00000055
0.43359651 0.06973738 -0.00000068
-0.25830141 -0.73271791 -0.00000004
0.09518933 0.37297717 0.24298539
0.09059213 0.43724265 -0.00000077
0.31939286 0.07745890 -0.00000057
-0.12900494 -0.74151111 -0.00000004
-0.47356734 0.33841833 -0.00000041
-0.59065532 -0.10222848 -0.00000020
0.31018311 0.42191263 -0.00000093
-0.34166690 0.05370599 -0.00000050
0.75739115 -0.76795798 -0.00000004
-0.54729784 -0.38063281 -0.00000020
0.27084618 -0.18238160 -0.00000039
0.36442065 0.31209697 0.09041956
0.12557632 0.14377012 0.38857248
0.26238402 0.20672732 -0.00000065
-0.10732127 -0.48585556 -0.00000020
-0.43023294 -0.47079373 -0.00000021
-0.24364673 0.39318946 -0.00000067
-0.35746776 0.30769674 -0.00000053
0.16380112 -0.62071026 -0.00000011
0.35564997 0.11767773 0.23920730
0.53503630 0.21689440 0.03519753
-0.63201309 0.64681324 -0.00000021
-0.01395623 0.69791171 -0.00000094
0.22992862 -0.19179613 -0.00000038
-0.35571363 0.47339557 -0.00000056
0.49800217 -0.54378085 -0.00000016
-0.79654082 0.18178585 -0.00000000
0.49917601 0.20979927 0.06665209
0.49160772 0.28933747 -0.00000098
-0.56584397 0.70870455 -0.00000029
0.18505992 0.52011471 -0.00000090
-0.66393419 -0.35917973 -0.00000008
-0.62303684 0.60700485 -0.00000022
-0.66374353 -0.30628894 -0.00000009
-0.04832269 -0.65076322 -0.00000009
-0.27791668 -0.46290853 -0.00000021
-0.32938815 0.16740652 -0.00000053
0.41568489 0.36253958 0.01594364
-0.59912563 -0.76527491 -0.00000002
-0.10643512 -0.29890432 -0.00000031
-0.42760624 0.08169291 -0.00000041
0.28456835 0.20901975 0.22437120
-0.23855679 0.08534140 -0.00000055
0.07133324 0.24044867 -0.00000065
0.03626021 0.62112392 -0.00000089
0.31674260 0.42477335 0.04282384
0.21746439 -0.07342738 -0.00000045
0.54833646 -0.47401136 -0.00000023
0.67093004 0.07861511 0.03694438
0.11598649 -0.78122434 -0.00000001
-0.12313403 0.39806611 -0.00000075
0.64084547 -0.50321707 -0.00000029
-0.22157147 -0.07544031 -0.00000045
-0.71996056 -0.54582981 0.00000000
-0.53741935 0.20400403 -0.00000032
-0.53030500 0.62283433 -0.00000034
-0.07027463 0.31196694 -0.00000069
0.30084952 0.26925409 -0.00000075
0.34771232 -0.19585699 -0.00000038
0.71142414 -0.38695210 -0.00000049
0.15396488 0.53926938 -0.00000089
0.52536715 -0.49760903 -0.00000019
0.38939049 0.13770411 0.19983615
-0.45674099 0.67228393 -0.00000043
0.22411541 0.40042280 0.12848203
0.50788073 -0.72329507 -0.00000005
-0.46506120 -0.32627848 -0.00000030
-0.34532309 0.76007411 -0.00000057
0.10338568 0.43296940 -0.00000077
0.26297173 -0.29502275 -0.00000032
0.60121557 0.13762929 -0.00000093
0.38178332 0.15398320 0.19348605
0.75423167 -0.68097931 -0.00000015
0.52193913 -0.14860439 -0.00000054
-0.01089902 0.55907461 -0.00000085
-0.66776877 -0.20185471 -0.00000010
0.29812072 -0.35319743 -0.00000028
0.33338458 -0.43075449 -0.00000023
-0.64041934 -0.05199669 -0.00000016
0.10654084 0.58316880 0.08075942
-0.45462570 -0.31767472 -0.00000030
-0.09456088 -0.76783311 -0.00000002
-0.21487105 0.63960974 -0.00000073
-0.73849962 -0.10936649 -0.00000005
-0.65678131 -0.78603139 -0.00000001
-0.37249057 -0.32949545 -0.00000029
0.31548844 0.33813934 -0.00000084
-0.77507589 0.29447584 -0.00000003
0.42799889 0.29555437 -0.00000092
0.15105168 0.33732993 0.22818305
0.16418184 0.47178719 -0.00000082
0.79723032 -0.63463959 -0.00000021
0.28700572 0.44134945 -0.00000092
-0.78028395 0.72783768 -0.00000002
-0.09861638 0.76894538 -0.00000088
-0.13277166 -0.33083857 -0.00000029
-0.64170013 0.34103739 -0.00000020
0.24564602 0.04744491 -0.00000053
-0.04432486 0.21747191 -0.00000064
0.19645297 -0.66930520 -0.00000008
-0.68603096 -0.68773448 0.00000000
0.00584183 0.01759094 -0.00000051
-0.37735826 0.68215590 -0.00000053
0.22646275 -0.38262830 -0.00000026
-0.52746217 0.37539230 -0.00000034
-0.75741738 0.70662108 -0.00000005
0.53496419 0.22641102 -0.00000096
-0.66477459 -0.42966748 -0.00000007
-0.65512406 -0.60375301 -0.00000004
0.63047696 -0.13252184 -0.00000068
0.47763851 -0.75453930 -0.00000003
-0.26053933 -0.64935588 -0.00000009
0.04444357 -0.06174789 -0.00000046
0.23572000 -0.07400518 -0.00000045
0.75410650 -0.35653507 -0.00000055
-0.52217861 -0.37774551 -0.00000023
-0.35294944 -0.37191405 -0.00000027
0.23074852 -0.55981291 -0.00000015
0.23139212 -0.19067731 -0.00000038
-0.24863506 0.42530917 -0.00000067
-0.04515055 -0.08355534 -0.00000045
0.03013592 0.54359063 -0.00000084
0.58004243 0.07582811 0.10553860
-0.51843886 0.52207466 -0.00000035
0.18409530 0.07117959 -0.00000054
-0.44755546 0.60521121 -0.00000044
0.00966341 -0.61817548 -0.00000011
-0.40183419 0.42021154 -0.00000050
0.52488735 0.27498777 0.00008972
0.14185225 0.28994729 0.26961549
-0.24200459 0.40582480 -0.00000067
-0.37608576 0.32185686 -0.00000051
-0.08269071 0.04571669 -0.00000053
0.07770805 0.61493614 -0.00000089
-0.48429066 0.42762376 -0.00000039
-0.08610953 -0.26912191 -0.00000033
0.55652580 -0.17289907 -0.00000056
0.09117842 -0.03275985 -0.00000048
-0.62510359 0.26247388 -0.00000022
-0.71911632 0.21992536 -0.00000010
-0.30719987 0.63564529 -0.00000062
0.51338021 0.10010119 0.13657850
0.22719979 -0.35418319 -0.00000028
0.02018778 0.72420887 0.04071419
0.45622802 0.04603511 -0.00000068
0.28421118 0.30998330 0.15070155
-0.02156771 0.43116219 -0.00000077
0.31770094 0.06563782 -0.00000056
-0.66075132 -0.29301568 -0.00000009
0.14281689 0.20387776 -0.00000063
-0.70969304 0.76714551 -0.00000011
0.48071797 -0.73573269 -0.00000004
-0.65503998 -0.24871527 -0.00000011
0.63178858 0.01648903 -0.00000084
-0.07877314 -0.67448544 -0.00000008
0.09856304 0.34015238 0.26455110
-0.71976329 -0.38004303 -0.00000002
-0.06086567 -0.27403145 -0.00000033
-0.49490292 -0.44968291 -0.00000022
-0.49479062 -0.58923462 -0.00000013
-0.79139303 -0.72495527 0.00000000
0.64761903 0.09095262 0.04497984
-0.38892728 -0.53123755 -0.00000017
0.06180485 0.47309718 0.19411782
-0.04999299 0.02478942 -0.00000052
0.41325106 0.20644022 0.13203125
0.72113376 0.02650287 0.03834191
-0.04297869 0.69254824 -0.00000093
-0.44684768 -0.35127838 -0.00000028
-0.28859463 0.30656970 -0.00000060
0.52190981 0.19491659 -0.00000091
-0.19596685 0.57052915 -0.00000075
0.20213207 -0.02954604 -0.00000048
0.07055930 -0.37226540 -0.00000027
0.25033470 0.34582048 0.14926580
0.62432670 0.07815509 -0.00000090
0.50628211 -0.16579280 -0.00000051
-0.23744997 0.41566947 -0.00000068
0.10644319 -0.57912724 -0.00000014
0.55109765 -0.03744664 -0.00000069
-0.19253666 0.53603615 -0.00000075
-0.50445980 0.61103330 -0.00000037
-0.69708314 0.05786654 -0.00000012
0.64677708 0.06083058 0.06765355
-0.76330989 0.27469365 -0.00000005
-0.38110551 0.07288799 -0.00000046
0.05841831 0.55149563 0.13918997
0.21365287 0.20672654 -0.00000063
0.41745031 0.09209976 -0.00000069
-0.10427573 -0.67182781 -0.00000008
0.67360049 0.05794911 0.05012181
-0.75214324 0.58816414 -0.00000006
-0.15970726 -0.28439396 -0.00000032
0.12740750 0.01639917 -0.00000051
0.61055666 -0.11072485 -0.00000068
-0.04958945 -0.62592037 -0.00000011
0.35933014 -0.22262833 -0.00000036
0.54916660 -0.79104467 -0.00000001
0.61164230 -0.14783356 -0.00000064
0.10161895 0.16216392 -0.00000060
-0.02252867 -0.79157706 -0.00000001
-0.16518392 -0.08034278 -0.00000045
-0.47672624 0.55944826 -0.00000040
-0.26397843 -0.60597615 -0.00000012
0.15638120 -0.38487138 -0.00000026
-0.61289479 0.74265876 -0.00000023
0.37201280 -0.18689401 -0.00000038
0.14599995 -0.54849008 -0.00000016
0.74280091 -0.03548651 -0.00000090
-0.77924234 0.20019238 -0.00000003
-0.57911151 0.02424577 -0.00000024
-0.24660996 0.57741765 -0.00000069
-0.45823780 -0.04430132 -0.00000036
-0.02861127 -0.38265627 -0.00000026
0.11445148 0.29327297 0.28724446
-0.55010701 0.37592163 -0.00000031
-0.44433801 -0.45271749 -0.00000022
0.56959134 -0.44966299 -0.00000027
0.17193850 0.59740259 -0.00000097
-0.42311658 -0.54408672 -0.00000016
0.19413831 0.55413036 -0.00000094
-0.49643819 -0.08672315 -0.00000031
-0.51387759 0.56584248 -0.00000036
-0.71106431 0.71262704 -0.00000011
-0.32336046 0.61376462 -0.00000060
0.19883445 0.55912873 -0.00000096
0.60289017 -0.71325003 -0.00000005
-0.38586007 0.35626438 -0.00000051
-0.41568422 -0.75545954 -0.00000003
-0.48198633 0.35656487 -0.00000040
0.05972634 0.34996862 -0.00000072
-0.54740133 0.39876219 -0.00000032
-0.11093267 -0.41003664 -0.00000024
-0.29874831 0.77875744 -0.00000063
0.20473235 0.38883451 -0.00000078
0.68657704 -0.44329281 -0.00000041
0.37407183 -0.13976500 -0.00000041
0.61283992 0.14986761 0.02730608
0.36915900 0.06922793 -0.00000061
-0.58252712 -0.09186287 -0.00000022
0.40951197 -0.11748618 -0.00000046
-0.46248055 0.21242482 -0.00000040
0.07055871 0.57141548 0.11571376
-0.76951957 0.68480028 -0.00000004
0.60955655 -0.46804743 -0.00000030
-0.75364009 0.56537164 -0.00000006
0.35382758 0.06059464 -0.00000059
-0.29338064 -0.65403070 -0.00000009
0.27284588 0.34555090 -0.00000081
0.67586418 -0.61595644 -0.00000021
0.27737451 -0.40352125 -0.00000025
0.26509284 0.16667162 -0.00000061
-0.07200787 0.39451642 -0.00000075
-0.62312110 0.03181304 -0.00000019
-0.54080861 0.59445401 -0.00000032
0.24246383 -0.60822296 -0.00000012
0.04073264 -0.00258810 -0.00000050
0.76505092 -0.23474680 -0.00000071
0.21947664 -0.16280863 -0.00000040
0.39025441 -0.17492739 -0.00000039
-0.22851705 -0.75616709 -0.00000003
0.15761646 -0.67689074 -0.00000008
-0.13158376 -0.04217341 -0.00000047
0.35639844 -0.25132448 -0.00000034
-0.48932532 0.50022097 -0.00000039
-0.68954696 0.71204840 -0.00000014
0.18706565 0.60532716 0.00556872
-0.56086423 -0.71755819 -0.00000005
-0.29245659 0.25313593 -0.00000059
0.76946218 -0.33143049 -0.00000059
0.78330655 -0.68869156 -0.00000014
0.10432002 0.42388870 0.19901923
-0.09448290 0.02563952 -0.00000052
-0.06271890 -0.58275831 -0.00000014
0.21805599 -0.43310552 -0.00000023
0.24381194 -0.16907833 -0.00000039
-0.31518714 -0.09116868 -0.00000044
0.04757703 0.09062864 -0.00000056
-0.10808825 0.25405253 -0.00000066
-0.20420011 0.74150293 -0.00000074
0.23189693 0.15008672 0.30609384
-0.02878121 0.58857234 -0.00000087
0.61633873 0.04979872 -0.00000086
0.16682166 -0.41382115 -0.00000024
0.52172319 -0.11581251 -0.00000058
-0.64721669 -0.01172855 -0.00000016
0.17170640 0.60636261 -0.00000098
-0.46054660 0.57770568 -0.00000042
-0.64037396 -0.18411181 -0.00000014
-0.76407307 -0.57511779 0.00000000
-0.45586300 0.05519692 -0.00000038
-0.71150625 -0.24426657 -0.00000005
-0.07024839 0.04454377 -0.00000053
-0.70735764 -0.34019802 -0.00000004
-0.46506464 -0.34422067 -0.00000028
0.24364831 0.31185239 0.17903520
-0.64460323 0.12010657 -0.00000019
-0.27253671 -0.48703111 -0.00000020
-0.60480216 -0.59969949 -0.00000010
0.17234690 0.45829083 0.12401542
0.22494304 0.27298509 0.22119291
0.12833728 0.57359705 -0.00000090
0.53077465 0.13082000 -0.00000085
0.43371063 -0.00271903 -0.00000061
0.34261656 -0.41121427 -0.00000024
-0.34025718 0.29096737 -0.00000054
0.49676829 -0.15512600 -0.00000051
-0.41791772 -0.35595011 -0.00000028
-0.30217990 -0.06350892 -0.00000046
0.40679655 0.17875917 0.15702738
-0.79862842 -0.24423888 0.00000000
0.19588826 0.32561695 0.20392834
-0.00207504 0.33804949 -0.00000071
0.32775687 0.17912033 0.21464039
0.41495357 0.28696492 0.07181951
-0.05866274 -0.07391251 -0.00000045
-0.64835646 0.31317563 -0.00000019
-0.77248693 0.09814550 -0.00000003
0.42400303 0.03182719 -0.00000063
-0.40936680 0.68745524 -0.00000049
0.28701375 0.48898553 0.01757306
-0.19430373 -0.22507731 -0.00000036
-0.36425683 -0.58097511 -0.00000014
-0.12344941 -0.63281902 -0.00000010
-0.37811790 0.75443392 -0.00000053
0.13069807 -0.05327069 -0.00000047
-0.30716456 0.73747750 -0.00000062
0.59298581 -0.56272953 -0.00000018
0.09800988 0.06381789 -0.00000054
0.23395540 0.23588747 -0.00000065
-0.75842321 -0.20293087 -0.00000001
-0.17274766 -0.29567224 -0.00000032
0.02947668 0.57393748 -0.00000086
0.26164268 0.30071047 0.17401755
-0.47482402 -0.12747130 -0.00000032
0.09905491 0.27994171 0.30828048
-0.51988267 0.64092745 -0.00000035
0.72343480 -0.34966943 -0.00000055
-0.48043167 -0.71369924 -0.00000005
-0.12122414 -0.02628326 -0.00000048
-0.53179697 0.39198142 -0.00000034
0.56208689 0.19301786 -0.00000095
-0.24109490 0.76312683 -0.00000070
0.19988225 0.08950402 -0.00000056
0.65125736 -0.22886848 -0.00000060
-0.01822558 0.15909257 -0.00000060
0.54917458 -0.32235941 -0.00000039
-0.36988670 0.10975308 -0.00000048
-0.15347809 0.22909577 -0.00000064
-0.38298816 -0.57528821 -0.00000014
-0.15642499 0.49055294 -0.00000078
-0.31467778 0.75260194 -0.00000061
-0.40655875 -0.28056688 -0.00000032
0.31540665 0.09824786 0.28290310
-0.46518846 -0.03123300 -0.00000035
0.36538062 -0.56382691 -0.00000015
0.49588912 -0.02166571 -0.00000065
0.02972199 -0.08323131 -0.00000045
0.57854479 -0.78793425 -0.00000001
0.55266694 -0.78981231 -0.00000001
-0.76803272 -0.76510673 0.00000000
-0.22698990 0.20086368 -0.00000063
-0.50480132 0.67805878 -0.00000037
-0.79967602 0.60864478 -0.00000000
-0.66968278 0.56680492 -0.00000016
0.17483593 0.31320233 0.22843458
-0.52812480 -0.53183688 -0.00000017
-0.02483935 -0.42428888 -0.00000023
0.21463993 0.58498526 0.00027274
0.34273590 -0.41634955 -0.00000024
0.05184914 0.66430667 -0.00000092
0.30655082 -0.48561269 -0.00000020
-0.26312726 -0.70227430 -0.00000006
0.27457324 -0.53291813 -0.00000017
-0.32814787 -0.14150758 -0.00000041
0.13656886 0.43328592 0.16852386
0.16530626 0.33172134 -0.00000071
-0.79377118 0.34499827 -0.00000001
-0.16495815 -0.30747027 -0.00000031
0.19403398 0.34923398 0.18799245
-0.73359924 -0.75524994 0.00000000
-0.54930160 -0.60473052 -0.00000012
0.05299202 0.51493945 -0.00000082
-0.34226962 0.69362730 -0.00000057
-0.74895178 -0.66379027 0.00000000
-0.04904389 0.34045090 -0.00000071
0.75018756 -0.10843576 -0.00000083
-0.29909430 0.78002607 -0.00000063
0.07409023 -0.53841670 -0.00000016
-0.37912373 -0.50758235 -0.00000018
0.18514809 -0.73310123 -0.00000004
-0.06502609 0.47652077 -0.00000080
0.11140453 0.33544209 0.25859705
-0.69615558 0.74118084 -0.00000013
-0.41060708 0.52652898 -0.00000049
0.28694253 0.23032548 0.20703148
-0.68706802 -0.20534441 -0.00000008
0.43657518 0.10076046 0.19233704
0.29188141 0.05007688 -0.00000053
0.20596593 0.53966309 0.03981201
0.51040086 -0.78052711 -0.00000001
-0.35252211 0.07827957 -0.00000049
0.29164179 -0.50133911 -0.00000019
-0.02017554 -0.18751121 -0.00000038
-0.45345540 0.13865326 -0.00000040
0.19289506 -0.25940721 -0.00000034
-0.01055998 0.51013193 -0.00000082
0.33752667 -0.75293494 -0.00000003
-0.75663242 0.04701117 -0.00000005
0.08944601 0.55179766 -0.00000084
-0.12855720 0.76915767 -0.00000084
0.42246994 0.36603925 0.00841254
-0.01783161 0.05859273 -0.00000054
0.41294688 0.12511099 -0.00000072
0.30552480 0.45422942 0.02946868
-0.63498220 0.64481828 -0.00000021
-0.46442774 0.17512019 -0.00000039
-0.73637297 0.69756173 -0.00000008
0.36662492 0.11378777 0.23401934
0.51789095 -0.04952712 -0.00000065
0.26727669 -0.45761317 -0.00000021
-0.24177828 -0.78748274 -0.00000001
-0.29676457 -0.72256275 -0.00000005
0.14410114 0.11035840 -0.00000057
0.43921910 -0.70001582 -0.00000006
0.27866132 -0.54699146 -0.00000016
0.59343757 -0.67648444 -0.00000008
0.34035333 -0.20018372 -0.00000037
-0.26544467 -0.15561595 -0.00000040
0.39989485 -0.31878242 -0.00000030
-0.46699986 -0.59050345 -0.00000013
-0.11315496 -0.24242926 -0.00000035
0.20141181 0.24593732 -0.00000065
0.15862204 0.33324068 0.22563402
0.60669828 -0.01024389 -0.00000078
-0.45043363 0.35882830 -0.00000044
-0.72684142 -0.53206000 0.00000000
