ply
format ascii 1.0
element vertex 1393
property float x
property float y
property float z
end_header
-0.06620970 0.17668906 0.22744473
-0.11296690 0.16140485 0.21459546
-0.65579276 -0.10439620 -0.00000060
0.65181926 -0.77199343 -0.00000000
-0.63453083 -0.25456067 -0.00000042
0.42788013 0.22387213 0.00000141
-0.36313498 0.06341367 0.15246716
0.09347849 -0.38264531 0.00000000
0.52281993 -0.79842315 0.00000000
-0.44904309 -0.18353705 -0.00000009
0.58238693 -0.67077972 0.00000000
-0.21165882 0.14060316 0.00000000
0.40720289 -0.26007719 0.00000000
-0.11403781 -0.31999752 0.00000000
-0.65341383 0.10217269 0.01813140
-0.02138873 -0.31242895 0.00000000
0.19988710 -0.31038553 0.00000000
-0.10014855 0.60360523 0.03929397
-0.26826652 -0.03823362 0.00000000
0.59549895 0.05177014 -0.00000122
0.24385997 -0.54923988 0.00000000
0.06226135 -0.37769537 0.00000000
-0.25225382 0.33120561 -0.00000012
-0.65750214 -0.36366809 -0.00000037
-0.02166741 0.70233453 0.03102733
-0.10997957 0.48104330 0.08531804
0.02694935 -0.42601674 0.00000000
0.42539141 -0.39982733 0.00000000
0.05687195 0.12259957 0.00000930
0.23913621 0.13655439 0.00000000
-0.45113999 0.16577848 0.07474532
0.57025575 -0.31859418 -0.00000046
0.01327463 -0.74166356 0.00000000
0.03368530 -0.61652304 0.00000000
0.22104288 -0.73801940 0.00000000
-0.36571293 -0.58959888 0.00000000
-0.62778105 -0.36150856 -0.00000031
-0.67176554 0.10145604 0.01093156
-0.35336007 -0.02115809 -0.00000003
0.13842534 0.42876102 0.00000000
-0.54352035 -0.31652317 -0.00000017
-0.61913457 -0.46969524 -0.00000020
-0.49541687 -0.58713907 0.00000000
-0.30652202 -0.79103640 0.00000000
-0.71813969 -0.36436202 -0.00000050
-0.19911432 -0.42091745 0.00000000
-0.01570623 0.27850711 0.00000000
0.40893680 0.31150439 0.00000031
0.26149793 0.46234926 -0.00000052
0.53761070 0.02833568 -0.00000093
-0.25054484 -0.36650046 0.00000000
0.07459570 0.34221265 0.00000000
-0.40430008 0.07881302 0.12937370
0.50166369 0.03812836 -0.00000079
-0.07223412 -0.77716080 0.00000000
-0.48523279 -0.05706139 -0.00000028
0.03412132 0.61019538 0.00000233
-0.46262138 0.17930411 0.06453577
-0.28819868 0.46567868 0.01882984
-0.09131558 0.66714843 0.01695761
0.29268874 -0.44362590 0.00000000
0.26263969 -0.78103913 0.00000000
0.22193934 -0.56269623 0.00000000
0.55334668 -0.11366274 -0.00000075
-0.13611661 0.62747568 0.01486383
0.35898027 0.42928893 -0.00000070
0.28601974 -0.38485083 0.00000000
-0.30727705 0.12208784 -0.00000006
0.18236326 0.43474354 -0.00000013
-0.65399805 -0.56636770 -0.00000019
-0.41301049 0.38014823 -0.00000051
0.29479950 0.02697247 0.00000000
-0.17038082 0.31450953 0.12864823
0.13628214 0.50927846 -0.00000007
-0.18362939 0.49578009 0.04923279
-0.32965439 -0.53121280 0.00000000
0.41839251 -0.60604627 0.00000000
-0.43305961 0.33943284 0.01122966
-0.08589704 -0.07808514 0.00000000
-0.48934341 -0.25475429 -0.00000011
-0.72310125 -0.45702187 -0.00000043
-0.05521183 0.21299819 0.21711103
-0.16446571 0.54205965 -0.00000012
-0.14167891 0.47721779 -0.00000002
-0.67484845 -0.17078955 -0.00000058
0.13324533 0.21701624 0.00000673
-0.19782192 -0.38176449 0.00000000
-0.32023206 0.08605849 -0.00000005
0.47790847 -0.32291290 -0.00000005
-0.09319260 0.64430646 0.02551690
0.20212183 0.35793532 -0.00000008
0.11399035 -0.59580409 0.00000000
0.38219811 0.37791262 -0.00000029
-0.07013406 -0.28818214 0.00000000
0.78402413 -0.70556994 -0.00000024
0.08463445 -0.00726010 0.00000000
0.40743414 0.21585803 0.00000193
-0.67615723 -0.47076290 -0.00000032
-0.21018318 0.54600385 0.01788701
0.03483896 0.61403912 0.00000226
-0.08311484 -0.02222433 0.00000000
0.27355664 -0.22060458 0.00000000
-0.16379244 -0.53943969 0.00000000
0.56584267 -0.13941435 -0.00000075
0.63609451 -0.72990596 -0.00000001
0.40694435 -0.51902785 0.00000000
-0.69712953 0.00840709 0.03856504
0.44814155 0.29213488 -0.00000012
-0.04909993 0.08224509 0.00000000
-0.18218365 0.22450478 0.16057531
0.30777778 0.47252285 -0.00000044
-0.02246391 0.21596964 0.00000000
0.77151811 -0.74354248 -0.00000014
-0.22430581 0.26392621 0.12728399
-0.79593487 -0.24439198 -0.00000069
-0.20113493 -0.32339337 0.00000000
0.41450324 0.19272316 0.00000218
-0.45695907 0.09135048 0.10275606
0.04476752 0.11193856 0.00000000
0.08207375 -0.78799622 0.00000000
-0.35812545 -0.75985822 0.00000000
0.08071407 0.21328138 0.00000000
0.24304740 0.18936222 0.00000000
0.31978342 0.26691440 0.00000276
-0.41103755 -0.72585427 0.00000000
-0.11209822 0.55010696 0.05625683
0.17829689 0.41725719 0.00000297
-0.23232205 -0.77793140 0.00000000
0.32859204 -0.22863571 0.00000000
-0.57299552 -0.33359466 -0.00000022
0.14550611 0.63465602 -0.00000003
-0.01961281 -0.47779701 0.00000000
0.03478101 0.74813186 0.00000020
-0.15518780 -0.57451215 0.00000000
0.47564630 -0.27467199 -0.00000013
-0.52966597 -0.40976480 -0.00000006
-0.28908993 -0.74699423 0.00000000
0.21307267 0.10433345 0.00000722
-0.53816244 0.09560612 0.06786584
-0.11945152 0.37745902 0.00000000
0.23304363 -0.71375608 0.00000000
0.35383444 0.19298742 0.00000334
-0.70337066 -0.06312584 -0.00000074
0.31893325 -0.20018303 0.00000000
0.12656483 0.19390768 0.00000000
-0.18597898 -0.73390846 0.00000000
0.32188109 0.08795083 -0.00000011
-0.39802096 0.33895297 0.02573076
-0.23942837 -0.16284955 0.00000000
0.33530871 -0.44955658 0.00000000
-0.42077102 -0.42704140 0.00000000
-0.64325765 -0.37072850 -0.00000034
0.02150083 -0.77881266 0.00000000
-0.00605894 -0.71955153 0.00000000
0.15955306 0.45152674 -0.00000006
-0.20795451 0.25560239 0.13735795
0.48166091 -0.76502430 0.00000000
0.56554137 -0.43183381 -0.00000024
0.29395689 -0.55764738 0.00000000
-0.38289451 0.04719205 0.15102271
0.02443186 0.06133960 0.00000000
0.05416938 0.03554633 0.00001065
0.22647817 0.45446355 0.00000142
-0.46677814 0.25319927 0.03266975
0.57489651 -0.03286699 -0.00000098
-0.36079082 -0.35775456 0.00000000
0.48478562 0.27905649 -0.00000115
-0.28668336 -0.70799430 0.00000000
-0.40387796 -0.74811295 0.00000000
0.30667286 -0.19009817 0.00000000
-0.04466636 0.53383909 0.09042841
-0.44037716 -0.40663573 0.00000000
-0.06808978 0.48798857 0.09958461
0.04523712 0.69166871 -0.00000000
0.54282287 -0.00863469 -0.00000089
-0.42380848 -0.22515553 0.00000000
-0.43850805 0.32043453 -0.00000051
-0.19238986 0.52486943 -0.00000017
-0.03052641 -0.14679678 0.00000000
0.56765702 -0.42344739 -0.00000026
0.69344336 -0.72112109 -0.00000020
0.30192388 0.05794159 0.00000000
-0.36314033 -0.62756560 0.00000000
0.63373400 0.03255883 -0.00000135
-0.27199550 0.49262341 0.01444445
-0.71881341 -0.38740377 -0.00000048
-0.37793159 0.28938604 0.05416915
0.50891092 0.15216380 -0.00000103
0.08671588 0.24615213 0.00000000
0.22539924 0.18510012 0.00000582
0.52982354 0.22822367 -0.00000062
-0.01791233 0.76299972 0.00779295
-0.46128901 0.11916426 -0.00000038
-0.16843890 0.09122401 0.00000000
0.59078375 0.01635242 -0.00000114
-0.58278907 0.17206975 -0.00000069
0.64294689 -0.69432321 -0.00000010
-0.12333287 0.37556958 0.00000000
-0.71417894 -0.57751255 -0.00000028
-0.31183442 -0.61026432 0.00000000
0.06045711 -0.62617494 0.00000000
0.70420929 -0.24132522 -0.00000116
0.52534175 -0.29204895 -0.00000031
0.42687810 0.15112751 0.00000264
-0.25778046 0.05970163 0.00000000
-0.31396214 -0.42060453 0.00000000
-0.31692478 -0.29371640 0.00000000
-0.39031759 0.38699896 -0.00000047
0.28051429 -0.51383614 0.00000000
0.65515164 -0.13537837 -0.00000114
-0.36773820 0.03986343 0.16020259
0.78317589 -0.74676562 -0.00000013
0.73780410 -0.20759870 -0.00000137
-0.29501699 -0.71088122 0.00000000
0.55485633 -0.70295631 0.00000000
0.30654439 -0.33071889 0.00000000
0.11037736 0.55131776 -0.00000003
-0.08978633 0.48218742 0.09309510
-0.69226188 -0.74309636 -0.00000007
0.01769507 0.23448408 0.00000000
0.54922675 0.18699007 -0.00000126
-0.07144160 -0.20904959 0.00000000
-0.16678471 0.35884356 0.00000000
-0.54296758 0.12571126 -0.00000056
0.43544482 0.27295466 0.00000044
0.54378785 -0.16809702 -0.00000061
-0.07801181 0.55025684 0.07011188
-0.03384707 0.43818507 0.13389767
0.32467452 -0.40216283 0.00000000
0.16629583 -0.14609453 0.00000000
-0.34850413 0.06683393 0.15704410
0.45144299 0.32270015 -0.00000070
-0.46921914 0.32967680 -0.00000059
-0.11728840 0.24103786 0.00000000
-0.50873213 0.28350361 0.00316900
-0.42846568 0.23857748 0.05428112
-0.41320884 -0.21228408 0.00000000
-0.70306409 0.04354129 -0.00000083
-0.54579745 -0.28905148 -0.00000020
0.23736245 0.15791248 0.00000605
-0.61082320 0.02606096 -0.00000062
-0.14002200 0.39021216 0.11013594
-0.26582100 0.46445051 -0.00000027
0.02241408 0.18331665 0.00000000
-0.52978176 -0.10161901 -0.00000033
0.78232794 -0.09545001 -0.00000176
-0.18585072 -0.59433371 0.00000000
0.40508357 -0.39305126 0.00000000
0.18584526 0.36257692 -0.00000002
-0.70094735 -0.75160964 -0.00000006
0.74862385 -0.24651741 -0.00000134
0.72362759 -0.26592869 -0.00000120
0.57622321 -0.11367383 -0.00000084
0.53303137 0.08541532 -0.00000101
0.05920927 0.50418825 0.00000354
0.14344560 0.34300753 0.00000469
0.76256294 0.00669150 -0.00000139
-0.11260979 -0.04076245 0.00000000
-0.09036667 0.34377352 0.00000000
0.24057499 -0.22602222 0.00000000
-0.16827017 -0.75831339 0.00000000
-0.27939011 -0.05058813 0.00000000
0.40635315 0.16935679 -0.00000062
-0.09207551 0.28288710 0.17352776
-0.56219853 0.08905027 0.06072920
-0.35207810 -0.32652593 0.00000000
-0.04372714 0.14205770 0.00000000
-0.64654674 -0.66463941 -0.00000009
0.27531815 0.37512172 0.00000181
-0.15862948 0.34567812 0.12072085
-0.49125779 -0.65611677 0.00000000
-0.15640611 -0.54701870 0.00000000
-0.21676558 0.52596651 -0.00000022
-0.11029497 0.57396658 0.04725198
0.20567608 0.48065662 0.00000138
-0.28207095 0.17829692 -0.00000005
-0.16385386 -0.55043944 0.00000000
-0.60832599 -0.49384373 -0.00000015
0.45911482 -0.64911052 0.00000000
-0.42916223 -0.08526009 -0.00000013
0.32054983 -0.73434717 0.00000000
0.33414345 -0.18362229 0.00000000
-0.15997328 0.57644043 -0.00000014
0.30907841 0.43455460 0.00000017
0.42142926 -0.48637314 0.00000000
0.79549421 -0.27848217 -0.00000130
0.11986625 0.50331710 0.00000000
-0.56092231 -0.53436191 -0.00000002
-0.72075229 -0.54534834 -0.00000032
0.56235530 -0.41332796 -0.00000026
-0.78784854 -0.10748751 -0.00000087
0.01248706 -0.06586582 0.00000000
0.38569430 -0.75236951 0.00000000
-0.25700750 -0.64013787 0.00000000
-0.45678008 0.29734490 0.01872845
0.45786616 0.23192460 0.00000070
-0.10504564 -0.65684935 0.00000000
-0.37773921 -0.41160297 0.00000000
-0.52434057 0.17781356 0.03994630
0.56779127 0.15458964 -0.00000012
0.10493555 0.63554659 0.00000073
0.40996177 -0.67741069 0.00000000
-0.41267284 0.38143295 -0.00000051
0.49613742 -0.57180409 0.00000000
-0.28615105 0.40090751 0.04610974
0.55563918 -0.09247125 -0.00000079
-0.18414417 -0.28518901 0.00000000
-0.01311973 -0.63806636 0.00000000
-0.16756339 0.04187488 0.00000000
0.55673923 -0.09019006 -0.00000080
-0.20145006 0.50272185 -0.00000017
-0.41523679 -0.34755089 0.00000000
0.72582531 -0.42136555 -0.00000094
0.10336352 0.48283658 0.00000000
-0.14129325 0.52025311 -0.00000005
-0.20712316 0.33145744 0.10672844
0.64366120 -0.59012948 -0.00000029
-0.31247078 0.30079499 0.07623685
-0.26341577 0.25203944 0.11616974
0.22258361 -0.23458688 0.00000000
0.42324310 -0.27328734 0.00000000
-0.46770847 -0.15161435 -0.00000016
0.01844069 0.47796049 0.00000455
0.40873818 -0.21478792 0.00000000
0.56416180 -0.68681288 0.00000000
0.79079920 -0.77166504 -0.00000007
0.62950346 -0.62402800 -0.00000017
0.41760610 0.11603155 -0.00000057
0.15595668 0.35826899 0.00000000
-0.03916524 0.60928520 0.06187234
-0.22858237 -0.36859870 0.00000000
0.37781203 0.31207427 -0.00000075
-0.31768015 0.25470466 -0.00000020
0.70771638 -0.06557963 -0.00000149
-0.75465247 -0.41030353 -0.00000049
0.16774186 -0.26472183 0.00000000
-0.63442999 -0.61065014 -0.00000011
-0.11417754 -0.59888166 0.00000000
-0.28067674 -0.55740907 0.00000000
-0.23247476 0.08369052 0.00000000
-0.20339878 -0.08630294 0.00000000
-0.76704608 -0.16554277 -0.00000078
-0.78067096 -0.47607033 -0.00000040
-0.35733284 0.27539972 0.06828912
-0.48764424 -0.02129427 -0.00000031
-0.52982700 -0.03751272 -0.00000039
-0.01871589 0.59388957 0.00000000
0.05783384 0.55561215 0.00000000
-0.71487729 -0.29811845 -0.00000055
-0.14029095 -0.73635322 0.00000000
-0.21913032 0.40929155 -0.00000012
-0.24896436 -0.59590232 0.00000000
-0.07312511 0.07326814 0.00000000
-0.39344847 -0.12825606 -0.00000002
-0.03382220 0.28547963 0.00000000
-0.03516176 -0.40000697 0.00000000
-0.42828831 -0.42162201 0.00000000
0.49624653 -0.34211031 -0.00000010
-0.43012465 -0.20725492 -0.00000003
-0.00504076 -0.34970115 0.00000000
-0.00363598 0.57678352 0.00000000
-0.21305691 0.38586338 -0.00000009
-0.06821456 0.56688933 0.06732129
-0.04180993 -0.31739760 0.00000000
0.29356104 -0.18204547 0.00000000
0.01760489 0.48634896 0.00000000
0.11030546 0.20327379 0.00000729
-0.24137139 -0.78072361 0.00000000
-0.45126084 0.21559989 0.05435555
-0.33426277 -0.09304689 0.00000000
-0.32784380 0.38649737 0.03497109
0.72272800 -0.08346351 -0.00000152
-0.39429915 -0.19546275 0.00000000
-0.64228240 -0.06957450 -0.00000060
0.63031932 -0.72186655 0.00000000
0.03730115 -0.59301119 0.00000000
0.32745813 -0.41100823 0.00000000
0.07241958 0.09137237 0.00000954
0.33180756 0.30775308 -0.00000055
-0.33214091 -0.62980863 0.00000000
-0.46478743 0.32813781 0.00288758
-0.06792433 0.08356897 0.26476233
0.61212573 -0.41546166 -0.00000046
0.01438700 -0.07152294 0.00000000
-0.45881839 0.31826968 0.00935338
0.12165856 0.04961196 0.00000000
-0.49376760 0.04193054 0.10790481
0.03548707 0.17010988 0.00000000
0.38359915 0.05364583 0.00000510
0.44317238 -0.60900362 0.00000000
0.22645794 -0.29973359 0.00000000
0.48729491 0.28220138 -0.00000071
0.33149447 -0.76260573 0.00000000
-0.38580127 -0.42948711 0.00000000
0.65355951 -0.74752599 -0.00000005
0.30830385 0.03590761 0.00000681
-0.78980408 -0.46337809 -0.00000042
0.08468781 0.33693447 0.00000567
-0.60248796 -0.01233240 -0.00000057
0.69042021 -0.03573770 -0.00000147
0.50818550 -0.71270734 0.00000000
-0.52445207 -0.77432486 0.00000000
0.47572756 0.03983023 0.00000356
0.78395576 -0.11631349 -0.00000171
-0.26586989 0.52986380 0.00174133
0.74694344 -0.49290906 -0.00000077
-0.31852988 0.18175514 0.12236313
0.65327870 -0.71474763 -0.00000011
0.32173856 -0.07576525 0.00000000
0.21509152 0.39057622 0.00000271
-0.21453770 0.24744665 0.00000000
-0.57348153 -0.52976954 -0.00000005
0.45284382 -0.56998369 0.00000000
-0.55002872 0.23025576 0.00804823
-0.06861568 0.10663529 0.00000000
-0.55936416 -0.05162496 -0.00000044
-0.36682195 0.11256178 0.13089635
0.52347403 0.05773917 0.00000235
0.51090875 -0.65111651 0.00000000
0.56882696 -0.74768140 0.00000000
-0.00001268 0.53959850 0.00000000
-0.47477448 -0.33131213 -0.00000001
-0.07351987 0.50569139 0.00000000
-0.15881359 -0.73867430 0.00000000
-0.50923175 0.24109803 -0.00000059
-0.01994016 0.72514495 0.00000000
0.39345510 0.22981937 -0.00000067
-0.49455464 -0.36372117 -0.00000003
0.70057806 -0.38252738 -0.00000090
0.24002450 0.21679177 0.00000513
0.25043813 0.14119778 0.00000000
-0.49482720 0.21084643 0.03850946
0.57291020 -0.35082576 -0.00000041
-0.04102384 0.60909645 0.06119060
-0.13463289 0.54532040 -0.00000006
-0.12535018 -0.05732332 0.00000000
-0.21648103 0.16899654 0.16923498
0.05737160 0.36632039 0.00000564
-0.21519486 -0.69694873 0.00000000
-0.77885387 0.00235125 -0.00000096
0.24373821 0.36892765 -0.00000028
-0.46694254 -0.79062604 0.00000000
-0.05234239 0.74595543 -0.00000006
-0.41564078 -0.52570162 0.00000000
0.31268761 0.20123015 -0.00000028
-0.14900140 0.30370203 0.00000000
-0.16723227 -0.53172672 0.00000000
0.23234387 0.47752076 0.00000092
-0.10102332 0.20831323 0.20032056
0.40190555 0.33761912 -0.00000090
0.50880089 -0.21872926 -0.00000037
-0.32117446 0.46570022 0.00535807
-0.51331921 -0.36202534 -0.00000007
-0.74655507 -0.30671630 -0.00000061
0.02525073 0.14598085 0.00000000
0.36413414 0.39723325 -0.00000026
-0.04891898 -0.30636944 0.00000000
-0.18129979 0.35376343 0.00000000
0.43935198 -0.33094007 0.00000000
-0.04882798 0.46036437 0.11872649
-0.59684892 -0.45312108 -0.00000017
0.11877404 0.64954887 -0.00000024
-0.65212408 -0.30276719 -0.00000042
-0.65395444 0.13556760 0.00427666
0.39087566 0.22037388 -0.00000064
-0.11034741 0.27855316 0.16783740
-0.15612171 0.47823265 0.06762735
0.15782147 0.10156768 0.00000000
0.27644309 0.42701052 -0.00000052
0.46600049 -0.22076913 -0.00000018
0.40887871 0.25840851 0.00000119
0.24134201 -0.39142357 0.00000000
-0.05430657 -0.33102525 0.00000000
-0.47962022 0.17814162 0.05807029
-0.20637891 0.34951402 0.09966043
-0.20365960 0.54834823 -0.00000021
0.16528596 -0.41325130 0.00000000
0.39306360 -0.57143534 0.00000000
-0.45888146 -0.74816290 0.00000000
-0.31281992 0.09527952 -0.00000004
-0.40715802 0.20880098 0.07513712
0.01548104 -0.48766868 0.00000000
0.44031177 0.11032299 0.00000306
-0.20882406 0.39855126 0.07864190
-0.49854380 -0.39415281 -0.00000001
-0.26677089 0.31220513 -0.00000014
0.18471512 -0.21695672 0.00000000
0.40983672 0.35024225 -0.00000095
-0.56741472 0.19730181 -0.00000068
-0.35872910 -0.66869617 0.00000000
0.46441086 -0.45480591 0.00000000
0.72682098 0.05193754 -0.00000178
0.42409087 0.04587658 -0.00000048
0.65554020 -0.34435020 -0.00000077
0.52162749 0.03570528 0.00000275
0.34952869 0.20089189 -0.00000043
-0.05910023 0.38402746 0.14569835
-0.61686390 -0.73074766 0.00000000
-0.33433816 0.38255659 -0.00000034
-0.15173046 0.59213526 0.02291750
0.22457546 -0.62028910 0.00000000
-0.26216930 -0.16932298 0.00000000
-0.67632637 0.06590732 -0.00000079
-0.18401635 0.53081035 0.03477311
0.22721365 0.44595039 -0.00000034
-0.49571144 0.14494833 -0.00000048
0.02437045 0.37016247 0.00000608
0.27863353 0.31651669 -0.00000033
0.39852421 -0.47983043 0.00000000
-0.07977181 0.68163334 -0.00000007
0.55054473 -0.52026391 -0.00000002
0.39356496 0.11000101 0.00000397
-0.43840281 -0.34674032 0.00000000
-0.02882144 -0.09245215 0.00000000
0.63552784 -0.47828881 -0.00000045
0.04302886 0.72284201 0.00000046
-0.16212496 0.32959416 0.00000000
-0.62340874 -0.04992647 -0.00000058
0.19164589 0.10118404 0.00000759
-0.37872107 0.29011821 -0.00000036
0.61663407 0.10127486 -0.00000140
0.28642883 -0.71150781 0.00000000
0.42562007 -0.03153939 -0.00000035
0.03098494 0.44745729 0.00000482
-0.65580450 -0.06240313 -0.00000064
-0.53706425 0.07525733 -0.00000051
0.20507993 -0.19395214 0.00000000
-0.60732538 -0.12488732 -0.00000048
-0.72130244 -0.78006489 -0.00000002
0.41337764 -0.18661352 -0.00000002
0.37846052 0.39900976 -0.00000057
-0.12348141 0.12559208 0.00000000
-0.35526157 0.37405730 -0.00000038
-0.17408042 0.15320031 0.19299465
0.16106930 0.00398163 0.00000000
-0.16863192 -0.26906795 0.00000000
-0.67850314 0.09841924 0.00942064
0.36277071 -0.34711731 0.00000000
0.56304057 -0.65626255 0.00000000
-0.26022650 0.44246303 -0.00000024
-0.20381424 0.18426872 0.00000000
-0.42404055 -0.26991858 0.00000000
0.56929600 -0.57064026 -0.00000001
0.24227409 -0.49366004 0.00000000
0.10762277 -0.20849417 0.00000000
0.36435494 -0.75260910 0.00000000
0.34450810 0.06096427 0.00000573
-0.73679083 -0.53639926 -0.00000033
-0.51836654 -0.42275594 -0.00000003
0.02830244 0.22897370 0.00000000
-0.16794285 -0.75160162 0.00000000
-0.39538235 -0.35136068 0.00000000
0.68230851 0.06690120 -0.00000162
-0.18602520 0.12944135 0.00000000
0.32118050 0.26928706 0.00000270
-0.26480834 -0.34037038 0.00000000
-0.76562532 -0.76312717 -0.00000005
-0.17436374 -0.02941281 0.00000000
0.64453388 -0.14199582 -0.00000109
-0.30408380 0.36617232 -0.00000027
0.01338120 0.34044294 0.00000669
-0.33602360 0.30790086 -0.00000028
0.04480802 0.25153327 0.00000000
0.31720556 0.26928469 -0.00000042
0.02255939 -0.46870089 0.00000000
-0.49264722 -0.57510627 0.00000000
0.45524867 -0.62459163 0.00000000
0.69076024 -0.17763272 -0.00000122
-0.39042471 -0.52799090 0.00000000
-0.15697281 0.51092786 0.05393150
0.26532925 0.09367813 0.00000000
0.49188498 0.29716158 -0.00000105
-0.17612263 0.47030737 -0.00000008
-0.03489016 -0.48995360 0.00000000
-0.21596536 -0.36990866 0.00000000
-0.18691658 0.12157783 0.20066445
-0.68154971 -0.51104507 -0.00000030
-0.04148991 -0.71573440 0.00000000
-0.13353895 0.38998816 0.11287419
0.43869308 0.03723493 -0.00000052
0.58131811 -0.53771505 -0.00000012
0.03706435 -0.26168804 0.00000000
0.56275028 -0.13482355 -0.00000075
0.60444563 -0.24270643 -0.00000074
0.25030839 0.12747018 0.00000631
-0.15769780 0.18516016 0.00000000
0.07474064 0.44589283 0.00000000
-0.74086501 -0.56167892 -0.00000030
0.54894522 -0.54233616 0.00000000
0.43341722 -0.29463864 0.00000000
0.12092991 0.16525190 0.00000770
0.06222498 0.49475523 0.00000364
0.45913384 -0.15679626 -0.00000027
-0.52959001 0.20735763 0.02574126
0.53407211 0.10049825 -0.00000104
0.02022602 0.37926268 0.00000000
0.07570875 0.31141556 0.00000000
-0.61761856 0.16639875 0.00652412
-0.40690553 -0.32273107 0.00000000
-0.57366050 -0.16404065 -0.00000037
-0.69023202 -0.79907267 -0.00000000
-0.40652717 0.26976652 -0.00000040
-0.72079565 -0.46331094 -0.00000042
-0.28288801 0.17579787 -0.00000005
-0.29977206 -0.44423286 0.00000000
0.47386069 -0.10549832 -0.00000042
0.17786609 -0.74482159 0.00000000
-0.57961898 0.07127834 0.06087266
0.05067782 0.37612698 0.00000000
0.58604886 -0.07246664 -0.00000096
-0.42343024 0.14736552 0.09357575
0.17398969 -0.32790845 0.00000000
0.30049563 0.18652502 -0.00000020
-0.02242885 0.32807079 0.00000000
0.05189929 0.36299235 0.00000000
0.34302780 0.43064249 -0.00000042
0.73458289 -0.50542649 -0.00000074
0.19603596 -0.09469070 0.00000000
0.60836654 -0.58067659 -0.00000016
0.15516301 0.23351895 0.00000000
0.15673426 0.63757144 -0.00000038
-0.08334901 -0.16865180 0.00000000
0.37994494 -0.25484296 0.00000000
-0.43915115 -0.33010021 0.00000000
0.52217263 -0.56492204 0.00000000
0.04581223 0.17524187 0.00000868
0.19159240 -0.68380781 0.00000000
0.04483921 -0.36382302 0.00000000
0.25019610 0.06123668 0.00000000
-0.44558499 -0.77126997 0.00000000
0.24271188 -0.05346233 0.00000000
0.37900385 0.34242764 0.00000036
-0.06226587 0.70261239 0.01433893
-0.53173083 0.22487145 0.01771692
-0.14268299 0.50571441 0.06189407
-0.71543638 -0.09203129 -0.00000074
-0.19717954 0.42917239 -0.00000009
-0.35864223 -0.52189360 0.00000000
0.35781778 -0.62599324 0.00000000
0.12779381 0.02096834 0.00000976
0.42736003 0.06853592 -0.00000053
-0.16443595 0.34591914 0.11825188
0.57277702 -0.18053740 -0.00000071
-0.78242581 -0.64077940 -0.00000020
-0.72209339 -0.38142018 -0.00000050
-0.24271085 0.52407131 -0.00000027
0.46777007 -0.58224365 0.00000000
0.75280907 -0.36452020 -0.00000109
0.09778273 0.29946072 0.00000000
0.25211465 0.48098972 -0.00000051
-0.20130192 0.20291947 0.16158253
-0.01626953 0.64932583 0.00000000
-0.17673974 0.11612362 0.20704604
-0.11018691 -0.45807712 0.00000000
0.56315177 -0.19574593 -0.00000064
0.44307393 -0.10392512 -0.00000029
-0.10184851 0.15138006 0.22322746
0.16843419 -0.47720270 0.00000000
-0.27932428 -0.70833757 0.00000000
0.30918579 0.44562411 -0.00000069
-0.34722973 -0.67447302 0.00000000
0.29074410 -0.08341310 0.00000000
0.44791765 0.17118085 0.00000190
0.30207593 -0.00720383 0.00000000
-0.52547639 0.25935507 0.00619189
0.45664813 -0.07022607 -0.00000041
-0.78850682 -0.35651680 -0.00000055
0.17705249 0.16853265 0.00000000
-0.17454179 -0.14225990 0.00000000
0.73013877 -0.66203320 -0.00000034
0.01268548 -0.20011146 0.00000000
0.14483879 -0.03632957 0.00000000
-0.23861435 -0.31365605 0.00000000
-0.17612584 0.44920496 0.07131134
0.43785192 0.17151912 -0.00000076
0.31535215 0.11376269 -0.00000013
-0.24198204 0.19475281 0.00000000
0.16904325 0.28851778 0.00000000
-0.55914419 -0.48246589 -0.00000006
0.17814025 0.41867922 -0.00000009
0.19129555 -0.57720720 0.00000000
0.26640749 0.26996510 -0.00000020
-0.04430226 0.28784636 0.00000000
-0.28958820 -0.54958239 0.00000000
0.09484762 0.41060606 0.00000441
0.39225985 0.39585495 -0.00000096
-0.70233337 -0.17957132 -0.00000063
0.11390123 0.32964660 0.00000534
-0.49914871 0.22760228 0.02990427
0.08545839 0.00069425 0.00000000
0.21635112 0.13901799 0.00000000
-0.50198142 -0.25129683 -0.00000014
0.15200408 -0.54062241 0.00000000
-0.47896229 -0.31511065 -0.00000004
-0.53453264 0.15975552 -0.00000057
0.02498261 0.38468723 0.00000000
-0.75034946 0.01509445 -0.00000091
0.62677800 -0.75663339 0.00000000
0.30223122 -0.21072207 0.00000000
0.14123705 0.60763573 0.00000050
-0.56664595 -0.40555067 -0.00000014
0.04343439 0.54396141 0.00000319
0.24217449 0.42533044 0.00000161
-0.27298589 -0.35055088 0.00000000
0.17944415 0.12403709 0.00000000
-0.50832357 -0.55220476 0.00000000
0.76844127 -0.77972886 -0.00000005
-0.21844374 0.20323136 0.00000000
0.47704235 -0.34786663 -0.00000001
0.52216272 0.02851851 -0.00000086
-0.09922096 0.24486572 0.00000000
-0.45254322 -0.68575361 0.00000000
-0.50021445 0.13855349 0.06582482
-0.04154576 0.19246849 0.00000000
-0.36890014 -0.02950527 -0.00000005
-0.59855937 -0.50595969 -0.00000012
0.71407126 -0.79527290 -0.00000001
-0.40911620 0.26428490 0.05168542
-0.64732902 0.01364912 0.05675688
-0.68658501 -0.01162316 -0.00000075
-0.63294422 -0.65292130 -0.00000007
0.16933404 -0.55101681 0.00000000
-0.49530433 -0.43720388 0.00000000
0.18031823 0.40506438 0.00000313
-0.09517782 -0.77008219 0.00000000
-0.55390091 -0.11179570 -0.00000038
0.27044331 -0.53609264 0.00000000
0.07952058 0.38843395 0.00000000
-0.23897314 -0.09979663 0.00000000
-0.71875223 -0.06073306 -0.00000077
-0.50217682 0.11463166 0.07479014
-0.75788136 -0.19641635 -0.00000074
-0.56878267 -0.07128872 -0.00000044
0.57166571 0.00902053 -0.00000104
-0.40701323 0.26742517 -0.00000040
0.04581205 0.42837376 0.00000488
-0.22758197 0.15867620 0.00000000
0.30800973 -0.12467839 0.00000000
0.45310766 0.32263808 -0.00000073
-0.56376560 -0.76103605 0.00000000
-0.01782882 -0.49385935 0.00000000
-0.63770647 -0.78873915 0.00000000
-0.40252014 0.30095124 -0.00000042
0.36924255 0.34960763 -0.00000078
0.12751007 0.05078661 0.00000931
0.32437054 -0.42996712 0.00000000
-0.12899987 0.50801545 0.06654097
-0.37476572 0.39281022 0.01323701
-0.07744490 0.55760520 0.06734326
-0.39151697 -0.20854933 0.00000000
-0.19345338 -0.55018630 0.00000000
0.45873585 0.32172988 -0.00000082
-0.20635505 -0.65264022 0.00000000
-0.12256327 -0.50955205 0.00000000
-0.15761146 -0.26546542 0.00000000
-0.52372960 0.12496950 0.06177022
0.52096885 0.03279964 -0.00000087
-0.66357456 -0.29917806 -0.00000044
-0.69289088 -0.58358312 -0.00000026
0.38016320 0.11129513 -0.00000040
-0.62370445 0.12970484 -0.00000074
-0.21061042 -0.58101799 0.00000000
-0.26803598 0.22990236 -0.00000007
-0.29609804 0.15950162 -0.00000007
0.69152367 -0.31492122 -0.00000098
-0.11140113 0.38732339 0.00000000
0.03852705 0.55832794 0.00000000
-0.35263138 -0.18383765 0.00000000
-0.38641352 -0.36148828 0.00000000
0.71201853 -0.38671318 -0.00000094
0.64017229 -0.41569566 -0.00000058
0.28191194 -0.59954500 0.00000000
-0.21077395 -0.62322976 0.00000000
0.14944004 -0.18650214 0.00000000
0.69039296 -0.66278058 -0.00000034
0.61557266 -0.67165731 -0.00000003
0.41511497 -0.64249725 0.00000000
0.26829561 -0.60044043 0.00000000
-0.31192291 -0.17775740 0.00000000
0.41901572 0.16045948 -0.00000066
0.44953747 0.24697287 0.00000060
0.35243452 -0.29171197 0.00000000
0.05677204 -0.51183896 0.00000000
-0.07788592 0.47012062 0.10288006
0.65743336 0.11342106 -0.00000159
-0.32136878 0.46676938 0.00484223
-0.75316815 -0.06979955 -0.00000084
0.31600575 0.12257423 -0.00000015
-0.15322058 0.55581315 0.03713824
0.50223208 -0.77233581 0.00000000
-0.63367884 0.08129473 -0.00000072
0.24796529 0.18690489 0.00000545
0.00283954 -0.61337349 0.00000000
0.10903825 -0.46330093 0.00000000
-0.05218835 -0.16001440 0.00000000
0.25167503 0.39268840 -0.00000035
0.66391710 0.00267375 -0.00000142
-0.02176621 0.67733404 0.00000000
-0.41517338 0.35510450 -0.00000049
0.70694351 -0.45126654 -0.00000081
0.24373942 -0.28418970 0.00000000
-0.49450356 0.14456681 0.06570136
-0.56262695 -0.19377765 -0.00000032
-0.57182506 0.08956281 0.05658973
0.49878065 -0.53476557 0.00000000
-0.38017143 0.38646433 -0.00000045
-0.30264256 0.36131151 -0.00000026
0.19169612 0.03053013 0.00000865
-0.07192482 -0.61782502 0.00000000
-0.54027050 -0.17141169 -0.00000029
-0.36626357 0.07072219 -0.00000014
0.39545045 0.33751839 -0.00000087
0.10379329 0.04813878 0.00000971
-0.01351410 0.65871401 0.05216474
-0.01285791 0.27712457 0.00000000
0.44179476 -0.55304400 0.00000000
-0.69216817 0.07688256 -0.00000084
0.04542418 0.07621719 0.00000000
0.66080632 -0.58242665 -0.00000038
0.22646633 0.49213208 -0.00000042
0.04031928 0.37650030 0.00000000
0.15195076 0.10294758 0.00000816
0.01149885 -0.26359090 0.00000000
-0.72120673 -0.49628544 -0.00000038
0.35853904 -0.69525823 0.00000000
-0.44021896 0.28132098 -0.00000048
0.15865227 -0.63783445 0.00000000
0.41506477 -0.48997332 0.00000000
0.10194338 -0.70001835 0.00000000
0.22470123 -0.02764510 0.00000000
-0.14218657 -0.49238512 0.00000000
-0.29102985 -0.77442067 0.00000000
-0.74257017 -0.54231567 -0.00000032
0.04508526 0.36710647 0.00000581
0.27653110 0.31246910 -0.00000032
-0.23934628 0.01226995 0.00000000
0.10011547 -0.18721998 0.00000000
-0.13599163 0.50286929 -0.00000003
0.33075522 0.39259434 -0.00000069
0.36274351 0.36321350 0.00000033
0.14304044 0.55427908 -0.00000018
0.21134238 0.23389129 0.00000530
-0.03486374 0.55376948 0.08629359
0.06917837 0.01790926 0.00001069
-0.38759384 0.18525658 -0.00000028
-0.10219968 -0.24295471 0.00000000
-0.20476528 0.07728854 0.21145922
-0.04772653 0.50438818 0.00000000
0.21755147 0.45741684 0.00000154
-0.12791520 0.20512837 0.19064185
-0.25220005 -0.58985237 0.00000000
0.26108720 0.13136833 0.00000609
0.26990073 0.29295990 0.00000329
0.34572364 0.17548916 0.00000379
0.30870866 0.06564966 0.00000634
-0.03340994 -0.47133125 0.00000000
-0.29981801 0.12684655 0.15241986
0.22200858 0.15387891 0.00000000
0.61036599 -0.13252528 -0.00000096
-0.63255700 -0.15777631 -0.00000050
0.16883348 -0.04331117 0.00000000
-0.30836259 -0.38655382 0.00000000
0.06821472 -0.63539381 0.00000000
0.53866034 -0.04427718 -0.00000081
-0.11132197 0.58052661 -0.00000004
-0.62670637 -0.79918571 0.00000000
-0.00175585 0.13033998 0.00000000
0.16401701 0.00755606 0.00000941
-0.36709920 -0.72154273 0.00000000
-0.78551400 -0.30678426 -0.00000062
-0.13564723 0.26500135 0.16304113
0.71109569 -0.74606074 -0.00000013
-0.36543628 0.42825347 0.00257563
0.37238128 0.24360195 0.00000214
0.68501043 -0.22621473 -0.00000111
-0.22136132 -0.32103832 0.00000000
-0.73040728 -0.62436559 -0.00000022
-0.31523645 -0.12435243 0.00000000
0.25794514 0.20566283 -0.00000005
0.20529844 -0.67827512 0.00000000
-0.06586135 0.28965719 0.00000000
0.76365091 -0.46112246 -0.00000085
0.62711266 -0.47735213 -0.00000042
-0.23679659 0.52081321 -0.00000026
0.38391098 -0.49956735 0.00000000
0.34298001 0.18752791 -0.00000038
-0.41566462 -0.16457486 -0.00000003
-0.26400477 0.32577950 -0.00000014
-0.47549810 0.08256961 -0.00000038
0.07801129 0.19126710 0.00000795
-0.09056593 -0.70160141 0.00000000
0.10586956 -0.03022233 0.00000000
-0.20108102 -0.33815046 0.00000000
-0.74248679 -0.64169015 -0.00000020
0.72927509 -0.31482889 -0.00000114
0.62371721 -0.77764823 0.00000000
-0.11410720 0.47660262 0.00000000
0.19268709 0.13890939 0.00000701
0.46172058 0.07873905 0.00000318
-0.47846966 -0.48937646 0.00000000
0.39817344 0.33613933 -0.00000088
0.04376445 -0.47577388 0.00000000
0.62685543 0.02045063 -0.00000130
-0.44634099 0.05388686 0.12238624
0.65202494 -0.62168416 -0.00000027
-0.04292851 0.53665618 0.00000000
-0.78151228 0.01290391 -0.00000097
0.17410256 -0.41105190 0.00000000
0.01089295 -0.06007592 0.00000000
-0.68346420 -0.52246043 -0.00000029
0.21392322 -0.70287957 0.00000000
-0.78709654 -0.71844048 -0.00000010
-0.34292199 -0.27569409 0.00000000
0.00265720 0.55066896 0.00000000
0.15164342 -0.33625877 0.00000000
-0.11556574 0.13505618 0.22429168
0.23211806 -0.35903379 0.00000000
-0.25291870 0.27488531 -0.00000008
-0.49946619 0.06295942 -0.00000041
-0.31723736 -0.52220743 0.00000000
0.08083523 0.70308110 0.00000007
-0.62050830 0.13531608 0.01803435
0.44800657 -0.40313847 0.00000000
-0.33657944 -0.19809227 0.00000000
0.53702908 -0.79208519 0.00000000
-0.53057648 0.05434401 0.08780890
0.28721897 -0.54807225 0.00000000
0.50816090 0.09600186 0.00000200
-0.70831303 -0.26249202 -0.00000057
-0.03116095 -0.72027361 0.00000000
-0.43910004 -0.17956814 -0.00000007
-0.12049234 0.29912549 0.15529665
-0.22744036 0.35142287 0.09028241
-0.01763708 0.60131840 0.07391407
0.42851161 0.32268721 -0.00000026
-0.19845602 -0.24907802 0.00000000
0.33307219 -0.37747414 0.00000000
0.30881419 0.19419336 0.00000419
-0.24625159 0.06407289 0.19991734
0.11299875 0.53476114 0.00000226
-0.28142135 0.44973230 0.02810719
-0.62072732 -0.49004159 -0.00000018
-0.74682647 -0.43394242 -0.00000046
-0.24165956 0.21868847 0.13866805
-0.62746147 -0.38347435 -0.00000029
0.27666000 -0.36690773 0.00000000
-0.19094152 -0.38050133 0.00000000
0.53277256 0.07716764 -0.00000100
-0.19419643 0.28211036 0.13215262
0.02275635 -0.18976245 0.00000000
-0.00730027 -0.79483327 0.00000000
0.18096587 -0.23459631 0.00000000
-0.05721219 0.41750476 0.00000000
-0.53943473 -0.15672233 -0.00000031
0.10922251 0.33742751 0.00000000
0.06513837 0.60564953 0.00000193
0.32212217 -0.74915834 0.00000000
0.09329252 0.30159638 0.00000000
-0.41499688 -0.72084511 0.00000000
-0.39262249 -0.31493053 0.00000000
-0.15916759 0.47638725 0.06713723
0.52380258 -0.33252090 -0.00000023
-0.39587322 -0.77327969 0.00000000
0.09595615 0.41405777 0.00000000
-0.21767706 0.14803000 0.17730658
-0.03589253 0.74950671 0.00596095
-0.30361493 -0.14441483 0.00000000
0.24891126 0.39946469 -0.00000035
0.11142498 0.28370493 0.00000606
-0.08770128 -0.11194201 0.00000000
-0.02422519 0.32494850 0.00000000
-0.27902004 -0.61980103 0.00000000
-0.42599656 0.32212071 0.02118125
0.56998093 0.00621556 0.00000231
-0.06330282 -0.71829026 0.00000000
0.23895407 -0.19548100 0.00000000
0.07066166 0.63840429 -0.00000002
-0.47485872 -0.46861807 0.00000000
-0.54389959 -0.22179214 -0.00000026
0.23934725 0.37547587 0.00000249
0.33888550 -0.43137392 0.00000000
-0.55238870 0.12157968 -0.00000058
-0.23192335 0.34632951 -0.00000009
0.28978567 -0.16325322 0.00000000
-0.33553004 -0.24128123 0.00000000
-0.05875793 0.36829539 0.15226095
0.65865921 0.02994754 0.00000021
0.49915143 -0.52109525 0.00000000
-0.31890144 0.12159367 0.14677336
0.66324326 0.07814569 -0.00000068
0.12857706 0.33553401 0.00000503
-0.01354322 0.65580991 0.05333850
-0.23594231 0.23214162 0.13550975
0.39174605 0.11735506 -0.00000047
-0.57372608 -0.26749194 -0.00000028
0.18415031 0.12608596 0.00000733
0.09699466 0.08000857 0.00000934
-0.16257725 -0.78342562 0.00000000
-0.05665819 0.49121201 0.10293570
-0.32139465 0.29730756 0.07401731
0.19606132 0.28994479 0.00000469
0.19810520 -0.17832708 0.00000000
0.51422200 -0.28255501 -0.00000028
-0.18387953 0.19256273 0.00000000
0.30310376 0.26285649 -0.00000034
0.56819891 -0.60811486 0.00000000
-0.75166357 -0.06416448 -0.00000084
0.34233559 0.24986211 0.00000262
-0.22987314 -0.02421874 0.00000000
-0.31805030 0.13541129 0.14147958
0.12873107 0.65790906 -0.00000010
-0.46680905 -0.72745165 0.00000000
0.45415885 0.14786995 -0.00000079
-0.04798771 0.12746583 0.00000000
-0.70664713 -0.65605491 -0.00000018
-0.12161201 0.49297279 0.00000000
-0.36689404 0.28734618 -0.00000033
0.43965116 -0.49063946 0.00000000
-0.57918496 0.17516070 0.01863814
-0.64256262 0.04957256 0.04403650
0.00096232 0.70155274 0.00000146
-0.12356679 0.46887582 0.08473842
-0.69694937 -0.39356083 -0.00000043
0.35243963 -0.63634355 0.00000000
0.44161292 0.30989208 -0.00000029
-0.03636062 0.35637282 0.16627252
0.59498563 -0.63229443 -0.00000001
0.62788198 -0.78658040 0.00000000
0.44909529 0.17682817 -0.00000082
-0.63854260 -0.36686772 -0.00000033
-0.70880781 -0.51769151 -0.00000035
-0.62515427 -0.76503288 0.00000000
-0.78493183 -0.33927769 -0.00000058
0.10502007 -0.60718997 0.00000000
0.08365494 -0.48860481 0.00000000
0.34019193 -0.26889000 0.00000000
0.33566639 -0.20204063 0.00000000
0.12583475 0.56587142 0.00000149
0.51454648 -0.30072264 -0.00000025
0.66418961 0.10361725 -0.00000160
-0.16348281 -0.18649514 0.00000000
-0.30026111 0.43043652 0.02829333
0.76359320 -0.34716639 -0.00000113
-0.27790199 0.47772937 0.01811376
0.20151619 0.52710653 0.00000069
-0.15577956 -0.46602407 0.00000000
0.68435184 -0.41396180 -0.00000077
0.45749108 -0.55121718 0.00000000
0.17596549 0.43343233 0.00000274
0.14395992 -0.78152981 0.00000000
0.27377364 0.31354826 -0.00000031
-0.44299856 -0.73279213 0.00000000
0.39923319 0.26497172 -0.00000076
-0.11612798 0.63378754 -0.00000010
-0.21329465 -0.73280201 0.00000000
-0.07322699 0.24324863 0.00000000
0.51624563 -0.46725933 0.00000000
-0.20986590 -0.79953748 0.00000000
-0.02767915 0.27394332 0.00000000
-0.26200375 0.49318072 0.01829624
0.75301779 -0.05192076 -0.00000171
-0.33286442 -0.23380911 0.00000000
0.26784391 -0.24442859 0.00000000
-0.25978578 0.36943319 -0.00000017
0.09612302 -0.62450925 0.00000000
0.28795641 0.44154049 -0.00000060
0.00441910 -0.65993885 0.00000000
-0.09851766 -0.22753619 0.00000000
0.00393814 0.57560619 0.00000331
0.39036320 -0.10322685 -0.00000007
0.30395273 0.02233808 0.00000000
0.35850036 0.20353600 -0.00000048
0.12542179 0.21244206 0.00000692
0.22360471 -0.06964708 0.00000000
-0.18695530 -0.03778510 0.00000000
0.52181887 -0.54902307 0.00000000
-0.55467027 -0.65867811 0.00000000
-0.45656463 -0.18549836 -0.00000010
0.46602401 0.02240071 0.00000404
0.79300033 -0.67650640 -0.00000031
-0.11504315 0.27304912 0.16816741
-0.38345305 0.12960218 0.11714936
0.73985956 -0.00167575 -0.00000174
0.25592196 -0.68672147 0.00000000
-0.45029126 -0.26421953 -0.00000002
-0.22651630 -0.24780765 0.00000000
-0.47185257 -0.17299224 -0.00000015
0.73596112 -0.18266743 -0.00000140
-0.01126761 -0.61937105 0.00000000
0.10361515 0.06894088 0.00000000
0.20858147 -0.14119456 0.00000000
0.03546980 0.65664562 0.00000000
0.76976385 0.00746605 -0.00000154
-0.04865213 0.66587287 0.03489646
-0.04394897 0.62249241 0.05452728
-0.11784363 -0.55190990 0.00000000
0.72645086 -0.20968892 -0.00000132
-0.02246828 0.75715192 0.00832036
0.50110009 -0.79611001 0.00000000
0.52715378 -0.18132666 -0.00000052
-0.08107057 0.09328225 0.00000000
0.33352016 -0.07942563 0.00000000
0.47634858 0.15373368 0.00000165
-0.12957352 0.27888937 0.00000000
0.06482890 -0.12331572 0.00000000
0.68665682 -0.63941597 -0.00000039
-0.24193048 0.41655245 0.05777630
-0.04819255 -0.04955376 0.00000000
-0.00351068 0.53616691 0.00000000
0.62172109 -0.08803458 -0.00000108
0.39144908 -0.75236331 0.00000000
-0.20844783 0.07134700 0.00000000
0.36829920 0.37492215 -0.00000082
0.59457673 0.19995850 -0.00000148
0.43109280 -0.15676846 -0.00000015
0.03082417 0.45690474 0.00000000
0.10584846 0.54234478 0.00000000
-0.06863260 0.68197823 0.02016384
-0.41734396 -0.55896834 0.00000000
-0.42245541 0.22869580 0.06076928
0.68248068 -0.26514315 -0.00000103
-0.05027803 0.46186086 0.11752352
-0.14473365 -0.42029681 0.00000000
0.67530143 -0.57943182 -0.00000044
0.21107279 -0.13528276 0.00000000
-0.20483426 -0.45456479 0.00000000
0.60086670 0.02098383 0.00000147
0.69826651 -0.67189035 -0.00000032
-0.76957281 -0.54410369 -0.00000032
-0.52538909 0.04729234 0.09280571
0.59125868 0.14172719 -0.00000036
-0.25747668 -0.07008660 0.00000000
0.05915764 0.57721974 0.00000245
0.44121131 0.23805301 -0.00000089
0.22602791 0.18067292 0.00000000
-0.06923611 0.40570802 0.13270884
0.74524273 -0.32044736 -0.00000120
-0.62922053 -0.04530932 -0.00000060
-0.14698552 -0.17105288 0.00000000
-0.20406447 0.51407908 0.03341892
0.05941480 -0.42848466 0.00000000
-0.15728165 0.28642507 0.00000000
-0.05050821 0.53698329 0.08675972
-0.61193026 -0.27570227 -0.00000035
-0.22938109 -0.43116638 0.00000000
-0.33605960 0.31653504 -0.00000029
0.15010565 0.60499715 0.00000037
0.19986915 0.13314501 0.00000699
0.76246871 -0.10300649 -0.00000166
0.02308147 0.68804036 0.00000133
-0.23103113 -0.58580486 0.00000000
0.63085472 -0.57856414 -0.00000026
-0.52944485 0.06055882 0.08573361
-0.59002140 -0.71616295 0.00000000
0.10004955 -0.33592403 0.00000000
-0.11416278 -0.35465969 0.00000000
0.28908262 -0.14525856 0.00000000
0.00175682 0.00172012 0.00000000
0.44842413 -0.42198288 0.00000000
0.27312332 0.50619182 -0.00000034
0.26400874 0.08609224 0.00000672
0.53132042 -0.09198783 -0.00000069
0.05414917 0.45890071 0.00000430
0.44293167 -0.27320955 0.00000000
0.11397335 0.63617276 0.00000055
-0.23306944 0.38231901 -0.00000013
-0.39574212 0.30314385 -0.00000041
-0.33707540 0.18521539 -0.00000018
0.75374785 -0.23120073 -0.00000139
0.45382912 -0.22113910 -0.00000013
-0.27033520 0.42384458 0.04320242
-0.36400608 0.34866366 -0.00000038
0.45249502 -0.54154279 0.00000000
-0.64373932 -0.08212850 -0.00000059
-0.60750620 -0.13043013 -0.00000047
0.29689032 -0.48320872 0.00000000
0.34620211 0.34791906 0.00000090
0.36837516 -0.58559079 0.00000000
-0.68058333 -0.22014861 -0.00000055
0.11622168 0.48806549 0.00000293
-0.17107413 -0.09473669 0.00000000
-0.22406034 -0.01103877 0.00000000
0.03468146 0.69627986 0.00000000
0.33497829 0.39378110 0.00000035
-0.13941801 -0.24640704 0.00000000
-0.70547822 -0.16227118 -0.00000065
0.30629224 -0.77114821 0.00000000
0.64283712 -0.04837855 -0.00000124
0.69387994 -0.26220899 -0.00000108
0.46401576 -0.53456714 0.00000000
-0.53081032 0.04389507 -0.00000046
0.29183734 0.44391980 0.00000034
0.01450645 0.73534374 0.00000075
0.65242888 -0.12882290 -0.00000114
0.67679164 -0.37756162 -0.00000081
0.42435041 -0.25027911 0.00000000
0.36996816 0.32505263 0.00000083
-0.00276974 0.25408807 0.00000000
0.21654742 0.58207739 -0.00000052
0.03451483 0.75369567 0.00000011
-0.44901805 0.29806437 -0.00000051
-0.13900731 0.09436941 0.00000000
0.41350635 -0.24594436 0.00000000
-0.14704853 -0.02508348 0.00000000
0.45205989 -0.05557801 -0.00000042
-0.55235152 0.01550201 -0.00000049
0.54629086 0.10913272 -0.00000111
-0.70138095 0.07949262 -0.00000086
0.25159995 -0.49160907 0.00000000
-0.65254667 -0.38414793 -0.00000035
-0.31170671 -0.69120190 0.00000000
0.13768246 -0.00767454 0.00000000
-0.20148741 0.42976203 0.06889490
-0.39179875 -0.14617615 0.00000000
0.64512478 -0.79015585 0.00000000
-0.10802461 -0.34085620 0.00000000
0.26041067 0.14346662 0.00000000
-0.71515051 -0.51621408 -0.00000035
-0.35433659 0.23166401 0.08736824
-0.07998251 0.06926250 0.26568024
-0.06058583 -0.08334291 0.00000000
0.03210478 -0.26476312 0.00000000
-0.18525877 0.43420874 0.07370510
0.20121260 0.32678297 0.00000404
0.45370077 0.11492393 0.00000273
-0.14463331 0.35428553 0.00000000
-0.16048125 0.40302235 0.00000000
0.01111164 0.56457514 0.00000336
-0.60825707 -0.52248573 -0.00000013
-0.40745932 0.18198259 -0.00000032
0.28074268 -0.41256393 0.00000000
-0.49815821 0.15611851 -0.00000049
0.41163146 -0.13145838 -0.00000011
0.35652358 -0.61776880 0.00000000
-0.31888688 0.47905484 0.00083977
-0.19704889 -0.40020594 0.00000000
-0.51711234 0.13453340 -0.00000052
0.01060235 0.64294410 0.00000000
0.44645910 -0.56810252 0.00000000
0.77353142 -0.54653242 -0.00000063
0.00223805 -0.70475701 0.00000000
-0.69166550 0.04228429 0.02696490
-0.34544685 0.02978841 -0.00000006
0.09857516 0.28846474 0.00000000
0.08196177 0.69352947 0.00000020
-0.15708843 -0.11553159 0.00000000
0.38394531 0.12821511 0.00000385
0.70465638 0.06332295 -0.00000123
-0.27912825 0.20311673 -0.00000007
0.40783080 0.10246633 0.00000382
-0.26007993 0.01335781 0.00000000
0.73295229 -0.21488628 -0.00000133
-0.01292712 0.49965459 0.00000000
0.03527934 0.59739542 0.00000000
0.42375537 -0.62144767 0.00000000
0.51698373 0.08651997 -0.00000095
0.31712537 0.07652625 0.00000600
-0.26337727 0.51697324 0.00802177
0.05140425 -0.76556823 0.00000000
0.57183726 -0.37347134 -0.00000037
0.19234161 -0.77658019 0.00000000
0.62866749 -0.16039129 -0.00000099
0.65406107 -0.36988626 -0.00000072
0.73097605 0.01146922 -0.00000087
-0.33351557 0.21477288 -0.00000019
-0.79748918 -0.38493802 -0.00000052
0.22480505 -0.47187332 0.00000000
-0.39251456 0.04893567 -0.00000017
0.72227800 -0.38871943 -0.00000098
0.19183584 0.18642565 0.00000631
-0.57491612 -0.57830264 -0.00000001
-0.17220542 -0.59461698 0.00000000
0.01867825 -0.26536961 0.00000000
0.68455066 0.04807730 -0.00000159
0.65283521 -0.75767892 -0.00000003
0.19564556 -0.60430361 0.00000000
-0.33894373 0.18663773 -0.00000018
-0.20551982 0.23569167 0.00000000
0.10927656 0.62255588 0.00000087
-0.49584796 0.17023330 0.05467371
-0.44339396 0.27220660 0.03445671
-0.37218193 -0.65068667 0.00000000
0.43280485 0.16519310 -0.00000072
0.14015213 0.45162546 0.00000311
0.12687081 0.37927724 0.00000000
0.05971371 0.67751413 -0.00000004
0.35447724 -0.55332951 0.00000000
-0.60185144 -0.28807623 -0.00000032
0.62945063 -0.57626713 -0.00000025
0.25015561 0.23693343 -0.00000007
0.68194045 -0.02376319 -0.00000145
-0.16250562 0.61539512 -0.00000018
-0.58631159 0.03772277 0.07183990
-0.00775823 0.63315540 0.00000000
0.08804993 0.55053134 0.00000000
-0.08008095 -0.77486010 0.00000000
0.59667075 0.13237060 -0.00000137
0.44287148 0.19991931 -0.00000083
0.12787178 -0.45182949 0.00000000
0.04601258 0.50901780 0.00000367
-0.17316293 -0.07379630 0.00000000
0.70357904 -0.26022572 -0.00000113
-0.01785851 0.63539556 0.00000000
0.06875586 0.09116324 0.00000960
-0.56032628 0.10478593 0.05506923
0.40217900 -0.26157711 0.00000000
0.58935522 -0.33264393 -0.00000051
0.02017992 0.45748675 0.00000000
-0.51846574 -0.55609765 0.00000000
-0.30493536 -0.58604968 0.00000000
0.76883792 -0.19770646 -0.00000151
-0.66086986 -0.47871398 -0.00000028
0.29148193 -0.59351773 0.00000000
-0.44106136 0.18934139 0.06924016
-0.19726867 0.12908440 0.19337340
0.52019156 -0.36261496 -0.00000016
-0.21005983 -0.19942227 0.00000000
-0.28952732 -0.13346469 0.00000000
-0.56475492 0.05340458 -0.00000055
0.12797663 0.15621409 0.00000773
-0.18871774 0.52013193 0.03721333
0.39541963 -0.52192737 0.00000000
0.79840441 -0.03639575 -0.00000191
-0.16299789 0.17574053 0.00000000
0.55300125 -0.07174506 -0.00000082
0.08149881 0.19649501 0.00000782
0.12067898 0.09051148 0.00000882
0.45643750 -0.17404406 -0.00000023
0.74824617 -0.49293491 -0.00000077
-0.19262765 0.09378008 0.00000000
-0.76486043 -0.38334663 -0.00000052
0.58024776 -0.27972575 -0.00000057
-0.67710549 -0.46751744 -0.00000032
-0.20412787 0.11668032 0.00000000
0.27927771 0.04941877 0.00000000
-0.01503774 -0.08190136 0.00000000
0.34624229 0.41958361 -0.00000029
0.02137696 0.40618144 0.00000558
-0.60305724 -0.02899406 -0.00000055
-0.07918235 0.15270197 0.23194154
-0.04113575 -0.38034131 0.00000000
0.10640136 0.24326230 0.00000675
0.52830145 -0.74606827 0.00000000
0.21244175 0.47047201 0.00000142
-0.00117218 -0.41509909 0.00000000
0.68514441 -0.31231697 -0.00000096
0.69709403 -0.07453517 -0.00000143
-0.19158299 0.18614601 0.00000000
0.05706841 0.52752991 0.00000323
0.51441840 -0.07216848 -0.00000065
-0.19967556 -0.39889135 0.00000000
-0.46423404 0.02961121 0.12499202
0.06412660 0.07559766 0.00000990
0.21943124 -0.76630161 0.00000000
0.42485343 -0.21051188 -0.00000003
0.61321481 0.12902671 -0.00000057
0.70833143 0.06576991 -0.00000173
-0.16835423 -0.70571504 0.00000000
-0.15894270 -0.65215279 0.00000000
0.40614507 -0.47757687 0.00000000
0.33746768 -0.62632650 0.00000000
-0.16042781 0.26026998 0.00000000
0.55432009 0.08849782 0.00000124
0.63637226 0.04577728 -0.00000138
-0.01437816 -0.05978907 0.00000000
0.26670065 -0.05793699 0.00000000
0.53658103 0.26258407 -0.00000133
0.06594103 0.09047154 0.00000965
0.72194378 -0.23636197 -0.00000125
0.71075165 0.02517646 -0.00000071
-0.33521734 -0.22099964 0.00000000
0.57121790 -0.28609792 -0.00000052
-0.68121766 -0.78771667 -0.00000002
-0.37237150 0.11759209 -0.00000019
-0.74921079 -0.67506603 -0.00000016
0.30468528 -0.69785767 0.00000000
0.43826600 0.04200209 0.00000425
0.11388988 -0.70953798 0.00000000
-0.30178388 0.07788226 0.17160765
-0.18586357 0.23579341 0.15446418
0.59082323 -0.48477717 -0.00000025
0.25749596 0.23079211 -0.00000009
0.42892000 0.03836936 0.00000449
-0.60312684 -0.17824415 -0.00000042
0.27004083 0.12576518 0.00000604
-0.10898127 0.42663450 0.10793880
0.34895598 0.31580745 0.00000139
-0.38321369 -0.46354187 0.00000000
0.28876215 -0.29394113 0.00000000
-0.60002127 0.04661801 0.06261105
0.37729401 -0.77444477 0.00000000
-0.06498929 0.64531300 -0.00000000
0.77082935 -0.14952560 -0.00000161
