ply
format ascii 1.0
element vertex 1408
property float x
property float y
property float z
end_header
0.53338387 -0.34635513 0.00000000
0.46548172 0.55000609 0.09521224
-0.09512472 -0.55185417 0.00000000
0.49144970 -0.62253046 0.00000000
-0.28481002 -0.47345446 0.00000000
-0.59644744 -0.60900267 0.00000000
-0.24462340 -0.55675343 0.00000000
-0.22989791 0.78010761 0.00000000
-0.50921891 0.64064085 0.00000000
-0.11663366 0.68301430 0.00000000
-0.58087898 0.55215702 0.00000000
0.35194227 0.49494521 0.02071700
0.67468803 -0.02858150 0.00000000
0.28040281 0.46123996 0.00000000
0.31982694 -0.03259820 0.00000000
-0.07170658 0.69089051 0.00000000
0.75641675 -0.73343431 0.00000000
0.63490108 -0.68579879 0.00000000
-0.00709466 -0.27193677 0.00000000
-0.17003610 0.05904750 0.00000000
0.07728067 -0.79796453 0.00000000
0.09153863 -0.05957218 0.00000000
0.15995222 -0.10486960 0.00000000
-0.51749247 0.20254913 0.00000000
0.00271214 -0.70723216 0.00000000
-0.49541604 -0.74602677 0.00000000
0.42991413 0.68927875 0.14103400
-0.63793766 0.16858819 0.00000000
-0.42186735 -0.58215669 0.00000000
-0.66839161 0.27896130 0.00000000
0.00527482 0.22087816 0.00000000
0.04578904 -0.32534809 0.00000000
0.09390612 -0.08808817 0.00000000
-0.76684670 0.10516699 0.00000000
0.28578863 -0.19094673 0.00000000
-0.13048805 -0.17453534 0.00000000
-0.73957565 0.20916244 0.00000000
0.01336304 0.12244881 0.00000000
-0.71172759 -0.64856669 0.00000000
0.37282164 0.45476890 0.01219074
0.41611505 -0.06236226 0.00000000
-0.59246800 -0.59714728 0.00000000
-0.75847298 0.19693984 0.00000000
-0.49526829 0.74889356 0.00000000
0.04290283 -0.25451124 0.00000000
0.04740735 0.13883474 0.00000000
0.23116311 0.57585061 0.00309897
-0.50450467 -0.05710953 0.00000000
0.12585230 0.00651950 0.00000000
0.26707524 0.76971885 0.10462650
-0.44586037 -0.78338247 0.00000000
-0.17082632 0.32512509 0.00000000
-0.34947445 -0.52507241 0.00000000
-0.61714009 0.60361329 0.00000000
-0.47201171 0.04817556 0.00000000
0.57288846 -0.36021162 0.00000000
0.78756358 -0.73839458 0.00000000
0.12070504 -0.27130017 0.00000000
0.43448230 0.39086654 0.01120026
0.51493077 0.54610757 0.11533852
0.20395058 -0.44388611 0.00000000
0.30144805 0.21714143 0.00000000
0.71208841 0.73027459 0.28382549
-0.73959431 0.58204084 0.00000000
-0.74636510 0.67179906 0.00000000
-0.71256996 -0.50475906 0.00000000
0.70293460 -0.33383611 0.00000000
-0.29871825 -0.35490002 0.00000000
0.69144474 0.74031323 0.27913971
0.02031143 0.71796273 0.00000000
-0.68791632 -0.60713276 0.00000000
0.02408725 -0.65653175 0.00000000
-0.45084894 -0.48515975 0.00000000
0.05279412 0.00754691 0.00000000
-0.26118051 0.35773031 0.00000000
-0.37379815 -0.76148836 0.00000000
-0.72568464 -0.67476642 0.00000000
-0.11431896 -0.44816371 0.00000000
-0.48058984 0.03063962 0.00000000
-0.37910232 0.19010225 0.00000000
-0.49587448 0.73332513 0.00000000
-0.01956786 0.51023753 0.00000000
0.02778136 0.46910535 0.00000000
-0.11786835 -0.04932653 0.00000000
0.32929515 -0.28030292 0.00000000
0.20559426 -0.72956807 0.00000000
0.61290756 -0.31203886 0.00000000
-0.38266377 0.61135661 0.00000000
-0.69282111 -0.65155442 0.00000000
0.05544822 0.65276770 0.00000000
0.50491818 -0.73114069 0.00000000
-0.31611308 0.17382611 0.00000000
-0.76101088 0.57937592 0.00000000
-0.13380249 -0.12135584 0.00000000
-0.01694699 -0.28754840 0.00000000
0.43916401 0.45482022 0.04152647
0.03155329 -0.77029497 0.00000000
0.10188147 -0.60679754 0.00000000
-0.21352872 0.23776316 0.00000000
-0.34297022 -0.48909148 0.00000000
-0.24439984 0.00930269 0.00000000
0.72344593 -0.75755416 0.00000000
-0.29898190 0.23805210 0.00000000
0.53514275 -0.13071452 0.00000000
0.20722828 0.61586276 0.01020266
0.69113819 -0.52192276 0.00000000
-0.30965718 -0.01423622 0.00000000
0.69053006 0.69379571 0.25818193
0.28451137 0.54187844 0.01166021
0.79800088 -0.61866797 0.00000000
-0.69844682 0.19954624 0.00000000
-0.78014626 -0.09202584 0.00000000
0.07855521 0.02591625 0.00000000
0.38499748 -0.36856766 0.00000000
-0.25106255 0.28280991 0.00000000
0.31718671 0.27521698 0.00000000
0.06088218 -0.49945059 0.00000000
0.32948418 0.69766392 0.10036439
-0.79110460 0.63436566 0.00000000
-0.71640666 -0.36440041 0.00000000
0.06858618 -0.40109820 0.00000000
-0.55420006 -0.69748632 0.00000000
-0.69885118 0.02032183 0.00000000
0.50351507 0.45653352 0.07071669
0.64763899 -0.07164805 0.00000000
-0.44800958 0.24720063 0.00000000
-0.38660396 0.14576510 0.00000000
0.08268974 -0.55980567 0.00000000
-0.71471456 -0.36245075 0.00000000
0.62164823 -0.74563534 0.00000000
-0.69790710 -0.79143579 0.00000000
-0.12830261 -0.38114671 0.00000000
-0.65257267 0.39777636 0.00000000
-0.02854535 -0.47068159 0.00000000
0.21832916 0.41353065 0.00000000
0.33423591 -0.41326081 0.00000000
-0.10178071 0.11698237 0.00000000
-0.67394442 0.64900433 0.00000000
-0.32220527 0.75206049 0.00000000
0.57100861 0.06169589 0.00000000
0.60069373 0.13057628 0.00000000
0.29260264 -0.49797992 0.00000000
0.64061074 -0.63707504 0.00000000
0.48107012 -0.38477744 0.00000000
-0.06686997 0.03626977 0.00000000
0.74901123 -0.77044486 0.00000000
0.09062176 -0.30063404 0.00000000
0.13095990 -0.76271162 0.00000000
0.26871177 -0.35342409 0.00000000
0.71515820 0.25435819 0.07489999
-0.21710816 -0.62116001 0.00000000
0.39000249 0.12582252 0.00000000
0.72856430 -0.78264854 0.00000000
0.30655213 0.38328133 0.00000000
-0.13421435 0.51531478 0.00000000
-0.31866467 -0.52972150 0.00000000
0.47631795 -0.20362891 0.00000000
0.58995692 0.34179058 0.05821199
0.52996804 0.58685311 0.13998597
-0.41244397 0.39439490 0.00000000
-0.49196326 0.03481486 0.00000000
-0.60277889 -0.23232724 0.00000000
-0.77849739 -0.50332779 0.00000000
0.43321701 0.32109391 0.00000000
0.03787314 0.10969566 0.00000000
0.45856224 -0.03049903 0.00000000
0.26488901 -0.40823458 0.00000000
0.15726218 0.44923166 0.00000000
-0.42597389 -0.67898934 0.00000000
0.74941691 0.41477215 0.16091517
0.22526233 0.48004113 0.00000000
0.67536094 -0.71355608 0.00000000
-0.51091666 0.04367273 0.00000000
-0.73763282 0.27107360 0.00000000
-0.38480484 -0.03229957 0.00000000
0.60848386 0.13398258 0.00000000
-0.12506150 -0.17175386 0.00000000
0.71117594 0.11254191 0.01047961
-0.42862865 0.33674103 0.00000000
0.36188901 0.17942381 0.00000000
0.20240568 0.72358007 0.05566623
-0.75450374 0.27552776 0.00000000
-0.17359889 -0.36806737 0.00000000
0.55560634 -0.53054832 0.00000000
0.34156909 0.51894377 0.02673731
-0.79926156 0.34088259 0.00000000
-0.01685353 0.72598131 0.00000000
0.67541258 0.61719302 0.21765566
0.64392951 -0.25941265 0.00000000
-0.63986032 -0.38336457 0.00000000
0.56171996 -0.67480218 0.00000000
0.18363746 0.51822963 0.00000000
-0.08115241 -0.02759282 0.00000000
-0.79578580 0.33805680 0.00000000
0.25296200 -0.03318357 0.00000000
0.24098058 0.34560228 0.00000000
-0.00703862 -0.76847618 0.00000000
0.73553275 -0.71767654 0.00000000
-0.20262437 -0.69458764 0.00000000
0.55308513 -0.56835156 0.00000000
0.65717868 0.45844494 0.13945676
-0.54124075 -0.42528089 0.00000000
-0.00922363 0.22287945 0.00000000
-0.21860663 -0.10189083 0.00000000
0.55472472 0.13473826 0.00000000
0.05904642 0.71067847 0.00000000
-0.62742496 0.12110587 0.00000000
0.08959463 0.59539872 0.00000000
0.32472597 -0.70161196 0.00000000
-0.15169802 -0.43051594 0.00000000
-0.72623040 0.54093671 0.00000000
-0.09332538 -0.34443117 0.00000000
0.26793267 0.03874611 0.00000000
-0.41348800 0.77234994 0.00000000
-0.50752031 -0.03158223 0.00000000
-0.19913562 0.79078222 0.00000000
-0.04440657 -0.62722282 0.00000000
0.55845900 0.04090214 0.00000000
0.06111313 -0.19452656 0.00000000
0.40484953 0.50100532 0.04677145
0.61505324 0.69265270 0.22432776
-0.13441438 -0.68776609 0.00000000
0.67140877 0.30233345 0.07676715
-0.23784085 -0.43777694 0.00000000
-0.22753644 0.60878878 0.00000000
0.12112418 -0.06878871 0.00000000
-0.11321955 -0.70618245 0.00000000
0.01393971 0.25110309 0.00000000
-0.70161300 0.59646124 0.00000000
0.16320041 -0.34365120 0.00000000
0.40690874 -0.74099306 0.00000000
-0.07084974 -0.38649643 0.00000000
-0.71925494 -0.64815369 0.00000000
0.60943463 0.71043697 0.22970313
-0.51903593 0.18011334 0.00000000
-0.51230090 -0.50830040 0.00000000
-0.45502017 -0.32078491 0.00000000
-0.53848424 -0.49420617 0.00000000
-0.71729186 0.40756976 0.00000000
-0.13699426 0.74477860 0.00000000
-0.01542845 -0.22016807 0.00000000
-0.50397663 -0.57526218 0.00000000
-0.48031372 -0.59563665 0.00000000
-0.24956589 -0.40202072 0.00000000
-0.62510669 -0.49289168 0.00000000
0.64464291 0.04488453 0.00000000
0.11722553 -0.69667187 0.00000000
-0.26692651 0.39199087 0.00000000
-0.01400239 -0.19419994 0.00000000
-0.75399834 0.52918362 0.00000000
0.65958589 -0.38255069 0.00000000
-0.11853469 0.33339362 0.00000000
-0.65476829 -0.72290461 0.00000000
-0.46144698 0.42961136 0.00000000
-0.41772373 -0.14487767 0.00000000
0.65472810 0.64254077 0.21971613
0.21441633 -0.54457502 0.00000000
-0.38392660 0.46196258 0.00000000
0.21454983 -0.43946434 0.00000000
0.00307630 -0.68975660 0.00000000
-0.67549326 0.25418655 0.00000000
-0.71349279 -0.61406425 0.00000000
0.12814241 -0.23335184 0.00000000
-0.74758062 -0.20864038 0.00000000
0.01217340 -0.11440542 0.00000000
0.64231408 0.56546801 0.18017668
0.51885055 0.42714057 0.06450546
-0.49260526 0.52405475 0.00000000
-0.36280948 0.36281121 0.00000000
-0.28160708 0.59972247 0.00000000
-0.22621317 -0.71094021 0.00000000
0.47179562 -0.36819998 0.00000000
0.37385788 0.19756859 0.00000000
-0.45020130 0.07388914 0.00000000
-0.23517192 -0.56561155 0.00000000
0.61172248 -0.36597405 0.00000000
-0.53161509 -0.04687723 0.00000000
0.15085233 -0.56252798 0.00000000
-0.37214058 -0.23879065 0.00000000
-0.46695076 0.28177007 0.00000000
-0.19358607 -0.73004024 0.00000000
0.61068759 -0.71693668 0.00000000
0.07994858 0.08325389 0.00000000
-0.14898801 -0.26873663 0.00000000
-0.68811463 0.07380536 0.00000000
-0.35895297 0.76414907 0.00000000
0.76001155 0.28795309 0.10956197
-0.23893035 0.60515865 0.00000000
-0.56627595 0.12530682 0.00000000
-0.55295099 -0.65849119 0.00000000
0.66016987 0.25877196 0.05255387
0.48709198 0.29073617 0.00000000
-0.37046045 -0.05684076 0.00000000
-0.46746226 -0.12486696 0.00000000
-0.18475500 -0.40509639 0.00000000
0.36313382 -0.68825194 0.00000000
0.24117473 -0.15792148 0.00000000
-0.18026189 0.02979334 0.00000000
0.67342583 0.21559353 0.03933277
0.18053184 -0.25813973 0.00000000
-0.13958651 0.36404090 0.00000000
0.34805160 -0.67727427 0.00000000
0.23229186 -0.58054134 0.00000000
0.31134683 0.72888943 0.10614737
0.11560903 0.71556466 0.01377394
0.60562872 0.36383533 0.07487686
-0.03651366 -0.23323074 0.00000000
0.72922754 0.13238301 0.02722232
-0.37611950 0.64696053 0.00000000
0.70051990 0.07844857 0.00000000
-0.09828531 0.43241895 0.00000000
0.67241598 0.17684875 0.02176738
-0.72130182 0.54814019 0.00000000
-0.75688432 0.49989159 0.00000000
0.48059338 -0.67127130 0.00000000
0.61288776 -0.73353977 0.00000000
-0.22717302 0.11728947 0.00000000
-0.04538466 0.39781697 0.00000000
-0.72625945 0.77874067 0.00000000
-0.63070023 0.47081632 0.00000000
0.74947931 0.11820508 0.02990601
-0.63052624 -0.11140509 0.00000000
-0.74972229 -0.09488139 0.00000000
0.17721946 0.16662386 0.00000000
-0.34301118 -0.26561032 0.00000000
0.70400623 -0.79915461 0.00000000
0.61653841 0.06185634 0.00000000
-0.62052313 -0.74494793 0.00000000
-0.37241968 -0.00978491 0.00000000
0.36838101 -0.73139385 0.00000000
-0.59561224 -0.60496013 0.00000000
0.01906071 0.27666372 0.00000000
0.51511759 0.55094987 0.11756061
-0.06524814 -0.22292260 0.00000000
-0.61355584 0.61625263 0.00000000
-0.28464575 0.43943250 0.00000000
0.41860285 0.74061769 0.15872012
0.72226807 -0.31335989 0.00000000
-0.44569870 0.03698974 0.00000000
-0.41486261 -0.35170263 0.00000000
0.74174866 0.27808235 0.09713126
-0.32718939 0.49251712 0.00000000
0.15673242 0.71380828 0.03116806
-0.09676585 -0.56074698 0.00000000
-0.53151466 0.57751065 0.00000000
0.35932782 0.65174038 0.09325951
-0.63788125 -0.66428417 0.00000000
0.54080072 -0.51833182 0.00000000
-0.45808786 -0.17717757 0.00000000
-0.28636267 -0.52534039 0.00000000
-0.64622248 -0.75576633 0.00000000
-0.77838399 0.02365347 0.00000000
-0.07361119 -0.43863267 0.00000000
0.61645080 0.57768642 0.17414776
-0.67370244 0.16963542 0.00000000
-0.68733673 0.37098125 0.00000000
-0.52678083 0.65394505 0.00000000
0.40741125 0.21787331 0.00000000
0.64783714 0.15085831 0.00000000
0.39354638 -0.46747875 0.00000000
-0.59492430 -0.46505104 0.00000000
0.56841337 0.65584603 0.18745720
0.41111204 0.66340378 0.12129360
0.50458182 -0.28047399 0.00000000
0.10934739 0.01130760 0.00000000
-0.63139637 -0.05204790 0.00000000
0.23855146 -0.37582739 0.00000000
-0.57798437 -0.06071552 0.00000000
0.55338742 0.37241546 0.05558539
-0.56173455 0.01344360 0.00000000
0.22555151 0.20294695 0.00000000
0.37556620 -0.15525945 0.00000000
0.65728783 -0.35503804 0.00000000
0.11744264 -0.46739787 0.00000000
-0.71447390 -0.44372595 0.00000000
-0.59274416 -0.01227262 0.00000000
0.37175566 0.45977827 0.01393311
-0.62588880 -0.63067018 0.00000000
-0.16880423 0.39108309 0.00000000
0.65115163 0.40003805 0.11098694
-0.79892370 0.53273623 0.00000000
0.58782891 -0.03408354 0.00000000
0.24455692 -0.67941616 0.00000000
0.32340108 0.02187889 0.00000000
-0.78008997 -0.37207356 0.00000000
-0.74005902 -0.41283967 0.00000000
0.15874026 -0.29598649 0.00000000
-0.49066715 -0.20247413 0.00000000
-0.38329799 -0.13321350 0.00000000
0.29870815 0.73388811 0.10277167
0.01262379 0.75986656 0.00000000
0.72056797 -0.64451715 0.00000000
0.31354045 -0.11655363 0.00000000
-0.58986972 0.41808386 0.00000000
0.55509204 0.25504845 0.00448052
0.51239774 0.71498835 0.18883878
-0.07201610 -0.51878791 0.00000000
-0.75211968 -0.40342839 0.00000000
0.50914905 -0.07050844 0.00000000
0.48223112 0.00815264 0.00000000
-0.42752693 -0.08226984 0.00000000
-0.75314153 -0.18506298 0.00000000
-0.59313041 -0.62564204 0.00000000
-0.50432889 -0.66369407 0.00000000
0.10497685 0.76469619 0.03078472
-0.73198829 0.21491981 0.00000000
0.29177305 -0.10723844 0.00000000
-0.58206227 -0.34871744 0.00000000
-0.18264746 -0.77258810 0.00000000
-0.66586564 0.04010220 0.00000000
0.23062404 0.48004409 0.00000000
0.66962928 -0.40286809 0.00000000
0.39488028 0.11763185 0.00000000
-0.48035687 -0.52693184 0.00000000
0.55494188 0.06987667 0.00000000
-0.33987259 -0.77044943 0.00000000
0.45995373 0.30741700 0.00000000
-0.40912018 -0.66903913 0.00000000
-0.73412574 -0.75423786 0.00000000
0.72049827 0.13286343 0.02357760
-0.51493984 -0.61207141 0.00000000
0.01873810 0.79824504 0.00750392
0.39410154 -0.77042558 0.00000000
-0.34888910 -0.42807542 0.00000000
-0.54680904 0.22344283 0.00000000
0.67419159 0.65341486 0.23312069
-0.66605746 -0.39107373 0.00000000
0.38996152 -0.02610480 0.00000000
-0.62196967 -0.35659013 0.00000000
-0.46456814 0.61465032 0.00000000
0.68666965 -0.75775632 0.00000000
0.41578031 -0.15672595 0.00000000
0.67870087 0.55069837 0.18972812
-0.39562674 0.48513082 0.00000000
-0.25550318 -0.77900123 0.00000000
0.08113708 0.00374856 0.00000000
-0.68467315 -0.02723074 0.00000000
0.45898907 -0.63932028 0.00000000
0.70051819 0.16574048 0.02927607
-0.00032459 -0.12761354 0.00000000
-0.65938691 0.24490980 0.00000000
-0.73786623 0.37236805 0.00000000
0.70263272 0.43069860 0.14728082
0.58725587 0.69444523 0.21283763
0.16718306 -0.03543571 0.00000000
-0.41292339 -0.16115533 0.00000000
0.24015605 0.22763169 0.00000000
0.23516982 0.73817207 0.07659037
-0.01229553 -0.07703925 0.00000000
0.30372741 -0.77374564 0.00000000
-0.46225701 -0.24738855 0.00000000
0.52948699 0.60747456 0.14888494
0.23536714 -0.40975486 0.00000000
0.74775014 -0.42635773 0.00000000
-0.33998685 -0.57740474 0.00000000
0.32083739 0.40772441 0.00000000
0.69745266 0.24224856 0.06172630
-0.66318479 -0.57225208 0.00000000
0.52002475 -0.78936960 0.00000000
-0.55776284 0.62311901 0.00000000
0.53213927 -0.67115833 0.00000000
0.27501954 -0.74872998 0.00000000
0.12516826 0.16765883 0.00000000
0.22799224 0.59796050 0.01146709
0.77061657 0.04867823 0.00852531
0.33641051 0.04108243 0.00000000
-0.07435910 0.03787221 0.00000000
0.65641523 -0.20619831 0.00000000
-0.47508561 -0.69230487 0.00000000
-0.74913231 -0.30926453 0.00000000
-0.43409465 -0.65688780 0.00000000
-0.25141921 -0.45530149 0.00000000
0.74598230 0.17910291 0.05526829
-0.64173251 0.06020171 0.00000000
-0.76590175 -0.30145358 0.00000000
0.46993962 -0.54562967 0.00000000
-0.64520620 -0.15356073 0.00000000
-0.59501260 -0.13711765 0.00000000
-0.55323070 -0.05586310 0.00000000
-0.04799397 0.04432113 0.00000000
-0.47195095 -0.58441401 0.00000000
-0.11097028 -0.07358873 0.00000000
-0.33717099 0.39306664 0.00000000
0.43575353 -0.40709146 0.00000000
-0.05077312 0.12824305 0.00000000
-0.52263956 -0.09165729 0.00000000
0.15133102 -0.13218506 0.00000000
-0.51768292 0.12775754 0.00000000
0.63905060 0.61580817 0.20097737
0.42193885 0.62306511 0.10825386
-0.37686773 -0.42476728 0.00000000
0.24544809 0.17845619 0.00000000
0.36984420 -0.63013880 0.00000000
0.16337536 0.00108622 0.00000000
-0.39198129 0.61748782 0.00000000
0.02880357 0.56524462 0.00000000
-0.30482966 -0.04014178 0.00000000
-0.65772381 -0.61320700 0.00000000
-0.17412311 0.54631173 0.00000000
-0.76372741 -0.16773358 0.00000000
-0.70902983 0.48716021 0.00000000
-0.09105472 -0.55044982 0.00000000
0.29553826 0.73976586 0.10396813
-0.21119117 -0.62755703 0.00000000
0.53581490 -0.50755937 0.00000000
-0.29884385 -0.75933438 0.00000000
-0.09539330 -0.60804103 0.00000000
-0.71111463 0.72727149 0.00000000
-0.24331830 0.30545383 0.00000000
0.52411948 -0.52846621 0.00000000
-0.51688280 -0.26979936 0.00000000
-0.15784022 -0.20549080 0.00000000
-0.51135595 -0.08225685 0.00000000
0.38628269 -0.77095203 0.00000000
0.31639699 -0.13127003 0.00000000
0.72040542 0.48011098 0.17696628
-0.18097037 -0.27342780 0.00000000
-0.78888141 0.56375140 0.00000000
0.32870901 0.71620124 0.10821254
0.43368109 0.54317749 0.07814410
0.49016514 0.62193371 0.13789947
-0.24637265 0.66342490 0.00000000
0.13482111 0.51599816 0.00000000
0.67546890 0.35817195 0.10323307
-0.72766428 -0.15879432 0.00000000
0.54591965 0.03020656 0.00000000
0.72015500 0.04219702 0.00000000
0.21571937 0.00440633 0.00000000
0.45322163 0.59707491 0.11059234
0.33333048 -0.13882752 0.00000000
0.57082009 0.29455062 0.02888372
-0.17824403 -0.61781737 0.00000000
-0.27101287 0.07242923 0.00000000
0.19717652 -0.24637146 0.00000000
0.14944257 -0.23302174 0.00000000
-0.17912729 -0.11478503 0.00000000
-0.29811817 -0.47468140 0.00000000
-0.00226082 -0.00000081 0.00000000
0.45317970 -0.46589722 0.00000000
-0.39075219 0.78549953 0.00000000
0.61408871 -0.08994472 0.00000000
-0.06191236 0.54914259 0.00000000
0.44732445 -0.70168916 0.00000000
-0.33580008 0.69902068 0.00000000
0.06698024 0.38377564 0.00000000
0.03356395 -0.11756994 0.00000000
0.32198076 0.48321910 0.00229753
-0.74689638 0.20419827 0.00000000
-0.67316492 -0.20495022 0.00000000
-0.64213159 0.64868160 0.00000000
-0.59132226 -0.27050407 0.00000000
-0.79782222 0.35908042 0.00000000
-0.43640174 -0.71341354 0.00000000
-0.07551810 -0.03795963 0.00000000
0.05188383 0.66543035 0.00000000
-0.05010394 0.09159313 0.00000000
-0.21225321 -0.14493054 0.00000000
0.22172258 0.12380623 0.00000000
-0.28935122 -0.68045796 0.00000000
0.07416709 -0.65393885 0.00000000
-0.79782363 0.49970294 0.00000000
0.31237927 -0.53070823 0.00000000
0.21434056 -0.36940910 0.00000000
-0.64917626 -0.32350084 0.00000000
0.33978888 -0.23805820 0.00000000
0.18307644 0.38446649 0.00000000
0.17729563 -0.30055937 0.00000000
-0.64896212 -0.62172880 0.00000000
0.61716961 0.22737333 0.01968108
0.07706547 0.44394941 0.00000000
-0.18050715 0.18618312 0.00000000
-0.63745323 -0.55104699 0.00000000
-0.33149935 -0.14569510 0.00000000
-0.78137825 -0.22177625 0.00000000
0.55379408 -0.03063188 0.00000000
0.18621866 0.14575357 0.00000000
-0.45727579 -0.53235025 0.00000000
0.23086877 0.71591789 0.06485702
-0.53018953 0.55275741 0.00000000
0.60985772 -0.73638607 0.00000000
-0.71673611 -0.40225240 0.00000000
-0.02405002 -0.02380357 0.00000000
0.28041123 -0.12208607 0.00000000
-0.62864983 -0.78860179 0.00000000
-0.51710621 0.65533096 0.00000000
0.03903872 0.02250710 0.00000000
0.15902322 -0.42949719 0.00000000
-0.59883917 -0.29292522 0.00000000
-0.12231672 0.21924883 0.00000000
0.49966957 -0.25676654 0.00000000
0.66125744 0.39441019 0.11296550
-0.17219675 -0.59482236 0.00000000
-0.16038925 0.17470353 0.00000000
-0.25034315 0.71631999 0.00000000
-0.75937097 0.58738016 0.00000000
0.35949420 -0.25431989 0.00000000
-0.08727183 0.59814891 0.00000000
0.29839287 -0.21477957 0.00000000
-0.44032400 0.69457972 0.00000000
-0.45432483 -0.40827493 0.00000000
0.13142458 -0.06437086 0.00000000
-0.39507291 0.58465652 0.00000000
0.08378935 -0.57631926 0.00000000
-0.79046643 -0.64115218 0.00000000
0.63931764 0.15133948 0.00000000
-0.51833977 0.40149287 0.00000000
-0.39576985 0.32256818 0.00000000
-0.20221314 0.18331335 0.00000000
-0.13042008 -0.12547952 0.00000000
-0.10637872 -0.17375140 0.00000000
0.39063455 -0.43093303 0.00000000
0.35833958 -0.07486383 0.00000000
-0.35908470 -0.65021705 0.00000000
0.24199540 -0.07999431 0.00000000
-0.74050109 -0.25721024 0.00000000
-0.14331578 -0.22837015 0.00000000
0.60648400 0.04765328 0.00000000
0.19424844 -0.11968510 0.00000000
-0.40497200 -0.43079773 0.00000000
-0.15825246 0.09085693 0.00000000
0.65485088 -0.32177294 0.00000000
-0.50615601 -0.70910419 0.00000000
0.46746340 -0.48435387 0.00000000
0.68378675 -0.22323066 0.00000000
-0.52233518 -0.68249776 0.00000000
-0.59542301 0.30393357 0.00000000
-0.18443792 0.73884427 0.00000000
0.44230179 0.42341815 0.02903803
-0.16631192 -0.41029229 0.00000000
0.11452618 -0.46172919 0.00000000
-0.63212447 -0.14112807 0.00000000
0.61142275 -0.76160091 0.00000000
0.26340460 0.08003822 0.00000000
0.58992401 0.01309830 0.00000000
0.72625093 -0.67595312 0.00000000
-0.37049709 0.38656233 0.00000000
-0.78769134 -0.52606748 0.00000000
0.08930723 0.60876609 0.00000000
0.08633979 -0.36512763 0.00000000
0.66348724 0.05505607 0.00000000
0.63514143 -0.26798805 0.00000000
-0.42606650 -0.41605670 0.00000000
-0.47303199 0.15549678 0.00000000
-0.69596258 0.65485923 0.00000000
0.55958242 -0.21689152 0.00000000
-0.26889929 -0.56412168 0.00000000
-0.26756207 0.18582396 0.00000000
-0.16186882 -0.75796719 0.00000000
-0.25968257 -0.11096012 0.00000000
0.21272282 0.76777522 0.07975231
-0.58790401 -0.34870811 0.00000000
-0.36517182 0.30718599 0.00000000
0.23473977 0.51378118 0.00000000
0.02273451 0.28457285 0.00000000
0.02006538 -0.28608101 0.00000000
0.04481234 0.34301677 0.00000000
-0.03461656 0.32641178 0.00000000
-0.38420561 -0.04964486 0.00000000
0.25328497 -0.06880971 0.00000000
-0.09916918 0.29514431 0.00000000
-0.77549231 0.63780900 0.00000000
0.78258757 0.10908946 0.04050705
0.07386871 -0.66195756 0.00000000
0.65544362 -0.01753978 0.00000000
-0.22671630 0.43105036 0.00000000
-0.59886276 0.03664081 0.00000000
-0.21042695 0.12333893 0.00000000
-0.01314884 -0.11638736 0.00000000
0.25039683 0.01459309 0.00000000
-0.18235919 -0.53887043 0.00000000
-0.78543530 0.58735932 0.00000000
-0.00690355 -0.47643745 0.00000000
-0.49488753 0.45968420 0.00000000
0.59367247 -0.20494307 0.00000000
-0.66789375 0.48245438 0.00000000
-0.47585223 -0.16262984 0.00000000
0.60460407 -0.49693123 0.00000000
0.16200848 0.48636977 0.00000000
0.59366197 -0.58818417 0.00000000
0.27255547 0.71310612 0.08203375
-0.68289186 -0.29752659 0.00000000
-0.31685118 -0.51280655 0.00000000
-0.79328604 -0.56333800 0.00000000
0.55348413 -0.22139538 0.00000000
-0.31005358 -0.20155966 0.00000000
-0.74213284 -0.71356382 0.00000000
0.29005100 0.76011258 0.11053375
0.02446653 -0.60299509 0.00000000
0.38956908 -0.07657177 0.00000000
0.02820033 -0.64887355 0.00000000
-0.75232482 -0.25912592 0.00000000
-0.68878460 0.08313521 0.00000000
0.24724053 0.71109977 0.06996195
-0.71896375 -0.64373072 0.00000000
0.21073719 -0.57377570 0.00000000
-0.67492124 0.58439191 0.00000000
0.79603706 -0.20625124 0.00000000
0.14791843 0.15618976 0.00000000
0.75848689 0.35941240 0.14046226
-0.27272207 -0.20726411 0.00000000
-0.13035442 0.04063415 0.00000000
-0.60836459 -0.35179997 0.00000000
-0.75793279 0.57262439 0.00000000
-0.50455276 -0.57199727 0.00000000
-0.40501088 -0.65300040 0.00000000
-0.70537921 0.21005733 0.00000000
0.55728735 0.74995430 0.22412268
-0.09285595 -0.30946728 0.00000000
-0.49792127 -0.24116287 0.00000000
-0.28299296 0.68368457 0.00000000
0.29046932 -0.09999131 0.00000000
-0.76937271 -0.56358817 0.00000000
-0.12004437 -0.70405868 0.00000000
0.45799258 -0.49386530 0.00000000
0.26494637 0.01900392 0.00000000
0.24904563 -0.42811152 0.00000000
0.67879338 -0.02235629 0.00000000
0.62206629 0.63846319 0.20348298
-0.57289417 -0.25383733 0.00000000
0.44162359 0.06065352 0.00000000
0.29495322 -0.14310129 0.00000000
0.02964658 -0.51212643 0.00000000
-0.73959265 -0.16124457 0.00000000
0.78168718 -0.18728693 0.00000000
-0.18717187 0.59703641 0.00000000
0.66700242 0.54034524 0.17998470
0.27676420 0.01206716 0.00000000
-0.40272830 -0.56036685 0.00000000
-0.56268430 -0.39187189 0.00000000
-0.14680784 0.05186856 0.00000000
-0.28526354 0.46627708 0.00000000
-0.22106691 0.55377205 0.00000000
0.23067366 0.29670536 0.00000000
0.04293987 -0.46760994 0.00000000
-0.10495908 -0.32549114 0.00000000
0.71132402 0.11246534 0.01051121
-0.36098831 0.02428162 0.00000000
-0.50722954 0.73389358 0.00000000
0.57485381 -0.04023247 0.00000000
0.60677100 -0.55617597 0.00000000
0.68603530 0.39106055 0.12243345
-0.52836484 0.26611534 0.00000000
-0.49379018 -0.16636228 0.00000000
-0.12886696 -0.78454320 0.00000000
-0.20606229 0.08149032 0.00000000
-0.14126526 -0.30719628 0.00000000
-0.10565088 -0.02586789 0.00000000
-0.33235605 0.43920393 0.00000000
0.37077910 -0.06674881 0.00000000
0.21622190 -0.20077122 0.00000000
-0.49550356 -0.66193179 0.00000000
-0.29816702 -0.00850792 0.00000000
-0.78785965 -0.31522859 0.00000000
0.32352549 0.48471031 0.00363894
0.65789268 0.04266796 0.00000000
0.16323416 0.02937121 0.00000000
-0.52090797 0.48509365 0.00000000
-0.02778639 -0.01604482 0.00000000
0.12034979 -0.57170039 0.00000000
0.39488311 -0.30223595 0.00000000
-0.07384272 -0.28406903 0.00000000
0.34012288 -0.48271836 0.00000000
0.15914605 -0.59804749 0.00000000
-0.69074947 -0.44364976 0.00000000
0.75525717 0.40342287 0.15848103
-0.36203734 0.74922476 0.00000000
-0.28076107 -0.42558821 0.00000000
-0.22353714 0.51161282 0.00000000
-0.74284657 -0.26797804 0.00000000
0.45386480 -0.62308618 0.00000000
0.11150993 0.28653107 0.00000000
-0.20384056 -0.18331673 0.00000000
-0.66499825 0.65568164 0.00000000
-0.55158432 0.72067102 0.00000000
0.42750288 -0.75940226 0.00000000
-0.37403068 -0.31636480 0.00000000
0.72600195 0.73322577 0.29127711
-0.67144259 -0.09092488 0.00000000
-0.66711347 0.07012019 0.00000000
0.11311734 -0.28720417 0.00000000
-0.60005524 -0.39422616 0.00000000
0.14710420 0.22274373 0.00000000
0.43492820 0.29524568 0.00000000
-0.53686873 0.78652557 0.00000000
-0.35075253 0.21381616 0.00000000
0.40457187 0.37456841 0.00000000
0.30999590 0.65369799 0.07232735
-0.11804033 0.57420478 0.00000000
0.51301365 -0.26924845 0.00000000
0.43428644 0.21564069 0.00000000
-0.75087913 0.54721643 0.00000000
0.70417142 -0.73866602 0.00000000
0.75523530 -0.76248383 0.00000000
0.21949719 -0.63215630 0.00000000
-0.72443703 0.61131974 0.00000000
-0.58480580 -0.21111244 0.00000000
0.62758724 0.73572726 0.24889823
-0.25937292 -0.20601711 0.00000000
-0.71724375 0.48162520 0.00000000
0.28681937 -0.30174265 0.00000000
-0.55769762 -0.02105015 0.00000000
0.51344725 0.30755837 0.00928123
0.47691039 0.74341353 0.18571841
-0.41596075 -0.45040302 0.00000000
0.61877981 0.21342157 0.01422802
0.76548557 -0.40867733 0.00000000
0.28144287 0.52947920 0.00482586
-0.73833315 0.38681507 0.00000000
-0.19681064 0.77706390 0.00000000
0.51465153 0.07069258 0.00000000
-0.31536128 0.30576991 0.00000000
-0.73655337 -0.42431227 0.00000000
-0.30731369 0.36586275 0.00000000
-0.72919190 -0.69787793 0.00000000
0.32014660 0.30027172 0.00000000
-0.65052476 -0.26676822 0.00000000
0.37811734 -0.62711755 0.00000000
-0.54062783 -0.17964800 0.00000000
0.30670203 -0.27700928 0.00000000
0.39847142 0.66815350 0.11780704
0.00988500 0.57199936 0.00000000
-0.29140904 -0.73888000 0.00000000
-0.22579691 0.55022010 0.00000000
-0.73904113 -0.09739949 0.00000000
0.61864716 0.53906701 0.15805434
-0.22485719 -0.15065437 0.00000000
0.04146066 0.56574834 0.00000000
-0.61090278 0.10473561 0.00000000
-0.76813263 0.41780386 0.00000000
0.28093321 -0.65440219 0.00000000
0.37305627 -0.57069738 0.00000000
0.05444554 0.19363998 0.00000000
-0.35886685 0.23816377 0.00000000
0.11166211 -0.40535300 0.00000000
-0.60038893 0.43555550 0.00000000
0.21852231 -0.09968946 0.00000000
-0.10505432 0.16701406 0.00000000
-0.63937686 0.32704273 0.00000000
-0.15279671 -0.20117821 0.00000000
0.05348420 -0.00179661 0.00000000
-0.68673626 -0.67281865 0.00000000
-0.44772364 -0.24661972 0.00000000
-0.76340483 -0.49492117 0.00000000
-0.09605688 0.33402735 0.00000000
0.51722292 -0.15096738 0.00000000
-0.42243598 0.19573435 0.00000000
-0.75347329 0.16120230 0.00000000
0.12215609 -0.17919527 0.00000000
-0.28246346 -0.67628769 0.00000000
0.22450588 -0.55528314 0.00000000
0.40685214 -0.79807694 0.00000000
-0.72459873 -0.45155194 0.00000000
0.27402108 -0.27427749 0.00000000
0.02650512 -0.26693612 0.00000000
-0.63575575 -0.76652986 0.00000000
0.01731271 -0.01717188 0.00000000
-0.47243259 0.12513284 0.00000000
-0.34867987 0.25122846 0.00000000
-0.47855375 -0.27877664 0.00000000
0.60607521 0.39198268 0.08751092
0.39882713 -0.73858773 0.00000000
0.65037008 -0.47208385 0.00000000
-0.49585239 0.44969925 0.00000000
0.51529449 -0.28661140 0.00000000
-0.00644196 0.73880348 0.00000000
0.75186202 0.04666104 0.00000000
-0.79401450 -0.33365692 0.00000000
-0.14697918 -0.12717604 0.00000000
-0.60274233 -0.23246686 0.00000000
-0.21613306 -0.33251301 0.00000000
-0.18612059 -0.54213039 0.00000000
0.41606946 0.66924131 0.12606330
-0.46956059 0.22206759 0.00000000
-0.38921310 0.78075100 0.00000000
-0.59293767 0.72233142 0.00000000
-0.02064774 -0.47111495 0.00000000
0.54245950 -0.66069722 0.00000000
0.79103668 -0.57430373 0.00000000
0.08623627 -0.46364645 0.00000000
-0.79106941 -0.52173226 0.00000000
-0.72487338 0.01987432 0.00000000
0.48444344 0.36814270 0.02323493
0.75537268 -0.73849761 0.00000000
0.00113914 0.13284409 0.00000000
0.26640292 0.39860930 0.00000000
0.24608253 -0.74980570 0.00000000
0.10209805 -0.79105969 0.00000000
0.20126092 0.60537088 0.00293022
-0.77849443 -0.50200434 0.00000000
-0.42383240 -0.19224542 0.00000000
0.64730145 0.46259316 0.13692543
0.75949012 -0.79368320 0.00000000
0.47473063 0.65622398 0.14623085
0.48842099 -0.20070794 0.00000000
-0.08038475 0.68933727 0.00000000
0.08140079 0.49457086 0.00000000
-0.58606292 -0.30771313 0.00000000
0.02216478 -0.04751047 0.00000000
-0.02653383 0.54079847 0.00000000
0.35010523 0.58939581 0.06163785
-0.51404471 0.49935193 0.00000000
-0.29374853 -0.74368373 0.00000000
0.67490069 0.05774578 0.00000000
0.17497018 0.07091185 0.00000000
-0.33131072 0.72889334 0.00000000
-0.37902917 -0.04773677 0.00000000
-0.27707159 0.06859202 0.00000000
-0.41792345 -0.69042887 0.00000000
0.68287418 -0.31783791 0.00000000
0.31766081 -0.72296578 0.00000000
0.68912675 0.57232707 0.20389133
0.25863953 0.68577108 0.06380714
-0.27487362 -0.07009010 0.00000000
-0.17237008 -0.74963786 0.00000000
-0.21199536 0.30697473 0.00000000
-0.58832549 -0.41974381 0.00000000
0.34972103 -0.60847217 0.00000000
-0.79802780 -0.76988154 0.00000000
0.46634292 0.34716211 0.00596713
0.34020376 -0.07752348 0.00000000
0.30070021 0.35137348 0.00000000
-0.74782337 -0.45098996 0.00000000
-0.04784029 -0.40728155 0.00000000
0.10915441 0.28527448 0.00000000
-0.01624197 0.16518318 0.00000000
0.02448051 -0.13958614 0.00000000
-0.10008427 0.77897553 0.00000000
-0.27925943 -0.18439756 0.00000000
-0.38522262 -0.13483481 0.00000000
0.22885824 0.34363892 0.00000000
0.58949022 0.58747078 0.16655852
0.19520301 -0.07774112 0.00000000
0.59530410 -0.12110069 0.00000000
0.51378529 0.52447593 0.10527456
0.47033990 -0.25202484 0.00000000
-0.49349770 -0.19664845 0.00000000
0.35948328 -0.45797187 0.00000000
-0.55396134 0.24445439 0.00000000
0.00707060 0.67839607 0.00000000
-0.73109600 0.17298785 0.00000000
-0.54549954 0.33495577 0.00000000
0.04295664 -0.29422195 0.00000000
0.33927140 -0.18520067 0.00000000
0.38278622 -0.55293016 0.00000000
0.17299542 -0.51184863 0.00000000
-0.66648006 0.46545626 0.00000000
0.46024675 0.22769453 0.00000000
0.39899099 -0.38285617 0.00000000
0.18317563 0.38201334 0.00000000
0.39663421 -0.53800621 0.00000000
-0.08814607 -0.37344870 0.00000000
-0.17219476 0.47261594 0.00000000
0.22821420 -0.32039027 0.00000000
-0.72877627 0.34579249 0.00000000
0.53150541 0.08365272 0.00000000
0.13266806 -0.01928147 0.00000000
0.14868751 -0.63828954 0.00000000
-0.58651746 0.45781725 0.00000000
-0.79282838 0.62304805 0.00000000
0.37775140 0.20967987 0.00000000
0.72608905 -0.15782664 0.00000000
0.76983170 -0.16654374 0.00000000
0.64577892 0.08348868 0.00000000
-0.55779160 -0.08013070 0.00000000
0.56680417 0.34021111 0.04728418
0.47126919 0.18233519 0.00000000
0.42674744 0.03249911 0.00000000
0.51882427 0.19349742 0.00000000
-0.42524656 0.21378491 0.00000000
-0.47669842 0.59345219 0.00000000
0.49003585 0.26316281 0.00000000
0.40709087 -0.36798068 0.00000000
-0.14163247 0.49487147 0.00000000
0.64176509 0.45053971 0.12915346
0.73321344 -0.68840420 0.00000000
-0.03381574 0.03067973 0.00000000
0.13629562 -0.66970664 0.00000000
-0.65319501 -0.66202017 0.00000000
-0.58478158 -0.67408477 0.00000000
0.07055675 -0.00306208 0.00000000
-0.57249788 0.31049334 0.00000000
-0.74709410 -0.70128745 0.00000000
-0.41184580 0.47778287 0.00000000
0.10337339 -0.50168363 0.00000000
0.69857410 -0.09655197 0.00000000
-0.69272365 0.79705401 0.00000000
-0.10957455 -0.02427836 0.00000000
-0.56491489 -0.35436545 0.00000000
0.56844346 0.72699283 0.21890650
0.29918899 -0.58286972 0.00000000
0.62044371 0.34086118 0.07127178
0.41653317 -0.51925847 0.00000000
0.75848851 0.04332608 0.00080176
-0.08904248 0.25047556 0.00000000
-0.39126773 0.29712849 0.00000000
-0.59250605 -0.77047018 0.00000000
0.25530946 -0.20716753 0.00000000
0.01554308 -0.10310010 0.00000000
-0.18829159 0.25878175 0.00000000
0.42392266 0.23927636 0.00000000
-0.52532818 -0.09541627 0.00000000
0.70476222 0.46293443 0.16246498
0.17950736 -0.68902921 0.00000000
0.27836099 0.46664374 0.00000000
-0.75268813 0.76575774 0.00000000
0.62504436 -0.38917317 0.00000000
-0.34013553 -0.00137470 0.00000000
0.52928494 -0.21356388 0.00000000
0.72999084 -0.59195061 0.00000000
0.33049255 0.08695179 0.00000000
-0.42464053 0.09697921 0.00000000
0.55089989 -0.30637122 0.00000000
0.59990932 0.49878476 0.13197653
0.47228961 0.01934283 0.00000000
-0.18195440 0.01583528 0.00000000
0.18607133 0.58886585 0.00000000
0.42313135 -0.02039284 0.00000000
0.45147004 0.52274410 0.07697567
-0.01469630 0.33864019 0.00000000
0.19902753 -0.52553648 0.00000000
0.75789635 -0.37985010 0.00000000
-0.43647854 -0.12937873 0.00000000
0.03354206 0.41009783 0.00000000
0.41255273 0.17928238 0.00000000
-0.35721956 0.36737613 0.00000000
0.28439717 0.33923036 0.00000000
-0.02975728 -0.09843378 0.00000000
-0.34115556 0.16659188 0.00000000
0.54116266 -0.43709130 0.00000000
-0.38608796 0.76749517 0.00000000
-0.10447391 0.59656499 0.00000000
-0.41836967 -0.55031296 0.00000000
-0.14965008 0.37548207 0.00000000
0.05558341 -0.22525878 0.00000000
0.79493505 -0.66989102 0.00000000
0.70010615 0.53083378 0.19040884
-0.35096216 0.51647387 0.00000000
0.08105285 0.72249439 0.00156733
-0.46262588 -0.71552100 0.00000000
-0.70873866 -0.50989004 0.00000000
-0.09313378 0.26031820 0.00000000
-0.63737924 -0.21000361 0.00000000
-0.49698343 -0.53217835 0.00000000
-0.21115506 0.13356091 0.00000000
-0.34659394 -0.74565513 0.00000000
-0.03320016 0.03083634 0.00000000
0.09574529 -0.03743632 0.00000000
0.63949737 -0.58892481 0.00000000
0.14620048 0.24362345 0.00000000
-0.77150699 -0.15996767 0.00000000
0.49515666 -0.50334373 0.00000000
-0.64655779 -0.78093257 0.00000000
0.75703767 -0.00625087 0.00000000
-0.23773906 0.60286686 0.00000000
0.13788104 0.67432033 0.00539111
0.41106672 0.60966449 0.09752902
-0.59938762 0.77399892 0.00000000
0.32821134 0.16775350 0.00000000
0.67886086 -0.73427343 0.00000000
0.73593283 0.31036107 0.10882376
0.60093215 0.28025217 0.03587090
-0.24424361 -0.71625987 0.00000000
-0.11716943 -0.70935269 0.00000000
0.68790578 0.08490527 0.00000000
-0.05448412 0.44801790 0.00000000
-0.75916297 -0.20110519 0.00000000
-0.33353165 0.29750605 0.00000000
0.39205887 -0.48686534 0.00000000
0.25811485 -0.01059268 0.00000000
0.74082857 -0.39822263 0.00000000
0.69621753 -0.63967638 0.00000000
-0.61494919 0.06248293 0.00000000
-0.24612976 -0.76262861 0.00000000
-0.19344870 -0.45806802 0.00000000
-0.74388507 0.26339261 0.00000000
0.36257312 -0.02348518 0.00000000
0.62026369 -0.41806508 0.00000000
-0.51714022 -0.60377389 0.00000000
0.43303408 0.24169615 0.00000000
-0.53846434 0.04380017 0.00000000
0.51259766 -0.54037730 0.00000000
0.69322333 0.70002024 0.26212224
0.03036415 -0.28944629 0.00000000
-0.44487477 -0.24544127 0.00000000
-0.11434397 -0.35509415 0.00000000
-0.63185298 0.46586995 0.00000000
0.79339078 -0.65044631 0.00000000
0.30120480 0.47817490 0.00000000
-0.50022475 0.57607835 0.00000000
-0.27891020 -0.20755171 0.00000000
-0.29377406 0.60899514 0.00000000
0.59807815 0.22597395 0.01062730
0.08307629 -0.31042443 0.00000000
-0.73510645 -0.75810020 0.00000000
-0.01838110 0.31182947 0.00000000
0.67077443 0.52010106 0.17270652
0.36462753 -0.11374184 0.00000000
0.26030760 -0.57315985 0.00000000
0.37159917 0.24947384 0.00000000
-0.11781177 0.59337212 0.00000000
0.16281030 0.12253681 0.00000000
-0.57118740 0.73759666 0.00000000
0.52865786 -0.60541109 0.00000000
0.23822186 -0.61442241 0.00000000
-0.04858734 0.64917650 0.00000000
0.23695408 0.75416345 0.08444448
0.40258653 -0.22447571 0.00000000
-0.16287240 0.61370268 0.00000000
0.78577911 -0.21147954 0.00000000
-0.35376807 0.19865483 0.00000000
0.11951813 -0.53836150 0.00000000
-0.21982641 -0.41223343 0.00000000
-0.29753814 0.32975562 0.00000000
-0.71541304 -0.18514693 0.00000000
-0.78852019 0.78288646 0.00000000
-0.67511583 -0.54310969 0.00000000
0.16469098 0.64561471 0.00455351
-0.63357368 0.16408677 0.00000000
0.10539198 0.72852168 0.01498458
-0.73032952 -0.25489650 0.00000000
0.28975020 -0.22168212 0.00000000
-0.04947708 0.01116243 0.00000000
-0.47716274 0.52535574 0.00000000
-0.23904645 0.01494187 0.00000000
0.16706048 0.07562232 0.00000000
-0.58597661 -0.09986322 0.00000000
0.06261885 0.17426260 0.00000000
-0.55488889 0.29564718 0.00000000
0.27271755 -0.76343233 0.00000000
0.25008112 0.30220208 0.00000000
-0.74298409 -0.69104970 0.00000000
0.08288443 0.22483706 0.00000000
0.72108463 0.08920136 0.00454481
-0.13818383 0.51141332 0.00000000
-0.20644734 0.71305287 0.00000000
-0.11055625 -0.25799401 0.00000000
0.63414617 -0.23778276 0.00000000
0.05564255 -0.20018492 0.00000000
0.16117118 0.20371123 0.00000000
-0.53973506 0.00333485 0.00000000
0.61459426 -0.50145449 0.00000000
0.61446157 -0.22031673 0.00000000
-0.05288026 -0.01311287 0.00000000
0.28301934 0.66766001 0.06657694
0.07440175 -0.65592088 0.00000000
-0.66399322 -0.63229618 0.00000000
0.51574167 -0.06394304 0.00000000
0.51663859 0.64364728 0.15919073
-0.65732207 -0.59102979 0.00000000
0.34595488 0.60194748 0.06534994
0.54763179 -0.03462974 0.00000000
0.25342934 0.67650317 0.05741005
-0.42425863 0.72414995 0.00000000
0.61531018 -0.18758784 0.00000000
-0.03640480 -0.60616372 0.00000000
-0.70154241 0.46339220 0.00000000
-0.14591036 0.43250023 0.00000000
0.18988998 0.50317644 0.00000000
-0.56848418 -0.22052827 0.00000000
0.59816350 0.52222417 0.14156175
-0.21589916 -0.55224862 0.00000000
0.73151491 0.50764660 0.19404149
0.00466770 0.54624153 0.00000000
-0.59041683 0.56424116 0.00000000
-0.19994524 -0.00416549 0.00000000
-0.77650104 0.65443471 0.00000000
0.24151429 -0.59519756 0.00000000
0.47909341 -0.40411635 0.00000000
-0.76321404 0.06494269 0.00000000
0.20331837 0.17140671 0.00000000
-0.27706460 0.60037295 0.00000000
0.16995511 0.36990796 0.00000000
0.64360700 0.57251277 0.18386065
0.57082961 0.18854323 0.00000000
-0.23528345 0.54636010 0.00000000
-0.77405504 -0.35475103 0.00000000
0.15273997 0.34823098 0.00000000
0.58507485 -0.10616032 0.00000000
-0.69106219 -0.06041717 0.00000000
-0.49438126 0.36976312 0.00000000
-0.56809400 0.58554994 0.00000000
0.50147909 0.01557451 0.00000000
-0.51413191 -0.26032524 0.00000000
0.27122872 -0.61843358 0.00000000
0.15610984 -0.59809814 0.00000000
0.67701630 0.19180198 0.03040702
0.51010598 -0.63906259 0.00000000
0.42044346 -0.45778114 0.00000000
-0.34067779 -0.02968121 0.00000000
0.66631083 0.17760479 0.01940390
-0.37593109 -0.79728954 0.00000000
0.04779477 -0.74805747 0.00000000
-0.78615536 -0.31527081 0.00000000
-0.59377859 -0.00220441 0.00000000
-0.49925573 0.61821213 0.00000000
0.42579846 0.45503108 0.03571414
-0.30511861 0.06558964 0.00000000
0.12918973 -0.11856128 0.00000000
-0.62270956 0.36473204 0.00000000
0.32736513 0.60668295 0.05922849
-0.29718052 -0.51870308 0.00000000
-0.69560836 -0.62681978 0.00000000
0.73745966 -0.69498437 0.00000000
-0.55021773 -0.29645837 0.00000000
-0.57449143 0.50580517 0.00000000
-0.61835826 -0.15040676 0.00000000
-0.33143421 -0.04566740 0.00000000
-0.01127808 0.63460477 0.00000000
-0.74451752 -0.31795421 0.00000000
-0.75804478 0.34584980 0.00000000
-0.01604773 -0.52878740 0.00000000
0.12764264 0.38768438 0.00000000
0.01391497 0.57908228 0.00000000
0.32263032 0.16489953 0.00000000
-0.40934877 0.58835255 0.00000000
0.00331901 -0.74530757 0.00000000
0.19619690 -0.08690046 0.00000000
-0.00229875 0.05551488 0.00000000
0.00964567 0.14436883 0.00000000
0.37856533 0.63021516 0.09224867
-0.44730315 0.39766422 0.00000000
0.43545697 -0.42075452 0.00000000
-0.67861551 -0.05986916 0.00000000
-0.65886301 0.19048479 0.00000000
0.03227385 0.66021317 0.00000000
-0.77885651 0.55837696 0.00000000
-0.77837592 0.78224085 0.00000000
0.63768853 -0.26592612 0.00000000
-0.30639916 0.24899091 0.00000000
0.52875124 -0.23045840 0.00000000
0.03274894 -0.13131378 0.00000000
-0.35616887 -0.21987811 0.00000000
0.12487857 -0.62248550 0.00000000
0.48958037 0.13863888 0.00000000
0.01000847 -0.07159016 0.00000000
0.24438136 0.27703742 0.00000000
-0.05308276 0.73544549 0.00000000
-0.67132013 -0.64924601 0.00000000
-0.79460944 -0.23318792 0.00000000
0.01638777 -0.12076263 0.00000000
0.10894308 0.60854686 0.00000000
-0.46541161 -0.46860862 0.00000000
0.48506191 -0.64787368 0.00000000
-0.10632178 0.16897863 0.00000000
0.63228987 0.61149106 0.19608267
-0.53239299 -0.01184318 0.00000000
0.16067627 -0.35124755 0.00000000
-0.73663701 0.51232505 0.00000000
-0.36578340 0.11788042 0.00000000
0.22814183 -0.75398690 0.00000000
0.39895234 0.44417301 0.01905472
0.01858914 0.11461737 0.00000000
0.72249949 0.43437528 0.15768338
0.30314546 0.70818030 0.09337337
0.18745040 -0.59111429 0.00000000
0.02275270 -0.45880567 0.00000000
-0.26184055 0.25023197 0.00000000
0.59399188 -0.53146993 0.00000000
0.74952688 -0.24664001 0.00000000
0.13213435 -0.50055185 0.00000000
0.60797842 0.21069760 0.00825190
0.59899839 -0.14401792 0.00000000
-0.57169494 0.57091370 0.00000000
0.27728711 -0.08275072 0.00000000
-0.73900788 0.77673020 0.00000000
0.60512888 0.24608222 0.02262737
-0.27501406 0.68619150 0.00000000
-0.15519864 -0.75544693 0.00000000
-0.35103362 -0.73120294 0.00000000
-0.17367651 0.59182775 0.00000000
0.71983310 0.46224324 0.16881859
0.45640549 -0.40255948 0.00000000
-0.36040877 0.23582933 0.00000000
-0.08379100 0.65576992 0.00000000
-0.12176306 0.67782348 0.00000000
0.03003864 0.55650816 0.00000000
-0.15754345 0.20236527 0.00000000
0.43146149 -0.40320794 0.00000000
-0.05337506 0.61985393 0.00000000
0.58264310 -0.37451977 0.00000000
-0.37155829 -0.14988187 0.00000000
0.75308101 -0.76514225 0.00000000
-0.21562546 -0.24745497 0.00000000
0.31422487 -0.34462640 0.00000000
-0.27999444 0.72068625 0.00000000
0.36773980 -0.17759146 0.00000000
-0.45099847 -0.61898054 0.00000000
0.72708650 0.49585287 0.18687379
-0.15501780 0.53310845 0.00000000
0.25120831 0.30783214 0.00000000
-0.31444350 0.42990506 0.00000000
-0.47991312 -0.07355729 0.00000000
0.36703153 -0.48083870 0.00000000
-0.58574691 -0.61297956 0.00000000
0.01491011 0.64045092 0.00000000
-0.47855106 0.55601789 0.00000000
-0.14716868 0.22773533 0.00000000
-0.78521639 0.21080405 0.00000000
-0.10102075 0.63498922 0.00000000
0.67509498 -0.75773568 0.00000000
0.31947053 0.35766999 0.00000000
0.24293350 -0.63562353 0.00000000
-0.07540378 0.11460562 0.00000000
0.62347059 -0.27285787 0.00000000
0.72221933 0.51274536 0.19218715
0.57046183 0.41879140 0.08362062
-0.33581319 0.52950546 0.00000000
0.57068006 0.67269852 0.19590495
0.68038380 0.13849486 0.00834144
-0.73951981 -0.78862402 0.00000000
0.15807388 -0.48388193 0.00000000
0.70001219 -0.59996844 0.00000000
0.67438037 -0.32054747 0.00000000
-0.59635758 -0.16610180 0.00000000
0.67111423 0.50617308 0.16670262
-0.22863568 0.72743602 0.00000000
-0.17191053 -0.74641921 0.00000000
0.72616251 0.71309949 0.28245531
0.64156400 -0.66639204 0.00000000
-0.53467963 0.43832644 0.00000000
0.50064403 -0.19691210 0.00000000
0.71810456 0.41894959 0.14892574
0.02620410 0.35623378 0.00000000
0.34527615 0.29995408 0.00000000
0.00773622 -0.60989267 0.00000000
-0.30488278 -0.41649735 0.00000000
-0.12641977 -0.30620838 0.00000000
-0.47810731 -0.54520932 0.00000000
0.20569114 0.69000083 0.04228103
0.67695108 -0.45965099 0.00000000
0.04452574 0.52385308 0.00000000
-0.20396751 -0.07484792 0.00000000
0.36390190 -0.08599671 0.00000000
-0.28771520 0.13788570 0.00000000
0.43028996 -0.39046974 0.00000000
0.62025591 -0.34469751 0.00000000
0.07977658 -0.48424945 0.00000000
0.24663246 -0.29581446 0.00000000
0.46735641 0.05185396 0.00000000
-0.57627585 0.20477454 0.00000000
-0.12518434 0.08442590 0.00000000
0.56976014 0.43079523 0.08861441
0.64035298 0.40011483 0.10624953
0.72527911 0.64137022 0.25037162
-0.57674155 0.11017388 0.00000000
-0.73564508 0.18416256 0.00000000
0.42217173 0.43778490 0.02649154
0.68562782 0.04797021 0.00000000
-0.17912134 0.21187001 0.00000000
0.51232158 -0.76006454 0.00000000
-0.55412697 0.29076819 0.00000000
0.07904421 -0.17966445 0.00000000
-0.11871758 0.15539348 0.00000000
-0.46681167 0.78150833 0.00000000
-0.28407023 0.47190983 0.00000000
-0.16466365 -0.25044989 0.00000000
-0.68335275 0.23894050 0.00000000
0.62824593 0.25185155 0.03539068
0.62383293 0.44299465 0.11789647
0.58475715 0.13977469 0.00000000
-0.04642589 0.66346479 0.00000000
-0.25141831 -0.48614980 0.00000000
-0.42394326 -0.22240204 0.00000000
0.17227514 -0.36497592 0.00000000
0.10272187 0.50970241 0.00000000
-0.08686255 0.24439966 0.00000000
0.00232490 -0.49878111 0.00000000
0.37204911 -0.38936958 0.00000000
-0.01712403 0.58572173 0.00000000
-0.38151296 -0.01329140 0.00000000
0.02575798 0.56224049 0.00000000
-0.76709137 -0.49361366 0.00000000
0.38302678 0.36644280 0.00000000
0.58371622 0.43492009 0.09660339
0.02921134 -0.40241368 0.00000000
0.65268856 0.49004131 0.15143354
-0.52187249 -0.16880829 0.00000000
0.48163130 -0.35296683 0.00000000
-0.69766458 0.03006513 0.00000000
-0.27092383 0.04256156 0.00000000
0.30657070 0.12575542 0.00000000
-0.57029972 -0.11963467 0.00000000
0.15127792 -0.47753221 0.00000000
0.02027392 -0.10800160 0.00000000
-0.58249915 -0.06976092 0.00000000
0.45104768 -0.23801443 0.00000000
-0.09833773 0.63523819 0.00000000
-0.69373929 0.71708252 0.00000000
-0.65114792 0.21536049 0.00000000
0.70425571 -0.63727937 0.00000000
-0.13514442 0.79986746 0.00000000
-0.76339463 0.74982030 0.00000000
-0.01400745 0.74010442 0.00000000
0.11786805 0.33911460 0.00000000
-0.79876706 0.40050538 0.00000000
-0.60765029 0.01615784 0.00000000
0.64007458 0.49418478 0.14769088
-0.52731152 -0.22560134 0.00000000
0.40154938 -0.74139251 0.00000000
0.14180100 -0.35851320 0.00000000
-0.19707582 0.54845500 0.00000000
0.15551942 0.24728718 0.00000000
-0.65490968 -0.24019756 0.00000000
0.22048392 0.76881536 0.08364111
0.72517984 -0.52609986 0.00000000
-0.72717112 0.21623180 0.00000000
0.62826408 0.58277201 0.18161446
-0.41776085 0.24645681 0.00000000
