ply
format ascii 1.0
element vertex 1382
property float x
property float y
property float z
end_header
-0.59899272 -0.49900047 0.10368715
-0.35134315 0.21163383 0.18316368
-0.03688103 0.36138324 0.00000441
-0.04653521 0.50287571 0.00000753
-0.16435106 0.45250317 0.00000448
-0.27583173 -0.07442221 0.00000272
-0.62906287 -0.28275499 0.00000001
-0.05208578 -0.19037380 0.00000229
-0.01249510 -0.55665614 0.00000093
-0.25103715 -0.62656858 0.00000103
-0.25979282 -0.58758421 0.00000119
-0.14397200 0.57419674 0.00000531
-0.15685871 0.30827625 -0.00000080
-0.16742854 0.46877855 0.00000583
-0.21418372 0.21522504 -0.00000134
-0.33584288 0.04966951 0.00000646
-0.36201134 0.19038109 0.18633424
-0.24554018 0.35763872 0.10603595
-0.14346914 -0.15286823 0.00000243
-0.31255445 -0.62747704 0.00000112
-0.44795248 0.07965831 0.25453353
-0.15114962 0.25802721 -0.00000209
-0.50654909 -0.69390551 0.00000116
-0.04846527 0.62946367 0.00000536
-0.47353575 -0.19544505 0.10416406
-0.48964390 -0.52219512 0.00000178
-0.04645768 -0.64295380 0.00000059
-0.29121245 -0.06933112 0.00000274
-0.52331831 -0.18650702 0.00000108
-0.16172908 -0.21568946 0.00000219
-0.70272362 -0.66914219 0.16027551
-0.08277327 0.35139663 -0.00000185
-0.03567454 0.65792689 0.00000653
-0.67778479 -0.52013172 -0.00000035
-0.48292614 0.22630024 0.00000201
-0.57764751 -0.00218272 0.00000037
-0.32973597 -0.69206880 0.00000040
-0.28306595 0.20193926 0.06014735
-0.23496539 0.34996990 0.08263176
-0.41358711 -0.49117837 0.00000178
-0.10653228 0.30815992 0.00000808
-0.17793392 -0.18712912 0.00000257
-0.25491605 -0.08277945 0.00000307
-0.37393024 0.15156547 0.00000244
-0.43452955 0.11041989 0.25337515
-0.27542545 0.16112519 0.01837839
-0.42048881 -0.27018119 0.00000262
-0.06340710 -0.46716325 0.00000125
-0.07770520 0.38336261 -0.00000126
-0.05602043 0.19001780 0.00000973
-0.13987171 -0.44562926 0.00000133
-0.26949593 -0.46228756 0.00000127
-0.46433789 -0.49057637 0.00000186
-0.38755886 0.21377699 0.24630015
-0.51454088 -0.31544717 0.08935715
-0.57334351 0.04104139 0.00000198
-0.07771777 0.13763307 -0.00000679
-0.06487021 -0.39280790 0.00000162
-0.36699841 0.22085589 0.00000428
-0.02573588 0.65276195 0.00000672
-0.12158894 0.13422864 0.00000350
-0.70272712 -0.28027451 -0.00000077
-0.47270525 -0.02029465 0.22619968
-0.03735630 0.54241551 0.00000509
-0.05787217 -0.17009926 0.00000236
-0.42307739 -0.45006391 0.00000131
-0.56348371 -0.13188650 0.30202196
-0.59385782 0.01723584 0.00000019
-0.39465432 -0.26958671 0.00000258
-0.10580960 -0.51872659 0.00000105
-0.14312249 0.23031464 0.00000408
-0.37293252 -0.32730196 0.00000234
-0.74099111 -0.03629515 -0.00000135
-0.28435407 0.23300057 0.08422635
-0.25763239 -0.40050629 0.00000150
-0.57698305 -0.40535212 0.13224218
-0.39408885 -0.44839968 0.00000132
-0.11122364 0.62627545 0.06682449
-0.75409589 -0.79406889 -0.00000001
-0.29567136 -0.09751606 0.00000263
-0.38792429 0.39853707 0.00000225
-0.58849660 -0.14785797 0.00000036
-0.22131168 -0.64857671 0.00000090
-0.07959848 0.33642700 0.00000426
-0.43259887 0.08113985 0.00000187
-0.20149777 0.43903076 0.08845777
-0.61150047 -0.77621678 0.00000101
-0.04161647 -0.59984144 0.00000081
-0.26537808 0.04619421 0.00000317
-0.56320473 -0.36926995 0.13422877
-0.23519274 -0.27012639 0.00000234
-0.09775546 0.40469521 0.00000467
-0.35918211 0.12288606 0.13394317
-0.53701520 -0.60210942 0.00000074
-0.53153525 -0.16408873 0.00000097
-0.18600612 -0.15124324 0.00000243
-0.39640781 -0.20288796 0.00000284
-0.41003833 0.15914372 0.24604435
-0.31133768 -0.12559717 0.00000253
-0.41987311 -0.36931326 0.00000162
-0.17119637 0.40098925 0.00000639
-0.38917792 -0.02800043 0.00000240
-0.08479235 0.33767984 -0.00000210
-0.12052576 -0.73547840 0.00000024
-0.40001774 0.28468329 0.00000306
-0.11070432 0.22121269 0.00000400
-0.34539030 -0.72382460 0.00000081
-0.31297209 0.11727639 0.05136263
-0.29733979 -0.70122562 0.00000082
-0.27407636 -0.22207435 0.00000217
-0.36228256 -0.42968388 0.00000139
-0.07414054 0.39976324 0.00000450
-0.46673068 0.01913321 0.24382862
-0.46477049 -0.12420584 0.13946132
-0.28140919 -0.11144077 0.00000301
-0.36068128 -0.57167106 0.00000086
-0.60163995 -0.04475510 0.00000015
-0.28787036 0.19602108 0.00000603
-0.42858387 -0.56918062 0.00000087
-0.17163604 -0.48472305 0.00000118
-0.14676851 -0.74261426 0.00000044
-0.58072635 -0.47123397 0.09217545
-0.41357649 0.16667470 0.25737261
-0.18316518 -0.35251267 0.00000195
-0.04341263 0.72425307 0.02049344
-0.37372933 0.12912393 0.16309528
-0.55322271 -0.17150746 0.25663481
-0.15934893 -0.66842189 0.00000073
-0.12541381 -0.52848441 0.00000121
-0.51603971 -0.32970915 0.08185513
-0.09909165 -0.75139438 0.00000033
-0.04187917 -0.70425150 0.00000036
-0.35350549 0.02822040 0.05756524
-0.27429166 -0.48849866 0.00000158
-0.76868772 -0.65567012 -0.00000036
-0.52204811 -0.30589187 0.10886674
-0.63468950 -0.54461087 0.13228195
-0.19922118 -0.27543722 0.00000197
-0.22806886 0.48036545 0.00000378
-0.21705484 0.54837619 0.00000385
-0.41221871 0.28108143 0.00000286
-0.55196206 -0.69833527 0.00000038
-0.23248494 -0.59357500 0.00000112
-0.37938789 -0.03861746 0.00000251
-0.51777898 0.01175905 0.00000100
-0.12811314 0.40859126 0.00000067
-0.55202525 -0.55543160 0.00000175
-0.03834544 0.08948572 0.00000334
-0.48657342 -0.73874562 0.00000096
-0.47914441 -0.11087919 0.00000150
-0.63589663 -0.68264796 0.03704135
-0.20655089 0.33997658 0.02724117
-0.41467808 -0.72381229 0.00000029
-0.10617290 0.14197961 0.00000933
-0.50000954 -0.73633735 0.00000024
-0.60340923 0.12296667 0.00000002
-0.05710535 0.70371192 0.02931567
-0.64513962 -0.43425408 0.22784841
-0.21974146 0.42666100 0.11078386
-0.51218135 -0.42846797 0.00567997
-0.41627886 -0.02451508 0.00000211
-0.71726108 0.03060904 -0.00000069
-0.35939107 0.24814558 0.00000253
-0.33846312 -0.44267670 0.00000134
-0.23076279 0.41578211 0.12187222
-0.04312792 0.59139061 0.00000691
-0.02427151 0.56743605 0.00000143
-0.32194635 -0.28729662 0.00000241
-0.01591068 0.37202803 0.00000897
-0.14681805 0.61588848 0.00000488
-0.25725640 0.05139556 0.00000773
-0.42189025 -0.08702979 0.00000209
-0.51426777 -0.70234565 0.00000037
-0.06960993 0.59334058 0.00000533
-0.13544468 -0.43313147 0.00000158
-0.37136492 0.38077254 0.00000232
-0.04909707 -0.71060293 0.00000041
-0.43115821 -0.73361729 0.00000025
-0.38959201 -0.64049710 0.00000060
-0.03300141 -0.44259621 0.00000134
-0.63983367 -0.42638571 0.22436565
-0.18766101 0.44918045 0.07206606
-0.26474976 -0.06345237 0.00000316
-0.31895831 -0.72973436 0.00000026
-0.07821437 0.30642923 -0.00000298
-0.77855946 -0.47636462 -0.00000081
-0.32275000 0.29273440 0.19167073
-0.47252245 -0.50303966 0.00000111
-0.75075941 -0.24719917 -0.00000131
-0.34505191 0.21099565 0.17200525
-0.45651158 -0.07452648 0.16042386
-0.16601856 0.50990652 0.07804397
-0.17415634 -0.32069972 0.00000180
-0.49969349 0.04095421 0.31529985
-0.53983566 -0.32696427 0.12428197
-0.07232891 -0.21870172 0.00000229
-0.23865077 -0.38493684 0.00000192
-0.22962201 -0.14324888 0.00000246
-0.20540446 0.09761799 0.00000368
-0.45089217 0.11090511 0.28156212
-0.46887079 -0.26028960 0.00000171
-0.31609537 0.12929145 0.06513725
-0.57082357 0.07706439 0.00000169
-0.61565913 -0.66111957 0.00000041
-0.32518332 0.27894010 0.18608806
-0.23209143 -0.22004357 0.00000217
-0.55555046 -0.08740776 0.00000067
-0.20250883 -0.07386802 0.00000272
-0.05312157 0.40366231 0.00000451
-0.33549205 0.42663061 0.00000267
-0.19080578 0.18406246 0.00000774
-0.62883985 -0.48772493 0.16242371
-0.49908380 -0.10071578 0.21440704
-0.04582476 -0.14125107 0.00000254
-0.01764855 -0.51245480 0.00000110
-0.11440756 0.39687177 0.00000004
-0.37512816 0.08604358 0.00000248
-0.52867133 -0.05166348 0.29932598
-0.23757439 0.26903370 0.03002042
-0.45134363 -0.03672341 0.17826800
-0.34353933 -0.16212226 0.00000291
-0.20946775 -0.04624854 0.00000314
-0.18264873 0.54428120 0.00000485
-0.55745623 -0.72218707 0.00000113
-0.44864776 -0.20446712 0.00000189
-0.63993022 -0.52855319 0.00000006
-0.61039702 -0.61877024 0.03867409
-0.00115761 0.40931782 0.00000891
-0.72321453 -0.27163673 -0.00000100
-0.39925338 0.38085382 0.00000219
-0.35988215 -0.66306819 0.00000051
-0.56301722 -0.20263019 0.00000066
-0.20960505 0.10415360 0.00000339
-0.13974916 0.38056447 0.00000036
-0.72771770 -0.71597451 -0.00000021
-0.78386564 -0.47372990 -0.00000082
-0.55342339 -0.66676660 0.00000133
-0.07737485 0.42277497 0.00000459
-0.37099210 -0.08727177 0.00000264
-0.68589860 -0.75709909 0.06964981
-0.15728476 0.55095332 0.09211381
-0.43690361 -0.00509181 0.17599883
-0.45861852 -0.32707470 0.00000177
-0.28149302 0.17203571 0.03638419
-0.13116259 0.31393559 0.00000438
-0.57681301 0.10774301 0.00000031
-0.17342775 0.37979031 0.00000469
-0.23323930 0.49917851 0.00000371
-0.41611799 0.11255565 0.00000202
-0.74015431 0.01838491 -0.00000102
-0.07725692 0.47351453 0.00000075
-0.12054745 -0.73616319 0.00000042
-0.13949149 -0.47807657 0.00000142
-0.18666734 -0.08178773 0.00000269
-0.73789522 -0.47853589 -0.00000080
-0.38280087 -0.15364783 0.00000242
-0.18462933 0.54137594 0.00000483
-0.08308370 0.09015646 -0.00000771
-0.07520648 0.64243827 0.01692885
-0.37352932 -0.22085642 0.00000274
-0.51030915 -0.04801521 0.27065056
-0.60764415 -0.59838333 0.00000045
-0.03538774 0.50231399 0.00000488
-0.52189343 -0.28244228 0.00000116
-0.58562059 -0.42060685 0.00000057
-0.45034094 -0.39349661 0.00000152
-0.66790489 -0.11017419 -0.00000052
-0.53306466 -0.37067541 0.08195061
-0.25163807 0.19570735 0.00226571
-0.19324363 0.11423701 0.00000343
-0.19827402 0.11386731 0.00000373
-0.02925788 0.12604633 0.00000352
-0.10967145 0.53177271 0.00000294
-0.50990090 -0.11269348 0.22437144
-0.57090521 -0.51699087 0.04321190
-0.42300966 -0.07103936 0.00000207
-0.03459979 0.47675556 -0.00000033
-0.08422095 0.03790213 0.00000314
-0.64091056 -0.37885945 0.25969668
-0.18789825 -0.18382422 0.00000259
-0.27216626 0.08102943 0.00000729
-0.22837906 0.01860672 0.00000341
-0.17166178 0.00185639 0.00000940
-0.26538210 0.11793386 -0.00000214
-0.51963649 -0.25724110 0.13905427
-0.14665558 0.18761005 0.00000838
-0.08177382 -0.08251047 0.00000281
-0.23047697 0.36533169 0.08582216
-0.24891778 -0.41066534 0.00000184
-0.00886609 0.24304617 0.00000391
-0.11552798 -0.58410919 0.00000081
-0.36966743 -0.44573270 0.00000189
-0.24120565 0.30827172 0.00000589
-0.36136477 -0.48576331 0.00000172
-0.25034574 -0.63835420 0.00000061
-0.26166158 0.51545436 0.00000359
-0.18685614 0.16508577 -0.00000321
-0.14133408 0.12797220 0.00000891
-0.08720041 0.70775723 0.00000513
-0.01787666 0.12965168 -0.00000860
-0.13873022 0.57815576 0.07971417
-0.68031442 -0.21084900 -0.00000058
-0.24394757 0.25696694 0.03235998
-0.03866147 0.07736096 0.00000329
-0.50929883 -0.36290253 0.00000134
-0.60364825 -0.72506945 0.00000119
-0.77207346 -0.14771987 -0.00000160
-0.07908849 -0.31880990 0.00000192
-0.73538314 -0.07357914 -0.00000126
-0.20450576 -0.71864643 0.00000031
-0.39594345 0.03121505 0.00000229
-0.28343341 -0.14440341 0.00000289
-0.00169026 -0.27077455 0.00000199
-0.03131349 0.07052323 0.00001100
-0.26371923 -0.08571941 0.00000268
-0.08761750 0.38546264 0.00000445
-0.46604092 -0.02663751 0.21038792
-0.41797586 0.01903647 0.16079731
-0.12054145 -0.19967924 0.00000225
-0.08003606 -0.04260717 0.00000296
-0.35971651 0.33416209 0.00000247
-0.44360615 -0.16120265 0.00000191
-0.39225910 0.00992080 0.11061152
-0.26874547 0.33940017 0.13266764
-0.54914641 -0.38579645 0.09865796
-0.11499170 0.51557528 0.00000640
-0.12441058 0.40631036 0.00000452
-0.01009917 0.47290252 0.00000477
-0.16403422 -0.69254352 0.00000065
-0.16125014 0.40414812 0.00000654
-0.27138579 -0.51903644 0.00000146
-0.63761596 0.08426083 0.00000034
-0.56736164 -0.52887554 0.02880519
-0.52199901 -0.64368230 0.00000137
-0.52769895 -0.78515140 0.00000006
-0.28780861 -0.68517391 0.00000043
-0.26017486 -0.25901579 0.00000203
-0.73163359 -0.37064324 -0.00000102
-0.59554694 0.02806825 0.00000016
-0.09028630 -0.43833259 0.00000136
-0.31924295 0.31909038 0.20428091
-0.24745869 0.28257050 0.00000601
-0.01542703 0.74340333 0.00000619
-0.62174745 -0.56662916 0.09473978
-0.11657184 -0.52532862 0.00000121
-0.31677911 -0.63108016 0.00000063
-0.11470788 -0.50547557 0.00000110
-0.51736021 -0.36148745 0.00000126
-0.00655473 0.73529379 0.00000576
-0.39557747 0.13726112 0.00000222
-0.07582377 0.24254467 0.00000402
-0.16289475 -0.48099218 0.00000144
-0.04487103 0.01556486 0.00000306
-0.03007747 0.03942050 0.00000315
-0.33034435 0.11849840 0.08177693
-0.73038792 -0.13216870 -0.00000117
-0.01783035 0.00437424 0.00000304
-0.48274084 -0.73309852 0.00000025
-0.08227943 -0.21646324 0.00000219
-0.23846268 0.01737703 0.00000307
-0.41651515 -0.58505535 0.00000143
-0.40682067 0.26210735 0.00000314
-0.10388310 0.37261177 0.00000440
-0.40376400 -0.35376502 0.00000228
-0.33318053 0.39621920 0.00000332
-0.17899225 -0.66973559 0.00000076
-0.11615727 -0.07887807 0.00000270
-0.31744138 0.30627313 0.19218033
-0.35974413 0.05462336 0.08679113
-0.04564326 -0.50422952 0.00000118
-0.12427948 -0.12771977 0.00000271
-0.45236399 -0.15961346 0.00000182
-0.41340488 -0.42061517 0.00000205
-0.45869214 0.31421890 0.00000166
-0.14454203 0.51971497 0.04841211
-0.16589619 -0.40488010 0.00000173
-0.05820804 0.27824296 0.00000903
-0.34481150 0.08118780 0.08009592
-0.03208239 0.63455717 0.00000543
-0.30084476 0.17995477 0.07490483
-0.23200575 0.42697170 0.13187310
-0.00149308 0.40499815 0.00000452
-0.53228082 -0.36045104 0.00000110
-0.47458024 -0.68613874 0.00000114
-0.43835297 -0.37079758 0.00000161
-0.38331336 0.03056686 0.10993263
-0.52142615 -0.22263994 0.00000112
-0.05140245 0.37596813 0.00000840
-0.37213534 -0.21313410 0.00000276
-0.09746996 0.04909974 -0.00000825
-0.30557211 -0.02168185 0.00000292
-0.06802671 0.15449989 0.00000981
-0.58342503 0.19436014 0.00000018
-0.24262948 -0.09210397 0.00000302
-0.65915362 -0.65517121 -0.00000006
-0.09059004 -0.70253811 0.00000050
-0.22913321 0.35950351 0.00000565
-0.28985520 0.35256505 0.17786799
-0.42046266 -0.58860555 0.00000143
-0.32117476 0.06470828 0.00000660
-0.31933372 -0.24227137 0.00000209
-0.03643065 0.09453065 0.00000341
-0.31604747 0.24212549 0.14459129
-0.03639625 -0.65664223 0.00000059
-0.39179639 -0.29507489 0.00000248
-0.46760776 -0.18544213 0.10112727
-0.31117249 -0.68773265 0.00000089
-0.11290388 -0.59461380 0.00000094
-0.05473706 0.19291569 0.00000381
-0.20953375 0.16199965 0.00000361
-0.39607560 -0.73066559 0.00000086
-0.08265490 -0.51283977 0.00000108
-0.53946991 0.17286353 0.00000141
-0.10395836 0.02882484 0.00000326
-0.16823877 0.44467011 0.03584045
-0.41562662 0.04402132 0.00000207
-0.70119644 -0.16490637 -0.00000084
-0.00318785 0.70223346 0.00000669
-0.30001525 -0.36105444 0.00000210
-0.05054181 0.44471946 0.00000790
-0.59523463 -0.52048424 0.08214953
-0.21980648 0.26373669 0.00000432
-0.05816541 0.25687499 -0.00000464
-0.68932958 0.05846329 -0.00000041
-0.19777330 -0.38530979 0.00000185
-0.35470038 -0.28951479 0.00000191
-0.43910757 0.15814993 0.00000174
-0.37098150 -0.63207023 0.00000119
-0.48856044 -0.24943223 0.00000149
-0.16527514 -0.49714010 0.00000139
-0.33870462 0.27225565 0.00000435
-0.36193045 0.02426081 0.06911058
-0.06982755 -0.39637243 0.00000162
-0.34619594 -0.54362174 0.00000148
-0.36774764 0.24259917 0.00000407
-0.13826373 0.06566589 -0.00000677
-0.31138338 -0.30972691 0.00000231
-0.16923586 0.44437048 0.00000602
-0.25031737 0.01138976 0.00000342
-0.05771232 0.53931846 0.00000511
-0.35533319 -0.70756755 0.00000088
-0.04282845 0.69719993 0.00000561
-0.53978318 -0.07285362 0.00000083
-0.40700010 -0.41102143 0.00000207
-0.63775862 -0.56063440 0.00000011
-0.23454613 -0.40605509 0.00000148
-0.17004466 0.29230165 -0.00000080
-0.19182861 0.33499389 0.00000426
-0.17090613 0.43985351 0.03697970
-0.38129091 0.20128417 0.22682907
-0.73096011 -0.16076631 -0.00000116
-0.17533574 0.06157906 0.00000323
-0.00124309 -0.22844309 0.00000214
-0.34281578 0.00090457 0.00000288
-0.18727579 0.17490039 0.00000366
-0.24846021 -0.55330841 0.00000093
-0.06643976 0.05193217 0.00000319
-0.51467098 -0.76164193 0.00000014
-0.26203451 0.31193276 0.00000353
-0.22527725 0.23784573 -0.00000053
-0.07179116 0.59018391 0.00000521
-0.51002951 0.07625845 0.00000104
-0.70948739 -0.06125582 -0.00000099
-0.07760270 0.61956866 0.00000529
-0.22181107 -0.08864305 0.00000267
-0.17312903 0.20469438 -0.00000269
-0.12978934 0.30274349 0.00000433
-0.37693486 -0.64840892 0.00000114
-0.53521914 -0.37352730 0.00000108
-0.40182638 0.18209327 0.24824577
-0.56983405 -0.13062227 0.00000054
-0.59182279 -0.52094966 0.07601576
-0.22969797 -0.44588875 0.00000167
-0.70842561 -0.53134641 -0.00000067
-0.39098069 0.21129523 0.00000222
-0.44403794 0.11146877 0.27029598
-0.29477850 -0.68582177 0.00000087
-0.18910967 0.11362747 0.00000829
-0.75615288 -0.40418536 -0.00000099
-0.31865816 -0.41709910 0.00000192
-0.04509730 0.54550039 0.00000505
-0.50222481 -0.05645933 0.00000121
-0.10642626 -0.59896045 0.00000091
-0.54771434 -0.57228791 0.00000085
-0.11076844 0.44873430 0.00000111
-0.10209096 0.57819723 0.01739661
-0.11513849 -0.55509692 0.00000092
-0.05298048 0.37363739 0.00000440
-0.51736418 -0.53294142 0.00000178
-0.46823879 -0.14084002 0.00000163
-0.08294963 -0.06102660 0.00000290
-0.40598890 0.13249895 0.22037325
-0.13448971 0.49363751 0.00000624
-0.13262148 0.08795892 0.00000353
-0.16403360 0.20656258 0.00000377
-0.54826236 -0.72320220 0.00000029
-0.09567838 0.23420445 0.00000402
-0.25962714 0.32192717 0.10483180
-0.31781131 0.30474485 0.19173338
-0.47370295 0.28425443 0.00000129
-0.13938292 -0.33499726 0.00000174
-0.79497391 -0.75065188 -0.00000012
-0.66323775 -0.70393292 0.06856335
-0.22496990 -0.35360242 0.00000167
-0.12298697 0.51960967 0.01165462
-0.62076304 -0.59236311 0.07492624
-0.78527717 -0.78528849 -0.00000004
-0.40741723 -0.62564164 0.00000127
-0.48004010 -0.01802294 0.24028714
-0.13067128 0.45067057 0.00000665
-0.44914899 -0.46165817 0.00000195
-0.34578436 0.18576279 0.15546958
-0.34658837 0.34363895 0.00000261
-0.35095900 0.31666753 0.00000371
-0.50231110 -0.04718200 0.00000121
-0.45856058 -0.18647804 0.08500206
-0.05210039 0.18912154 0.00000379
-0.28577602 -0.14965347 0.00000287
-0.47151116 -0.72967110 0.00000098
-0.68723969 -0.67520589 0.12965371
-0.12338181 -0.51310023 0.00000108
-0.29419487 -0.73802349 0.00000068
-0.01065355 0.36508863 0.00000437
-0.24740371 -0.39474030 0.00000152
-0.30904160 0.26926894 0.15180550
-0.41017590 -0.03707099 0.10797755
-0.51995344 -0.32373881 0.09272305
-0.10954772 0.51934560 0.00000495
-0.42021212 0.11423636 0.23170375
-0.15365686 -0.34824642 0.00000169
-0.19691337 0.43464535 0.07756837
-0.20529272 0.34002612 0.02512832
-0.14891930 -0.79492072 0.00000002
-0.50535602 -0.65847983 0.00000129
-0.02006406 -0.68432419 0.00000046
-0.24069098 0.14166860 0.00000731
-0.26168878 -0.22900258 0.00000254
-0.68015500 -0.24021887 -0.00000056
-0.26730394 -0.24727288 0.00000248
-0.39233493 0.03805769 0.13056491
-0.10628757 0.49887758 0.00000211
-0.39496672 -0.06879156 0.00000237
-0.06798348 0.12775123 -0.00000728
-0.37511958 0.39399951 0.00000253
-0.64073514 -0.62388389 0.08669430
-0.23181525 -0.13789111 0.00000283
-0.47788263 0.30045788 0.00000142
-0.04257885 0.55277452 0.00000721
-0.57103028 0.06906157 0.00000040
-0.48834121 0.01387616 0.27689656
-0.29649770 -0.13892663 0.00000248
-0.03148439 0.65684033 0.00000363
-0.08548065 -0.36439406 0.00000176
-0.64461129 -0.07692743 -0.00000029
-0.70183684 0.09398812 -0.00000098
-0.26513252 0.01238095 -0.00000452
-0.01185423 0.00721844 -0.00001152
-0.58637416 -0.11354947 0.35389800
-0.00913517 0.76302485 0.00000588
-0.48451691 -0.70689025 0.00000108
-0.31788396 0.08263452 0.03529292
-0.54331133 -0.07206725 0.30985912
-0.05380095 0.56994326 0.00000691
-0.27289087 -0.39197582 0.00000153
-0.00873844 0.37756019 0.00000442
-0.38285603 -0.65607205 0.00000112
-0.04055604 -0.07833487 0.00000271
-0.56671759 -0.30924115 0.00000070
-0.32509224 -0.53406674 0.00000100
-0.36454855 -0.32080407 0.00000235
-0.02293455 0.67985178 0.00000656
-0.10813006 0.06281857 0.00000324
-0.00793981 0.61053780 0.00000195
-0.39598207 -0.31268835 0.00000242
-0.77570951 -0.00402377 -0.00000174
-0.06530034 -0.66147970 0.00000062
-0.15254435 0.05704982 0.00000927
-0.49607871 -0.68866457 0.00000117
-0.24127875 -0.47343550 0.00000122
-0.43085444 0.19111770 0.00000181
-0.27781601 0.32509144 0.13801439
-0.26551919 0.39862135 0.00000460
-0.19014173 0.28505232 0.00000436
-0.63337589 -0.46310224 0.18749753
-0.26920728 0.33105144 0.12756599
-0.00746047 0.22701834 -0.00000669
-0.40230075 -0.24188580 0.00000209
-0.04900338 -0.39319592 0.00000153
-0.14093026 0.45127840 0.00000198
-0.04477377 0.52533015 0.00000104
-0.69710615 -0.32370250 -0.00000069
-0.47845517 0.05027432 0.28572913
-0.61096170 -0.29584156 0.26724952
-0.04257181 0.69500601 0.00000479
-0.03326509 0.59704980 0.00000702
-0.34796746 -0.61150438 0.00000071
-0.34330002 -0.64785345 0.00000109
-0.28993864 -0.15574405 0.00000285
-0.04228974 -0.59545789 0.00000083
-0.29865710 0.04315594 0.00000316
-0.37385048 -0.22543354 0.00000272
-0.04147692 0.40462093 0.00000452
-0.33936227 0.09109321 0.00000285
-0.34269932 -0.09984796 0.00000263
-0.22320575 -0.21106328 0.00000255
-0.09700752 -0.01716385 0.00000308
-0.30135693 -0.72641280 0.00000028
-0.21853609 0.53550920 0.00000424
-0.42444931 -0.40119646 0.00000214
-0.49621577 -0.02517332 0.26277239
-0.47905835 0.00338413 0.25370172
-0.04292253 -0.73885890 0.00000029
-0.28494060 0.14956214 0.02640957
-0.35660424 0.19549393 0.18074004
-0.37381365 0.21423191 0.22323161
-0.51102468 -0.05300743 0.26835309
-0.08394440 0.36918027 0.00000451
-0.03468389 -0.74337788 0.00000021
-0.61381180 -0.57309013 0.07668218
-0.29234479 0.32133238 0.16008840
-0.08466482 0.43322371 0.00000747
-0.26157336 -0.56385256 0.00000128
-0.50867931 -0.68662193 0.00000043
-0.62015633 -0.30987078 0.27300694
-0.70567091 -0.44832485 -0.00000069
-0.01905569 0.34428563 0.00000429
-0.43183507 0.07049705 0.00000442
-0.33443387 -0.29938895 0.00000238
-0.59517948 0.04453830 0.00000016
-0.19376870 0.08901559 0.00000841
-0.27897763 -0.60526708 0.00000115
-0.50513554 0.03921770 0.00000112
-0.43355194 -0.78877002 0.00000070
-0.42293761 0.03620904 0.18134441
-0.20277325 0.21477472 0.00000411
-0.05195747 -0.46730732 0.00000133
-0.02962993 0.39665859 0.00000453
-0.37037656 -0.62476859 0.00000122
-0.12523156 0.07292374 0.00000956
-0.56293994 0.18104295 0.00000089
-0.54054405 -0.08382215 0.29686482
-0.06981660 -0.04162374 0.00000295
-0.47650525 0.31891665 0.00000124
-0.16143566 -0.14360696 0.00000246
-0.32856945 -0.63620077 0.00000061
-0.17787920 0.44300650 0.05106834
-0.00628592 0.40683725 -0.00000268
-0.53491751 -0.60708514 0.00000072
-0.05781152 0.20880095 0.00000387
-0.35453960 -0.71503470 0.00000085
-0.49829446 -0.58842962 0.00000079
-0.24904567 -0.37833318 0.00000158
-0.12450190 -0.07698953 0.00000290
-0.43946215 0.03885336 0.21132706
-0.36067482 0.33911315 0.00000246
-0.30481395 0.26685901 0.00000505
-0.06099841 0.71050382 0.00000565
-0.53044101 -0.29985916 0.12740055
-0.61171509 -0.17069800 0.00000012
-0.30608090 -0.01926399 0.00000339
-0.01019236 0.33222261 0.00000426
-0.39403542 -0.35126573 0.00000228
-0.58643561 0.04612250 0.00000025
-0.67902668 0.11674146 -0.00000079
-0.47462302 -0.03227530 0.22102353
-0.47536353 -0.78716351 0.00000077
-0.07106787 -0.19943916 0.00000236
-0.07654272 0.62272767 0.00000530
-0.73101866 -0.31840739 -0.00000105
-0.66203082 -0.64230468 -0.00000010
-0.05692017 -0.61622169 0.00000069
-0.62267408 0.10232908 0.00000046
-0.38416778 -0.10759943 0.01400951
-0.15040229 -0.39900909 0.00000150
-0.43193992 -0.22805547 0.01039767
-0.15028878 0.48581897 0.03429559
-0.10528853 0.62566167 0.05629277
-0.40246208 0.28142435 0.00000304
-0.33847006 0.14325575 0.11305570
-0.38767894 -0.49787901 0.00000113
-0.53080295 -0.37710527 0.07356995
-0.14484265 -0.77772103 0.00000008
-0.46069046 -0.53454702 0.00000100
-0.32184721 -0.33911943 0.00000221
-0.36609005 -0.52150482 0.00000104
-0.38145390 -0.14973882 0.00000244
-0.02736779 -0.08351585 0.00000273
-0.08370350 0.64876010 0.03584248
-0.45064331 -0.22442787 0.00000188
-0.62994757 -0.21047355 -0.00000004
-0.51513677 -0.01485684 0.30223873
-0.01148966 -0.60580651 0.00000073
-0.58461507 -0.30986551 0.21253235
-0.07298974 0.02901517 0.00000311
-0.66812580 -0.64491786 0.11847734
-0.17029256 -0.61689773 0.00000069
-0.39393700 0.01098111 0.11421407
-0.19806330 -0.36953585 0.00000191
-0.36381380 -0.40905088 0.00000147
-0.47495427 0.10919426 0.00000139
-0.53319308 -0.71599408 0.00000032
-0.06482850 0.17672893 0.00000366
-0.19208750 0.33841944 0.00152437
-0.22302739 0.15515740 0.00000358
-0.47077858 0.06661787 0.00000147
-0.69827298 -0.70865574 0.12485132
-0.23329792 0.29894805 0.04382944
-0.33036099 -0.27624534 0.00000246
-0.26718923 0.18020746 0.00000356
-0.04414991 0.68673553 0.00000618
-0.40055289 -0.28915857 0.00000192
-0.06270278 0.10994476 0.00001023
-0.37422686 0.08160144 0.00000543
-0.61618072 -0.29858738 0.27419497
-0.07951357 0.25463648 0.00000889
-0.31973428 0.09225843 0.00000306
-0.05741218 -0.62731152 0.00000073
-0.67258005 -0.51859955 0.21509141
-0.15349142 0.44335347 0.00000634
-0.70349261 0.04194931 -0.00000100
-0.60715563 -0.57512948 0.00000044
-0.31250675 0.27454145 0.16141824
-0.49535882 -0.30775060 0.00000146
-0.20113598 -0.46363305 0.00000126
-0.39879621 0.11780481 0.19777304
-0.30374667 -0.75451308 0.00000017
-0.12229844 -0.11005251 0.00000277
-0.05603947 0.30641411 -0.00000358
-0.69006111 -0.52950636 -0.00000047
-0.54798621 -0.16208849 0.25436309
-0.36758043 -0.63944867 0.00000116
-0.60493626 -0.50207472 0.11163404
-0.38202990 -0.47198763 0.00000181
-0.14480315 -0.03585207 0.00000287
-0.05793249 0.17316459 0.00000374
-0.35591588 0.01698035 0.00000273
-0.15562960 0.29655123 0.00000743
-0.64637583 -0.72059527 0.02812622
-0.00885897 -0.64896056 0.00000057
-0.70826995 -0.30475523 -0.00000082
-0.31439610 0.16763054 0.08927765
-0.00513684 -0.25712202 0.00000204
-0.42688347 -0.57243736 0.00000150
-0.03213269 0.13260564 -0.00000814
-0.00417227 0.56556337 0.00000513
-0.06412137 -0.32103746 0.00000189
-0.13203478 0.46015635 0.00000656
-0.25071039 0.43494330 0.00000357
-0.54624790 -0.13803177 0.00000080
-0.00019006 -0.55973683 0.00000090
-0.18130357 0.10907527 -0.00000462
-0.31592301 -0.36888234 0.00000162
-0.42047592 -0.03716861 0.12543566
-0.57866163 -0.58968311 0.00517381
-0.58149778 0.12306271 0.00000025
-0.72418430 0.00498917 -0.00000059
-0.15378346 0.12146411 0.00000877
-0.64271735 -0.79900861 0.00000000
-0.73426227 -0.65208395 -0.00000037
-0.11448656 0.42312446 0.00000476
-0.55330031 -0.19205867 0.00000076
-0.51869131 -0.31039421 0.00000121
-0.19808625 0.39094796 0.04876432
-0.48733402 -0.24775303 0.09077473
-0.22138307 0.21325853 -0.00000119
-0.13319387 -0.68723813 0.00000042
-0.16681899 0.22666018 0.00000410
-0.22722909 -0.29077195 0.00000225
-0.21567639 -0.68320431 0.00000044
-0.34500459 -0.10217198 0.00000314
-0.34585675 0.10752509 0.10044733
-0.08514259 -0.22874443 0.00000227
-0.68532758 -0.07516923 -0.00000073
-0.18961211 0.47891810 0.09634803
-0.42655962 -0.02554521 0.14397228
-0.17795094 -0.12160616 0.00000281
-0.06230186 -0.40765280 0.00000157
-0.01227726 -0.68220202 0.00000044
-0.54244693 0.11598269 0.00000188
-0.12890422 -0.65390029 0.00000055
-0.22722697 0.12891458 0.00000348
-0.39955448 0.15340804 0.22416185
-0.21506538 0.04063807 0.00000315
-0.23369328 -0.35393080 0.00000203
-0.03794836 0.43571585 0.00000469
-0.35620181 0.24750144 0.00000257
-0.02655405 0.29352697 0.00000414
-0.07867950 0.60852653 0.00000540
-0.34560098 -0.51364077 0.00000107
-0.08964333 -0.01299566 0.00000309
-0.40080186 -0.63926513 0.00000060
-0.03288571 0.12956124 0.00001053
-0.51570413 0.16248611 0.00000092
-0.59586263 -0.52268752 0.00000053
-0.50145524 -0.36979589 0.00000143
-0.59947856 -0.78055474 0.00000098
-0.24444351 -0.04253615 0.00000284
-0.37821459 -0.19719684 0.00000226
-0.42202563 0.36153516 0.00000179
-0.08716403 0.59514653 0.00394298
-0.26643052 -0.66128955 0.00000092
-0.34869384 0.40034723 0.00000255
-0.39689302 -0.19245261 0.00000228
-0.14064230 -0.27263979 0.00000198
-0.06191668 -0.21824867 0.00000227
-0.16181961 -0.57837024 0.00000108
-0.72997658 -0.48192500 -0.00000080
-0.31561202 -0.00757939 0.00000297
-0.73606846 -0.24711819 -0.00000115
-0.26750094 -0.04650051 0.00000283
-0.50176044 0.12835166 0.00000255
-0.23201082 0.15958671 -0.00000211
-0.35954970 0.21390454 0.19872668
-0.33648757 0.28662417 0.21074139
-0.33585515 -0.68801850 0.00000093
-0.52007282 0.17348855 0.00000178
-0.19958716 0.32413661 0.00422670
-0.32363032 0.07075759 0.03669962
-0.58044964 -0.59605955 0.00000074
-0.07908176 -0.05328712 0.00000280
-0.49169319 -0.40478255 0.00000222
-0.08805205 0.46326093 0.00000487
-0.06209696 -0.30472601 0.00000195
-0.10199827 -0.04153561 0.00000300
-0.02266061 -0.25706460 0.00000204
-0.19971173 0.30220851 0.00000413
-0.42807562 0.01442842 0.17473551
-0.15984683 0.42855515 0.01020184
-0.60031164 0.06013424 0.00000128
-0.23323780 0.44770131 0.14858177
-0.28153408 0.24799994 0.09000629
-0.34074816 -0.41775457 0.00000143
-0.40495073 -0.69600704 0.00000100
-0.23415890 -0.10545499 0.00000296
-0.47846464 -0.28825183 0.04713688
-0.28259659 0.22951205 0.07877661
-0.69227217 -0.05468386 -0.00000081
-0.14163135 0.05098669 0.00000948
-0.28017960 0.02129530 0.00000350
-0.16240561 -0.69036686 0.00000066
-0.16151570 0.41479418 0.00000644
-0.05230382 -0.65519290 0.00000054
-0.19766414 -0.33786210 0.00000173
-0.22479783 -0.30587279 0.00000219
-0.18878867 -0.67738258 0.00000074
-0.40622316 -0.59118424 0.00000078
-0.23840660 0.53738128 0.00000384
-0.45424626 -0.67010578 0.00000049
-0.49855782 -0.32692411 0.00000144
-0.03162692 -0.45928116 0.00000133
-0.20533208 0.07510853 -0.00000473
-0.32423050 0.02691976 0.00682012
-0.22639336 0.38574470 0.09326198
-0.47716017 -0.72438339 0.00000100
-0.03112030 0.60405966 0.00000531
-0.35844949 -0.66928721 0.00000049
-0.78948740 -0.45393891 -0.00000087
-0.31115627 -0.36292828 0.00000211
-0.40243693 -0.34956086 0.00000230
-0.53645207 0.13836691 0.00000072
-0.27572612 -0.08148656 0.00000269
-0.27468435 0.23542227 0.06948521
-0.05642772 -0.12880901 0.00000252
-0.06666891 0.62264242 0.00000382
-0.12368152 0.30816126 0.00000434
-0.20917999 -0.51068092 0.00000140
-0.29866526 -0.65300413 0.00000055
-0.76960980 -0.73853729 -0.00000015
-0.05691450 0.05907127 0.00000322
-0.27682546 0.15825224 0.01872554
-0.12473260 -0.38706998 0.00000174
-0.25261938 -0.77001909 0.00000011
-0.24609806 0.07475010 0.00000365
-0.45683618 -0.73623037 0.00000093
-0.40691122 0.03767845 0.15510215
-0.06314027 0.25673051 -0.00000451
-0.39148180 0.39397355 0.00000209
-0.43720024 0.13084131 0.27231474
-0.16591139 -0.19193555 0.00000228
-0.41769543 -0.25365982 0.00000205
-0.39943977 -0.44185101 0.00000195
-0.06225575 0.42322199 -0.00000079
-0.42030507 0.26384400 0.00000187
-0.33904769 -0.01521396 0.00000293
-0.01313417 -0.61914682 0.00000068
-0.09890813 -0.46052318 0.00000127
-0.34869658 0.19632930 0.16787286
-0.39271501 0.15440265 0.21322458
-0.00573240 0.78814080 0.00140654
-0.32978851 0.07609190 0.00000297
-0.67093973 -0.57647522 -0.00000024
-0.40929371 -0.08116464 0.07539721
-0.49332086 -0.38132424 0.00681522
-0.36943046 0.19708333 0.20368592
-0.37225011 -0.00591768 0.06539978
-0.35453856 0.02037011 0.05377878
-0.08939734 0.25592175 0.00000409
-0.14692063 -0.18285447 0.00000254
-0.50426701 -0.03721126 0.26798419
-0.36768434 -0.75441163 0.00000073
-0.30067918 0.09225321 0.01279555
-0.02287394 -0.16741066 0.00000237
-0.56107130 -0.54743677 0.00000092
-0.49512882 -0.63386215 0.00000137
-0.43046927 -0.64644496 0.00000058
-0.10026346 0.27773107 0.00000840
-0.62626416 -0.59761215 0.08058741
-0.23480815 -0.32608906 0.00000178
-0.39906336 0.16274420 0.22990668
-0.71507227 -0.74914575 0.12489832
-0.49504966 -0.74553128 0.00000020
-0.21122531 0.13058413 0.00000783
-0.40503264 0.17295496 0.24726037
-0.57262676 -0.30137458 0.00000063
-0.43579773 -0.44713889 0.00000198
-0.36758997 -0.54040603 0.00000153
-0.31209241 0.10360374 0.00000642
-0.06995454 0.22021769 -0.00000515
-0.46032211 -0.10372627 0.14632669
-0.29882387 0.29048750 0.14937165
-0.01848582 0.24041202 0.00000393
-0.41265978 -0.05436098 0.00000217
-0.06974762 0.10076827 0.00001019
-0.00779119 0.74960167 0.00000582
-0.29495592 0.06218038 -0.00000259
-0.16261806 0.47863852 0.00000583
-0.05941291 -0.51127412 0.00000108
-0.54678879 -0.44248675 0.00000100
-0.09733346 0.51660850 0.00000666
-0.31557574 0.04225550 0.00000691
-0.04499070 0.35810596 0.00000434
-0.44867618 0.29231687 0.00000155
-0.24625010 -0.22632835 0.00000252
-0.36839565 -0.40207039 0.00000149
-0.34071288 -0.67940822 0.00000045
-0.20407584 -0.33485905 0.00000205
-0.47807366 -0.62024031 0.00000067
-0.08746288 -0.28604239 0.00000206
-0.35313172 0.04522116 0.06891211
-0.57791488 -0.42682801 0.00000066
-0.23357592 0.27090400 0.02454259
-0.06260022 0.33811896 0.00000436
-0.56188051 0.17502240 0.00000096
-0.62150112 -0.14937761 0.00000000
-0.13476795 0.51136176 0.02588854
-0.21299287 -0.52647888 0.00000103
-0.49991140 -0.18008599 0.15987165
-0.14557878 0.17411935 0.00000850
-0.11198935 -0.08373231 0.00000269
-0.01996584 -0.23116050 0.00000213
-0.32783524 0.04108065 0.02294821
-0.14685079 0.06882846 0.00000348
-0.34472291 0.18909817 0.15601428
-0.70379481 -0.71615855 0.12895911
-0.77542856 0.02091344 -0.00000175
-0.06528882 0.48274626 0.00000064
-0.52428849 0.06495781 0.00000090
-0.43466523 -0.10731075 0.10014144
-0.19291963 -0.30083254 0.00000216
-0.58384443 -0.39515559 0.15110474
-0.10413403 0.02150222 -0.00000869
-0.13661825 0.49899584 0.02032060
-0.31956116 0.18603321 0.11103774
-0.53125907 -0.48021802 0.00000119
-0.02714052 0.23614903 0.00000982
-0.39481657 -0.52659782 0.00000162
-0.44909656 -0.03040849 0.00000176
-0.32605768 0.26736730 0.17941843
-0.11227186 0.02371434 0.00000309
-0.45242604 -0.27605403 0.01142613
-0.56279986 -0.72620075 0.00000028
-0.34998660 0.14242203 0.13207176
-0.27156015 -0.52471318 0.00000103
-0.47523603 -0.66144043 0.00000052
-0.12323092 -0.56049372 0.00000090
-0.54760904 -0.72069213 0.00000112
-0.57989795 -0.72492555 0.00000116
-0.03130125 0.14142119 0.00001047
-0.61956453 -0.28519352 0.28939352
-0.53567277 -0.04472162 0.31613546
-0.16963726 -0.37678563 0.00000159
-0.26636125 -0.79391569 0.00000002
-0.56274569 -0.67250570 0.00000048
-0.35468291 0.03111645 0.06159939
-0.10198620 0.11056701 -0.00000674
-0.75885378 -0.55164698 -0.00000062
-0.28013424 0.19987357 0.00000341
-0.63798038 0.11629015 -0.00000035
-0.04880827 -0.64241482 0.00000066
-0.43062187 0.04161763 0.00000471
-0.60340547 -0.68725816 0.00000042
-0.04728874 0.38121284 0.00000450
-0.44131235 0.14762055 0.00000353
-0.02511161 -0.68750683 0.00000042
-0.04037149 0.75634816 0.00000563
-0.01789177 0.63207805 0.00000537
-0.29184727 0.09415235 0.00000335
-0.21846882 0.13925804 0.00000352
-0.22999841 0.42937968 0.13015569
-0.56745599 -0.10482917 0.32785256
-0.46340950 0.19958895 0.00000263
-0.04877198 -0.27859710 0.00000203
-0.58727437 -0.58656936 0.02202428
-0.15141844 -0.31816477 0.00000204
-0.51805809 0.27059568 0.00000092
-0.24984586 0.41073630 0.15078757
-0.03820833 0.11650437 0.00000349
-0.06835669 -0.59784372 0.00000086
-0.24253513 0.25117841 0.02587615
-0.39237594 -0.22982196 0.00000214
-0.18325774 0.04159557 0.00000343
-0.19643805 0.39206903 0.04674985
-0.14670874 -0.46822546 0.00000124
-0.56393159 0.15578898 0.00000041
-0.33993823 -0.46297500 0.00000126
-0.11429830 -0.62974885 0.00000081
-0.10117369 0.27886810 0.00000420
-0.31103187 0.29215144 0.00000302
-0.20693331 0.05284219 -0.00000519
-0.33429334 -0.03056730 0.00000289
-0.56907678 -0.45842451 0.08138076
-0.58377863 0.05836521 0.00000027
-0.27357711 -0.18650478 0.00000271
-0.42075608 -0.51676722 0.00000106
-0.15318373 -0.17254231 0.00000235
-0.12099601 0.02180652 0.00000326
-0.38625697 -0.08495351 0.03352642
-0.47337189 0.14698978 0.00000139
-0.04803337 -0.24577559 0.00000208
-0.21580018 0.51718595 0.00000446
-0.53683163 0.17546995 0.00000069
-0.44344894 0.02032108 0.20504362
-0.21574935 -0.26947407 0.00000199
-0.11208481 0.52019399 0.00000641
-0.39945678 -0.55866743 0.00000090
-0.14246791 0.21903765 0.00000382
-0.15875589 0.46480823 0.03389824
-0.24604390 0.03992810 0.00000799
-0.49100262 -0.60713604 0.00000072
-0.23012116 -0.48828382 0.00000152
-0.01089225 -0.32611318 0.00000179
-0.06036763 0.35712118 0.00000434
-0.73736133 -0.81906016 0.11354724
-0.13412703 -0.34810608 0.00000169
-0.34424675 -0.36254385 0.00000164
-0.05557974 0.69517985 0.02070585
-0.02532495 -0.70783601 0.00000035
-0.24199710 -0.06057255 0.00000277
-0.27661718 -0.18826736 0.00000229
-0.52251723 -0.58752942 0.00000080
-0.20129506 -0.02349303 0.00000322
-0.01009161 0.27060446 0.00000403
-0.35211282 0.12684176 0.12470164
-0.01929738 0.08591417 0.00000332
-0.33465409 -0.40011438 0.00000150
-0.39405901 0.06342164 0.15137757
-0.39558426 -0.06511393 0.00000236
-0.11334467 -0.24669874 0.00000207
-0.38785147 0.11761513 0.17901459
-0.76666003 -0.47488748 -0.00000081
-0.37117689 0.33362301 0.00000316
-0.35594327 -0.77965396 0.00000061
-0.15343322 0.19815064 0.00000374
-0.67223022 -0.05636781 -0.00000060
-0.56792658 -0.05734591 0.36212165
-0.38819424 0.30950719 0.00000219
-0.31330570 -0.53841880 0.00000145
-0.73103871 -0.39827750 -0.00000100
-0.50208131 0.27960968 0.00000115
-0.77163445 -0.35032307 -0.00000112
-0.17695276 0.50781342 0.00000529
-0.21906134 0.05029197 0.00000319
-0.10327199 0.27082227 0.00000402
-0.28166929 -0.68338463 0.00000044
-0.01383470 0.16955804 0.00000366
-0.03208170 0.28241991 0.00000406
-0.15344244 0.03859119 0.00000338
-0.36999031 -0.45839691 0.00000128
-0.28289257 0.19392546 0.05420383
-0.50644560 -0.17309832 0.00000125
-0.12844610 0.50496338 0.01062506
-0.47210629 -0.28819528 0.03635712
-0.28219448 -0.33067216 0.00000219
-0.21594881 0.38451700 0.07462712
-0.12185301 0.04453648 0.00000335
-0.19401450 0.14704902 0.00000797
-0.43659684 -0.00939534 0.17244350
-0.51984691 0.13647582 0.00000212
-0.55462173 0.16437882 0.00000120
-0.41627498 0.33403882 0.00000187
-0.03882106 0.65445094 0.00000551
-0.47623358 0.21737483 0.00000222
-0.27297072 -0.27648257 0.00000196
-0.16098449 -0.07338259 0.00000272
-0.41527429 -0.70734020 0.00000035
-0.52541038 -0.02124525 0.31521830
-0.49603852 -0.67736910 0.00000046
-0.16421345 0.47082247 0.04742042
-0.16151826 0.49236669 0.05802323
-0.32111157 -0.00928909 0.00000345
-0.14385016 0.05036789 0.00000341
-0.53732220 -0.51485630 0.00000107
-0.17807979 0.34318214 0.00000429
-0.06165862 -0.51741322 0.00000106
-0.08029730 0.52651495 0.00000684
-0.05669802 -0.20408198 0.00000223
-0.33572350 0.02468525 0.02480276
-0.51855069 -0.21513068 0.16688794
-0.37944168 0.20729982 0.22792140
-0.31770261 0.07748553 0.00000655
-0.31481525 -0.55906251 0.00000090
-0.18171498 -0.34761774 0.00000170
-0.20033974 0.31794605 0.00000419
-0.23210296 0.29932545 0.04206200
-0.31568456 -0.52061034 0.00000105
-0.63050007 -0.74538114 0.00000116
-0.54900539 -0.41217870 0.07982261
-0.14937869 -0.39298903 0.00000175
-0.52637445 -0.08974520 0.26857844
-0.71314924 -0.13525385 -0.00000098
-0.09771156 0.04493154 0.00001019
-0.19282756 0.51923081 0.00000488
-0.17684795 -0.56017027 0.00000090
-0.54620259 -0.79420115 0.00000085
-0.00734246 0.38565187 0.00000446
-0.35027810 -0.12029463 0.00000255
-0.42142549 -0.76160824 0.00000014
-0.58424127 -0.54807590 0.04399495
-0.29157978 -0.55656067 0.00000091
-0.47772560 0.14558878 0.00000134
-0.20188639 0.48649349 0.12257554
-0.54263100 -0.15855921 0.24773803
-0.30407979 0.46999394 0.00000320
-0.27519911 0.04722250 0.00000749
-0.61706916 -0.63681150 0.00000038
-0.46070719 -0.71334198 0.00000032
-0.39926177 0.36451323 0.00000234
-0.51231357 0.03123120 0.00000324
-0.02915487 0.05969676 0.00001111
-0.50520833 -0.67333844 0.00000124
-0.22091457 -0.58595270 0.00000080
-0.09085939 -0.71535265 0.00000045
-0.50286849 -0.68767371 0.00000118
-0.62598421 -0.15546864 -0.00000004
-0.72010225 -0.56514245 -0.00000059
-0.38707433 -0.06774248 0.04704837
-0.65799211 -0.29914265 -0.00000028
-0.51266096 -0.07689156 0.00000112
-0.15800845 -0.35161846 0.00000192
-0.79516998 -0.58288882 -0.00000054
-0.75180865 -0.44063138 -0.00000090
-0.31543584 0.07121086 0.00000665
-0.66483448 -0.33702935 -0.00000033
-0.18907571 0.08711952 0.00000849
-0.18426187 0.57071360 0.00000419
-0.51577057 -0.35757208 0.00000127
-0.17440911 0.26459015 0.00000399
-0.31245249 -0.07029046 0.00000321
-0.11474097 -0.60250456 0.00000091
-0.51828313 -0.78672767 0.00000083
-0.24603223 0.12217201 0.00000737
-0.38414623 -0.66271313 0.00000109
-0.57999765 -0.58543552 0.01044111
-0.28005728 -0.03929303 0.00000328
-0.61606945 -0.60504397 0.05800139
-0.07971497 0.23386956 0.00000904
-0.53952483 -0.23067303 0.19162342
-0.34249183 0.05728235 0.05929783
-0.45693328 -0.30180856 0.00000186
-0.39897907 -0.22868625 0.00000274
-0.31917173 -0.10958762 0.00000307
-0.13915952 0.24891661 0.00000803
-0.47755728 -0.42878390 0.00000211
-0.51167919 -0.05495468 0.26809040
-0.19140780 -0.30521347 0.00000186
-0.11907478 0.45357722 0.00000470
-0.54299107 -0.32497065 0.13105654
-0.68007715 0.08103082 -0.00000077
-0.50357189 0.03490393 0.00000337
-0.24010877 -0.57640512 0.00000084
-0.13827724 0.58551626 0.00000467
-0.13683662 -0.02398061 0.00000312
-0.24656689 0.34854009 0.00000542
-0.13715874 0.37901102 0.00000025
-0.02725632 0.30191199 0.00000413
-0.20914452 0.50377100 0.00000471
-0.51940328 -0.23805039 0.00000115
-0.29198051 -0.38253955 0.00000157
-0.23998853 0.28263552 0.04371636
-0.23632921 0.12731759 0.00000748
-0.29606227 0.27743122 0.13546899
-0.03895380 0.60739057 0.00000686
-0.15559501 0.54005235 0.08155379
-0.28081550 -0.42234064 0.00000184
-0.01855240 0.39086314 0.00000449
-0.19289380 -0.13464840 0.00000279
-0.22116301 0.51607941 0.00000383
-0.61769077 -0.33706267 0.24964547
-0.53285638 0.18173735 0.00000073
-0.44608923 0.00409389 0.19809824
-0.11854593 0.13291551 0.00000350
-0.06247782 -0.31764026 0.00000190
-0.51967571 -0.25750057 0.00000116
-0.29688646 0.18558556 0.00000324
-0.68213047 -0.22828414 -0.00000059
-0.32640773 0.10491512 0.06550326
-0.28506931 0.17654620 0.00000338
-0.15306007 0.40556131 0.00000452
-0.63368372 -0.44810895 0.19858925
-0.01716171 -0.34145241 0.00000172
-0.67218426 -0.08741501 -0.00000058
-0.27892440 -0.37028528 0.00000203
-0.27788846 0.28723444 0.11145268
-0.06534530 0.07239551 0.00000337
-0.34119384 0.02915350 0.00000288
-0.45876088 0.29422674 0.00000185
-0.12769012 -0.60276116 0.00000074
-0.00283238 0.72983815 0.00000574
-0.73958801 -0.68382570 -0.00000029
-0.71600231 0.03129907 -0.00000112
-0.17282594 0.01288464 0.00000930
-0.14914154 0.62249017 0.00000453
-0.02374045 0.46930030 0.00000476
-0.28141741 -0.29477400 0.00000232
-0.46294743 -0.66294022 0.00000051
-0.14141914 0.55847819 0.07042011
-0.33712462 -0.28734329 0.00000192
-0.32674465 0.27502603 0.18598600
-0.02111811 -0.47397560 0.00000122
-0.05672323 0.14127766 -0.00000728
-0.47986619 -0.48505575 0.00000191
-0.58462559 -0.20583010 0.28587905
-0.06320811 0.12835001 -0.00000740
-0.49323066 0.15274065 0.00000249
-0.61518900 -0.12559271 0.00000006
-0.15529176 0.46076793 0.02515099
-0.16422240 -0.77614158 0.00000034
-0.17365165 0.07243071 0.00000884
-0.60254230 -0.18190557 0.00000023
-0.31363151 0.39213243 0.00000373
-0.01353407 0.38687459 0.00000889
-0.07269527 0.72110746 0.00000528
-0.55766724 -0.13395755 0.29066464
-0.05604563 0.12381254 -0.00000769
-0.21062695 0.27435418 0.00000676
-0.33865908 -0.00485961 0.00000293
-0.04656348 0.47369853 0.00000485
-0.57912274 -0.71005276 0.00000034
-0.12236599 0.12202345 0.00000924
-0.28846073 -0.62994816 0.00000107
-0.76418130 -0.49224011 -0.00000077
-0.52950792 -0.03957469 0.30927087
-0.39646567 -0.60339839 0.00000134
-0.19816603 0.21281575 0.00000380
-0.44478186 -0.08421423 0.13363575
-0.34896228 0.25173817 0.20737964
-0.33199457 -0.26465479 0.00000251
-0.39801388 0.12729468 0.20313105
-0.19152282 -0.71647008 0.00000060
-0.07864896 -0.21829863 0.00000230
-0.44616680 -0.16208038 0.08110887
-0.36645173 0.09351866 0.12562019
-0.21829741 0.43283494 0.11267845
-0.39972472 -0.75023756 0.00000079
-0.01917385 0.70844870 0.00000566
-0.77516558 -0.25824141 -0.00000135
-0.34317425 0.12579249 0.10875836
-0.55760308 -0.70676837 0.00000035
-0.58255672 -0.26348262 0.24172251
-0.36243137 0.22536632 0.21170973
-0.21373003 0.16398647 -0.00000251
-0.38463439 -0.13632871 0.00000249
-0.35484803 -0.63446327 0.00000116
-0.24689126 0.05718793 -0.00000401
-0.01395441 0.61400897 0.00000530
-0.28537661 0.36060543 0.00000325
-0.50456043 -0.31491765 0.00000136
-0.57089838 -0.04362550 0.00000047
-0.21011711 0.22237139 -0.00000129
-0.04519637 -0.44759287 0.00000132
-0.71720484 -0.38766873 -0.00000086
-0.43569939 -0.19863241 0.03753362
-0.70952376 -0.53802206 -0.00000065
-0.21871223 -0.48769203 0.00000117
-0.11498071 0.38317961 0.00000739
-0.00992093 0.34059077 0.00000930
-0.09091875 0.61441399 0.02391270
-0.34672424 -0.45885791 0.00000180
-0.15594936 0.38803330 0.00000469
-0.20488322 0.33768566 0.02278170
-0.36743910 0.16451676 0.00000479
-0.00417708 0.68437957 0.00000680
-0.25597604 -0.78076652 0.00000007
-0.03690218 0.00799264 0.00001138
-0.65492503 -0.47563861 -0.00000013
-0.49647883 0.11913044 0.00000273
-0.77601150 0.00754252 -0.00000175
-0.61602080 -0.22530079 0.32557841
-0.17022649 0.39332351 0.00302465
-0.51878801 -0.42964407 0.00000129
-0.17895041 0.14714861 0.00000820
-0.50689065 -0.21427011 0.14765333
-0.14404614 0.40094804 0.00000682
-0.49952195 -0.49269709 0.00000191
-0.72611270 -0.16841658 -0.00000110
-0.40228211 -0.18482669 0.00000291
-0.01973675 -0.78924998 0.00000007
-0.52315572 -0.32681896 0.00000117
-0.22225699 -0.79252306 0.00000036
-0.69938974 -0.73154269 -0.00000017
-0.15984493 -0.46144745 0.00000127
-0.62034372 -0.39446152 0.21370259
-0.52752436 -0.21192828 0.00000105
-0.17145648 -0.73449260 0.00000050
-0.45734820 0.11083119 0.29249573
-0.74262347 -0.74403257 -0.00000014
-0.54312404 -0.08381308 0.30126143
-0.26896874 0.34584995 0.00000343
-0.27740702 0.42069527 0.00000329
-0.49081112 -0.53675184 0.00000173
-0.60263870 -0.62613224 0.02028315
-0.49922758 -0.21856630 0.13158539
-0.37098403 -0.74089928 0.00000022
-0.30727776 0.32219888 0.18611073
-0.12114524 0.50627971 0.00000508
-0.29481955 0.01873596 0.00000307
-0.48840469 -0.19422016 0.13032898
-0.57149057 -0.16711187 0.29081833
-0.23607843 -0.51131007 0.00000108
-0.44784190 -0.52753487 0.00000102
-0.11686580 0.41131921 0.00000043
-0.08458724 0.55339076 0.00000508
-0.77113147 -0.46233937 -0.00000084
-0.67903256 -0.64514673 0.13687525
-0.08453219 0.60442829 0.00600364
-0.18166222 0.39952177 0.02685974
-0.50777287 -0.35575289 0.04943115
-0.22333495 0.41492529 0.10862654
-0.50095161 -0.31056307 0.00000140
-0.78912293 -0.46695325 -0.00000083
-0.07399932 0.65370920 0.02281896
-0.27625216 0.01324388 0.00000305
-0.70671301 -0.43427224 -0.00000071
-0.03415727 0.56970039 0.00000514
-0.21724132 0.29368883 0.00000649
-0.10066848 0.04082558 0.00001017
-0.16757663 0.01325334 0.00000937
-0.10574565 -0.00448103 0.00000314
-0.25897641 0.32343221 0.00000356
-0.21617025 0.05241401 0.00000835
-0.53800289 -0.58294872 0.00000163
-0.04613904 0.45266501 0.00000477
-0.55959636 -0.39148405 0.11243114
-0.73076787 -0.65273272 -0.00000037
-0.08606527 0.54720367 0.00000505
-0.25266102 0.26768434 0.00000366
-0.14368545 0.15011570 0.00000356
-0.28814729 0.35767218 0.00000454
-0.28914117 -0.41327411 0.00000145
-0.32126528 -0.46821067 0.00000173
-0.71845644 -0.27614856 -0.00000095
-0.46710386 0.24806585 0.00000211
-0.40501631 -0.16411848 0.00964904
-0.14183139 0.22253151 -0.00000314
-0.71145614 -0.23815648 -0.00000090
-0.41392030 -0.57768728 0.00000146
-0.51776945 -0.38958356 0.04259637
-0.40195612 -0.78260456 0.00000067
-0.29604323 0.23643720 0.00000322
-0.52801554 -0.33051395 0.10166642
-0.11945651 -0.79365683 0.00000002
-0.66609756 -0.53715249 -0.00000021
-0.62410780 -0.41246062 0.00000015
-0.39982166 -0.67784342 0.00000106
-0.32655759 -0.76924801 0.00000012
-0.38717589 0.32018449 0.00000298
-0.14542836 -0.33346445 0.00000197
-0.39505846 0.09953241 0.17853246
-0.35997405 -0.42488738 0.00000195
-0.21735019 -0.33978420 0.00000173
-0.28730180 -0.66273819 0.00000051
-0.29877584 0.15890377 0.00000616
