ply
format ascii 1.0
element vertex 1374
property float x
property float y
property float z
end_header
-0.66936346 -0.63017828 -0.00000002
0.72053463 -0.17021313 -0.00000073
-0.50566353 -0.44625056 -0.00000022
0.70719846 -0.16112228 -0.00000073
-0.22705259 -0.11490760 -0.00000043
-0.71042146 -0.46326969 -0.00000001
-0.59726786 0.44519706 -0.00000025
0.45915259 0.18382723 0.13000331
-0.03887448 -0.05806729 -0.00000046
-0.64992851 -0.12113793 -0.00000014
0.52705556 0.12621580 -0.00000084
-0.03363696 0.66288868 -0.00000091
0.76608025 -0.00888431 -0.00000095
0.13337982 0.60180540 0.05366169
0.15838077 -0.78302058 -0.00000001
0.68784300 -0.70703311 -0.00000012
-0.79948494 -0.18828548 0.00000000
-0.64484140 -0.28853916 -0.00000011
-0.58455584 -0.79237703 -0.00000000
0.62773343 -0.70895389 -0.00000006
0.06494437 0.03070983 -0.00000052
-0.07551181 -0.45535170 -0.00000022
0.22543236 -0.71182490 -0.00000006
-0.71120473 0.00098426 -0.00000009
-0.43064861 0.43376939 -0.00000046
-0.35551094 -0.03330483 -0.00000047
-0.31221419 0.28240488 -0.00000057
0.75052041 -0.70578036 -0.00000012
-0.73453712 0.04704095 -0.00000008
0.16473660 0.26135800 0.30957208
0.23232369 -0.69596908 -0.00000007
-0.59928415 0.39302761 -0.00000025
0.39783807 0.40110465 0.00087355
0.25146908 0.54511001 0.00283053
0.08824160 -0.39224384 -0.00000025
0.37517863 0.34641237 0.06491705
0.10677320 0.62815480 0.05387466
0.45944251 -0.71169386 -0.00000006
0.38325926 -0.19215790 -0.00000038
-0.70723634 0.27753474 -0.00000012
-0.43346207 -0.10180811 -0.00000037
0.53792240 -0.51585049 -0.00000018
0.10452945 0.66840190 -0.00000097
0.46983342 0.25012688 -0.00000091
0.26175668 0.25257388 0.23651806
-0.65220762 0.03958799 -0.00000016
0.32740682 0.13579182 -0.00000064
-0.25644169 0.61747913 -0.00000068
-0.58108257 -0.53344101 -0.00000014
0.55623968 0.22028671 -0.00000097
-0.39030436 -0.77137951 -0.00000002
0.08741217 0.29144447 -0.00000068
0.00667029 0.46602026 -0.00000079
-0.16009892 -0.32533089 -0.00000030
-0.27451230 0.45729351 -0.00000064
0.31849916 -0.79610875 -0.00000000
0.15106050 -0.42094410 -0.00000024
0.39748010 0.14327250 0.21464252
0.11839358 -0.61557000 -0.00000012
0.63731860 0.00155622 -0.00000083
-0.39692040 0.73163732 -0.00000050
0.23712731 0.19614107 0.30363295
-0.41571076 -0.71877643 -0.00000005
-0.21470866 0.46204610 -0.00000071
0.37448263 0.26696596 0.13127110
-0.06277374 0.54791586 -0.00000084
-0.00708752 0.23795463 -0.00000065
-0.03734989 -0.11972375 -0.00000043
0.38230492 0.27729007 -0.00000085
-0.06838618 0.63678670 -0.00000090
0.51288036 0.19821482 0.07360709
-0.53478998 0.39068019 -0.00000033
-0.53978865 0.78617290 -0.00000033
-0.10205191 -0.27307732 -0.00000033
0.10540838 -0.55205013 -0.00000015
0.08723399 0.41611659 -0.00000076
-0.70563329 -0.44354381 -0.00000002
-0.69620108 0.02212967 -0.00000011
-0.24552054 -0.14050789 -0.00000041
0.22921597 -0.65345702 -0.00000009
-0.33750706 -0.26370226 -0.00000034
-0.30792240 -0.23419004 -0.00000035
-0.00532648 -0.00625069 -0.00000050
-0.78614035 -0.51205567 0.00000000
0.59219665 0.17463381 -0.00000096
-0.66682050 -0.44817446 -0.00000006
0.11500409 -0.63318882 -0.00000010
0.61721539 0.07604135 -0.00000089
-0.79769560 -0.76199758 0.00000000
0.11235465 -0.21910213 -0.00000036
-0.62749227 0.02895650 -0.00000019
-0.13471118 0.44425531 -0.00000078
0.16519676 -0.55136322 -0.00000016
-0.66024719 0.04668654 -0.00000016
0.47276482 0.27629326 0.04217563
-0.01473648 0.30924832 -0.00000069
0.14893046 0.50339732 0.12226340
0.06330860 -0.19693907 -0.00000038
-0.25568490 -0.28780642 -0.00000032
0.64217103 -0.08124921 -0.00000074
0.30070774 0.39378438 0.08735362
0.09062403 0.07122589 -0.00000054
0.54072547 0.08709372 0.14255559
0.60553093 0.17688407 -0.00000098
0.28093469 -0.06511873 -0.00000046
-0.74557356 -0.63970845 0.00000000
0.27055164 0.48147762 0.03971565
0.51560236 -0.75507967 -0.00000003
0.49069555 0.02258249 -0.00000069
0.10878245 0.61543955 -0.00000092
0.59843356 0.13923729 -0.00000093
0.00399146 0.58091111 -0.00000086
0.21561854 0.52237590 0.05133579
-0.57460631 0.04266617 -0.00000025
-0.06961223 0.33882283 -0.00000071
-0.41097689 0.05037565 -0.00000042
0.54567563 0.09965463 0.12805727
0.29008970 0.30063436 0.17326856
0.39901973 0.39069812 0.00851131
0.66111245 -0.35272743 -0.00000048
-0.48122084 -0.78690959 -0.00000001
0.59792917 -0.59266596 -0.00000015
0.19032116 -0.69431424 -0.00000007
0.28463898 -0.79660240 -0.00000000
0.73164322 -0.34525055 -0.00000056
-0.77148812 -0.03842733 -0.00000002
0.09993918 0.39317094 -0.00000075
0.21470481 0.40717316 0.14747449
0.65988189 -0.64598967 -0.00000016
-0.18180763 -0.64458008 -0.00000010
-0.07374573 0.38440583 -0.00000074
-0.38857450 0.46505223 -0.00000051
0.77508228 -0.37883120 -0.00000053
0.30528238 0.21710277 0.22984953
0.52351125 -0.08751109 -0.00000061
0.11995291 0.38957031 0.24049755
-0.18759532 0.16599514 -0.00000060
0.27075844 -0.43833087 -0.00000023
-0.32520285 -0.60591577 -0.00000012
0.02043346 -0.46010893 -0.00000021
0.20852698 -0.68675179 -0.00000007
-0.14240645 -0.03585273 -0.00000048
-0.38067857 0.44057911 -0.00000052
0.07319916 -0.33622786 -0.00000029
-0.29229339 0.55781678 -0.00000063
0.38986475 -0.66972208 -0.00000008
-0.65174227 0.20519247 -0.00000019
-0.30077745 0.62640236 -0.00000062
-0.73877448 0.15445731 -0.00000008
0.21099525 0.22972687 -0.00000064
0.46733993 0.31002899 -0.00000098
-0.41195177 -0.28501356 -0.00000032
-0.42079355 0.21162470 -0.00000044
-0.54576533 0.15942795 -0.00000030
0.39875561 0.11397823 0.23784071
-0.61721835 0.48774683 -0.00000023
-0.10658670 0.35867142 -0.00000072
0.35731883 0.27887113 0.13562499
0.77874891 -0.59772497 -0.00000025
0.08513973 0.04285778 -0.00000053
-0.62859309 -0.61940222 -0.00000007
0.28995530 -0.05012790 -0.00000047
-0.10512972 0.04304832 -0.00000053
-0.49564079 -0.01612245 -0.00000032
0.42972247 -0.30845105 -0.00000031
0.18232827 0.06343087 -0.00000054
-0.25307825 0.56942009 -0.00000068
-0.36577364 0.47395357 -0.00000054
-0.22035210 0.37180718 -0.00000069
-0.17498389 0.42523662 -0.00000074
-0.58941003 -0.24035715 -0.00000018
-0.11835381 -0.07725963 -0.00000045
-0.11498512 0.15241644 -0.00000060
-0.70731721 0.59146764 -0.00000012
0.52913005 0.01128419 -0.00000072
-0.10834189 -0.45263230 -0.00000022
-0.59146125 -0.41471114 -0.00000015
-0.70715494 0.19762782 -0.00000012
-0.08292122 0.25744946 -0.00000066
0.45638955 0.28410116 0.04926901
-0.00383211 -0.66018148 -0.00000009
0.53200575 0.09596860 0.14242712
-0.61658477 0.19131266 -0.00000023
0.53017917 -0.21268444 -0.00000049
-0.31118400 -0.36169100 -0.00000027
0.53446572 -0.33909777 -0.00000035
0.24779221 0.12770525 0.35146414
-0.65957571 -0.28475067 -0.00000010
0.76784129 0.02920005 0.00244781
0.13124972 0.29494576 0.30948839
0.42275721 0.11906948 -0.00000072
0.72248342 -0.37775767 -0.00000051
0.17150296 -0.70451231 -0.00000006
-0.35950337 -0.29515522 -0.00000032
-0.66380854 0.47406711 -0.00000017
-0.76760023 0.70151371 -0.00000004
-0.17670492 0.60649145 -0.00000078
-0.05367488 0.48665715 -0.00000080
-0.75000115 -0.26019958 -0.00000001
-0.55394567 -0.03220599 -0.00000026
-0.57773549 -0.64831254 -0.00000009
-0.36908625 -0.48847010 -0.00000019
-0.20534421 0.33070698 -0.00000070
-0.00078505 0.72217098 -0.00000095
-0.10784394 -0.75222363 -0.00000003
-0.30331868 -0.70273663 -0.00000006
0.38711033 -0.29205431 -0.00000032
-0.02728372 -0.06043706 -0.00000046
0.21264661 -0.02826301 -0.00000048
0.12395004 0.29832341 -0.00000069
0.50188105 -0.23598920 -0.00000043
-0.66973064 0.69672254 -0.00000016
0.62037088 -0.07299736 -0.00000073
-0.08250003 0.52209214 -0.00000083
0.33906851 -0.50028969 -0.00000019
-0.49269903 -0.14877679 -0.00000030
-0.40359251 -0.39775343 -0.00000025
0.49170386 0.00430269 -0.00000068
-0.18326723 -0.15330018 -0.00000040
0.47251434 -0.03088299 -0.00000062
0.12506305 0.63529786 0.03281744
0.36780479 -0.25960964 -0.00000034
-0.32785685 0.47100476 -0.00000059
0.54383112 -0.57274359 -0.00000014
0.28075002 0.41705885 0.08460752
0.54769958 0.24265444 0.00798459
-0.76109399 0.08266996 -0.00000005
0.25719253 0.02790598 -0.00000052
-0.67928145 0.73648489 -0.00000015
0.16686725 0.17564026 -0.00000061
-0.79311753 0.03783293 -0.00000001
-0.54067250 -0.20490134 -0.00000024
-0.76022070 0.31470486 -0.00000005
0.27292111 -0.38772249 -0.00000026
-0.62679153 0.61650857 -0.00000022
0.66144559 -0.24065472 -0.00000060
0.09215002 -0.37192394 -0.00000027
-0.24891092 0.06670623 -0.00000054
-0.40761099 0.51423375 -0.00000049
0.55307218 -0.66897718 -0.00000008
0.69688651 -0.32749921 -0.00000054
-0.43243851 0.02572384 -0.00000040
-0.44643382 -0.45922259 -0.00000021
-0.47615854 0.75955076 -0.00000040
0.48240148 -0.03284253 -0.00000063
0.67590935 -0.02038445 -0.00000085
-0.24625507 0.15602371 -0.00000060
0.12215144 -0.70490914 -0.00000006
0.28741839 -0.08933141 -0.00000044
-0.69541434 -0.08420285 -0.00000010
0.70716661 0.03809194 0.04532146
-0.29260922 0.20045670 -0.00000058
-0.09517951 -0.29151536 -0.00000032
0.03178459 -0.74012784 -0.00000004
0.33837129 -0.17335271 -0.00000039
-0.19518936 0.23211532 -0.00000065
0.15920851 0.54549713 -0.00000090
0.12794378 0.52022354 0.12570792
0.35265577 -0.68769554 -0.00000007
0.44626164 -0.74999614 -0.00000003
0.53665681 0.19323822 -0.00000093
-0.61922206 -0.40438449 -0.00000012
-0.20567874 0.25573231 -0.00000066
0.27046491 0.15933526 -0.00000061
-0.67822258 -0.70241840 -0.00000000
0.28383834 0.29069322 0.18667507
0.43815627 0.26462467 0.08049087
-0.37459560 -0.44981492 -0.00000022
0.25142602 -0.31835435 -0.00000030
0.11423596 0.38395748 0.24987796
-0.32344110 -0.14817659 -0.00000041
0.26776384 -0.59247983 -0.00000013
-0.53278947 -0.01639381 -0.00000028
-0.00814645 -0.35000303 -0.00000028
0.62399172 0.15133944 0.02042279
-0.49130634 -0.49222806 -0.00000019
-0.21330351 -0.58536432 -0.00000013
-0.43097006 0.60954130 -0.00000046
-0.22575734 -0.39519575 -0.00000025
0.12937071 -0.17165484 -0.00000039
0.00705206 -0.14676489 -0.00000041
0.18248958 0.08350877 -0.00000055
0.09472487 -0.75737781 -0.00000003
0.02750129 -0.62104115 -0.00000011
-0.73816519 0.45303421 -0.00000008
-0.68111110 -0.41046657 -0.00000005
0.17000068 0.42705846 0.16802289
-0.03601611 0.46549661 -0.00000079
-0.38269310 0.32015142 -0.00000050
-0.76298896 0.20103280 -0.00000005
0.27972771 0.42008012 0.08295246
-0.71758736 -0.07357875 -0.00000007
-0.50474700 -0.16283853 -0.00000029
-0.00171707 -0.09748718 -0.00000044
-0.61039446 0.69293561 -0.00000024
0.12169183 -0.35221530 -0.00000028
-0.76930100 0.28580970 -0.00000004
0.15074757 0.31288800 0.27849016
0.26073783 -0.25865596 -0.00000034
0.75710714 -0.14550730 -0.00000080
-0.70319464 -0.70767728 0.00000000
-0.59906447 0.44104182 -0.00000025
0.66416441 -0.16737431 -0.00000068
0.54027027 0.07163955 -0.00000080
0.17245806 -0.41363267 -0.00000024
-0.78350216 -0.20663734 0.00000000
0.03034229 0.37950860 -0.00000074
-0.17853192 0.19686945 -0.00000062
-0.64208496 -0.78688074 -0.00000001
0.68795168 -0.42983369 -0.00000042
-0.28632322 -0.02021152 -0.00000049
0.09107473 -0.62705812 -0.00000011
-0.19906391 -0.59502379 -0.00000013
0.67309884 0.06544348 -0.00000093
0.18184627 -0.01050732 -0.00000049
0.17051496 0.08466642 -0.00000055
-0.00487657 0.01533432 -0.00000051
0.09416764 0.64958897 -0.00000094
-0.57008763 -0.73268437 -0.00000004
-0.64421297 0.57851808 -0.00000019
-0.48426038 0.28833448 -0.00000039
-0.63783731 -0.37442196 -0.00000010
0.11409421 0.67066499 0.01261683
-0.41026545 0.42795107 -0.00000049
-0.57310321 0.35070090 -0.00000028
-0.02555183 0.30070198 -0.00000069
0.41628561 0.12049163 -0.00000072
0.66703794 -0.46280229 -0.00000036
0.21973912 -0.33813515 -0.00000029
0.19542072 0.56109468 -0.00000095
0.37864531 -0.35418648 -0.00000028
-0.78547544 -0.61949487 0.00000000
-0.35148087 -0.73029980 -0.00000004
-0.14484847 0.67830408 -0.00000082
-0.12513787 0.77289621 -0.00000084
0.09310276 0.62407689 0.06856934
-0.44628432 0.38122448 -0.00000044
0.47751271 -0.39126653 -0.00000026
-0.26578724 -0.02473697 -0.00000048
-0.69776101 0.39424319 -0.00000013
0.00044125 -0.42999742 -0.00000023
0.09589926 0.47118629 -0.00000079
0.02528406 -0.57703603 -0.00000014
0.55116624 0.18242788 0.05497905
0.76836836 -0.24826466 -0.00000069
0.26059565 -0.48816801 -0.00000019
0.52672390 -0.21722522 -0.00000048
0.02722608 -0.34212959 -0.00000029
0.15181224 -0.72489919 -0.00000005
0.24446580 -0.42922288 -0.00000023
-0.12728694 -0.28121751 -0.00000032
0.46040494 0.18566704 0.12744315
-0.17807588 0.11490430 -0.00000057
0.30017485 -0.64797224 -0.00000010
-0.35500891 0.64163044 -0.00000056
-0.23471470 -0.02451795 -0.00000048
-0.77511258 0.62238336 -0.00000003
-0.77885494 -0.04960756 -0.00000001
0.28782465 -0.31039907 -0.00000031
0.11540146 0.39730006 0.23786607
0.61181048 0.08602661 -0.00000089
-0.09331098 -0.79459516 -0.00000000
-0.55594105 0.63461234 -0.00000031
-0.14691447 0.77075347 -0.00000082
-0.23612732 -0.21855639 -0.00000036
-0.25645775 -0.47771670 -0.00000020
-0.04076616 0.79405786 -0.00000095
-0.48206031 -0.69203937 -0.00000007
-0.60608001 0.69766389 -0.00000024
-0.56052390 -0.12400755 -0.00000023
0.14714614 0.21442325 -0.00000063
-0.58533398 0.13782330 -0.00000025
-0.54876876 -0.12497208 -0.00000025
-0.46108574 -0.60143649 -0.00000012
-0.78371132 0.30709152 -0.00000002
-0.69870115 0.06259075 -0.00000012
0.62087912 -0.72254350 -0.00000005
-0.36924367 -0.37167581 -0.00000027
-0.18094325 0.69377455 -0.00000077
0.08420482 -0.67952554 -0.00000008
0.47091346 0.30586114 0.01922769
0.38163882 0.33606307 0.06813705
-0.10740755 -0.06037424 -0.00000046
-0.66153545 0.45725814 -0.00000017
0.57959710 -0.33656139 -0.00000041
-0.26451122 0.05495218 -0.00000053
0.26166340 -0.75742366 -0.00000003
-0.12392111 -0.04146821 -0.00000047
-0.47084403 -0.51436244 -0.00000018
0.66904099 0.05036088 0.06672954
0.77792603 -0.00490869 -0.00000097
-0.60244817 -0.18975719 -0.00000018
0.22730572 0.28188835 0.24077062
0.68095814 -0.26623627 -0.00000059
-0.25177010 0.17610320 -0.00000061
0.07235015 -0.29754628 -0.00000031
0.42073736 0.02574417 -0.00000062
0.05732390 0.71076921 0.02641555
0.31839583 -0.22878089 -0.00000036
0.51316092 0.18891558 0.08107412
0.23810320 0.39245881 0.14028467
0.10792687 -0.15163151 -0.00000041
-0.68084323 0.43505902 -0.00000015
0.38673948 0.33073861 -0.00000091
-0.45671380 0.05745560 -0.00000038
0.79514609 -0.72183005 -0.00000010
-0.65525189 0.55481107 -0.00000018
0.47194234 0.32204825 -0.00000099
0.42793230 -0.41886342 -0.00000024
-0.51929033 -0.75202558 -0.00000003
0.21955903 0.39155276 -0.00000080
0.41948138 0.31831211 -0.00000093
-0.16123990 -0.47708515 -0.00000020
-0.59472627 -0.54404379 -0.00000012
-0.20961947 -0.37429177 -0.00000027
0.15837018 0.60851304 0.02741728
-0.43388214 -0.77872100 -0.00000001
-0.32990671 -0.37660584 -0.00000026
0.06720782 0.52900340 -0.00000083
0.34449480 0.28959956 0.13736006
-0.11940695 0.43266217 -0.00000077
0.53376693 0.12724265 0.11507554
-0.10112495 0.65145189 -0.00000086
-0.05680493 0.68723790 -0.00000092
0.37922363 0.28319275 0.11391078
0.07551837 0.68876512 0.02956973
-0.50890106 0.79068408 -0.00000036
-0.57611477 -0.00470106 -0.00000024
-0.49137512 0.25838492 -0.00000038
0.05272110 0.13634849 -0.00000059
0.09823912 0.26298404 -0.00000066
0.06552999 0.05145851 -0.00000053
-0.02785577 0.12293381 -0.00000058
-0.20553675 0.40993105 -0.00000071
-0.58959603 -0.78318206 -0.00000001
-0.12370595 -0.52779194 -0.00000017
-0.10866523 0.70269899 -0.00000086
0.06130794 -0.04665051 -0.00000047
0.45764135 0.27099607 0.05908296
-0.17135203 0.71985376 -0.00000079
-0.09130500 0.12686907 -0.00000058
0.70221949 -0.55798315 -0.00000030
-0.53585943 0.03993890 -0.00000029
0.24964056 0.22306265 0.27098315
-0.79546926 0.22813182 -0.00000001
-0.47954673 -0.23395107 -0.00000030
0.43290049 -0.64028581 -0.00000010
0.74559886 -0.62582743 -0.00000022
-0.06494884 0.39645265 -0.00000075
0.75558832 -0.44816592 -0.00000044
-0.21446430 0.57637771 -0.00000073
0.38329528 0.13405032 0.23402239
-0.72617970 0.42691724 -0.00000009
-0.08669838 -0.14331293 -0.00000041
-0.61823982 -0.02848431 -0.00000019
0.62765346 -0.64973313 -0.00000012
-0.27151372 -0.15041956 -0.00000041
-0.48574041 0.28049294 -0.00000039
-0.11759670 0.38518841 -0.00000074
-0.12996637 0.39078475 -0.00000074
-0.59425305 0.25805648 -0.00000026
-0.13135275 0.49320586 -0.00000080
0.27467497 0.46509800 -0.00000094
0.33218887 -0.72356378 -0.00000005
0.45951766 -0.79312840 -0.00000000
0.28724855 -0.46635663 -0.00000021
0.55850683 -0.17668673 -0.00000055
-0.18659048 -0.56800215 -0.00000014
-0.35125905 0.15078640 -0.00000051
0.61567704 0.18262516 0.00140389
-0.02377357 -0.02639896 -0.00000048
-0.06830037 0.54858013 -0.00000084
0.27572807 -0.67194673 -0.00000008
0.13230669 0.52287839 -0.00000085
-0.70299587 0.09432004 -0.00000012
-0.28465674 0.70023101 -0.00000064
0.11950735 -0.43187261 -0.00000023
0.35807324 0.16850001 0.22638228
0.30053482 0.43496984 0.05339721
-0.23103153 0.01364511 -0.00000051
0.62106182 0.10714215 0.05944184
-0.32705404 -0.72335117 -0.00000005
-0.10889339 -0.69699386 -0.00000006
-0.78607835 0.50010297 -0.00000002
0.28044988 0.36142351 -0.00000083
-0.22639051 0.57078571 -0.00000072
0.17456892 0.48670598 -0.00000085
-0.20693773 0.55944545 -0.00000074
-0.77487297 -0.06766340 -0.00000001
-0.17627617 0.61779352 -0.00000078
0.29047041 0.29735157 -0.00000077
-0.15323972 -0.32648763 -0.00000030
0.34255953 0.02674280 -0.00000054
-0.38383298 0.02535866 -0.00000045
0.53759486 0.23278810 -0.00000097
-0.27440605 -0.45537435 -0.00000022
-0.66518625 -0.21450726 -0.00000010
0.21318335 -0.50498437 -0.00000018
-0.08344413 0.29358335 -0.00000068
-0.33416755 0.25004894 -0.00000054
-0.02758654 -0.73744302 -0.00000004
0.31517619 -0.19573140 -0.00000038
0.54730288 -0.27039271 -0.00000044
-0.58185074 0.08804219 -0.00000025
-0.18531961 -0.58137475 -0.00000014
-0.44719703 -0.53157401 -0.00000017
0.25061740 0.15817899 -0.00000060
-0.28227354 -0.14173091 -0.00000041
-0.42314425 -0.03925238 -0.00000039
-0.49295512 -0.61485595 -0.00000012
0.48003270 0.28431976 0.02951263
0.01372322 -0.46270854 -0.00000021
0.31018498 -0.67976338 -0.00000008
-0.23638631 0.39365042 -0.00000067
0.44307537 -0.15853637 -0.00000045
0.18849554 -0.39173733 -0.00000026
0.32533813 0.35945048 0.09538766
0.48371255 -0.51235174 -0.00000018
-0.53637056 -0.56123911 -0.00000015
-0.69256140 0.52234607 -0.00000013
0.53063812 0.16340299 -0.00000089
0.37600469 0.32218526 0.08429199
-0.35086090 -0.50310184 -0.00000019
0.36385807 0.11626786 0.26483813
-0.58972223 0.48137538 -0.00000026
-0.14466473 -0.54153450 -0.00000016
-0.19705619 0.45599321 -0.00000073
0.23804287 0.02716119 -0.00000052
0.43321759 0.01436941 -0.00000062
-0.54680514 0.77171076 -0.00000032
-0.52619883 0.73429339 -0.00000034
-0.72415364 -0.19776868 -0.00000004
-0.16676074 0.16647755 -0.00000060
-0.73950307 0.52735895 -0.00000008
0.34709606 0.20339361 0.20658070
0.07069421 -0.65820365 -0.00000009
-0.49952850 -0.62498417 -0.00000011
0.10466430 -0.05168583 -0.00000047
0.68808524 -0.47390120 -0.00000037
-0.77934245 -0.74769329 0.00000000
0.33767459 0.10555791 -0.00000062
0.21526553 0.40065178 0.15240960
-0.02449565 -0.63074385 -0.00000011
0.24103222 -0.52902385 -0.00000017
0.38105991 0.24461071 -0.00000081
-0.64489641 -0.38398236 -0.00000010
-0.78237991 -0.69934279 0.00000000
0.37906592 -0.09446371 -0.00000045
0.03652497 -0.65139906 -0.00000009
-0.27741001 -0.77440212 -0.00000002
0.68041266 -0.14204213 -0.00000072
0.23217411 0.42051392 0.12196538
0.12610269 0.06346130 -0.00000054
0.50228981 0.13908079 0.13133568
0.05350261 0.10034839 -0.00000056
-0.18837175 -0.70759948 -0.00000006
-0.32073419 -0.52646688 -0.00000017
-0.43760180 0.31227305 -0.00000044
-0.25658882 0.53879864 -0.00000068
0.15007094 0.29090410 -0.00000068
0.19285649 0.16685142 -0.00000060
-0.35487474 -0.35535144 -0.00000028
-0.70629110 -0.17247854 -0.00000007
0.78137735 -0.58987102 -0.00000026
-0.43335932 0.45857099 -0.00000046
-0.28169067 -0.16462385 -0.00000040
0.50217211 0.07359383 0.18565318
0.33725358 0.13653156 -0.00000065
0.48020194 0.06623490 -0.00000073
-0.00293206 -0.41459473 -0.00000024
0.58905763 -0.11560336 -0.00000065
0.13203554 0.46826301 0.16534064
-0.79728270 0.09305435 -0.00000000
-0.28549107 -0.06181641 -0.00000046
-0.38544271 0.12483705 -0.00000047
-0.51008624 -0.20845881 -0.00000027
-0.13036349 0.20560756 -0.00000063
0.30017425 0.37120930 0.10648640
-0.20717525 0.39270522 -0.00000070
-0.09200745 -0.49119805 -0.00000019
0.08808896 -0.00328617 -0.00000050
0.01117975 -0.43695513 -0.00000023
-0.73137689 0.70709221 -0.00000009
-0.43176668 0.06428010 -0.00000040
-0.52765641 -0.35311056 -0.00000023
0.09140113 -0.11683583 -0.00000043
-0.28423216 -0.74050627 -0.00000004
-0.56869246 0.05552213 -0.00000026
0.65272849 0.13406647 0.01093132
-0.76945313 -0.67710251 0.00000000
-0.28538647 0.53857739 -0.00000064
-0.01931948 0.46993484 -0.00000079
-0.15832139 -0.06117548 -0.00000046
0.48650759 -0.47227099 -0.00000020
-0.13984091 -0.59008800 -0.00000013
-0.33747483 -0.55602692 -0.00000015
-0.40487822 -0.10103670 -0.00000040
0.38495262 0.21184801 -0.00000078
-0.65804437 0.24413877 -0.00000018
0.38589780 0.34450363 -0.00000093
0.18865979 0.14563089 -0.00000059
0.53712320 0.15673529 -0.00000089
-0.58730038 -0.51690534 -0.00000013
0.50972322 0.11015054 0.14913402
0.64564713 -0.55629412 -0.00000024
-0.44720736 0.14461135 -0.00000040
0.34009676 0.41373270 0.03822516
0.35130622 0.43226384 -0.00000098
-0.19549573 0.76386484 -0.00000076
-0.79597517 0.15318754 -0.00000001
-0.06154733 -0.47364513 -0.00000020
-0.79220824 -0.06955330 0.00000000
-0.32877246 0.12228134 -0.00000053
-0.05789003 0.07780998 -0.00000055
-0.26315731 0.17953937 -0.00000061
-0.26723018 -0.46672718 -0.00000021
-0.02046450 -0.21855198 -0.00000036
-0.67676817 0.20746771 -0.00000015
0.55905507 -0.09630670 -0.00000064
-0.01819874 0.18664838 -0.00000062
-0.38571310 -0.74839227 -0.00000003
-0.32670873 0.19852621 -0.00000054
0.02438082 0.51548274 -0.00000082
-0.32185756 -0.26352215 -0.00000034
-0.30767849 0.48692931 -0.00000061
-0.16285752 -0.78062909 -0.00000001
0.15722381 0.38656206 0.21213016
0.47153796 -0.54852991 -0.00000016
0.44068887 0.27415199 0.07050585
0.06391629 -0.75606838 -0.00000003
0.46251774 -0.68953512 -0.00000007
-0.22994684 0.39596660 -0.00000068
0.61475497 -0.62192868 -0.00000014
0.65059968 -0.69973079 -0.00000009
-0.27770549 0.65002335 -0.00000065
-0.24958660 0.15061422 -0.00000059
-0.73806390 0.68590739 -0.00000008
0.77137626 -0.63555988 -0.00000021
-0.01857300 -0.67367290 -0.00000008
0.25333463 -0.56914716 -0.00000014
-0.53891729 -0.07605065 -0.00000026
0.00066402 0.19331709 -0.00000062
-0.02990888 0.66224821 -0.00000091
-0.70532276 -0.25010463 -0.00000006
0.06919611 0.66622821 -0.00000093
-0.43462519 0.01365668 -0.00000039
0.77286235 -0.54421051 -0.00000032
-0.44464095 -0.03136679 -0.00000037
-0.11246063 -0.36038181 -0.00000027
0.40094545 0.23819951 0.13317840
0.40374079 0.28491584 0.09218512
-0.00103964 -0.28394182 -0.00000032
0.41254231 0.15861257 0.18947091
0.77716157 -0.33456584 -0.00000058
0.71730830 -0.66228837 -0.00000017
-0.69284227 0.00536796 -0.00000012
-0.67375096 -0.79331173 0.00000000
0.78015646 -0.73062345 -0.00000009
0.15792948 -0.01300797 -0.00000049
-0.25563588 0.00469689 -0.00000050
-0.71470803 -0.44586830 -0.00000001
-0.26129518 -0.18597652 -0.00000038
-0.32713504 -0.46973469 -0.00000021
0.73576288 -0.16383000 -0.00000076
0.60509703 0.10649624 -0.00000091
0.06700596 0.43113302 -0.00000077
0.53709861 -0.75394285 -0.00000003
0.38210920 0.39098138 0.02227789
-0.16351929 0.11484263 -0.00000057
-0.05718691 -0.27846785 -0.00000033
0.06082840 -0.26330474 -0.00000034
0.57201974 0.12460592 0.08558715
0.12673425 -0.58887040 -0.00000013
-0.69618216 -0.49297797 -0.00000002
-0.16539154 0.39684451 -0.00000075
0.68770395 -0.02339911 -0.00000086
-0.24983209 0.53708423 -0.00000069
0.56308721 0.13361615 0.08552282
0.59350199 -0.29340555 -0.00000047
0.02523975 0.28909457 -0.00000068
0.20896450 -0.39621613 -0.00000025
-0.75023346 0.67658627 -0.00000006
-0.30246818 -0.74576652 -0.00000003
-0.47230387 -0.12299123 -0.00000033
-0.61725948 -0.56520915 -0.00000009
-0.32549011 -0.45837820 -0.00000021
-0.16700511 0.76426704 -0.00000079
0.27364554 0.31218107 -0.00000077
0.16002842 -0.47797998 -0.00000020
0.49904929 0.09883119 -0.00000078
-0.37945501 0.06685426 -0.00000046
0.37061375 0.13267560 -0.00000068
-0.02565717 0.55615613 -0.00000085
-0.66249977 0.62975476 -0.00000017
0.78053843 -0.43163386 -0.00000046
-0.63253111 -0.05502162 -0.00000017
-0.01708400 -0.78603481 -0.00000001
0.46809384 -0.10594251 -0.00000053
-0.34190425 -0.67562715 -0.00000008
-0.03246459 -0.76126022 -0.00000002
0.00625619 0.09297986 -0.00000056
0.54094635 -0.61193408 -0.00000012
0.33567386 0.39594458 0.05661482
-0.20917548 -0.74694260 -0.00000003
-0.67045174 -0.12477376 -0.00000012
-0.29034910 -0.34835952 -0.00000028
0.15320817 0.29347711 0.29252407
-0.49509578 0.56438843 -0.00000038
0.08619705 -0.25355903 -0.00000034
0.60184635 -0.67080775 -0.00000008
0.64868870 -0.58091044 -0.00000022
0.09381410 0.14336550 -0.00000059
-0.75201572 0.41823761 -0.00000006
-0.24365360 -0.78958091 -0.00000001
-0.70849264 -0.72567644 0.00000000
0.07831815 0.19931308 -0.00000062
-0.40825975 0.76659373 -0.00000049
-0.33153758 -0.61846136 -0.00000011
-0.41061815 -0.25948500 -0.00000034
-0.25049198 0.33782631 -0.00000065
0.67076307 -0.08543568 -0.00000077
-0.00607909 0.16576007 -0.00000060
-0.34440928 0.79672798 -0.00000057
0.60525673 0.13448830 0.04988639
-0.66980167 -0.73404137 -0.00000000
-0.12902792 -0.49918282 -0.00000019
-0.61734751 -0.34930162 -0.00000013
-0.24994352 0.15710124 -0.00000060
-0.58539613 -0.52109083 -0.00000013
-0.01814140 0.78166849 -0.00000098
-0.66826787 -0.13745873 -0.00000012
0.54584758 -0.17519218 -0.00000054
-0.06786289 -0.38531828 -0.00000026
-0.18925941 -0.31706411 -0.00000030
-0.23750188 0.43563491 -0.00000068
0.30339019 -0.21040247 -0.00000037
-0.38437334 0.79432400 -0.00000052
-0.76771556 -0.34804984 0.00000000
-0.15652572 -0.07069273 -0.00000046
-0.71326740 -0.40793855 -0.00000002
-0.20065720 0.07615533 -0.00000055
-0.04027014 0.07157083 -0.00000054
-0.63767026 0.57921425 -0.00000020
0.27818537 0.40027462 0.10062745
0.61745156 -0.43495054 -0.00000034
-0.68422995 0.28965891 -0.00000014
0.32084769 -0.17221069 -0.00000039
0.03582827 0.62526921 -0.00000089
-0.17556616 0.44740029 -0.00000075
-0.51440867 -0.66361558 -0.00000009
-0.65364765 -0.10968321 -0.00000014
-0.68517987 -0.68240248 0.00000000
0.05342452 -0.09662529 -0.00000044
-0.56741947 0.61617565 -0.00000029
-0.18131457 -0.71986333 -0.00000005
0.43899248 -0.12491075 -0.00000048
-0.34449916 -0.67615026 -0.00000008
-0.34429423 0.62197708 -0.00000057
0.02347155 -0.00454728 -0.00000050
-0.30714972 0.53729076 -0.00000062
0.21268697 0.55332184 0.02814125
0.04889960 0.61098089 -0.00000088
-0.47317864 -0.13333055 -0.00000032
-0.41054875 -0.25714776 -0.00000034
-0.29148533 0.32769754 -0.00000060
0.03538957 0.47858441 -0.00000080
-0.58644318 0.79996964 -0.00000027
0.37561458 -0.00565146 -0.00000054
-0.21457950 -0.77102700 -0.00000002
-0.04395141 0.25480013 -0.00000066
0.37000896 0.08510305 -0.00000063
-0.78648369 -0.40614794 0.00000000
-0.55777151 0.09557363 -0.00000028
-0.69153935 -0.21911276 -0.00000008
0.19251424 -0.72288668 -0.00000005
0.14946006 -0.15014680 -0.00000041
0.19216483 0.59807708 0.00807740
0.65547399 -0.55934647 -0.00000025
0.11071938 0.40564979 0.23482944
0.40425733 0.33143581 0.05324116
0.12014973 -0.56056237 -0.00000015
-0.52631760 0.21211001 -0.00000033
0.19232022 0.18953352 -0.00000062
0.24332645 -0.43433298 -0.00000023
0.07339689 -0.21061986 -0.00000037
0.56028041 0.10877116 -0.00000086
-0.09402250 0.48521148 -0.00000080
-0.31914148 0.27761364 -0.00000056
-0.44294900 -0.15958208 -0.00000035
-0.01802315 0.20661204 -0.00000063
-0.18366372 0.36998374 -0.00000073
-0.01871178 -0.03081303 -0.00000048
0.60058265 0.08175105 -0.00000087
0.48968409 -0.18275249 -0.00000047
-0.35091232 -0.25499256 -0.00000034
-0.41142302 0.58639297 -0.00000049
0.32778836 -0.14848885 -0.00000041
-0.25380631 -0.40017826 -0.00000025
0.35900303 0.35101947 0.07449521
-0.51532057 -0.65588901 -0.00000009
0.63689502 -0.40231081 -0.00000040
-0.69007698 0.46214018 -0.00000014
0.01189714 0.65521107 -0.00000091
0.52022827 -0.75383110 -0.00000003
0.34825997 0.41638906 -0.00000096
0.17518164 0.29865907 0.27004098
-0.72398505 0.29812305 -0.00000010
-0.71114183 0.79594076 -0.00000011
-0.43776726 -0.45269780 -0.00000022
0.08266475 -0.17814717 -0.00000039
0.39263002 0.15577115 0.20830988
0.17734479 0.29928989 -0.00000069
-0.69177780 0.55847471 -0.00000014
-0.64602884 -0.57005946 -0.00000006
-0.43630585 0.15129183 -0.00000042
0.34600872 0.10369827 0.29002325
0.02246825 -0.66303910 -0.00000009
-0.00509962 -0.00008015 -0.00000050
0.71148862 -0.41922703 -0.00000046
-0.71554196 -0.70673119 0.00000000
0.27567189 0.48611206 0.03163923
-0.16390191 0.31901104 -0.00000070
0.17272280 -0.04575927 -0.00000047
0.31947119 -0.02119828 -0.00000049
0.58596686 -0.32666704 -0.00000042
0.16070754 0.55177345 -0.00000091
0.11165995 -0.45223378 -0.00000022
-0.58004687 0.10784850 -0.00000025
-0.70417536 0.36248881 -0.00000012
-0.23556581 -0.47601744 -0.00000020
0.01789828 0.52849999 -0.00000083
0.36191980 0.32416873 -0.00000088
0.55440847 0.13632821 0.09046294
0.27660949 0.36568494 -0.00000083
-0.02383554 -0.51036679 -0.00000018
0.16257830 0.50368678 0.11072414
-0.75308562 0.48455027 -0.00000006
-0.26879105 0.34536105 -0.00000063
-0.44964893 0.38498148 -0.00000044
0.35759150 -0.47825170 -0.00000020
0.38763483 0.05051104 -0.00000061
-0.14217752 0.11380180 -0.00000057
-0.14209346 -0.05124207 -0.00000047
-0.07648094 -0.08313084 -0.00000045
-0.52757831 -0.25263320 -0.00000024
0.37772507 0.32042721 0.08432318
-0.55321601 0.70477563 -0.00000031
0.38982473 -0.57960278 -0.00000014
0.19778295 0.55890045 -0.00000095
0.01602432 -0.05774547 -0.00000046
0.33384016 -0.38514283 -0.00000026
0.72852901 -0.24086151 -0.00000067
-0.49518129 0.11130007 -0.00000035
-0.40380452 0.06111627 -0.00000043
-0.51189308 -0.73783825 -0.00000004
-0.39284810 -0.40522652 -0.00000025
-0.53672956 -0.41845498 -0.00000020
0.30846221 0.24008915 -0.00000073
-0.01939558 -0.09088789 -0.00000044
0.25032978 0.44860113 -0.00000089
-0.73590767 0.24685171 -0.00000008
0.13542760 0.50127373 0.13520116
-0.60685009 -0.63500094 -0.00000009
-0.08373465 0.50072683 -0.00000081
0.75786008 0.00257587 -0.00000096
0.18288409 0.16752967 0.37223174
0.31623551 -0.31654999 -0.00000030
0.15323628 -0.19950071 -0.00000038
0.49156180 0.23757232 0.05867171
0.54200929 0.10809515 -0.00000084
-0.62080186 0.09255289 -0.00000021
0.45168399 0.33753402 -0.00000099
-0.43657110 -0.69088449 -0.00000007
-0.74991166 0.23447074 -0.00000006
0.21098218 0.14923387 0.36411612
-0.69394040 0.60276492 -0.00000013
0.34689157 0.32714640 -0.00000087
-0.04268896 -0.15761575 -0.00000040
0.69934558 -0.05881931 -0.00000083
-0.57863983 -0.09361614 -0.00000022
0.77507685 0.01799290 -0.00000099
-0.33885749 0.28893533 -0.00000054
0.68283477 -0.02901573 -0.00000084
-0.30612193 0.79243620 -0.00000062
-0.18185405 -0.09936254 -0.00000044
-0.26279117 -0.43147300 -0.00000023
-0.05778948 0.32715338 -0.00000070
0.51710205 0.18696428 -0.00000090
0.46112981 0.19076774 -0.00000084
0.54528771 -0.29292322 -0.00000042
-0.33633850 0.03020470 -0.00000050
0.07539861 0.63469679 -0.00000090
0.34530541 -0.73693490 -0.00000004
0.37134878 -0.73223049 -0.00000004
0.16861795 -0.68559269 -0.00000007
-0.03296214 0.22865576 -0.00000064
0.11301173 0.35130702 -0.00000072
-0.63579489 0.77490777 -0.00000021
0.16684312 0.43222403 -0.00000079
-0.51223580 0.56423515 -0.00000036
0.33839480 0.45274349 -0.00000099
-0.29077254 -0.51633378 -0.00000018
0.29330248 -0.24545735 -0.00000035
-0.23400404 0.21513156 -0.00000063
-0.47387128 -0.34179874 -0.00000029
-0.02719464 0.49501705 -0.00000081
0.50402844 -0.40182733 -0.00000026
-0.14269605 0.31440328 -0.00000070
0.58765137 -0.12392143 -0.00000064
-0.65114239 -0.41852249 -0.00000008
-0.10379412 -0.64278625 -0.00000010
0.69697913 -0.75916812 -0.00000005
-0.10373405 0.00740337 -0.00000050
-0.27464312 0.22457165 -0.00000060
0.50031670 -0.12441324 -0.00000055
0.17731141 0.54505954 0.06427129
-0.43986933 -0.63698063 -0.00000010
-0.57669865 -0.51203840 -0.00000014
-0.33947433 0.22449741 -0.00000053
0.13343426 0.14115110 -0.00000059
0.09372844 0.18076859 -0.00000061
-0.01181815 0.18330136 -0.00000061
-0.63720743 0.42521415 -0.00000020
0.54561092 0.10956809 -0.00000085
0.70019616 -0.75123217 -0.00000006
-0.60643539 0.39500264 -0.00000024
0.75771398 -0.32984258 -0.00000059
0.21709690 -0.15825663 -0.00000040
-0.11365387 -0.18391003 -0.00000039
-0.09783232 -0.73399117 -0.00000004
-0.62269808 -0.10639819 -0.00000017
-0.31477334 0.37508149 -0.00000059
-0.35457534 -0.49626891 -0.00000019
0.33610238 0.37369163 0.07468439
0.46500095 -0.11345204 -0.00000052
-0.24751252 -0.00875420 -0.00000049
0.40309795 0.12934396 0.22152338
0.76803580 0.02867306 -0.00000100
-0.49204907 -0.04415847 -0.00000032
-0.31202328 -0.37243281 -0.00000027
0.56820433 -0.50492400 -0.00000021
0.44223133 -0.69204924 -0.00000007
0.34484454 0.10401757 0.29072276
0.23332837 0.37377196 -0.00000079
-0.71378165 -0.58382149 0.00000000
0.78934605 -0.62944302 -0.00000021
-0.27355420 0.56370361 -0.00000066
0.26188861 -0.42667635 -0.00000023
-0.35478052 0.32532898 -0.00000053
-0.32758274 0.35884399 -0.00000057
0.31932220 0.46720384 -0.00000099
-0.16703868 -0.78877588 -0.00000001
0.47093094 0.27603558 0.04390735
0.72220757 -0.72805105 -0.00000009
-0.34294226 -0.38268431 -0.00000026
0.06007314 0.04982102 -0.00000053
0.22316828 -0.20715735 -0.00000037
0.58580126 -0.02574207 -0.00000074
-0.64041091 0.15447873 -0.00000020
-0.01979051 -0.36575778 -0.00000027
-0.49092192 0.11427774 -0.00000035
0.23458770 -0.33960026 -0.00000029
0.18146001 0.22453347 -0.00000064
0.28869920 0.22791867 0.23462442
-0.31430816 -0.27980892 -0.00000033
-0.26028210 -0.02798437 -0.00000048
-0.02584586 0.23726942 -0.00000065
0.32101398 0.29444187 0.15279184
0.04378560 0.10935669 -0.00000057
0.68715503 -0.29966990 -0.00000056
-0.51447631 -0.34629378 -0.00000024
-0.34245107 -0.55500667 -0.00000015
-0.72893025 0.23475847 -0.00000009
0.27713045 -0.71840183 -0.00000005
0.31209152 -0.53831968 -0.00000016
0.38758840 -0.01779509 -0.00000054
0.44255623 -0.43257378 -0.00000023
-0.76607391 0.16551406 -0.00000004
0.48582824 0.08436406 0.19026788
-0.60203382 0.25475424 -0.00000025
-0.65298771 -0.27290734 -0.00000011
0.00564947 0.02453844 -0.00000052
0.12635346 -0.48181323 -0.00000020
-0.75866691 -0.78732926 0.00000000
0.13877576 0.24839394 0.34179961
0.09138672 0.23468425 -0.00000065
-0.21735574 0.40302665 -0.00000070
-0.59134732 -0.71400857 -0.00000005
0.06448178 -0.48081395 -0.00000020
-0.71431905 -0.23609299 -0.00000005
0.59223856 -0.23637086 -0.00000053
0.58207024 -0.33186788 -0.00000041
0.70446678 0.04752756 0.03974455
0.68852860 -0.65387705 -0.00000018
-0.01554254 0.49760603 -0.00000081
-0.79411716 0.58545387 -0.00000001
-0.02971153 0.03148683 -0.00000052
0.55168693 -0.45815282 -0.00000025
0.44455944 0.27169065 -0.00000091
-0.68922376 -0.49754571 -0.00000003
-0.03369919 0.71253111 -0.00000095
-0.43642191 0.40123347 -0.00000045
0.74226404 -0.33021983 -0.00000059
0.29416986 0.29798762 -0.00000078
0.75959828 -0.40854917 -0.00000049
0.12334930 0.41725464 0.21476444
0.23999405 -0.29414895 -0.00000032
-0.24675801 0.25675704 -0.00000064
0.24646971 0.26711235 0.23713770
-0.01374994 0.47546168 -0.00000080
-0.41099026 -0.63927443 -0.00000010
0.00613243 -0.73496967 -0.00000004
0.33374091 0.09983073 0.30338236
0.53681241 -0.53081374 -0.00000017
0.45674759 -0.22497246 -0.00000039
-0.45911389 -0.46968028 -0.00000021
-0.53359583 0.41225506 -0.00000033
-0.02258863 -0.48627301 -0.00000020
-0.75340313 0.69869783 -0.00000006
0.11876290 0.38176014 -0.00000074
-0.37153835 0.04471258 -0.00000047
-0.40937230 -0.68202790 -0.00000007
0.22276237 -0.11492840 -0.00000043
0.19593815 -0.56668178 -0.00000015
-0.10226524 -0.28883807 -0.00000032
0.23817486 -0.52501412 -0.00000017
-0.00800594 0.23825068 -0.00000065
-0.45083867 -0.09250653 -0.00000036
-0.17066336 0.50247609 -0.00000076
0.19078775 0.26750220 0.28291623
0.21364427 0.52031507 0.05467667
0.39790937 -0.63399863 -0.00000010
0.78636318 -0.14650208 -0.00000082
-0.71624966 -0.36292534 -0.00000002
0.15860040 0.41668272 0.18605218
0.00095562 -0.60486063 -0.00000012
-0.68851154 0.34002218 -0.00000014
-0.52853581 0.52251860 -0.00000034
0.17599039 0.05923801 -0.00000054
-0.19848895 0.09221857 -0.00000056
-0.75386596 -0.20061658 -0.00000001
0.11324721 0.58924324 0.08073129
0.51758830 -0.73954059 -0.00000004
0.45927997 0.31701130 -0.00000097
-0.04442040 0.74022045 -0.00000094
0.69722568 0.07689147 -0.00000097
0.13606621 0.61898253 -0.00000095
-0.33179450 0.34257392 -0.00000056
-0.27951287 0.32128421 -0.00000061
0.22951253 -0.67117685 -0.00000008
-0.49366637 0.14565309 -0.00000035
0.40215197 0.23942937 0.13116119
-0.55092644 -0.49890656 -0.00000017
-0.76749423 -0.35184403 0.00000000
0.72151749 -0.30058838 -0.00000060
0.68501137 -0.44070083 -0.00000041
-0.05259945 -0.73228993 -0.00000004
0.11434807 -0.70117544 -0.00000006
0.10655204 0.37866637 0.26062053
0.59202270 -0.48191399 -0.00000026
-0.37412447 -0.49870424 -0.00000019
0.17069804 0.33688043 -0.00000071
0.12646203 0.54059791 -0.00000086
0.72061981 -0.16256278 -0.00000074
-0.30864673 0.66834451 -0.00000061
0.26729979 0.36112860 0.14205120
-0.51250256 -0.29093915 -0.00000025
0.13531108 0.26889192 0.32769697
-0.37903537 -0.51420317 -0.00000018
-0.58285473 -0.36773404 -0.00000016
-0.08027054 0.55081155 -0.00000084
0.05135555 0.28136729 -0.00000068
-0.29746501 -0.27750414 -0.00000033
-0.68542576 0.43630928 -0.00000014
0.01449592 -0.50131478 -0.00000019
-0.05334123 -0.50962452 -0.00000018
-0.46636765 -0.55551751 -0.00000015
0.40060207 0.16529670 0.19382271
-0.77386831 -0.26635282 0.00000000
-0.35214840 0.55607519 -0.00000056
-0.58809018 -0.32160289 -0.00000017
0.14855065 -0.07048828 -0.00000046
0.21002196 0.33398830 -0.00000073
0.53563709 -0.00848347 -0.00000071
0.15148375 0.10524414 -0.00000057
-0.01860142 -0.36791101 -0.00000027
-0.52494945 -0.53980456 -0.00000016
0.36943382 0.01407889 -0.00000056
-0.15752916 -0.01296273 -0.00000049
0.59925841 -0.44618374 -0.00000031
0.07437854 -0.03604729 -0.00000048
0.29672503 0.33453303 -0.00000082
-0.39787900 0.09145111 -0.00000045
0.38731405 -0.46201729 -0.00000021
0.64523679 -0.17585522 -0.00000065
-0.22584005 -0.52403730 -0.00000017
0.30746586 0.10525698 -0.00000059
-0.32409832 0.34603042 -0.00000057
0.55131528 0.12689888 -0.00000087
-0.23657522 0.04712074 -0.00000053
-0.00339001 0.61827909 -0.00000089
-0.31722241 0.03652242 -0.00000052
-0.63197905 0.27634884 -0.00000021
0.71769795 -0.66096228 -0.00000017
0.69980081 -0.56578845 -0.00000029
-0.78851530 -0.35540382 0.00000000
0.31103982 0.17961446 0.25612096
0.21945475 -0.50633772 -0.00000018
0.39440758 0.17742883 0.18890663
0.02322772 -0.09869581 -0.00000044
0.52095397 -0.77035660 -0.00000002
0.69775220 0.05313479 0.04066138
-0.00633148 0.27495306 -0.00000067
-0.17910856 0.68645387 -0.00000078
-0.15697041 -0.21548450 -0.00000037
-0.63478814 0.75245420 -0.00000021
0.22489988 0.02128303 -0.00000051
0.66076852 -0.79310424 -0.00000001
0.53841359 -0.35329931 -0.00000034
-0.35487518 0.03633055 -0.00000048
0.67416906 -0.04752542 -0.00000082
-0.58155762 0.49951539 -0.00000027
-0.71130863 -0.51224221 -0.00000000
0.32751565 -0.07115201 -0.00000046
-0.26755277 0.33639187 -0.00000063
0.15073232 0.42842296 -0.00000077
0.49597453 0.29656677 -0.00000099
-0.15583684 0.02979647 -0.00000052
-0.67288573 0.54894538 -0.00000016
-0.21672424 -0.75574008 -0.00000003
-0.02380212 -0.19003844 -0.00000038
-0.31201312 -0.26280254 -0.00000034
0.50412000 -0.31354252 -0.00000035
0.28353870 -0.06854018 -0.00000046
-0.21991298 0.66721225 -0.00000073
0.51644769 -0.38596617 -0.00000029
0.12483817 0.49343444 0.15045908
-0.32602382 -0.35885249 -0.00000028
0.36204163 -0.48241944 -0.00000020
0.79697132 -0.28323340 -0.00000065
0.38958765 -0.11861471 -0.00000044
0.79321305 -0.10162346 -0.00000087
0.64934755 -0.25497460 -0.00000057
-0.18635336 -0.75347541 -0.00000003
-0.05829412 0.08639608 -0.00000055
0.78798394 -0.25196049 -0.00000069
0.72219428 0.07604892 0.00145273
-0.38300926 -0.15706559 -0.00000040
-0.13263125 0.40018685 -0.00000075
-0.13384813 -0.53275785 -0.00000017
-0.71942553 -0.32809407 -0.00000003
-0.04649412 0.75116446 -0.00000094
0.28003461 0.47306455 -0.00000095
-0.59866318 -0.18084238 -0.00000018
0.16098005 -0.67267983 -0.00000008
0.32030734 0.23797962 -0.00000074
0.00838995 0.21861419 -0.00000064
-0.12902187 -0.50945402 -0.00000018
0.50917258 -0.16338911 -0.00000052
0.08414881 0.30470166 -0.00000069
0.05455688 -0.49266305 -0.00000019
0.75675636 -0.20419992 -0.00000074
-0.27212538 0.78039241 -0.00000066
0.75841337 -0.29379290 -0.00000063
0.16284255 -0.66448086 -0.00000008
0.54973040 -0.33609907 -0.00000037
-0.78856949 -0.20022783 0.00000000
-0.60150935 0.60778952 -0.00000025
-0.35876000 -0.23310100 -0.00000035
0.19657299 0.59207427 0.00939770
0.79555596 -0.27122404 -0.00000066
-0.68315277 -0.51326783 -0.00000003
0.63996618 -0.13800468 -0.00000068
0.50664423 0.24611125 0.03911436
-0.78925294 -0.42203341 0.00000000
0.70516762 -0.55283438 -0.00000031
0.56274556 0.20619948 0.02571019
-0.58022156 -0.15700007 -0.00000021
-0.61104134 0.26289314 -0.00000024
0.45187919 -0.60368809 -0.00000012
-0.79537659 0.50275379 -0.00000001
0.23398215 0.44123615 0.10331141
-0.06591562 -0.75951668 -0.00000003
-0.73450633 -0.14470530 -0.00000004
0.40782580 0.24733196 0.11992057
0.31686771 -0.61894015 -0.00000011
-0.28036785 0.75618450 -0.00000065
-0.26137318 0.20599725 -0.00000061
0.31011292 -0.09189611 -0.00000044
0.20499696 0.31464452 0.23212062
0.12708413 0.41252117 0.21559129
0.38667420 -0.31970334 -0.00000030
-0.14296519 -0.63290491 -0.00000010
0.36590029 -0.41307589 -0.00000024
0.78640509 -0.70475644 -0.00000012
-0.25993346 -0.42596663 -0.00000023
0.57420173 -0.07429398 -0.00000068
-0.73527406 0.57275672 -0.00000008
0.05835735 0.68654557 -0.00000094
-0.30296327 0.63905075 -0.00000062
-0.77217400 -0.22820077 0.00000000
0.28821940 0.06765193 -0.00000054
0.23075862 0.47939976 -0.00000090
-0.20736604 -0.40960609 -0.00000024
0.42415103 0.31678921 -0.00000094
0.54045411 -0.01520764 -0.00000071
-0.53560566 -0.41551412 -0.00000021
0.43700698 0.16866980 -0.00000079
-0.63738938 0.49782248 -0.00000020
-0.53431889 -0.23015685 -0.00000024
-0.77984092 -0.58924553 0.00000000
-0.07749099 -0.52020989 -0.00000017
-0.71168956 -0.76719775 0.00000000
0.17774980 0.24414959 0.31304555
0.15199338 0.11367204 -0.00000057
-0.55999135 -0.37247367 -0.00000019
-0.23584149 0.78275821 -0.00000071
0.50915521 0.15235224 0.11466333
-0.22641764 -0.10923125 -0.00000043
0.51103741 -0.62676779 -0.00000011
0.63671648 0.05392575 0.09054114
0.36855421 -0.73857718 -0.00000004
0.09547903 0.53972959 -0.00000084
0.36301143 0.41378387 0.01921056
0.54604313 -0.10487028 -0.00000062
-0.02527613 0.56676834 -0.00000085
-0.37035038 -0.26967262 -0.00000033
-0.42768806 0.77003342 -0.00000047
0.10811280 0.32817086 0.30113582
-0.41346443 -0.74081594 -0.00000004
0.65708612 -0.72589337 -0.00000007
0.28414509 -0.49575779 -0.00000019
0.21367011 0.39954605 0.15464599
0.07142268 0.61122355 -0.00000088
0.42801048 0.36578795 0.00513279
0.31726878 0.26991529 0.17619951
-0.17795767 -0.73280757 -0.00000004
-0.14199840 0.26733557 -0.00000067
-0.62819302 0.16797779 -0.00000021
-0.38587163 -0.19486718 -0.00000038
-0.22498344 0.38555455 -0.00000068
-0.63289381 -0.10451116 -0.00000016
0.65188825 -0.68619529 -0.00000011
0.22026098 0.33692435 0.20103646
-0.48786993 0.30715123 -0.00000039
0.20228642 -0.68456249 -0.00000007
-0.26839864 0.30898120 -0.00000062
0.77054677 -0.10174304 -0.00000086
0.48843985 -0.52625874 -0.00000017
-0.72299462 0.03642034 -0.00000009
0.01738215 0.77747726 0.00425434
-0.50156634 0.65765333 -0.00000037
-0.78601275 -0.15460716 0.00000000
-0.14003649 0.71811570 -0.00000082
-0.79010782 0.36839408 -0.00000001
-0.28912856 0.72261139 -0.00000064
0.11083762 0.63586536 -0.00000094
0.12532163 -0.59143029 -0.00000013
0.59231887 -0.34090289 -0.00000041
0.25190596 0.34981141 0.16416655
0.23653759 0.23120785 0.27508785
0.14026518 0.10902570 -0.00000057
-0.17613566 -0.38934115 -0.00000026
0.31613541 0.27469475 0.17318072
0.46409382 0.20475939 0.10858140
-0.75014853 0.16742668 -0.00000006
-0.39489614 0.72354715 -0.00000051
0.67381006 0.00670865 -0.00000087
0.16406492 0.26716726 0.30531845
-0.61719049 0.71740016 -0.00000023
0.60443703 -0.27563662 -0.00000050
-0.36756513 -0.34697397 -0.00000028
0.53567257 0.11441863 -0.00000084
-0.36982218 0.27013694 -0.00000051
-0.36101444 -0.61978869 -0.00000011
-0.35971606 0.33589367 -0.00000053
0.00342316 0.00047413 -0.00000050
0.19068261 0.50672111 0.08494295
-0.04425273 -0.33080040 -0.00000029
-0.00247746 -0.38345988 -0.00000026
0.44622291 -0.18695798 -0.00000042
-0.15838510 0.55884658 -0.00000079
0.08262874 0.62790944 0.07406805
0.28026588 -0.04805390 -0.00000047
0.10322140 -0.49299817 -0.00000019
0.45490396 0.31928273 0.02137036
-0.02582655 0.69649775 -0.00000094
-0.49586818 -0.51574457 -0.00000018
-0.72666875 -0.51065183 0.00000000
-0.27674247 -0.28477439 -0.00000032
-0.22086148 -0.50983266 -0.00000018
-0.50504839 -0.27876784 -0.00000026
0.03993850 -0.32917492 -0.00000029
0.10726717 0.20596213 -0.00000063
-0.52186674 -0.10845282 -0.00000028
-0.27925346 0.77386499 -0.00000065
-0.13167042 -0.41379627 -0.00000024
0.06476620 -0.05236193 -0.00000047
-0.74165782 -0.61637509 0.00000000
0.53294211 -0.42979206 -0.00000026
-0.66272357 0.25945838 -0.00000017
0.41267524 -0.21736372 -0.00000036
0.07903225 0.13787371 -0.00000059
-0.29974197 0.57734529 -0.00000063
-0.14993726 -0.52543505 -0.00000017
-0.37798832 -0.22737911 -0.00000036
-0.42612651 0.74266844 -0.00000047
0.15596279 0.38770361 0.21222907
0.37962250 -0.71889051 -0.00000005
-0.35587156 0.16363952 -0.00000050
0.70411603 -0.66774206 -0.00000017
-0.59033356 -0.71312036 -0.00000005
0.43748462 0.29083408 -0.00000092
-0.00247301 0.23578673 -0.00000065
0.62912662 -0.08089708 -0.00000073
-0.79645408 0.41245778 -0.00000000
-0.08938974 -0.28100597 -0.00000032
-0.34306911 0.57245807 -0.00000057
0.57628095 -0.75267708 -0.00000003
0.48897032 -0.07789928 -0.00000059
-0.33559163 0.63556828 -0.00000058
-0.78857542 -0.23016886 0.00000000
-0.17351293 -0.45848479 -0.00000021
0.14499802 0.08181280 -0.00000055
0.26724751 0.16204183 0.30692753
0.65609228 -0.67843092 -0.00000012
0.44888317 0.14184049 -0.00000078
0.38029063 -0.29046569 -0.00000032
0.30120706 0.32766671 -0.00000082
0.18585072 0.44820587 0.13739112
0.43904667 -0.05837241 -0.00000055
-0.01567620 0.15178931 -0.00000059
-0.18016081 0.35382226 -0.00000072
0.79903172 -0.79850251 -0.00000000
0.45130842 -0.17613828 -0.00000044
0.07366270 0.62996544 -0.00000090
0.61193975 -0.17572899 -0.00000061
-0.29984348 -0.17897345 -0.00000039
0.43271498 0.14296947 0.18572063
-0.00728489 0.72610086 -0.00000095
0.75371250 -0.54769199 -0.00000032
-0.55978218 0.42349198 -0.00000030
-0.49841781 0.22205467 -0.00000036
-0.33191677 -0.47935221 -0.00000020
-0.16129019 -0.26019149 -0.00000034
0.13864419 -0.63702491 -0.00000010
-0.43807433 -0.14524749 -0.00000036
-0.79758965 -0.25868464 0.00000000
-0.40609004 -0.06687886 -0.00000041
0.38550009 -0.44438407 -0.00000022
0.16178456 0.24415185 -0.00000065
-0.00862120 -0.26180819 -0.00000034
0.24029741 0.29821292 0.21649844
0.13290773 -0.29709942 -0.00000031
0.75639161 -0.74681089 -0.00000007
-0.25908937 -0.34561208 -0.00000028
-0.44347288 0.04528544 -0.00000039
-0.39892105 -0.33677520 -0.00000029
0.26372748 0.15668945 0.31427338
0.05074058 0.49481033 -0.00000081
-0.22355401 0.57855310 -0.00000072
0.35643794 0.44103710 0.00208872
-0.36105327 -0.28121141 -0.00000032
-0.34587459 0.24213778 -0.00000053
0.73018917 -0.37786154 -0.00000052
0.16019113 0.55517570 0.07007036
0.00029963 0.30183258 -0.00000069
0.03909490 0.47906784 -0.00000080
0.67993467 -0.57722872 -0.00000026
0.14750860 0.14765182 0.41797828
-0.18895897 0.75632089 -0.00000076
0.52889471 0.19772180 0.06075617
0.42965432 0.32290953 -0.00000095
-0.61694035 -0.43016866 -0.00000012
