ply
format ascii 1.0
element vertex 1394
property float x
property float y
property float z
end_header
0.16853881 0.58319351 0.00000038
-0.00583089 -0.13950795 0.00000000
0.53191391 -0.21003091 -0.00000048
0.44673915 -0.63190529 0.00000000
-0.35373013 0.05437993 -0.00000019
-0.41598822 -0.52574121 0.00000000
0.08662944 0.39445115 0.00000000
-0.46717393 -0.75271637 0.00000000
0.33129093 0.34656786 -0.00000061
0.13616801 0.60536533 -0.00000024
-0.12432588 -0.07554816 0.00000000
0.30527007 -0.78264611 0.00000000
0.15052909 -0.25021996 0.00000000
0.08913569 0.37185531 0.00000508
-0.34352231 0.26184959 0.03559417
-0.08689101 -0.31255324 0.00000000
-0.09633457 0.28831579 0.07596131
0.07599118 -0.15266034 0.00000000
0.07945015 0.32525370 0.00000592
-0.21426448 -0.54911233 0.00000000
-0.26166685 0.19765949 -0.00000005
-0.20426489 -0.41481032 0.00000000
0.17519281 0.16418278 0.00000689
0.16668124 0.07547814 0.00000835
0.08419428 0.45816994 0.00000386
0.29751129 0.06944116 0.00000000
-0.36944150 0.11541130 -0.00000037
-0.72560695 -0.22019945 -0.00000129
0.30814321 -0.35239686 0.00000000
-0.40997031 -0.21472947 0.00000000
0.39980700 -0.61119277 0.00000000
0.65837898 -0.02008400 -0.00000136
-0.37161912 -0.17818022 0.00000000
-0.33807005 0.39463133 -0.00000073
-0.64591018 -0.04044435 -0.00000127
0.51940393 -0.10292761 -0.00000062
0.75985025 0.00635706 -0.00000184
0.59891086 0.20055939 -0.00000150
-0.11183790 -0.46086567 0.00000000
0.52121958 -0.73080537 0.00000000
0.14810256 0.20292539 0.00000672
-0.04348567 -0.45579723 0.00000000
-0.20716390 -0.13826896 0.00000000
0.03622297 0.70553507 0.00000087
-0.60090755 -0.61993555 -0.00000005
-0.07465211 -0.65038664 0.00000000
0.27113418 0.03981895 0.00000000
0.43952174 0.02213920 -0.00000050
0.00676721 0.30719423 0.00000729
0.61353370 -0.10873227 -0.00000101
-0.11220787 0.56074025 0.02323593
-0.67447264 -0.29173910 -0.00000095
-0.10389807 0.54044005 0.00000000
0.79417764 -0.42215152 -0.00000094
-0.02769734 0.09088362 0.00000000
-0.58366023 -0.65610376 0.00000000
0.09614436 -0.12053142 0.00000000
0.29981434 -0.49071366 0.00000000
0.31728830 0.10864136 0.00000546
-0.48177095 -0.34996474 -0.00000002
0.15971939 0.16982658 0.00000704
0.31593013 0.41944082 -0.00000068
0.35029311 0.01726250 0.00000635
0.34427463 -0.13899130 0.00000000
0.27821152 0.23793385 0.00000405
0.10558154 0.42902063 0.00000000
-0.08865251 -0.31536892 0.00000000
-0.22989360 0.46803986 0.01866610
-0.22584663 0.20142101 0.06816739
-0.18576737 -0.58953668 0.00000000
0.33802954 0.25515349 0.00000261
0.22297832 0.44343002 0.00000167
0.05327848 -0.37073956 0.00000000
0.55311351 -0.20685777 -0.00000058
0.42908823 0.02630633 -0.00000046
-0.65591935 0.12635105 0.00324074
-0.53837750 0.21022930 0.00939772
-0.55999550 -0.16830638 -0.00000068
0.11063090 0.16417697 0.00000000
-0.51839837 -0.64445009 0.00000000
0.70683154 -0.42626588 -0.00000085
-0.54008201 -0.40557379 -0.00000017
0.44942449 0.13894953 -0.00000075
-0.22884924 0.02387744 0.00000000
-0.55328545 -0.52059342 -0.00000003
-0.04934886 -0.09695303 0.00000000
-0.01053120 -0.59063171 0.00000000
0.62469589 -0.01487618 -0.00000123
-0.23024774 0.52347764 -0.00000049
-0.25898240 0.31943692 0.04052370
-0.68343799 -0.18275122 -0.00000118
0.28837395 0.25917510 -0.00000027
0.27654128 0.44605217 -0.00000055
0.16346313 0.15042271 0.00000000
-0.42541904 -0.71058428 0.00000000
-0.50570456 0.09404092 -0.00000091
-0.14104276 0.20267347 0.08344760
-0.03283888 0.60206913 0.00000000
0.29662627 -0.69282361 0.00000000
0.11663008 -0.20960074 0.00000000
0.64092483 -0.48979616 -0.00000046
-0.35591248 0.20812123 0.04315438
0.41277203 -0.02232279 -0.00000031
-0.44452423 -0.00527100 -0.00000047
-0.37462980 0.04877583 -0.00000027
0.64755005 -0.37184490 -0.00000069
0.43167910 -0.71254253 0.00000000
0.10553547 0.23051144 0.00000000
-0.17831784 0.35477540 0.00000000
-0.65367487 -0.44386534 -0.00000059
0.05207098 -0.27290347 0.00000000
0.47048866 0.13901628 -0.00000084
-0.52462794 -0.48763870 0.00000000
0.27135664 0.41557430 0.00000121
0.08397907 0.23521178 0.00000000
-0.47335794 -0.28097547 -0.00000011
0.29576603 0.19257346 0.00000447
-0.04739519 0.40318325 0.00000000
0.14551088 0.21778025 0.00000654
-0.38660096 0.14915251 -0.00000050
0.05466244 0.55266208 0.00000289
0.29668509 -0.31122956 0.00000000
0.13411852 0.33768874 0.00000491
-0.73522753 -0.59670279 -0.00000051
0.40601024 0.03988620 -0.00000039
-0.11068292 0.22115133 0.08562060
0.38164362 0.23326542 -0.00000063
-0.06942968 -0.71236224 0.00000000
0.09381877 0.22620298 0.00000000
0.26633664 -0.78055547 0.00000000
0.44770396 0.30166379 -0.00000027
-0.05392098 0.32287500 0.00000000
-0.59382660 -0.08033506 -0.00000098
-0.40620432 0.23586799 0.02888194
0.09017164 0.24568388 0.00000695
0.41833071 0.09468264 0.00000375
-0.25210839 -0.73124156 0.00000000
-0.48328331 0.21321076 0.01892866
-0.23553556 -0.30524179 0.00000000
-0.24249261 -0.03707144 0.00000000
-0.35233639 -0.28012074 0.00000000
-0.24963363 0.43163487 0.02171386
-0.07502028 -0.37412821 0.00000000
0.67706270 -0.29960304 -0.00000095
0.45485877 -0.08524050 -0.00000038
-0.30841656 0.24663425 -0.00000034
-0.01256951 0.36513770 0.00000000
0.38287315 0.27811563 0.00000136
0.36264444 0.19887614 -0.00000049
0.26216425 0.26087031 0.00000397
-0.01584088 0.69296427 0.00000000
-0.69751424 -0.37061259 -0.00000091
0.62509755 -0.72963128 0.00000000
-0.36891920 -0.58301661 0.00000000
-0.18034502 -0.72310704 0.00000000
-0.79458839 -0.26681717 -0.00000133
0.39906876 0.22207099 0.00000199
0.50980220 -0.79971322 0.00000000
0.66142472 -0.34857167 -0.00000079
-0.36876123 -0.08877137 -0.00000000
-0.36179100 0.08716899 0.06419994
-0.46121780 -0.12216480 -0.00000034
0.55465208 0.03778632 -0.00000102
0.27885299 -0.20599299 0.00000000
-0.03646538 0.28213029 0.00000000
0.41987242 0.34605887 -0.00000048
0.02849299 0.61307327 0.00000237
-0.25419122 -0.23672384 0.00000000
-0.29528623 0.36990506 -0.00000050
0.53609047 0.08892117 -0.00000103
-0.59158647 0.01957359 0.03453491
-0.01806157 0.51574862 0.00000000
-0.66407840 -0.19022642 -0.00000108
-0.45750539 -0.10164121 -0.00000036
-0.32331014 -0.43802420 0.00000000
-0.41404471 0.19447067 -0.00000070
-0.02719277 -0.45336613 0.00000000
0.76509478 -0.63316575 -0.00000042
-0.47044040 -0.58504553 0.00000000
-0.51737976 0.09754971 0.03384573
0.17594923 0.51180543 -0.00000024
0.26109715 -0.05993390 0.00000000
0.39295305 -0.57976972 0.00000000
0.13433493 -0.19839830 0.00000000
-0.47870740 0.06806226 -0.00000075
0.65089066 0.04250513 -0.00000144
0.26825903 -0.49595652 0.00000000
0.01110916 0.62684509 0.00000000
0.11206777 -0.38596942 0.00000000
0.71221507 -0.65910129 -0.00000035
-0.08513107 -0.38882721 0.00000000
-0.24901279 0.13191292 0.00000000
-0.40489247 -0.03579497 -0.00000025
-0.55036619 -0.29500497 -0.00000041
-0.18012467 0.10788101 0.00000000
-0.46081405 -0.17978517 -0.00000023
0.24310487 -0.06535355 0.00000000
0.67789923 -0.77350876 -0.00000007
0.41609990 -0.66884763 0.00000000
0.26739323 0.13810947 0.00000589
0.22864879 0.45187015 -0.00000036
-0.54224920 0.10942297 0.02712587
0.18105903 -0.65296545 0.00000000
0.46555803 -0.70554753 0.00000000
-0.07179753 0.16386824 0.10320833
-0.63376194 -0.71202192 -0.00000003
0.05527202 0.07220036 0.00001008
0.44336813 -0.04549638 -0.00000040
0.26101914 -0.56312183 0.00000000
-0.23086942 -0.42438530 0.00000000
0.10981372 0.66547863 -0.00000023
0.08976919 0.23111989 0.00000000
0.02991873 0.45162354 0.00000000
-0.33485167 0.31057109 -0.00000056
-0.66873947 -0.72528058 -0.00000016
0.23922966 -0.03128650 0.00000000
-0.49500679 0.14553520 -0.00000096
0.75705410 -0.32194422 -0.00000120
-0.39551925 -0.75451994 0.00000000
0.08095021 -0.40307428 0.00000000
0.79149633 -0.78169499 -0.00000005
0.09199355 0.40376737 0.00000456
0.32648880 -0.08643297 0.00000000
0.53497402 0.23380222 -0.00000128
0.70370192 -0.26502327 -0.00000112
-0.40683271 0.15060131 0.04436125
-0.28674247 0.45266872 0.01108017
0.34207876 -0.18692150 0.00000000
0.68645093 0.01418457 -0.00000006
-0.49617515 -0.74602452 0.00000000
-0.13770305 0.62667743 0.00651400
0.31197735 -0.76466027 0.00000000
0.10812811 -0.35330974 0.00000000
-0.16543785 0.54398252 -0.00000025
0.02127191 0.72273395 0.00000084
-0.20701357 -0.63287449 0.00000000
-0.07132098 -0.14313025 0.00000000
-0.31997989 0.39588829 -0.00000065
0.55541168 -0.16299823 -0.00000067
-0.69113410 0.04585807 -0.00000162
-0.21334074 0.52446328 -0.00000042
-0.57609420 0.05906127 0.03014648
0.03835635 0.08926997 0.00000000
-0.00085374 -0.28020340 0.00000000
-0.26141600 -0.69699664 0.00000000
-0.61977568 -0.47335984 -0.00000039
-0.53568603 -0.29072493 -0.00000036
0.72747427 -0.16404162 -0.00000140
0.51365283 0.09019462 0.00000199
0.04529067 -0.70540285 0.00000000
-0.08418445 0.53775999 0.03256378
0.45160592 -0.31060130 0.00000000
-0.13438672 0.07579880 0.00000000
0.50501501 0.20557866 0.00000023
-0.01004854 0.25709677 0.09745113
0.66745472 -0.13260342 -0.00000120
-0.73401485 0.03802822 -0.00000179
-0.78680880 -0.46686114 -0.00000083
0.08418451 -0.69934514 0.00000000
-0.19149262 0.31787625 0.05315227
-0.15771968 0.04977347 0.00000000
-0.28988107 0.34754582 0.02973185
-0.27554112 -0.00020136 0.00000000
-0.10402234 -0.29195976 0.00000000
0.28144334 -0.26559522 0.00000000
0.31981684 0.15339536 -0.00000022
0.03233535 -0.28958923 0.00000000
0.51799192 0.05532486 0.00000249
0.65281053 -0.35891301 -0.00000074
0.32924682 -0.38555411 0.00000000
-0.64490630 -0.15218386 -0.00000107
-0.19442478 0.19461101 0.07515938
-0.13374868 -0.76279362 0.00000000
-0.11551214 0.12355150 0.00000000
0.38783679 0.10264006 0.00000420
-0.20931686 -0.01510082 0.00000000
0.12325985 -0.41146948 0.00000000
0.57901498 -0.76449032 0.00000000
-0.07520095 -0.15312391 0.00000000
-0.50659444 0.09220618 0.03679553
0.44670883 -0.59191503 0.00000000
-0.10929824 0.67236499 -0.00000024
-0.21756526 0.53965294 -0.00000047
-0.52983590 0.00134165 -0.00000085
-0.02506138 0.48379694 0.05324547
-0.77389876 -0.24681886 -0.00000138
0.11419612 -0.47994630 0.00000000
-0.37710660 0.06545080 0.06537086
0.74733020 -0.60300307 -0.00000049
-0.22427656 -0.11385644 0.00000000
0.11689418 -0.22651548 0.00000000
-0.54068965 -0.68092569 0.00000000
0.08228913 -0.61894836 0.00000000
-0.46440730 0.13882093 0.03598589
0.19203449 0.38179495 -0.00000008
0.09820277 0.33765070 0.00000545
-0.72873452 -0.16180327 -0.00000141
-0.30443237 0.46697878 0.00522772
-0.65865880 0.04485741 0.01764391
0.64642745 0.00178080 -0.00000135
-0.27876901 0.47475503 0.00849913
-0.09513964 0.30145128 0.00000000
0.56676052 -0.08006526 -0.00000086
-0.72362163 -0.30287256 -0.00000114
0.12862063 0.08494832 0.00000000
-0.31576872 0.01978190 0.08494114
0.15719411 0.40994776 0.00000000
-0.75122394 -0.50723040 -0.00000073
0.72130684 -0.41155504 -0.00000094
-0.50914838 0.14885899 0.02596733
-0.01855268 0.67053037 0.00000000
0.61397480 0.12195935 -0.00000142
-0.14778483 0.11329542 0.09856048
0.28103538 -0.01210305 0.00000000
-0.26248952 0.17767881 0.06580808
0.04078316 0.54759831 0.00000000
-0.34423762 -0.55462948 0.00000000
0.22226242 -0.55470279 0.00000000
0.63716547 0.13277358 -0.00000154
-0.71312902 0.02606405 0.01111890
-0.15866440 0.03256800 0.11133462
0.04769649 0.29580874 0.00000000
0.05169452 0.11064114 0.00000956
0.69133272 -0.74234487 -0.00000014
0.46236526 0.27257599 -0.00000007
0.56504131 -0.16456596 -0.00000071
-0.67295734 -0.13356996 -0.00000122
0.54192623 -0.01770698 -0.00000087
-0.46729315 -0.78292441 0.00000000
-0.13223132 0.56417823 -0.00000015
-0.37681353 -0.48036639 0.00000000
0.04635402 0.31526277 0.00000000
0.78440552 -0.16480482 -0.00000159
0.21755169 0.43602337 -0.00000029
0.56545866 0.07310511 -0.00000113
0.48078580 -0.41601951 0.00000000
0.33405121 -0.20697279 0.00000000
-0.70762005 -0.25873211 -0.00000115
-0.39397725 -0.68720414 0.00000000
0.29072161 -0.66500894 0.00000000
-0.77222747 -0.41662215 -0.00000096
0.77011326 -0.76708740 -0.00000008
0.38780293 0.16200225 0.00000321
-0.42649497 -0.07576406 -0.00000027
0.10387606 -0.15648113 0.00000000
0.49929462 -0.21507565 -0.00000034
0.08737472 0.49218532 0.00000000
-0.02835515 -0.27224552 0.00000000
-0.39960522 0.09091452 -0.00000045
0.40300850 0.16083410 -0.00000059
-0.45237178 -0.71416389 0.00000000
0.79870051 -0.48663471 -0.00000078
0.49846882 -0.58527285 0.00000000
0.05023504 0.03671800 0.00001069
0.23387420 0.22116700 0.00000515
0.53542046 -0.05299251 -0.00000078
-0.55417701 -0.65778742 0.00000000
-0.37732316 -0.50147238 0.00000000
-0.19430665 0.36750726 0.04356080
0.63709844 -0.22542256 -0.00000091
0.26483596 0.46417346 -0.00000054
0.54184149 -0.17505559 -0.00000059
0.67936411 -0.29436060 -0.00000096
0.12867687 0.33090747 0.00000000
0.32816131 0.35984013 -0.00000062
0.75652941 -0.37015398 -0.00000107
0.56539150 0.02633116 0.00000207
-0.34527531 -0.76180040 0.00000000
-0.31293147 0.37390475 -0.00000058
-0.66366065 -0.53479562 -0.00000047
0.01682755 -0.14051997 0.00000000
-0.36969675 -0.13152599 0.00000000
0.53766687 0.05032610 0.00000220
-0.46134731 -0.45436893 0.00000000
0.45749385 -0.14357343 -0.00000028
0.13396007 0.25543864 0.00000615
0.28720424 0.29251210 -0.00000033
-0.45151099 -0.43706856 0.00000000
0.41892775 0.30839607 -0.00000092
-0.07394486 0.71526560 -0.00000017
0.41788496 0.03825806 0.00000470
-0.05320174 0.70995801 -0.00000007
-0.46113251 -0.17002910 -0.00000025
0.33905863 0.23279986 -0.00000044
-0.21363356 -0.31443651 0.00000000
-0.32453440 0.31820172 0.02876076
-0.13471427 0.07898473 0.10722579
0.48010090 0.09693601 0.00000252
0.55995488 -0.36816107 -0.00000032
0.45099624 -0.01875979 -0.00000048
-0.67483422 -0.23252081 -0.00000105
0.61589120 0.11799853 -0.00000044
0.43468028 0.00720025 0.00000490
0.79322473 -0.48594000 -0.00000079
-0.51131390 -0.39294652 -0.00000007
-0.18104023 0.25557015 0.00000000
0.06333378 -0.45459241 0.00000000
-0.01751545 0.72480663 0.00000000
0.36902439 0.16563485 -0.00000045
-0.53095557 0.05929976 -0.00000096
-0.39134386 -0.68863537 0.00000000
-0.43937894 0.05821126 0.05530586
-0.15242127 0.58369280 -0.00000027
0.71819473 -0.34691838 -0.00000104
0.42127782 -0.70742086 0.00000000
-0.02329667 0.54852069 0.04173121
0.00914561 0.61746433 0.00000000
0.48882426 -0.09655146 -0.00000050
-0.06655015 0.12486817 0.11130052
-0.38599282 0.05709755 0.06527336
-0.66964969 -0.67850596 -0.00000024
0.12095747 0.37254796 0.00000000
0.65708536 -0.61390335 -0.00000030
0.43653828 0.10417749 -0.00000063
0.26718697 0.37770698 0.00000192
0.18634571 0.08607113 0.00000000
0.29596598 0.27515790 -0.00000034
0.49217957 -0.70113960 0.00000000
-0.13929392 0.38774648 0.04992036
0.71683836 -0.78731363 -0.00000003
0.35058652 0.18378739 0.00000356
0.51640346 -0.31165699 -0.00000024
-0.75510300 -0.42545334 -0.00000094
-0.69854740 -0.25190862 -0.00000112
-0.07275168 0.25578066 0.08622443
0.32238454 0.31916246 0.00000184
0.08597150 0.00872828 0.00001057
-0.77577765 -0.28814001 -0.00000128
0.51181481 -0.71727305 0.00000000
-0.15983062 0.61632859 -0.00000036
0.67142098 -0.64227709 -0.00000032
-0.25939117 -0.30547109 0.00000000
-0.41870512 -0.05170057 -0.00000028
0.12892094 0.45361471 0.00000000
0.17681886 -0.41131107 0.00000000
0.49882867 0.04238142 0.00000308
0.25005066 0.05928570 0.00000000
-0.37652974 0.37951729 0.00803744
0.41888365 -0.22220633 0.00000000
-0.39507012 -0.04094281 -0.00000020
0.28155881 -0.15476640 0.00000000
-0.05083374 0.66976852 0.00000000
-0.57436799 -0.11320118 -0.00000084
0.75844451 -0.65821178 -0.00000035
0.47594738 -0.16406376 -0.00000033
0.15151750 -0.47206595 0.00000000
-0.48778527 -0.28756198 -0.00000016
0.74489799 -0.22122097 -0.00000137
0.13777790 0.42136692 0.00000360
0.65879359 0.11715085 -0.00000125
0.23220755 0.26658793 0.00000445
0.65989057 -0.36892461 -0.00000075
-0.40657554 0.31609113 0.01414221
0.26082406 -0.34232863 0.00000000
0.43757853 -0.65842057 0.00000000
0.77792663 -0.44654006 -0.00000088
0.08934436 -0.13916255 0.00000000
-0.06658326 0.26250334 0.00000000
0.21658981 -0.23087149 0.00000000
0.07399797 0.59391455 0.00000197
0.45879081 0.22964221 0.00000072
0.19336020 0.15051940 0.00000000
-0.59081818 -0.72115663 0.00000000
0.14566681 0.21077181 0.00000000
-0.55581261 0.02488806 0.04010566
-0.12698581 0.44600566 0.04151658
0.08549593 -0.41801744 0.00000000
-0.25026515 0.26814912 -0.00000013
-0.64682778 -0.55492591 -0.00000037
0.76793725 -0.23154403 -0.00000142
0.14021274 -0.47418927 0.00000000
-0.71386455 -0.51379364 -0.00000072
0.59728930 0.02735739 -0.00000118
-0.10063537 0.53785212 0.02953832
0.71150615 -0.03653674 -0.00000156
0.03561277 0.43668917 0.00000491
0.14280687 -0.52950522 0.00000000
0.01108697 0.66017236 0.00000000
0.16221786 -0.24518298 0.00000000
-0.57472534 0.07899738 -0.00000118
-0.23341287 -0.54665580 0.00000000
0.37918523 -0.32507574 0.00000000
-0.25522025 0.17466633 0.00000000
0.14988681 0.58328349 0.00000074
0.15803421 0.28372215 0.00000536
-0.00496612 0.02580213 0.00000000
0.42309383 -0.31302613 0.00000000
-0.02882536 0.26095397 0.09331173
-0.19785714 0.24238444 0.00000000
-0.67274923 -0.34396876 -0.00000085
0.37728457 -0.11025238 -0.00000000
0.06229782 -0.56563723 0.00000000
-0.73137897 -0.52654720 -0.00000068
-0.31634605 0.04335298 -0.00000001
-0.20182127 -0.52678519 0.00000000
-0.16484051 0.56375326 0.01305888
-0.37043073 -0.56270614 0.00000000
0.32469481 0.43392275 -0.00000012
-0.71491195 -0.54418161 -0.00000064
-0.72638703 0.05277240 -0.00000178
0.04688985 0.36411954 0.00000000
-0.17081778 -0.26811375 0.00000000
-0.37073702 0.24260445 -0.00000060
0.11006055 0.25690775 0.00000649
0.12235300 -0.03772542 0.00000000
-0.35913284 -0.17058787 0.00000000
-0.29295047 0.07795543 0.07847517
-0.09662800 0.35341414 0.06400214
0.58931523 -0.38214264 -0.00000043
0.75237474 -0.60691541 -0.00000048
0.21913375 0.27853093 0.00000450
0.72514913 -0.13269953 -0.00000145
-0.66296889 -0.12103697 -0.00000120
0.59934584 -0.46712592 -0.00000032
-0.15392748 0.56387024 -0.00000024
0.23269446 -0.38071002 0.00000000
-0.21580956 0.24919735 0.06126543
0.15140328 0.06764645 0.00000870
-0.24412612 -0.76758639 0.00000000
0.60800167 0.18043768 -0.00000150
0.70783499 -0.13334966 -0.00000137
0.52792538 -0.53478475 0.00000000
-0.74599621 -0.12015607 -0.00000156
-0.49670927 -0.18286017 -0.00000038
0.53489761 0.08765889 -0.00000102
-0.08402653 0.26042768 0.00000000
-0.48365376 0.15493661 0.02951853
0.05279556 0.00456552 0.00000000
-0.38137602 0.30012880 -0.00000074
-0.13225461 0.26752084 0.00000000
0.01035739 0.07842546 0.00000000
0.42092918 -0.56824279 0.00000000
-0.18219133 0.35112268 0.00000000
-0.23659066 -0.64650614 0.00000000
-0.21351507 0.47531716 0.02033065
-0.57887869 0.11567150 0.01928391
-0.07407505 0.17295189 0.10113055
0.39787020 -0.45390025 0.00000000
-0.11372883 -0.56655295 0.00000000
0.57947150 -0.68154721 0.00000000
-0.79874435 -0.21019782 -0.00000147
-0.52787666 0.17249406 0.01821954
-0.24206451 0.50963837 0.00883230
0.04887561 0.43752919 0.00000470
0.64719274 -0.41271043 -0.00000062
-0.10798947 -0.02834486 0.00000000
0.79909046 -0.20287717 -0.00000149
-0.21202184 -0.14418390 0.00000000
0.73459302 -0.37518050 -0.00000106
-0.10325968 -0.68010890 0.00000000
-0.23086543 0.52078814 0.00884134
-0.26479936 0.16660307 -0.00000001
-0.60700437 0.02069466 0.03151009
0.16755969 -0.33603337 0.00000000
0.50466136 -0.54427132 0.00000000
0.26000214 -0.09668813 0.00000000
0.02238556 0.06790486 0.00001064
-0.44601309 0.05748825 0.05422477
-0.07231211 0.18607085 0.09905370
-0.16299034 -0.16622618 0.00000000
-0.39468686 -0.28233788 0.00000000
-0.70533865 -0.37750691 -0.00000093
-0.64606853 -0.24831932 -0.00000090
0.31072903 -0.61714596 0.00000000
0.09753945 -0.55295081 0.00000000
0.02193127 0.07653731 0.00000000
-0.26293370 -0.11657469 0.00000000
0.42209654 -0.78627632 0.00000000
-0.29091907 0.13932594 -0.00000007
0.75226587 -0.14005004 -0.00000155
0.56930546 0.05625276 -0.00000111
-0.04344168 0.73689461 -0.00000007
-0.71604040 -0.25376908 -0.00000119
-0.27170525 -0.00414844 0.00000000
-0.25012508 0.34617035 0.03725440
-0.55584030 -0.79046707 0.00000000
-0.35158983 0.33901094 -0.00000069
0.58844338 0.01076313 -0.00000112
-0.09661212 0.35207184 0.00000000
0.59020913 0.07794139 0.00000073
-0.64010647 -0.10819163 -0.00000113
0.15111288 -0.17582374 0.00000000
0.06882071 -0.36509804 0.00000000
-0.12714208 -0.56956500 0.00000000
-0.34157555 -0.67298601 0.00000000
-0.10784939 -0.58350537 0.00000000
0.43165634 0.17146030 -0.00000073
0.79621811 -0.47356493 -0.00000082
-0.36257165 -0.57271656 0.00000000
-0.07524624 0.63075327 0.01719134
0.07357404 0.47775002 0.00000000
-0.44339040 0.32424335 -0.00000105
-0.40684365 0.13071961 0.04799537
-0.65386154 -0.46596369 -0.00000055
0.01090926 0.46343573 0.00000488
-0.13320450 -0.59391750 0.00000000
0.42587251 -0.38437843 0.00000000
0.49505513 0.03429331 0.00000328
-0.10355291 0.03082966 0.00000000
0.37150333 0.20708257 -0.00000054
0.13262794 0.61867897 -0.00000025
0.29220470 -0.61068459 0.00000000
-0.43157049 0.23759882 -0.00000085
-0.41765740 0.23201559 -0.00000078
-0.28402863 -0.54244736 0.00000000
0.77720319 -0.61234069 -0.00000047
0.32335772 -0.03199015 0.00000000
-0.20653853 -0.20996016 0.00000000
0.51954676 -0.24599851 -0.00000037
-0.43506915 -0.41091649 0.00000000
-0.41848826 0.08402069 0.05440634
0.03652616 -0.24671457 0.00000000
-0.44038447 0.03781637 0.05885194
0.14442855 0.39796591 0.00000385
0.13445244 0.02787620 0.00000000
-0.73426840 -0.41951577 -0.00000095
-0.60237893 -0.55716777 -0.00000017
-0.07084934 0.43899246 0.05306565
0.42219459 0.10485045 0.00000350
0.56935646 -0.05202403 -0.00000092
-0.02944649 0.00722718 0.00000000
-0.03882270 0.11363072 0.11842659
0.58304534 -0.47516034 -0.00000023
-0.10167705 -0.79003839 0.00000000
-0.26215361 0.35638837 -0.00000033
0.00709474 0.17064895 0.00000000
0.05643596 -0.26823065 0.00000000
-0.55769433 0.09275624 -0.00000113
0.62199873 -0.21606159 -0.00000086
-0.02722957 0.66110285 0.02042235
-0.74490917 -0.70655716 -0.00000023
-0.51392631 0.18622414 -0.00000111
0.42814075 0.26251249 -0.00000088
-0.23466000 -0.47808656 0.00000000
0.71067673 -0.43386367 -0.00000085
-0.57006183 -0.71751986 0.00000000
-0.04596474 -0.31024097 0.00000000
0.66485306 -0.34615108 -0.00000081
0.11297924 0.39828045 0.00000432
-0.22668841 0.39276841 0.03301853
0.50515088 0.05266264 0.00000278
0.69716942 -0.32374812 -0.00000099
-0.25760834 0.21621071 -0.00000007
-0.14040576 0.06826543 0.10814531
-0.61426318 -0.71459437 0.00000000
-0.62308772 0.02569344 -0.00000129
-0.13442718 -0.55174520 0.00000000
0.74564962 -0.36977282 -0.00000108
0.04673090 0.25446079 0.00000000
-0.07183852 0.15195026 0.00000000
0.50243086 -0.41844762 0.00000000
0.55385035 -0.20169971 -0.00000059
0.51917233 -0.54265378 0.00000000
-0.25522419 -0.66999963 0.00000000
0.02920523 0.09779510 0.00001009
-0.21315316 0.13749910 0.08217918
-0.58148795 -0.10917408 -0.00000087
-0.40164943 0.22497909 -0.00000070
-0.32356588 -0.76639633 0.00000000
-0.37808205 -0.44948189 0.00000000
0.78078529 -0.33786432 -0.00000116
-0.15733191 -0.39408885 0.00000000
-0.40211277 0.21790412 0.03291562
-0.25123376 -0.15528665 0.00000000
-0.08951614 0.01162268 0.00000000
-0.09032421 0.34645292 0.06642810
0.59778745 0.06041313 0.00000087
-0.26184052 -0.27712561 0.00000000
0.02374602 0.38792097 0.00000582
0.15626832 0.36237216 0.00000000
-0.50594485 -0.07416590 -0.00000061
-0.33141534 0.36179710 0.01952924
0.56982616 0.20352957 -0.00000138
0.42335089 -0.31552916 0.00000000
0.29384436 0.38597979 0.00000127
-0.02480565 -0.04539049 0.00000000
-0.42617560 0.28435090 -0.00000091
0.47620224 0.20913677 -0.00000099
-0.10182593 0.28350568 0.07583673
0.59864627 -0.53496238 -0.00000019
-0.18617774 0.07548782 0.09845348
-0.42856313 -0.63739077 0.00000000
0.03802173 0.66534765 0.00000000
0.30726795 0.35557119 0.00000152
-0.41710464 0.36520487 -0.00000101
-0.23830931 -0.56267342 0.00000000
0.10769719 0.32837649 0.00000545
-0.48798512 0.27332611 0.00707438
0.79792001 -0.68074493 -0.00000030
0.41259480 0.28456016 0.00000069
-0.78873086 -0.65184008 -0.00000037
-0.71277659 0.06577259 -0.00000174
-0.14036380 0.01715433 0.00000000
-0.17326001 0.02495659 0.11005733
0.22522407 0.49577455 -0.00000042
-0.22712472 0.29220658 0.05133026
-0.77337870 -0.15429776 -0.00000161
0.03933974 0.02865029 0.00001098
0.45158020 -0.41945513 0.00000000
0.60458514 -0.35771552 -0.00000053
-0.19749212 -0.32084292 0.00000000
0.58657038 -0.13619065 -0.00000085
0.07265324 0.71567064 0.00000001
0.76494137 -0.28532185 -0.00000129
0.01366318 0.45926627 0.00000490
-0.22166353 0.34616770 -0.00000014
0.24081055 0.45092502 -0.00000041
-0.12138389 0.25768517 0.07698208
0.08604172 -0.09964075 0.00000000
0.54400080 -0.76739117 0.00000000
0.29347105 0.39065643 -0.00000053
-0.74062247 -0.57271521 -0.00000057
0.77938960 -0.28674098 -0.00000128
0.37973214 -0.48125692 0.00000000
0.10483464 -0.09859484 0.00000000
-0.40021556 0.05053479 0.06387241
-0.08641520 -0.40280463 0.00000000
0.18913926 -0.75481581 0.00000000
0.63265505 -0.09588446 -0.00000112
0.36995355 0.35232038 0.00000037
0.61649700 -0.15226972 -0.00000095
0.14477141 0.48805418 -0.00000007
-0.50652959 -0.69747619 0.00000000
-0.09442223 0.42581273 0.00000000
-0.14798612 0.13678333 0.09422808
0.01048147 0.57742715 0.00000318
-0.49265660 -0.41760086 0.00000000
-0.12058003 -0.38595964 0.00000000
0.33565236 -0.58304410 0.00000000
0.38097536 0.26355093 -0.00000068
0.19187649 -0.67302112 0.00000000
0.00145593 -0.58694331 0.00000000
0.70982942 -0.14411644 -0.00000136
0.06356637 0.08154938 0.00000982
0.60942015 0.16753444 -0.00000148
0.10691136 0.50135756 0.00000000
-0.76128416 -0.66028833 -0.00000035
-0.11315457 0.20707258 0.00000000
0.09043877 0.64390633 0.00000087
-0.26887065 0.50732162 0.00435341
-0.28935045 -0.38018190 0.00000000
0.14993033 -0.01854576 0.00000000
0.73323275 0.05772046 -0.00000168
-0.44863067 0.17113276 -0.00000080
-0.47139852 -0.06577432 -0.00000048
-0.04579668 -0.68710416 0.00000000
0.51617322 0.24986481 -0.00000123
-0.53412325 -0.44089272 -0.00000009
0.63705680 -0.44672558 -0.00000051
-0.44756132 0.09977507 -0.00000067
0.72311329 -0.72805081 -0.00000018
-0.52006134 0.08846843 -0.00000096
0.50468164 -0.07434292 -0.00000061
0.68428158 -0.21254294 -0.00000113
0.40426807 0.34854447 -0.00000093
0.36409833 0.02516661 -0.00000018
-0.60900888 -0.46957994 -0.00000035
0.19207085 0.50374637 0.00000126
0.36184458 0.10342996 0.00000469
0.56268386 -0.72542161 0.00000000
-0.17361107 -0.11652787 0.00000000
0.09998296 0.25418112 0.00000668
0.28816862 -0.58612209 0.00000000
-0.58463571 0.17193506 -0.00000138
0.04627700 0.14750660 0.00000909
-0.15956340 0.58520956 0.01009992
-0.63237189 -0.28045151 -0.00000079
-0.67360231 -0.51796636 -0.00000054
-0.40282166 0.37789644 -0.00000097
0.49671237 -0.63996899 0.00000000
0.45110601 0.09091979 -0.00000067
-0.54332685 -0.59777509 0.00000000
-0.64709988 -0.49993781 -0.00000046
-0.33891259 -0.32538061 0.00000000
-0.61344497 -0.70272047 0.00000000
-0.44721147 -0.48174461 0.00000000
0.06474329 0.28353203 0.00000000
0.07135911 0.46096315 0.00000000
0.04475045 0.60531417 0.00000000
-0.09616274 0.10123435 0.00000000
-0.46997766 -0.09357334 -0.00000043
0.35790146 -0.71383910 0.00000000
0.39870934 0.12759187 -0.00000051
-0.72951168 0.04286968 -0.00000177
0.04581353 -0.16158999 0.00000000
0.41941660 -0.46614123 0.00000000
-0.34955408 0.25100766 -0.00000052
-0.32352469 0.24649716 -0.00000040
0.32723181 0.38876624 -0.00000067
0.01722247 0.71548422 0.00000000
0.11854050 -0.46496717 0.00000000
-0.15046051 -0.20055729 0.00000000
0.00037342 -0.46007306 0.00000000
-0.18473399 -0.73341334 0.00000000
-0.09909340 -0.56578534 0.00000000
0.73183160 -0.57547239 -0.00000056
-0.56949290 -0.28497224 -0.00000051
-0.02122414 0.37048300 0.00000000
-0.17077440 0.53305441 -0.00000026
-0.45140315 -0.27265430 -0.00000003
0.11789628 0.06511856 0.00000924
-0.78129384 -0.26588014 -0.00000134
0.37707401 -0.50541789 0.00000000
-0.16223156 0.25232745 0.07049154
0.72052897 -0.40893577 -0.00000094
0.01390085 -0.02456414 0.00000000
0.58140413 0.12869470 -0.00000129
0.12484513 0.26621381 0.00000612
0.15015486 -0.18615750 0.00000000
-0.06499334 -0.14517384 0.00000000
-0.25312113 0.18527402 0.06613236
-0.09293609 -0.63732175 0.00000000
0.10062635 0.31187223 0.00000580
0.75310084 -0.02364136 -0.00000176
-0.01035793 -0.63206808 0.00000000
0.52527248 -0.71834784 0.00000000
-0.12373928 0.22804803 0.08197150
-0.05493943 0.03677358 0.00000000
-0.26489013 0.08295553 0.08269251
-0.33529093 -0.11487963 0.00000000
-0.42713652 -0.17473393 -0.00000010
0.10350614 -0.10341633 0.00000000
-0.06482248 -0.54523545 0.00000000
-0.76532149 -0.33757871 -0.00000116
-0.67170516 -0.49836274 -0.00000057
0.39074671 0.12865745 -0.00000048
0.67688749 -0.23845946 -0.00000105
0.17926107 -0.13197762 0.00000000
-0.60420731 -0.52222297 -0.00000024
-0.17748233 0.56710336 0.01013412
0.06109923 0.37031225 0.00000552
0.53848035 -0.76108107 0.00000000
0.16017891 0.15218021 0.00000000
-0.14901619 0.26579143 0.07044606
-0.24591938 0.15354578 0.00000000
-0.27633652 -0.63287624 0.00000000
-0.65598318 -0.78725279 0.00000000
-0.26147052 -0.28303703 0.00000000
-0.39497253 0.04396425 -0.00000035
0.44054995 0.27221041 -0.00000095
-0.24403829 -0.14457200 0.00000000
-0.53455895 0.22159169 0.00801806
0.36351099 -0.74255997 0.00000000
-0.52288590 0.14231152 -0.00000107
-0.43357113 -0.27112608 0.00000000
-0.44955581 -0.69877149 0.00000000
0.09175618 -0.60489193 0.00000000
0.12854093 -0.50695751 0.00000000
0.27348556 0.07186102 0.00000680
0.43051651 0.11508003 -0.00000063
-0.47701128 0.18416219 -0.00000095
-0.60581426 -0.60976241 -0.00000009
-0.03884228 0.27831274 0.00000000
-0.38051908 -0.73443038 0.00000000
0.44534465 0.16967451 -0.00000079
0.23691830 0.00984078 0.00000828
0.37988459 -0.53882685 0.00000000
0.55719817 -0.57807538 0.00000000
-0.37337659 0.30558678 0.02213510
0.03634833 0.71005807 0.00000080
-0.20937478 -0.69635203 0.00000000
0.10313060 0.14772553 0.00000000
0.52877027 -0.30439820 -0.00000030
0.19653051 0.01522017 0.00000881
-0.59442664 0.10925901 -0.00000132
-0.10424790 0.02996836 0.00000000
-0.56946623 -0.24628705 -0.00000058
-0.78775431 -0.07764740 -0.00000181
-0.18822996 -0.16465201 0.00000000
0.21615956 -0.27377354 0.00000000
0.72587437 -0.36842018 -0.00000103
-0.73047148 -0.41767600 -0.00000096
-0.06766729 -0.75854684 0.00000000
0.44572549 0.29872358 -0.00000102
-0.05395618 0.72138968 -0.00000009
0.27036773 0.50149234 -0.00000021
-0.30830757 0.34641840 0.02656801
0.58847028 0.10133577 0.00000037
-0.24828327 0.41649190 0.02473030
-0.13737683 0.23680263 0.07787632
0.01907222 0.26904755 0.00000768
0.31713223 -0.05377548 0.00000000
0.52245812 -0.06358372 -0.00000070
0.28817440 0.10536850 0.00000607
-0.42151899 0.11684620 0.04784866
-0.19888319 0.54443939 0.01036507
-0.51874119 -0.55985552 0.00000000
-0.57335072 -0.66398018 0.00000000
0.20004922 -0.37865874 0.00000000
0.51398196 -0.29099861 -0.00000026
0.64576394 0.00027313 -0.00000134
-0.34818299 -0.40425100 0.00000000
0.62987280 0.13794211 -0.00000104
-0.62092277 -0.20970927 -0.00000087
0.47064926 -0.25748019 -0.00000014
-0.10625175 0.58415042 0.02004382
-0.40406959 0.16337067 0.04253124
0.15928901 0.05694509 0.00000000
-0.15132581 0.41881465 0.04203802
0.30765464 0.24530702 0.00000336
-0.46464971 0.25370156 -0.00000102
-0.24203125 0.00963120 0.10028295
0.22023493 -0.49313611 0.00000000
0.36202778 0.02497084 0.00000599
-0.11016038 0.54791772 0.02595548
0.09426048 0.05921367 0.00000000
0.01310005 -0.41451836 0.00000000
-0.47989912 0.24012011 0.01462620
0.77881734 -0.37260588 -0.00000107
0.48921644 0.22845764 -0.00000108
-0.47788538 -0.37301611 0.00000000
-0.04262124 0.66474321 0.01694170
0.39557877 0.13725051 0.00000347
-0.20655042 0.24036888 0.00000000
-0.23354092 -0.09381626 0.00000000
-0.17079528 0.23295810 0.00000000
0.11486138 0.18273507 0.00000000
-0.22217552 0.07228408 0.00000000
-0.24834493 0.28152884 0.04940211
0.71674832 -0.49271982 -0.00000077
0.05532965 0.19181292 0.00000000
0.00156491 0.02632625 0.00000000
0.34815748 0.40672056 -0.00000079
0.63478360 0.01470180 -0.00000132
-0.08642249 0.19766794 0.09435220
0.62843348 -0.44666842 -0.00000048
-0.60924709 -0.09978783 -0.00000101
-0.23392869 0.35627552 -0.00000021
0.31520161 0.46049073 -0.00000038
0.16087787 0.13502952 0.00000000
0.54875640 -0.59008315 0.00000000
-0.77080567 0.01729370 0.00217438
-0.35283535 0.30924985 -0.00000064
0.13659571 -0.30442209 0.00000000
-0.24737985 0.14273666 0.00000000
-0.67487905 -0.35346137 -0.00000084
0.51073473 -0.31721238 -0.00000020
0.51805838 0.19342033 0.00000018
-0.22116040 -0.46022848 0.00000000
-0.25318398 0.49149125 -0.00000054
0.26275202 -0.74738382 0.00000000
0.15493975 -0.69093678 0.00000000
0.72587005 -0.59998769 -0.00000050
-0.39920037 0.38455790 0.00296933
0.21928862 0.55852814 -0.00000018
-0.38783969 0.37109610 -0.00000090
0.15250625 0.28908082 0.00000000
0.16884109 -0.43347720 0.00000000
0.41569746 -0.35632917 0.00000000
-0.46662782 -0.61307529 0.00000000
-0.24618718 -0.16366042 0.00000000
0.11008962 0.61664554 0.00000095
-0.38080689 -0.60118857 0.00000000
0.34560187 -0.35937198 0.00000000
-0.57138908 -0.65188860 0.00000000
-0.40279746 -0.17343315 0.00000000
-0.28385682 -0.53247300 0.00000000
-0.54851619 0.20556868 -0.00000129
0.04851872 0.50718301 0.00000000
0.12229602 0.14750178 0.00000000
0.49177960 -0.64251084 0.00000000
-0.23154548 -0.66042187 0.00000000
0.71597424 -0.27694126 -0.00000115
-0.42777178 0.10533437 0.04881046
0.30133099 0.39822559 -0.00000058
-0.20771340 0.27998999 0.05711458
0.58783504 0.07905943 -0.00000123
0.73308516 -0.02294781 -0.00000167
-0.34771530 -0.18225881 0.00000000
0.12176830 -0.17008594 0.00000000
0.11420162 -0.33288118 0.00000000
0.23337516 0.50624055 -0.00000048
-0.74502270 -0.31833729 -0.00000120
-0.09927472 0.14219439 0.10214702
0.31729164 0.22629857 -0.00000034
0.05058737 0.35763217 0.00000000
-0.72416766 -0.54429455 -0.00000064
-0.12191928 0.08488400 0.00000000
0.10538394 -0.01693737 0.00000000
0.44858367 0.10299389 -0.00000068
0.24074116 0.12188740 0.00000000
-0.15738239 -0.61967014 0.00000000
-0.20944429 0.20177194 0.00000000
0.07026728 -0.69158006 0.00000000
0.18966780 0.24499854 0.00000546
-0.39183696 0.31145382 0.01768587
0.34068329 -0.36430035 0.00000000
-0.41524595 -0.79770420 0.00000000
0.77081637 0.00121100 -0.00000146
0.29090344 0.22911379 -0.00000023
-0.13417345 -0.44560583 0.00000000
0.70670379 -0.48262840 -0.00000075
-0.68452233 -0.58863420 -0.00000047
0.45743650 -0.05651950 -0.00000044
-0.28608186 0.31004366 -0.00000035
0.42682232 0.10619052 0.00000339
-0.07823340 -0.30095741 0.00000000
0.36746426 0.15379516 -0.00000043
0.32450988 -0.63583000 0.00000000
0.58422734 -0.66446304 0.00000000
-0.28545947 -0.07754386 0.00000000
0.19896660 0.36182917 -0.00000007
-0.68136839 0.11454445 -0.00000170
-0.37598631 -0.29835465 0.00000000
0.07425021 0.14034051 0.00000000
-0.43602200 -0.15042844 -0.00000018
0.02804472 -0.26496144 0.00000000
-0.32574250 -0.68459159 0.00000000
-0.60006036 -0.76583602 0.00000000
-0.53286165 -0.59077601 0.00000000
-0.32449335 -0.13561951 0.00000000
-0.64472104 -0.06945029 -0.00000121
0.49794171 -0.03846049 -0.00000064
-0.11869505 -0.13106870 0.00000000
-0.48741410 -0.41476900 0.00000000
-0.04648673 0.06043303 0.12675402
-0.09975223 0.22836744 0.00000000
0.59625199 -0.08233484 -0.00000098
-0.21740332 -0.11609013 0.00000000
-0.26223381 -0.65767971 0.00000000
0.41236228 -0.18698150 -0.00000002
0.63945357 -0.73065016 -0.00000002
0.12186636 -0.30857798 0.00000000
0.66359089 -0.56783473 -0.00000041
0.15849752 0.41156167 0.00000344
-0.35912551 0.02953651 -0.00000017
-0.25779049 0.01236499 0.00000000
-0.28458722 0.21118588 0.05563861
0.04745933 -0.20902410 0.00000000
0.08739556 0.42590277 0.00000000
0.44846403 -0.34660353 0.00000000
-0.18265690 0.45499386 -0.00000017
0.17715792 0.43939477 0.00000262
-0.77208171 -0.21990684 -0.00000145
0.31502456 0.23378075 -0.00000034
-0.49076144 0.14413866 -0.00000094
-0.18652537 -0.21771203 0.00000000
-0.03563640 0.18139564 0.10661613
0.67024796 -0.38575173 -0.00000076
-0.75656678 -0.78556939 -0.00000004
-0.14149073 0.14338199 0.00000000
-0.24758104 0.52534163 0.00495144
-0.36707697 0.42592062 0.00127966
-0.69719454 -0.18586245 -0.00000123
-0.20013584 0.00621317 0.00000000
0.65346590 -0.54782575 -0.00000041
0.47043554 0.28284177 -0.00000109
0.29761365 0.06085600 0.00000000
0.65609665 -0.02263795 -0.00000135
-0.55413796 -0.74448635 0.00000000
0.06328948 0.36298685 0.00000560
0.07384788 0.24155775 0.00000726
-0.23864042 -0.57589307 0.00000000
-0.08782473 0.58445637 0.00000000
-0.50891837 0.14233632 0.02720231
-0.06431310 -0.78415151 0.00000000
0.03339730 -0.59368766 0.00000000
-0.13523819 0.43649962 0.04174587
0.13571518 0.31679801 0.00000000
0.01242869 0.71738352 0.00000000
0.07987620 0.55630986 0.00000245
0.20964378 0.26504429 0.00000000
0.19118633 -0.60921206 0.00000000
-0.47238886 -0.55835706 0.00000000
-0.10879331 0.00091298 0.00000000
0.55413681 0.15499219 -0.00000122
0.10642106 0.10817075 0.00000000
-0.56257153 0.22151118 0.00290954
-0.19370424 -0.72494038 0.00000000
0.21521854 0.53257821 -0.00000045
-0.43633801 -0.60240275 0.00000000
0.52837825 0.10692291 -0.00000103
0.57183850 0.20926432 -0.00000111
-0.59689809 -0.24298792 -0.00000070
-0.11076405 0.30650550 0.00000000
-0.57555000 0.04619861 0.03259843
0.04472314 -0.49275838 0.00000000
0.16098808 0.06457550 0.00000000
-0.34855064 0.21373102 -0.00000045
0.29656843 -0.39972618 0.00000000
0.50539043 -0.75751848 0.00000000
0.44482956 -0.67062593 0.00000000
-0.02618205 0.34513332 0.00000000
0.44492264 -0.27192325 -0.00000000
-0.38763799 0.26778442 -0.00000071
0.17815492 -0.11737279 0.00000000
0.44236480 -0.43113858 0.00000000
-0.10309924 0.44406338 0.04624027
-0.52509337 -0.01633892 -0.00000080
-0.33907780 0.14889361 0.05706530
-0.07969658 0.51934995 0.00000000
0.67630257 -0.16866830 -0.00000117
0.18919668 0.36379058 0.00000365
0.45603351 -0.04585695 -0.00000045
-0.44682396 -0.73894246 0.00000000
0.47059154 -0.51338907 0.00000000
-0.23362818 0.20072913 0.00000000
-0.05703592 0.09289016 0.00000000
-0.53362645 0.01555639 -0.00000089
0.70639999 -0.73118997 -0.00000017
0.05076943 -0.49667467 0.00000000
-0.41679755 -0.42419351 0.00000000
0.06295266 0.01737305 0.00000000
0.05376294 0.74029982 -0.00000012
0.48882518 0.22231900 0.00000026
0.65115720 0.10174452 -0.00000084
-0.09027060 -0.73681152 0.00000000
-0.49006769 -0.27124222 -0.00000020
0.26431076 0.35352175 0.00000238
-0.03521130 -0.03470659 0.00000000
0.68056498 -0.03597427 -0.00000143
-0.35505305 0.03580288 -0.00000016
0.15401044 0.16072438 0.00000000
0.02736788 0.00196751 0.00001156
0.66225227 -0.17265738 -0.00000111
-0.10166946 0.48219295 0.00000000
-0.30165536 0.46667961 -0.00000070
0.31949549 0.38871545 -0.00000064
0.60069677 -0.79990806 0.00000000
-0.06903213 0.41833826 0.00000000
0.69774611 0.05928807 -0.00000103
-0.63321647 0.06318997 -0.00000140
-0.43101038 0.15144637 0.03978483
0.00535570 -0.08500100 0.00000000
0.53405423 0.15020110 -0.00000113
0.39124184 0.36391771 -0.00000090
-0.44052082 0.34053528 -0.00000107
0.03255238 0.07756274 0.00001035
0.73823864 -0.01181779 -0.00000172
-0.17076127 -0.57638202 0.00000000
-0.63217810 0.15183318 0.00292242
0.54840115 0.14381767 -0.00000118
0.04652319 -0.36463424 0.00000000
-0.60054055 -0.60433259 -0.00000008
0.51758836 -0.61981321 0.00000000
-0.49641656 -0.37411529 -0.00000004
0.01895581 0.03632410 0.00000000
0.43053808 0.15230310 -0.00000069
0.22441620 0.19851574 0.00000000
0.04530232 0.18704673 0.00000000
-0.20647364 -0.68424289 0.00000000
0.56167199 -0.27346564 -0.00000050
0.28345817 -0.52111212 0.00000000
-0.22238022 -0.73700154 0.00000000
-0.11722079 -0.27542354 0.00000000
0.68475956 0.11014183 -0.00000163
-0.16691702 -0.72108481 0.00000000
-0.62634144 -0.02598528 -0.00000121
-0.43550790 -0.60521874 0.00000000
0.08830753 0.18956754 0.00000000
0.05858824 0.65631179 0.00000000
0.14773384 0.31693327 0.00000000
0.41713885 -0.40485321 0.00000000
0.03957342 0.53666675 0.00000335
-0.27571421 -0.20820262 0.00000000
0.31879687 -0.05485687 0.00000000
0.20078891 0.47810108 0.00000152
0.48076412 -0.78212761 0.00000000
-0.24164824 -0.08940721 0.00000000
-0.46915354 0.21165205 -0.00000096
0.18736624 0.38669765 -0.00000007
-0.25007249 -0.34781177 0.00000000
0.30108019 0.09909791 0.00000593
-0.10956566 0.56986691 0.02205001
-0.07082566 -0.01875752 0.00000000
-0.46335206 -0.11715299 -0.00000036
0.00012177 -0.47671924 0.00000000
0.04589719 -0.21024480 0.00000000
0.21389164 -0.30719570 0.00000000
0.07022038 0.28368259 0.00000669
-0.78824983 -0.24814817 -0.00000138
0.11673311 -0.41140773 0.00000000
-0.24264927 -0.55327888 0.00000000
-0.06539545 -0.57961709 0.00000000
0.22290809 0.18722897 0.00000583
-0.55680895 -0.07807036 -0.00000082
-0.27307566 -0.49326855 0.00000000
-0.16798360 0.45297037 0.03274488
0.39419747 -0.06118596 -0.00000016
0.37292713 -0.00722153 -0.00000016
-0.40771014 0.29793655 0.01725496
-0.71535818 -0.50513277 -0.00000074
0.04731007 -0.13987253 0.00000000
0.07732862 0.50302139 0.00000329
0.11822979 0.01328028 0.00000000
-0.08449254 0.03853850 0.12380755
-0.10149403 -0.60823334 0.00000000
-0.53583863 0.20977229 0.00994564
0.20473698 0.31695409 0.00000414
-0.04624049 -0.66900480 0.00000000
0.20835303 0.51562669 0.00000075
0.21487184 0.03988070 0.00000816
-0.40273721 -0.33176962 0.00000000
-0.18783470 -0.09933050 0.00000000
0.20791254 -0.35384747 0.00000000
-0.13440459 -0.34466549 0.00000000
-0.20110139 -0.23918686 0.00000000
-0.17047691 -0.74835628 0.00000000
-0.46748142 0.13887464 -0.00000083
-0.38911691 -0.13196733 -0.00000001
0.18741973 0.54627613 0.00000064
-0.34123696 -0.12485884 0.00000000
0.14376310 -0.62555432 0.00000000
-0.23867095 -0.09412508 0.00000000
-0.04255449 -0.77674352 0.00000000
0.03655554 0.02141883 0.00001113
-0.62919990 -0.29225830 -0.00000075
0.04330396 0.07811639 0.00001017
0.64179881 -0.51468825 -0.00000041
0.32371369 -0.74803624 0.00000000
0.07747775 -0.17127974 0.00000000
0.43903979 0.06160909 -0.00000057
-0.31603654 0.22193782 0.04792043
0.41723150 -0.24471782 0.00000000
-0.24224270 -0.45913414 0.00000000
-0.01506814 0.19116504 0.00000000
-0.73039169 0.03812021 0.00575680
0.59643046 -0.78758963 0.00000000
-0.06178333 0.45649582 0.05152258
-0.18799277 0.03848620 0.10488858
-0.37856577 0.22154302 -0.00000059
0.18607086 0.25597916 0.00000000
-0.35972465 0.31835673 0.02229645
0.13555457 -0.55201172 0.00000000
-0.22418740 0.36123587 -0.00000018
0.34175871 -0.66535978 0.00000000
0.17523140 -0.06870779 0.00000000
-0.16844906 -0.12330834 0.00000000
-0.11786725 -0.16963096 0.00000000
-0.60723446 0.04399555 -0.00000126
-0.52618824 -0.54863326 0.00000000
-0.28966964 0.38073116 0.02370132
0.15784649 -0.72786415 0.00000000
0.00601820 0.43910206 0.00000000
-0.47624447 0.30645042 -0.00000116
0.34219239 0.00785098 0.00000666
0.11591068 0.55304407 0.00000190
0.35137949 -0.63491973 0.00000000
-0.28029847 0.18271744 -0.00000011
-0.27539279 -0.14239907 0.00000000
0.43655710 -0.11129393 -0.00000025
0.28181417 -0.03759638 0.00000000
0.09062265 0.49271798 0.00000000
-0.33167408 -0.53839507 0.00000000
-0.51170318 -0.40379315 -0.00000006
0.47663859 0.10525242 -0.00000081
-0.18605090 0.04902446 0.00000000
0.27439759 0.01734696 0.00000760
-0.12426905 0.46895088 0.00000000
-0.03196582 -0.42312761 0.00000000
-0.05267199 -0.26072689 0.00000000
0.06127020 0.06409528 0.00001011
-0.39504466 -0.45784711 0.00000000
-0.43143337 0.13825584 0.04211986
0.47681658 0.16734066 -0.00000092
0.19848737 0.54635480 0.00000043
0.49912800 -0.05208144 -0.00000062
-0.23673686 -0.63064585 0.00000000
0.17968098 0.23164575 0.00000581
0.21588830 0.23722064 0.00000518
0.40564968 -0.22959528 0.00000000
0.63094297 0.12487454 -0.00000084
-0.34419544 0.42978223 -0.00000081
-0.30199165 0.45565674 -0.00000068
-0.15796382 0.02586818 0.11268804
0.36928520 0.36894920 -0.00000081
-0.25271180 0.43793389 0.01999888
-0.40969263 -0.59481077 0.00000000
0.78748139 -0.32849102 -0.00000118
0.26451518 0.42368920 0.00000121
0.43824627 0.12321968 -0.00000067
0.47282022 -0.76481375 0.00000000
-0.28569382 -0.41853598 0.00000000
0.38938879 -0.00141278 -0.00000025
0.17520260 0.23229996 0.00000000
-0.74609876 -0.44120537 -0.00000090
0.67330417 -0.13322026 -0.00000122
0.65656084 -0.17378280 -0.00000108
0.78032083 -0.20376893 -0.00000149
0.11354171 -0.15763281 0.00000000
0.31220397 -0.29138769 0.00000000
-0.20992163 0.37302710 0.03969546
-0.33484958 -0.56288533 0.00000000
-0.11317469 0.54342721 0.02622545
-0.01496909 0.43163169 0.06463143
0.73608348 -0.63177874 -0.00000042
-0.31209580 0.20447201 0.05183544
-0.79176047 -0.39170994 -0.00000102
0.02096994 0.53538550 0.00000365
-0.24623420 0.20292222 0.00000000
0.35865546 -0.10099661 0.00000000
-0.57027979 -0.15062659 -0.00000075
0.56966700 0.03595572 0.00000182
-0.71662384 -0.01760592 -0.00000161
0.20618477 -0.72062948 0.00000000
-0.32235640 0.21316752 0.04836857
0.63424777 0.08760508 -0.00000028
0.45333572 -0.23975753 -0.00000010
0.21260652 0.38698675 -0.00000018
-0.66768578 -0.17222368 -0.00000113
-0.17321108 -0.71471493 0.00000000
0.17511561 -0.11855542 0.00000000
0.03715683 0.40861336 0.00000531
-0.31524934 0.42738485 0.01049065
0.23034344 0.01607345 0.00000000
-0.08814038 0.09192661 0.11337653
0.12599748 -0.21677621 0.00000000
-0.30285500 0.26011717 -0.00000034
0.64282029 -0.15414026 -0.00000106
-0.67520484 -0.46504450 -0.00000065
-0.64687682 -0.59406034 -0.00000030
0.39433848 -0.00749177 -0.00000026
0.42278763 -0.77040753 0.00000000
0.72552882 -0.76482421 -0.00000009
-0.09538248 -0.24319795 0.00000000
-0.19328379 -0.39352596 0.00000000
0.11629849 0.33252929 0.00000000
0.22312615 -0.06593055 0.00000000
-0.45665949 -0.05213877 -0.00000044
0.35674665 0.23504449 0.00000259
-0.36547273 -0.13918919 0.00000000
0.51225100 0.04774800 -0.00000086
0.05837471 0.17669812 0.00000847
-0.08262270 -0.12966658 0.00000000
0.44941129 0.32740561 -0.00000074
0.10012077 -0.33255777 0.00000000
-0.25808242 0.50133457 0.00742143
-0.71237555 -0.01056362 -0.00000161
-0.20994696 0.51496402 -0.00000039
-0.49380688 -0.45449832 0.00000000
-0.32009008 0.20539516 -0.00000031
-0.32103592 0.20779568 -0.00000032
0.64089987 -0.42519671 -0.00000057
0.65225018 -0.57944635 -0.00000035
0.07266207 0.44694129 0.00000420
0.28567481 0.15063818 -0.00000007
0.47940484 0.11098541 0.00000230
0.56595785 0.07237945 -0.00000113
-0.51678597 0.01322883 -0.00000081
-0.24210799 0.40935746 -0.00000034
-0.28847067 -0.01284316 0.00000000
-0.17686157 0.26459237 0.00000000
-0.06662741 0.31455507 0.00000000
0.14998605 0.10717589 0.00000000
-0.15653140 0.57218426 0.01303661
-0.50718245 -0.22569180 -0.00000035
-0.13561857 0.20709355 0.00000000
0.14170202 0.57438864 0.00000105
0.61634203 0.05119115 -0.00000131
-0.14500481 -0.39533761 0.00000000
-0.48451993 0.08107055 -0.00000080
0.23183551 0.17252758 0.00000591
0.00584088 -0.23229078 0.00000000
-0.23086119 0.43916272 0.02377041
-0.30603615 0.21838154 -0.00000028
0.17761690 0.06393668 0.00000836
-0.36639723 -0.73372649 0.00000000
-0.39236008 -0.27574180 0.00000000
-0.75894520 0.00799866 -0.00000184
0.40755064 -0.06527518 -0.00000021
0.63125773 -0.68686344 -0.00000007
0.03837898 -0.39163395 0.00000000
0.51402744 0.27063421 -0.00000126
0.04550926 0.66658687 0.00000000
0.34527707 0.45021484 -0.00000086
0.24691689 0.51085334 0.00000009
0.16565641 0.23543404 0.00000000
0.20291563 0.11418727 0.00000723
-0.28203234 -0.71874351 0.00000000
0.37241690 -0.55233717 0.00000000
-0.50732980 -0.16146092 -0.00000047
-0.37169915 0.27283137 -0.00000065
0.43038633 0.32741985 -0.00000037
-0.77511550 0.00092044 -0.00000190
-0.39359632 -0.34806451 0.00000000
-0.20539172 0.55458834 -0.00000044
-0.17242235 -0.66136124 0.00000000
-0.23554451 0.49335595 -0.00000046
-0.03469263 -0.49780974 0.00000000
0.51043517 -0.37893783 -0.00000009
-0.22803959 0.25170786 0.05856962
0.28253944 0.10764907 0.00000000
-0.32482551 0.18922472 -0.00000031
0.75337609 -0.78952233 -0.00000003
-0.27443741 0.24485143 -0.00000019
-0.57757549 0.05381852 -0.00000115
0.48572529 0.29034141 -0.00000081
0.08309841 0.56749557 0.00000000
-0.33807193 -0.53752168 0.00000000
-0.28512650 -0.20997292 0.00000000
0.55272146 0.15362417 -0.00000122
0.50515131 0.16012963 -0.00000102
-0.52742351 0.13181968 0.02574126
0.58535658 0.14309810 -0.00000027
