ply
format ascii 1.0
element vertex 1394
property float x
property float y
property float z
end_header
-0.53381550 0.18975973 -0.00000060
-0.15989349 0.63380467 0.04240656
-0.21183676 0.57847346 0.06520184
0.18466193 0.23834353 0.00000000
-0.31284977 -0.50733914 0.00000000
-0.28683896 -0.45555880 0.00000000
0.04225280 0.72600205 -0.00000005
-0.12615287 -0.22986095 0.00000000
0.33486220 0.41633209 -0.00000075
-0.14656386 0.47179478 -0.00000002
0.06764974 0.00325321 0.00001093
-0.18267544 0.59150712 0.17371577
0.16444235 0.33050333 0.00000456
0.07330580 0.35347517 0.00000000
-0.12187368 -0.30754863 0.00000000
-0.33312747 0.44473702 0.14894218
0.14720099 -0.18291968 0.00000000
0.68713900 -0.23110827 -0.00000111
-0.18133883 -0.63647453 0.00000000
-0.36472039 -0.38897750 0.00000000
0.06605546 0.48243636 0.00000000
0.22653715 -0.38497785 0.00000000
0.37338231 -0.02928244 -0.00000013
-0.69856631 -0.63315946 -0.00000021
-0.44697800 0.26171528 -0.00000048
-0.70744805 0.08771858 0.03251590
-0.33053889 -0.76185027 0.00000000
0.30354314 0.22731248 0.00000374
0.68298051 -0.12397622 -0.00000128
-0.48716344 -0.46641835 0.00000000
0.53367790 -0.20285592 -0.00000050
0.31358632 0.04751293 -0.00000001
0.19139391 -0.26191645 0.00000000
-0.51216399 0.24796722 0.26825941
-0.66040129 -0.04189583 -0.00000067
0.73805361 -0.29712672 -0.00000121
-0.54020867 -0.13179866 -0.00000033
-0.42560350 0.01387534 -0.00000021
-0.47636523 0.31475404 0.05975319
-0.00572938 -0.57944945 0.00000000
0.41903243 -0.19220964 -0.00000003
0.27946832 0.49438807 -0.00000065
0.16349718 0.02379786 0.00000000
-0.49395164 -0.42244398 0.00000000
-0.40595131 0.36964490 0.16420322
-0.23736307 0.51808886 -0.00000026
0.61570098 -0.14552690 -0.00000096
0.58118389 -0.29092320 -0.00000055
0.19846549 -0.70849246 0.00000000
-0.09481651 -0.04636244 0.00000000
-0.13727601 -0.77915971 0.00000000
0.18072987 -0.64156965 0.00000000
0.76868411 -0.29708332 -0.00000126
0.52577015 0.00186926 0.00000324
-0.10637691 0.54962207 -0.00000001
-0.33265224 0.41679881 0.34011785
-0.43912636 0.19615161 -0.00000040
-0.16764863 0.32865900 0.00000000
0.46733617 -0.19869067 -0.00000023
0.32560563 -0.53147675 0.00000000
-0.51879760 0.27501852 0.04160639
0.05060627 0.59552235 0.00000230
-0.01576014 -0.23565681 0.00000000
-0.26456513 -0.26886183 0.00000000
0.11212472 0.12454331 0.00000000
-0.43779545 -0.21825966 -0.00000003
-0.32829820 0.43863928 -0.00000038
0.08579470 -0.78726604 0.00000000
0.20201121 -0.75096421 0.00000000
0.59006926 -0.15162469 -0.00000084
0.39705496 0.12511704 -0.00000050
0.39145571 0.18373370 0.00000278
-0.50969572 0.28877442 -0.00000064
-0.43758847 0.30566740 0.38180215
-0.68831576 -0.28839291 -0.00000051
0.77572300 -0.67560078 -0.00000031
0.26436433 -0.24843329 0.00000000
-0.61174529 0.17980138 0.05687500
0.57702398 -0.32259144 -0.00000048
0.53139067 0.25518949 -0.00000110
-0.40138601 0.35162498 -0.00000046
0.24239051 -0.40473813 0.00000000
-0.65548714 0.13754870 0.04685410
0.46019778 0.21003767 -0.00000092
-0.17213007 0.42714825 -0.00000004
-0.33477062 -0.78762540 0.00000000
0.22881407 0.45449922 -0.00000037
0.01598531 0.31778150 0.00000699
0.63085973 -0.60582764 -0.00000021
-0.42411603 -0.33922288 0.00000000
0.22445581 0.43753884 0.00000174
0.79238443 -0.45703370 -0.00000086
0.25978128 -0.10412596 0.00000000
0.39499590 0.38012785 -0.00000057
-0.68863580 0.10102817 -0.00000085
-0.40146644 0.04536699 -0.00000019
0.20113812 0.47636442 -0.00000029
-0.16602911 -0.26213592 0.00000000
0.14011993 -0.63269221 0.00000000
-0.09924774 0.69240363 0.05617973
-0.63471939 0.15960933 0.03815523
0.14922915 0.28964868 0.00000000
0.00837307 -0.45237970 0.00000000
-0.12820011 -0.76971066 0.00000000
-0.07282952 0.61653942 0.00000000
0.38077720 -0.10076832 -0.00000003
0.07908754 0.07941267 0.00000962
0.06373434 0.17835026 0.00000836
-0.19798275 0.57604660 0.17474686
0.21428166 0.32997130 0.00000374
0.32140534 0.24648596 -0.00000039
0.38174657 0.00481800 -0.00000022
0.04680545 0.54291303 0.00000315
-0.55338044 -0.26526997 -0.00000024
-0.40738946 0.37796245 0.09856081
0.13644537 -0.00714737 0.00000000
0.57204677 -0.67022336 0.00000000
-0.04979194 -0.28812064 0.00000000
-0.29182737 0.50442354 0.02522774
0.55981647 0.04065210 0.00000193
0.44968756 -0.36413192 0.00000000
-0.07483572 -0.25858255 0.00000000
-0.08538332 0.70056187 0.09457235
-0.45223915 -0.54538121 0.00000000
-0.45809423 0.20048220 -0.00000045
0.31746030 0.13513774 -0.00000018
0.64864041 -0.70268459 -0.00000011
-0.39840418 -0.11022310 -0.00000005
-0.54930989 -0.57350047 0.00000000
-0.55793384 -0.09685379 -0.00000040
0.14823099 -0.67444172 0.00000000
-0.32923146 0.46470880 0.04077452
0.58240417 0.02125188 -0.00000111
0.21488508 -0.67802181 0.00000000
0.56841248 -0.07841259 -0.00000087
0.61627207 0.05184505 0.00000066
-0.37141762 0.08120699 -0.00000016
-0.39555753 0.13643492 -0.00000026
0.10735957 -0.45682975 0.00000000
-0.68004858 -0.76007160 -0.00000005
0.09264627 -0.56040034 0.00000000
0.61610903 -0.00844165 -0.00000120
0.46590867 -0.73696873 0.00000000
-0.46319805 -0.24783054 -0.00000006
0.27255782 0.19141505 -0.00000009
-0.14344122 -0.54429382 0.00000000
-0.55662383 0.04904783 -0.00000052
-0.64289874 -0.69792067 -0.00000005
-0.21213672 0.57496405 0.08679701
0.45413268 0.09108594 -0.00000068
0.48002357 0.27610088 -0.00000047
-0.15813151 0.59815029 -0.00000016
-0.28108855 -0.50039140 0.00000000
0.28039012 -0.22982063 0.00000000
-0.54451687 -0.52025200 0.00000000
0.63504966 0.07970534 -0.00000016
-0.46033302 0.25396276 -0.00000050
-0.55824485 -0.23415992 -0.00000028
0.42190962 0.34011374 -0.00000099
-0.38986045 -0.36934718 0.00000000
-0.00487006 -0.44965578 0.00000000
0.63227708 -0.79960552 0.00000000
0.08093676 0.40035001 0.00000477
-0.78407637 -0.49360447 -0.00000038
-0.31180394 0.18148747 -0.00000012
-0.44140578 -0.09555826 -0.00000015
0.01717330 0.67878625 0.00000000
0.42594926 -0.59012954 0.00000000
-0.15576959 0.58816175 -0.00000015
0.48095451 0.02789683 -0.00000069
0.08415701 0.62531866 -0.00000005
-0.17113550 0.60404984 0.16696870
0.63101537 -0.73853735 0.00000000
-0.47199590 -0.10762459 -0.00000020
-0.63661976 -0.09070088 -0.00000057
-0.06758782 -0.17459948 0.00000000
0.37982502 0.24969369 0.00000190
0.56793416 -0.19537289 -0.00000066
0.50668633 0.08105606 -0.00000089
-0.57855011 0.18682408 0.23298018
-0.24081558 0.20042430 0.00000000
-0.22447568 -0.24520755 0.00000000
-0.66097149 -0.56769628 -0.00000020
0.58357270 -0.25222934 -0.00000063
-0.22901009 0.34956452 -0.00000009
0.07277519 0.20479628 0.00000000
0.22746143 0.48856819 -0.00000042
-0.12930916 -0.57229974 0.00000000
-0.11226629 0.36887740 0.00000000
0.58027888 0.21892340 -0.00000144
0.10706986 0.11765631 0.00000862
0.36287649 -0.00369644 -0.00000013
-0.68147064 -0.48002890 -0.00000032
-0.63164380 -0.33575652 -0.00000034
-0.58214986 0.21701103 0.00564235
-0.19210164 0.17774002 0.00000000
0.13154064 -0.24021702 0.00000000
0.43695926 -0.62409896 0.00000000
0.38689805 -0.40106281 0.00000000
0.09119724 0.23555342 0.00000000
0.44652134 -0.03630195 -0.00000043
-0.00651777 0.70261632 0.00000000
0.62267162 -0.56636126 -0.00000024
0.00277895 -0.58799919 0.00000000
0.30750799 0.10020254 -0.00000008
-0.12827595 -0.68727067 0.00000000
-0.01467334 0.16933708 0.00000000
0.76702804 -0.70493321 -0.00000024
-0.19973365 -0.56889421 0.00000000
-0.12657142 -0.45708219 0.00000000
0.22899154 -0.72545515 0.00000000
-0.25303209 -0.55923321 0.00000000
-0.04513553 -0.25039465 0.00000000
0.00720250 0.62829631 0.00000247
-0.78532911 -0.11756777 -0.00000085
-0.41210978 -0.10811180 -0.00000008
0.11218485 0.18277555 0.00000757
0.62009127 -0.04707225 -0.00000115
-0.34963884 0.43135722 0.12787073
0.26221935 0.42527745 -0.00000046
0.15562672 0.55788413 -0.00000024
0.49854374 -0.65507066 0.00000000
0.18272161 0.52258666 -0.00000029
0.37814439 0.02142582 0.00000574
0.00276053 -0.47592432 0.00000000
-0.21997091 -0.14656485 0.00000000
-0.15984454 -0.18270428 0.00000000
-0.36252443 0.42378037 0.09215002
0.52076210 0.15351467 -0.00000108
0.41515584 0.22843238 0.00000157
-0.34085558 0.40635840 -0.00000038
-0.48551825 0.25522724 0.39869335
0.25671512 0.14599352 0.00000594
-0.39626883 -0.46691836 0.00000000
0.24733537 0.45325536 -0.00000044
-0.73614289 -0.19623402 -0.00000069
-0.27848006 -0.04666965 0.00000000
0.27898113 0.19795563 -0.00000013
-0.33928153 -0.75031708 0.00000000
-0.36439056 -0.16017326 0.00000000
0.16696322 0.08502596 0.00000000
0.02121358 0.03710653 0.00000000
-0.44987919 0.05452507 -0.00000030
-0.39456640 0.04587456 -0.00000018
-0.66264672 -0.65172005 -0.00000013
0.12186127 -0.25833699 0.00000000
0.09233519 -0.15302982 0.00000000
-0.47294130 0.29005468 0.24898420
0.05107270 0.62320560 0.00000188
-0.72396427 -0.04968819 -0.00000079
-0.17560261 0.54012116 -0.00000015
0.38402857 0.11722648 0.00000403
-0.09814768 0.58043240 -0.00000002
0.58865242 0.00397666 0.00000199
-0.62268426 0.17589986 0.00952250
0.08475436 -0.41857185 0.00000000
0.04096937 -0.35270343 0.00000000
0.20801108 -0.28058738 0.00000000
-0.14777929 -0.59516848 0.00000000
-0.43255392 -0.54782561 0.00000000
-0.09406766 0.70338137 0.01716964
-0.38974603 -0.43109452 0.00000000
0.59868527 -0.48989093 -0.00000027
-0.68140129 -0.20806822 -0.00000056
0.56941484 -0.06489169 -0.00000090
0.66672983 0.11297851 -0.00000163
-0.22163857 0.22534058 0.00000000
-0.25386368 -0.69326367 0.00000000
-0.04346277 0.26720720 0.00000000
0.77307100 -0.41564567 -0.00000096
-0.66659018 -0.64078342 -0.00000015
0.34526604 -0.66969994 0.00000000
-0.54235459 0.22515343 0.21862312
-0.36802193 0.40168725 0.20381553
-0.45017667 0.30137777 0.32596749
0.23401538 0.27600157 -0.00000007
-0.00165583 0.78074891 0.00000000
0.59064455 0.07563313 0.00000076
0.22133860 -0.38502176 0.00000000
-0.35581606 -0.66294096 0.00000000
-0.56584739 -0.03895273 -0.00000047
0.00909351 0.44057929 0.00000525
0.06491436 0.53812860 0.00000000
0.09895665 0.56889153 0.00000196
-0.48074236 -0.56920295 0.00000000
0.47522400 0.08262544 0.00000286
0.08218276 0.00064469 0.00000000
0.27829198 -0.61947873 0.00000000
-0.57558341 0.18684648 0.25279135
-0.62014002 -0.11993725 -0.00000051
0.25125069 0.44595321 -0.00000045
-0.42901103 0.30238526 0.46159621
0.20558587 -0.11054735 0.00000000
-0.67347201 -0.52658280 -0.00000026
-0.41838240 0.36868902 0.08699073
-0.18491298 -0.35180016 0.00000000
-0.13931947 0.37442020 0.00000000
-0.51583466 0.26664524 0.11788357
0.16304430 0.37645247 0.00000000
0.22577008 0.04108478 0.00000798
-0.50388196 0.28587196 0.06893967
0.09286947 0.06217308 0.00000967
-0.38043725 -0.76120904 0.00000000
-0.50710439 0.06243669 -0.00000043
0.32386685 -0.61186389 0.00000000
-0.01102282 0.44018086 0.00000000
0.29945236 0.01311597 0.00000000
-0.36339347 -0.38542200 0.00000000
0.15721204 -0.65451279 0.00000000
0.18437911 0.25752125 0.00000536
0.31370801 -0.10342291 0.00000000
-0.06824247 -0.50699679 0.00000000
0.17318402 0.17591854 0.00000675
0.23456598 -0.45772778 0.00000000
-0.08704009 -0.10757683 0.00000000
-0.45324595 0.22508305 -0.00000046
0.65293936 -0.00126865 -0.00000137
0.30561661 -0.40383187 0.00000000
0.21034270 0.11657528 0.00000000
0.39340220 -0.61650237 0.00000000
0.29145707 0.00636279 0.00000751
0.50340321 -0.00840814 -0.00000072
-0.11483093 -0.14109313 0.00000000
-0.51558387 -0.35519360 -0.00000008
-0.36124553 -0.16479707 0.00000000
0.26899052 -0.11575883 0.00000000
0.41916876 -0.01241653 -0.00000035
0.38028697 0.19775527 0.00000276
0.68449469 0.03442996 -0.00000157
-0.27614479 0.48229995 0.27960521
0.61273415 -0.78699019 0.00000000
-0.20093510 0.00102958 0.00000000
0.67806152 0.03236310 -0.00000154
-0.32415639 0.37716350 -0.00000032
0.20946526 0.02078183 0.00000853
0.64735178 0.05614664 -0.00000001
0.18470790 0.16985048 0.00000000
0.19040665 -0.46092395 0.00000000
0.24094849 -0.45132264 0.00000000
-0.11296124 0.31254285 0.00000000
-0.11837506 0.65738683 0.16308867
0.13438749 0.16825495 0.00000000
0.79180822 -0.19344383 -0.00000152
0.01185833 0.02675375 0.00000000
0.49475446 -0.74109145 0.00000000
-0.66112336 -0.05582414 -0.00000065
-0.47150275 0.28734577 0.27689082
0.08920498 -0.22155675 0.00000000
-0.42366817 -0.15216404 -0.00000006
-0.08303356 0.01141038 0.00000000
0.05727444 0.12543519 0.00000925
-0.26640636 0.17348783 -0.00000001
-0.20985549 0.50034332 -0.00000018
-0.54240452 -0.30706821 -0.00000018
-0.12459342 -0.40790928 0.00000000
-0.43618373 -0.62773555 0.00000000
0.28240508 0.42079012 0.00000091
0.21396897 0.52108270 -0.00000042
-0.15098335 0.63027336 0.12611868
0.18210828 -0.54247680 0.00000000
0.57870304 -0.52519394 -0.00000013
-0.18047522 -0.73092513 0.00000000
0.04344258 0.51665905 0.00000359
-0.46467472 -0.52290224 0.00000000
0.49209449 -0.47755881 0.00000000
-0.41371590 -0.72795315 0.00000000
-0.40159292 0.39559291 0.01893502
0.10299138 -0.53105401 0.00000000
0.72694914 -0.28807072 -0.00000118
0.48543072 -0.39633085 0.00000000
0.07925764 0.31816656 0.00000000
0.25025078 0.40737942 -0.00000037
-0.55866715 -0.44190082 -0.00000009
0.19438103 0.31462677 0.00000435
0.28876356 0.01372747 0.00000000
0.17674723 0.61061693 -0.00000042
-0.05747523 0.03921198 0.00000000
-0.42088057 -0.74483797 0.00000000
0.49652865 0.21525416 0.00000023
0.27761875 -0.18423343 0.00000000
0.20944809 0.00833949 0.00000000
-0.44194917 -0.59380608 0.00000000
0.59787777 0.15887872 -0.00000077
0.32880519 0.17636528 0.00000410
-0.50239078 -0.14659036 -0.00000024
-0.41675058 -0.43626747 0.00000000
-0.10270598 -0.54070211 0.00000000
0.17843366 -0.50389925 0.00000000
-0.49479182 -0.54909474 0.00000000
-0.75058558 -0.19287548 -0.00000072
0.04620441 -0.54005921 0.00000000
-0.45433669 0.29921156 0.31255271
-0.17698277 -0.35332206 0.00000000
-0.31907966 0.47520865 -0.00000039
-0.16474933 0.61245636 0.15337515
-0.35916291 0.15893055 -0.00000020
0.13443644 0.42940965 0.00000000
0.50308848 -0.59770291 0.00000000
-0.66315370 -0.16357895 -0.00000056
0.06569451 0.67633583 0.00000080
-0.52464943 0.26674611 0.05789343
0.24375535 -0.64745255 0.00000000
-0.56394240 -0.02606859 -0.00000047
0.17328609 -0.13291207 0.00000000
0.64153919 -0.43234099 -0.00000056
0.34272018 0.35188686 0.00000090
-0.74018367 -0.70169724 -0.00000012
-0.66336215 0.13593232 0.00474203
-0.03971086 0.16346743 0.00000000
-0.28351791 0.48374437 0.22027865
-0.33799666 0.42384977 0.25671872
-0.08286062 -0.36435500 0.00000000
-0.01965992 -0.43098377 0.00000000
-0.31048261 0.45541817 0.22943961
-0.15109292 0.13313035 0.00000000
0.33726681 -0.36293462 0.00000000
0.23918859 -0.45033966 0.00000000
0.41951049 0.13694384 0.00000302
0.69480984 -0.61420765 -0.00000046
0.43756635 0.28763821 0.00000016
0.25983436 0.22054617 -0.00000008
0.43488204 -0.57888834 0.00000000
-0.27821628 0.48376174 0.25583240
0.00597834 0.66170380 0.00000198
0.16173887 -0.79704283 0.00000000
0.08367028 0.01797696 0.00001047
-0.22327036 -0.14690868 0.00000000
0.08510078 -0.16085583 0.00000000
-0.23831100 -0.54844628 0.00000000
0.25068389 -0.12986911 0.00000000
-0.36117978 0.41709028 0.14621268
-0.01241572 0.69570059 0.00000000
0.06373489 0.29446335 0.00000000
-0.58631661 0.20024572 0.09041312
0.31488474 0.44593216 -0.00000072
-0.57296639 0.21155371 0.10415476
0.00157424 -0.12825240 0.00000000
0.04119815 0.00550491 0.00000000
-0.41118445 0.35403110 0.23405062
0.41374399 0.07757882 -0.00000049
-0.39946420 -0.51791913 0.00000000
0.13014608 0.32729362 0.00000513
0.02816917 0.45743227 0.00000000
0.61813497 0.03896059 -0.00000129
0.15411137 0.62917182 -0.00000011
-0.62197730 0.16718669 0.07290693
-0.26404321 0.50695583 0.19513658
0.11264074 0.27846814 0.00000000
0.06109693 0.12047542 0.00000000
0.67067228 -0.74295313 -0.00000013
0.10351196 0.20448123 0.00000000
0.45522936 0.28694184 -0.00000104
-0.33161549 0.45227705 0.10838175
-0.28305101 0.11272959 0.00000000
-0.52236699 0.05787659 -0.00000046
0.00613020 0.38498874 0.00000613
0.04189555 0.64829482 0.00000164
0.08565268 -0.37310371 0.00000000
-0.19968227 -0.48364266 0.00000000
-0.70899335 0.07638082 0.09840559
0.33725741 -0.52010502 0.00000000
0.21295693 0.37918499 -0.00000016
-0.47831658 -0.46591062 0.00000000
-0.74189791 -0.29702766 -0.00000061
0.41171443 -0.24873212 0.00000000
-0.47803938 -0.14384690 -0.00000019
-0.57673760 -0.47554366 -0.00000010
-0.16065631 0.23625639 0.00000000
-0.18380141 -0.43469250 0.00000000
-0.22250435 0.49873438 -0.00000021
0.26239026 -0.11260637 0.00000000
-0.73452265 -0.72218233 -0.00000010
0.70729724 -0.58001815 -0.00000055
-0.41364934 0.04247485 -0.00000021
0.01751168 0.10420133 0.00000000
-0.03263334 0.61180772 0.00000000
0.21257758 -0.78287144 0.00000000
0.28101321 0.33939015 0.00000230
0.13937369 -0.25324069 0.00000000
0.32159830 0.30861677 -0.00000050
-0.38436583 -0.05364928 -0.00000007
-0.28356444 0.03886991 0.00000000
-0.54958511 0.23123477 0.12905261
-0.59109567 -0.68771173 0.00000000
-0.03968277 0.75878885 0.01028995
-0.49442839 0.28258942 0.15463625
0.14691100 0.43720618 0.00000000
0.09249232 0.63168602 0.00000104
0.18697844 0.08064923 0.00000797
0.28030340 -0.60403123 0.00000000
0.37199611 -0.45433030 0.00000000
-0.23071153 0.07482621 0.00000000
-0.34463170 0.38240786 0.49090808
-0.40052751 -0.14491999 -0.00000002
-0.28521044 0.04871614 0.00000000
0.57177304 -0.17532655 -0.00000072
-0.14135048 -0.56905513 0.00000000
-0.00094237 -0.31966182 0.00000000
0.24914811 -0.55810234 0.00000000
0.62964992 -0.79504739 0.00000000
-0.67098295 -0.63345075 -0.00000016
0.26147983 0.23871227 0.00000435
0.09291172 -0.44315229 0.00000000
-0.76525452 -0.27678869 -0.00000065
0.47261769 0.19916274 -0.00000095
0.14086491 0.49072071 -0.00000005
0.72328273 0.06151418 -0.00000178
-0.43790774 -0.72575211 0.00000000
0.51394441 -0.51269692 0.00000000
-0.60651827 0.19282861 0.00439048
-0.16753462 -0.56043124 0.00000000
0.55688738 -0.49735041 -0.00000008
0.78448862 -0.35034641 -0.00000112
-0.11997242 0.65640022 0.15897937
-0.76185886 -0.39997154 -0.00000050
0.40991661 0.20049889 -0.00000069
-0.42340757 0.25273828 -0.00000042
-0.60524616 -0.71042023 0.00000000
0.14912743 -0.54526635 0.00000000
-0.06821038 0.71226945 -0.00000007
0.27404134 -0.17137286 0.00000000
-0.07091543 0.72866670 0.00281722
-0.64762263 0.14435285 -0.00000080
-0.66284792 0.03595114 -0.00000074
-0.08954526 -0.43510397 0.00000000
-0.18815214 -0.52343325 0.00000000
-0.41704244 0.32274715 0.40512386
-0.11842853 0.40029893 0.00000000
0.47912308 0.16029691 0.00000148
0.36282709 -0.59416381 0.00000000
-0.70094356 -0.60988687 -0.00000024
0.01106636 0.41609071 0.00000559
-0.36425210 0.25082669 -0.00000029
-0.51052899 -0.48785987 0.00000000
-0.36103115 -0.76023582 0.00000000
0.24309629 0.38935777 0.00000219
0.12172535 0.34932602 0.00000492
-0.44106930 0.29305800 0.44322153
-0.79982323 -0.10338387 -0.00000087
0.00541269 0.64407187 0.00000226
-0.27909889 0.15532331 -0.00000003
0.18450817 -0.23059856 0.00000000
0.10410992 0.47929191 0.00000324
0.13756770 0.36660415 0.00000443
-0.32352063 -0.75039565 0.00000000
-0.12028217 -0.77695657 0.00000000
0.22882360 0.26176085 0.00000460
0.38216899 -0.40167256 0.00000000
0.27145461 -0.41343635 0.00000000
0.35256506 -0.76253792 0.00000000
0.72396690 -0.58692544 -0.00000053
0.39598785 -0.38548418 0.00000000
-0.57072790 0.19731196 0.21504411
0.26919940 0.47273450 -0.00000057
0.26126588 -0.47267797 0.00000000
-0.50466526 -0.22355774 -0.00000017
0.07002010 -0.26885766 0.00000000
0.09037531 0.04935584 0.00000000
-0.00123395 0.20296888 0.00000000
0.46576841 -0.71842757 0.00000000
0.79959119 -0.21655220 -0.00000146
-0.43429631 0.30731333 0.39287829
0.63048197 -0.78669465 0.00000000
-0.35042853 0.42344715 0.17578105
0.02565352 -0.61073977 0.00000000
-0.45735279 -0.32408210 0.00000000
0.43171994 -0.76737539 0.00000000
0.45143829 0.33380919 -0.00000110
-0.17718400 0.55881085 -0.00000016
0.60288337 -0.64706458 -0.00000001
-0.14993997 -0.22822434 0.00000000
-0.55315721 -0.03312697 -0.00000044
-0.52832105 0.24467549 0.18169322
0.76944238 -0.48259923 -0.00000079
-0.29041071 0.03746369 0.00000000
-0.07802446 0.71998827 0.01337695
0.18248258 0.56497817 -0.00000036
0.27691309 -0.18580835 0.00000000
-0.01651804 0.36869605 0.00000000
-0.57327611 -0.04711864 -0.00000047
-0.53302984 0.10653232 -0.00000052
0.30777498 -0.19268330 0.00000000
0.66443394 -0.35919477 -0.00000079
0.26596943 -0.47986512 0.00000000
0.11242013 0.56129309 -0.00000006
-0.57708775 -0.32255396 -0.00000024
-0.35798004 -0.04967631 -0.00000001
0.37751219 -0.09008169 -0.00000004
-0.30209081 -0.66918770 0.00000000
-0.58115630 0.19596148 0.15396206
0.15615916 0.63966049 -0.00000038
-0.13476448 0.62584732 -0.00000013
-0.20400293 -0.20484557 0.00000000
0.36098970 0.34809764 0.00000062
0.24352513 -0.38619884 0.00000000
-0.32138194 -0.42268114 0.00000000
0.46531258 0.14827738 0.00000195
0.07652498 0.64419330 -0.00000005
0.40649096 0.07623553 0.00000428
0.34844907 0.25123248 0.00000248
0.51180231 0.27104200 -0.00000099
0.24429595 0.45880339 -0.00000044
-0.30778860 -0.15073363 0.00000000
0.61827685 0.04427866 -0.00000130
-0.26596583 0.10891553 0.00000000
0.34304120 0.16097156 -0.00000033
0.43350747 -0.59214192 0.00000000
-0.67209968 -0.35208705 -0.00000042
-0.14502125 -0.07062983 0.00000000
0.56847649 0.16767154 -0.00000035
-0.15128895 0.62773727 0.14112592
-0.34923250 0.03148010 -0.00000007
-0.23976917 0.40000546 -0.00000016
-0.17573993 -0.48398364 0.00000000
0.14670934 -0.70500354 0.00000000
0.09364537 -0.49801770 0.00000000
0.42957126 0.21428177 0.00000153
-0.48859645 -0.54658981 0.00000000
-0.47924167 0.19110059 -0.00000048
-0.31441782 0.43760989 -0.00000035
0.29324474 0.35860754 -0.00000047
0.27465506 0.37541246 -0.00000042
-0.09445045 -0.50930580 0.00000000
0.38775216 0.07378726 0.00000468
0.20094779 -0.09465070 0.00000000
-0.21935443 -0.45061312 0.00000000
-0.53679485 0.24810926 0.10157158
0.46633780 -0.05140857 -0.00000049
0.25092555 0.30405896 0.00000347
-0.21684298 0.44974621 -0.00000015
-0.00653259 -0.29223569 0.00000000
-0.57523872 -0.69034124 0.00000000
-0.08251356 0.03481154 0.00000000
-0.36813696 -0.11214897 0.00000000
-0.50603140 0.24432784 0.33400995
-0.16663877 0.53216956 -0.00000012
0.25427253 0.19269609 0.00000526
-0.25918704 -0.16927771 0.00000000
0.17589955 0.08043038 0.00000000
-0.67371108 -0.08575401 -0.00000065
-0.10067117 -0.18948877 0.00000000
-0.16749732 0.06975211 0.00000000
0.34728214 -0.35908739 0.00000000
-0.73264971 0.06302166 0.02911925
-0.73846674 -0.78446495 -0.00000002
0.70164583 -0.16814983 -0.00000128
0.49005738 -0.35043524 -0.00000006
-0.23309958 0.29610330 -0.00000005
-0.19960078 -0.75224700 0.00000000
0.20278893 0.46738523 -0.00000028
-0.45084279 0.30212912 0.31643045
0.52411589 -0.23472987 -0.00000041
-0.28216816 0.50903932 0.05916315
0.50249549 -0.75796149 0.00000000
-0.26652073 0.31258316 -0.00000014
-0.63948601 -0.20458776 -0.00000048
-0.31689795 0.46796569 0.10184782
-0.60895237 0.17419078 0.11341915
0.00870523 0.72324796 0.00000102
0.00112992 -0.46239105 0.00000000
-0.54837261 -0.12387118 -0.00000035
-0.48768321 0.25499613 -0.00000056
-0.16966160 -0.64282523 0.00000000
0.38531574 -0.67871540 0.00000000
-0.34832527 -0.65528252 0.00000000
-0.47184043 0.31643278 0.07890337
0.55197237 -0.22545334 -0.00000054
-0.18658497 -0.32563936 0.00000000
-0.22804977 0.54487507 0.18217876
0.37328569 -0.36974495 0.00000000
-0.55900020 0.20508832 0.24163133
-0.77077320 -0.62184130 -0.00000022
0.30472814 -0.25136797 0.00000000
-0.56909341 0.21637699 0.09776064
-0.25989680 0.48524473 0.36911229
0.30002447 -0.71367147 0.00000000
0.56704754 0.13040878 0.00000030
0.65997866 0.01472427 -0.00000143
0.37099039 -0.34972178 0.00000000
-0.64313020 -0.17912682 -0.00000051
-0.29635476 0.43519704 0.46054791
0.06290420 -0.08847230 0.00000000
-0.38310752 -0.21318907 0.00000000
0.52735590 -0.47537698 0.00000000
-0.40904417 0.23186568 -0.00000037
0.63947485 -0.43822429 -0.00000054
-0.28068577 0.49064993 0.19287163
0.15707537 0.63950583 -0.00000034
-0.05467540 -0.57283452 0.00000000
0.59436018 0.07709152 -0.00000126
0.68432610 0.00895752 0.00000007
0.09007089 -0.20203578 0.00000000
0.50936094 -0.24582242 -0.00000033
-0.14819698 0.64321958 0.05775885
0.31073318 -0.34340930 0.00000000
0.31517039 -0.17503715 0.00000000
0.13057272 0.44099509 0.00000000
0.42329500 0.18032050 0.00000222
0.78702466 -0.62878359 -0.00000043
-0.40081105 0.33036672 -0.00000044
0.27237126 -0.34512304 0.00000000
-0.58428733 -0.46944918 -0.00000012
-0.04322754 0.18409509 0.00000000
0.15607824 0.38295223 0.00000390
0.21570719 0.31980332 -0.00000007
0.33727856 -0.78342146 0.00000000
0.20759657 0.59081343 -0.00000049
0.21844916 -0.65026696 0.00000000
0.29400353 0.11344705 0.00000582
0.14736304 0.09934577 0.00000829
0.47818206 0.04650615 0.00000340
0.02062135 -0.77544211 0.00000000
0.63441145 0.16532318 -0.00000158
-0.59446607 -0.18149613 -0.00000040
0.26154912 -0.01288480 0.00000000
0.58453840 -0.38157044 -0.00000041
-0.16022329 -0.33927345 0.00000000
0.61106527 0.17737455 -0.00000133
-0.54701758 -0.67840769 0.00000000
0.49995940 -0.28778416 -0.00000021
-0.22830120 0.22401198 0.00000000
0.51983550 0.14139662 -0.00000105
-0.65673055 -0.73115019 -0.00000005
0.34296355 -0.18321307 0.00000000
0.56931124 0.14422182 0.00000002
0.31814400 -0.18289518 0.00000000
0.39201186 -0.58570579 0.00000000
-0.18653265 -0.75119871 0.00000000
-0.23529923 -0.32265777 0.00000000
-0.46741834 0.28843725 0.29702850
-0.62804535 -0.50742979 -0.00000018
-0.10796107 0.57415110 -0.00000003
-0.53356123 -0.53302442 0.00000000
0.46213659 0.33384723 -0.00000115
0.55806323 0.05923661 -0.00000107
0.00030047 0.76017952 0.00000000
-0.16914254 0.38399535 0.00000000
0.09274250 0.24835343 0.00000688
-0.47632363 -0.14284201 -0.00000018
0.48966124 -0.75613887 0.00000000
0.29425907 -0.62021948 0.00000000
-0.24906634 -0.32455083 0.00000000
0.64967941 -0.57765394 -0.00000034
-0.06329186 -0.15438292 0.00000000
-0.30486342 0.44170571 0.35950765
-0.00608618 0.34325557 0.00000000
-0.45996544 -0.27253071 -0.00000003
0.04260468 0.23124490 0.00000789
0.21390733 -0.72931816 0.00000000
0.15369089 0.64281698 -0.00000038
0.65444222 0.00774486 -0.00000139
0.17446149 0.17420817 0.00000000
0.58475222 -0.28282308 -0.00000058
0.15492351 0.11719872 0.00000790
0.35074584 0.35122452 0.00000076
-0.23072518 0.32085554 -0.00000007
0.15147872 0.09924112 0.00000000
-0.25216791 -0.57181782 0.00000000
-0.52231001 0.23500677 0.28719650
0.07132674 0.51510902 0.00000320
0.10664864 -0.25002868 0.00000000
0.48735846 0.19958255 -0.00000102
0.21630943 0.50908975 -0.00000041
0.58542835 0.17282090 -0.00000139
-0.41085746 -0.07143082 -0.00000011
0.05577220 0.62265957 0.00000000
-0.34639273 -0.38899562 0.00000000
-0.11509719 0.64113688 -0.00000011
0.23913897 0.12632209 0.00000650
-0.65525270 -0.04246858 -0.00000065
-0.61170126 -0.70596722 0.00000000
0.69004112 -0.12883762 -0.00000130
-0.19875707 -0.14731731 0.00000000
0.48297994 0.17014927 -0.00000095
0.00175248 -0.44215330 0.00000000
0.12341394 0.65018030 0.00000013
-0.50438155 0.15812914 -0.00000051
0.19200457 0.07002656 0.00000000
-0.70169722 0.09016612 0.05474258
-0.30238327 -0.48175190 0.00000000
-0.11175206 0.61444012 -0.00000007
0.68120065 -0.12894775 -0.00000127
0.74644487 -0.73306996 -0.00000017
0.26290651 0.44775179 0.00000084
-0.39239041 0.40680287 0.00542781
0.43864212 -0.65391867 0.00000000
-0.22461182 0.38819568 -0.00000012
0.36798194 0.35349866 -0.00000078
-0.37010557 0.41244175 -0.00000045
-0.27795384 0.07076828 0.00000000
0.31994243 0.07876536 -0.00000009
0.31895324 -0.23422941 0.00000000
-0.28263217 0.32255451 -0.00000018
0.32514048 -0.24355084 0.00000000
0.03530536 -0.37397513 0.00000000
0.60321333 0.06271224 0.00000073
0.54234050 -0.00359224 -0.00000089
-0.21921436 0.34297728 -0.00000006
-0.47504897 0.31183427 0.08825585
0.06256336 -0.61097477 0.00000000
0.00723595 0.18535243 0.00000911
-0.10653439 -0.34905360 0.00000000
0.33187505 0.38738540 -0.00000069
0.44821203 0.32802208 -0.00000108
0.30148640 0.42068359 -0.00000062
-0.13192208 0.19045538 0.00000000
-0.10856845 0.12930283 0.00000000
0.24914911 0.37290137 -0.00000031
-0.28369722 0.45904521 0.38525431
0.52177050 -0.06635729 -0.00000070
-0.38261661 0.35026861 0.45157765
-0.60829602 0.18703205 -0.00000076
-0.19666795 -0.42278343 0.00000000
0.08105228 -0.37852752 0.00000000
-0.09584064 -0.10730977 0.00000000
-0.54325543 -0.07861630 -0.00000038
-0.72645063 -0.09217944 -0.00000076
0.08914059 -0.25345788 0.00000000
-0.07018298 0.45227611 0.00000000
0.36114238 0.18145384 -0.00000045
-0.52655140 -0.09598876 -0.00000033
-0.14537985 0.63999431 0.09841527
0.57271527 -0.58844010 0.00000000
0.54446187 -0.21476057 -0.00000053
-0.39024735 -0.59380583 0.00000000
-0.65383350 -0.19812521 -0.00000051
0.36219151 -0.73047516 0.00000000
0.27578997 -0.37355062 0.00000000
-0.65065650 -0.71928271 -0.00000005
-0.24912059 0.53074138 0.13550339
0.44335095 -0.09732249 -0.00000031
-0.40419676 0.31335036 -0.00000043
0.16348631 0.03182244 0.00000906
0.56405128 0.19217927 -0.00000068
-0.57496679 -0.50168241 -0.00000008
-0.33315164 -0.67125003 0.00000000
-0.44080961 -0.78162052 0.00000000
-0.31209021 0.46991488 0.12108203
-0.12592306 -0.55352404 0.00000000
0.23122512 0.33084033 0.00000340
-0.40346778 0.02180419 -0.00000017
0.33197007 0.11892736 0.00000500
0.67506339 -0.50340874 -0.00000058
-0.53941496 0.01831276 -0.00000046
0.22450964 0.01894572 0.00000000
0.20886999 -0.13899341 0.00000000
-0.38811275 -0.31944607 0.00000000
-0.33731398 0.46100863 -0.00000042
-0.32166456 0.47294139 0.03629546
-0.46279585 -0.18320097 -0.00000012
0.60264818 0.01409029 -0.00000118
-0.23442439 -0.35614205 0.00000000
-0.52382056 0.23868723 0.25226811
-0.45580140 -0.42544481 0.00000000
-0.41432516 -0.67836624 0.00000000
-0.26085978 -0.01055858 0.00000000
-0.25648735 -0.14048677 0.00000000
-0.40108042 0.24245247 -0.00000036
-0.66431880 -0.07570068 -0.00000064
-0.46169226 -0.66843654 0.00000000
-0.52255636 -0.42430913 -0.00000003
0.49899652 -0.39223915 -0.00000002
0.24080158 -0.36733227 0.00000000
0.08528763 0.44866129 0.00000000
-0.52218789 -0.40094737 -0.00000005
0.30922407 0.22465563 0.00000367
0.19833574 0.11593696 0.00000727
0.45296214 -0.48651267 0.00000000
0.37501722 -0.01498106 -0.00000016
-0.37567498 0.14766587 -0.00000023
0.11556403 0.14593164 0.00000000
-0.00968694 -0.06540091 0.00000000
0.36903161 -0.16425084 0.00000000
0.61048168 0.11351064 -0.00000139
-0.59472666 -0.67398613 0.00000000
0.01850456 0.26816874 0.00000770
-0.08179471 -0.34534230 0.00000000
-0.15895505 0.61218269 0.19420166
0.50590068 0.25355799 -0.00000119
0.79087553 -0.59631191 -0.00000051
0.39803541 0.00833419 -0.00000030
-0.29015774 0.10749105 -0.00000001
-0.57635689 0.18895459 0.23340220
0.13906746 -0.01763733 0.00000000
-0.73121866 0.06684525 0.01302081
0.02594801 0.27630719 0.00000746
-0.29075573 0.45619387 0.35694757
0.77190544 -0.51381332 -0.00000072
0.27314557 0.29423403 -0.00000027
-0.58115389 -0.49990863 -0.00000009
0.77905081 -0.57729012 -0.00000056
-0.30418645 -0.64429916 0.00000000
0.23963227 0.02507813 0.00000801
-0.06556265 -0.38295061 0.00000000
-0.28588512 0.48812135 0.17490213
0.48926398 0.06813494 0.00000283
0.44516738 -0.43421297 0.00000000
0.43198905 -0.32422891 0.00000000
0.38703999 -0.25096972 0.00000000
0.47896388 -0.19825437 -0.00000028
0.23938366 0.45062332 0.00000124
0.24101304 0.08161129 0.00000000
0.63474144 -0.69371670 -0.00000007
-0.12715942 0.56490883 -0.00000006
-0.77098290 -0.76015497 -0.00000005
0.00517445 0.50485617 0.00000000
0.30926242 0.15180656 -0.00000017
0.42779353 -0.19919265 -0.00000006
0.62016277 -0.41713537 -0.00000050
0.50804553 -0.23449257 -0.00000034
0.20623383 0.19554805 0.00000595
0.29947514 -0.51530988 0.00000000
-0.09340539 -0.12722507 0.00000000
-0.79471196 -0.07084484 -0.00000091
0.36344266 0.22998198 -0.00000054
0.64963172 -0.18034511 -0.00000104
-0.35813323 0.42626549 0.10497536
0.20409539 -0.70178333 0.00000000
0.55554421 0.11183645 -0.00000115
0.18422356 0.09678098 0.00000777
0.46579140 0.11924227 0.00000243
0.12960557 0.39946108 0.00000000
0.04395959 -0.34060154 0.00000000
-0.34149361 -0.54165073 0.00000000
0.19163055 0.37918250 -0.00000007
0.42716715 -0.47021857 0.00000000
-0.16996968 0.29147313 0.00000000
0.71062665 0.02257981 -0.00000066
0.70708826 -0.12177164 -0.00000139
0.20278497 -0.69245680 0.00000000
-0.24962603 -0.46310511 0.00000000
0.22097227 0.13523996 0.00000000
0.26173992 -0.72183567 0.00000000
0.03299823 0.48965601 0.00000000
0.43065236 -0.18634195 -0.00000009
-0.02682353 -0.58207540 0.00000000
-0.56913118 0.19962304 0.21023746
-0.59276273 0.19671016 0.07082897
0.62392592 -0.59593752 -0.00000020
0.26253896 -0.39460565 0.00000000
-0.11724626 -0.38341349 0.00000000
-0.23262922 0.08744539 0.00000000
-0.63429033 -0.68941121 -0.00000004
-0.10667865 0.67197212 0.14365136
-0.18237257 0.60022996 0.11706415
0.34613381 0.37441515 -0.00000072
-0.37247441 0.37000051 0.38705558
0.73911442 -0.54837522 -0.00000063
0.01026043 0.53903437 0.00000000
-0.17669709 0.40189985 -0.00000003
-0.78183239 -0.57222141 -0.00000028
0.26010548 -0.26026886 0.00000000
-0.15419936 -0.43887785 0.00000000
0.31232421 0.43695778 -0.00000069
-0.49674857 0.27051244 0.22028598
0.54056826 0.12996757 0.00000081
-0.29738769 -0.25918795 0.00000000
-0.48475550 0.30040048 0.09987778
0.34781874 -0.24671173 0.00000000
-0.34557514 0.38428212 0.47194993
-0.18423146 -0.50690147 0.00000000
0.53266891 -0.19617506 -0.00000051
0.41320855 0.32132220 -0.00000092
-0.35942059 -0.29272851 0.00000000
0.48368994 -0.60734753 0.00000000
-0.34236879 0.39689956 0.40862974
0.54745045 -0.77269100 0.00000000
-0.66001133 -0.30825258 -0.00000043
0.37142018 0.26485378 -0.00000064
-0.01680305 -0.73343847 0.00000000
0.72454722 -0.28669652 -0.00000117
-0.00871683 -0.68209315 0.00000000
0.03394244 0.16945313 0.00000895
0.07098588 -0.17259084 0.00000000
0.09431087 -0.64812670 0.00000000
0.12425430 0.21399313 0.00000692
-0.53042895 -0.37388776 -0.00000009
-0.32480161 0.24503435 -0.00000020
0.26661653 -0.63939640 0.00000000
-0.41945756 -0.65408474 0.00000000
0.32617376 0.05576254 -0.00000008
-0.26085296 0.39921547 -0.00000020
0.57589944 -0.19160026 -0.00000070
0.75930376 0.03097439 -0.00000174
0.31660190 -0.15657140 0.00000000
0.16752762 -0.25879911 0.00000000
0.13119488 0.55866314 -0.00000013
-0.02846938 -0.60535153 0.00000000
-0.47788923 -0.71424379 0.00000000
-0.19986558 -0.75572658 0.00000000
-0.30629598 -0.06231713 0.00000000
0.25026066 0.29413391 -0.00000017
-0.07381606 0.47125483 0.00000000
-0.46907981 -0.55533491 0.00000000
0.27712694 -0.61246584 0.00000000
-0.70606658 0.09361893 0.00211013
-0.09231154 -0.36748470 0.00000000
0.34611885 -0.67882967 0.00000000
0.53182225 0.09845020 0.00000151
-0.49003336 -0.37531484 -0.00000001
0.04790890 -0.15709688 0.00000000
0.35117940 -0.43070276 0.00000000
0.63632552 -0.51727387 -0.00000039
-0.19311667 0.58755500 0.13005562
0.41474270 0.18619174 -0.00000068
-0.60863703 0.17145755 0.13393178
0.17174196 0.30683846 0.00000481
0.18963979 -0.57926667 0.00000000
-0.54168713 -0.72845136 0.00000000
-0.57946322 0.18290558 0.25320229
0.25948429 0.03417561 0.00000757
-0.24043885 0.12661577 0.00000000
-0.26157450 0.19246450 -0.00000002
-0.35655393 0.38915108 0.36532245
-0.52257738 -0.57702277 0.00000000
0.01517158 -0.25629126 0.00000000
-0.15253822 -0.78791334 0.00000000
-0.65025332 0.06278232 -0.00000074
-0.22676920 -0.60999502 0.00000000
-0.32946279 0.25172687 -0.00000022
0.36125564 -0.73100088 0.00000000
-0.16313601 -0.15713911 0.00000000
0.30535305 -0.30442763 0.00000000
0.60772951 0.15140489 -0.00000084
0.45727347 -0.75323740 0.00000000
-0.33732882 0.39665904 0.44415810
-0.39437985 -0.07249257 -0.00000007
0.06374532 -0.08583332 0.00000000
0.15490502 0.47746702 0.00000241
-0.06192644 0.52986339 0.00000000
-0.40474484 0.35540297 0.26814845
0.22560822 0.57134343 -0.00000051
-0.39555996 -0.40176775 0.00000000
-0.48968240 0.18063429 -0.00000050
0.14250557 0.23576884 0.00000000
0.26703289 0.47937134 0.00000023
-0.15304902 0.40449780 0.00000000
0.15501573 0.53150679 0.00000151
-0.28522183 0.07102666 0.00000000
0.42979593 -0.49963747 0.00000000
0.60584166 -0.46198021 -0.00000035
-0.07150847 0.22854357 0.00000000
-0.66081874 -0.58080981 -0.00000019
-0.00347706 0.10964243 0.00000000
-0.61456425 0.15205118 0.22462773
-0.22980100 -0.54785988 0.00000000
-0.18112029 -0.58144551 0.00000000
0.31507486 0.40758578 -0.00000065
0.22985728 -0.00065040 0.00000000
-0.43597883 0.30505795 0.39673274
-0.52492909 0.08833790 -0.00000049
-0.22175442 -0.74424330 0.00000000
0.27662934 0.44262496 0.00000066
0.22087664 -0.79694129 0.00000000
0.38225724 -0.34851966 0.00000000
0.11753267 0.63550691 0.00000049
0.49461749 0.18357330 0.00000080
-0.39449780 0.36926073 0.24385449
-0.00458707 -0.73114584 0.00000000
0.61030350 -0.37227564 -0.00000053
-0.25724012 -0.39594893 0.00000000
-0.26712200 0.47148099 -0.00000028
0.02443316 0.49505931 0.00000000
0.25198451 0.38975720 0.00000201
0.10688109 0.17109746 0.00000782
-0.45661518 0.04330246 -0.00000031
0.03712901 0.34065723 0.00000633
0.43428603 -0.74563475 0.00000000
-0.41591829 0.27449282 -0.00000042
-0.23531431 0.53412200 0.20565048
-0.45279047 -0.30545832 0.00000000
-0.35832664 0.36447628 -0.00000038
0.36165102 -0.23239502 0.00000000
-0.10903871 -0.58816024 0.00000000
0.19527806 -0.23782615 0.00000000
0.39454681 -0.79307622 0.00000000
-0.34480076 0.24858155 -0.00000025
-0.40553488 -0.02722184 -0.00000013
0.59694977 -0.59086286 -0.00000009
0.54766746 0.21232610 -0.00000070
0.15791802 0.35830564 0.00000000
-0.56288837 -0.65861833 0.00000000
-0.08902010 0.56562877 0.00000000
0.67769575 -0.00886589 -0.00000146
0.35514624 -0.38093451 0.00000000
-0.72304842 -0.35719797 -0.00000052
0.38059056 0.38738559 -0.00000042
-0.04997057 -0.78105790 0.00000000
0.26351558 -0.21001865 0.00000000
-0.03469160 -0.32818014 0.00000000
0.72931569 -0.30451160 -0.00000116
-0.66242884 -0.49729261 -0.00000027
-0.22774312 0.53088497 0.27837078
0.41980218 0.25886725 -0.00000084
0.20830936 -0.42934370 0.00000000
-0.44133968 0.32944873 0.19655242
0.19833510 0.28307560 0.00000000
-0.40412070 0.35631583 0.26620590
-0.71349052 -0.43214675 -0.00000043
0.31859810 -0.21496474 0.00000000
0.03583816 0.56935930 0.00000292
0.16356846 -0.63395321 0.00000000
0.32765693 -0.65684260 0.00000000
0.29507926 0.11095755 0.00000584
0.21485613 0.28634332 -0.00000001
0.18324221 0.08374209 0.00000000
-0.28599551 0.47861323 0.23813239
-0.05929942 -0.35088197 0.00000000
-0.73595890 -0.73154365 -0.00000009
-0.64584072 0.15250935 0.01109684
0.26310778 -0.58882278 0.00000000
0.32274010 0.02688297 -0.00000001
-0.03606622 0.33787997 0.00000000
-0.79652835 -0.01507602 -0.00000098
-0.22371639 0.25697343 0.00000000
-0.09885957 -0.59506656 0.00000000
-0.77945551 0.01958737 -0.00000097
-0.63223059 -0.56458065 -0.00000014
-0.22694052 0.52864767 0.29882400
-0.42691600 -0.57114404 0.00000000
-0.63193187 0.16267866 0.03625912
-0.61697853 -0.48915682 -0.00000018
0.45645023 0.20258848 0.00000121
0.68535265 -0.02898946 -0.00000146
-0.44137844 0.31132280 0.31825138
-0.23777623 -0.04568571 0.00000000
-0.33609239 -0.23854192 0.00000000
-0.17219572 -0.04180479 0.00000000
0.01755687 0.75525729 0.00000000
0.09633420 0.42024878 0.00000000
0.42522630 -0.49937925 0.00000000
-0.12316159 -0.78072999 0.00000000
-0.19456544 0.60088156 0.03063868
0.52926325 0.21428446 -0.00000122
-0.31560970 -0.44907986 0.00000000
0.15771927 0.11708661 0.00000786
0.24222628 0.23750258 -0.00000004
0.58739145 0.08825987 0.00000061
-0.67753486 -0.52678081 -0.00000027
0.21059670 -0.52725278 0.00000000
-0.50987646 0.27814821 0.08057500
0.35364518 0.11284226 -0.00000029
0.77311980 -0.07210886 -0.00000176
-0.01722471 -0.03754987 0.00000000
0.41385008 0.02645389 -0.00000040
0.25714695 0.48939349 0.00000025
-0.42366535 -0.31038276 0.00000000
-0.38425274 -0.09499766 -0.00000003
0.54498388 0.09019737 0.00000139
-0.18516012 -0.15741353 0.00000000
-0.25660013 -0.66034070 0.00000000
0.02859508 -0.58989337 0.00000000
-0.20354828 0.38386408 -0.00000007
0.30199182 -0.13985599 0.00000000
-0.47518547 -0.01990995 -0.00000029
0.56071345 -0.11675955 -0.00000077
-0.60032371 -0.48199318 -0.00000015
-0.38902394 0.38264118 0.19065437
-0.66626506 0.12344064 0.06926116
0.05439323 0.24107148 0.00000000
0.28453641 0.14923992 -0.00000006
0.20704232 0.39299208 -0.00000016
0.70880100 -0.33847906 -0.00000101
-0.67702214 0.11452913 0.05684280
-0.36045251 0.40270354 0.24790760
-0.02924992 0.56751860 0.00000000
-0.39002855 -0.60562908 0.00000000
0.61843251 -0.28562583 -0.00000072
0.08049674 -0.44122023 0.00000000
0.43711549 -0.13510751 -0.00000021
0.15471627 -0.65759372 0.00000000
0.45020816 -0.50131116 0.00000000
0.10316349 0.49533772 0.00000301
-0.70395682 -0.17444836 -0.00000064
-0.24848845 0.53686775 0.09853483
-0.71595094 -0.43467464 -0.00000044
0.01014751 0.51129137 0.00000418
-0.31349435 0.05549186 -0.00000001
-0.11570781 0.67840561 0.03961325
-0.18751067 0.60467749 0.05256635
-0.45524942 0.29223811 0.35333078
-0.07786587 -0.01078084 0.00000000
-0.26826917 0.07931075 0.00000000
-0.15804034 0.30704219 0.00000000
0.06416923 0.48505167 0.00000376
0.64613308 0.10527075 -0.00000080
0.57086780 -0.77975220 0.00000000
0.33260389 0.18310917 0.00000392
0.53994601 -0.70349075 0.00000000
-0.67387661 -0.50190524 -0.00000029
0.03130885 0.69409114 0.00000000
0.25286470 0.00668992 0.00000000
-0.22986803 0.54324705 0.18089876
-0.32138597 -0.79200474 0.00000000
-0.51549179 0.00070446 -0.00000039
0.23861945 -0.22667279 0.00000000
-0.23590278 0.52878456 0.23760280
0.32941540 0.30917813 0.00000187
-0.07869615 -0.17113650 0.00000000
0.07804408 0.21295820 0.00000000
-0.68898488 -0.21007163 -0.00000058
-0.00659749 0.55809479 0.00000000
0.08123133 0.49597618 0.00000333
0.72838056 -0.37883207 -0.00000102
-0.09943516 -0.47967179 0.00000000
-0.72749733 -0.75915922 -0.00000005
-0.36324806 0.30014324 -0.00000033
0.21693875 -0.65722000 0.00000000
0.41119131 -0.05460734 -0.00000024
-0.21268901 0.56979023 0.11789344
0.07583480 0.66250555 0.00000084
-0.65567241 -0.25123093 -0.00000047
0.71405045 0.08389943 -0.00000178
0.37230063 0.18271269 0.00000316
-0.27669429 -0.67386488 0.00000000
0.58688623 0.07462979 -0.00000122
-0.07797739 0.71729399 0.03182248
-0.28851216 -0.25414409 0.00000000
0.76405025 -0.62205224 -0.00000044
-0.19205972 -0.25009913 0.00000000
-0.03431677 0.40130922 0.00000000
-0.17853523 0.60684228 0.09839272
0.08613966 0.27693454 0.00000655
-0.73383896 -0.57339230 -0.00000028
0.11619332 0.07537798 0.00000000
0.02138279 0.30251272 0.00000714
0.68952129 -0.22977325 -0.00000112
-0.10015744 -0.56774821 0.00000000
-0.34911656 0.42055632 0.20406010
0.38211998 -0.16165548 0.00000000
-0.78317196 -0.14989041 -0.00000081
-0.18433030 0.52486401 -0.00000015
-0.36361458 -0.29320316 0.00000000
-0.07725122 0.48061829 0.00000000
-0.40375452 0.35828350 0.25543066
-0.54233214 -0.57924820 0.00000000
0.52996342 -0.69536716 0.00000000
0.46147857 0.07660776 0.00000322
-0.61392400 0.17323728 0.08638251
-0.67199062 -0.53728088 -0.00000025
-0.52717934 -0.64356546 0.00000000
0.53233844 0.11091000 -0.00000105
-0.62947276 -0.25650214 -0.00000041
-0.07620723 0.28562518 0.00000000
-0.46889408 -0.22118932 -0.00000010
0.18341066 -0.07308776 0.00000000
-0.10577735 0.12478046 0.00000000
-0.08597094 -0.50862090 0.00000000
-0.44221311 0.24893316 -0.00000046
-0.33864304 0.06747681 -0.00000008
0.43848356 0.02027450 -0.00000049
0.68821795 -0.44548584 -0.00000074
0.55467675 -0.54574999 0.00000000
0.07504043 0.24383565 0.00000000
0.06846082 0.57939261 0.00000228
-0.49347241 0.25744218 0.33027325
0.67249388 -0.75259112 -0.00000012
0.34412444 0.23394642 -0.00000047
0.64698994 0.10589600 -0.00000153
-0.06232449 -0.10485920 0.00000000
0.71900250 -0.06770762 -0.00000153
-0.78187906 -0.56799908 -0.00000029
-0.75205185 -0.53563180 -0.00000033
0.62346990 -0.42273294 -0.00000050
-0.22732894 0.40199296 -0.00000013
-0.43521225 -0.39995848 0.00000000
-0.36300557 -0.57251972 0.00000000
-0.48216704 0.30716033 0.07181014
-0.11109172 0.49051299 0.00000000
-0.77367769 -0.05660531 -0.00000089
-0.32008226 -0.16310997 0.00000000
0.50151973 0.16266349 -0.00000101
0.28388758 0.32887495 0.00000242
-0.62513181 -0.35256978 -0.00000032
0.12114617 0.19189715 0.00000000
0.11943727 -0.03310014 0.00000000
0.29592022 -0.21983561 0.00000000
0.48016922 0.21159335 -0.00000101
-0.03157828 0.30716100 0.00000000
-0.51400007 -0.78208733 0.00000000
0.36917120 -0.56824399 0.00000000
0.49373698 -0.47451260 0.00000000
-0.45950574 0.32608559 0.09694898
0.19257761 -0.55892593 0.00000000
0.22050070 0.30745952 -0.00000007
-0.17310031 0.59404413 0.22106984
0.01385758 0.62860716 0.00000000
-0.37363724 -0.17550315 0.00000000
0.54160331 -0.51517391 0.00000000
0.51248426 0.19523421 -0.00000112
0.47975177 -0.56148940 0.00000000
0.23198052 0.53655814 -0.00000005
0.12268241 0.62048219 -0.00000021
-0.14422838 0.27450746 0.00000000
-0.13052602 -0.33726121 0.00000000
0.30046126 -0.58529897 0.00000000
-0.27544739 -0.70614864 0.00000000
-0.48511364 0.03741508 -0.00000036
-0.12273894 0.19830266 0.00000000
-0.23078559 -0.18038144 0.00000000
0.76201527 -0.61186687 -0.00000047
-0.30506106 -0.62334767 0.00000000
-0.38756708 0.20529258 -0.00000030
-0.26779770 0.47550067 0.38151355
-0.30607036 -0.34630094 0.00000000
0.47930991 -0.03939040 -0.00000056
0.64399832 -0.62479430 -0.00000023
0.33417220 0.26544994 -0.00000048
-0.79187758 -0.56374389 -0.00000030
-0.56026260 0.23835525 0.00929669
0.08120063 0.35278393 0.00000000
-0.30949800 0.48893557 0.01054110
-0.25557706 0.31898053 -0.00000012
-0.40903646 0.33352938 0.38644435
0.04539441 0.70907497 0.00000065
0.40065247 -0.63747136 0.00000000
-0.39359644 0.40265884 0.02519649
0.17174357 0.33591378 0.00000437
-0.13646900 -0.44407352 0.00000000
0.73386284 -0.14599750 -0.00000146
0.56333304 0.10931444 0.00000072
0.74444107 -0.21462407 -0.00000138
0.17947358 -0.51437187 0.00000000
-0.03134489 0.76338365 0.03547497
0.04880954 0.37454443 0.00000565
0.29802124 0.07309878 0.00000641
0.18181331 0.40616485 0.00000309
-0.10624317 0.47558474 0.00000000
-0.14862391 -0.01139814 0.00000000
-0.52614017 0.09727777 -0.00000050
0.63929706 -0.12776511 -0.00000109
0.03092224 -0.42789262 0.00000000
0.25818781 -0.23470867 0.00000000
-0.56762249 0.22060008 0.07924234
-0.04354471 0.23603344 0.00000000
-0.35900038 -0.32574471 0.00000000
0.45042860 -0.30028040 0.00000000
-0.29890415 -0.54218368 0.00000000
0.35843404 -0.03285529 -0.00000006
0.17268642 -0.21636545 0.00000000
0.39571102 0.28618373 -0.00000078
-0.34386624 0.37914518 0.51801048
-0.43550263 -0.57555576 0.00000000
-0.43615381 0.35804984 0.03900033
0.16616242 0.05907407 0.00000000
0.28954872 -0.16454798 0.00000000
-0.04679614 -0.62823916 0.00000000
0.29967975 0.02913261 0.00000704
-0.39812166 0.35800216 0.29522278
-0.02192471 0.62587598 0.00000000
0.36099757 -0.43891499 0.00000000
-0.21156624 0.54646187 0.28240742
-0.62957353 -0.74235744 0.00000000
-0.39616073 -0.12864809 -0.00000002
0.39507018 -0.15359670 -0.00000000
-0.47701741 -0.52043022 0.00000000
0.49206269 -0.31778255 -0.00000012
-0.01722690 -0.61885300 0.00000000
-0.10134348 -0.75578300 0.00000000
-0.22316998 -0.70068091 0.00000000
0.06897257 0.06557201 0.00000998
0.38837765 0.19284673 0.00000268
-0.20196678 -0.71823988 0.00000000
-0.45449568 0.28282123 0.42176122
-0.02454154 -0.02011943 0.00000000
0.10904185 0.14095641 0.00000000
-0.38396465 0.25380780 -0.00000034
0.39849484 0.13799965 0.00000341
-0.41751809 0.34800616 0.23197336
0.06059620 -0.37788078 0.00000000
-0.50898664 0.27243541 0.12500154
-0.26463937 0.29226055 -0.00000012
0.44742984 -0.57192616 0.00000000
0.55734363 0.01411681 -0.00000099
0.22420003 0.14460515 0.00000000
0.12874616 0.64433182 0.00000013
-0.00309032 0.05820760 0.00000000
0.75998395 -0.38855427 -0.00000103
-0.68830852 0.05642626 -0.00000081
-0.41582996 -0.77344599 0.00000000
0.15398551 0.58845357 0.00000058
0.60117534 0.12814096 -0.00000138
-0.30011753 0.41380077 -0.00000030
-0.48855883 0.30875296 0.01808591
0.16693952 -0.59013341 0.00000000
0.04220170 -0.75066978 0.00000000
-0.06198754 -0.29414942 0.00000000
0.55398306 -0.40064029 -0.00000024
-0.10070798 -0.09361595 0.00000000
-0.78059183 -0.04735763 -0.00000092
0.08627914 0.20905277 0.00000000
-0.42674335 0.29166692 -0.00000046
-0.19769799 -0.22681718 0.00000000
-0.48493498 0.27572016 0.26473456
