ply
format ascii 1.0
element vertex 1399
property float x
property float y
property float z
end_header
0.10965677 0.32012297 0.14291347
0.31202222 -0.21064103 0.40663039
0.08002875 0.27150355 0.10429440
-0.43856005 -0.55442471 0.00000000
0.04787568 0.57963155 0.06239215
-0.00838781 0.00339564 0.00001182
0.23651614 0.07427585 0.30823003
-0.56881409 -0.05438063 -0.00000092
-0.14019537 -0.15408331 0.00000000
0.11777026 0.04409206 0.15349326
0.43188367 0.00352853 0.56283558
0.15033021 0.03643172 0.19591209
-0.60037962 0.13333325 -0.00000138
0.29419584 -0.42253635 0.38339947
0.03682166 0.41430967 0.04799419
0.42272246 -0.78432969 0.55089664
0.37804523 -0.25953880 0.49267178
0.13018789 -0.18304613 0.16966238
0.09804648 -0.65481625 0.12777532
0.21994148 0.04314935 0.28664000
-0.42888101 -0.19662095 -0.00000007
-0.12646792 0.52846874 0.00000211
-0.13597053 0.10142850 0.00000843
0.04852108 -0.19970520 0.06323324
-0.44220187 0.34663153 -0.00000092
0.00890355 0.49690846 0.01161000
-0.62091111 -0.65134061 -0.00000008
-0.06315477 -0.65919742 0.00000000
0.00469598 0.74611177 0.00612095
-0.12744130 -0.26758388 0.00000000
0.26693650 -0.19963528 0.34787462
0.42827838 -0.54764031 0.55813645
-0.34133992 -0.19197413 0.00000000
-0.26631363 -0.29932730 0.00000000
-0.42704126 -0.50897041 0.00000000
0.26322325 -0.27883840 0.34303562
-0.35947368 -0.29417350 0.00000000
-0.36994679 0.15910426 0.00000360
0.21016560 0.31381805 0.27389289
-0.77393990 -0.29290192 -0.00000127
-0.66228416 -0.23519370 -0.00000100
-0.69480470 -0.60661402 -0.00000048
-0.08544977 0.69684528 0.00000008
-0.26864611 0.05165705 0.00000717
-0.33712877 0.31312015 0.00000166
0.04898054 0.60404178 0.06383493
-0.13676947 -0.47482260 0.00000000
0.00689009 0.73905034 0.00897924
-0.12122023 -0.48931694 0.00000000
0.02456470 0.45991813 0.03201301
0.27169013 -0.53208469 0.35406976
-0.40897020 -0.68018181 0.00000000
-0.52534896 0.12303534 -0.00000105
-0.71284878 0.05432448 -0.00000172
-0.46348224 0.25937699 0.00000013
0.25134950 0.05900521 0.32756093
-0.11039991 -0.02447240 0.00000000
-0.08505745 0.47026647 0.00000366
0.14193102 -0.02497188 0.18496616
-0.60970519 -0.35344630 -0.00000056
-0.03035828 0.54431038 0.00000000
0.39283671 -0.10959165 0.51194765
0.30961908 -0.13084667 0.40349840
0.33023739 0.24185722 0.43036721
0.48025083 -0.54607799 0.62586711
0.18403025 -0.16550674 0.23983037
-0.10085416 -0.44539100 0.00000000
-0.56688340 0.22523414 -0.00000140
0.47549759 -0.63059963 0.61967291
0.17879944 0.14431797 0.23301338
-0.44941218 -0.64124643 0.00000000
0.23319117 0.40150573 0.30389643
0.12590895 0.31373211 0.16409304
-0.47825450 0.21476752 0.00000059
-0.03721306 0.46396207 0.00000000
-0.14250275 -0.25171362 0.00000000
-0.78270787 -0.29256965 -0.00000127
-0.71550096 -0.61482173 -0.00000046
0.35866237 0.20816596 0.46741076
0.19877303 0.29503763 0.25904258
-0.41965599 -0.53351443 0.00000000
-0.59634844 -0.74011287 0.00000000
-0.54471666 0.10222432 -0.00000109
-0.23171147 0.36985249 -0.00000023
-0.78086264 -0.14246109 -0.00000164
0.05399816 0.00003732 0.07038791
0.29280966 -0.37742129 0.38159298
-0.31077826 0.24122880 0.00000337
-0.43379598 0.20483422 0.00000161
-0.32394977 0.04168634 0.00000645
-0.50402156 0.27342919 -0.00000122
-0.64455493 -0.18671939 -0.00000101
0.13509338 0.25922333 0.17605528
-0.07721688 -0.15641565 0.00000000
0.12537667 -0.39408421 0.16339234
0.28522233 0.14155815 0.37170860
0.01755923 0.20078821 0.02289683
-0.00274234 0.50898812 0.00000432
-0.01344457 0.75038692 0.00000000
-0.49763758 0.23973819 -0.00000020
0.25306769 0.25475266 0.32979954
-0.25160341 0.20334381 -0.00000002
0.37710558 0.04730979 0.49144640
0.13018878 0.58533193 0.16966275
0.01042937 0.05537221 0.01360875
0.35791274 0.05444090 0.46643425
-0.24337820 0.22783996 0.00000488
0.03436247 0.35001955 0.04478157
0.19743273 0.32936156 0.25729580
0.42698257 -0.27458294 0.55644701
0.12875957 -0.42014114 0.16780098
0.24439550 0.03815094 0.31850763
0.08293894 -0.77055487 0.10808699
0.33364568 -0.76726853 0.43481096
-0.48727346 0.15064392 -0.00000093
-0.69811189 -0.52226614 -0.00000064
0.10734684 -0.55181837 0.13989565
0.15287870 0.29418888 0.19923948
-0.50208415 -0.04091157 -0.00000066
-0.15500782 -0.69869107 0.00000000
-0.59149416 -0.00622813 -0.00000110
-0.01846657 -0.16816138 0.00000000
-0.19859857 0.03800776 0.00000843
0.16535310 -0.70779573 0.21549009
-0.42355754 -0.51868554 0.00000000
0.30145160 -0.45508050 0.39285526
0.00388163 0.32766933 0.00505858
0.05015477 0.13080417 0.06537624
0.04607532 0.37432376 0.06004589
0.40542442 0.01938154 0.52835452
0.32522190 0.08578423 0.42383144
0.27179220 -0.21224143 0.35420260
-0.05284361 -0.25973967 0.00000000
-0.24825566 0.14458958 0.00000609
-0.46844445 0.00849918 0.00000423
-0.18800124 0.54430909 0.00000066
-0.64844766 -0.34386095 -0.00000075
0.13205755 0.07775752 0.17211135
0.01975811 -0.46584287 0.02574900
-0.18779737 0.24414430 0.00000550
-0.66797629 -0.04522364 -0.00000136
-0.58529630 -0.22030652 -0.00000069
-0.14339341 0.16364026 0.00000000
0.29569599 0.22280702 0.38535287
-0.38117066 0.03906009 -0.00000028
-0.11439016 0.55501157 -0.00000006
0.40096289 0.04200496 0.52253980
0.40458792 -0.43382125 0.52726271
0.35072661 -0.01731939 0.45706947
0.03959269 0.71744284 0.05159790
0.46365427 -0.10352176 0.60423714
-0.09888607 0.62489207 0.00000103
-0.03827542 0.66463166 0.00000000
0.00078444 -0.31615020 0.00102229
0.27335360 0.31458011 0.35623692
-0.25856216 0.03813306 0.00000753
-0.17866677 -0.26315599 0.00000000
-0.53783926 0.01333108 -0.00000090
-0.01376218 -0.16218612 0.00000000
0.21521993 0.08119033 0.28047676
0.09476556 0.29725266 0.12350813
0.30106958 -0.54039489 0.39235739
-0.06914948 0.03514930 0.00001043
-0.03268856 -0.21698089 0.00000000
-0.13783335 -0.44898837 0.00000000
-0.04985246 0.40478033 0.00000518
-0.07177988 -0.25383289 0.00000000
0.08987814 0.04126772 0.11714494
-0.30117872 -0.29170815 0.00000000
-0.75107449 0.00617471 -0.00000116
-0.03137491 -0.37462724 0.00000000
-0.34005578 -0.25785886 0.00000000
-0.02590298 -0.71069146 0.00000000
0.13081252 0.58313178 0.17047564
-0.35044859 -0.16615093 0.00000000
0.16993229 0.46986016 0.22145811
-0.02208263 -0.42951616 0.00000000
-0.65008510 0.11817582 -0.00000157
0.21190621 -0.03849087 0.27615865
0.47624414 -0.63179132 0.62064582
-0.58542238 -0.01785460 -0.00000105
0.27939473 0.06087772 0.36410949
-0.18191522 0.40285533 0.00000314
-0.16482092 0.21667858 0.00000000
-0.43872888 -0.06369340 -0.00000035
0.11067129 -0.61229130 0.14422813
0.35756326 -0.07275114 0.46597915
0.04310089 -0.09525278 0.05616959
0.02257365 -0.04096775 0.02941825
-0.61141090 0.07989476 -0.00000134
-0.35467523 0.31945916 -0.00000066
-0.07025120 -0.50802464 0.00000000
-0.40884708 -0.39132893 0.00000000
0.14410078 0.15128424 0.18780410
-0.58552440 -0.49968843 -0.00000020
-0.39570691 -0.46554940 0.00000000
0.33635782 0.04983581 0.43834388
0.48347013 -0.43555097 0.63006219
0.19317480 0.32486905 0.25175086
-0.30339350 0.47094243 -0.00000033
0.15581780 0.37514707 0.20306733
-0.66792738 0.03350970 -0.00000150
0.22144724 -0.54577626 0.28859264
0.28028012 0.32756294 0.36526291
-0.01440828 -0.34498395 0.00000000
-0.43478703 0.04116435 0.00000433
0.06565804 0.65916993 0.08556600
0.19233443 0.10662835 0.25066184
0.05643973 0.64390454 0.07355273
-0.26442706 -0.02932923 0.00000000
-0.33685568 0.12359189 -0.00000024
0.00142322 0.18309560 0.00185475
0.17882194 0.21733446 0.23304250
0.12441549 0.18867667 0.16214979
-0.04137851 0.08866517 0.00000000
0.18341731 -0.60486863 0.23903158
-0.14325147 -0.47071182 0.00000000
-0.54507909 -0.79815691 0.00000000
-0.09721169 -0.04399785 0.00000000
0.14670260 -0.15101823 0.19118454
-0.21579203 0.04323800 0.00000810
0.30373405 -0.60245789 0.39582977
0.02086304 -0.42650386 0.02718895
0.43873393 -0.47132428 0.57176193
-0.05985323 -0.13819714 0.00000000
-0.51360635 -0.45768370 0.00000000
0.13133433 0.39072180 0.17115613
-0.35748988 -0.61459504 0.00000000
-0.73837148 -0.18967586 -0.00000140
-0.59523261 -0.01514366 -0.00000110
0.09742869 0.21541821 0.12698057
-0.01685218 0.34425368 0.00000658
-0.16777770 -0.78747402 0.00000000
-0.32742229 0.17202534 -0.00000029
0.10109490 0.19966413 0.13175867
0.43170504 0.02188949 0.56260228
0.36062913 0.14012466 0.46997402
0.22233944 0.06264014 0.28975497
-0.10279057 0.13335602 0.00000845
0.04271912 -0.51211696 0.05567205
0.40405346 0.02994941 0.52656764
-0.31273847 0.38149306 -0.00000059
0.10069593 0.01354356 0.13124309
0.30188281 -0.45451822 0.39341721
-0.32333897 -0.13551737 0.00000000
-0.32228561 -0.34345665 0.00000000
-0.00648774 0.60700010 0.00000000
-0.79755767 -0.48706063 -0.00000078
-0.48213625 -0.60796695 0.00000000
-0.79833537 -0.53740828 -0.00000066
-0.02172451 -0.28925072 0.00000000
0.14656624 -0.47475852 0.19100684
-0.60569579 0.04691556 -0.00000125
-0.16014265 0.37592720 0.00000000
0.02906986 -0.24482449 0.03788418
0.42180169 -0.55797824 0.54969605
-0.04298428 0.45140045 0.00000000
0.06244718 0.53170623 0.08138605
0.24951919 0.34792728 0.32517595
-0.72435052 0.05914255 -0.00000154
-0.25910441 0.13655002 0.00000604
0.12075495 0.11501601 0.15738118
-0.26069188 0.37541157 0.00000209
-0.15463297 0.63629337 -0.00000037
-0.17311616 -0.33107751 0.00000000
-0.28744884 0.41495478 0.00000091
-0.06491749 0.32870247 0.00000609
-0.09437049 -0.16574943 0.00000000
-0.71850950 0.03019902 -0.00000094
-0.05378992 -0.73003167 0.00000000
0.32223206 0.17561673 0.41993483
0.17644785 0.15177701 0.22995782
-0.58451656 0.00203339 -0.00000108
-0.37500685 -0.44413355 0.00000000
-0.21987341 -0.78564392 0.00000000
-0.19238419 0.59066296 -0.00000020
-0.23348913 0.39306465 0.00000231
0.07125378 0.21435134 0.09287004
-0.39393329 -0.13058863 -0.00000004
0.03329477 0.42441301 0.04339779
0.10575654 0.20641111 0.13783345
0.38378017 -0.75693082 0.50014682
-0.68585943 0.06203234 -0.00000162
0.08303543 0.47210173 0.10821274
0.32986608 0.25633507 0.42988328
0.07594601 0.36016576 0.09898144
-0.19577032 0.15140029 0.00000678
-0.55427026 -0.21828571 -0.00000057
0.21583967 -0.68261247 0.28128478
-0.00579789 -0.40245012 0.00000000
-0.02061877 0.01800287 0.00001142
0.25935708 0.00617074 0.33799655
0.05006926 -0.01178443 0.06525085
0.42426464 0.02468683 0.55290420
0.11173150 -0.60561134 0.14560980
-0.58263827 -0.36787526 -0.00000042
-0.02888859 0.02442960 0.00000000
0.17643129 0.12536654 0.22992726
0.24032567 0.08370831 0.31320271
-0.14627674 0.13791050 0.00000772
0.00562972 -0.28039979 0.00733672
-0.13634840 -0.03587850 0.00000000
0.15063368 0.25348606 0.19631500
0.04529660 0.11086917 0.05903106
0.09695852 -0.07342890 0.12635748
-0.08309076 0.36523252 0.00000000
0.13672799 0.09898826 0.17818551
-0.07358399 0.17774207 0.00000822
0.05215540 -0.52275283 0.06796953
-0.01247651 0.52865058 0.00000388
0.05664792 0.00398820 0.07382423
-0.39717436 -0.39386451 0.00000000
-0.70055766 -0.12498512 -0.00000135
0.29342054 0.17802784 0.38239117
-0.20384421 0.37762810 -0.00000012
0.24842839 -0.55186516 0.32375478
-0.33054973 -0.12803187 0.00000000
0.02492053 0.01485482 0.03249426
0.20790996 0.25418546 0.27094994
0.46083663 -0.40336164 0.60056604
0.06075515 0.13860091 0.07917682
0.13662475 0.57192277 0.17805022
0.30055603 0.19128786 0.39168948
0.16824581 -0.26860144 0.21925991
-0.64273953 0.09257544 -0.00000053
0.15726479 0.53306108 0.20494857
-0.24836294 -0.23522325 0.00000000
0.21993472 -0.52892541 0.28662150
-0.54881881 0.14451527 -0.00000118
0.28732060 0.23067494 0.37443804
-0.23853295 -0.05056392 0.00000000
-0.62561430 -0.55823414 -0.00000027
0.06801975 0.39727121 0.08865125
0.18370438 -0.40851878 0.23940570
0.28202483 0.30317071 0.36753723
0.12404091 -0.60124970 0.16165156
-0.25324913 0.49916691 0.00000016
0.23737263 0.33084215 0.30934751
-0.16692863 0.38044286 0.00000377
-0.29575710 0.43343731 -0.00000061
0.42471888 -0.61916721 0.55349790
0.00389216 0.25138176 0.00507231
0.07754993 0.17797588 0.10106398
0.35880151 -0.10160726 0.46759293
0.01304722 0.23416237 0.01700329
-0.20342043 0.17521947 0.00000000
0.08578955 0.60830957 0.11180283
-0.23387040 0.34858507 0.00000305
-0.04871731 -0.28472216 0.00000000
0.10806297 -0.17852382 0.14082893
0.00636102 -0.24928313 0.00828976
-0.42405634 -0.73037789 0.00000000
-0.17658081 -0.03395698 0.00000000
0.31731382 0.07473968 0.41353081
0.42451744 -0.12274417 0.55323405
-0.45830040 -0.36901986 0.00000000
-0.58316686 -0.58592670 -0.00000004
-0.26476973 -0.75600853 0.00000000
-0.50940176 -0.14074368 -0.00000051
-0.78884456 -0.36650665 -0.00000108
0.28271282 -0.26021549 0.36843449
-0.29102716 -0.20925563 0.00000000
0.00580464 0.64817279 0.00756468
-0.03505235 0.14456292 0.00000930
0.28630996 0.15008918 0.37312572
0.12628266 0.43967204 0.16457266
0.13739337 -0.61740794 0.17905265
0.29210133 -0.35364617 0.38066986
-0.29348921 -0.05492424 0.00000000
-0.02262694 0.09160453 0.00001028
-0.77221678 -0.49508679 -0.00000076
0.04612756 -0.09652721 0.06011397
-0.40484662 0.26677461 -0.00000079
-0.38299545 -0.74081042 0.00000000
-0.49359287 0.01399063 -0.00000072
-0.11283608 0.38852089 0.00000447
-0.50460406 -0.20844090 -0.00000037
0.07877760 0.56345371 0.10266368
0.13578384 -0.58665190 0.17695509
0.17144817 0.11891056 0.22343326
0.00936001 0.50103382 0.01220476
-0.18495651 0.37913167 0.00000348
-0.24187100 0.15798129 0.00000598
0.31866259 -0.45164236 0.41528479
0.05311703 -0.23500973 0.06922273
0.28622957 -0.49733309 0.37301772
0.10213401 0.07021777 0.13311583
0.08507062 -0.29971064 0.11086503
0.34494363 0.10689574 0.44953276
0.44240884 -0.11762036 0.57655012
-0.11436010 0.64665886 0.00000037
-0.10132901 0.34589221 0.00000528
0.47381598 -0.13042260 0.61747997
-0.51895623 -0.33689485 -0.00000021
0.18507973 -0.23031034 0.24119807
0.46117254 -0.00305599 0.60100268
-0.59752832 0.12541149 -0.00000136
-0.03088015 0.20138910 0.00000000
0.05116015 0.33888968 0.06668156
-0.03343415 0.44405022 0.00000000
0.31703803 0.14218187 0.41316952
0.39508810 0.02542947 0.51488130
0.20612809 -0.56293446 0.26862854
-0.74902887 -0.20595437 -0.00000142
-0.15090604 -0.44262787 0.00000000
-0.07508700 -0.33473238 0.00000000
0.21697882 0.02613177 0.28277966
0.23239177 -0.37961385 0.30285568
0.38337173 -0.68577505 0.49961444
-0.01077858 0.55960249 0.00000344
-0.01524720 0.36214308 0.00000000
0.34885998 -0.47238563 0.45463811
0.24546612 0.14353717 0.31989987
-0.11589204 0.54661326 -0.00000005
-0.23225717 0.43888276 -0.00000035
-0.61201224 -0.56781404 -0.00000019
-0.03747132 -0.46515425 0.00000000
0.22621429 -0.40557981 0.29480512
0.18170484 -0.40809481 0.23679988
-0.56093157 -0.04778318 -0.00000090
-0.54838996 -0.09695842 -0.00000075
-0.59847484 0.18922367 -0.00000147
-0.31831678 0.26402317 0.00000284
-0.31395894 0.42561789 -0.00000068
-0.71619848 -0.64625625 -0.00000038
0.09181459 0.36796476 0.11966083
0.05565774 -0.22699735 0.07253382
0.18666832 -0.64169125 0.24326834
0.28324850 0.32603980 0.36913102
0.12226037 0.22608171 0.15934041
-0.09630013 0.15880980 0.00000816
-0.31894303 -0.30700802 0.00000000
0.14437063 0.51182692 0.18814473
-0.13499260 -0.59150757 0.00000000
0.11567529 0.53800834 0.15074886
-0.05457266 0.38818674 0.00000535
-0.04164508 0.14579843 0.00000918
0.03548301 0.65924616 0.04624397
0.45819970 -0.17053110 0.59712892
0.19916488 0.26957678 0.25955330
0.12875097 -0.60641093 0.16778978
0.38446390 -0.76259946 0.50103785
-0.43256199 0.32363933 -0.00000035
0.44676987 -0.56366843 0.58223466
-0.69425274 -0.22738465 -0.00000115
-0.40183837 -0.21045234 0.00000000
0.10908057 -0.12173983 0.14215507
-0.24365885 -0.14108005 0.00000000
0.32259532 -0.12591985 0.42040905
-0.24640520 0.21523916 -0.00000002
0.47711013 -0.06277843 0.62177273
0.07677659 0.04362518 0.10005615
0.05725930 -0.39509782 0.07462100
0.43426771 -0.03378622 0.56594037
0.29195146 -0.54228089 0.38047456
-0.54472492 -0.34287610 -0.00000030
-0.72799779 -0.51784890 -0.00000071
-0.49709684 0.08450220 0.00000241
0.13057287 -0.27001009 0.17016409
-0.03457516 0.32272421 0.00000000
-0.29654998 -0.72686740 0.00000000
0.06245606 -0.07210946 0.08139346
0.26089140 -0.64603011 0.33999672
0.17549056 0.09772802 0.22870135
0.11176774 -0.65164530 0.14565702
-0.02897114 0.53337269 0.00000000
0.33642047 -0.74642387 0.43842710
0.36090916 -0.32041819 0.47034021
0.04472158 0.46572493 0.05828169
0.05016185 0.17505987 0.06537151
-0.65819349 0.08143593 -0.00000154
0.37310836 -0.34739945 0.48623829
0.34065621 -0.59277600 0.44394716
0.20574924 -0.18966979 0.26813482
-0.02041468 -0.73257365 0.00000000
-0.20797926 -0.53385179 0.00000000
0.07599970 0.25412671 0.09904370
0.27228404 0.24335128 0.35484510
0.41585866 0.08218895 0.54195024
0.11201051 -0.12703548 0.14597340
0.00878645 0.47855658 0.01145061
0.23447365 0.29764588 0.30556765
-0.26289979 0.41113923 -0.00000043
0.30790021 0.23561468 0.40125739
-0.06252366 -0.39233491 0.00000000
-0.10712396 -0.32089987 0.00000000
-0.05799659 -0.63270096 0.00000000
-0.03948492 0.64327216 0.00000176
0.35337090 0.19627801 0.46051554
-0.11768939 0.31901029 0.00000000
-0.78112764 -0.48864017 -0.00000078
-0.41747645 -0.08776415 -0.00000021
0.23860661 0.38754935 0.31095349
-0.06351359 -0.69021326 0.00000000
-0.10389206 -0.48378859 0.00000000
-0.35068719 0.02734765 -0.00000013
-0.44401553 -0.62448736 0.00000000
0.12277535 -0.22865831 0.16000227
0.23703426 -0.05006686 0.30890558
0.27309712 0.28161769 0.35590184
0.06674206 0.64531615 0.08697988
0.25619195 0.19172614 0.33387125
-0.24801735 -0.38103860 0.00000000
-0.54564295 -0.36924506 -0.00000026
-0.01307060 0.57900404 0.00000000
-0.35920453 0.07520009 -0.00000025
-0.65614894 0.10926718 -0.00000158
-0.03384628 0.20677805 0.00000000
0.04225677 -0.40870353 0.05506951
-0.51756738 -0.02479855 -0.00000075
0.27638488 -0.67940676 0.36018801
0.10219500 0.40129481 0.13318754
0.17563211 0.40804223 0.22888500
0.03819667 0.48704936 0.04978438
0.01745603 0.70027738 0.02275064
0.36560222 -0.03491724 0.47645544
-0.02137153 -0.27007210 0.00000000
0.43485881 -0.19961904 0.56671113
0.04512099 -0.44333919 0.05880220
0.29313122 -0.32349488 0.38201193
0.20303737 -0.00959996 0.26460067
-0.60606592 -0.04040666 -0.00000110
0.39280449 0.02178260 0.51190531
-0.10693813 0.26657385 0.00000639
-0.06486410 -0.54630097 0.00000000
0.12594062 0.31111524 0.16413439
0.03423206 0.48237612 0.04461162
0.44661587 -0.00554686 0.58203242
0.14956694 0.12857734 0.19491738
0.25753023 -0.05511850 0.33561596
-0.50443509 0.11582426 -0.00000094
0.02642533 0.27273166 0.03443779
-0.10816839 0.52105603 0.00000000
-0.75011867 -0.52858944 -0.00000068
-0.35923527 0.23462933 -0.00000053
-0.45710046 0.34113973 -0.00000114
-0.04393989 0.25583646 0.00000000
-0.68317500 -0.45731029 -0.00000069
0.11649742 -0.47419376 0.15182081
-0.07677289 -0.52106149 0.00000000
-0.58348255 0.02406949 -0.00000112
0.37227214 -0.45681220 0.48514882
-0.48282698 0.29888568 -0.00000090
-0.10492941 0.63559609 0.00000073
0.34797584 -0.51869116 0.45348603
-0.35017736 -0.55322207 0.00000000
0.22512140 -0.13767370 0.29338085
-0.65039937 -0.48736229 -0.00000050
-0.16500946 0.46701040 -0.00000012
-0.17645346 0.05515743 0.00000851
-0.08287653 0.54487838 0.00000000
-0.11831516 0.57548763 0.00000148
-0.34115723 -0.66466459 0.00000000
0.03596890 -0.20170768 0.04687509
-0.14948152 -0.13895669 0.00000000
0.38593998 -0.29859748 0.50296033
0.05913342 0.61777463 0.07706323
-0.61263190 -0.18789117 -0.00000087
-0.74308337 -0.17519312 -0.00000145
-0.51023808 0.25767867 -0.00000074
0.11205268 -0.44559556 0.14602836
0.36813963 -0.11841246 0.47976242
0.30006731 -0.27855899 0.39105093
0.06822079 0.05322017 0.08892128
-0.59559763 -0.12071988 -0.00000091
0.02042410 -0.51197409 0.02661692
0.01089045 0.08259269 0.01420898
-0.42606044 -0.61784232 0.00000000
0.05022756 -0.29905357 0.06545714
0.31406702 -0.79308256 0.40929581
-0.35579964 0.02334470 0.00000614
-0.14807039 0.51170644 -0.00000012
-0.46581101 -0.51295762 0.00000000
-0.22054935 0.34660883 0.00000334
-0.04926528 -0.64271622 0.00000000
-0.67838821 -0.47116147 -0.00000065
-0.38639820 -0.45277701 0.00000000
0.19703798 -0.37794305 0.25678221
0.00959778 -0.16303089 0.01250794
0.26874953 -0.73157829 0.35023754
0.30597223 0.03317418 0.39874538
-0.27753339 0.26151640 0.00000367
0.29904539 0.08378279 0.38972387
0.05195737 0.08679795 0.06771145
0.12677588 0.40504635 0.16521551
0.26337202 -0.50366056 0.34322950
0.42669905 -0.52953008 0.55607821
0.33979488 0.05253445 0.44282783
0.10914415 -0.76662930 0.14223793
-0.06652619 0.04483376 0.00001032
-0.57162574 -0.06532230 -0.00000091
0.35973356 -0.57800161 0.46880885
-0.02791035 -0.56159405 0.00000000
0.23643981 0.05994173 0.30813059
-0.52472407 0.05968904 -0.00000093
-0.25100412 0.14815035 0.00000000
0.19993224 -0.54350121 0.26055404
-0.11562502 -0.76872644 0.00000000
-0.70550182 -0.38296302 -0.00000092
-0.58208320 -0.41332950 -0.00000034
0.14076165 0.20578036 0.18344223
-0.53486868 -0.54523857 0.00000000
-0.30898460 0.40839678 -0.00000063
-0.68727295 -0.56202399 -0.00000053
0.35734077 0.06587699 0.46569256
-0.62416350 -0.28727806 -0.00000074
0.07408214 0.39255592 0.09655172
0.47266964 -0.19189612 0.61598623
0.17714066 -0.07858270 0.23085178
-0.39466622 0.17331328 -0.00000058
-0.17302561 0.55611970 -0.00000031
0.23364082 -0.36044067 0.30448345
0.00163274 0.53408429 0.00212781
0.16451443 -0.59846587 0.21439713
-0.24423864 0.11957050 0.00000652
-0.42904366 -0.11079542 -0.00000022
0.03903214 -0.71574784 0.05086715
0.12186054 0.46799451 0.15880967
0.07433171 0.26712832 0.09687989
0.03654250 0.73797025 0.04762239
-0.56840552 -0.26217695 -0.00000055
-0.02000172 0.76208191 -0.00000002
-0.74051334 -0.29650011 -0.00000122
0.19902425 -0.10718343 0.25937073
0.24836605 0.00546339 0.32367303
-0.25961439 -0.13183124 0.00000000
0.04388584 0.11573178 0.05720707
-0.79304587 -0.51299330 -0.00000072
-0.40556789 -0.42157220 0.00000000
0.27930364 0.05981424 0.36399078
0.03644250 0.33732399 0.04750188
0.27013690 0.12636951 0.35205031
-0.10284654 -0.29756716 0.00000000
0.33818288 -0.06007607 0.44072259
-0.68395685 -0.66652444 -0.00000033
0.19402395 0.11583591 0.25286330
-0.54699192 -0.49641615 -0.00000004
-0.12371352 -0.46067819 0.00000000
0.02939202 0.68569563 0.03830568
0.23078786 0.29345351 0.30076434
-0.16658762 -0.49497822 0.00000000
0.16920414 -0.70640450 0.22050881
0.18238453 0.36383230 0.23768833
-0.02908562 0.42492463 0.00000519
-0.48293129 -0.65182198 0.00000000
0.00572461 0.46251473 0.00746037
0.17401921 -0.46445215 0.22678387
-0.36066633 -0.51131595 0.00000000
0.35477055 -0.18269827 0.46233998
0.05418836 -0.32113643 0.07061890
-0.17932831 -0.11893105 0.00000000
-0.32802852 0.30990037 -0.00000053
0.07042262 -0.08059464 0.09177558
0.34645248 0.02565663 0.45150450
0.18263374 0.15957302 0.23801020
-0.09121891 0.40789879 0.00000451
0.01321916 0.13911861 0.01724239
-0.18112552 0.30278092 0.00000000
-0.07235959 -0.45654263 0.00000000
-0.06365978 0.22376014 0.00000000
-0.44458547 -0.60381594 0.00000000
0.31249269 -0.06234983 0.40724312
-0.23188874 -0.72304041 0.00000000
0.03488071 0.37228102 0.04545695
-0.24663233 -0.54168627 0.00000000
0.35490441 0.15490434 0.46251353
-0.03379508 0.02811796 0.00000000
0.32316374 0.01416312 0.42114943
0.28253279 -0.77814443 0.36820004
-0.09634129 0.53130235 0.00000258
-0.24008098 -0.35180838 0.00000000
-0.49492070 0.04078999 0.00000318
0.01672543 -0.16679206 0.02179678
-0.50247909 -0.24840849 -0.00000029
-0.08213955 -0.52729108 0.00000000
0.10455761 0.16834069 0.13627193
0.01873169 -0.58209491 0.02441136
-0.69442991 -0.20830597 -0.00000118
0.02403898 -0.44537896 0.03132788
0.32670356 -0.70856538 0.42576390
-0.17889712 0.15383714 0.00000000
-0.76872772 -0.19558539 -0.00000151
0.22540723 -0.71674696 0.29375334
0.13935600 0.53055201 0.18160961
-0.34840994 -0.67859140 0.00000000
-0.51405640 -0.27279092 -0.00000030
-0.13688923 0.64839863 -0.00000010
0.12781900 -0.44701799 0.16657522
0.28823348 -0.32698072 0.37562921
0.09616737 0.51964471 0.12532617
-0.45663869 -0.64291833 0.00000000
0.03412155 0.51080794 0.04446760
-0.19676282 -0.71962397 0.00000000
0.04733840 -0.16166584 0.06169196
-0.09805194 0.54922450 0.00000000
0.01091999 0.41156179 0.01423106
0.22564882 0.16467599 0.29407418
0.41279026 -0.33477874 0.53795174
-0.21711665 0.00524380 0.00000000
0.13678009 -0.59899903 0.17825342
0.03864659 0.19497932 0.05037754
-0.68413732 -0.45795878 -0.00000070
-0.19280269 -0.51467536 0.00000000
-0.41568954 -0.38634021 0.00000000
-0.31408386 0.25770877 -0.00000038
0.41448454 -0.12362250 0.54015916
0.17457976 0.06701002 0.22751438
0.18814017 0.14536055 0.24518623
-0.16789387 -0.27924908 0.00000000
0.10811194 -0.77923046 0.14089275
-0.07653481 0.09769007 0.00000938
0.47622682 -0.11979864 0.62062175
0.45747586 -0.37536572 0.59618619
-0.00360904 0.09589424 0.00001051
-0.34248096 -0.72605389 0.00000000
0.26798540 -0.22012961 0.34924160
-0.47981575 0.16889652 0.00000133
-0.25246513 -0.56947482 0.00000000
-0.29297299 0.34767780 0.00000193
0.14028384 0.48129118 0.18282113
0.01899223 0.36226607 0.02476050
0.30484109 0.12910206 0.39727532
0.05460355 0.03883640 0.07115999
-0.26416599 0.48026594 -0.00000056
-0.33753391 -0.58788197 0.00000000
-0.48183372 -0.50787884 0.00000000
0.07493795 -0.67604419 0.09766001
-0.52660049 -0.22340108 -0.00000044
0.09013541 -0.55811054 0.11746552
-0.50378831 -0.40149241 -0.00000003
0.11151672 -0.11061118 0.14532990
-0.74430404 -0.54830748 -0.00000063
-0.14752878 0.53696003 0.00000156
0.42675681 -0.60366057 0.55615370
-0.31859236 0.28162932 -0.00000044
0.38718361 0.00170970 0.50458432
-0.18827877 0.29182936 0.00000478
-0.39683617 0.00171391 0.00000571
0.04402422 -0.59546966 0.05737287
0.26421003 0.04769556 0.34432885
0.27796687 0.20170754 0.36224831
-0.33251987 0.21550258 0.00000338
0.34368718 -0.69533439 0.44789715
-0.08975897 0.20430646 0.00000000
0.03751108 -0.19215679 0.04888488
0.43898900 0.03230911 0.57209298
0.43670564 -0.13904993 0.56911777
-0.44403912 0.28438813 0.00000009
-0.45154869 0.25082590 -0.00000096
-0.04734477 -0.62602981 0.00000000
-0.76458747 -0.54906213 -0.00000063
-0.09054995 0.22671420 0.00000000
-0.00679836 0.77989630 0.00000020
-0.67692332 0.10164108 -0.00000165
-0.38432540 -0.30556704 0.00000000
-0.65220294 -0.08865197 -0.00000121
-0.12362090 0.41060279 0.00000398
0.46161059 -0.60677300 0.60157526
0.15664789 -0.78979238 0.20414536
-0.72674730 -0.64045491 -0.00000040
0.16565475 0.42359301 0.21588509
-0.00460892 0.55207280 0.00000365
-0.76218166 -0.15265497 -0.00000157
-0.15193980 -0.29619357 0.00000000
-0.15279426 -0.02411722 0.00000000
-0.48118349 0.23676413 -0.00000106
-0.54131683 -0.47803899 -0.00000005
-0.12825659 -0.59779912 0.00000000
0.17932706 0.36969499 0.23370036
0.46500520 -0.05891133 0.60599756
-0.46467002 -0.02998201 -0.00000052
0.38512583 -0.29467673 0.50189932
0.08003956 -0.60772612 0.10430850
-0.30258592 -0.31789993 0.00000000
-0.59148218 0.18616721 -0.00000144
0.31020047 -0.72789539 0.40425688
0.08623486 -0.51166452 0.11238228
-0.30291996 0.35182390 0.00000167
0.05717908 0.54428054 0.07451644
0.09686955 0.16082553 0.12624154
0.46230798 -0.27481337 0.60248314
0.38895629 0.15741075 0.50688997
0.33489996 0.01503727 0.43644409
-0.25861538 -0.22145146 0.00000000
0.07658349 0.09744178 0.09980449
0.30564305 -0.42269494 0.39831761
-0.41396997 0.28705564 -0.00000086
-0.42968915 -0.29116713 0.00000000
-0.44561871 -0.45726928 0.00000000
0.10900054 0.55175640 0.14205028
0.17826524 0.16461066 0.23231716
0.25685090 -0.67791909 0.33473110
0.01989404 -0.46080451 0.02592615
0.24558178 0.16213212 0.32004415
0.29157138 0.23525359 0.37997764
-0.30445588 -0.62560710 0.00000000
-0.06693839 -0.34545474 0.00000000
0.42132823 -0.76103295 0.54907961
0.09315716 0.60582233 0.12140407
-0.29165949 0.19006214 0.00000459
-0.52976868 -0.03091722 -0.00000079
0.13762480 0.11811860 0.17936553
-0.16132599 -0.15340839 0.00000000
-0.56335428 -0.69492127 0.00000000
0.08363192 -0.08952899 0.10899010
-0.05276370 0.25674107 0.00000000
0.17486342 -0.30710475 0.22788406
-0.36511605 0.37544315 0.00000008
0.35467003 -0.66544062 0.46221013
0.42513151 -0.61379236 0.55403563
0.01872567 0.32181189 0.02440351
0.07037317 -0.71722863 0.09171113
-0.09487294 0.63604111 -0.00000012
0.44190757 -0.78653585 0.57589875
-0.38798915 -0.39228825 0.00000000
0.13244274 0.22203754 0.17260994
-0.15748738 0.22981222 0.00000618
-0.14387038 0.14371524 0.00000000
0.18057363 0.04662413 0.23532567
0.05393255 0.31155864 0.07029513
-0.40721051 -0.41843751 0.00000000
-0.39690415 -0.56306369 0.00000000
-0.23827505 0.09578052 0.00000697
-0.72947341 -0.04782570 -0.00000161
-0.67600292 -0.09045203 -0.00000131
0.04153148 0.26627232 0.05413539
-0.08258921 -0.06625732 0.00000000
0.00167510 -0.37315840 0.00218301
-0.74290339 -0.57858873 -0.00000055
-0.10723573 -0.31128029 0.00000000
0.47252362 0.01564001 0.61579558
-0.38386138 -0.58148347 0.00000000
-0.51743730 -0.62326837 0.00000000
0.21625020 -0.66442577 0.28181979
0.10882175 -0.66505983 0.14181778
0.12666276 -0.42272036 0.16506839
-0.13610669 -0.27952866 0.00000000
0.12179855 0.03867479 0.15874297
0.21392531 0.14839173 0.27878943
0.15141725 0.28874372 0.19733513
0.26128355 -0.02214538 0.34050720
0.22258147 -0.03204972 0.29007064
0.12633246 0.05294106 0.16463793
0.12705362 0.34462369 0.16558387
-0.06904338 -0.58277686 0.00000000
0.16585870 -0.57858698 0.21614899
0.10842191 0.27305829 0.14129671
-0.06570317 -0.05413435 0.00000000
0.44971402 0.01664449 0.58606988
0.02045382 -0.67225019 0.02665565
-0.38323474 0.34401414 0.00000026
0.42554557 0.05504252 0.55457458
0.20585689 0.18181842 0.26827457
0.06167931 0.27690516 0.08039134
0.27653658 -0.19462942 0.36038543
-0.48905626 -0.36304985 -0.00000003
0.13651274 0.26451347 0.17791286
0.16485955 -0.68115787 0.21484689
0.21813444 0.21276753 0.28428040
-0.09882899 0.17086601 0.00000795
0.09899944 -0.13591109 0.12901723
-0.16632891 0.36348665 0.00000000
0.15049314 -0.13640365 0.19612442
-0.54082555 -0.21111939 -0.00000052
0.31305486 0.26575479 0.40797486
-0.13461256 -0.19656942 0.00000000
0.09341934 0.50467406 0.12174856
-0.71109977 -0.26244832 -0.00000116
-0.76284425 -0.37710374 -0.00000106
0.09561208 0.62552039 0.12460223
-0.07614345 0.48189622 0.00000362
0.13189829 0.52774355 0.17189071
0.46748926 -0.11412369 0.60923494
0.05894767 -0.14993967 0.07682129
-0.39586620 -0.07861377 -0.00000014
0.07862231 0.09822289 0.10246152
-0.69170792 -0.56518370 -0.00000054
-0.59606977 -0.25362348 -0.00000068
-0.18685165 0.35973893 0.00000377
-0.09853599 0.19837573 0.00000754
0.43822053 -0.52114259 0.57109301
0.00813838 -0.55670351 0.01060603
-0.06967959 -0.24779738 0.00000000
0.31789900 0.02415222 0.41429480
0.29006390 -0.18817682 0.37801423
-0.31858677 -0.71006965 0.00000000
-0.37678171 -0.70690669 0.00000000
-0.23591935 0.13790179 0.00000637
0.19943517 -0.25859479 0.25990625
0.37941878 -0.54448883 0.49446256
0.05866736 0.39754692 0.07646342
0.35873495 0.17769683 0.46750626
-0.03861652 -0.15692485 0.00000000
0.31804777 0.17798071 0.41448185
-0.41716241 0.24253977 -0.00000079
0.15593270 0.39006510 0.20321664
0.12293702 0.54379859 0.16021371
-0.37987268 -0.65061044 0.00000000
-0.54850954 -0.78810088 0.00000000
-0.51489886 0.25456257 -0.00000123
-0.79023951 -0.13025693 -0.00000167
-0.77809191 -0.36363367 -0.00000109
0.21324238 0.42345809 0.27789937
0.43601039 -0.33796489 0.56821225
0.40485847 0.04625927 0.52761625
-0.72661021 -0.73687017 -0.00000016
-0.03570235 0.26544528 0.00000748
-0.66139822 -0.27632409 -0.00000092
-0.79021166 -0.03152590 -0.00000190
0.07295534 0.19242914 0.09508799
0.35432474 -0.32673671 0.46175940
0.13477168 0.21457622 0.17564514
0.23452295 -0.26417166 0.30563305
0.36707205 -0.07037434 0.47837102
0.21711351 0.06772651 0.28294452
0.20877075 0.22419515 0.27207181
0.02724099 0.65291158 0.03550077
-0.10052937 -0.08094220 0.00000000
0.05251272 0.14241420 0.06843519
0.28879605 0.14679482 0.37636106
0.39353823 -0.64233448 0.51286331
0.01425633 0.02031279 0.01857901
-0.77006998 -0.19275892 -0.00000152
0.13004718 0.44018785 0.16948229
0.05316030 0.21261590 0.06927912
0.11627382 0.32002621 0.15153668
-0.07300978 -0.40847758 0.00000000
-0.37229086 0.13086999 0.00000403
-0.19904032 -0.01700691 0.00000000
-0.32115054 0.34685742 -0.00000057
0.23958443 0.03535049 0.31223811
-0.30434825 -0.39134725 0.00000000
0.35131189 -0.42180248 0.45783331
0.47009685 0.01052184 0.61263325
-0.20017863 -0.33980461 0.00000000
0.19754728 0.45040058 0.25744476
0.07313517 -0.20440033 0.09531061
0.37635903 0.12888645 0.49047462
0.18918098 -0.00080379 0.24654287
0.08502402 -0.75313064 0.11080430
0.18489279 0.27011582 0.24095390
0.22431044 0.28395427 0.29232298
0.20840074 -0.45540438 0.27159028
0.06822425 0.29165095 0.08892022
0.14758369 0.55046702 0.19233189
-0.13010802 0.49598294 -0.00000002
0.23459739 -0.39650807 0.30573006
-0.19505557 -0.71142169 0.00000000
-0.12027187 -0.77904486 0.00000000
-0.03335417 -0.41185769 0.00000000
-0.21146275 -0.58805467 0.00000000
0.22244442 0.34742434 0.28989322
0.23214005 0.07409293 0.30252710
-0.60551714 -0.17639860 -0.00000086
0.02191307 0.33783554 0.02856744
-0.46123202 -0.55398952 0.00000000
-0.19498769 -0.20316228 0.00000000
-0.44549838 0.11087603 -0.00000068
-0.26582088 -0.04353022 0.00000000
-0.14258089 -0.05491347 0.00000000
-0.52137551 -0.03209401 -0.00000075
-0.28738871 -0.33155741 0.00000000
-0.46174634 -0.59952371 0.00000000
0.00753662 -0.65133579 0.00982181
0.16389727 0.29965857 0.21359244
-0.05956800 0.40299313 0.00000000
-0.02652008 -0.48597845 0.00000000
0.32692748 -0.62539067 0.42605572
-0.03612837 0.28614656 0.00000716
-0.63963820 0.07010968 -0.00000009
-0.61316815 0.11064469 -0.00000140
0.01063803 -0.14824821 0.01386361
0.10648753 0.11436827 0.13878821
0.43856007 -0.79078310 0.57153629
-0.04872976 0.53179095 0.00000329
0.10587267 0.37219678 0.13798090
-0.13322837 0.50285856 -0.00000004
-0.34740678 -0.54152926 0.00000000
0.11611424 0.24031214 0.15133058
-0.49721995 -0.51482496 0.00000000
0.37497546 0.10167371 0.48867028
-0.18160136 0.08678422 0.00000000
0.00840613 0.22512894 0.01095497
-0.54242392 -0.22859493 -0.00000050
-0.37346799 -0.46344172 0.00000000
-0.58041638 0.18131414 -0.00000081
0.12628373 0.45080675 0.16457402
0.36142773 0.20159669 0.47101472
-0.39414609 -0.79390333 0.00000000
0.45354884 -0.00600638 0.59106748
-0.23976353 0.17019168 0.00000000
0.07039601 -0.59802177 0.09174090
-0.53876605 0.19606519 -0.00000123
0.15891250 -0.12828524 0.20709664
0.02648342 -0.12433751 0.03451351
-0.00806422 0.46217906 0.00000495
-0.01584872 0.38739022 0.00000000
-0.11055454 -0.11398076 0.00000000
-0.18325787 0.53125937 0.00000097
-0.11324602 0.62117503 0.00000081
-0.15328138 0.39411899 0.00000000
0.44790594 -0.01482467 0.58371367
0.38306943 -0.00934625 0.49921865
-0.26211634 -0.26927358 0.00000000
0.05859315 0.03891261 0.07635928
-0.76602608 -0.52304179 -0.00000069
0.14208576 -0.27205261 0.18516782
0.21389996 -0.70543533 0.27875693
0.18678823 -0.50364947 0.24342461
-0.06982358 0.67564383 -0.00000008
0.36969474 -0.34599389 0.48178965
0.05608841 -0.59627627 0.07309507
-0.55305302 -0.42072328 -0.00000020
-0.30640713 -0.31412818 0.00000000
0.14635110 0.47599376 0.19072789
-0.60004187 0.14187734 -0.00000053
0.06354264 0.47811386 0.08281488
-0.25984534 -0.76542917 0.00000000
-0.04012547 0.75215232 -0.00000009
-0.48849914 -0.56619858 0.00000000
-0.13255856 0.16840153 0.00000747
0.38580778 -0.73105568 0.50278921
0.02825421 0.38935472 0.03682986
0.27451373 -0.63354465 0.35774951
-0.19503007 0.06406740 0.00000810
-0.47133581 -0.64449807 0.00000000
-0.31606905 0.19316153 -0.00000028
-0.61319304 -0.19003210 -0.00000087
-0.05499450 0.66164545 0.00000125
-0.04580570 0.63073574 0.00000185
-0.36275741 0.19645990 -0.00000048
0.23972544 -0.30113426 0.31241300
0.05779540 0.65526335 0.07531942
0.05073323 -0.53447597 0.06611615
-0.01318650 0.53569221 0.00000000
-0.51876284 -0.32021744 -0.00000023
-0.21503063 -0.34035167 0.00000000
-0.72933743 -0.24957461 -0.00000126
0.13477288 0.35403862 0.17563735
-0.06733152 0.48852345 0.00000366
0.39589116 -0.45865521 0.51592915
-0.56533624 0.13651567 -0.00000124
-0.76703570 -0.15654410 -0.00000158
-0.10606487 0.62747354 -0.00000015
0.03972123 -0.32633792 0.05176517
-0.59345920 -0.02460831 -0.00000108
0.27049018 -0.28491918 0.35250597
0.04388107 0.62743196 0.05718886
-0.27372187 0.31412083 -0.00000031
0.10282600 -0.47647028 0.13400405
0.04246191 0.62111077 0.05533959
0.04874046 0.68128346 0.06351991
0.13318449 -0.79909675 0.17356758
0.04735941 0.46285636 0.06172561
0.05452118 -0.31008588 0.07105264
0.40342193 -0.48176906 0.52574332
0.06900286 0.54797569 0.08992528
0.31858836 -0.24319353 0.41518749
-0.62373949 -0.42956751 -0.00000049
-0.48051253 -0.16240005 -0.00000035
-0.14129444 0.32868531 0.00000494
0.42963036 0.07490602 0.55989668
0.02942933 0.07084187 0.03836871
0.05128839 0.31075595 0.06683963
0.15788742 -0.63436173 0.20576074
0.23573438 0.05744765 0.30722026
-0.08239036 0.27310812 0.00000666
-0.01029330 -0.34828951 0.00000000
0.05100631 -0.69422333 0.06647202
-0.17318504 0.06237323 0.00000000
-0.37475588 -0.63544834 0.00000000
-0.14557825 0.44190821 0.00000000
-0.20628523 0.29609183 0.00000000
-0.13938937 0.27198848 0.00000000
-0.44744266 -0.20176484 -0.00000014
-0.71926154 -0.72322632 -0.00000019
-0.03555127 0.34200549 0.00000633
0.09027849 0.55132803 0.11765169
-0.62719305 0.10148480 -0.00000038
0.34726102 -0.16924656 0.45255352
-0.71749826 -0.50349837 -0.00000074
-0.34246877 -0.01636761 -0.00000002
0.16660613 0.14593674 0.21713266
0.14012990 -0.63957895 0.18261892
-0.42503199 -0.63939809 0.00000000
-0.37505799 -0.72177987 0.00000000
0.35289919 0.10114338 0.45990046
-0.27734365 -0.16845213 0.00000000
-0.79080008 -0.64189402 -0.00000040
0.22750970 0.32301729 0.29649216
0.44484268 -0.16709704 0.57972203
-0.64991968 0.01728450 -0.00000139
-0.02017358 0.73417916 0.00000000
-0.56491648 -0.72791601 0.00000000
0.23558940 0.16210250 0.30702841
-0.25747937 0.33901126 -0.00000028
0.02783701 0.63805285 0.03627751
0.27139132 0.28178072 0.35367883
0.24070613 -0.06783300 0.31369081
-0.55646634 -0.29637021 -0.00000044
0.05202664 -0.39563637 0.06780173
0.25228128 -0.65685861 0.32877592
-0.16402408 -0.24324214 0.00000000
-0.12721999 0.37477759 0.00000446
0.36564732 -0.40911435 0.47651522
0.39006861 -0.62857851 0.50834166
-0.39116288 0.14875925 -0.00000052
0.10843410 -0.05466202 0.14131259
-0.28919266 -0.55978758 0.00000000
-0.59696934 -0.04998820 -0.00000105
-0.46533583 0.22128850 -0.00000096
-0.21258180 -0.74164414 0.00000000
-0.59858930 -0.51656240 -0.00000023
0.24756559 -0.13550185 0.32263024
0.32838499 -0.73097424 0.42795516
0.20103725 0.26394047 0.26199860
0.20609221 -0.73897442 0.26858179
0.01064175 0.48475081 0.01387548
0.30785340 -0.58842423 0.40119815
-0.72220236 -0.49916492 -0.00000075
-0.10950870 0.53067549 0.00000239
-0.18639715 -0.34005878 0.00000000
-0.35367544 0.00962357 0.00000641
0.08551314 -0.62572709 0.11144173
-0.79146339 -0.62194265 -0.00000045
-0.75811442 -0.48219350 -0.00000079
-0.66608622 0.04272960 -0.00000150
-0.10321084 -0.73383640 0.00000000
0.36740993 -0.13736752 0.47881152
0.18738670 0.07231809 0.24421512
-0.63099952 -0.46413883 -0.00000046
0.00789342 -0.32028000 0.01028680
0.05185845 0.19542634 0.06759493
-0.34348373 0.26125675 0.00000240
-0.44134568 -0.28901763 0.00000000
-0.22171813 0.42356538 0.00000203
-0.01150723 0.38562000 0.00000604
-0.69452045 -0.20478165 -0.00000119
0.27635450 0.06883534 0.36015445
0.44389648 -0.56929257 0.57849006
0.05588958 0.62694592 0.07283582
-0.33694206 -0.58879972 0.00000000
0.06024807 0.29733761 0.07852571
-0.68602526 0.07864522 -0.00000112
-0.20116852 0.21509412 0.00000000
0.14486226 0.23520545 0.18879443
-0.22993531 0.46251730 -0.00000038
-0.49387245 -0.38712671 -0.00000001
0.06928770 0.07822333 0.09029654
-0.53505667 -0.27862263 -0.00000038
-0.67746711 0.04769740 -0.00000044
0.20975944 -0.32077667 0.27336095
-0.30149809 0.00790919 0.00000000
0.02761486 0.07366037 0.03600408
-0.33112368 -0.17540177 0.00000000
-0.29140835 -0.09280836 0.00000000
0.27723005 -0.67930381 0.36128944
-0.45095157 0.14914574 -0.00000077
0.21282663 -0.74424112 0.27735815
-0.66840367 -0.03376357 -0.00000138
-0.28704293 -0.19388297 0.00000000
0.32092250 -0.08088233 0.41822890
0.22252397 -0.56496060 0.28999584
0.07712315 0.29386876 0.10050779
-0.46415960 0.16261914 0.00000173
-0.07398203 0.03383567 0.00000000
-0.13121106 -0.46494599 0.00000000
0.11498049 0.37848918 0.14984971
0.13822422 0.02707577 0.18014880
0.03237600 -0.48768788 0.04219279
0.11155138 0.23941102 0.14537506
0.31408135 -0.42735178 0.40931444
-0.55359983 0.23918548 -0.00000137
-0.26975975 -0.74254156 0.00000000
0.01194898 0.74444141 0.01557205
-0.05536475 0.28362546 0.00000691
-0.54912850 -0.71255277 0.00000000
-0.09896956 -0.36791116 0.00000000
-0.14812095 0.45574564 -0.00000002
-0.10167403 -0.04878176 0.00000000
0.09732044 0.16723295 0.12684063
0.02095288 -0.34623269 0.02730604
-0.16500602 0.59234175 -0.00000034
0.17687234 -0.01886553 0.23050211
-0.15878583 -0.60910304 0.00000000
0.24462549 0.36797128 0.31879736
-0.04057946 0.09147078 0.00000000
-0.24334504 -0.60715606 0.00000000
0.41023867 0.03391976 0.53462552
-0.14796317 0.61006053 -0.00000030
0.08664981 -0.28030760 0.11292305
0.00526981 0.77107262 0.00686767
-0.68885292 -0.39187540 -0.00000083
0.06828256 -0.55095466 0.08898664
-0.20857934 0.05638774 0.00000801
0.00978980 0.58642734 0.01276285
0.21980496 0.26176035 0.28645150
0.35480605 0.16270153 0.46238532
-0.54006161 -0.00193436 -0.00000089
0.32884762 -0.00204464 0.42855671
-0.04187503 -0.76668453 0.00000000
-0.74576790 0.01847912 -0.00000180
-0.06211847 0.17756950 0.00000840
0.03357791 0.73398216 0.04375922
-0.07012629 0.71380034 0.00000009
0.03364711 0.57194508 0.04384931
-0.66357054 -0.10500605 -0.00000123
0.13553991 -0.33906536 0.17663719
-0.60262106 -0.62439492 -0.00000005
0.39448005 -0.61796339 0.51409062
-0.40641533 0.28708446 -0.00000083
-0.65254811 -0.22654205 -0.00000097
-0.49025478 -0.24559288 -0.00000024
-0.04014651 0.28345347 0.00000714
-0.09523515 -0.06205776 0.00000000
0.11387231 -0.06190293 0.14839973
-0.07339008 -0.39198620 0.00000000
-0.19863086 -0.76148776 0.00000000
0.28002904 0.27957753 0.36493554
0.11767432 0.48677457 0.15335717
0.14097602 -0.19289937 0.18372160
-0.51010434 0.28367535 -0.00000126
-0.52926525 -0.44785222 -0.00000005
-0.66609625 -0.72125139 -0.00000015
0.36948537 -0.27403931 0.48151660
0.19713251 0.43192013 0.25690428
0.23739279 -0.17276908 0.30937306
-0.40267232 0.36850489 -0.00000053
0.16683991 -0.34436182 0.21742772
-0.57973070 -0.68689534 0.00000000
0.12601930 -0.15533852 0.16422982
-0.06374290 0.65693254 -0.00000002
-0.56086715 -0.16532853 -0.00000069
0.28954964 -0.72653315 0.37734448
0.14813871 0.29544088 0.19306248
-0.72733411 -0.01865441 -0.00000166
0.06522476 -0.14211235 0.08500167
-0.46064411 -0.19413022 -0.00000021
-0.04549165 0.23697655 0.00000000
0.09628950 -0.42702477 0.12548560
-0.73630416 -0.34884544 -0.00000111
0.25931605 -0.70964980 0.33794371
0.44920502 -0.77208150 0.58540876
0.34043580 -0.54460485 0.44365990
0.32313827 -0.76651347 0.42111757
0.36433434 -0.78112863 0.47480477
0.04027851 -0.30357847 0.05249142
-0.11969363 0.45149096 0.00000342
0.07266049 0.32796387 0.09469200
-0.17207552 -0.66378514 0.00000000
-0.09767962 0.63027138 -0.00000012
0.46394434 -0.22627969 0.60461551
-0.44367794 0.19541559 0.00000158
-0.01218354 0.42769302 0.00000000
0.32675015 -0.57869559 0.42582462
-0.31812256 -0.75244844 0.00000000
0.47617487 -0.64956924 0.62055560
0.12457418 -0.76365335 0.16234653
-0.44177635 0.11847973 -0.00000068
-0.03236354 0.18618667 0.00000000
0.39164750 -0.73473103 0.51039956
0.20520316 0.34297308 0.26742220
-0.27797375 -0.28207004 0.00000000
-0.22300326 -0.16941168 0.00000000
0.46531638 -0.04773474 0.60640306
-0.36350635 -0.51007511 0.00000000
-0.51321197 0.04981430 0.00000268
0.11045330 0.21832274 0.14394403
-0.52420666 -0.30314942 -0.00000029
-0.73302952 -0.21977520 -0.00000133
-0.51096127 0.09666482 0.00000194
0.07221710 0.10015265 0.09412809
-0.68738189 0.09242820 -0.00000168
-0.52098764 -0.05590914 -0.00000071
0.08031453 -0.05795977 0.10466684
-0.56510284 -0.30504031 -0.00000046
-0.27770389 -0.60151038 0.00000000
0.41481329 -0.61221590 0.54058890
-0.04860995 -0.79169951 0.00000000
-0.74006023 -0.48159032 -0.00000080
-0.44802797 0.04001274 -0.00000057
0.19934625 -0.53382744 0.25979037
-0.31919494 0.23000449 -0.00000035
0.23181432 0.28256286 0.30210204
-0.28660876 -0.32036276 0.00000000
0.19583829 -0.51812643 0.25521875
0.31292230 0.26571031 0.40780210
0.29675111 0.04843965 0.38672837
-0.47635264 -0.61255599 0.00000000
-0.44015851 0.22328476 0.00000118
-0.13900433 0.21140717 0.00000673
-0.59891066 0.18554493 -0.00000147
0.31960955 -0.01316687 0.41651768
-0.02653875 -0.00509777 0.00000000
0.10898499 -0.73371301 0.14203051
-0.27043045 -0.12768408 0.00000000
0.00922730 -0.16728224 0.01202512
-0.63093524 -0.51231507 -0.00000037
0.03976377 -0.49886010 0.05182061
0.37487771 -0.23995438 0.48854382
-0.47835221 -0.70810703 0.00000000
-0.72116136 -0.39767705 -0.00000096
0.46488363 -0.30113196 0.60583981
0.05123533 -0.41925883 0.06677048
0.19728850 0.33090686 0.25711151
-0.18326387 0.41943864 0.00000284
-0.18673472 0.57036105 -0.00000039
0.04006573 -0.28828070 0.05221413
0.23097007 0.15015431 0.30100218
0.13523287 -0.48236753 0.17623706
-0.63943065 -0.20911084 -0.00000095
0.06673179 -0.60600058 0.08696565
-0.63144629 -0.47078448 -0.00000045
-0.15136606 0.18913087 0.00000000
0.29164540 -0.33401423 0.38007563
-0.01101311 0.17365654 0.00000000
0.09610899 0.44749055 0.12525520
-0.20468586 0.34862855 -0.00000008
-0.29822120 0.18547975 0.00000454
-0.79729156 -0.12543802 -0.00000169
-0.31974176 -0.12083453 0.00000000
0.05708467 0.09832993 0.07439341
0.02906321 -0.12518769 0.03787552
0.26826400 0.16213522 0.34960364
0.24221402 0.31954914 0.31565694
-0.27220743 -0.69026567 0.00000000
-0.61376588 0.15344363 -0.00000099
-0.13049467 -0.29636534 0.00000000
-0.39279747 -0.04824965 -0.00000018
-0.01171383 -0.35472708 0.00000000
0.34400715 0.03011182 0.44831771
-0.75900306 -0.70873761 -0.00000023
-0.23722586 0.45841704 -0.00000041
0.14650801 0.29736943 0.19093074
-0.77094226 -0.03281043 -0.00000182
0.30099316 0.16499003 0.39225630
0.13434261 -0.39814267 0.17507686
-0.46957161 0.17201451 0.00000147
-0.22639232 -0.51377313 0.00000000
-0.24699717 0.21170342 -0.00000001
0.26126363 -0.79906922 0.34048181
0.18994489 -0.04198305 0.24753841
0.10521059 0.10469274 0.13712436
0.24942749 0.30577659 0.32505762
-0.63602236 0.03808324 0.00000051
0.35789178 0.18982067 0.46640657
-0.48601440 -0.31162885 -0.00000011
-0.27272339 0.50321859 -0.00000064
-0.66695176 0.01983685 0.00000022
0.23393657 -0.03625981 0.30486863
0.07371760 0.23665404 0.09608031
-0.32239820 -0.01781911 0.00000000
0.35214169 0.01247433 0.45891353
-0.36023022 0.23389296 0.00000254
0.07179935 -0.42896370 0.09356975
0.01407817 -0.16193678 0.01834684
-0.37919632 -0.33971613 0.00000000
-0.09112288 0.39397584 0.00000000
0.04715160 0.19870798 0.06146099
0.02745374 0.24840365 0.03579001
-0.16261046 -0.75979517 0.00000000
-0.48335044 -0.15270723 -0.00000038
-0.06850070 0.07217021 0.00000988
-0.11938894 0.14935657 0.00000000
-0.54698870 0.15472773 0.00000027
-0.43274169 0.32099616 -0.00000031
-0.21611761 -0.44256437 0.00000000
-0.36845839 -0.70785982 0.00000000
0.27733710 0.34202422 0.36142728
-0.48356237 0.11055720 -0.00000084
-0.32756597 -0.36879084 0.00000000
-0.06268593 0.25839321 0.00000000
0.03462814 -0.17111627 0.04512779
0.08479239 0.62414251 0.11050292
-0.67769537 0.06171605 -0.00000068
-0.34415866 -0.17596687 0.00000000
0.29444317 -0.12866844 0.38372115
-0.20845271 0.12629708 0.00000696
-0.37679998 -0.05930967 -0.00000009
0.44038774 -0.56201300 0.57391744
0.02054973 -0.65236359 0.02678065
-0.66720556 0.08065917 -0.00000080
0.45535453 -0.16817598 0.59342109
-0.25691513 -0.25121535 0.00000000
-0.15872972 0.04790314 0.00000000
-0.04624668 -0.47699756 0.00000000
0.28140685 -0.47281074 0.36673270
-0.77641612 -0.24034462 -0.00000140
0.41935662 0.00216064 0.54650812
-0.09292269 0.15618378 0.00000826
-0.21293278 -0.09072396 0.00000000
0.37197253 -0.05638100 0.48475729
0.18127440 0.10503317 0.23624889
-0.28033670 -0.02097060 0.00000000
-0.55579331 -0.60986913 0.00000000
0.02826327 0.63511359 0.03683303
0.13436551 0.04178975 0.17510670
-0.53473128 0.13339975 0.00000087
-0.69607348 -0.24383654 -0.00000113
