ply
format ascii 1.0
element vertex 1394
property float x
property float y
property float z
end_header
-0.36590549 0.41149710 0.00867556
0.36200301 0.02662026 -0.00000018
-0.07501810 -0.66481353 0.00000000
-0.02758268 0.10649928 0.00000000
0.32851434 0.32583837 -0.00000056
0.00392982 -0.17946347 0.00000000
0.21259346 0.43855923 -0.00000027
0.66388228 -0.26605948 -0.00000095
0.28836746 -0.24459106 0.00000000
0.04309815 0.12949861 0.00000000
-0.43467426 -0.56023451 0.00000000
-0.02406233 -0.60105894 0.00000000
0.45616970 0.21071905 -0.00000091
0.26561918 0.20193946 -0.00000008
-0.03932427 0.69919148 0.02360656
-0.05515896 0.65407513 0.03484910
-0.34172344 0.23194287 -0.00000023
-0.07720769 -0.13734538 0.00000000
0.32137512 -0.63874983 0.00000000
0.27947329 -0.53747067 0.00000000
0.00243764 0.52277814 0.00000000
-0.06361030 0.16901200 0.00000000
-0.78350855 -0.36608497 -0.00000054
0.09020791 -0.77153531 0.00000000
-0.23550770 0.10181699 0.00000000
0.03155274 0.58351962 0.00000000
-0.50350878 -0.40460803 -0.00000001
0.12631059 0.20420971 0.00000703
0.42096307 -0.11008082 -0.00000019
0.67294140 -0.42268613 -0.00000071
-0.34691222 0.18434443 -0.00000020
0.21782436 0.39370465 0.00000260
-0.46726749 0.16532964 -0.00000044
-0.05406278 -0.22269438 0.00000000
-0.11615714 -0.52315642 0.00000000
0.25373911 -0.11249169 0.00000000
0.09603591 0.25392474 0.00000674
0.75045804 -0.38561414 -0.00000104
0.32664248 -0.25000178 0.00000000
0.24578156 -0.46219354 0.00000000
0.62358708 -0.31841742 -0.00000068
-0.11027539 -0.77599863 0.00000000
-0.03957623 0.02388796 0.00000000
0.36078758 -0.16237266 0.00000000
0.00195134 -0.16765059 0.00000000
0.19106888 0.06981611 0.00000807
-0.57347603 0.14548130 0.03111503
-0.24507310 -0.34508583 0.00000000
-0.18963921 0.30851664 0.11589148
-0.69689178 0.02337693 0.03061132
0.08856544 -0.32501725 0.00000000
0.08580272 0.21118949 0.00000000
-0.47544725 0.27604196 0.01862471
0.31087566 -0.14009014 0.00000000
0.00097974 -0.47502971 0.00000000
0.10373183 -0.05343843 0.00000000
-0.10658879 -0.37491690 0.00000000
0.15210508 -0.72644990 0.00000000
0.09282826 0.04273226 0.00000000
-0.17727545 0.15388358 0.00000000
0.09860994 0.45835943 0.00000364
-0.36908540 0.36616058 0.02486142
0.35390041 0.23820848 -0.00000052
0.28524583 0.09390938 0.00000000
-0.57515549 -0.69508108 0.00000000
0.17912106 0.05752511 0.00000843
-0.33069171 -0.12942842 0.00000000
-0.75974527 -0.04080352 -0.00000088
-0.59281647 -0.13737347 -0.00000044
-0.56626936 -0.20062577 -0.00000032
-0.50216099 -0.51570960 0.00000000
-0.64822005 -0.21017414 -0.00000049
0.46091779 0.06823194 0.00000337
-0.28141828 0.09906764 0.16107023
0.77350079 0.01289887 -0.00000191
0.03690642 -0.14993956 0.00000000
0.02427449 0.60740161 0.00000000
-0.13616407 -0.45332261 0.00000000
0.16983970 0.01800432 0.00000000
0.33965883 0.26251000 0.00000246
-0.34874127 0.17144510 -0.00000019
0.49960694 -0.33811977 -0.00000012
0.58582389 0.16177063 -0.00000059
0.30168199 0.08109091 0.00000622
-0.10553656 0.45240356 0.09293764
0.24058194 -0.35262522 0.00000000
0.31785317 -0.52603241 0.00000000
0.06949504 0.14182508 0.00000882
-0.20029533 -0.00539051 0.00000000
0.60247575 -0.48740871 -0.00000030
0.08855761 0.66665047 0.00000053
0.54466040 -0.49738889 -0.00000003
-0.40109439 0.38602786 0.00494368
0.39255619 -0.34747456 0.00000000
0.13076795 0.24609562 0.00000000
0.49648597 -0.06929553 -0.00000058
0.18285129 0.21253879 0.00000605
-0.33227402 -0.32452775 0.00000000
0.51304471 -0.56852471 0.00000000
-0.72184603 -0.20679927 -0.00000065
-0.04503081 0.03922516 0.00000000
0.13869205 0.13089768 0.00000794
0.59491941 0.00804592 -0.00000114
-0.53884692 -0.40122652 -0.00000009
-0.43714233 -0.53308051 0.00000000
0.21420496 -0.33740320 0.00000000
0.04613197 0.73380243 0.00000022
0.70988491 -0.34793526 -0.00000100
0.31862407 0.07980140 -0.00000009
-0.06831060 -0.77187536 0.00000000
-0.41007153 0.11430128 -0.00000027
-0.32505003 0.23446019 -0.00000019
-0.50421769 -0.59262083 0.00000000
-0.11193399 0.39470480 0.11263453
0.42197850 -0.59903422 0.00000000
-0.65270705 -0.03863649 -0.00000065
0.23242792 0.05662480 0.00000764
-0.17227040 -0.17085503 0.00000000
0.06340973 0.09630251 0.00000000
0.02989074 0.43854709 0.00000000
-0.39342085 0.20121291 -0.00000031
0.06699549 0.15188782 0.00000871
0.41799960 -0.57250485 0.00000000
0.26673977 0.44764646 -0.00000052
-0.56487260 -0.16910693 -0.00000035
0.00647117 0.07486253 0.00000000
-0.54388677 0.10700506 -0.00000055
-0.69835229 0.04764420 -0.00000083
0.15569890 -0.54449571 0.00000000
-0.68578254 -0.58986548 -0.00000023
0.02472430 0.42539336 0.00000525
0.67040143 -0.19129230 -0.00000111
-0.14072989 -0.19296355 0.00000000
0.11438778 0.35951475 0.00000488
0.32776324 -0.74002107 0.00000000
-0.33908444 0.39813170 -0.00000037
-0.55312473 -0.17228116 -0.00000032
0.23990514 0.42776271 -0.00000037
0.63006617 -0.25988909 -0.00000082
-0.62004077 -0.68970397 -0.00000001
-0.13896087 -0.23520826 0.00000000
0.31699812 -0.28091230 0.00000000
0.30642433 -0.11766873 0.00000000
-0.02280341 0.60944701 0.00000000
-0.66741278 -0.24802932 -0.00000050
-0.11858969 0.54906822 -0.00000003
-0.21756439 0.03582166 0.00000000
0.13224709 -0.31402588 0.00000000
-0.34558156 0.31004631 -0.00000030
0.61874931 -0.14134744 -0.00000098
0.33978919 -0.38179506 0.00000000
0.09514521 0.67078626 0.00000033
-0.65857791 -0.25812403 -0.00000047
0.55946936 -0.15258542 -0.00000070
0.19970943 -0.16979324 0.00000000
0.61105158 -0.05571931 -0.00000110
-0.07635559 0.54156879 0.06990700
0.45587216 0.11016306 0.00000277
-0.54671431 -0.76743444 0.00000000
0.53354079 0.25606986 -0.00000132
0.65330916 -0.29594199 -0.00000085
0.30648530 0.25676593 0.00000319
-0.65728187 -0.37214655 -0.00000037
-0.55363770 -0.32171588 -0.00000019
0.62458571 -0.25536042 -0.00000080
-0.57919303 -0.51579375 -0.00000007
-0.04906091 -0.02527706 0.00000000
-0.08991742 0.14991993 0.00000000
-0.75558767 -0.75471281 -0.00000006
0.41711679 0.16545111 -0.00000066
-0.18401616 -0.52215651 0.00000000
-0.78467098 -0.22044370 -0.00000072
0.33092288 -0.63848947 0.00000000
0.62959887 -0.62052010 -0.00000018
0.33084192 -0.35590959 0.00000000
0.37075170 0.42696534 -0.00000089
-0.70007254 0.02849938 -0.00000081
0.09742944 -0.60883459 0.00000000
0.30458446 0.03249745 0.00000692
-0.46660443 -0.06473960 -0.00000023
-0.79989771 -0.05424151 -0.00000093
0.39164584 0.17577472 -0.00000057
-0.34394918 0.15670167 0.11493337
-0.22499265 0.16740340 0.15649742
-0.62856884 -0.23818232 -0.00000042
0.73591067 -0.09636512 -0.00000156
-0.33329814 -0.07603336 0.00000000
0.08123416 -0.53250951 0.00000000
-0.12047597 0.45525084 0.08610853
0.41177369 0.18635241 0.00000234
0.45852859 0.20103490 -0.00000090
0.15034061 -0.74759874 0.00000000
-0.07003376 0.60053430 0.00000000
-0.41852669 0.12307345 0.09921092
0.75883303 -0.60426607 -0.00000049
-0.72210874 -0.37662503 -0.00000050
-0.45470455 0.34054006 -0.00000056
0.40570911 -0.66520898 0.00000000
0.29975424 0.41468974 0.00000068
-0.08923109 -0.64285369 0.00000000
0.49204592 0.14082021 0.00000156
-0.02785352 -0.38421211 0.00000000
0.07807507 -0.21018465 0.00000000
0.23630269 -0.35449532 0.00000000
0.61560406 0.10921882 -0.00000141
-0.14360508 0.17465412 0.00000000
0.04224559 -0.03749304 0.00000000
0.53898631 0.00233149 -0.00000089
0.16039300 0.29099521 0.00000000
-0.27572180 0.39548384 0.04944963
-0.30378858 0.15767180 -0.00000008
0.13181309 -0.56690929 0.00000000
0.21658027 -0.11301230 0.00000000
-0.13482443 -0.14651752 0.00000000
-0.37160101 0.12797014 0.11534787
-0.71464093 -0.30038189 -0.00000055
0.54621001 0.08920618 0.00000138
-0.41769384 -0.78068681 0.00000000
0.10980954 0.33336776 0.00000534
0.09929258 0.25943279 0.00000661
0.50249409 0.01397930 -0.00000076
-0.20004772 -0.28534326 0.00000000
-0.05328078 -0.67002225 0.00000000
0.08958186 -0.14797890 0.00000000
0.02149337 -0.33446647 0.00000000
0.36560478 -0.59521961 0.00000000
-0.50482201 0.07644796 -0.00000044
-0.08448115 -0.52428293 0.00000000
0.10078490 -0.15595614 0.00000000
-0.21158008 -0.71367090 0.00000000
-0.21389582 -0.17669813 0.00000000
0.25834823 -0.01872174 0.00000000
0.04844149 0.53715241 0.00000000
-0.37835419 -0.00902967 -0.00000009
-0.36399067 0.26729785 0.06477550
-0.09699947 0.69353175 -0.00000011
-0.71346160 -0.32417875 -0.00000053
0.43242375 0.23883567 0.00000107
0.33806614 -0.41294236 0.00000000
-0.23222747 -0.34025971 0.00000000
-0.04124196 0.70796021 0.01950356
0.01336138 -0.13454175 0.00000000
-0.68420787 -0.70820781 -0.00000011
-0.14825282 -0.67941800 0.00000000
0.77196594 -0.28693572 -0.00000128
0.46864511 -0.18810422 -0.00000025
-0.09754599 0.37440017 0.12595460
0.22052606 -0.51671967 0.00000000
0.11553686 -0.70307786 0.00000000
-0.08296816 0.30557202 0.15797791
-0.08429445 -0.41648976 0.00000000
-0.12964621 -0.32907517 0.00000000
0.19448392 0.00929461 0.00000000
0.26547522 0.41035350 0.00000141
-0.40090157 -0.77228369 0.00000000
-0.07414476 0.47191586 0.00000000
-0.49585346 -0.69184518 0.00000000
0.17880553 0.36508939 0.00000000
-0.09838484 0.54225059 0.00000000
-0.76987072 -0.43714165 -0.00000045
0.60920888 -0.10769232 -0.00000100
-0.40566946 0.09026049 0.11674583
0.18865109 0.54976012 -0.00000036
-0.19383935 0.58226127 0.00917574
-0.08460717 0.51479612 0.00000000
0.66234737 -0.70006093 -0.00000017
0.44579606 -0.54846028 0.00000000
0.72732746 -0.33880747 -0.00000109
0.29017636 0.06145806 0.00000000
0.17353820 0.34108325 0.00000000
-0.09968899 -0.26432320 0.00000000
0.52533788 -0.18219976 -0.00000051
-0.73895693 -0.07004324 -0.00000081
0.63457734 -0.58037544 -0.00000027
0.73618166 -0.32162502 -0.00000116
0.37551915 0.20577471 -0.00000055
0.18411218 0.26020737 0.00000532
-0.19922232 0.55129419 -0.00000021
-0.62876980 -0.06974860 -0.00000057
0.70748068 0.03361730 -0.00000078
0.72776776 -0.16845137 -0.00000139
0.36080016 -0.24108381 0.00000000
0.18316566 0.39119778 0.00000331
-0.46305046 -0.72109221 0.00000000
-0.33542846 -0.47791395 0.00000000
-0.27249798 0.18114451 0.13298213
-0.38789222 0.22126299 0.07327346
0.40054246 0.02283629 -0.00000034
-0.15570914 0.11401135 0.00000000
0.01219836 0.40547054 0.00000573
0.24835595 0.38709727 0.00000213
0.65972298 -0.54224678 -0.00000044
0.38734182 -0.74114296 0.00000000
0.79780189 -0.57732499 -0.00000056
0.07677063 0.00218435 0.00001081
-0.08449351 0.22175824 0.00000000
-0.14549953 0.57822739 0.02928451
-0.50560579 0.23062565 0.02448282
-0.37396560 -0.28768484 0.00000000
-0.22607136 -0.29579348 0.00000000
-0.33644559 0.37308781 0.03473373
0.42315193 -0.14165356 -0.00000014
-0.19368746 0.34602097 -0.00000001
-0.27452801 0.34782102 -0.00000019
0.25185235 0.48088520 0.00000049
0.25083785 0.54050408 -0.00000061
-0.61394568 0.03327486 -0.00000063
0.35990021 -0.77938174 0.00000000
-0.37675767 0.27708743 -0.00000034
-0.07198208 0.05929228 0.25675385
0.54716317 0.01315398 -0.00000094
-0.06785824 -0.48633115 0.00000000
0.05397329 0.74190141 -0.00000007
0.16394490 -0.39126561 0.00000000
-0.61227787 0.15522900 0.01247456
-0.02094297 -0.76699832 0.00000000
0.65314047 -0.06971413 -0.00000125
0.22028657 -0.44243543 0.00000000
0.58777054 -0.32654062 -0.00000052
0.18603997 0.61091054 -0.00000046
-0.58407024 0.04174441 -0.00000058
-0.61756340 0.01565333 0.06403473
-0.19063974 0.52291022 0.03319183
-0.32208540 -0.00894143 0.00000000
0.18482986 0.56206553 -0.00000037
-0.18147260 0.32231319 0.00000000
0.10301395 0.35383477 0.00000000
-0.14670616 0.07588960 0.22169142
0.16205335 0.55211940 -0.00000025
-0.71935254 0.06008706 -0.00000088
0.27111647 0.23272768 -0.00000015
-0.23064553 0.56445498 0.00188075
0.14399476 -0.19319866 0.00000000
-0.13039554 0.53838502 -0.00000005
0.23860739 0.10371679 0.00000000
-0.34522678 -0.35104410 0.00000000
0.36253721 -0.30484756 0.00000000
-0.32201482 0.44228596 0.01370603
0.01678988 0.43141085 0.00000528
-0.73130013 -0.19816732 -0.00000068
0.32787289 0.41363507 -0.00000072
0.04777562 0.02783363 0.00000000
0.33035855 -0.13261609 0.00000000
0.59930895 0.13786978 -0.00000139
0.20262692 -0.02005996 0.00000000
0.28825675 0.30538122 -0.00000036
0.15358299 -0.53583153 0.00000000
0.27731599 -0.42544099 0.00000000
-0.08378675 -0.11848516 0.00000000
0.41567098 0.38155866 -0.00000099
0.04026344 0.33988724 0.00000629
0.09844811 -0.47376151 0.00000000
-0.11689968 0.65831475 -0.00000012
0.14706107 0.44191588 0.00000315
-0.33606300 -0.08387442 0.00000000
-0.31150293 -0.59142795 0.00000000
-0.43546475 -0.66133267 0.00000000
0.26981218 0.35148981 -0.00000036
-0.35000693 0.34352143 -0.00000034
-0.05196599 -0.49484284 0.00000000
0.15584384 -0.31575301 0.00000000
-0.05393907 0.19517965 0.21150810
-0.26389974 -0.53942772 0.00000000
0.32472621 -0.76794055 0.00000000
-0.55751420 0.17260495 -0.00000064
0.73187051 0.05471871 -0.00000181
0.10260537 0.27016029 0.00000000
0.09544728 0.02609179 0.00000000
0.67994831 -0.73877407 -0.00000015
0.04957989 -0.50484741 0.00000000
-0.31070354 0.15678653 -0.00000009
0.18923797 -0.02725412 0.00000000
0.03055396 0.67388643 0.00000143
0.64597708 -0.55712142 -0.00000036
0.52666867 -0.03306464 -0.00000078
-0.20568043 0.20118400 0.15094236
-0.22882616 0.16835981 0.00000000
0.76880217 -0.77082274 -0.00000007
-0.02912539 0.40358403 0.00000000
-0.32633499 0.16530180 -0.00000014
-0.56128494 -0.05066233 -0.00000045
-0.03618200 -0.40696181 0.00000000
-0.63418781 -0.31098763 -0.00000037
0.39140275 0.01565309 -0.00000028
-0.27316056 0.17304904 0.13583595
-0.70641970 0.09192562 -0.00000088
0.54420373 0.09734246 0.00000129
0.16990392 0.27277189 0.00000534
-0.24601569 0.09809346 0.17503692
0.33373543 0.32342288 -0.00000058
0.56709136 -0.10773361 -0.00000082
-0.65856612 -0.75948895 -0.00000003
-0.47360166 0.13886273 0.07200277
0.04483528 0.09311165 0.00000000
-0.27405531 0.27223954 0.09740865
0.30496722 0.19912515 -0.00000024
-0.42288518 0.14394726 -0.00000032
-0.57776228 -0.51108401 -0.00000007
-0.06133343 0.61328281 0.00000000
0.76837270 -0.18314983 -0.00000154
0.61549467 -0.32946977 -0.00000063
-0.78618971 -0.40130685 -0.00000050
0.46903038 -0.54457741 0.00000000
0.37616623 0.03988914 -0.00000026
-0.26294957 -0.64857062 0.00000000
0.18018965 0.13766745 0.00000722
-0.47526350 -0.09132129 -0.00000023
0.41789153 0.16143047 -0.00000065
-0.06686620 0.25436016 0.18382273
0.09542613 -0.71267420 0.00000000
0.25315922 -0.34351289 0.00000000
0.53994031 0.24349927 -0.00000132
-0.46872542 0.04624498 0.10943522
0.56315957 0.20057422 -0.00000134
-0.33166937 -0.73559429 0.00000000
0.21915616 0.30242860 0.00000410
0.08203616 -0.71799035 0.00000000
-0.50606441 0.20610808 -0.00000055
0.68218627 -0.79138774 -0.00000002
0.09918645 0.22635316 0.00000000
0.57449414 -0.06026562 -0.00000093
-0.17335777 -0.19291940 0.00000000
0.08275317 0.25159622 0.00000000
-0.29048007 -0.04886290 0.00000000
-0.38339716 -0.29836805 0.00000000
0.00262801 0.65452802 0.00000000
0.40123469 0.24494687 -0.00000073
0.37318376 0.12088896 0.00000418
-0.11913189 0.25799798 0.00000000
0.27974291 0.22786178 -0.00000018
0.58654922 -0.30799027 -0.00000054
-0.30072305 0.09809998 -0.00000002
0.00232170 -0.18687350 0.00000000
-0.78613394 -0.61867133 -0.00000023
-0.37619951 -0.37729006 0.00000000
-0.66742822 -0.16764320 -0.00000057
-0.43897205 -0.00476829 -0.00000023
0.14579161 -0.01203503 0.00000000
0.47929703 0.04406769 -0.00000071
-0.67219346 0.11227499 0.00596212
0.27152567 0.36993630 -0.00000040
0.41442457 0.22416843 0.00000166
0.00457820 0.29523163 0.00000000
0.11297339 0.36910789 0.00000000
0.05170860 0.00958740 0.00000000
-0.66109665 -0.00668729 -0.00000070
0.52531108 0.00273453 -0.00000083
0.19598788 0.59447657 -0.00000033
-0.06418617 0.19313424 0.00000000
0.23236420 0.03176102 0.00000802
0.05609606 0.43941436 0.00000456
0.24018767 -0.00035374 0.00000000
0.29152344 0.14634071 -0.00000009
0.59966384 -0.79270379 0.00000000
0.62798232 -0.01614000 -0.00000124
0.29865237 -0.38654828 0.00000000
0.40802630 -0.67067153 0.00000000
0.57560148 0.20961428 -0.00000141
0.16952963 0.19419893 0.00000000
0.03842312 -0.70994867 0.00000000
-0.21519578 0.56747931 -0.00000025
0.04460813 0.50522992 0.00000375
-0.05119796 -0.29981148 0.00000000
0.77812273 0.00057659 -0.00000159
-0.47315122 0.16090944 -0.00000044
-0.00427965 0.03676804 0.00000000
-0.69578960 -0.76612164 -0.00000004
0.42542124 -0.35086163 0.00000000
0.68381064 -0.20185974 -0.00000115
0.52520885 -0.36194734 -0.00000019
0.12926470 0.29665710 0.00000560
0.10375790 0.28901013 0.00000610
-0.42309133 -0.01594366 -0.00000018
0.47282984 -0.32025625 -0.00000004
-0.43916616 -0.35932129 0.00000000
-0.27176744 0.39023185 0.05298438
0.37018623 -0.25015520 0.00000000
-0.40692776 -0.11892414 -0.00000006
0.05283289 0.43289790 0.00000471
-0.41678502 -0.63280334 0.00000000
0.40976851 0.05000626 0.00000466
0.59018224 0.11805004 -0.00000131
-0.07795518 -0.36687026 0.00000000
-0.47278271 0.10062148 0.08699978
-0.67565745 -0.16788239 -0.00000059
-0.20554284 -0.18705986 0.00000000
0.49471615 0.23355843 -0.00000004
-0.61992037 -0.50808243 -0.00000017
-0.42565962 0.04841319 -0.00000024
0.04385094 0.40473032 0.00000527
0.33097688 0.41192661 0.00000013
0.62128934 -0.06080689 -0.00000113
0.37858743 0.27304499 -0.00000068
-0.28899718 -0.60058142 0.00000000
0.65059964 -0.33155579 -0.00000078
-0.34046853 0.21285394 0.09471031
-0.41182203 -0.21255641 0.00000000
-0.73370838 -0.75486266 -0.00000006
0.38207651 0.09947192 -0.00000039
-0.14366885 -0.30842728 0.00000000
-0.34118398 0.43699919 -0.00000041
0.68378742 0.05135382 -0.00000063
0.26859966 0.36516613 -0.00000038
0.56705333 0.13248262 -0.00000124
0.07188617 -0.74396856 0.00000000
0.02134637 -0.45520595 0.00000000
-0.76331941 -0.74838493 -0.00000006
-0.42167577 -0.04523553 -0.00000015
-0.13030627 0.33855852 0.12713766
-0.72741992 -0.21016669 -0.00000066
0.06922953 0.38868698 0.00000000
-0.59617489 -0.68606827 0.00000000
-0.52959529 0.00444359 -0.00000043
-0.45689476 -0.61830475 0.00000000
-0.28824277 -0.34534686 0.00000000
-0.25214109 0.06630475 0.00000000
0.07893156 0.02636323 0.00001041
0.14993791 0.19265400 0.00000000
0.18368177 -0.33120353 0.00000000
-0.04945743 -0.09250841 0.00000000
0.25394157 0.51802489 -0.00000017
0.64738936 -0.14050116 -0.00000110
-0.45579297 0.25834266 0.03296651
0.53703703 -0.28595490 -0.00000037
0.26138469 0.38757411 0.00000187
-0.47636076 -0.00067264 -0.00000031
0.21305742 0.05831747 0.00000791
-0.26556830 0.36196205 -0.00000018
0.16023245 0.14123141 0.00000746
0.41257498 0.06480076 -0.00000046
0.27930160 -0.68811060 0.00000000
0.69818242 -0.18623098 -0.00000124
0.02579882 -0.28071676 0.00000000
-0.65292348 -0.08370152 -0.00000061
0.66907078 0.00868575 0.00000037
-0.49337503 0.13392979 -0.00000046
-0.45804913 -0.76757870 0.00000000
-0.69339116 -0.51443426 -0.00000032
0.72368603 -0.50962376 -0.00000073
0.59318465 -0.38836267 -0.00000043
-0.27524681 -0.75959894 0.00000000
-0.62848297 -0.33322154 -0.00000034
-0.25623017 0.26154122 -0.00000007
-0.28844592 -0.10800854 0.00000000
0.04352999 0.02667879 0.00000000
0.68301765 -0.72757460 -0.00000018
-0.37044758 -0.37322442 0.00000000
0.47072140 -0.47170220 0.00000000
0.15211140 -0.14043062 0.00000000
0.40886568 0.17084632 0.00000266
0.34845622 -0.67683721 0.00000000
0.08624301 0.16679103 0.00000820
0.64502423 -0.23535873 -0.00000092
0.28289784 0.26530732 -0.00000026
0.61993047 -0.37474539 -0.00000057
0.21017376 0.42962087 -0.00000024
-0.63993044 -0.63649046 -0.00000010
0.02729701 0.15656030 0.00000924
-0.40858148 0.28479917 -0.00000042
0.05729967 0.26327852 0.00000719
0.02542535 0.13810076 0.00000954
0.77429472 -0.05505010 -0.00000179
-0.74946187 -0.37929283 -0.00000053
-0.63729973 -0.63214522 -0.00000009
-0.08555874 0.62670209 0.03368698
0.49920274 -0.69279906 0.00000000
0.28548300 -0.53734379 0.00000000
-0.18750083 -0.34579660 0.00000000
-0.38047357 -0.55328043 0.00000000
-0.79052840 -0.56694286 -0.00000029
-0.19156529 0.12324695 0.18628535
-0.59093157 0.08396087 -0.00000063
-0.22358937 0.15404971 0.00000000
-0.45130820 -0.51465382 0.00000000
0.18388834 0.19062345 0.00000000
-0.26884402 0.13294847 0.00000000
-0.02364321 -0.74615145 0.00000000
-0.40077358 -0.51427140 0.00000000
0.36655024 -0.72520569 0.00000000
-0.72255985 -0.79379691 -0.00000001
0.55309994 -0.20216344 -0.00000059
0.29304228 -0.02901897 0.00000000
0.05565170 0.69554678 0.00000068
-0.07655983 -0.57721856 0.00000000
0.52500170 0.21870467 -0.00000121
0.68906211 -0.50552642 -0.00000063
-0.55456235 0.08781075 0.06051929
0.48033846 0.26983293 -0.00000111
0.42772977 0.21585582 -0.00000079
0.13623412 0.18150296 0.00000722
-0.03957008 -0.49407401 0.00000000
0.16577327 0.34614431 0.00000000
0.24548498 -0.74340607 0.00000000
-0.33275599 0.15118092 -0.00000014
-0.21378081 -0.66506437 0.00000000
0.38405928 -0.51066551 0.00000000
0.11653125 0.56275731 -0.00000008
0.69709060 -0.57417182 -0.00000055
-0.74125036 -0.09646069 -0.00000079
-0.08221889 0.17894887 0.00000000
-0.37630804 -0.69681303 0.00000000
-0.52452640 -0.54573357 0.00000000
0.47651433 0.13561565 0.00000195
0.45976263 -0.75795382 0.00000000
0.15628884 -0.20350978 0.00000000
-0.34734799 0.33021388 -0.00000033
0.18379324 -0.73495600 0.00000000
0.02189649 -0.66028546 0.00000000
0.40443218 0.13481295 -0.00000055
0.37269483 -0.43862018 0.00000000
0.47022785 0.05986223 0.00000333
0.64808895 -0.02586148 -0.00000131
0.31501735 -0.65454052 0.00000000
-0.03204134 -0.15081569 0.00000000
0.09063988 -0.27610059 0.00000000
-0.41049621 -0.52082157 0.00000000
-0.63954764 0.06744929 -0.00000072
0.10220959 0.26516656 0.00000648
-0.19648459 -0.73227684 0.00000000
-0.55550574 -0.05146365 -0.00000043
0.15853026 0.25916045 0.00000572
-0.13404248 0.34904986 0.12167506
-0.06083817 0.22949823 0.19568278
0.06760897 0.01446717 0.00001076
-0.15920338 0.07045851 0.00000000
-0.18026012 -0.43845599 0.00000000
-0.39432213 0.08879371 -0.00000021
0.26532516 0.26344851 0.00000387
0.11184882 0.45163344 0.00000354
0.12431842 0.03764514 0.00000000
0.08160464 0.53765973 0.00000000
-0.07540870 0.25260460 0.00000000
0.24188447 -0.39578351 0.00000000
0.68652409 -0.05323649 -0.00000142
0.13358159 0.46757348 0.00000297
0.67936039 -0.78984700 -0.00000003
-0.13944942 0.36733472 0.00000000
0.12840641 -0.77605834 0.00000000
0.53613149 -0.35804405 -0.00000024
0.44181345 -0.79313544 0.00000000
0.56158642 -0.74304660 0.00000000
-0.61463428 0.09798076 -0.00000069
-0.44917247 0.15062731 0.07686533
0.07009508 -0.06543763 0.00000000
-0.04399944 -0.03579842 0.00000000
-0.07617041 -0.28779502 0.00000000
0.08692963 0.23897300 0.00000710
-0.70276731 -0.45659769 -0.00000039
0.20306753 -0.24625472 0.00000000
0.16464049 0.11103863 0.00000000
-0.32649155 0.23254008 -0.00000020
-0.70932385 -0.18077531 -0.00000065
-0.26131809 0.11716800 0.16183806
0.59023344 0.20503774 -0.00000147
-0.43313324 0.10655995 0.09994306
-0.61940663 0.05484387 0.04827997
-0.06883681 -0.33735680 0.00000000
-0.78185239 -0.70188069 -0.00000012
-0.73173863 0.06330472 0.00190183
-0.20747742 -0.59159795 0.00000000
0.21789635 -0.58539995 0.00000000
0.26308189 -0.54244086 0.00000000
-0.17402937 -0.01149857 0.00000000
-0.06823762 -0.66216341 0.00000000
-0.39301009 -0.30704393 0.00000000
-0.59781324 -0.04952912 -0.00000052
-0.30236983 0.41469908 0.03184055
0.34859752 0.42675076 -0.00000083
0.33300249 -0.35857527 0.00000000
-0.04936279 0.65691127 0.03598559
0.12889451 0.62707428 0.00000041
0.52060897 -0.66984867 0.00000000
0.32758231 0.11999830 -0.00000020
0.24723171 -0.48750568 0.00000000
-0.06276419 0.36782504 0.00000000
0.10308070 -0.70688518 0.00000000
0.50184920 0.26020935 -0.00000119
0.04520064 0.73823273 -0.00000008
-0.50427018 -0.60497629 0.00000000
-0.12620159 0.33336326 0.00000000
-0.17582428 -0.44604026 0.00000000
0.01368192 0.49708717 0.00000434
0.35403285 0.27198658 -0.00000058
0.30965789 0.06531385 0.00000633
0.25774695 -0.31895626 0.00000000
-0.16606511 0.15778123 0.18281676
0.32325064 0.40471076 -0.00000068
-0.14298661 -0.42739161 0.00000000
0.33647294 0.28562301 0.00000213
0.60633103 -0.73831298 0.00000000
0.12098550 0.03667904 0.00000962
-0.19705244 -0.71231937 0.00000000
0.18774380 0.37074804 0.00000356
-0.13978931 -0.54371156 0.00000000
-0.36720931 0.27979894 0.05873996
0.29707220 -0.75484494 0.00000000
-0.24477433 0.55122430 -0.00000030
0.03045967 0.07476288 0.00001042
-0.58626692 -0.46396529 -0.00000013
0.11993348 0.03451610 0.00000000
-0.02298264 0.22247560 0.00000000
-0.01613554 -0.03077525 0.00000000
0.33887899 0.16964930 0.00000402
-0.17085540 0.60489907 -0.00000019
-0.44514923 0.06269438 -0.00000030
-0.39496034 0.14081138 -0.00000026
-0.38833074 0.26733871 -0.00000036
-0.50694661 0.28084047 -0.00000062
0.50548133 0.03804841 0.00000302
-0.15790091 -0.01473814 0.00000000
0.69170987 -0.34862747 -0.00000092
-0.00226178 -0.59463931 0.00000000
0.13372537 -0.77716745 0.00000000
0.18111572 0.20497912 0.00000000
0.61741337 -0.28468722 -0.00000072
-0.38153746 -0.10214457 -0.00000002
0.69557334 -0.72057760 -0.00000020
0.37621442 0.28704636 -0.00000070
-0.07314289 -0.35268317 0.00000000
0.44304605 0.26902672 0.00000036
0.10803939 0.31371683 0.00000566
-0.24954563 -0.67055618 0.00000000
-0.08657333 -0.65313265 0.00000000
-0.12417042 0.09220534 0.00000000
-0.57128485 0.02884342 0.07673900
-0.00379941 0.31569613 0.00000000
-0.06406775 0.24699095 0.18772655
0.61099550 0.07333505 0.00000040
-0.29312358 -0.58894591 0.00000000
-0.07882485 0.66536087 -0.00000005
0.10370446 -0.01185436 0.00000000
0.17841481 -0.13795635 0.00000000
-0.23501285 0.34588301 -0.00000010
0.15616867 0.52395065 -0.00000018
0.02268824 0.65736224 0.00000180
-0.31214273 -0.35222706 0.00000000
-0.17680079 -0.29892112 0.00000000
-0.05894959 -0.70326377 0.00000000
-0.06978051 -0.42683394 0.00000000
0.10514085 0.46084761 0.00000000
0.23399321 0.27093463 0.00000434
-0.30046759 -0.38473034 0.00000000
0.29170115 -0.72463949 0.00000000
0.69257838 -0.38487380 -0.00000086
0.24370006 -0.31356525 0.00000000
0.06788016 0.20034003 0.00000000
-0.57498086 0.05973921 0.06345760
0.08970340 0.12198351 0.00000882
0.33453051 0.16557265 0.00000417
0.38848997 -0.18549660 0.00000000
0.10957914 0.48635444 0.00000000
-0.74577031 -0.13715693 -0.00000076
-0.75442999 -0.20902519 -0.00000072
-0.43831006 0.14969099 0.08139543
-0.33186343 0.17072502 0.11418946
-0.40689062 0.32687243 0.02543072
-0.23458836 0.50144655 0.02455875
0.11703261 0.32246827 0.00000000
0.57943016 -0.21191305 -0.00000068
0.54130495 0.11270660 0.00000109
0.31229064 -0.63332209 0.00000000
-0.14027212 -0.78006285 0.00000000
0.19169491 -0.45155068 0.00000000
0.11293934 0.55153142 -0.00000004
-0.33844754 -0.74802702 0.00000000
-0.43792913 0.02797795 0.12827294
-0.05523182 -0.39080251 0.00000000
-0.55528509 -0.44050795 -0.00000009
0.44956503 -0.61130528 0.00000000
0.14594684 -0.38050542 0.00000000
-0.04544556 0.28351373 0.18085372
0.12141260 0.67754648 -0.00000029
0.33807953 0.01370792 -0.00000005
-0.31870378 -0.60411228 0.00000000
-0.22221533 -0.40355289 0.00000000
-0.46991334 0.31690588 -0.00000058
-0.35373937 -0.23157617 0.00000000
-0.77118028 -0.25226569 -0.00000068
-0.51015946 -0.49348027 0.00000000
-0.21026718 -0.36613587 0.00000000
0.09190357 -0.11845459 0.00000000
0.01625372 -0.36408675 0.00000000
-0.63128817 0.07074082 0.03761451
0.09483713 -0.35565065 0.00000000
0.61777902 -0.54319001 -0.00000026
-0.13803864 0.46060510 0.07730968
-0.05549935 -0.41797752 0.00000000
-0.08053403 -0.79314082 0.00000000
0.49405181 -0.33083408 -0.00000011
0.39390212 -0.48039080 0.00000000
0.34083565 -0.30754864 0.00000000
-0.50460399 -0.04172484 -0.00000033
-0.05819933 0.39741666 0.13222450
-0.69581597 0.05559730 -0.00000083
-0.46061394 0.22489275 0.04395848
-0.41210791 0.27481821 -0.00000042
0.68715125 0.09561592 -0.00000143
0.24846164 0.28061694 0.00000390
-0.10131463 -0.75670405 0.00000000
0.23381997 0.08145428 0.00000725
0.20801271 0.55911206 -0.00000046
-0.19272477 0.13527893 0.00000000
-0.35726665 -0.01760783 -0.00000004
-0.65951111 0.00255218 -0.00000070
-0.59253064 0.17502879 -0.00000071
-0.18134708 0.05645075 0.21585465
-0.12780218 0.39916060 0.10483123
0.03769965 0.74500521 0.00000019
-0.28277136 -0.65374772 0.00000000
0.06346648 0.55745868 0.00000268
0.12615299 -0.64009976 0.00000000
0.25081574 0.47416519 -0.00000049
-0.01265999 -0.32474955 0.00000000
-0.52409424 -0.74285084 0.00000000
0.07188304 0.49828269 0.00000000
0.59686218 -0.30794711 -0.00000059
0.52307466 -0.62848982 0.00000000
0.03933174 -0.28544596 0.00000000
-0.24795170 -0.23490254 0.00000000
-0.17119133 0.48558742 0.05498896
-0.15863515 -0.74952231 0.00000000
-0.34241114 -0.67410770 0.00000000
-0.11479482 0.66724598 -0.00000013
-0.03534917 -0.34235347 0.00000000
-0.51628170 0.19202000 -0.00000056
-0.49193028 0.03540509 -0.00000037
-0.35158076 -0.14777532 0.00000000
-0.33066412 0.32553004 0.05521313
-0.63826896 -0.54169586 -0.00000018
0.74534291 -0.21160079 -0.00000139
-0.18295346 -0.04739187 0.00000000
0.21625872 -0.11391037 0.00000000
0.42330432 0.35605696 -0.00000071
0.24867972 -0.72725268 0.00000000
-0.53438218 0.24515059 -0.00000065
-0.64090056 -0.00929563 -0.00000065
0.29777536 0.07179359 0.00000000
-0.67974663 0.10148747 -0.00000083
0.17061217 0.18176772 0.00000670
-0.51466800 0.18736490 0.03761321
-0.18821124 0.42790023 -0.00000007
0.32355121 -0.12256596 0.00000000
0.15570783 0.54722396 0.00000123
0.33236872 -0.63447222 0.00000000
0.21259110 0.19331952 0.00000000
0.35823312 0.15125307 0.00000396
-0.06811795 -0.44750263 0.00000000
0.68691900 0.02674451 -0.00000156
-0.03702104 0.74453113 -0.00000003
0.54467311 -0.47830087 -0.00000006
-0.16502141 0.31516706 0.00000000
-0.42052465 0.16321815 -0.00000033
0.52070125 0.21266046 -0.00000118
0.19037505 -0.53842592 0.00000000
0.53866763 -0.23313414 -0.00000047
0.32134860 0.17497951 0.00000427
0.52635130 0.18257905 0.00000021
0.16367344 0.55221785 -0.00000026
-0.17167683 -0.56039080 0.00000000
0.70262409 -0.00119048 -0.00000158
0.43835282 -0.76321316 0.00000000
0.28033865 0.26070484 0.00000362
-0.15331407 0.24056481 0.15592812
0.30862230 -0.16245817 0.00000000
0.52045373 0.26450734 -0.00000105
-0.06555634 -0.12580829 0.00000000
-0.70815757 -0.14428875 -0.00000068
0.15332869 0.38996336 0.00000384
-0.29312403 0.40238073 0.04012004
0.44555333 -0.74204451 0.00000000
-0.34693932 -0.40520914 0.00000000
0.25092930 -0.06396626 0.00000000
0.60492920 -0.72524391 0.00000000
-0.29602311 -0.35630795 0.00000000
0.13335228 0.42086804 0.00000367
0.34498413 -0.45938803 0.00000000
-0.69092946 -0.14609164 -0.00000064
-0.09760402 0.13147257 0.00000000
0.31868463 0.44235460 -0.00000015
0.62514501 -0.02182373 -0.00000122
-0.27100301 0.39333903 0.05208489
0.10494294 0.46376978 0.00000346
-0.19047981 -0.70177877 0.00000000
-0.66804739 -0.21032546 -0.00000053
-0.06351393 0.12079743 0.00000000
-0.31574140 -0.11952700 0.00000000
-0.25760758 0.45859970 0.03217145
-0.30478276 0.48916871 0.00232179
0.10280001 0.01217459 0.00001027
0.52840793 0.03484867 0.00000263
-0.43325718 -0.72343798 0.00000000
0.52499691 0.19232715 0.00000007
0.06674681 0.38387860 0.00000000
-0.26770747 0.17055503 0.13888720
-0.41251517 0.36364972 0.00915069
0.32506294 0.45821002 -0.00000078
-0.62976262 0.15697636 0.00509043
0.31507245 0.29365596 0.00000241
-0.64680896 0.05298912 -0.00000072
-0.32168486 -0.44873512 0.00000000
-0.06873013 0.58461623 0.05630691
0.65877423 -0.03672909 -0.00000133
-0.50457803 -0.09544546 -0.00000029
0.67986553 0.01665326 -0.00000152
0.70352610 0.06792710 -0.00000171
0.02886810 0.08493558 0.00001029
-0.61002202 -0.37886243 -0.00000026
-0.29584072 0.08370060 0.16143290
-0.53835999 -0.17020664 -0.00000029
0.01235531 0.69932732 0.00000132
0.30081557 0.27165591 0.00000305
0.09495867 -0.51938218 0.00000000
-0.51182937 0.24658177 0.01596700
0.46563520 0.04755291 0.00000363
-0.04653867 0.45290369 0.11539759
0.65585611 -0.44262334 -0.00000060
-0.09580941 -0.12808534 0.00000000
0.19664814 -0.13448380 0.00000000
-0.17691426 -0.68548293 0.00000000
0.21563107 0.09956649 0.00000000
0.56042506 -0.43487866 -0.00000021
-0.45062527 0.14192004 0.07965066
-0.10277650 0.36631626 0.12705015
0.69064609 0.02873211 -0.00000038
-0.41223652 0.03406116 0.13580194
0.29265287 0.40007052 -0.00000054
0.33698520 -0.29666137 0.00000000
0.06676774 0.44781909 0.00000000
0.55093752 0.10170675 -0.00000112
-0.54190773 0.24730411 -0.00000067
0.14021942 -0.33098663 0.00000000
0.67495352 0.07297732 -0.00000160
-0.43216482 -0.42053668 0.00000000
0.73183335 -0.09719873 -0.00000154
-0.30944156 0.29896177 0.07356228
0.00990475 0.60612104 0.00000276
-0.12386480 0.13310780 0.00000000
-0.05635939 0.55081262 0.00000000
0.29783565 -0.55542937 0.00000000
-0.12107370 -0.38202142 0.00000000
0.00660817 0.21542255 0.00000867
0.19914856 0.14168994 0.00000000
-0.31086245 0.21921017 0.10363705
0.40847042 -0.54571410 0.00000000
-0.50109053 0.10770258 0.07341229
-0.20245746 -0.24529023 0.00000000
0.16834961 -0.46251776 0.00000000
-0.38627686 0.26635837 -0.00000035
-0.43917796 0.01648633 -0.00000024
-0.05967013 0.65000405 0.03468013
0.62927271 -0.33842298 -0.00000067
0.34612216 0.31419126 0.00000147
0.00177512 -0.56696013 0.00000000
-0.75989369 -0.24454747 -0.00000069
0.56293766 0.10744630 -0.00000118
0.41581236 -0.42276755 0.00000000
-0.33444457 -0.26595016 0.00000000
0.12550804 0.30087292 0.00000000
-0.42167832 0.01931519 -0.00000021
0.32380381 0.42933177 -0.00000073
0.12448478 0.27859772 0.00000594
-0.19105685 0.56464587 -0.00000020
0.41248951 -0.59655314 0.00000000
-0.06384881 0.43644411 0.11507102
-0.32675528 0.30865620 -0.00000026
0.17226393 0.49990163 -0.00000020
0.37261633 0.07966611 -0.00000032
-0.35085351 -0.05866874 0.00000000
0.03629701 0.72489612 0.00000056
0.13273202 0.35099463 0.00000473
0.15859529 -0.10718360 0.00000000
0.08715823 0.52331338 0.00000000
0.49094335 -0.60685718 0.00000000
0.26221732 -0.12710654 0.00000000
0.46831636 0.05391125 0.00000347
0.19426368 -0.29850375 0.00000000
-0.10670170 -0.09753061 0.00000000
-0.11082642 -0.35667995 0.00000000
0.68811893 -0.32923807 -0.00000094
-0.27390207 -0.50074952 0.00000000
-0.75849103 -0.65427727 -0.00000018
0.08717053 0.22505566 0.00000000
0.44075521 -0.69460075 0.00000000
0.29968496 -0.53535343 0.00000000
0.34586674 0.45215588 -0.00000086
-0.11385055 0.14518686 0.20769985
-0.41904761 0.36851821 -0.00000051
0.05867594 0.46842628 0.00000409
0.03610640 -0.15506844 0.00000000
-0.74755884 -0.72518710 -0.00000009
-0.56400558 0.17011629 0.02529268
0.40414503 0.19810138 -0.00000066
0.50811004 -0.37518492 -0.00000009
0.37027181 0.34753522 -0.00000078
0.19333341 -0.56283263 0.00000000
-0.33468867 -0.52542324 0.00000000
-0.54632249 0.11879251 -0.00000056
-0.46490959 0.16050659 -0.00000043
-0.36904591 0.03805381 0.15085192
-0.72369916 -0.63641896 -0.00000020
0.27793073 -0.29783231 0.00000000
0.27676575 0.23621212 0.00000410
0.45748292 -0.74536243 0.00000000
-0.78899964 -0.23690974 -0.00000070
-0.38601841 0.16638407 0.09506346
-0.31871881 -0.27102301 0.00000000
0.20790899 -0.18023104 0.00000000
0.03842119 -0.62779688 0.00000000
-0.43250648 0.09489824 0.10466117
0.05438347 -0.04086750 0.00000000
0.03502987 0.63856913 0.00000000
0.01764793 0.03620347 0.00001119
0.54530707 0.15941226 -0.00000119
0.36181610 0.15374230 0.00000385
-0.70850822 -0.54712554 -0.00000032
0.21486736 0.08653999 0.00000746
-0.15688568 -0.25563378 0.00000000
-0.21213788 -0.72420711 0.00000000
0.55816648 0.02158131 0.00000228
0.50909142 -0.74959440 0.00000000
0.37227551 0.04133135 -0.00000025
-0.07147593 0.51105985 0.08349428
0.24602830 -0.72805449 0.00000000
0.15348535 0.35494322 0.00000436
-0.29183906 -0.26883151 0.00000000
-0.11706151 -0.42245372 0.00000000
0.75155730 -0.16057889 -0.00000151
-0.25463484 0.19839786 0.13321626
-0.62521735 -0.71830571 0.00000000
-0.04282271 0.10719238 0.00000000
0.20138335 0.20633131 0.00000000
0.75312895 -0.12533786 -0.00000158
0.46050440 -0.61162087 0.00000000
0.59166655 -0.31719105 -0.00000055
0.12756123 0.62753067 -0.00000024
0.46505688 0.18202561 -0.00000089
0.41886477 -0.26676845 0.00000000
-0.08745763 0.40872363 0.11664966
0.12311469 -0.75536652 0.00000000
-0.79620866 -0.02575282 -0.00000097
0.10226324 0.37077767 0.00000490
0.47283400 -0.25073146 -0.00000016
0.18134764 -0.56733749 0.00000000
0.16291532 0.54000598 -0.00000024
-0.27387024 0.37015778 -0.00000020
0.14973836 -0.28218850 0.00000000
-0.37823400 0.20315583 -0.00000028
0.13161757 0.64090246 -0.00000028
0.21158071 0.14467182 0.00000664
0.34389212 0.19703238 0.00000347
0.15905504 0.35803635 0.00000000
0.56144251 -0.76260306 0.00000000
-0.53824160 -0.04627212 -0.00000040
-0.03767914 0.62259448 0.05364724
0.61719455 0.11168955 -0.00000142
0.57918372 0.13664519 -0.00000004
-0.46223814 -0.41050575 0.00000000
-0.17588826 -0.39292977 0.00000000
0.65468723 0.05078658 -0.00000147
-0.02985586 0.67238554 0.03753392
-0.48070505 -0.37646462 0.00000000
0.21240289 0.48268572 0.00000122
-0.19724843 0.17432248 0.16449314
-0.64322752 -0.26967743 -0.00000043
-0.21729444 0.04233468 0.00000000
-0.28069612 0.28056021 0.09166424
-0.12809847 0.05565611 0.23660431
0.47951723 -0.17410389 -0.00000032
0.08449464 0.42201676 0.00000439
0.71399792 -0.31634146 -0.00000107
-0.45073354 0.06807507 0.10796158
-0.48182898 -0.75279874 0.00000000
0.76845834 0.01991200 -0.00000173
-0.40840128 -0.25748920 0.00000000
-0.22976514 0.50164878 -0.00000023
0.43688394 -0.74414420 0.00000000
-0.31354092 -0.61346032 0.00000000
-0.74805877 -0.01870019 -0.00000087
-0.16423641 -0.71768956 0.00000000
0.58724138 -0.34691151 -0.00000048
0.24964068 -0.38143715 0.00000000
-0.17722724 0.60534666 0.00669038
-0.22115447 0.51321546 0.02519804
-0.22133974 0.03674349 0.00000000
-0.10539495 0.32789954 0.14079471
0.54662844 -0.17354062 -0.00000061
0.45121179 -0.02483813 -0.00000047
0.14806741 0.28791977 0.00000000
-0.19676380 -0.68375962 0.00000000
-0.35455477 -0.27065970 0.00000000
-0.66793322 -0.70472191 -0.00000010
-0.30475373 -0.39608724 0.00000000
0.21878139 0.17983160 0.00000000
0.59900455 -0.10932168 -0.00000095
0.10450671 -0.25169187 0.00000000
0.45109274 0.34888171 -0.00000113
0.06819005 0.68803331 -0.00000009
-0.00332027 0.10823727 0.00000000
-0.49123476 0.05464043 -0.00000039
-0.15905510 0.46273240 0.06842374
0.12828912 0.66835537 -0.00000026
0.77273153 -0.16947604 -0.00000158
-0.33124085 0.10071851 -0.00000009
0.31551949 0.35978109 -0.00000057
0.72704031 -0.26190671 -0.00000123
-0.78387167 -0.74530545 -0.00000007
0.21263971 0.12407928 0.00000693
-0.61424834 0.18447593 0.00048875
-0.67267718 0.05949003 -0.00000078
0.58344250 0.03872933 0.00000151
0.31431639 0.41863612 -0.00000067
-0.50861960 -0.12559050 -0.00000027
-0.15544839 -0.29083898 0.00000000
0.63179449 -0.63358394 -0.00000016
0.44921771 0.30676405 -0.00000105
-0.27338166 -0.55560580 0.00000000
0.60941222 -0.40368827 -0.00000047
-0.57739407 -0.47648070 -0.00000010
-0.50857331 -0.56014441 0.00000000
-0.01564679 0.70133749 0.00000000
-0.78304110 -0.20467106 -0.00000074
-0.36836695 -0.08872553 -0.00000000
-0.17123832 -0.42989823 0.00000000
-0.57458958 0.03068789 0.07476198
-0.08541471 0.39390157 0.12312489
-0.43938336 -0.44336702 0.00000000
-0.23949393 0.09946765 0.17701331
-0.77379156 -0.37959648 -0.00000053
-0.17644336 -0.54807738 0.00000000
0.10919736 0.14183330 0.00000822
-0.15395565 0.54573951 0.03851140
-0.72389648 0.01557743 0.02323751
0.75958502 -0.79666983 -0.00000001
-0.13419583 0.62788692 -0.00000013
-0.11959181 0.53509956 -0.00000002
0.63397086 -0.01824402 -0.00000126
-0.06478830 0.06792570 0.00000000
-0.50254344 -0.03479952 -0.00000033
0.49051917 -0.02389228 -0.00000064
-0.02623447 -0.69314734 0.00000000
-0.36167337 -0.07109539 -0.00000000
0.48923034 0.16467625 0.00000122
-0.66017812 0.02778305 0.04301574
-0.72429432 -0.59973843 -0.00000025
-0.55105172 -0.76807067 0.00000000
-0.57139849 -0.50432408 -0.00000007
0.48929791 -0.69712256 0.00000000
-0.73961282 -0.35602182 -0.00000055
-0.31211566 -0.39553921 0.00000000
-0.57667596 -0.15808368 -0.00000038
-0.18305451 0.10366501 0.00000000
0.03142579 -0.37065705 0.00000000
0.24474306 -0.53552645 0.00000000
0.48410745 0.19229649 -0.00000099
-0.48458926 -0.18993923 -0.00000016
-0.70635148 -0.70854147 -0.00000011
0.12865178 -0.44144809 0.00000000
0.51838908 -0.04954493 -0.00000071
-0.57822039 -0.18977485 -0.00000036
0.53845581 0.06713088 -0.00000100
0.18539503 -0.24166656 0.00000000
0.54370135 -0.04622357 -0.00000082
0.17419912 0.61205006 -0.00000041
-0.60993847 -0.33599161 -0.00000030
0.16963741 -0.02993916 0.00000000
0.12043886 -0.60004106 0.00000000
-0.51453076 -0.42411362 -0.00000002
-0.26122480 0.21388846 0.12473854
0.01439425 0.01616923 0.00001154
-0.12225906 -0.17823354 0.00000000
0.55316470 -0.60925153 0.00000000
-0.10960506 0.10981048 0.22291247
-0.32081945 0.25611631 -0.00000020
-0.19515371 -0.10232228 0.00000000
0.53131226 -0.62126900 0.00000000
0.42342483 0.17246413 0.00000235
-0.02248201 -0.10203626 0.00000000
0.06824120 -0.43369977 0.00000000
-0.27282325 -0.40966486 0.00000000
0.19300258 0.45627276 -0.00000022
-0.49992527 -0.11603202 -0.00000026
0.62520362 -0.61634050 -0.00000016
0.78472171 -0.13416754 -0.00000166
0.04278677 0.23483610 0.00000783
-0.75054956 -0.26264773 -0.00000066
0.04475678 -0.35724152 0.00000000
-0.50041059 -0.56938090 0.00000000
-0.18874493 0.28508240 0.00000000
-0.54111145 -0.21192460 -0.00000026
0.13104855 0.31456576 0.00000000
-0.61236863 0.02026142 0.06426000
-0.57811676 0.14622945 0.02904599
-0.02742192 0.76024282 -0.00000002
0.04583571 0.32123901 0.00000000
0.64992918 0.01633138 0.00000061
0.15781461 0.57255865 0.00000077
0.00503332 0.52040137 0.00000000
0.31748543 -0.72890451 0.00000000
-0.47665833 -0.29618921 -0.00000005
-0.25221265 0.34769016 -0.00000014
0.53436359 -0.27819672 -0.00000037
0.60993994 -0.23581412 -0.00000077
-0.26146870 0.30827989 0.08840370
0.31303599 0.42393076 0.00000027
-0.30907288 0.38207506 0.04179280
-0.01163870 -0.40055504 0.00000000
0.33124231 0.20821313 -0.00000037
0.20722166 -0.24002995 0.00000000
0.51062537 -0.43597979 0.00000000
0.00797074 -0.10761885 0.00000000
0.03236865 0.44870061 0.00000000
-0.43367930 0.12322863 -0.00000033
0.46930325 -0.05813365 -0.00000049
-0.61581644 0.15464633 -0.00000074
-0.53869229 0.16949123 0.03525166
-0.28706940 -0.77639258 0.00000000
0.14656559 -0.52586557 0.00000000
-0.05162826 0.35773256 0.00000000
0.09632076 0.31701933 0.00000579
0.23220146 0.47290056 -0.00000041
-0.25784776 0.20800642 -0.00000003
-0.70438354 -0.78899906 -0.00000001
0.08018293 0.06705167 0.00000000
0.62275184 0.01405268 0.00000117
0.57018105 -0.48347353 -0.00000016
-0.18860022 0.27112954 0.13064499
-0.25245689 0.18604941 0.00000000
0.34944589 0.06765057 0.00000552
0.64302857 -0.02519556 -0.00000129
0.45684458 -0.47969226 0.00000000
0.42017058 -0.02678666 -0.00000033
-0.61071683 -0.58993340 -0.00000007
0.08790268 -0.31737825 0.00000000
0.63391200 -0.67449429 -0.00000010
-0.19566115 0.56572905 0.01482375
-0.16252034 0.41452010 -0.00000001
-0.40157084 -0.54646780 0.00000000
-0.45990151 0.27619048 -0.00000052
0.41372464 -0.71836984 0.00000000
0.24339626 -0.65917535 0.00000000
0.25765597 0.12667653 0.00000621
-0.70490199 -0.14008546 -0.00000067
0.41139342 -0.48912505 0.00000000
-0.44937461 -0.41267577 0.00000000
-0.43511181 -0.22293959 -0.00000002
-0.18762331 -0.03500076 0.00000000
-0.36210591 -0.36647565 0.00000000
-0.05445031 0.68451171 -0.00000001
-0.33196816 0.09681158 0.14252803
-0.54085052 -0.60384857 0.00000000
-0.16601591 -0.41287588 0.00000000
-0.31809577 0.37558996 -0.00000030
0.04000696 -0.47627287 0.00000000
-0.54054090 0.19690994 -0.00000062
-0.13803819 0.42826332 0.08972732
0.07129409 0.29757094 0.00000000
-0.34582699 -0.36981196 0.00000000
0.49899307 0.16947571 -0.00000101
0.22421801 0.30743280 0.00000392
0.50688373 -0.01137724 -0.00000073
0.09043187 0.51032857 0.00000298
-0.38114768 0.38169396 0.01426615
0.12552381 -0.11661756 0.00000000
0.16646361 0.36867031 0.00000000
0.18135241 0.58433559 0.00000012
-0.49116996 0.09106788 0.08360810
-0.63010863 -0.76601534 0.00000000
0.44850107 -0.43095869 0.00000000
0.06028685 0.52462010 0.00000322
-0.27139841 0.42364171 -0.00000025
-0.20603357 0.38984575 0.07837100
0.24525898 -0.66245594 0.00000000
0.28263441 -0.46075145 0.00000000
0.25237164 0.07537101 0.00000706
0.24502352 0.34645650 0.00000287
0.16907373 -0.65093662 0.00000000
0.42898783 -0.67028623 0.00000000
-0.50885533 0.22311141 -0.00000058
-0.57445688 -0.78236225 0.00000000
0.33676171 0.17449404 -0.00000033
-0.04980657 0.74786063 0.00089559
0.00507103 -0.12928246 0.00000000
-0.34871207 -0.45960531 0.00000000
-0.42456716 0.03571990 0.13043075
0.33972502 0.03891178 -0.00000010
0.64882934 -0.27695001 -0.00000087
-0.64882647 -0.26756456 -0.00000044
-0.00432872 -0.46494302 0.00000000
-0.56085446 0.18198190 -0.00000065
0.11422434 0.33456210 0.00000526
0.20131682 0.09484265 0.00000754
0.49760412 0.27187282 -0.00000073
-0.21722826 -0.22895235 0.00000000
-0.24215381 0.35868445 -0.00000013
0.14900491 0.16926659 0.00000721
0.31307813 -0.58721297 0.00000000
-0.30380772 -0.50895291 0.00000000
-0.40939307 -0.42776261 0.00000000
-0.06606900 0.31633330 0.16033453
-0.78227390 -0.65523254 -0.00000018
0.02573632 0.51811040 0.00000384
-0.18290215 0.45766823 0.06121208
0.61307641 -0.79669287 0.00000000
0.25645191 -0.29561933 0.00000000
-0.39584507 -0.41290779 0.00000000
-0.37823761 0.12432724 0.11419844
0.21714443 -0.20411988 0.00000000
0.23279571 -0.77706563 0.00000000
0.40981930 -0.54617222 0.00000000
0.16358810 0.45235982 0.00000267
-0.29310567 -0.11319809 0.00000000
0.31489844 -0.76525198 0.00000000
0.32334423 0.19664568 0.00000387
-0.40000396 0.19289392 -0.00000032
0.51178113 0.06290306 -0.00000088
0.75417371 -0.39837583 -0.00000100
-0.74043474 -0.25479267 -0.00000065
0.46622272 -0.76771331 0.00000000
0.17907304 0.61781649 -0.00000044
-0.69991248 -0.06317768 -0.00000073
0.11357865 0.59142772 0.00000130
-0.07692894 0.40150885 0.12346218
0.30641169 0.36439799 0.00000139
-0.60449338 -0.12144276 -0.00000048
-0.08357323 0.52600485 0.07311151
0.44941579 -0.70552154 0.00000000
0.70806541 -0.53151451 -0.00000067
-0.00776993 0.52690184 0.00000000
-0.04372461 0.18704942 0.00000000
0.03042007 0.34853963 0.00000631
-0.49642321 -0.67585336 0.00000000
-0.18153374 0.33378248 0.00000000
-0.46122788 0.32076441 0.00691320
0.58947057 0.07778544 0.00000074
0.31168083 0.36103783 -0.00000055
0.15153072 -0.38728477 0.00000000
-0.55754939 -0.42208190 -0.00000011
0.13036553 0.53414210 -0.00000009
-0.17106954 0.15086879 0.00000000
0.24865346 0.11789325 0.00000648
0.23200448 -0.39849431 0.00000000
-0.77457390 -0.53020106 -0.00000034
-0.55355373 0.19637203 0.01922486
-0.24391881 -0.30951797 0.00000000
-0.41697196 -0.00792318 -0.00000018
-0.19521140 0.52297056 0.03141339
-0.00800049 -0.72109491 0.00000000
0.47581472 0.07901212 -0.00000076
0.38125021 0.12440024 -0.00000043
0.36849481 -0.79884372 0.00000000
-0.02458018 0.20384972 0.00000000
0.65242061 0.01457129 -0.00000140
0.11058065 0.22721363 0.00000692
-0.53451915 0.11877026 -0.00000054
-0.38287729 -0.59371904 0.00000000
-0.21001218 -0.50696868 0.00000000
0.41290851 0.24960482 -0.00000079
-0.08424722 0.59137066 0.04775587
-0.57650679 -0.23149418 -0.00000032
-0.19734590 -0.05222095 0.00000000
-0.33224675 0.28632647 0.06965755
-0.46675142 0.25727278 0.02916981
0.03233878 0.08472593 0.00001024
0.47008357 0.26106956 -0.00000003
-0.29352117 0.36686577 -0.00000024
0.65005493 -0.66465804 -0.00000019
-0.21852986 0.39793108 0.07046874
-0.68434426 0.03234532 0.03198554
-0.04998444 -0.07130999 0.00000000
0.69295358 -0.42996955 -0.00000078
-0.69109213 -0.16025105 -0.00000063
-0.03643021 -0.34063243 0.00000000
0.24894949 0.28903137 0.00000375
-0.40652770 -0.47557877 0.00000000
-0.62325935 -0.05690120 -0.00000057
0.24185772 0.32781223 0.00000324
0.51022883 0.12555142 -0.00000099
0.76625150 -0.76203193 -0.00000009
0.46525088 0.23386895 0.00000052
-0.30525381 0.19104077 0.11660601
-0.38196742 -0.22071957 0.00000000
0.50131355 0.19714173 -0.00000107
0.47597120 0.31619307 -0.00000118
-0.63148413 0.09531747 -0.00000072
0.03737293 0.64859316 0.00000171
-0.49809607 0.16200705 -0.00000050
-0.02719779 -0.69077047 0.00000000
-0.70954980 -0.01406912 -0.00000079
0.16694245 0.37616711 0.00000384
0.29480424 0.15178132 0.00000517
0.76556231 -0.12845865 -0.00000163
0.18534356 -0.36613012 0.00000000
-0.65377917 -0.71062468 -0.00000006
0.13518793 0.43692922 0.00000000
