ply
format ascii 1.0
element vertex 1401
property float x
property float y
property float z
end_header
0.25722780 -0.71142461 0.44552498
0.25701333 0.23532233 0.44515191
0.19252850 -0.43926186 0.33346416
-0.18691805 0.42387013 -0.00000013
-0.13650675 0.48560371 0.00000263
0.08494548 -0.20373574 0.14712769
0.22511175 -0.33857125 0.38989918
0.25464110 -0.20485034 0.44104422
0.17898284 0.19123248 0.31000215
0.07794463 -0.07730767 0.13500205
0.32992706 -0.61185483 0.57144148
-0.06985414 0.07007042 0.00000000
0.10725190 0.40115528 0.18576835
-0.59994396 -0.15083903 -0.00000088
0.21367234 -0.18249347 0.37008571
0.05597389 0.52238433 0.09694818
-0.16695713 -0.21489400 0.00000000
-0.46851148 0.00026164 0.00000436
-0.16318755 -0.16354901 0.00000000
0.00119081 -0.64502780 0.00206252
-0.25836138 0.04244251 0.00000746
-0.36048035 -0.35370493 0.00000000
-0.34715681 0.14848515 -0.00000033
0.26446610 -0.75052126 0.45806190
0.23307322 0.05252740 0.40369637
-0.51609515 -0.11553451 -0.00000058
0.35503011 -0.66995305 0.61492059
0.00189911 0.75164684 0.00328930
-0.17969095 0.56150164 -0.00000035
0.32853068 -0.17136571 0.56902189
0.16760763 0.37934078 0.29030230
0.26548911 -0.62421622 0.45983377
-0.14142952 0.40752234 0.00000375
0.09503106 0.04873875 0.16459618
-0.28492451 -0.45150566 0.00000000
0.21998080 -0.06506275 0.38101178
-0.00064061 0.74884916 0.00000076
0.08990257 0.19590841 0.15571350
-0.48442651 0.03299223 -0.00000071
-0.19986223 -0.12065415 0.00000000
0.21533230 -0.73099592 0.37296092
0.33187607 -0.59734030 0.57481716
-0.47218522 -0.02931350 -0.00000055
-0.39253518 0.12028784 -0.00000047
-0.17085069 0.47881106 0.00000208
0.24978018 0.00784365 0.43262454
0.00426346 0.66888098 0.00738441
-0.45143092 0.32435335 -0.00000109
0.08731662 0.18631027 0.15124773
0.38855686 -0.22469536 0.67298829
0.31994462 -0.45891391 0.55415141
-0.52091184 0.13927287 -0.00000106
0.02365189 -0.62896171 0.04096566
-0.24563354 0.27591572 -0.00000012
-0.55414834 -0.03560667 -0.00000089
0.08088573 0.48177773 0.14009594
0.13428232 -0.05559523 0.23258033
-0.47417617 0.23871328 -0.00000103
-0.02693381 0.06976968 0.00001055
0.01664351 -0.35985462 0.02882697
-0.34732055 0.40525659 -0.00000008
0.08635320 0.20192377 0.14956591
-0.13648024 -0.58318962 0.00000000
-0.26741198 0.39262017 0.00000167
-0.08193629 0.41716214 0.00000451
0.19879262 0.04205755 0.34432436
-0.42002247 0.08600257 0.00000386
0.14440063 -0.02880491 0.25010550
-0.14783969 0.10083413 0.00000826
-0.24780538 -0.42716126 0.00000000
0.10259071 0.57788249 0.17768955
0.22240686 0.30285763 0.38521449
0.23180265 -0.29970091 0.40148793
-0.49901451 0.01441720 -0.00000074
0.27917608 -0.22604933 0.48353918
-0.19292839 0.08418395 0.00000000
0.11277860 -0.28330988 0.19533535
-0.27823350 -0.48318010 0.00000000
-0.21411972 0.00337761 0.00000872
-0.53492628 0.03745904 -0.00000093
-0.56571149 0.03125235 -0.00000106
0.27365492 0.07432529 0.47398122
-0.67846601 -0.62370594 -0.00000038
0.07491451 0.14564120 0.12975379
0.19657484 -0.40489073 0.34047254
-0.75626068 -0.15469049 -0.00000154
-0.64532922 -0.39976102 -0.00000063
0.12822475 0.52076964 0.22208766
-0.61716935 -0.36886326 -0.00000057
0.13524850 0.08880880 0.23425378
-0.00827915 -0.05736953 0.00000000
-0.03599614 0.08342061 0.00000000
-0.43503390 -0.22418602 -0.00000005
0.02785120 0.21221535 0.04825461
-0.77966383 -0.02734606 -0.00000186
0.13793986 -0.02864819 0.23891529
0.17780790 -0.77312592 0.30796772
-0.16827696 -0.77000775 0.00000000
0.18748889 0.09856701 0.32473496
-0.61971829 0.13795037 -0.00000084
0.00650293 0.06942342 0.01128419
0.09811798 0.34710357 0.16994274
-0.03188902 -0.52233265 0.00000000
-0.36107627 -0.66767760 0.00000000
-0.49438570 0.04158451 -0.00000077
-0.75663200 -0.64923049 -0.00000038
-0.08312761 0.08910523 0.00000000
-0.66909085 -0.37016140 -0.00000079
-0.59007440 0.13776799 -0.00000027
-0.27072184 0.19137108 0.00000497
0.21338291 -0.73221646 0.36958454
-0.12451794 0.24332214 0.00000647
0.21257868 0.17737972 0.36819064
0.30676470 -0.08796248 0.53132273
-0.47583851 0.04005320 -0.00000069
-0.27960508 0.04333716 0.00000000
0.29832645 -0.64797519 0.51670887
0.07729440 0.34486259 0.13387583
-0.01286007 -0.04560929 0.00000000
0.29034045 0.12183311 0.50287821
0.18520677 0.36754030 0.32078356
0.00943297 0.13497875 0.01633814
-0.11362897 0.62302718 -0.00000017
0.27409797 -0.04441842 0.47474341
-0.74539147 -0.03822501 -0.00000170
-0.57105321 0.03562340 -0.00000109
0.10294305 0.51925378 0.17830171
-0.38046481 -0.72220973 0.00000000
-0.52597076 -0.17663971 -0.00000052
0.33508145 -0.06955990 0.58036768
-0.59684942 -0.32562989 -0.00000056
0.11752536 -0.00391970 0.20355686
-0.27013462 0.15350962 0.00000561
0.07215614 0.18133272 0.12499038
0.28970821 0.03351604 0.50178037
0.06043365 0.42056299 0.10468039
-0.12027672 0.03442887 0.00000000
0.08920647 -0.72695895 0.15450784
-0.15588392 0.42071194 0.00000000
0.14017860 -0.44608208 0.24279283
-0.21406556 0.46378384 0.00000151
-0.78694366 -0.74601424 -0.00000013
-0.67100259 -0.56198956 -0.00000046
-0.34087090 -0.73732522 0.00000000
0.02859649 0.10448194 0.04954857
-0.21139179 0.30413309 -0.00000003
0.32359456 -0.41071175 0.56047304
-0.14223209 -0.03419841 0.00000000
0.00111579 -0.13046888 0.00193258
0.21322295 0.03433846 0.36931726
0.05818646 -0.59695567 0.10078041
-0.09493931 -0.09109054 0.00000000
-0.35520604 0.23800087 0.00000257
-0.74415713 -0.35534016 -0.00000111
-0.07932953 -0.32657859 0.00000000
-0.37907691 0.02842528 -0.00000025
0.02478282 0.52244162 0.04293121
-0.25871900 -0.41845286 0.00000000
-0.10929002 0.11129733 0.00000868
0.01041855 0.51873512 0.01805282
-0.79527338 -0.19277826 -0.00000152
0.18112135 -0.45154192 0.31370669
-0.63961009 -0.43873197 -0.00000054
-0.35642985 -0.60082504 0.00000000
0.18548358 0.34925297 0.32126115
0.02275599 -0.66605424 0.03941394
0.04810539 0.51940447 0.08332532
0.15807506 -0.49305195 0.27378995
-0.06778293 0.27077189 0.00000692
-0.32187269 -0.01669382 0.00000000
0.18164048 0.04672502 0.31461752
0.31862336 -0.46876308 0.55186298
0.29739532 -0.74640985 0.51509613
-0.60387277 0.06208659 0.00000073
0.01108529 -0.19946235 0.01920000
-0.47452593 0.19570957 -0.00000096
0.16944821 0.42852083 0.29348848
-0.28417015 -0.26245762 0.00000000
-0.04773900 0.50277231 0.00000374
-0.07932596 0.14486861 0.00000000
-0.13107910 0.64402579 -0.00000028
-0.45872463 -0.19787454 -0.00000019
0.32105795 -0.41018253 0.55607959
-0.27785384 -0.72705095 0.00000000
0.05024705 0.01579681 0.08704928
0.16315052 -0.23536439 0.28258077
0.16902768 -0.23206358 0.29276016
0.14216683 0.28718981 0.24623608
0.31305547 -0.56933125 0.54221956
0.10015965 0.48796825 0.17348204
-0.28972660 0.27269533 0.00000324
0.07207449 -0.53795618 0.12483482
-0.21871727 0.17936414 0.00000601
-0.02385230 0.22941791 0.00000000
-0.12792238 0.58760578 0.00000109
-0.13502275 -0.31710891 0.00000000
-0.29614544 0.34254204 0.00000195
-0.25239779 0.36569543 0.00000241
-0.10220734 0.19785308 0.00000000
0.10868223 -0.76794025 0.18824034
-0.05019178 0.67379267 0.00000000
0.03967642 0.16448903 0.06873693
-0.30789793 0.48639896 -0.00000067
0.00885530 0.36181294 0.01533761
-0.28896918 -0.43819830 0.00000000
0.19586122 0.38290470 0.33923529
0.11777868 -0.27192444 0.20399561
-0.24942910 -0.21507562 0.00000000
0.04265477 0.61476470 0.07387907
-0.03782935 -0.59755021 0.00000000
-0.24376560 0.09655013 0.00000687
0.37548982 -0.74681655 0.65035760
0.11231334 0.00148529 0.19454672
-0.35517845 -0.61086192 0.00000000
0.05732285 0.52355851 0.09928462
0.00504683 0.57057432 0.00874123
0.14283687 -0.17774205 0.24739703
0.03493173 -0.67056032 0.06050263
0.14287840 0.16466050 0.24746883
0.26631172 -0.56562226 0.46125855
-0.00094893 0.51852409 0.00000000
0.33625729 -0.52706622 0.58240533
0.18760902 0.20854110 0.32494939
-0.34551900 -0.39265812 0.00000000
-0.32801173 0.35548880 0.00000113
-0.26350527 0.09677970 0.00000657
0.01173916 -0.32293410 0.02033252
-0.57769890 0.14187769 -0.00000010
-0.45461447 -0.03616190 -0.00000046
0.21735460 0.23051330 0.37646660
0.10502566 -0.61713540 0.18190707
-0.40932752 -0.35557890 0.00000000
-0.67051563 0.00797485 -0.00000146
0.13448979 0.04411435 0.23293967
0.06537933 0.66578331 0.11323832
-0.29738587 0.23378721 0.00000375
-0.41338254 -0.43794355 0.00000000
0.21325961 0.30386328 0.36936973
-0.55158748 -0.50920194 -0.00000004
-0.48620794 0.02237694 -0.00000070
-0.70241583 -0.56188662 -0.00000059
-0.32979562 -0.78049897 0.00000000
0.23221794 0.29514398 0.40220583
-0.28611800 -0.27743947 0.00000000
0.06433486 0.39476426 0.11142958
-0.08402281 0.32300426 0.00000589
0.16916744 0.41950162 0.29300120
0.23036002 -0.49688860 0.39898930
0.18213148 0.14795859 0.31545573
-0.30746016 -0.67791997 0.00000000
0.02848906 -0.24824847 0.04934377
0.20384402 0.16258073 0.35306213
0.24973934 0.06860229 0.43256078
-0.16655773 0.03507891 0.00000896
0.15059801 0.05950257 0.26083952
0.07053609 0.58225883 0.12216998
0.00091726 -0.04721193 0.00158872
0.17672259 -0.39266938 0.30608793
0.30981871 -0.07992933 0.53661230
-0.12979566 -0.23019400 0.00000000
0.12574595 -0.76711720 0.21779513
0.15731024 0.06417813 0.27246521
-0.19225367 -0.73055718 0.00000000
-0.49922842 -0.50001690 0.00000000
-0.45630780 -0.70528469 0.00000000
0.01869546 -0.61663357 0.03238100
-0.07169512 0.31599607 0.00000618
-0.36493020 -0.00312039 -0.00000014
0.00690833 0.73137492 0.01196702
-0.02042536 0.39993377 0.00000000
0.29332513 -0.12564065 0.50804530
-0.73135848 0.04335231 -0.00000141
-0.21330180 -0.52396614 0.00000000
-0.05354134 -0.17356421 0.00000000
0.05217812 -0.75783355 0.09037381
0.15460522 0.26785151 0.26777959
0.05248726 0.27587542 0.09092168
-0.31879067 -0.38004976 0.00000000
0.18533481 -0.60970598 0.32100452
0.06973473 0.19583990 0.12078229
0.10936205 0.31850073 0.18941769
-0.01628660 0.60974737 0.00000000
-0.01929827 0.20809795 0.00000859
0.12123781 0.13185677 0.20998692
-0.10834542 0.37793608 0.00000000
0.15640376 0.36582275 0.27089819
0.27564573 0.10513480 0.47742819
0.24931776 0.19193915 0.43182319
-0.63575451 0.08271926 -0.00000145
-0.51814244 -0.52223380 0.00000000
-0.60193628 0.13139103 -0.00000039
-0.24964347 -0.75745047 0.00000000
-0.08572779 0.25549627 0.00000687
-0.28669284 -0.36567149 0.00000000
-0.32421335 -0.41827413 0.00000000
-0.04384512 0.44375826 0.00000468
-0.11298362 0.01078717 0.00000000
0.38642844 -0.37109020 0.66930230
-0.14901835 -0.10591255 0.00000000
0.08480340 -0.72622327 0.14688160
-0.67283587 -0.09565229 -0.00000129
0.16770409 -0.20204230 0.29046767
0.29106452 0.01587143 0.50412956
-0.76208372 -0.01095208 -0.00000182
-0.29033212 -0.18524765 0.00000000
0.13918943 0.07134682 0.24109329
0.17444476 -0.59742973 0.30214268
0.18661911 0.20414944 0.32323506
-0.02745047 0.41597327 0.00000535
-0.30356086 0.14974839 0.00000503
-0.54649284 -0.26408746 -0.00000045
-0.70423685 -0.53338026 -0.00000065
-0.40954699 -0.67611827 0.00000000
0.28962245 -0.47931522 0.50163303
-0.07041536 0.26657672 0.00000694
-0.03925322 -0.58547328 0.00000000
-0.56700176 -0.78378540 0.00000000
0.01438073 -0.35538826 0.02490778
-0.41642502 0.26973334 0.00000086
0.14181115 -0.47735456 0.24562046
0.24450865 -0.13907878 0.42349452
-0.04087485 0.52618936 0.00000000
-0.22597325 -0.08234608 0.00000000
-0.67725562 -0.27899022 -0.00000098
0.21568846 -0.76257609 0.37357781
-0.13372565 -0.77276918 0.00000000
0.09275206 -0.46268629 0.16064889
-0.09156377 -0.23811198 0.00000000
0.13947203 0.19209798 0.24157896
0.32395885 -0.68926543 0.56110465
-0.48619574 -0.28858206 -0.00000015
0.00734460 -0.57446911 0.01272104
-0.18212121 0.56205914 -0.00000036
0.39827715 -0.64231953 0.68982549
0.05772831 0.06899065 0.10000506
-0.26464167 0.27354447 0.00000371
0.08539720 0.59413436 0.14791067
-0.11322077 -0.17670397 0.00000000
0.03842775 -0.79185460 0.06655783
-0.15028782 -0.32868889 0.00000000
0.06270858 -0.05952427 0.10861283
0.06832506 -0.47251966 0.11834071
-0.19182542 -0.21382710 0.00000000
-0.38248397 0.26800899 0.00000154
-0.08387041 0.65979043 -0.00000011
0.28923570 -0.24068642 0.50096262
-0.74224479 0.00224653 -0.00000176
0.07075207 -0.64801977 0.12254436
0.16922949 -0.19029829 0.29310971
-0.31396703 -0.76308658 0.00000000
-0.01386886 0.47921136 0.00000460
-0.44740678 -0.00487063 -0.00000049
-0.43333639 -0.28802790 0.00000000
-0.17709546 0.15358725 0.00000702
-0.10239870 0.03476408 0.00000993
-0.62980718 -0.69597729 -0.00000004
-0.16555713 0.32595489 0.00000000
0.08738854 -0.45930769 0.15135914
0.05265306 -0.68616067 0.09119642
-0.03515788 0.03441882 0.00001095
0.14955832 0.29962418 0.25903822
-0.01167429 0.37122156 0.00000000
-0.74250251 -0.74469101 -0.00000014
-0.03217041 0.03409704 0.00000000
0.10231783 0.10959609 0.17723164
-0.49555954 -0.76491674 0.00000000
-0.06349010 -0.14896668 0.00000000
-0.29716490 0.26010449 -0.00000031
-0.34919971 -0.67012207 0.00000000
-0.14236415 -0.59805476 0.00000000
-0.34940057 -0.29634888 0.00000000
-0.17100118 0.07125228 0.00000000
-0.74288871 -0.58595809 -0.00000054
-0.49708836 -0.05476869 -0.00000061
0.09210233 0.06205261 0.15954007
-0.69859965 -0.44844086 -0.00000077
-0.22122071 0.38055482 -0.00000020
-0.19570254 0.17929085 0.00000000
-0.23548937 -0.68084598 0.00000000
-0.15996834 -0.56743236 0.00000000
-0.45335498 0.19871247 -0.00000087
0.16291641 -0.41429512 0.28217530
0.14544134 0.11213158 0.25190800
0.10977989 0.25491119 0.19015147
-0.45238760 -0.03853305 -0.00000045
0.12419873 -0.17064675 0.21511530
0.13014173 0.01611966 0.22540873
0.30376643 -0.13479454 0.52612980
0.31756045 0.10965391 0.55002066
0.27940254 -0.33890376 0.48393168
0.10600182 0.17420586 0.18359779
0.12139992 -0.07337758 0.21026770
0.09374078 0.23366091 0.16237281
0.01546472 0.39872478 0.02679614
0.13565745 -0.09886734 0.23496208
-0.21259715 -0.17602641 0.00000000
-0.38963523 0.23056977 -0.00000066
-0.41288937 -0.52739944 0.00000000
-0.45965910 -0.02749673 -0.00000050
0.07394197 -0.59392507 0.12806933
-0.60045942 -0.50997868 -0.00000025
-0.73523912 -0.56125772 -0.00000060
0.34564875 -0.18287432 0.59867066
-0.35283317 -0.74484978 0.00000000
0.17860208 0.37899841 0.30934419
-0.41164932 -0.41039510 0.00000000
0.15200800 0.26805841 0.26328117
-0.17757746 0.07640605 0.00000000
0.14263015 0.07611545 0.24705238
-0.32973043 0.34336880 -0.00000060
0.09122093 0.19088163 0.15799692
-0.51122496 -0.67185779 0.00000000
0.29978282 -0.64747553 0.51923133
0.17157640 0.19835068 0.29717408
-0.67196022 -0.05407120 -0.00000136
-0.16458281 0.04537371 0.00000000
0.34055232 -0.49339773 0.58984431
0.23005125 -0.01714200 0.39845382
0.01116123 -0.60342002 0.01933153
-0.24323191 -0.50418182 0.00000000
0.30078795 -0.29112989 0.52097140
0.28408632 0.19353670 0.49204398
0.16626034 0.37039284 0.28796619
-0.01737706 0.78201827 -0.00000004
0.23473918 -0.56725685 0.40657411
0.14446585 0.17970192 0.25021828
0.09810338 0.23449948 0.16991750
0.21519669 -0.42982828 0.37272605
0.07565675 0.63274280 0.13103891
-0.14452488 0.02217159 0.00000949
-0.49939593 -0.39423465 -0.00000002
-0.02579423 0.19881904 0.00000000
-0.68173411 0.06910060 -0.00000162
-0.28319444 -0.52159070 0.00000000
-0.35798902 -0.24402495 0.00000000
0.14235197 0.33786992 0.24655664
-0.55031175 -0.33455960 -0.00000034
-0.54139638 -0.25163301 -0.00000045
-0.71473244 -0.58019913 -0.00000055
0.01535175 -0.12525807 0.02658961
0.27904306 -0.36699858 0.48330913
0.31409690 0.15844559 0.54402203
0.31804173 -0.41404963 0.55085547
0.24465734 0.00270972 0.42376117
0.31763204 0.15022293 0.55014500
-0.08292931 0.01262048 0.00000000
-0.23260209 -0.59336840 0.00000000
-0.18584398 0.55371160 -0.00000036
0.10906468 -0.60399211 0.18890276
0.06530363 0.66520795 0.11310710
0.01602783 -0.17722114 0.02776060
-0.13830935 -0.49257952 0.00000000
-0.56022926 -0.23313162 -0.00000056
0.25569785 -0.25179681 0.44287463
-0.01655354 -0.78156428 0.00000000
0.35803535 0.01591254 0.62012604
-0.60455895 0.06446833 -0.00000128
-0.25300656 0.53222087 -0.00000039
0.06878118 -0.31143354 0.11913073
-0.19703035 -0.39589725 0.00000000
-0.10877484 -0.71735073 0.00000000
0.28477131 -0.08988939 0.49322989
0.02298075 0.01048447 0.03980323
0.27839437 0.14000351 0.48218755
-0.33066400 0.12090459 -0.00000021
-0.54268942 -0.08500942 -0.00000075
0.18330765 0.09533723 0.31749300
0.15898211 -0.61598549 0.27536098
-0.05615047 -0.23359773 0.00000000
-0.15297363 0.05624300 0.00000885
-0.66070451 -0.15667948 -0.00000113
0.08296491 -0.43530107 0.14369729
0.08203064 -0.26307007 0.14207911
-0.42430850 -0.31432059 0.00000000
-0.72138011 -0.17780015 -0.00000135
0.11631253 0.15056654 0.20145621
0.25135543 -0.46707133 0.43535388
0.05053640 0.39548543 0.08753936
-0.13486110 0.04860658 0.00000924
0.12967752 0.26939479 0.22460449
-0.63794375 -0.78541471 0.00000000
-0.15115126 0.08498815 0.00000000
-0.25127053 0.03057480 0.00000000
0.39079188 -0.13349203 0.67685909
-0.32750421 -0.36491618 0.00000000
0.14359421 0.10846757 0.24872115
-0.35014090 -0.64710345 0.00000000
0.30573892 -0.43977212 0.52954688
-0.22627105 0.05116682 0.00000000
-0.35842453 -0.56675963 0.00000000
-0.39330099 0.13934481 0.00000348
0.32077556 -0.36871311 0.55559038
0.25635647 -0.51174619 0.44401580
-0.47630791 -0.63947258 0.00000000
0.14844777 0.02661562 0.25711525
-0.28857054 0.24137428 -0.00000024
-0.48587047 0.02443519 0.00000362
0.03305710 0.38687089 0.05725573
0.10460726 0.04714769 0.18118239
0.23268358 0.31456685 0.40301228
-0.13333514 0.66397169 -0.00000029
-0.14302009 0.29250126 0.00000000
-0.09720998 0.45876785 0.00000000
0.09789400 0.23071645 0.16955486
-0.38905591 -0.26682560 0.00000000
-0.60784373 -0.27146344 -0.00000070
-0.21573869 0.04494716 0.00000000
-0.21297665 -0.74756500 0.00000000
0.05288229 0.40654703 0.09159345
0.09271825 -0.50180825 0.16059033
-0.37595439 -0.35104459 0.00000000
0.16535939 -0.38913476 0.28640659
-0.01044137 0.37977091 0.00000000
0.04396029 -0.46298480 0.07614032
-0.15180074 0.26822252 0.00000569
0.29073058 -0.36519473 0.50355206
-0.21545646 0.23127598 0.00000528
0.03288430 0.66551297 0.05695636
-0.17066239 -0.39723227 0.00000000
-0.14516523 0.50066225 0.00000221
-0.30658381 0.24477359 -0.00000033
-0.45364621 -0.03507207 -0.00000046
-0.22983804 -0.03069210 0.00000000
0.10634157 -0.57132652 0.18418625
0.24121502 0.20954544 0.41779240
0.29730838 0.01455338 0.51494402
-0.48875437 -0.09762547 -0.00000050
-0.13005560 -0.32801909 0.00000000
0.32221482 -0.69581859 0.55808397
-0.27061644 0.27555929 0.00000356
-0.06347235 0.58472346 0.00000227
-0.15965952 0.52758503 0.00000148
-0.21894618 0.32632361 0.00000371
0.02896170 -0.26404282 0.05016239
0.00957172 -0.39592823 0.01657845
0.05786642 0.25450711 0.10022608
-0.16729194 0.30021527 0.00000497
0.03946599 0.40916609 0.06835608
-0.14323722 -0.18323272 0.00000000
0.12775142 -0.66769613 0.22126865
-0.30891542 0.46048564 -0.00000026
0.12828188 0.45911359 0.22218936
-0.63920680 -0.54824042 -0.00000034
0.20545742 0.16697022 0.35586335
0.07879019 0.23027967 0.13647894
-0.29847008 0.22948060 0.00000380
0.11426726 0.44186115 0.19791329
-0.68225769 0.11683147 -0.00000169
-0.02516610 -0.01072441 0.00000000
-0.56346412 -0.77397001 0.00000000
-0.16410073 -0.55809160 0.00000000
-0.08616803 0.24692450 0.00000700
0.13854684 -0.24094658 0.23996659
0.13737080 -0.17654061 0.23792966
0.20052181 0.17516680 0.34730798
0.21472408 -0.68797966 0.37190746
-0.37888832 0.21126187 -0.00000058
-0.52665167 -0.58294958 0.00000000
-0.77198268 -0.20292640 -0.00000149
0.06780508 0.31609256 0.11745053
-0.18840085 -0.68427773 0.00000000
0.04799872 -0.14683452 0.08313498
-0.20356766 0.49588320 0.00000117
0.24914550 -0.18588296 0.43152572
-0.60980182 -0.79693310 0.00000000
0.00001946 0.42129494 0.00004473
-0.56387312 0.16859199 -0.00000129
-0.64712289 0.05864902 -0.00000145
-0.76756183 -0.18003522 -0.00000154
0.37741275 -0.13708023 0.65368624
0.12919787 0.35606134 0.22377352
0.18817755 0.27586974 0.32592732
-0.28060937 -0.08627314 0.00000000
0.01190914 0.35022450 0.02062692
0.19042217 0.13767967 0.32981536
-0.40290151 0.30272314 0.00000057
0.10954369 0.40558565 0.18973746
0.23548595 -0.75964213 0.40786754
0.13649260 -0.50478655 0.23640859
-0.13496584 -0.25037166 0.00000000
0.14170245 0.16034301 0.24543208
-0.21939492 -0.73142990 0.00000000
-0.47452046 0.20605549 0.00000081
0.02421130 0.26536505 0.04193457
-0.64509452 -0.07990047 -0.00000120
-0.51913103 0.10317717 -0.00000098
0.11451613 -0.27124810 0.19834479
0.23595174 0.17045556 0.40867794
-0.45523546 -0.23806759 -0.00000011
0.22195663 0.32516428 0.38443303
-0.52830372 0.03968537 0.00000255
-0.66919031 0.04079689 -0.00000017
0.13844687 -0.04574475 0.23979344
-0.28526856 0.44800137 0.00000040
-0.48046895 -0.79349024 0.00000000
-0.18007768 -0.50315201 0.00000000
-0.23318831 -0.79746265 0.00000000
0.05171037 -0.56948595 0.08956366
0.24238314 0.29990370 0.41981207
-0.20667758 0.38499923 0.00000296
-0.51643883 -0.48657425 0.00000000
0.14749129 0.31912601 0.25546376
0.02177493 0.48691720 0.03771472
-0.12517423 -0.42729016 0.00000000
-0.44672574 0.27685838 0.00000016
0.01897136 -0.05228715 0.03285886
-0.00766079 0.21868854 0.00000860
0.13340427 0.15296987 0.23107118
0.22443842 0.21067628 0.38873609
-0.46356945 0.19869677 0.00000114
0.12315229 0.08760740 0.21331696
-0.50612391 -0.28492699 -0.00000024
0.21727548 -0.72533385 0.37632655
0.01626873 -0.10387980 0.02817785
0.17469084 -0.17303425 0.30256890
-0.26681639 0.42221942 -0.00000047
-0.60136378 -0.40457498 -0.00000044
-0.24686430 -0.18682267 0.00000000
0.01028006 -0.23213021 0.01780533
-0.00008524 0.67510994 0.00000000
-0.26670740 0.20273559 0.00000486
0.24533305 0.26601513 0.42492277
0.05101358 0.65373985 0.08835791
-0.74676381 -0.74738498 -0.00000013
0.09038908 -0.19226524 0.15655615
-0.02275569 0.48759818 0.00000000
-0.04693260 0.13411492 0.00000000
0.34654818 -0.66465304 0.60022965
-0.20044251 0.00222600 0.00000000
0.04718152 0.30024670 0.08171956
-0.20992089 -0.03135250 0.00000000
0.03181108 -0.39267962 0.05509758
-0.51366525 -0.68048564 0.00000000
-0.27591923 0.02512965 0.00000000
0.30332258 -0.54718474 0.52536201
0.00735274 0.73584706 0.01273512
0.11969755 0.14527835 0.20733176
-0.79647294 -0.07067050 -0.00000182
-0.47840061 -0.64648495 0.00000000
-0.11754565 0.44490113 0.00000355
0.01429082 -0.39473448 0.02475205
0.00446692 -0.43199792 0.00773681
-0.09924302 -0.61135532 0.00000000
0.03384990 0.54575716 0.05863445
0.08313639 0.59713101 0.14399496
-0.01098873 -0.12630832 0.00000000
-0.11967482 -0.01365895 0.00000000
0.18353943 0.22711606 0.31789414
-0.07674107 -0.63197583 0.00000000
0.21497351 0.05146758 0.37234857
-0.30038108 0.30064735 -0.00000040
-0.13894407 -0.60067049 0.00000000
-0.01224088 0.52384425 0.00000396
0.05520568 0.67318027 0.09561779
-0.46894367 0.26048536 -0.00000105
-0.35413386 -0.54171083 0.00000000
0.26305339 -0.30161889 0.45561465
-0.51838341 -0.24922212 -0.00000036
-0.05670648 0.55895500 0.00000000
0.01973399 0.00154789 0.03420197
-0.04186153 0.32938052 0.00000643
0.00379165 -0.42459845 0.00656723
-0.11280961 0.40548598 0.00000000
0.20199916 -0.69727780 0.34986759
0.07333658 0.64633458 0.12702032
-0.04983177 -0.47714704 0.00000000
-0.11733620 0.63255109 -0.00000020
-0.49708551 -0.68985729 0.00000000
-0.55460245 0.16244726 -0.00000124
0.10622137 -0.71291091 0.18397807
-0.10319206 -0.60573904 0.00000000
0.16633164 0.07480202 0.28810241
-0.21753595 0.41451161 0.00000226
0.26031574 -0.22669338 0.45087283
-0.56860703 0.22154113 -0.00000126
-0.13397954 0.19739399 0.00000702
-0.01622859 -0.10097197 0.00000000
0.07287647 0.16123193 0.12623855
0.11558914 -0.61147808 0.20020328
-0.63901633 -0.04457728 -0.00000123
-0.51418122 -0.05606510 -0.00000068
0.33931598 -0.67241114 0.58770336
0.13982482 0.48702318 0.24218025
0.03901787 0.00775940 0.06760091
-0.43820111 0.19877878 0.00000163
0.27547626 -0.73962684 0.47713176
-0.26659293 0.39614527 -0.00000042
-0.04881812 0.70905745 0.00000058
-0.33513221 0.12929797 -0.00000024
-0.49344091 -0.11275396 -0.00000049
0.10574429 -0.21632730 0.18315176
0.14156200 0.36815547 0.24518832
-0.08155455 0.06535330 0.00000000
0.18722126 -0.63035316 0.32427190
0.05206239 0.10150993 0.09019091
0.01301590 0.32955194 0.02255688
0.11751078 -0.58499261 0.20353160
0.38267528 0.00424536 0.66280067
0.23514498 0.28599345 0.40727551
0.05066885 0.65800002 0.08776071
0.23734180 0.29239101 0.41108042
0.27072079 0.22764215 0.46889439
0.24388431 -0.18569515 0.42241327
0.34900260 -0.16728008 0.60447954
0.21649134 -0.33585546 0.37496841
-0.13654031 0.30114930 0.00000542
-0.24559284 -0.36413032 0.00000000
-0.18126467 -0.04606263 0.00000000
0.14504874 0.42316431 0.25122994
-0.33876027 0.12516389 -0.00000025
0.25348999 -0.51431441 0.43905100
-0.68562543 -0.78277434 -0.00000004
0.12425499 -0.46793289 0.21521275
-0.05642620 0.39997190 0.00000515
-0.27528557 -0.25962135 0.00000000
-0.01081590 0.38982988 0.00000599
-0.05397291 -0.30120686 0.00000000
-0.65637252 -0.39478214 -0.00000069
-0.19715957 -0.33924754 0.00000000
0.14743462 -0.65827718 0.25536045
-0.38545068 -0.78315421 0.00000000
-0.53945962 -0.14517489 -0.00000063
0.14747679 0.42988693 0.25543499
-0.57444073 -0.50839111 -0.00000014
0.30285998 0.01498390 0.52455946
-0.42057124 0.31020500 0.00000010
-0.34535821 -0.61786438 0.00000000
-0.66560147 -0.52727243 -0.00000049
-0.35422100 -0.08475952 0.00000000
-0.04570590 -0.31111560 0.00000000
-0.45870452 0.13017934 0.00000238
-0.75140222 -0.19755490 -0.00000144
0.00355989 0.31692382 0.00616581
-0.77340220 -0.22015685 -0.00000145
0.18975371 -0.40004883 0.32865816
-0.30353108 -0.27231965 0.00000000
0.09236211 0.11819841 0.15998837
-0.22690981 0.36634940 0.00000289
-0.19650010 0.08214848 0.00000000
0.02667229 0.45068204 0.04619707
0.19734562 -0.61427533 0.34180754
0.26981252 -0.16311337 0.46732122
-0.33555383 -0.08018079 0.00000000
-0.00265484 -0.42801090 0.00000000
0.01957895 0.62273293 0.03391123
-0.48874744 -0.46584205 0.00000000
-0.40940227 -0.35077055 0.00000000
0.10338883 0.28457292 0.17907204
-0.74158597 -0.28251558 -0.00000125
0.39175164 -0.27185654 0.67852188
0.05656445 -0.06528230 0.09797104
-0.02983177 -0.42128548 0.00000000
-0.61765423 -0.43634193 -0.00000045
-0.26314087 -0.34424355 0.00000000
-0.36323536 0.19870420 0.00000307
-0.12561320 0.61167390 0.00000073
-0.34539336 -0.61525952 0.00000000
0.00579727 0.21310946 0.01005780
-0.54947215 0.03445174 0.00000224
0.36695797 -0.58753909 0.63557968
-0.02444567 0.74375471 -0.00000000
0.06530257 -0.72037906 0.11310569
0.07958976 -0.45905855 0.13785146
-0.38400717 0.37826882 -0.00000089
0.19875460 0.39610298 0.34424682
-0.00503042 0.43680495 0.00000000
0.23884248 -0.66976054 0.41368114
0.37804694 -0.55110973 0.65478594
-0.42897495 0.23469506 0.00000120
-0.72916606 0.00735350 -0.00000171
0.10509090 0.39411244 0.18201983
0.04032058 0.05376422 0.06983625
0.02962577 0.59760506 0.05131687
0.12213432 0.40541883 0.21154384
-0.71204205 -0.51774530 -0.00000071
-0.26234456 0.05597535 0.00000000
0.04816140 -0.55097365 0.08341675
0.32404030 0.01336418 0.56124832
0.29167535 -0.60909241 0.50518900
-0.26949197 0.27586336 -0.00000022
-0.61065702 0.01774271 0.00000134
-0.45390233 0.06702224 0.00000353
-0.12611394 -0.38271870 0.00000000
-0.70058186 -0.41438151 -0.00000084
-0.66624956 0.08896540 -0.00000092
0.01462139 0.30418732 0.02533827
0.11246079 0.27058175 0.19479420
0.09238494 0.14776534 0.16001303
0.07633497 -0.19246440 0.13221408
0.22165590 0.01504736 0.38391288
-0.61936370 -0.35028683 -0.00000061
-0.60575190 -0.35193585 -0.00000055
0.05857145 0.04447845 0.10146607
0.21040325 -0.30768803 0.36442369
-0.12725925 0.27367430 0.00000000
-0.52027863 0.09686025 -0.00000098
-0.40441355 -0.28849840 0.00000000
0.27489169 -0.32191393 0.47611879
0.14092837 -0.51366251 0.24409146
0.07356110 0.19865267 0.12740966
0.10720402 -0.65369196 0.18568004
-0.16009379 0.34527161 0.00000441
0.23138958 0.25258431 0.40077120
-0.34501371 -0.37864560 0.00000000
0.19060258 -0.28268876 0.33012843
0.16723144 0.40405826 0.28964807
0.19957497 -0.65562267 0.34566884
0.04952349 0.07252469 0.08577593
0.18838352 -0.53407298 0.32628496
-0.26374806 0.14860874 0.00000579
-0.52498814 -0.35635963 -0.00000020
0.28352540 0.10096976 0.49107150
0.30820710 -0.23881286 0.53382133
0.12346146 0.21216548 0.21384876
-0.46434977 -0.69864764 0.00000000
-0.33180968 -0.28560576 0.00000000
0.15195187 0.40127121 0.26318656
0.05596971 -0.71981686 0.09694093
0.09713641 -0.38549019 0.16824269
-0.10505082 -0.67624859 0.00000000
0.15186043 0.33866078 0.26303025
0.13337339 -0.54614503 0.23100605
-0.17548197 0.53578006 0.00000104
-0.02443574 0.31494472 0.00000691
0.25800132 -0.41477803 0.44686466
-0.37941945 -0.41598420 0.00000000
0.36093376 -0.73857791 0.62514609
-0.23455942 0.06976683 0.00000741
-0.07615814 -0.15410765 0.00000000
0.09418649 -0.12821941 0.16313335
-0.29667348 -0.73413212 0.00000000
0.08616775 -0.49483611 0.14924470
0.25858461 -0.23031928 0.44787449
0.15291630 0.24692429 0.26486200
0.10437794 0.04864255 0.18080146
-0.29165847 0.10177469 0.00000606
0.21600039 0.06890620 0.37411733
-0.29667217 -0.14598836 0.00000000
0.16748194 -0.79425186 0.29008291
0.00277993 0.75517537 0.00481491
-0.36516784 0.03760686 -0.00000021
-0.41198622 0.14036134 0.00000311
0.01868245 0.35384231 0.03235846
-0.41809267 -0.65251167 0.00000000
0.10636192 0.18477970 0.18422149
0.25355498 0.05493610 0.43916973
-0.66845502 -0.65690002 -0.00000028
0.31978484 -0.68879598 0.55387519
0.11361533 0.33109117 0.19679182
-0.17819494 0.03937071 0.00000872
0.36188763 0.05147294 0.62679606
-0.27559330 -0.50328629 0.00000000
-0.03784523 -0.46025571 0.00000000
-0.34579786 -0.06967046 0.00000000
0.19754345 -0.78206138 0.34215019
-0.61161255 -0.22170551 -0.00000080
0.34416806 -0.65438075 0.59610719
-0.16402992 0.47421298 0.00000229
0.38535621 -0.75146022 0.66744646
0.21968394 0.00278503 0.38050842
0.10267959 0.51943018 0.17784542
-0.62904830 0.15920357 -0.00000155
0.08985297 -0.19690591 0.15562758
-0.07571140 0.66696190 0.00000077
-0.38233874 -0.14325759 0.00000000
0.13987125 -0.36671287 0.24226050
0.08987428 -0.35356330 0.15566450
-0.07482287 0.62649002 0.00000146
0.06990391 0.13649906 0.12109089
0.18202262 -0.47401417 0.31526772
0.32746124 -0.52196498 0.56717043
-0.40327433 0.05392238 -0.00000040
0.12983402 -0.16658671 0.22487576
0.19651624 0.34315942 0.34036987
-0.49932757 -0.33258543 -0.00000013
0.36022213 0.07128374 0.62391136
-0.39642034 -0.08083657 -0.00000013
-0.58501751 -0.31362814 -0.00000053
0.34049055 -0.05911397 0.58973630
0.07722616 0.50734279 0.13376169
0.07859279 0.35111352 0.13613351
0.26706758 0.19506085 0.46256828
0.04715341 0.44765293 0.08167088
0.00270963 0.02203815 0.00469314
0.32789897 -0.40905501 0.56792832
-0.01956017 -0.64856982 0.00000000
-0.25240048 -0.03761881 0.00000000
0.11277543 0.00889960 0.19532986
-0.62552873 -0.29531498 -0.00000073
0.23225758 0.00113380 0.40228543
0.23493746 0.30778373 0.40691604
-0.07532475 0.56647423 0.00000000
0.13189674 -0.74506781 0.22844845
0.02319433 -0.42703741 0.04017316
0.21262933 0.24080457 0.36828232
0.35100873 -0.77582522 0.60795582
0.07183844 -0.08272760 0.12442596
-0.21596455 0.26338733 0.00000000
0.11607076 -0.34327285 0.20103745
-0.07010773 0.33128980 0.00000000
-0.28267018 -0.12931039 0.00000000
0.03171670 0.61667746 0.05493411
-0.43943129 -0.47582275 0.00000000
0.04220710 0.05051412 0.07312332
0.31985355 0.03787038 0.55399625
0.29070459 0.15608367 0.50350774
0.09043120 -0.72851074 0.15662909
-0.04005659 -0.24421043 0.00000000
0.11619757 0.29543240 0.20126530
0.18890745 0.29679204 0.32719531
0.07864065 -0.61904225 0.13620758
0.39223518 -0.45714177 0.67936002
-0.00454565 -0.52711489 0.00000000
-0.55316913 0.10047386 0.00000106
-0.28734888 0.47011469 -0.00000064
0.20721347 0.08920800 0.35890731
-0.22192145 0.49856364 -0.00000041
0.34748478 -0.07545890 0.60185044
-0.66856884 0.11596472 -0.00000164
0.08398701 -0.00771667 0.14546759
-0.03321580 -0.25382902 0.00000000
0.01571855 0.27335549 0.02723942
-0.14615242 -0.26965527 0.00000000
0.21104422 -0.16828870 0.36553374
-0.17060634 0.14348067 0.00000727
0.05628992 0.00651703 0.09749555
-0.67814959 -0.20010841 -0.00000113
-0.68045049 0.03993754 -0.00000156
0.26065049 -0.05496921 0.45145222
0.02201138 -0.58392242 0.03812425
-0.53891273 0.02796025 -0.00000094
-0.19005549 -0.48744544 0.00000000
0.32989264 -0.75672947 0.57138220
-0.52830061 -0.68817181 0.00000000
-0.27402413 -0.76906311 0.00000000
-0.21422116 -0.79382380 0.00000000
0.08733246 -0.70602913 0.15126199
-0.49441894 -0.41802689 0.00000000
0.00670861 0.13969678 0.01161948
0.01448017 -0.35905304 0.02508001
-0.12090552 0.55987301 -0.00000009
0.06035128 0.43256229 0.10452993
-0.78595276 -0.50700865 -0.00000073
0.01301359 -0.17393319 0.02253987
0.36505154 -0.11463263 0.63227640
0.22782610 -0.60419629 0.39460049
-0.25736133 0.37927487 -0.00000035
-0.29485687 -0.18956573 0.00000000
0.17426047 -0.52541367 0.30182349
-0.19514434 0.14281810 0.00000691
-0.17207694 0.13747304 0.00000734
-0.35644192 0.24027931 0.00000250
-0.55301271 0.16677723 -0.00000124
0.11041175 -0.64912724 0.19123591
0.20151932 -0.77546257 0.34903649
-0.03010204 -0.07634488 0.00000000
-0.05277689 0.11847223 0.00000000
-0.51661503 0.01611811 -0.00000082
0.07491921 -0.66604729 0.12976195
0.03714925 -0.53666407 0.06434343
0.27992671 -0.65255277 0.48484005
-0.05555934 -0.11824626 0.00000000
-0.02998249 -0.58074964 0.00000000
0.18607361 0.41134864 0.32228294
0.25366284 -0.65829609 0.43935037
-0.53492429 0.19680029 -0.00000020
0.00117933 -0.25194873 0.00204264
0.07702100 -0.59928169 0.13340229
0.10626660 0.11812035 0.18407054
0.22410677 -0.52112901 0.38815853
0.24183837 -0.53849758 0.41887010
0.39351578 -0.24940586 0.68157734
0.17068611 0.39322497 0.29563162
0.36498104 0.00038602 0.63215402
0.11089546 0.22177094 0.19207371
0.07458363 0.12819607 0.12919626
-0.42210188 -0.74373062 0.00000000
0.28442331 0.02754960 0.49263310
0.14226538 -0.61218087 0.24640719
-0.04719305 -0.41965328 0.00000000
0.35096924 0.05357486 0.60788662
0.10954699 -0.08270736 0.18973812
0.19694602 0.29192560 0.34111789
-0.35593624 0.00663021 0.00000642
-0.23884703 0.13345097 0.00000639
-0.59962616 -0.47585026 -0.00000030
0.18807419 0.38150209 0.32574804
0.10406149 -0.36541043 0.18023710
0.29344923 0.14156378 0.50825961
0.23051926 -0.53403764 0.39926512
-0.64475159 -0.20095472 -0.00000098
-0.41595565 0.24648863 0.00000126
-0.35617799 -0.41104211 0.00000000
-0.33570520 0.12644928 -0.00000024
-0.27084157 -0.63813846 0.00000000
-0.41605543 0.20483457 -0.00000072
0.10216986 0.09618016 0.17697575
0.36149476 -0.68229186 0.62611757
-0.59293900 -0.59141320 -0.00000007
0.08831107 -0.56691470 0.15295697
0.07428896 -0.03411160 0.12867033
0.21969670 -0.01722042 0.38051960
-0.18363850 -0.41867386 0.00000000
0.11165877 0.23424178 0.19339579
0.08957992 -0.70732594 0.15515466
-0.37456702 -0.68936667 0.00000000
0.07672934 -0.17882517 0.13289713
-0.32558452 -0.29775500 0.00000000
-0.03631939 0.70623613 0.00000000
0.01410606 0.08043038 0.02445227
-0.51594324 -0.73433626 0.00000000
-0.09085403 0.60696090 0.00000148
-0.04551296 0.46183280 0.00000000
0.32501798 -0.42427720 0.56293845
0.27772159 0.12562131 0.48102282
0.18427706 0.18592434 0.31917182
0.09592518 0.03878206 0.16614481
0.11476814 0.22141928 0.19878129
-0.03088634 -0.74504219 0.00000000
0.20735829 -0.24116147 0.35914974
0.34496653 -0.07496315 0.59748880
0.06111247 -0.62834225 0.10584833
0.22315039 0.19684357 0.38650574
0.38717595 -0.24233967 0.67059658
-0.76901179 -0.17473165 -0.00000156
-0.12073318 0.51356145 0.00000247
0.34519234 0.05216979 0.59788135
0.03952892 0.30132786 0.06846507
-0.07192818 0.60770191 0.00000180
0.37930632 -0.25231129 0.65696620
-0.60548871 -0.05246733 -0.00000108
0.15071305 0.44505733 0.26103954
0.16642513 0.35805193 0.28825164
0.01748250 0.17215393 0.03028012
-0.66937764 -0.32485808 -0.00000087
-0.25996610 -0.36701866 0.00000000
-0.24523970 -0.05187968 0.00000000
0.25422698 0.28110454 0.44032613
-0.33334347 0.11642512 -0.00000021
-0.12786388 -0.49214818 0.00000000
0.17502560 0.21023021 0.30315546
-0.59969004 -0.67191459 0.00000000
0.08704034 -0.63833884 0.15075605
0.12643374 -0.18979835 0.21898639
-0.15635450 0.39897932 0.00000000
0.28407293 0.16218337 0.49202182
0.05819749 0.10617594 0.10081659
-0.39698860 0.15828468 0.00000310
-0.10805194 0.24980453 0.00000662
0.21706005 -0.39613971 0.37595342
0.11575963 0.44620317 0.20049808
0.03053221 0.57768107 0.05288256
0.03091126 0.44279974 0.05354782
0.20081847 -0.62527819 0.34782260
0.23734472 -0.58801636 0.41108699
0.24722101 -0.16150199 0.42819242
0.05105723 0.02868519 0.08845212
0.15608668 -0.64693164 0.27034602
0.16092973 0.10001110 0.27873413
-0.21618087 -0.75576649 0.00000000
-0.35147544 -0.78296083 0.00000000
-0.06262148 0.55955287 0.00000266
-0.14838565 -0.40345287 0.00000000
-0.58174611 0.08514702 -0.00000122
-0.68463720 -0.59024959 -0.00000046
0.17735192 -0.25114272 0.30717796
0.07027474 0.12678066 0.12173344
0.06977781 0.15492668 0.12085690
-0.00125734 0.19210004 0.00000910
0.16096423 0.36979738 0.27879324
-0.25584671 -0.67948652 0.00000000
0.00652757 -0.19605621 0.01130591
-0.14203518 0.02657277 0.00000000
0.21518558 0.17636552 0.37270582
-0.22498946 0.18904551 0.00000000
-0.33407204 -0.67854818 0.00000000
0.17424066 -0.20973496 0.30178918
-0.03125754 -0.60550183 0.00000000
0.19776578 -0.61751425 0.34253527
-0.12848559 0.65651033 -0.00000007
0.32235778 -0.29390201 0.55833065
0.06214209 -0.34114105 0.10763165
0.27561846 -0.71155786 0.47737805
-0.67843817 -0.71078483 -0.00000022
-0.02364107 0.70563071 0.00000106
0.35305138 -0.57806783 0.61149307
0.25628187 0.22099962 0.44388709
-0.49610663 -0.02596598 -0.00000066
-0.12936939 0.35408653 0.00000474
0.05803979 0.05510782 0.10052637
-0.03142500 0.06745412 0.00001051
0.10990179 -0.35849298 0.19035264
0.27533293 -0.65278941 0.47688351
-0.49593196 -0.25225904 -0.00000026
0.15430340 -0.04255777 0.26725735
-0.47606361 0.18593592 -0.00000095
0.36220880 -0.61678867 0.62735409
-0.45791187 -0.42872986 0.00000000
-0.06190361 0.34867405 0.00000584
-0.52185670 -0.49782827 0.00000000
0.27291087 0.12277929 0.47269097
0.31865232 -0.27232090 0.55191268
-0.41628108 -0.38829990 0.00000000
0.20428019 -0.46277569 0.35381840
0.11307526 -0.46511771 0.19584917
-0.05837766 0.62912302 0.00000168
0.33595687 -0.23803525 0.58188431
-0.45618879 0.12169387 -0.00000075
-0.50463720 0.26616227 -0.00000077
-0.45073663 0.32359689 -0.00000070
-0.34113514 0.02324603 -0.00000008
-0.04802394 0.62804524 0.00000000
-0.35961733 -0.40705951 0.00000000
0.11010669 -0.11530595 0.19070753
-0.24367404 -0.65800451 0.00000000
0.14597800 -0.47108828 0.25283755
0.09458435 0.30707486 0.16383171
0.31159550 -0.00205050 0.53968954
0.13463412 0.17498904 0.23318960
-0.29138007 0.46071163 -0.00000064
-0.67685930 -0.25495103 -0.00000102
-0.16500708 -0.25639894 0.00000000
0.02347581 0.68793043 0.04066069
-0.06394214 0.17826646 0.00000000
0.12376565 0.16686915 0.21436519
-0.04964045 0.03347027 0.00000000
-0.49211212 -0.60514305 0.00000000
0.11064784 0.12025234 0.19164482
-0.28375363 -0.10612352 0.00000000
0.03669725 0.21836553 0.06357552
-0.35814067 0.12794704 -0.00000034
-0.07443299 -0.35309059 0.00000000
-0.33926746 0.45622952 -0.00000084
-0.16869686 -0.24195983 0.00000000
-0.40235645 -0.64493649 0.00000000
0.15653049 -0.58302724 0.27111472
0.38256928 -0.39368145 0.66261822
-0.27152536 -0.55128650 0.00000000
-0.21258140 -0.18198543 0.00000000
0.23354198 0.00795260 0.40450972
0.07199876 0.63978156 0.12470371
-0.77968609 -0.70524967 -0.00000024
-0.24046026 0.19275532 0.00000000
-0.35675414 -0.79880714 0.00000000
0.31142702 -0.01934333 0.53939777
0.01447853 0.55466956 0.02508354
-0.48749937 -0.66153654 0.00000000
0.00901243 -0.01416484 0.01560975
0.10894728 -0.08187839 0.18869941
-0.73526694 -0.77682008 -0.00000006
-0.10202965 0.05895652 0.00000000
0.11175729 0.17145283 0.19356642
0.00589843 0.54944425 0.01022322
-0.13554920 0.45417042 0.00000000
-0.42728277 -0.56824910 0.00000000
0.22390806 0.09068206 0.38781348
-0.16506993 0.55843312 -0.00000028
-0.06974568 -0.58350333 0.00000000
-0.27992795 -0.11353210 0.00000000
0.09940629 0.47005273 0.17217785
0.18198446 0.02906576 0.31521385
-0.11003092 0.13542983 0.00000831
0.30516179 -0.57932393 0.52854762
-0.21186892 0.20537334 0.00000572
0.32113262 -0.42097982 0.55620894
-0.32833590 0.43252500 -0.00000075
0.02966373 0.25145546 0.05137833
0.02255640 0.54978540 0.03906825
0.15512902 0.16752419 0.26869694
0.11626463 0.29701394 0.20137311
0.33547675 0.06274120 0.58105407
0.38136245 0.00193185 0.66052684
0.29370391 0.15707123 0.50870069
0.38656922 -0.57869833 0.66954683
-0.12380117 -0.26173299 0.00000000
-0.44073715 -0.47671393 0.00000000
-0.25487831 0.43584590 -0.00000044
-0.60472842 0.00743685 -0.00000118
-0.00216001 0.33992197 0.00000000
-0.42045595 -0.15043576 -0.00000011
-0.50844509 -0.53225375 0.00000000
-0.28275185 0.49842661 -0.00000039
0.38307403 -0.52401285 0.66349289
-0.75550193 -0.15375807 -0.00000154
-0.06325836 0.28935488 0.00000000
0.03854125 0.45722900 0.06675440
-0.52921851 -0.01625318 -0.00000082
0.05882319 -0.25760768 0.10188323
0.17733303 0.20432799 0.30714462
0.10002501 0.55235511 0.17324672
-0.09432396 0.54742108 0.00000000
-0.03819913 0.04567542 0.00000000
0.03500420 0.69658214 0.06062800
0.36173409 -0.08039695 0.62653045
0.26878691 0.15514518 0.46554412
0.17769415 0.24919491 0.30777598
0.06340514 0.38687056 0.10982791
0.14948641 -0.47025613 0.25891420
-0.51047810 0.27994939 -0.00000112
-0.00547328 0.61641537 0.00000267
-0.58918995 -0.65979003 0.00000000
-0.56949510 -0.04451454 -0.00000094
-0.50582673 -0.29160597 -0.00000023
-0.47205245 0.31254853 -0.00000115
0.06157738 0.28784540 0.10665356
-0.20546711 -0.02549635 0.00000000
-0.61979335 -0.53030829 -0.00000029
0.19718932 0.24871905 0.34154070
0.15525398 -0.77161016 0.26890377
0.18174605 -0.73079378 0.31478871
-0.00670321 0.40894969 0.00000576
-0.00218936 0.43144690 0.00000550
-0.30465550 -0.62110891 0.00000000
0.11772036 -0.25093786 0.20389461
0.31696544 -0.68053127 0.54899194
0.06809852 0.61105158 0.11794963
0.05950561 0.35812358 0.10306521
0.26548024 -0.07998987 0.45981746
0.08996535 0.47584347 0.15582198
0.34628973 -0.55032215 0.59978171
-0.20597527 0.40613091 -0.00000018
-0.45357292 0.19844780 0.00000134
0.00876729 0.37105102 0.01519719
0.00314943 0.79065971 0.00545487
-0.64229933 -0.55885430 -0.00000034
-0.32031182 0.30296869 0.00000215
-0.15752616 0.45468001 0.00000274
-0.28392156 -0.63298910 0.00000000
0.21904037 0.21460157 0.37938681
-0.64645803 -0.20858788 -0.00000098
-0.34807699 0.35305068 0.00000078
0.32843249 -0.36862070 0.56885230
0.02217064 0.59012076 0.03840502
-0.50614108 -0.73594180 0.00000000
-0.47417079 0.24444799 0.00000017
0.12414412 0.13875522 0.21503328
0.10536407 0.04689231 0.18250946
0.18222695 -0.21885559 0.31562162
0.17951917 -0.67979525 0.31093169
-0.22274209 0.57125566 -0.00000055
0.01656544 0.37877063 0.02870313
0.09672278 0.55210100 0.16752576
0.18770337 0.29152511 0.32510600
-0.03640035 0.00560190 0.00001137
-0.78603386 -0.66897819 -0.00000033
-0.23487832 0.31232342 -0.00000014
-0.08710567 -0.72661449 0.00000000
-0.47467393 -0.09579395 -0.00000044
0.13657372 0.14793378 0.23656069
-0.48334166 -0.38544207 0.00000000
-0.64400714 0.14042518 -0.00000135
0.18950886 -0.21936465 0.32823408
0.08994237 0.12370462 0.15578243
-0.56768903 -0.48816482 -0.00000015
0.01074083 0.19961142 0.01860338
-0.23881641 0.54781492 -0.00000037
-0.27706739 -0.30707976 0.00000000
0.25373263 0.10062662 0.43947591
0.15698688 -0.43394869 0.27190519
-0.42415929 0.06880449 -0.00000052
-0.38343656 0.21476204 0.00000241
-0.43475693 -0.41608046 0.00000000
-0.05913523 0.47267518 0.00000402
-0.66424480 -0.19361606 -0.00000108
0.29421372 0.18266974 0.50958451
0.23185515 -0.60906939 0.40157891
-0.51095949 -0.30904531 -0.00000022
0.21705469 0.14788083 0.37594990
0.35461739 -0.08406662 0.61420423
0.12104237 0.02072828 0.20966459
-0.22912182 0.52568127 0.00000018
0.39736685 -0.02115456 0.68824674
0.10215815 0.06689413 0.17694047
0.05973958 0.48559020 0.10347638
-0.40669831 0.24094547 0.00000153
-0.34466130 0.11636016 0.00000480
-0.14001581 0.16385905 0.00000000
0.22629676 0.12205910 0.39195067
0.19231050 0.24699582 0.33309086
-0.56605456 -0.49331152 -0.00000013
0.00104947 0.63034169 0.00182260
0.05230395 -0.22487515 0.09059175
-0.22627444 0.54630008 -0.00000011
0.39057951 -0.16085172 0.67649136
-0.06688373 0.50115647 0.00000000
-0.28022091 -0.12439897 0.00000000
0.25859868 -0.78713597 0.44789938
-0.11436518 -0.40321972 0.00000000
0.03637287 0.63966549 0.06299868
-0.02580277 0.58455938 0.00000000
-0.74083913 0.00208479 -0.00000090
-0.23327774 0.37453464 -0.00000024
-0.72772602 -0.20633462 -0.00000133
-0.42719149 0.00645646 -0.00000042
0.37968504 -0.74991091 0.65762384
-0.19568266 -0.59136241 0.00000000
0.13439922 0.50622486 0.23278274
-0.63576346 -0.09960566 -0.00000112
-0.64916223 -0.40271162 -0.00000064
-0.67756590 -0.38523541 -0.00000080
-0.66182701 -0.25829163 -0.00000095
-0.15730395 -0.12077963 0.00000000
0.08348573 0.27171458 0.14461026
-0.45375182 0.00447860 -0.00000053
0.11764736 0.49104964 0.20376756
-0.02716340 0.68410707 0.00000000
-0.61853856 -0.39864875 -0.00000052
0.10169871 0.30597165 0.17614470
0.03841725 0.49738295 0.06654638
0.03834366 0.29934954 0.06642471
0.03879321 -0.60693105 0.06719080
-0.46560581 -0.30088663 -0.00000004
-0.48517539 0.22187196 0.00000034
0.05767730 -0.32922490 0.09989853
0.30870327 -0.38771044 0.53468106
0.34508041 -0.66732344 0.59768746
0.36265121 -0.34706544 0.62811953
-0.15034811 0.15138786 0.00000000
0.04921886 0.01935029 0.08526840
-0.11940987 -0.08144520 0.00000000
0.04181331 0.29464351 0.07243416
-0.02079463 0.75796872 0.00000030
-0.52464851 0.21857696 -0.00000121
0.02940865 -0.44160922 0.05093651
0.09354114 -0.36253243 0.16201559
0.00673127 0.22394751 0.01165872
-0.70289065 -0.45081802 -0.00000079
-0.37510819 0.32789254 0.00000068
-0.27719102 0.32629693 -0.00000035
0.13472472 0.25811667 0.23335468
0.06482829 -0.04895423 0.11228422
0.06027377 0.48117524 0.10440170
-0.04091251 -0.24213892 0.00000000
-0.16380794 0.10627355 0.00000793
-0.33404122 -0.64075155 0.00000000
0.29032027 0.01189261 0.50284051
-0.23736532 -0.58737444 0.00000000
0.10033694 -0.69450018 0.17378608
-0.05600486 -0.39191986 0.00000000
-0.01300178 0.13946503 0.00000971
0.05076451 -0.10502802 0.08792540
-0.35114573 0.12349124 -0.00000030
-0.26513930 0.07622336 0.00000000
-0.61944970 0.08870280 -0.00000139
-0.29378428 -0.36226919 0.00000000
0.29716917 0.13951734 0.51470261
0.05207888 -0.64525384 0.09020193
0.14176103 0.16042254 0.24554445
-0.71593777 -0.21304920 -0.00000126
-0.77558830 0.00959756 -0.00000169
-0.49939821 -0.72095181 0.00000000
-0.20567650 0.30310794 0.00000000
-0.06320893 0.41106902 0.00000000
-0.42393915 0.36247428 -0.00000083
-0.04795660 -0.66184104 0.00000000
-0.35010583 0.40002405 -0.00000079
0.06083187 0.56511916 0.10536217
0.28787779 -0.49917867 0.49861132
-0.08913405 0.58089487 0.00000194
0.08506248 0.22553597 0.14734248
0.03687193 0.15663068 0.06386310
-0.02733224 0.71121313 0.00000000
-0.52223395 0.22733542 -0.00000122
-0.29622141 -0.55563650 0.00000000
0.15148202 0.22280204 0.26237028
0.14291154 -0.04675320 0.24752635
0.00454059 0.42347276 0.00786442
0.34224294 0.05848836 0.59277293
-0.39973577 0.29072828 0.00000083
-0.35292368 0.02521738 -0.00000014
-0.34164573 -0.55042027 0.00000000
-0.37683223 0.40016212 -0.00000090
0.18004536 0.10395224 0.31185295
0.05704737 0.26991943 0.09880747
-0.57931635 -0.46524409 -0.00000024
-0.19965386 -0.62970155 0.00000000
0.13256191 -0.16315890 0.22960054
-0.27413954 0.15330730 -0.00000003
0.13832550 0.14672126 0.23958318
-0.42655427 0.25296400 0.00000095
-0.55365276 0.18080144 -0.00000029
0.22697358 0.23151275 0.39312267
-0.70300787 -0.17109262 -0.00000128
-0.75634493 -0.32692218 -0.00000118
-0.42800328 0.20454369 -0.00000077
-0.21129561 0.47458423 -0.00000033
0.35849797 -0.45323842 0.62092631
-0.70067099 -0.74759563 -0.00000013
-0.20984216 0.06605061 0.00000784
-0.28849269 0.01346094 0.00000745
0.31239469 -0.28753763 0.54107442
0.00480978 -0.66705632 0.00833066
-0.56807706 -0.11846900 -0.00000080
-0.21041592 0.49452728 0.00000106
0.05247312 -0.61958238 0.09088475
0.26878862 -0.59624007 0.46554860
0.32331103 0.10672060 0.55998217
-0.19146363 0.22149686 0.00000579
0.14476578 0.08852787 0.25073794
0.31040067 -0.32691940 0.53762084
0.25788507 -0.49821783 0.44666339
