ply
format ascii 1.0
element vertex 1369
property float x
property float y
property float z
end_header
-0.50641075 -0.62168878 -0.00000283
-0.27140809 -0.27644345 -0.00000098
-0.31168174 -0.57627029 0.00000263
-0.00625268 -0.64570147 0.00000024
-0.06217792 -0.42960377 0.00000093
-0.53327649 -0.58776538 -0.00000295
-0.37989805 -0.11717800 0.40542817
-0.12376105 0.07271516 0.00000202
-0.06073348 0.42729353 0.00000117
-0.32760869 0.15630531 -0.17338438
-0.19925922 -0.74631932 -0.00000114
-0.31448667 0.04076069 0.11344347
-0.23702531 -0.76554963 0.00000183
-0.22548278 -0.45901608 0.00000213
-0.11470288 -0.38646014 0.00000138
-0.55479038 -0.29314714 -0.28999282
-0.63149408 -0.71914328 -0.00635164
-0.24661369 -0.17106690 -0.00000070
-0.30104087 -0.32297710 -0.00000122
-0.41479295 -0.20141091 0.15205269
-0.33099711 0.18519513 -0.21704602
-0.17769881 -0.00267515 0.00000234
-0.24350533 0.18839011 -0.00000023
-0.35473892 -0.05643472 0.32805717
-0.06541877 0.56683081 -0.00000011
-0.34255469 -0.02701913 0.32598713
-0.08515126 0.01892128 -0.00000910
-0.27923912 0.18461340 -0.06918956
-0.59792335 -0.55417810 -0.10519329
-0.03623745 0.45274997 0.00000135
-0.05936782 0.18886455 0.00000168
-0.21724556 0.40971029 -0.15803581
-0.15673661 0.15803247 0.00000624
-0.32844942 -0.32217462 0.00000308
-0.42151484 -0.18688602 -0.03618624
-0.39149577 0.10331367 -0.29262985
-0.31676506 0.12502536 -0.10570908
-0.00880004 0.01887015 0.00000097
-0.33319492 -0.13444794 -0.00000118
-0.02940797 0.01347313 0.00000084
-0.03276959 -0.66466481 0.00000042
-0.58258360 -0.52141323 -0.10016639
-0.12260114 0.56468920 -0.07145498
-0.21395866 0.28344572 0.21574882
-0.40376617 -0.15782796 -0.01994376
-0.34685374 -0.48933915 -0.00000171
-0.13638964 0.47071828 0.14000755
-0.27125061 0.14512736 0.27468499
-0.00609621 0.32164021 0.00000145
-0.48778865 -0.09974922 -0.32726352
-0.31122296 0.07359503 -0.02937499
-0.49164657 -0.32713867 -0.07041078
-0.36658287 0.01141772 -0.11355487
-0.32678486 0.17457772 -0.19256336
-0.37483246 -0.66832063 -0.00000210
-0.32970352 -0.50140914 -0.00000162
-0.61780414 -0.53536647 -0.18387998
-0.27148593 -0.33290667 -0.00000105
-0.35990567 -0.06890253 0.28013428
-0.58370811 -0.76049188 0.00000445
-0.04100471 0.03299191 0.00000079
-0.07161879 -0.65014231 -0.00000024
-0.68645854 -0.79379191 -0.07471827
-0.58562404 -0.66903778 -0.00000337
-0.48494110 -0.28089756 -0.10580753
-0.13751882 0.32348854 0.00000244
-0.32366393 0.23345772 -0.25303887
-0.62526652 -0.57684010 -0.15625066
-0.08983410 -0.61219955 -0.00000031
-0.02390904 0.59614195 0.00000193
-0.34150830 -0.26196397 -0.00000139
-0.47789496 -0.35375117 0.10151911
-0.08745293 -0.35817672 0.00000121
-0.05984926 0.59133747 0.00000015
-0.18628075 0.31740996 0.00000280
-0.21828617 0.27300655 0.02724977
-0.61622296 -0.77636894 -0.00000369
-0.48631160 -0.11960545 -0.29967666
-0.28220899 0.12838329 -0.01139814
-0.40050341 -0.13447971 -0.03816617
-0.23515603 -0.44309525 0.00000222
-0.24370663 -0.36282951 0.00000239
-0.40025560 -0.15403461 -0.01442949
-0.11092567 -0.24240502 0.00000003
-0.27960032 -0.22677405 -0.00000097
-0.16407815 0.31985879 0.00000041
-0.08036449 0.60597890 0.06819227
-0.29111369 -0.49289072 0.00000258
-0.32630141 0.01224331 0.04195068
-0.56645985 -0.70238633 0.00000440
-0.13120892 0.17995411 0.00000043
-0.45540189 -0.03198227 -0.31499026
-0.65732384 -0.78692907 0.14439846
-0.11513931 -0.12170184 0.00000015
-0.48495020 -0.10828236 -0.30914208
-0.35886876 -0.60798675 0.00000295
-0.05125541 0.62191135 0.00000299
-0.31711178 0.03441028 0.22575360
-0.06276496 0.48663533 0.00000208
-0.22930584 -0.59029253 -0.00000112
-0.41958241 0.03864206 -0.29632050
-0.29086842 -0.03912089 0.00000315
-0.00369640 -0.11865205 0.00000088
-0.49278705 -0.62632070 0.00000393
-0.55663613 -0.46374631 -0.09430697
-0.27076952 0.14629815 0.06551577
-0.20360889 0.27529535 0.00000288
-0.40696170 -0.23307577 -0.00000175
-0.20263995 0.29037158 0.00000348
-0.21139815 0.35014529 -0.07125293
-0.29684146 -0.25686966 0.00000292
-0.49096550 -0.36207132 -0.02733002
-0.16223477 -0.48799872 -0.00000059
-0.67020190 -0.81801868 0.12020094
-0.53009323 -0.35284209 -0.14945811
-0.03712351 0.41309356 -0.00000365
-0.09019870 0.61888494 -0.04315265
-0.09941031 0.35921797 0.00000085
-0.02879194 0.16000977 -0.00000833
-0.28907037 0.10211137 0.16354838
-0.14860924 0.02801778 0.00000806
-0.11178261 -0.04603649 0.00000179
-0.23539191 0.23170126 0.20983160
-0.42981119 -0.23766830 0.15136892
-0.29275183 0.09323529 0.08082765
-0.25258153 0.21653025 -0.03097620
-0.27651620 0.02082773 -0.00000064
-0.25267558 -0.22244428 -0.00000080
-0.37485418 -0.15582166 -0.00000146
-0.33266407 -0.36168284 -0.00000146
-0.15889073 -0.59874333 0.00000145
-0.17852747 0.34316360 0.00000278
-0.19005013 0.01578988 -0.00000013
-0.00247266 -0.29495928 0.00000065
-0.38871903 0.08382011 -0.26177453
-0.08894014 0.30852327 0.00000085
-0.20692588 0.30043193 0.04802732
-0.18463337 0.06815757 0.00000248
-0.25668520 0.29353173 -0.13334417
-0.65378424 -0.62939918 -0.17543464
-0.30784193 -0.48168153 0.00000272
-0.25633433 -0.64538532 -0.00000135
-0.37630377 -0.05153788 -0.06704574
-0.24260051 0.26272713 -0.05700818
-0.28818077 0.10426218 0.09409764
-0.53844649 -0.42592013 -0.08713783
-0.16450528 0.49281697 -0.10595528
-0.26612343 -0.23028549 0.00000272
-0.43028947 0.03020795 -0.31683210
-0.46629458 -0.27223071 -0.06299504
-0.13849982 -0.78168773 0.00000107
-0.18836354 -0.73166912 -0.00000105
-0.00087815 0.47640949 0.00000160
-0.48467016 -0.16398795 -0.24273495
-0.00296629 0.61410768 -0.00000116
-0.49377973 -0.20669358 -0.21833828
-0.21021244 -0.68485034 -0.00000112
-0.29199520 0.09504699 0.23491692
-0.68877264 -0.78401974 -0.09280812
-0.43579230 -0.03896550 -0.25100641
-0.02819597 0.73192835 0.00443949
-0.47894860 -0.52276904 -0.00000254
-0.56748413 -0.47958247 -0.10650065
-0.59960312 -0.75088967 -0.00000356
-0.43157845 -0.68423823 0.00000340
-0.05872960 0.45198844 0.00000493
-0.15405625 0.38012361 0.00000055
-0.03418924 0.23515258 0.00000155
-0.31696626 -0.31596108 -0.00000131
-0.52492154 -0.44570770 -0.02537421
-0.19407976 -0.00281070 0.00000246
-0.13005572 0.03542879 0.00000026
-0.57571479 -0.61008653 -0.00000324
-0.09613820 0.51048971 0.00000330
-0.02814129 -0.10693274 0.00000108
-0.02901305 0.72995558 0.00782732
-0.43825532 -0.55037148 0.00000362
-0.24276859 -0.45340556 0.00000226
-0.52762016 -0.47379674 0.04886442
-0.18891854 -0.18289552 0.00000220
-0.11159556 0.13123006 0.00000201
-0.33079585 0.00139215 0.05119100
-0.07547252 -0.56450262 -0.00000016
-0.13168205 0.52758134 -0.05356907
-0.05654850 -0.26676602 0.00000109
-0.08668756 0.59071631 0.04472762
-0.36733692 -0.61420941 -0.00000198
-0.17561103 -0.37833595 0.00000185
-0.23496126 -0.08647866 -0.00000053
-0.09742875 0.56478196 0.06701476
-0.18931130 0.04339364 -0.00000009
-0.42561972 -0.22754329 0.02005021
-0.17543166 0.16595384 0.00000253
-0.03727557 0.65490689 0.00000059
-0.55196675 -0.53396813 0.00000450
-0.17325647 -0.55181721 -0.00000074
-0.55200149 -0.73772825 -0.00000325
-0.03588487 0.05033216 -0.00001004
-0.51944192 -0.45405104 0.01369791
-0.20954688 0.39605086 -0.12005558
-0.37031606 -0.40941635 -0.00000175
-0.42720768 -0.24802912 -0.00000189
-0.21846463 0.36510520 -0.10896610
-0.17016271 -0.31623545 0.00000189
-0.17279503 -0.08294177 0.00000220
-0.36910292 0.08504173 -0.20743593
-0.30373907 -0.71523197 -0.00000173
-0.03465245 -0.42298469 0.00000026
-0.04811478 -0.64962677 0.00000055
-0.03120388 0.23485916 0.00000831
-0.34971403 -0.04430421 0.34430094
-0.04710148 0.24027146 0.00000166
-0.35556650 -0.44780198 0.00000312
-0.07493156 0.52582060 0.00000222
-0.54605593 -0.51831125 0.20572115
-0.00435966 0.27149198 0.00000850
-0.24334631 -0.76323550 0.00000188
-0.61305146 -0.61324653 -0.07863769
-0.04957280 0.11950694 0.00000152
-0.28746735 -0.12044067 -0.00000089
-0.57823873 -0.63668206 -0.00000329
-0.46752611 -0.32871519 0.02903191
-0.00033093 0.04089614 0.00000105
-0.26682291 0.15582047 0.23446217
-0.29802730 0.08049490 0.13654458
-0.30518525 0.05310712 -0.00000186
-0.05205261 -0.24455310 0.00000038
-0.17781979 -0.45993778 0.00000177
-0.17408170 -0.15745859 -0.00000025
-0.25116505 0.12659904 -0.00000221
-0.11250631 0.05600866 0.00000039
-0.20365480 0.04853467 0.00000648
-0.07158076 0.66641129 -0.04619131
-0.01296663 -0.40258535 0.00000059
-0.28561342 0.27455251 -0.19324613
-0.58768645 -0.75037681 -0.00000348
-0.09980241 0.29273956 0.00000593
-0.49560379 -0.39651208 0.32343873
-0.07741788 -0.45652408 -0.00000004
-0.38344738 -0.14394043 0.00000371
-0.25635626 0.18108613 0.26484104
-0.66515783 -0.65256118 -0.18049435
-0.22626316 0.25375307 0.06124315
-0.04525233 0.12543623 -0.00000844
-0.38531866 -0.34331111 0.00000348
-0.13247386 -0.26995900 0.00000166
-0.13118971 0.02267117 0.00000855
-0.16495555 0.27821488 0.00000259
-0.13930745 -0.07342266 0.00000007
-0.49503237 -0.18489333 -0.24757673
-0.18167379 0.29068860 0.00000398
-0.28020627 -0.65753148 -0.00000151
-0.30764670 0.00931969 0.00000333
-0.52522669 -0.27811172 -0.22363884
-0.31355777 0.04298812 0.27850466
-0.28782695 0.10511964 0.02099308
-0.13810155 0.46658829 0.10665253
-0.24948561 0.04784181 -0.00000045
-0.44577150 -0.14398763 -0.15568518
-0.12571369 0.25587266 0.00000227
-0.36750821 0.02827341 -0.13603890
-0.21381597 0.10640293 0.00000275
-0.23529248 0.23194933 0.12780004
-0.32427287 -0.70981778 0.00000256
-0.25738289 -0.31057266 -0.00000094
-0.07601195 0.27993424 0.00000192
-0.15143569 0.39612870 0.00000339
-0.15807449 -0.38226270 -0.00000043
-0.12796378 0.48777373 0.00000258
-0.07316641 0.48518506 0.00000216
-0.66010515 -0.77087881 -0.02677098
-0.01652892 0.06032138 -0.00001045
-0.54333426 -0.32686318 -0.21770666
-0.54746930 -0.27242275 -0.29358518
-0.33063219 -0.39817038 -0.00000149
-0.11791838 0.50877563 0.00000046
-0.48996906 -0.34883119 -0.04009111
-0.17456379 -0.27895123 0.00000197
-0.04200522 0.39713739 0.00000602
-0.23612294 0.22995042 0.05192916
-0.29882303 -0.20619427 -0.00000106
-0.60816608 -0.66825197 0.02985668
-0.40011411 -0.16597984 0.30871943
-0.56137140 -0.31579608 -0.28202939
-0.24917844 0.04946067 -0.00000361
-0.11909257 0.26371619 0.00000061
-0.29670556 0.08997682 -0.00739019
-0.32488228 0.01566090 0.14909235
-0.41821658 -0.67416444 0.00000331
-0.58446720 -0.47960137 -0.15476892
-0.06891417 -0.60466248 0.00000076
-0.04936889 -0.18372064 0.00000047
-0.31420959 0.04142663 0.15130947
-0.45666597 -0.02039760 -0.33222825
-0.04925726 -0.72200606 0.00000047
-0.31541387 -0.66659673 -0.00000174
-0.14555563 0.31135392 0.00000249
-0.53736926 -0.27563438 -0.26108349
-0.27854068 0.24184851 -0.13461591
-0.35979792 -0.71181332 0.00000282
-0.10177742 0.05592174 0.00000184
-0.06188299 -0.57087227 0.00000075
-0.26460967 -0.19904300 0.00000275
-0.06785902 0.08706187 -0.00000843
-0.14635207 0.44667267 0.00676195
-0.16907399 0.39181741 0.07564519
-0.11903464 0.51262176 0.07714995
-0.55916721 -0.54996216 0.13216246
-0.42939186 -0.03960584 -0.23204911
-0.25444722 0.16653928 0.00000378
-0.29530966 0.08705787 0.11015284
-0.35655701 0.06210496 -0.14474217
-0.59950348 -0.42771848 -0.25863232
-0.26775933 -0.70251442 -0.00000149
-0.62882523 -0.61135710 -0.12571503
-0.20580008 0.30315185 0.00370647
-0.07140702 0.46381592 0.00000115
-0.17308070 -0.72397363 -0.00000095
-0.45375830 -0.10065486 -0.22943324
-0.33093456 0.00103557 0.30162206
-0.06352423 0.40263929 0.00000112
-0.01235853 0.61892876 0.00000170
-0.48788823 -0.47234713 -0.00000254
-0.27220250 0.29997043 -0.18504942
-0.29869614 0.11425334 -0.04164353
-0.22269793 0.28850920 -0.03078229
-0.49641300 -0.39845843 0.11253249
-0.37676553 0.03311237 -0.16805648
-0.18025729 0.11203643 0.00000625
-0.06167986 -0.49443379 0.00000085
-0.07674308 0.47991734 0.00000114
-0.32405374 0.01764551 0.34749893
-0.52824207 -0.38585304 -0.10531366
-0.49237250 -0.38870552 0.15262430
-0.46716172 -0.58707590 0.00000379
-0.19248967 0.04310942 0.00000251
-0.32314918 0.01983689 0.17503485
-0.19429580 -0.37481890 -0.00000064
-0.17094306 0.38729843 0.16057537
-0.19668205 -0.60534880 0.00000173
-0.01190741 0.28367363 0.00000817
-0.14438000 0.45143164 0.05246420
-0.37328873 -0.10121730 0.35016512
-0.66432496 -0.66877320 -0.15903136
-0.21877614 0.10030709 0.00000278
-0.09924808 -0.67037152 -0.00000044
-0.44712068 -0.61617428 -0.00000247
-0.08545800 0.00072434 0.00000165
-0.11317919 -0.70499820 -0.00000056
-0.34825944 -0.23666437 -0.00000140
-0.58427301 -0.52921022 -0.09578673
-0.25661418 0.02073304 -0.00000389
-0.20658250 0.30126089 0.12466926
-0.07023940 0.02999487 0.00000061
-0.15516986 0.42537890 0.13303629
-0.30854173 0.05510397 0.14400831
-0.31428792 0.04124329 0.07819707
-0.31410745 0.04166215 0.29140436
-0.08017754 0.56644441 0.00000033
-0.49416001 -0.78362327 -0.00000296
-0.30424110 -0.58470370 0.00000256
-0.67117631 -0.82037106 0.13923934
-0.24627957 0.20542827 0.07867294
-0.24400947 0.21089606 0.22023086
-0.39523830 -0.34706760 0.00000355
-0.01784416 0.29869083 0.00000151
-0.16144046 0.15567741 0.00000241
-0.00021099 -0.19087142 0.00000076
-0.31477149 -0.36840911 -0.00000136
-0.58913566 -0.44615314 -0.20743927
-0.04295462 0.57476492 -0.00000065
-0.17077618 0.05322975 0.00000235
-0.00913019 0.77795759 0.00167172
-0.02697642 -0.76180733 -0.00000012
-0.24054364 0.16397706 0.00000302
-0.61321119 -0.68567376 0.00000477
-0.09417505 -0.24469950 0.00000140
-0.41351082 -0.19831741 0.19383251
-0.44733958 -0.27999000 0.24559657
-0.52147235 -0.26966395 -0.22291347
-0.25616804 0.14527243 -0.00000173
-0.13500616 -0.78033748 -0.00000079
-0.22770897 0.25025490 0.09141147
-0.39437597 -0.19507886 -0.00000162
-0.20053465 -0.53932714 0.00000184
-0.01424241 0.20644310 0.00000117
-0.42722354 0.02585778 -0.30299133
-0.60840450 -0.48583788 -0.21548806
-0.10979354 0.23049366 0.00000063
-0.10821530 0.51932533 0.00000247
-0.11579471 0.17770510 0.00000052
-0.59187476 -0.75683636 0.00000452
-0.32378195 -0.39957467 0.00000294
-0.35161532 -0.52827997 0.00000299
-0.10955171 0.15448076 0.00000742
-0.37984743 -0.43550353 0.00000332
-0.45461773 -0.29755752 0.16539975
-0.52496878 -0.46740251 0.20194487
-0.30285500 -0.00815097 0.00000327
-0.31745275 0.03359476 0.17983123
-0.48668709 -0.37497865 0.13023371
-0.62981121 -0.72050937 0.17135889
-0.18589380 -0.07997114 -0.00000022
-0.19366964 0.01047463 -0.00000597
-0.28801242 0.15826393 -0.06309541
-0.30601343 0.15226670 -0.10721786
-0.26546510 -0.32404171 0.00000260
-0.25922717 -0.66479159 0.00000212
-0.34885880 -0.04223563 0.25750415
-0.26244299 0.04384942 0.00000303
-0.53711093 -0.45373747 -0.05057657
-0.08680717 0.59042450 0.07510606
-0.40907826 -0.18761568 0.18206089
-0.35672822 0.10093885 -0.19096975
-0.45285095 -0.41102623 -0.00000225
-0.04928255 0.70462830 -0.02780034
-0.58199316 -0.73683901 0.00000447
-0.30101348 0.07327588 0.21115373
-0.60586072 -0.66268921 0.18294128
-0.16343446 0.46196964 -0.06657884
-0.07599997 0.61651540 0.07801661
-0.04950400 -0.54366289 0.00000069
-0.15076733 0.02608403 0.00000803
-0.13812008 -0.46286016 -0.00000041
-0.52121847 -0.45834982 0.23803566
-0.04629089 -0.27652698 0.00000100
-0.36597603 -0.15960778 -0.00000141
-0.62197430 -0.70129345 -0.00030640
-0.00487111 -0.65667559 0.00000015
-0.28223040 -0.11733959 0.00000298
-0.65300062 -0.77649175 0.00849033
-0.37014233 -0.09666513 0.00000367
-0.37929007 -0.29356005 0.00000349
-0.54681966 -0.46954320 -0.05956665
-0.09432208 -0.12535411 0.00000027
-0.12668842 0.04027765 0.00000844
-0.51790866 -0.65869236 0.00000408
-0.46609174 -0.72736422 0.00000361
-0.11457594 -0.41944727 0.00000134
-0.37240887 -0.09908826 0.28808831
-0.43316540 -0.24576163 0.05070732
-0.00437228 -0.32487055 0.00000057
-0.22879304 -0.24252435 -0.00000068
-0.31217268 0.13053934 -0.09914532
-0.48729104 -0.37643815 0.16220654
-0.03732809 0.66401682 0.00000160
-0.49446151 -0.75756104 0.00000378
-0.53654348 -0.44758920 -0.05620458
-0.14222062 0.44071599 0.00000262
-0.08942971 -0.45336153 -0.00000011
-0.09569018 -0.27287673 0.00000008
-0.55298445 -0.67264752 0.00000433
-0.67343683 -0.82582827 0.08602409
-0.46402516 -0.27219473 -0.05658442
-0.30687438 0.15345150 -0.11106151
-0.47807331 -0.47068929 0.00000402
-0.50046450 -0.28860485 -0.14086983
-0.43733343 -0.52407164 0.00000364
-0.16392191 0.02805620 -0.00000656
-0.53029621 -0.67731029 -0.00000305
-0.27092776 0.01193517 0.00000306
-0.37148331 -0.09685119 0.14264190
-0.52567736 -0.52629793 0.00000431
-0.46349595 -0.16503976 -0.18128831
-0.07517842 -0.12176754 0.00000039
-0.09717161 0.54267184 0.00000241
-0.37201595 0.09366520 -0.22587345
-0.02410352 0.02861452 0.00001106
-0.04758493 0.23786573 0.00000166
-0.23632495 -0.76388063 -0.00000138
-0.14711372 -0.12015425 0.00000196
-0.38325197 -0.12527469 0.39543571
-0.42415872 -0.71499359 -0.00000245
-0.13024309 0.33035529 0.00000063
-0.03968287 0.63714813 0.00000035
-0.35217113 -0.05022461 0.21309273
-0.52787055 -0.47440897 0.25566671
-0.52636053 -0.57578734 -0.00000290
-0.00010582 -0.08499870 0.00000089
-0.12000483 0.02127965 0.00000884
-0.54589894 -0.62988318 0.00000433
-0.15466134 0.42660972 0.06272755
-0.04954146 0.46186275 0.00000195
-0.58772089 -0.52292724 -0.11299082
-0.18329224 0.35749276 0.06443379
-0.57189706 -0.42725730 -0.18067796
-0.50207108 -0.29010661 -0.14366926
-0.07622799 0.48547518 0.00000115
-0.12606003 0.49565914 0.07621892
-0.18673608 0.18208211 -0.00000318
-0.55943871 -0.66606865 -0.00000321
-0.03741816 0.08475960 0.00000088
-0.21907779 0.27109575 0.11385195
-0.41851356 0.01751814 -0.26840024
-0.30431072 0.07436978 -0.01062479
-0.20853768 0.04637181 0.00000639
-0.00286018 -0.26429798 0.00000065
-0.31959964 0.17099650 -0.16791159
-0.00804428 0.18946500 -0.00000844
-0.22325764 -0.72821028 0.00000177
-0.43251333 -0.24419815 0.29208662
-0.06696738 0.59324065 0.00000225
-0.26968280 0.17086710 -0.02581944
-0.25558754 -0.35700078 0.00000248
-0.29912641 0.13992148 -0.07309929
-0.66041629 -0.68129267 -0.13317161
-0.34225206 -0.55820645 0.00000288
-0.12392745 0.48625331 0.00000025
-0.11880222 0.05090778 0.00000035
-0.37664715 -0.10931456 0.06852165
-0.50711097 -0.71132760 0.00000394
-0.32466717 -0.64502302 -0.00000177
-0.29233679 0.24396620 -0.17633873
-0.46919911 -0.16223944 -0.20080321
-0.01247513 0.68520400 0.00000178
-0.65021232 -0.76975999 0.00461985
-0.48469390 -0.75704936 -0.00000287
-0.12663168 0.49428564 0.01921806
-0.49493374 -0.23266357 -0.19103182
-0.01328735 -0.17034678 0.00000089
-0.44166616 -0.25039373 -0.01868522
-0.00953514 -0.74839841 0.00000014
-0.32019788 -0.15004184 -0.00000112
-0.29345488 0.09153917 0.06588642
-0.45916231 -0.53710617 0.00000379
-0.02489409 -0.68279314 0.00000033
-0.35642133 -0.48015894 0.00000309
-0.48238750 -0.61743376 -0.00000268
-0.20244391 0.31124918 0.16333287
-0.67094990 -0.73245016 -0.10286939
-0.26551144 0.15899136 0.17436569
-0.29072066 -0.33941784 0.00000277
-0.20429040 0.04379276 0.00000652
-0.32160787 0.02356901 0.11036142
-0.06824538 0.30785215 -0.00000455
-0.24445161 0.28053176 -0.08324312
-0.42446321 -0.09065460 -0.15791253
-0.25682801 -0.35514760 -0.00000099
-0.06469727 -0.43572071 0.00000006
-0.53956956 -0.47460965 -0.03298402
-0.02734229 0.70926234 0.00000172
-0.21146474 0.31484610 -0.02986635
-0.14755883 0.44376408 0.01232195
-0.10481991 -0.61585490 -0.00000040
-0.53434531 -0.30563233 -0.21715302
-0.60647525 -0.75850658 0.00000463
-0.49589232 -0.33217462 -0.07655194
-0.65764685 -0.68711927 -0.11843418
-0.17694795 -0.27199404 0.00000199
-0.20208979 0.29450768 0.00000344
-0.06887644 -0.07432048 0.00000143
-0.47252281 -0.36217268 0.00000411
-0.12611763 0.52997602 -0.04056914
-0.47265212 -0.34109961 0.23240662
-0.15503503 0.34934530 0.00000261
-0.28262600 0.09836239 -0.00000175
-0.07455114 0.62001539 0.05154375
-0.12729769 0.56890018 -0.08976968
-0.33269832 -0.05622131 -0.00000108
-0.38165492 -0.12140743 0.13490240
-0.02567535 0.01767981 0.00001116
-0.09544646 -0.74786849 0.00000079
-0.30511271 0.06339352 0.08402634
-0.35198438 -0.64314057 0.00000285
-0.27622816 0.13311174 0.24517234
-0.26932052 0.17860380 -0.03390200
-0.12375094 0.57867435 -0.09119720
-0.31297516 0.04441240 0.08006798
-0.14607889 0.11350243 0.00000026
-0.54368300 -0.69068671 0.00000424
-0.16662699 0.48498176 -0.10276067
-0.13192566 0.07339065 -0.00000673
-0.16958698 0.41138331 -0.02448806
-0.47258532 -0.26041326 -0.09480119
-0.34609197 -0.03555750 0.29391186
-0.06149936 0.50106087 0.00000425
-0.34673456 -0.03710920 0.30173336
-0.19775023 -0.73848206 0.00000157
-0.08073722 -0.27629821 0.00000017
-0.32431600 -0.26576442 -0.00000129
-0.05778740 0.66048659 0.03447926
-0.33401156 -0.00638044 0.02028509
-0.08317075 -0.17186026 0.00000141
-0.44030567 -0.66737961 0.00000349
-0.11061841 0.38117432 0.00000081
-0.37716712 -0.11058372 0.37843065
-0.00361336 -0.45471005 0.00000046
-0.06062635 -0.51559670 0.00000081
-0.01215926 -0.24543401 0.00000078
-0.66803049 -0.80080322 -0.01406092
-0.17839882 -0.32505504 -0.00000048
-0.41215920 -0.47592827 -0.00000208
-0.07761545 -0.04728826 0.00000153
-0.34222571 0.08653945 -0.13277593
-0.05571028 -0.16245762 0.00000046
-0.52686456 -0.23605685 -0.27782888
-0.62506917 -0.68920631 -0.02334293
-0.24913842 -0.60335405 0.00000213
-0.04128125 -0.01131300 0.00000074
-0.14629418 0.02553896 0.00000214
-0.57234495 -0.69994973 0.00000444
-0.38596007 -0.74105155 0.00000299
-0.03437289 -0.36517404 0.00000034
-0.22217680 -0.57962388 -0.00000107
-0.57283304 -0.58295326 0.10266551
-0.34341837 -0.47766251 -0.00000167
-0.33892434 -0.51932503 0.00000291
-0.30360626 0.06701852 0.16192280
-0.28835570 -0.38881200 -0.00000123
-0.35436148 -0.05552148 0.28309042
-0.64201203 -0.56999122 -0.21193247
-0.51578651 -0.44522601 0.01272903
-0.25548480 -0.36000252 -0.00000099
-0.28408617 0.11414188 0.21903139
-0.30849381 0.07906327 -0.02804777
-0.01793889 0.76573766 -0.01065167
-0.09435218 0.53798151 0.00000238
-0.11603857 0.58808391 -0.08034976
-0.11853850 0.52534554 -0.01356160
-0.30983772 -0.40504844 0.00000283
-0.03394838 -0.25430134 0.00000094
-0.42352535 -0.05737388 -0.19444429
-0.35905229 -0.47499525 -0.00000176
-0.14002668 -0.11020679 0.00000192
-0.28080015 0.12207657 0.18552826
-0.15078952 -0.15731916 -0.00000011
-0.46184511 -0.38456466 -0.00000227
-0.19368200 0.33239951 0.18583076
-0.03817320 0.18877899 -0.00000754
-0.32141213 0.02402512 0.31862327
-0.50322884 -0.32226305 -0.10908697
-0.30660935 0.05977392 0.03791213
-0.66897310 -0.74407707 -0.08355409
-0.17403042 0.37984513 0.13494321
-0.33355951 -0.00529471 0.14634644
-0.33133641 0.11698222 -0.13766866
-0.15854252 -0.21573880 0.00000193
-0.43967465 -0.32249099 -0.00000206
-0.07770989 0.29842856 0.00000196
-0.02520750 0.75547286 -0.01922958
-0.27763237 0.12973557 0.09275633
-0.29606045 0.06873419 -0.00000070
-0.39430093 -0.15194483 0.29364961
-0.47762650 -0.48732246 -0.00000249
-0.11718181 0.25643240 0.00000220
-0.08247578 0.63822201 -0.04396864
-0.40155936 -0.16946278 0.16930693
-0.37546288 -0.46881716 0.00000325
-0.22857128 -0.21651666 0.00000245
-0.01099114 -0.13308318 0.00000077
-0.27288305 0.14119008 0.23536476
-0.19026172 0.24597678 0.00000274
-0.37573417 -0.10710968 0.05194999
-0.24969340 0.19717914 0.17372936
-0.07954430 0.30572117 -0.00000425
-0.38223854 -0.29545734 0.00000351
-0.37166657 -0.09729724 0.22379922
-0.17513015 0.19088975 0.00000539
-0.40214389 -0.01199920 -0.18709010
-0.13332003 0.50013412 -0.02590062
-0.13710095 -0.47330603 0.00000144
-0.00833005 0.43672133 -0.00000411
-0.61481736 -0.70162640 0.00000476
-0.17628731 0.21387413 -0.00000294
-0.04643128 -0.44184761 0.00000080
-0.13500034 0.38478456 0.00000067
-0.35591814 0.00743214 -0.07852881
-0.17094097 -0.77961059 -0.00000101
-0.46733417 -0.41860103 0.00000400
-0.29946411 -0.50272443 0.00000263
-0.46353225 -0.31908240 0.23706214
-0.13897445 0.00764279 0.00000206
-0.32069570 0.02577015 0.12300541
-0.29820513 0.14453052 -0.07590266
-0.13824357 -0.14429195 0.00000186
-0.18352280 0.39420164 -0.04387738
-0.02387789 0.75413605 -0.01387439
-0.15032904 0.43706650 0.13607712
-0.24415252 -0.08731872 0.00000273
-0.27277679 0.17132250 -0.03515366
-0.29063221 -0.29974175 -0.00000113
-0.44924632 -0.28459311 0.24138860
-0.22811506 0.22519233 0.00000368
-0.24886232 0.32043046 -0.14278190
-0.09705094 0.59206472 -0.03104842
-0.25452878 0.18551555 0.04789451
-0.36501612 -0.02823429 -0.06239716
-0.40120006 0.07960778 -0.29230238
-0.28961022 0.10081188 0.07754214
-0.64224394 -0.75052386 0.10550827
-0.08696601 0.28004474 0.00000201
-0.35683551 0.00398923 -0.07708933
-0.16437163 -0.74122000 -0.00000092
-0.03674497 0.71128843 0.02859860
-0.60130775 -0.65169443 0.03037570
-0.35318191 -0.05267003 0.19997729
-0.42056928 -0.21535840 0.19972031
-0.44147928 -0.26583773 0.15211854
-0.56449475 -0.56752774 0.00000455
-0.10758982 0.04533877 0.00000187
-0.52381281 -0.76580053 0.00000399
-0.34377353 -0.40816718 -0.00000159
-0.46367168 -0.12640992 -0.22728674
-0.11528695 -0.40478498 0.00000136
-0.24449309 0.24392751 -0.04025193
-0.38482932 -0.30622853 0.00000352
-0.13333836 0.18671232 0.00000224
-0.14584652 -0.79020707 -0.00000087
-0.28519629 0.11146806 0.07888507
-0.58715076 -0.61752049 0.17630392
-0.63172099 -0.63076008 -0.11109586
-0.27275466 0.14150531 0.16859550
-0.40937723 0.05123210 -0.28213107
-0.25257224 -0.43411983 -0.00000107
-0.40169065 -0.40722935 0.00000352
-0.17431747 -0.33217469 0.00000190
-0.44081042 -0.14146038 -0.14455524
-0.22375184 0.25980690 0.12305449
-0.41082208 0.03636910 -0.26873306
-0.06665122 0.11986513 0.00000165
-0.17841065 0.36927165 0.10395279
-0.33975124 -0.02024902 0.28227617
-0.52603230 -0.46996639 0.11855381
-0.14706984 0.18623853 -0.00000430
-0.20341471 -0.00771342 0.00000252
-0.11200073 0.52960459 0.05642734
-0.01276207 0.39557846 0.00000675
-0.25830460 -0.49912259 0.00000232
-0.45232321 -0.36149891 -0.00000218
-0.07715084 0.14216864 0.00000836
-0.15682768 0.28309083 0.00000254
-0.52203063 -0.41327947 -0.05534850
-0.61455479 -0.47553084 -0.24511592
-0.22199146 -0.03497091 -0.00000038
-0.08690249 0.59019581 0.04272859
-0.47449582 -0.43925577 -0.00000241
-0.31715354 -0.40352546 0.00000289
-0.08644159 0.00148745 0.00000165
-0.34105644 0.15226894 -0.20686831
-0.10470663 -0.16262446 0.00000159
-0.27118246 0.29671657 -0.17831756
-0.31758679 0.03327585 0.12049942
-0.20783956 -0.32668470 -0.00000066
-0.02140409 0.01015178 0.00000088
-0.32800466 -0.41850058 -0.00000150
-0.28743402 0.13470784 -0.03371185
-0.15746818 0.04222428 -0.00000651
-0.10805338 -0.60221322 0.00000106
-0.05840082 0.15603706 0.00000084
-0.14558217 -0.44341148 -0.00000043
-0.46442369 -0.32123854 0.32956937
-0.22129020 0.26574689 0.21133708
-0.22762078 -0.14099028 -0.00000055
-0.01072742 -0.45842363 0.00000051
-0.40783684 0.06855747 -0.29815771
-0.32238646 0.07792409 -0.06621006
-0.43825017 -0.63556264 0.00000351
-0.48545425 -0.79987968 0.00000366
-0.18725087 0.11998479 0.00000002
-0.49589043 -0.41250121 0.00000423
-0.47833494 -0.16182299 -0.22727099
-0.14924592 0.02431445 0.00000013
-0.05020577 0.41383467 -0.00000324
-0.00989429 0.62022519 0.00000172
-0.11094071 0.45966800 0.00000358
-0.52813349 -0.47245941 -0.00299868
-0.21715491 0.10906222 -0.00000354
-0.59473032 -0.61754327 -0.02148166
-0.34254477 0.06427213 -0.10745065
-0.34416564 -0.05906348 0.00000352
-0.42413406 -0.22397260 0.37982823
-0.09627133 -0.26496437 0.00000140
-0.02169061 0.74652538 0.00000180
-0.20977003 -0.73667879 -0.00000119
-0.46638170 -0.14348443 -0.21488196
-0.54119995 -0.67789137 0.00000424
-0.56517058 -0.59421810 0.00000452
-0.20221266 -0.22277339 -0.00000050
-0.36337110 -0.07727219 0.27037581
-0.05513099 -0.11321317 0.00000053
-0.14908361 0.44007562 0.06247109
-0.20632834 0.10748424 0.00000568
-0.02829729 -0.13909587 0.00000066
-0.39847490 -0.16201621 0.16976333
-0.09177047 0.10514548 0.00000847
-0.35552482 0.16851138 -0.26713901
-0.07884577 0.40365088 0.00000210
-0.24763147 -0.51958803 0.00000222
-0.11171614 0.53029065 0.06898590
-0.15458589 0.21952904 -0.00000349
-0.30764650 -0.78907100 -0.00000184
-0.42131842 -0.12678588 -0.10641454
-0.12514084 -0.29535524 0.00000157
-0.28015630 -0.16449817 -0.00000090
-0.63842035 -0.74129309 0.06904182
-0.41677711 0.00821040 -0.25249944
-0.39238105 -0.14731483 0.40649555
-0.61008677 -0.49256592 -0.21234713
-0.65981626 -0.79049912 -0.00284044
-0.26100598 -0.49286243 -0.00000119
-0.12160544 -0.66204243 -0.00000056
-0.10889378 0.45324757 -0.00000078
-0.25283457 0.18960281 0.08455153
-0.07563808 0.63219664 -0.01742845
-0.59271606 -0.63095550 0.10543309
-0.02981205 0.05164748 -0.00001020
-0.17210720 -0.64115763 0.00000150
-0.04552321 -0.46849545 0.00000014
-0.00475662 0.47509477 0.00000163
-0.43872698 -0.08860701 -0.20088252
-0.35506359 -0.12011079 -0.00000129
-0.29370611 0.20743422 -0.13720442
-0.00748218 0.27287214 0.00000130
-0.17777742 0.14315436 -0.00000413
-0.34296893 -0.02802056 0.35651320
-0.49527218 -0.39571153 0.29390356
-0.28060816 -0.65910524 -0.00000152
-0.57937985 -0.59875727 0.06964273
-0.45443446 -0.13001651 -0.19677327
-0.45310901 -0.29391739 0.21596042
-0.07784164 0.21996194 0.00000081
-0.28171968 0.11986840 0.08798445
-0.34575393 -0.70167145 0.00000273
-0.16215914 -0.77772031 -0.00000095
-0.13191787 0.29991332 0.00000237
-0.01226067 -0.69949181 0.00000022
-0.13590289 0.47189604 0.10968864
-0.58382467 -0.46183777 -0.17386415
-0.52193250 -0.46006965 0.14332445
-0.25627291 0.04184114 -0.00000049
-0.60719701 -0.61789002 -0.05652166
-0.25002849 -0.21136232 0.00000262
-0.19346515 0.33292677 0.10190240
-0.23956490 0.12942990 -0.00000251
-0.33560878 0.19386184 -0.24036687
-0.08817167 0.27869216 0.00000201
-0.06780494 0.07332519 -0.00000867
-0.22349427 -0.25578213 -0.00000067
-0.04676225 -0.58158515 -0.00000001
-0.33615370 -0.15507718 0.00000334
-0.55481362 -0.53945160 0.13175295
-0.15836420 0.41766863 0.09698264
-0.67839777 -0.79918015 -0.04545147
-0.41144068 -0.19331196 0.02225590
-0.02443604 -0.02041895 0.00000116
-0.20021918 -0.00962446 -0.00000022
-0.21209397 -0.62655561 -0.00000106
-0.66227170 -0.79887396 0.11408524
-0.08543711 0.30619248 0.00000611
-0.39064891 0.00630145 -0.17595944
-0.05886458 0.50837496 0.00000208
-0.16307653 0.43333511 -0.03183151
-0.31053905 0.20876793 -0.18663892
-0.02763092 0.52976796 0.00000150
-0.13801344 0.25949825 0.00000542
-0.28687046 -0.53984059 0.00000249
-0.09534647 -0.48871254 0.00000111
-0.49016276 -0.38336729 0.07571021
-0.42632664 -0.17966297 -0.05837574
-0.43966681 -0.72828588 0.00000341
-0.51601089 -0.66549652 -0.00000295
-0.58563109 -0.61385174 0.13416268
-0.05938451 0.00509150 0.00001050
-0.41778401 -0.20862757 0.05312637
-0.30571911 0.06192133 0.07893053
-0.43245030 -0.42709841 -0.00000214
-0.25807704 -0.75096838 0.00000201
-0.08706348 0.44022109 0.00000102
-0.02473742 -0.55422640 0.00000016
-0.24817746 0.20083549 0.21718777
-0.27108704 -0.54010766 -0.00000131
-0.16863773 -0.27826464 0.00000192
-0.60149995 -0.60468039 -0.05588084
-0.36608255 -0.08381458 0.18841646
-0.35120013 -0.04788694 0.23076187
-0.32590744 0.01318358 0.04638054
-0.15002473 0.26751862 0.00000043
-0.37155431 -0.51788638 -0.00000189
-0.35427265 -0.05529560 0.02694277
-0.36480960 0.14848533 -0.26995285
-0.15897855 0.35734660 0.00000370
-0.05862003 -0.64987610 -0.00000017
-0.04291231 -0.78816394 -0.00000024
-0.11730218 0.26868085 -0.00000376
-0.28972069 0.28489465 -0.21710609
-0.22937377 0.31362915 -0.07935647
-0.32877964 0.08856095 -0.09691791
-0.48200701 -0.25376851 -0.12941760
-0.34620294 -0.03581395 0.18386738
-0.40066429 -0.03145950 -0.15995680
-0.34807436 -0.56428543 -0.00000181
-0.49508453 -0.39524691 0.01681028
-0.03100275 -0.26978556 0.00000048
-0.36892805 0.00673198 -0.11469811
-0.16620363 0.20448282 0.00000251
-0.14191153 -0.77436212 0.00000110
-0.34677416 -0.03719382 0.05522897
-0.43920033 -0.26033567 0.14812748
-0.41737828 -0.20260204 -0.00591357
-0.33761711 -0.01508322 0.14686504
-0.44739159 -0.72970771 0.00000346
-0.21294065 0.25313720 0.00000370
-0.36566732 -0.55643584 -0.00000190
-0.21913127 0.34366224 -0.08560277
-0.26505456 -0.57379642 0.00000228
-0.58093883 -0.51689957 -0.10080581
-0.26080855 -0.38011729 -0.00000105
-0.27560528 0.02099863 -0.00000332
-0.17313326 0.14281055 0.00000248
-0.03995174 -0.39524819 0.00000081
-0.42695491 -0.52513956 -0.00000223
-0.09089108 -0.69327077 0.00000082
-0.43106175 -0.24069770 0.38122056
-0.01144051 0.54708917 0.00000489
-0.23032843 0.37625780 -0.15583593
-0.38857404 -0.13811866 0.28998415
-0.29918409 0.02286014 -0.00000078
-0.56417531 -0.56768988 0.00000455
-0.31110885 0.17869157 -0.15283149
-0.67988775 -0.72040283 -0.14247328
-0.57946609 -0.42017455 -0.21054227
-0.00635302 0.70235604 0.00000193
-0.07211440 0.62589610 0.07740110
-0.61037613 -0.47762747 -0.23076465
-0.57396055 -0.77610579 -0.00000343
-0.00136498 -0.36308098 0.00000054
-0.45558050 -0.02615064 -0.32236670
-0.54579408 -0.41050360 -0.12618816
-0.11283453 0.08551750 0.00000821
-0.08761107 -0.72615899 -0.00000044
-0.29698420 0.08301047 0.05419889
-0.04046080 0.43353031 -0.00000319
-0.18647997 -0.11848036 0.00000226
-0.02994191 -0.58699817 0.00000009
-0.32308598 -0.72278616 0.00000253
-0.15057024 0.47863249 -0.04962337
-0.05762606 0.56451338 -0.00000038
-0.38061770 -0.11891270 0.37405724
-0.24633643 0.14981804 -0.00000194
-0.28010164 0.12376166 0.25294516
-0.59168044 -0.62845226 0.03796358
-0.01203373 -0.31197440 0.00000070
-0.22414239 0.05563742 -0.00000028
-0.52359621 -0.20150840 -0.30922714
-0.58643309 -0.61578514 0.06403886
-0.42326966 -0.56964835 0.00000348
-0.11232135 -0.57801731 0.00000112
-0.25969438 -0.72492481 0.00000205
-0.31145329 0.04807776 0.07807078
-0.35673401 -0.17741251 -0.00000137
-0.41270911 -0.19638019 0.15574730
-0.17108163 -0.32322210 0.00000189
-0.10054486 -0.42555066 0.00000123
-0.26958221 0.01097605 0.00000305
-0.36516597 -0.08160753 0.35156806
-0.14869491 0.44101216 0.10476558
-0.29150870 -0.07333136 0.00000311
-0.30158957 0.14934759 -0.09120020
-0.03565178 -0.48734384 0.00000066
-0.26277106 0.16561477 0.07796825
-0.24931750 0.19807915 0.26867920
-0.22267946 0.26239223 0.20449054
-0.59146769 -0.42777414 -0.23571736
-0.31730106 0.22090312 -0.22015937
-0.68532206 -0.77038709 -0.09905330
-0.52412525 -0.18924296 -0.32517785
-0.64210671 -0.64534901 -0.12344413
-0.34976910 -0.10907510 0.00000350
-0.49076213 -0.23943293 -0.17119700
-0.19107716 0.34884223 -0.01193152
-0.30413496 0.16471505 -0.11654308
-0.62241087 -0.57615245 -0.14894067
-0.39654243 -0.52098862 -0.00000204
-0.41335248 -0.08347134 -0.13478026
-0.11105458 0.06084848 -0.00000758
-0.03866572 0.57091017 0.00000148
-0.56505472 -0.47984692 -0.09928128
-0.07545114 0.61784076 0.06945255
-0.17824677 0.41851815 -0.05751911
-0.33918495 0.06336934 -0.09683960
-0.09664056 0.56668556 0.05034076
-0.30025184 -0.13761147 -0.00000098
-0.29293356 0.22802600 -0.15926100
-0.05784167 0.49618506 0.00000440
-0.17261034 0.15916490 0.00000250
-0.35355287 -0.05356948 0.28666102
-0.29026958 -0.30798983 -0.00000114
-0.01974614 -0.48982473 0.00000027
-0.42993606 0.03583806 -0.32245918
-0.32498872 -0.06164738 0.00000337
-0.20814526 -0.10844120 -0.00000039
-0.22879813 0.24736750 -0.00000077
-0.11777209 -0.37411345 0.00000142
-0.09751137 -0.58018279 -0.00000031
-0.36661010 -0.08508440 0.23082018
-0.32745824 0.00685794 0.00000401
-0.13906070 -0.51749159 -0.00000049
-0.15179886 0.43351643 0.15693552
-0.13332437 0.07700558 0.00000029
-0.17113133 -0.58794954 0.00000156
-0.06355913 -0.75917928 0.00000053
-0.07438650 0.11592799 0.00000171
-0.14845288 -0.45127688 0.00000156
-0.13211516 -0.48225500 0.00000139
-0.37346684 0.14508201 -0.29056081
-0.44722597 -0.00894972 -0.31886934
-0.03781868 0.48578136 0.00000501
-0.62379969 -0.64734615 -0.06903673
-0.34598467 0.12982092 -0.19443914
-0.04392371 0.63207534 0.00000212
-0.20516031 0.30469312 0.07703266
-0.18423808 -0.01553399 -0.00000013
-0.35811388 0.15680502 -0.26071295
-0.60569155 -0.66228077 0.12776230
-0.33949404 -0.01961161 0.11060377
-0.09558745 0.46621531 0.00000230
-0.61077551 -0.67455423 0.09309981
-0.22673057 0.15584911 0.00000458
-0.65864896 -0.79012809 0.07287542
-0.35859103 -0.06572725 0.26124346
-0.38341279 -0.00416993 -0.14304494
-0.59159022 -0.51377096 -0.13477746
-0.39161039 -0.37755980 0.00000348
-0.12753913 -0.20278398 0.00000171
-0.26062770 0.07550246 -0.00000281
-0.07938235 -0.42793213 0.00000106
-0.17788285 0.12127045 0.00000008
-0.42982768 -0.41023232 0.00000373
-0.12923581 0.42705703 -0.00000063
-0.60069200 -0.52928781 -0.14238195
-0.24186711 0.21608698 0.00028874
-0.24633023 0.24079462 -0.04178577
-0.33505624 -0.00054646 -0.00980984
-0.53934567 -0.43403600 -0.08013563
-0.38052510 -0.11868684 0.29352577
-0.55269907 -0.36264366 -0.20219229
-0.35394292 -0.05451453 0.37149552
-0.33177118 -0.00097832 0.16937560
-0.03274078 0.54015266 0.00000192
-0.48289445 -0.36015279 -0.00664004
-0.24301329 0.25715632 -0.05162033
-0.21893390 0.20686943 0.00000413
-0.23862999 0.36641764 -0.16785113
-0.21883690 -0.59689885 0.00000190
-0.12326239 -0.59685147 -0.00000049
-0.30118481 -0.54209126 0.00000259
-0.05163746 0.47057127 0.00000487
-0.30763255 0.05731403 0.03472530
-0.27518412 -0.23117364 -0.00000095
-0.33881392 0.00465245 -0.02662699
-0.42883732 -0.54116699 0.00000356
-0.27813784 0.19308372 -0.07603459
-0.50777667 -0.67165053 -0.00000290
-0.08997830 -0.68276829 0.00000083
-0.17982999 0.16121930 0.00000012
-0.38660097 -0.03776825 -0.11254341
-0.45832804 -0.38600985 -0.00000225
-0.47590981 -0.31406950 -0.04105712
-0.43570450 -0.25189719 0.17600362
-0.13993532 -0.57172774 -0.00000056
-0.02023616 0.58073089 0.00000425
-0.21683572 0.22228988 0.00000399
-0.42320051 -0.22171559 0.30785303
-0.17424793 0.03375912 -0.00000615
-0.54060844 -0.79230318 -0.00000325
-0.55691777 -0.37731227 -0.19691105
-0.00295101 0.26034644 0.00000867
-0.54125355 -0.35928515 -0.17360320
-0.20111337 0.09965601 0.00000264
-0.55974625 -0.55136181 0.22872475
-0.28406581 0.25052042 -0.16053803
-0.04710354 0.68628097 0.00980334
-0.04274040 0.42275114 0.00000127
-0.58171035 -0.60438652 0.21281485
-0.00859655 0.37944546 0.00000154
-0.59980799 -0.74125253 -0.00000355
-0.03535679 -0.73393711 -0.00000013
-0.02717466 -0.27894540 0.00000049
-0.52738744 -0.47324102 0.18658250
-0.20491923 0.30527586 0.06118517
-0.26180521 -0.25018751 0.00000266
-0.14398541 0.06075895 0.00000021
-0.17227984 -0.26537135 -0.00000037
-0.03354172 0.26361422 0.00000158
-0.39860764 -0.74399721 0.00000308
-0.20600373 0.30266030 0.00107969
-0.45017257 -0.00007979 -0.33769557
-0.38069385 -0.11908850 0.16480129
-0.45952344 -0.00719143 -0.35590850
-0.17607382 -0.18266152 -0.00000029
-0.40663072 -0.18171011 0.25714581
-0.42154598 0.00923805 -0.26727252
-0.28876751 0.10283658 0.29733807
-0.05851745 0.24993892 0.00000746
-0.07049542 0.59172192 0.00000131
-0.30643174 -0.60854287 -0.00000161
-0.05161942 0.47397037 -0.00000215
-0.22848932 -0.48712187 0.00000211
-0.31227785 0.04607682 0.30782217
-0.23764739 0.02262413 0.00000598
-0.32285217 -0.68151173 0.00000258
-0.46335217 -0.23002792 -0.10433547
-0.21086070 0.29093344 0.02419292
-0.19307980 0.42903345 -0.11207978
-0.01936826 0.32789697 0.00000743
-0.07357268 0.64998511 -0.03250861
-0.16602514 0.39917744 0.00606984
-0.59333315 -0.47008052 -0.19119263
-0.23070702 0.24301723 0.15650462
-0.60799921 -0.69393900 -0.00000354
-0.08443266 -0.40332901 -0.00000001
-0.60860912 -0.66932279 0.05737283
-0.10256695 -0.35982902 0.00000132
-0.02799081 -0.53040013 0.00000055
-0.47791543 -0.35380232 0.13998317
-0.02725207 0.74533265 -0.01309963
-0.20306016 -0.66632911 -0.00000106
-0.26722773 0.11837668 -0.00000046
-0.50610836 -0.42187174 0.30421020
-0.35322605 -0.71852317 -0.00000203
-0.21147436 -0.42524821 -0.00000081
-0.21497169 0.05631412 -0.00000453
-0.32032759 0.02665019 0.23274506
-0.34508292 0.02973192 -0.07399153
-0.42086610 -0.55966318 -0.00000224
-0.53573193 -0.46470081 -0.03374267
-0.34530871 -0.03366583 0.31952394
-0.56258032 -0.76536774 0.00000429
-0.05603127 -0.68877443 -0.00000020
-0.13577016 0.47221991 0.00407189
-0.12275066 0.50365323 0.04361003
-0.08113172 0.03147039 0.00000165
-0.57654281 -0.59191130 0.22275218
-0.16268812 -0.05639704 -0.00000005
-0.06972768 0.43497597 0.00000207
-0.17119567 0.22244758 0.00000509
-0.35818809 -0.06475604 0.19901540
-0.26044227 0.17592377 -0.00549979
-0.30950782 0.16575621 -0.13304295
-0.14957785 0.43888052 0.10516389
-0.50127514 -0.71413461 -0.00000292
-0.36743927 0.15615223 -0.28646038
-0.24972438 -0.25924012 0.00000256
-0.28400670 -0.00879519 0.00000313
-0.38832760 -0.13751702 0.14057247
-0.32247735 0.14159104 -0.14145902
-0.35383812 -0.01689693 -0.04396640
-0.52647744 -0.22921514 -0.28478639
-0.25930887 0.17396286 0.20822358
-0.29875571 -0.40030465 -0.00000130
-0.05725904 -0.29067105 0.00000029
-0.01963711 -0.63356938 0.00000036
-0.32239569 -0.38335022 -0.00000143
-0.35735849 -0.06274447 0.00345724
-0.12658361 -0.65501455 0.00000114
-0.53803842 -0.49894715 0.01292634
-0.27393963 0.13865540 0.03122788
-0.23050142 0.24351261 0.10712700
-0.31588072 0.03739318 0.13888789
-0.11246710 0.54689538 -0.02168240
-0.48035087 -0.09807273 -0.30808916
-0.33587208 -0.01088045 0.20616067
-0.07110466 -0.13109621 0.00000137
-0.26365336 -0.25229206 0.00000267
-0.06302052 0.08137562 0.00000072
-0.38604835 -0.30641047 -0.00000171
-0.27703208 0.04539975 0.00000315
-0.05701054 -0.24549551 0.00000112
-0.25651191 0.27540340 -0.11149962
-0.15718137 -0.27767419 -0.00000030
-0.41064353 -0.01642401 -0.20604679
-0.27865634 0.27225252 -0.17075334
-0.37907482 -0.16507607 -0.00000149
-0.54385803 -0.76183876 -0.00000323
-0.19921184 -0.28126973 -0.00000055
-0.61472899 -0.68409852 0.09597953
-0.05636054 0.37539228 -0.00000373
-0.26217871 -0.76272654 0.00000202
-0.44045432 -0.00709422 -0.30179951
-0.26061065 0.17083151 0.06404912
-0.00833189 0.01036834 0.00000108
-0.26795108 0.15309794 0.16798074
-0.25301983 -0.64468743 -0.00000133
-0.62074215 -0.69861297 0.01901291
-0.22607245 0.11418861 -0.00000022
-0.46481496 -0.04071548 -0.33146856
-0.14801808 0.14947736 0.00000230
-0.51107644 -0.09990103 -0.39330211
-0.52000866 -0.45542089 0.04987882
-0.36102210 -0.07158949 0.00881596
-0.58571968 -0.46761127 -0.17245241
-0.06428466 0.39913306 0.00000111
-0.37421444 -0.10345420 0.35440063
-0.29068748 0.15779858 -0.07015953
-0.14689680 0.50788528 -0.07363492
-0.34874097 -0.04194725 0.16972209
-0.02286208 -0.33516211 0.00000075
-0.30170213 -0.42807303 0.00000274
-0.33176922 -0.00097273 0.15033106
-0.40435597 -0.17622115 0.31993847
-0.15793709 -0.53108312 -0.00000062
-0.06206864 -0.41675685 0.00000010
-0.15596598 0.30757242 0.00000044
-0.03629833 -0.36887117 0.00000081
-0.40673233 -0.79724161 -0.00000245
-0.25982292 0.24730599 -0.08782078
-0.40343069 -0.17397850 0.12237895
-0.14564546 0.54488679 -0.11365770
-0.37944878 -0.04251082 -0.08662065
-0.08043810 -0.79740473 -0.00000048
-0.55780645 -0.74357169 -0.00000330
-0.10438937 0.29875919 0.00000074
-0.16421309 0.46649180 -0.07411910
-0.04056269 -0.18688146 0.00000107
-0.04087605 0.30734766 -0.00000539
-0.60828118 -0.53731574 -0.15450600
-0.49274378 -0.12011630 -0.31736455
-0.12925891 -0.34094521 -0.00000021
-0.19777088 0.32253961 0.05135249
-0.12168954 0.36435669 0.00000451
-0.37985433 -0.63038089 0.00000308
-0.23058866 -0.42611588 0.00000221
-0.00244952 -0.46699811 0.00000043
-0.42284716 -0.04765216 -0.20396625
-0.05000876 0.26253143 0.00000103
-0.13194779 0.23114867 -0.00000397
-0.19185504 0.33681846 0.00092329
-0.09777494 0.11733677 -0.00000700
-0.26172675 0.16813098 0.03129193
-0.06610996 -0.39957961 0.00000010
-0.20664478 0.30110531 0.16559597
-0.35629935 -0.60032068 0.00000294
-0.06575823 0.22949248 0.00000178
-0.01426205 0.31229093 -0.00000610
-0.03247225 0.08236048 0.00001019
-0.29462682 -0.66839788 -0.00000161
-0.32140159 0.10564736 -0.09606914
-0.48265710 -0.36525676 0.29646376
-0.26677102 0.15594537 0.23939394
-0.31865372 -0.30633363 -0.00000131
-0.15589513 0.17920382 0.00000028
-0.24376664 -0.62886078 -0.00000126
-0.36976682 0.04522570 -0.16242777
-0.29470428 -0.15249452 0.00000303
-0.23951440 0.22700692 -0.00615950
-0.49476619 -0.18345943 -0.24850873
-0.12944677 -0.52427597 0.00000132
-0.42634931 -0.22930696 0.07117225
-0.01836975 0.16141388 0.00000109
-0.51810016 -0.45081146 0.00784811
-0.24305120 0.32050519 -0.12634397
-0.26082822 0.09951971 0.00000309
-0.10778400 0.53978347 0.03502417
-0.08367128 0.59799753 0.05294593
-0.38806817 -0.57102242 -0.00000206
-0.20745558 0.29915492 0.00782017
-0.34874643 -0.67509205 -0.00000195
-0.05488759 -0.71022364 0.00000053
-0.39824126 0.06025025 -0.26108775
-0.05824043 -0.76888014 -0.00000031
-0.70035574 -0.76980117 -0.14249100
-0.25118780 0.33254841 -0.16366578
-0.54172193 -0.19363422 -0.37004108
-0.25206048 0.19858351 -0.00835587
-0.23482811 0.35200786 -0.14006705
-0.21968773 -0.76504647 0.00000170
-0.05607252 0.66462700 0.02775201
-0.02283442 0.25981614 0.00000820
-0.31473190 0.04017560 0.02536160
-0.14111880 0.21792100 -0.00000393
-0.03936846 -0.59657873 0.00000002
-0.29607110 -0.25013277 -0.00000110
-0.09550115 -0.51250142 0.00000108
-0.00996358 0.05011211 0.00000100
-0.26979087 -0.57401718 0.00000232
-0.01202935 0.62985576 -0.00000061
-0.17378359 0.38044392 0.07036052
-0.16037985 0.38303945 0.00000334
-0.04600700 0.26391163 0.00000168
-0.19030156 0.01138664 -0.00000606
-0.03512572 0.09442271 -0.00000929
-0.22854046 0.33972011 -0.10771731
-0.45075690 -0.09518088 -0.22734623
-0.43272246 -0.19733244 -0.05575059
-0.33793950 0.10228888 -0.13913371
-0.33387121 0.09245934 -0.11598764
-0.22508841 -0.64584812 -0.00000117
-0.13161520 0.46334661 0.00000257
-0.17931886 -0.22899442 -0.00000037
-0.19499774 0.30641811 0.00000346
-0.05079498 -0.34352166 0.00000095
-0.29108257 0.24650092 -0.17575597
-0.14093063 -0.31096876 0.00000167
-0.17327058 0.41357988 -0.03755321
-0.27737149 -0.75958480 0.00000214
-0.27699093 0.13127778 0.07594813
-0.22760585 0.25050882 0.09594532
-0.06856704 0.11123896 -0.00000798
-0.10844570 0.05301142 0.00000041
-0.47091270 -0.33689595 0.13573278
-0.20167158 -0.51734802 -0.00000086
-0.25439475 0.21133737 -0.03002168
-0.40574499 -0.25867812 -0.00000177
-0.48163574 -0.36278523 0.16798187
-0.29087343 0.11559274 -0.02097025
-0.49212863 -0.23601089 -0.17911311
-0.17389904 0.39124740 -0.01303230
-0.30713948 -0.13652306 -0.00000102
-0.29084698 0.09783242 0.10019246
-0.31439725 0.09725487 -0.06626143
-0.09442487 0.25708959 -0.00000465
-0.25748162 0.17838618 0.05638774
-0.46116433 -0.23604895 -0.09102280
-0.11768192 -0.69841201 0.00000101
-0.56561842 -0.56553340 0.05497350
-0.34293248 -0.02792754 0.29930577
-0.39161062 -0.00712658 -0.16287830
-0.26311510 0.16477784 0.06117393
-0.10931658 0.59866863 -0.07370335
-0.01877444 0.45297525 0.00000145
-0.01203412 0.60047091 0.00000168
-0.02539154 0.58429208 0.00000158
-0.21741969 0.27509483 0.10757072
-0.20864783 -0.42336633 -0.00000079
-0.34372047 -0.06987023 0.00000351
-0.44277713 -0.19500323 -0.08708394
-0.33609485 0.04157650 -0.06238511
-0.45438517 -0.31943808 0.00000403
-0.24538834 0.20757473 0.05033182
-0.05982029 0.24133330 0.00000094
-0.22997647 0.24479173 0.01935506
-0.05615127 -0.19615000 0.00000118
-0.21822684 0.30140808 -0.03326657
-0.37994856 -0.19676683 0.00000362
-0.44334331 -0.15159553 -0.13982004
-0.34782679 0.15981624 -0.23500876
-0.66232611 -0.79900527 0.04936386
-0.12493402 -0.09299005 0.00000183
-0.03395606 0.22209326 0.00000153
-0.19751503 -0.78432289 -0.00000117
-0.42877105 -0.43724154 0.00000369
-0.33871055 -0.39003021 0.00000307
-0.01130660 0.69253574 0.00000307
-0.03161517 -0.54663560 0.00000013
-0.43516218 -0.73685339 0.00000336
-0.33525818 0.11979085 -0.15212412
-0.12056175 0.06596503 0.00000035
-0.16181908 0.22398011 0.00000030
-0.24223238 0.03853035 -0.00000402
-0.02445637 0.75251220 -0.01360666
-0.38416719 -0.57850975 -0.00000204
-0.39625455 -0.75027068 0.00000305
-0.51569404 -0.35900121 -0.10126041
-0.23661994 0.12764046 0.00000469
-0.25214406 0.19126449 0.05950611
-0.48967549 -0.38220025 0.30802404
-0.02630656 0.02495909 0.00000123
-0.24535246 -0.74601434 -0.00000141
-0.60704890 -0.66555766 0.18199845
-0.29533410 0.23348256 -0.17251365
-0.28177753 0.11973322 0.03144251
-0.54534456 -0.32303576 -0.22793085
-0.50662098 -0.31261341 -0.13009784
-0.06142068 0.60265958 0.00000222
-0.31821295 0.23938861 -0.24452476
-0.00278136 0.41046236 -0.00000473
-0.26757762 0.15399772 0.24408483
-0.15192180 0.48455174 -0.06044068
-0.69658056 -0.75852576 -0.14503678
