ply
format ascii 1.0
element vertex 1394
property float x
property float y
property float z
end_header
0.10813770 -0.74846053 0.00000000
0.16813409 -0.36618346 0.00000000
-0.21001259 0.29183749 0.06245372
0.47601635 0.20947958 0.00000072
0.36430246 0.34338366 -0.00000075
0.54562219 0.01023127 -0.00000093
0.11556049 0.35534852 0.00000493
-0.53990127 0.19184495 -0.00000123
-0.31712974 0.37194384 0.02323522
-0.17145333 0.33661009 0.06115214
0.40065049 0.26565381 0.00000123
0.15342670 -0.00701463 0.00000000
-0.38563433 0.14346399 -0.00000049
-0.05189919 0.42304122 0.06809016
0.34119801 0.33039139 0.00000129
0.09203443 -0.36130831 0.00000000
0.14243629 0.34860730 0.00000000
-0.11307547 0.25883497 0.08967191
-0.52689419 0.22312437 0.01046831
0.36851185 -0.23900739 0.00000000
-0.08312954 0.32415054 0.08226300
0.12485778 -0.16540246 0.00000000
0.36165829 0.25720307 0.00000212
0.40681769 -0.00043002 -0.00000032
-0.39568116 -0.47591893 0.00000000
-0.77401431 -0.29166484 -0.00000127
0.06604289 0.05470269 0.00001018
-0.21334128 0.19567291 0.08190001
0.65129513 -0.11917921 -0.00000115
0.12922575 -0.49847575 0.00000000
-0.29128848 -0.39316365 0.00000000
-0.69636814 -0.56156419 -0.00000057
-0.44075338 -0.52845864 0.00000000
-0.74288910 -0.64417013 -0.00000039
-0.04223297 -0.38655443 0.00000000
0.12693868 0.02187757 0.00000000
0.38944304 0.28737202 0.00000108
0.34048691 0.04222046 -0.00000011
-0.17193395 0.18755707 0.00000000
-0.62675194 0.01296374 0.03357351
0.43125181 -0.06354117 -0.00000031
-0.43650531 0.17887369 0.03867192
0.50699339 -0.65478782 0.00000000
-0.50730138 0.23819244 0.01141618
-0.11187896 0.22032785 0.09798861
-0.27642490 0.50054176 -0.00000065
-0.20477605 0.21822101 0.00000000
0.01797596 -0.01746408 0.00000000
0.28753846 -0.48463278 0.00000000
-0.15307544 0.01369693 0.13264215
-0.54475425 -0.61942911 0.00000000
0.64547365 -0.39909052 -0.00000064
0.64205365 -0.11807727 -0.00000112
-0.16378291 -0.39822702 0.00000000
0.40595199 -0.59848708 0.00000000
-0.74460563 0.02757731 -0.00000181
0.41662419 -0.62358549 0.00000000
-0.00998951 -0.10150232 0.00000000
-0.21954427 0.08913249 0.10291765
-0.27341312 0.25560854 -0.00000020
-0.08927167 0.00764823 0.00000000
-0.45427467 -0.35959645 0.00000000
-0.08479055 0.37073194 0.00000000
0.11547739 -0.14608076 0.00000000
0.65923037 -0.05001517 -0.00000131
-0.59156567 0.20287593 -0.00000147
-0.11222817 -0.63177734 0.00000000
-0.66870132 -0.30479392 -0.00000090
0.39157048 -0.06287235 -0.00000015
-0.05513117 0.56842764 0.00000000
-0.10505289 0.68153849 -0.00000024
-0.11705216 0.68164201 -0.00000029
0.32688757 0.23288431 -0.00000039
0.20971533 0.24334397 0.00000000
-0.43461737 0.00950599 0.07454536
0.44535595 -0.02861841 -0.00000044
-0.74469098 -0.76633284 -0.00000008
-0.12452434 -0.64456189 0.00000000
-0.18998782 0.48298004 -0.00000025
-0.03303964 0.31966517 0.09369475
-0.32827774 0.44861828 0.00483876
0.17830423 0.11475843 0.00000000
0.40113748 -0.59623310 0.00000000
0.61541511 -0.17523067 -0.00000090
-0.00008383 -0.52791649 0.00000000
0.56100030 -0.09417274 -0.00000081
-0.41552448 -0.52936806 0.00000000
0.17060011 0.13426318 0.00000741
0.17827171 -0.73584977 0.00000000
0.21419292 0.47655943 -0.00000034
0.36399180 0.33777816 0.00000073
0.26173589 0.08530299 0.00000677
0.21369529 0.49369963 -0.00000037
-0.08059622 0.43152222 0.06030256
0.30353543 0.33407406 0.00000195
-0.34885461 0.42862035 0.00471743
-0.14741105 -0.64150579 0.00000000
0.11056216 -0.48084583 0.00000000
0.03457737 0.11346306 0.00000000
-0.46013079 0.18285603 0.03288876
0.13331445 0.38445227 0.00000000
-0.00914045 0.57136515 0.00000000
-0.74031920 -0.51581808 -0.00000071
0.56125633 0.11065992 0.00000074
-0.30267251 0.21171491 0.05982730
0.36084447 0.30628140 -0.00000067
-0.12179990 -0.64899914 0.00000000
0.35043293 0.24989128 -0.00000052
-0.27342296 -0.02611402 0.00000000
0.31199968 0.20410134 0.00000396
-0.36917048 -0.08892002 -0.00000000
0.42158994 0.21307333 -0.00000076
0.66651700 -0.15447702 -0.00000116
-0.75041092 0.02583623 -0.00000183
-0.02788571 0.02117848 0.00000000
-0.70887977 -0.10507900 -0.00000143
0.34572792 -0.65202858 0.00000000
-0.07078545 -0.03448099 0.00000000
0.20715341 0.07591005 0.00000774
-0.20220668 0.06764790 0.11104967
0.13709192 0.53530042 0.00000179
-0.77920372 -0.41729632 -0.00000096
-0.10426030 0.24360411 0.09470880
0.05071281 0.61458120 0.00000000
0.02412936 0.29884206 0.00000715
0.55346151 -0.41096091 -0.00000022
-0.76956602 -0.68031704 -0.00000030
0.44853487 -0.42783278 0.00000000
0.77200840 -0.18236843 -0.00000154
0.37164254 -0.30948376 0.00000000
-0.45417564 0.14419805 -0.00000078
0.00115790 0.65023600 0.00000223
-0.26824066 -0.54823641 0.00000000
0.03121927 0.27100363 0.00000746
0.13715996 -0.30880114 0.00000000
-0.37972579 0.39300585 -0.00000090
0.01978717 -0.70530702 0.00000000
0.24710545 0.43866564 -0.00000042
-0.22588810 -0.02767466 0.00000000
-0.30825444 -0.47883209 0.00000000
0.43650741 -0.34453663 0.00000000
-0.67138946 -0.55869002 -0.00000046
-0.65839343 -0.30467243 -0.00000086
0.77334270 -0.16424281 -0.00000159
0.29455504 -0.05751445 0.00000000
0.19227886 0.58355143 -0.00000044
-0.07685576 0.26553200 0.09585594
-0.36600115 0.01051292 0.08870788
-0.06888400 0.35851829 0.07804798
-0.02621282 0.39044908 0.08029768
-0.04484029 0.41322494 0.07162498
-0.52543136 -0.35865545 -0.00000019
-0.27694529 -0.56038412 0.00000000
-0.30232379 -0.62566883 0.00000000
0.79762908 -0.27023352 -0.00000132
0.00616678 0.16338012 0.00000946
0.17788255 0.35655374 0.00000397
0.18025566 0.51546748 -0.00000027
0.41833865 0.20635768 0.00000188
-0.41641849 -0.08478666 -0.00000021
-0.12411051 0.06908108 0.12710808
-0.16276694 0.46494343 0.03608959
-0.54189949 0.03485765 0.04676187
-0.23834639 -0.28990174 0.00000000
0.09415751 -0.04726168 0.00000000
-0.01066590 0.44285629 0.07257655
-0.74726690 -0.51416340 -0.00000071
0.00854753 0.61244118 0.00000268
-0.11973270 -0.48909487 0.00000000
0.76949976 -0.79790748 -0.00000001
-0.30604426 -0.26270989 0.00000000
-0.50158041 0.07439642 0.04692543
0.26265472 0.14246292 0.00000000
0.10315844 -0.61870955 0.00000000
0.09222277 -0.39436958 0.00000000
-0.20780580 -0.79051236 0.00000000
-0.61702433 -0.64225090 -0.00000008
-0.72997398 -0.41617177 -0.00000096
-0.17820911 0.60997021 -0.00000042
0.22074920 -0.48056798 0.00000000
0.23558299 0.45915271 -0.00000040
-0.42446065 0.06926037 -0.00000052
0.13444514 0.48923517 0.00000261
0.14134360 -0.59013746 0.00000000
-0.68327604 0.01488136 0.02133139
0.57810775 0.09088371 0.00000074
-0.66604605 -0.03042682 -0.00000137
-0.48189167 -0.32481323 -0.00000007
-0.53718045 -0.25862208 -0.00000042
-0.69862485 -0.50471238 -0.00000068
0.05363063 -0.05223274 0.00000000
-0.04426121 0.16695800 0.12333169
-0.48563334 0.23320950 -0.00000107
-0.15157129 0.35986206 0.06044620
-0.50668602 -0.42524982 0.00000000
0.37940373 -0.61118814 0.00000000
-0.41602151 -0.20845866 0.00000000
0.51056725 -0.16741374 -0.00000047
0.17972689 0.09688640 0.00000783
0.38306113 0.38707518 -0.00000046
-0.53676269 -0.40547391 -0.00000016
-0.07413650 -0.25647114 0.00000000
-0.56608229 -0.62273685 0.00000000
0.40296156 -0.23729472 0.00000000
-0.50948013 0.20217643 0.01850416
-0.19931938 -0.45585119 0.00000000
-0.64747950 0.05079810 -0.00000144
-0.07901376 0.58985037 0.00000000
-0.17096961 -0.55184432 0.00000000
0.62689795 -0.78181360 0.00000000
0.31989492 0.04698134 -0.00000003
0.22574474 0.21091570 0.00000543
0.63859524 0.12807791 -0.00000104
0.12804392 0.05997891 0.00000917
0.35697468 -0.73103415 0.00000000
0.23513223 0.49384941 -0.00000046
0.74304914 -0.41561185 -0.00000096
0.46203482 0.22355037 0.00000076
-0.44304055 -0.49817516 0.00000000
-0.15635673 -0.62572112 0.00000000
0.04644877 0.06502011 0.00000000
-0.75290946 -0.38481665 -0.00000104
0.52761302 -0.43145602 -0.00000007
-0.72481074 -0.19321280 -0.00000134
0.55831732 -0.08849373 -0.00000081
-0.25422129 -0.59603001 0.00000000
-0.35322820 -0.39960308 0.00000000
0.25460364 0.41002592 0.00000162
0.31628331 -0.25821188 0.00000000
0.00363768 0.21860984 0.00000867
0.37390799 0.22465928 0.00000243
0.47430806 -0.33211163 -0.00000002
-0.26393094 0.35933924 -0.00000035
0.38157219 -0.58275387 0.00000000
0.19201154 0.23225341 0.00000562
0.01089336 -0.33106628 0.00000000
0.42139989 0.27868318 0.00000062
-0.61490358 -0.09406210 -0.00000104
0.49748442 0.26399075 -0.00000060
-0.04046012 0.35853578 0.08399819
-0.27648977 0.30648531 -0.00000031
0.26419940 -0.57846551 0.00000000
0.42714019 0.07732590 -0.00000055
-0.69542298 -0.29892665 -0.00000103
-0.44850515 -0.54451881 0.00000000
0.08480572 0.49567712 0.00000000
0.33161867 0.12194859 0.00000496
0.55919708 0.12587957 -0.00000119
0.41687911 0.29769275 -0.00000089
-0.22848176 -0.66672997 0.00000000
-0.39318056 0.13423622 0.05709775
-0.65114013 -0.47389410 -0.00000053
0.28278939 -0.11202073 0.00000000
-0.10304940 -0.05500695 0.00000000
-0.01726032 -0.75166331 0.00000000
0.24300261 0.06094043 0.00000742
0.43947370 -0.62326940 0.00000000
-0.31013662 0.24063756 0.05220524
0.44776151 0.27209278 -0.00000098
0.58268118 0.12260254 0.00000013
-0.34553488 -0.00610636 -0.00000005
-0.29281616 0.43435414 -0.00000060
0.51807702 0.21507815 -0.00000118
-0.58463725 -0.08342009 -0.00000093
0.21012286 0.34153750 -0.00000009
-0.06887747 0.26880703 0.09684112
-0.64159154 -0.19192505 -0.00000098
0.30309629 -0.28308269 0.00000000
-0.76412859 -0.28114193 -0.00000130
-0.12318474 0.15981397 0.00000000
-0.13704526 -0.65915570 0.00000000
0.78909642 -0.43016941 -0.00000092
-0.63829909 -0.47024598 -0.00000048
-0.01038974 0.69016347 0.02083109
0.40781446 0.23580782 -0.00000074
0.32617444 0.09590707 0.00000550
0.63142827 -0.34892383 -0.00000066
0.18970892 0.36090456 0.00000369
-0.26514221 -0.65554509 0.00000000
0.28102938 0.47811272 -0.00000002
-0.21825779 0.55962171 0.00463305
-0.50263604 -0.20861840 -0.00000036
0.15221283 -0.22475950 0.00000000
-0.07569796 -0.34598090 0.00000000
-0.27212581 -0.61738547 0.00000000
-0.37909273 -0.73401092 0.00000000
-0.17653724 0.15108228 0.00000000
0.20454573 0.39624051 -0.00000016
-0.54994728 -0.60022056 0.00000000
0.15284263 -0.10272164 0.00000000
-0.59743290 -0.68549271 0.00000000
-0.54169018 0.14084053 -0.00000115
0.19764503 0.38793554 0.00000309
0.65657596 -0.60819739 -0.00000031
0.25527054 -0.47362032 0.00000000
0.33562699 -0.23215138 0.00000000
0.10115330 -0.54211436 0.00000000
0.61383144 -0.11660798 -0.00000100
-0.19301667 -0.55242473 0.00000000
0.35327464 -0.63074582 0.00000000
-0.63083510 0.04691128 -0.00000136
-0.02512161 -0.14227597 0.00000000
-0.41820464 -0.07203146 -0.00000024
-0.52752250 0.01082312 0.05480809
-0.15292651 0.16197407 0.00000000
-0.49537989 -0.61454804 0.00000000
-0.23877409 -0.56952937 0.00000000
-0.43570768 -0.65201994 0.00000000
0.46509268 -0.07478677 -0.00000044
-0.51384374 -0.50566102 0.00000000
0.18654792 0.46553184 -0.00000020
0.27120849 -0.73602827 0.00000000
-0.16527241 0.15897470 0.00000000
0.30888926 0.13855121 0.00000512
-0.38925691 0.25848736 -0.00000070
-0.49081796 -0.09026218 -0.00000052
-0.18781148 0.29428524 0.06659140
-0.09929108 0.07519547 0.00000000
-0.23774382 0.03099984 0.00000000
0.52433862 -0.49569508 0.00000000
0.05063426 -0.26633453 0.00000000
0.62056601 -0.05050688 -0.00000114
0.06206730 0.54912288 0.00000000
0.21250204 0.37451297 0.00000303
0.51063832 -0.34311760 -0.00000016
-0.34015428 0.18268891 -0.00000036
0.23223202 0.51642403 -0.00000049
-0.03770456 0.56253795 0.00000000
0.01971377 0.43380289 0.00000520
0.00649171 -0.66156404 0.00000000
0.00339933 -0.35266612 0.00000000
0.60434324 -0.31269972 -0.00000061
0.04460755 -0.35868597 0.00000000
-0.38089996 -0.14343380 0.00000000
-0.42350875 0.31126305 -0.00000094
0.29900299 -0.68918769 0.00000000
0.36511204 -0.37737826 0.00000000
-0.26417646 -0.05665108 0.00000000
0.10975178 0.35524033 0.00000000
0.15062267 0.33085949 0.00000000
0.28192083 0.03472578 0.00000723
0.38914655 0.21490891 -0.00000063
0.72430014 -0.00861479 -0.00000166
-0.23672147 0.47243333 -0.00000043
-0.38791370 -0.51786638 0.00000000
0.41184366 -0.45844294 0.00000000
-0.37948658 0.21218742 -0.00000058
0.36965250 -0.25467201 0.00000000
-0.18316865 -0.50423310 0.00000000
-0.07227834 -0.01341901 0.00000000
0.12445247 0.18784287 0.00000000
-0.78763858 -0.32619060 -0.00000118
-0.18202605 0.40970424 0.04362639
0.14111450 -0.30124943 0.00000000
-0.31007326 0.03571857 0.00000000
0.45388949 -0.60057725 0.00000000
-0.12328566 0.02961591 0.13554760
-0.12891568 0.19710254 0.00000000
0.66906255 0.01072564 -0.00000146
0.27179670 -0.32643972 0.00000000
-0.00918855 -0.71747940 0.00000000
-0.46211452 -0.06122732 -0.00000045
0.32158275 0.06279449 -0.00000007
0.29037357 -0.09224815 0.00000000
-0.40208660 0.12645492 0.05686213
-0.15060742 0.34654886 0.00000000
0.07102833 0.68034423 0.00000063
0.78819958 -0.40191723 -0.00000100
-0.45142093 -0.54136680 0.00000000
0.02493170 0.05415559 0.00000000
0.27678748 -0.65925919 0.00000000
0.20183888 0.51267022 -0.00000035
0.13587454 -0.48678775 0.00000000
-0.16790936 0.58678224 -0.00000034
-0.01640485 0.76472351 -0.00000001
-0.65843801 0.02860585 -0.00000145
-0.53540553 0.16911242 -0.00000117
0.51421039 0.00678442 -0.00000079
-0.11125435 0.10136337 0.00000000
-0.20650427 -0.77853192 0.00000000
0.20667200 -0.61018387 0.00000000
0.31573796 0.21519742 -0.00000031
-0.07222711 -0.71921767 0.00000000
0.05300083 -0.78601582 0.00000000
-0.69848847 -0.71932636 -0.00000020
-0.28546909 0.07354741 0.09237314
0.02004331 -0.50071597 0.00000000
0.09858853 -0.21424301 0.00000000
0.18448226 0.04900227 0.00000848
-0.37967356 -0.45474183 0.00000000
0.17275381 -0.20014965 0.00000000
-0.19025588 0.18111587 0.08978490
0.26098509 -0.30624613 0.00000000
0.21108408 -0.13868201 0.00000000
0.09713118 -0.28669557 0.00000000
-0.33829307 0.36642155 0.01995879
-0.06978882 0.50525357 0.04712189
-0.59403113 -0.55300774 -0.00000014
0.08401018 0.51691234 0.00000298
0.33501185 -0.27053842 0.00000000
-0.45109043 0.31734099 0.00661152
0.27644021 0.11354852 0.00000000
-0.28059213 0.48975744 0.00621019
-0.21382943 0.02197734 0.00000000
-0.77484084 -0.24373974 -0.00000139
0.39535269 0.40336878 -0.00000099
0.43462959 0.13683790 -0.00000068
0.55960853 -0.08402413 -0.00000083
-0.43483787 0.02845625 0.07052960
0.09375320 0.31515454 0.00000000
0.10375985 0.32829331 0.00000551
-0.05386214 -0.27233211 0.00000000
0.59471649 -0.75244437 0.00000000
-0.47390189 -0.36627879 0.00000000
0.47322820 -0.18458823 -0.00000028
-0.60822175 -0.55731666 -0.00000020
-0.09925444 0.48253890 0.00000000
-0.70574771 -0.18667238 -0.00000127
-0.03041825 -0.13255676 0.00000000
-0.00932890 -0.05913470 0.00000000
0.09306996 0.23962724 0.00000700
0.01208049 0.22721905 0.00000000
0.67934052 -0.55172674 -0.00000051
-0.20108119 0.20638997 0.00000000
-0.55621316 -0.08999635 -0.00000080
-0.06916256 -0.01896295 0.00000000
0.33376818 0.02101476 0.00000660
-0.05937669 0.31866266 0.00000000
0.57175598 -0.22496794 -0.00000063
0.41838744 0.15530631 -0.00000065
0.73670880 -0.10020194 -0.00000155
0.31598363 -0.65863059 0.00000000
0.00055215 0.06832627 0.00001097
-0.19159599 0.47465716 -0.00000024
-0.34879338 -0.26019836 0.00000000
0.44740106 0.18793390 -0.00000083
0.33878214 0.31085283 -0.00000058
0.23512016 0.38671474 0.00000239
0.76876666 -0.57989137 -0.00000055
-0.63589549 -0.05425307 -0.00000120
0.07435568 -0.53853255 0.00000000
-0.67019930 -0.54276948 -0.00000049
0.57157015 -0.24537082 -0.00000059
0.10120448 -0.20457560 0.00000000
0.06990989 -0.62091006 0.00000000
0.05613244 -0.18452669 0.00000000
-0.36367750 -0.63340616 0.00000000
0.63636757 -0.42414028 -0.00000055
-0.00228637 0.41539083 0.00000000
0.29821658 -0.40300587 0.00000000
-0.56985474 -0.05034075 -0.00000093
0.34589480 0.07692171 -0.00000020
-0.25510008 0.22607141 0.06678528
0.45094167 0.24435572 0.00000062
0.36182768 0.23006941 -0.00000054
0.29867566 0.20512474 -0.00000022
-0.50111773 -0.27684501 -0.00000024
-0.22024799 0.05413132 0.11010191
0.50438616 0.06311446 -0.00000085
-0.51797389 -0.79246416 0.00000000
-0.10990006 -0.35731755 0.00000000
0.39470678 0.32797846 -0.00000085
0.21137255 -0.24138129 0.00000000
-0.37733613 0.15942748 0.05513989
-0.24466807 0.24542982 -0.00000006
-0.30914579 -0.53662935 0.00000000
-0.04449084 0.39819704 0.07484607
0.37120360 0.32175461 0.00000086
0.09381032 -0.12282935 0.00000000
-0.40174460 0.18326549 0.04503348
-0.02334125 0.10972891 0.13970148
-0.59736319 -0.51070331 -0.00000023
0.13522398 0.22724430 0.00000655
-0.62180350 0.11720248 0.01277489
0.54418459 0.13574638 -0.00000115
-0.30680034 -0.51307388 0.00000000
-0.25821735 -0.03500022 0.00000000
-0.52937886 -0.37859350 -0.00000018
0.01032067 0.27954132 0.00000765
0.24536389 0.34852260 -0.00000025
-0.41371905 -0.69717746 0.00000000
-0.54033181 -0.05812745 -0.00000079
-0.34649372 -0.38800106 0.00000000
0.41760658 0.20842525 0.00000186
0.62285150 -0.18212164 -0.00000092
0.51538491 0.02571358 -0.00000083
0.46647547 0.06793355 -0.00000070
-0.44477102 -0.61095891 0.00000000
-0.16253211 0.06455967 0.12000710
0.45859392 -0.42506585 0.00000000
0.21018370 0.43965148 -0.00000026
0.01760836 -0.78714765 0.00000000
0.16873121 0.46787974 0.00000231
-0.52209971 0.02671246 0.05261564
0.12421760 0.49462508 0.00000000
0.79913595 -0.75531246 -0.00000011
-0.05100916 0.68167577 0.01410055
-0.27508550 -0.46221895 0.00000000
-0.64540799 -0.73479876 -0.00000004
0.04601846 0.20106339 0.00000000
-0.02284875 0.57970183 0.04135967
0.76673441 -0.48683117 -0.00000078
-0.49241522 0.03990154 0.05607107
-0.14250255 0.15618268 0.10501042
0.71006867 -0.37727099 -0.00000095
0.09497993 -0.10502238 0.00000000
-0.68503971 -0.62033999 -0.00000041
-0.27034503 0.52299722 0.00139387
0.71763841 -0.64029828 -0.00000040
0.51714829 0.03466106 -0.00000085
0.08113681 0.65107060 0.00000093
0.20073983 0.03615590 0.00000843
0.24283176 0.47418155 0.00000078
0.13883712 0.43650782 0.00000000
0.33337071 -0.48577849 0.00000000
0.21294131 0.45138878 0.00000173
0.21645644 0.16307287 0.00000000
-0.14101265 0.38342200 0.05772280
-0.44082370 -0.34681124 0.00000000
-0.18080411 0.45005902 -0.00000015
0.47069656 0.03473468 -0.00000066
0.56448000 0.20710976 -0.00000136
0.36482924 0.11680200 0.00000441
-0.31291991 0.25822680 0.04793773
-0.69733502 -0.75566693 -0.00000011
0.71578228 -0.68866283 -0.00000028
0.74436809 -0.02402004 -0.00000172
0.10300155 0.22096793 0.00000000
0.61339063 0.18641424 -0.00000153
-0.02146560 -0.76352758 0.00000000
-0.30641475 0.29506952 0.04158285
-0.03946670 -0.51324365 0.00000000
0.42519741 -0.66931259 0.00000000
-0.02469156 -0.71945959 0.00000000
0.00113129 0.42154588 0.00000000
-0.61870805 -0.02980663 -0.00000117
-0.31084794 0.06771903 -0.00000003
0.18638685 0.27366639 0.00000000
0.58298840 -0.21475064 -0.00000069
-0.18814869 0.13921737 0.00000000
0.21504992 0.01464866 0.00000854
0.20277718 -0.45961305 0.00000000
-0.73428412 -0.20303905 -0.00000136
0.34760128 0.06660101 -0.00000019
-0.47004334 0.06311191 -0.00000070
0.15426100 0.29724913 0.00000521
0.61428495 0.15585980 -0.00000104
0.24337304 0.08558375 0.00000704
0.38113042 -0.70708653 0.00000000
-0.06085648 0.60566110 0.02796061
-0.52868884 -0.25605562 -0.00000039
-0.38466812 -0.38565060 0.00000000
-0.65513763 -0.19265948 -0.00000104
-0.10319460 0.67958889 0.00360611
-0.00048880 -0.52250762 0.00000000
-0.41764972 -0.26679164 0.00000000
0.77857001 -0.00626111 -0.00000190
0.49960816 -0.44452830 0.00000000
0.37481798 0.04531590 0.00000541
-0.64448660 0.09543736 -0.00000151
-0.50886021 0.24777096 -0.00000120
0.25853165 0.37907407 -0.00000036
-0.77743509 -0.63513187 -0.00000041
0.68342650 -0.30885099 -0.00000096
-0.49516644 0.13935437 0.03466206
0.24244837 -0.57355192 0.00000000
0.51146214 -0.42964732 -0.00000001
-0.24855819 -0.39484646 0.00000000
-0.69537501 0.09783861 -0.00000173
0.64462067 0.10543050 -0.00000078
0.17470720 0.09911968 0.00000788
-0.77301738 -0.43328818 -0.00000092
-0.71407178 0.03632815 0.01038791
0.70610749 -0.22732951 -0.00000120
0.13018432 0.35689177 0.00000000
-0.66511568 -0.38059459 -0.00000075
0.06110547 -0.26966362 0.00000000
0.77861822 -0.25383627 -0.00000137
-0.39233709 0.37883415 0.00603777
0.02039132 0.52073983 0.00000388
0.52862509 -0.07097898 -0.00000072
-0.51050677 -0.71263100 0.00000000
0.49112268 0.14682263 0.00000148
0.02976261 -0.16350313 0.00000000
0.76159604 -0.77999007 -0.00000005
0.59187200 0.08012231 -0.00000125
-0.00475233 -0.09168957 0.00000000
0.56301069 0.15747419 -0.00000127
-0.76184099 -0.77429893 -0.00000006
-0.34878167 0.22528109 0.04732680
0.28980715 0.29751394 0.00000283
-0.19895116 0.28431631 0.00000000
-0.45118788 0.29951924 -0.00000104
0.10220200 0.26846326 0.00000643
-0.52504602 0.20745091 -0.00000119
0.11340967 0.19174246 0.00000000
-0.46707724 -0.02378861 -0.00000054
0.17156610 0.04974374 0.00000000
0.43091424 -0.45694489 0.00000000
0.68650081 0.05343483 -0.00000161
-0.12635415 0.11253973 0.00000000
-0.57412360 -0.15512787 -0.00000076
0.48194844 0.03683827 -0.00000071
-0.10557810 0.55843813 -0.00000002
0.26991410 0.21047056 -0.00000011
-0.19283158 0.20120728 0.08503684
0.11407206 -0.45366766 0.00000000
-0.45141656 -0.52877143 0.00000000
-0.31723860 -0.10799850 0.00000000
-0.14855276 0.48650422 0.03455071
-0.41966225 0.07893145 -0.00000052
-0.49823832 -0.43947565 0.00000000
-0.12085032 -0.03655896 0.00000000
-0.38754566 0.09000871 -0.00000040
-0.03290878 0.19305041 0.00000000
0.17071893 0.35541766 0.00000000
-0.19832961 0.20006399 0.08412467
0.34216858 0.24341662 0.00000273
0.36994802 0.40890557 -0.00000057
-0.33411081 0.39557782 -0.00000071
0.66034489 0.07543332 -0.00000058
0.17577558 0.05421976 0.00000853
0.53110340 -0.09702804 -0.00000068
-0.02172757 -0.41282297 0.00000000
-0.68121038 0.05486262 0.01338910
0.35368799 -0.69954411 0.00000000
-0.12340575 -0.73800277 0.00000000
0.00828251 0.73394301 0.00000000
-0.27618248 -0.27678199 0.00000000
-0.23391778 0.55469180 0.00238534
0.11823574 0.03878806 0.00000000
0.04204018 0.19430158 0.00000000
-0.44469634 -0.37775665 0.00000000
-0.30268349 -0.32967156 0.00000000
-0.23628421 -0.74885093 0.00000000
-0.19091764 0.17002637 0.09196920
-0.09916870 0.29516776 0.08497432
-0.74826140 -0.09344773 -0.00000161
0.15812861 -0.67468688 0.00000000
0.43293697 -0.18629792 -0.00000010
0.33226877 -0.56249112 0.00000000
0.23062899 -0.63865261 0.00000000
-0.20022249 -0.52758136 0.00000000
0.24536450 0.40280519 0.00000192
-0.18124623 0.29993646 0.06678285
0.41767279 0.33128775 -0.00000019
0.35971949 -0.56281928 0.00000000
0.30848079 -0.22296910 0.00000000
0.13417668 -0.44362092 0.00000000
0.20390715 -0.53323830 0.00000000
0.50289607 -0.61447907 0.00000000
0.50054922 -0.74630662 0.00000000
0.39025705 0.24086855 -0.00000068
-0.16979129 0.13198303 0.10436340
0.31390068 -0.55695887 0.00000000
-0.18151499 0.38325318 0.04927423
0.52494374 -0.27726524 -0.00000034
0.44512993 -0.67095768 0.00000000
0.17948823 0.55727977 0.00000061
-0.15351173 0.20350876 0.00000000
0.40020508 -0.25343451 0.00000000
0.35613682 0.15132062 -0.00000037
-0.35817632 0.12968435 -0.00000034
-0.23617976 -0.23325568 0.00000000
0.17305366 -0.31329696 0.00000000
-0.74446435 -0.09543582 -0.00000159
-0.07295232 0.21298314 0.00000000
-0.07037429 -0.20176625 0.00000000
-0.78944762 -0.27626278 -0.00000131
-0.60695327 -0.15618741 -0.00000090
0.64024748 -0.52859748 -0.00000038
0.04612197 -0.59731233 0.00000000
0.37647063 0.00257970 -0.00000020
-0.36496252 0.13759479 -0.00000039
-0.49036869 -0.65676828 0.00000000
-0.66381160 -0.74946804 -0.00000009
-0.53271626 -0.71345879 0.00000000
0.69022058 0.10886249 -0.00000171
-0.68176421 0.07842818 0.00833674
0.69746675 0.01768020 -0.00000033
-0.47368318 -0.33559681 -0.00000001
0.42182321 0.09085872 0.00000375
-0.62311927 0.04995612 0.02658557
-0.18444165 -0.17876715 0.00000000
0.13324736 0.03945105 0.00000940
-0.22648724 0.31302914 0.05456367
0.22709673 0.38942524 0.00000250
-0.51077940 -0.26747582 -0.00000029
-0.37394500 0.37756236 -0.00000085
-0.59576786 0.08624166 -0.00000128
-0.64713554 0.08654639 -0.00000150
-0.74923234 -0.08351552 -0.00000164
0.03872789 0.56078525 0.00000300
-0.17172763 0.32928461 0.06262914
0.57652612 0.12764838 0.00000016
0.06105448 0.35114808 0.00000000
-0.61935373 -0.47135562 -0.00000040
-0.47158305 -0.17229980 -0.00000029
-0.14963600 -0.20386539 0.00000000
-0.37361139 -0.42432031 0.00000000
-0.31510019 0.42364867 -0.00000068
0.14504927 0.31193690 0.00000513
-0.14846537 -0.51388729 0.00000000
-0.12618117 0.37565503 0.06245646
-0.18160691 -0.69603143 0.00000000
-0.41205013 0.25560333 -0.00000080
0.63749595 0.14718187 -0.00000134
-0.32627751 0.31224081 -0.00000053
-0.05403754 0.47150156 0.05749129
-0.74157514 -0.27237229 -0.00000127
0.02118765 0.18449393 0.00000891
-0.40670496 0.20721484 0.03897766
0.12398722 0.61479188 -0.00000020
-0.50341332 -0.74656873 0.00000000
-0.54725722 0.19872559 -0.00000127
0.55489639 -0.61741125 0.00000000
-0.44742220 -0.05730711 -0.00000039
0.29821885 -0.51208990 0.00000000
-0.01723153 -0.79372968 0.00000000
-0.23134084 0.36626235 -0.00000022
-0.43380505 0.01796372 -0.00000047
0.38004129 -0.54316765 0.00000000
-0.34955808 -0.53598094 0.00000000
-0.42761533 0.07132201 0.06306333
-0.03427343 0.30017010 0.00000000
0.71837631 -0.07926141 -0.00000151
0.26758927 -0.58845924 0.00000000
0.13599221 -0.15386646 0.00000000
-0.37262756 0.37028055 0.01195818
0.21951837 -0.43770481 0.00000000
0.69082837 -0.32363966 -0.00000096
-0.37342623 0.07738921 0.07314372
-0.25469628 -0.43708388 0.00000000
-0.12292540 -0.26539784 0.00000000
0.31654589 -0.28424890 0.00000000
0.66116133 -0.19880558 -0.00000106
0.23210566 -0.57506850 0.00000000
-0.31356505 -0.07321892 0.00000000
-0.06971288 0.45958900 0.00000000
-0.28032686 -0.72142145 0.00000000
-0.00267528 -0.35387505 0.00000000
-0.75739311 -0.26616760 -0.00000133
-0.33542277 0.31943585 -0.00000058
-0.76765958 -0.34860178 -0.00000113
0.47507546 0.17148841 -0.00000092
-0.06186436 -0.25234555 0.00000000
-0.16900363 0.23213864 0.00000000
0.37074652 0.07225220 -0.00000030
-0.74751908 -0.72030871 -0.00000020
-0.69718263 -0.42958401 -0.00000080
-0.79396694 -0.64850201 -0.00000038
0.62266749 -0.50904197 -0.00000034
0.22479612 0.22818493 0.00000519
-0.26572390 -0.41755495 0.00000000
0.04204176 -0.15177995 0.00000000
0.41562735 0.02631944 -0.00000041
-0.78014250 -0.65161401 -0.00000037
0.48125525 0.03042176 0.00000361
0.54576953 0.14437145 0.00000047
0.07842871 0.65582865 0.00000090
-0.16682130 0.22821221 0.00000000
-0.16280724 0.03064261 0.12705405
-0.44306853 -0.33478551 0.00000000
-0.15394175 0.25746952 0.00000000
0.44509153 0.12595870 -0.00000071
0.00718409 0.33292570 0.00000000
0.37917944 0.30371536 -0.00000074
-0.33350536 -0.76398176 0.00000000
0.53864112 -0.43128420 -0.00000012
0.18073871 0.37642138 0.00000360
0.38818349 0.30898261 0.00000075
-0.06218612 -0.57098947 0.00000000
-0.06063012 0.46633598 0.00000000
-0.09970702 0.06680269 0.00000000
-0.09415002 0.35777697 0.00000000
-0.41566740 -0.66385341 0.00000000
-0.12844137 -0.67827026 0.00000000
-0.31214147 0.08359059 -0.00000007
-0.34628833 0.28234387 -0.00000056
0.32329773 0.07212099 -0.00000009
0.00646908 0.19547934 0.00000000
0.48246143 0.31006923 -0.00000108
0.69717064 -0.32915397 -0.00000098
0.08446166 -0.50726886 0.00000000
-0.08802130 0.02749709 0.00000000
0.63304648 -0.11560250 -0.00000108
0.14347791 -0.31609350 0.00000000
0.37139662 0.31207365 -0.00000072
-0.22527237 0.54824393 0.00554700
0.01750410 0.03557204 0.00000000
0.14347588 0.49117622 -0.00000007
0.79719628 -0.77849102 -0.00000005
0.33436568 0.39947822 -0.00000072
-0.59760193 -0.02556633 -0.00000109
-0.48366259 -0.23956724 -0.00000023
0.30985412 0.17932917 0.00000442
0.51775697 -0.03358639 -0.00000074
-0.14673512 0.41244074 0.05044559
-0.34511387 0.43415391 0.00434189
0.78862869 -0.59105353 -0.00000052
-0.38674075 -0.27865629 0.00000000
0.78664119 -0.79615222 -0.00000001
-0.02135615 -0.12592935 0.00000000
0.31019009 0.41697146 -0.00000065
0.68629867 -0.56839021 -0.00000051
0.74919975 -0.36795799 -0.00000108
0.35662850 -0.32009213 0.00000000
0.04878037 0.68405892 -0.00000000
-0.23902490 -0.55287358 0.00000000
-0.02283757 -0.00349577 0.00000000
-0.64230940 -0.24467417 -0.00000089
-0.56643613 -0.41148355 -0.00000028
0.77684027 -0.71120551 -0.00000022
0.60377345 -0.47731933 -0.00000032
-0.05961593 0.00925302 0.00000000
0.37652614 -0.01308738 -0.00000017
0.43636959 0.25990305 -0.00000091
0.11530100 -0.29352067 0.00000000
0.53074828 -0.11095817 -0.00000065
0.71580056 -0.74868796 -0.00000013
0.22976154 -0.09183996 0.00000000
-0.27387845 -0.37479487 0.00000000
-0.47893120 -0.52326740 0.00000000
0.15382611 -0.39320320 0.00000000
-0.61299069 0.05501337 -0.00000130
0.14321265 0.34626382 0.00000000
0.35313151 -0.58788466 0.00000000
-0.78320974 -0.36648854 -0.00000108
0.14470535 -0.36119077 0.00000000
-0.26545682 -0.29729026 0.00000000
-0.44133043 0.03959823 -0.00000054
0.41138428 -0.70922245 0.00000000
0.34783823 -0.64839540 0.00000000
-0.23900575 0.28678895 -0.00000011
-0.51152895 -0.56470874 0.00000000
0.48186563 -0.03519129 -0.00000058
-0.32008057 -0.62943485 0.00000000
-0.32003074 0.34963128 -0.00000057
0.47541887 -0.04052397 -0.00000054
0.37243642 -0.40554724 0.00000000
-0.45665681 -0.54753322 0.00000000
-0.18709177 -0.44153951 0.00000000
0.71118838 -0.34556598 -0.00000101
0.75709031 0.01514008 -0.00000184
0.48969478 -0.38925289 0.00000000
-0.62762396 -0.43241206 -0.00000050
-0.29838801 -0.28781539 0.00000000
-0.77576542 -0.65794142 -0.00000036
-0.03833239 0.41032583 0.07359545
-0.16365482 -0.11642395 0.00000000
0.67390100 -0.16367986 -0.00000117
0.20637237 -0.34137803 0.00000000
0.30305947 0.33183518 0.00000200
0.15181801 0.36112008 0.00000000
0.43489672 0.24259040 -0.00000087
0.11473692 0.63876644 -0.00000020
-0.04915556 -0.39051295 0.00000000
-0.02704646 -0.65010538 0.00000000
0.10013820 0.54973571 0.00000224
-0.02295373 0.75849573 -0.00000002
-0.16019030 0.57443814 0.01369314
-0.25552187 0.52937229 0.00316356
0.39157435 -0.48542970 0.00000000
-0.39851912 0.06903641 0.06963706
-0.75453393 -0.56417124 -0.00000059
0.35583604 -0.34396275 0.00000000
0.68895986 0.10916124 -0.00000169
0.09686758 0.66553616 0.00000039
0.15194393 0.29843978 0.00000000
-0.75518650 0.00632684 0.00805984
-0.21682017 0.52557150 -0.00000044
0.16510961 0.15513067 0.00000000
-0.24008217 -0.46165072 0.00000000
-0.15774378 0.16472902 0.00000000
-0.59913783 -0.28457676 -0.00000064
0.26334721 -0.24729137 0.00000000
0.53246259 -0.64040199 0.00000000
0.45497744 0.28213000 -0.00000103
-0.37562917 0.20615281 0.04570976
0.49092803 0.09003948 -0.00000084
-0.32338812 0.26067703 0.04523164
0.55205143 -0.15207568 -0.00000067
0.11553695 -0.01778072 0.00000000
-0.52835121 0.17299159 -0.00000115
-0.48938668 -0.43056764 0.00000000
0.42040650 -0.71806212 0.00000000
0.60376603 -0.64968888 -0.00000001
0.43642038 -0.31294646 0.00000000
0.48998179 -0.46870660 0.00000000
0.62091804 -0.00073527 -0.00000123
0.54093350 -0.63478324 0.00000000
-0.78126163 -0.16864935 -0.00000158
0.08725250 0.60969787 0.00000150
-0.54179675 -0.35746299 -0.00000027
-0.68797710 0.10532228 -0.00000171
0.04089037 0.57198707 0.00000280
-0.08213156 0.64937997 0.01434626
0.49124989 -0.69404879 0.00000000
0.43050577 -0.63464910 0.00000000
0.03273066 -0.14263504 0.00000000
0.36720470 -0.34655755 0.00000000
-0.05871053 -0.30190683 0.00000000
0.22090785 0.50725597 0.00000065
0.23643907 0.15499541 0.00000000
0.12196455 0.66542781 -0.00000028
-0.70057308 -0.50253869 -0.00000069
0.40434197 -0.54194012 0.00000000
-0.36896693 0.37389285 -0.00000082
0.10027605 -0.73883633 0.00000000
-0.03722509 -0.45248038 0.00000000
-0.44545127 -0.51110259 0.00000000
-0.22017002 0.48122508 -0.00000038
0.45190233 0.23980422 -0.00000094
-0.43190560 -0.78767294 0.00000000
-0.16885194 0.58654220 -0.00000034
0.68893723 -0.14020200 -0.00000128
0.28406296 0.17228590 0.00000503
-0.68010278 0.07788370 0.00879882
-0.08668103 0.11841816 0.00000000
0.37400657 -0.10453396 0.00000000
-0.75886211 -0.59972005 -0.00000050
0.65424827 0.05844093 -0.00000018
-0.02215534 -0.19650204 0.00000000
0.23307175 -0.79899327 0.00000000
0.28654885 -0.40524095 0.00000000
0.61564725 -0.19865869 -0.00000086
0.05311848 -0.00607846 0.00000000
-0.12728467 0.05402136 0.12959774
0.01560121 0.45909150 0.00000488
-0.10773456 0.05361250 0.00000000
-0.08347481 0.04303790 0.00000000
0.40758346 0.28635595 0.00000075
-0.11842744 -0.03900402 0.00000000
0.10270113 -0.38251077 0.00000000
0.40919426 -0.39797478 0.00000000
0.21986083 0.23952255 0.00000000
0.12630866 0.11505575 0.00000837
-0.08370189 -0.01044777 0.00000000
-0.05585218 0.51386243 0.00000000
-0.48371511 -0.00461219 -0.00000064
0.20281667 0.04160027 0.00000832
0.66961493 0.05905550 -0.00000155
0.15525766 0.50626266 0.00000193
-0.13605782 0.27563582 0.00000000
-0.10647066 -0.31787175 0.00000000
0.23470012 0.15766611 0.00000609
-0.11077040 -0.26538578 0.00000000
0.49253280 -0.62376354 0.00000000
-0.08314985 0.29801601 0.00000000
-0.16717865 -0.13398548 0.00000000
0.36948198 0.09743000 0.00000464
0.42140135 0.14850974 0.00000279
-0.28224724 0.25020645 -0.00000023
0.55693471 -0.46720028 -0.00000014
-0.19884731 -0.63351341 0.00000000
-0.28013729 -0.08202674 0.00000000
-0.01856721 0.13986216 0.00000000
-0.55373522 -0.31300695 -0.00000040
0.60132964 0.10597302 -0.00000134
0.72594583 0.02297899 -0.00000172
0.76769357 -0.61715511 -0.00000046
-0.66169279 -0.37763661 -0.00000074
0.58329795 0.14094837 -0.00000019
0.16223876 0.02545861 0.00000917
0.12256033 -0.49906356 0.00000000
-0.09250779 -0.60393265 0.00000000
-0.72191300 -0.64352175 -0.00000039
0.54547483 0.19677815 -0.00000126
-0.16797286 0.36956506 0.05497812
0.39988531 0.26885033 0.00000119
-0.55735683 -0.00323873 -0.00000096
0.32699901 0.15183987 0.00000455
-0.24210419 0.25873610 -0.00000008
0.00270635 0.29422971 0.00000755
-0.49691799 -0.66413848 0.00000000
-0.21188154 -0.68525096 0.00000000
0.50475868 0.01964864 0.00000334
-0.22097311 0.08398888 0.00000000
0.03400405 0.30357898 0.00000000
0.07702869 0.05429485 0.00000000
-0.50053813 0.07563589 0.04688413
0.00324338 0.57654934 0.00000000
-0.28321617 0.22396545 -0.00000019
0.33316518 0.21859069 0.00000331
-0.01410871 0.23522560 0.00000000
-0.11860402 0.34335423 0.00000000
-0.44657828 -0.68503194 0.00000000
0.33882339 0.01562258 0.00000660
-0.08144116 0.68632452 0.00675200
0.27145032 0.09326233 0.00000651
-0.24284713 0.53117456 0.00544109
-0.34308311 -0.69756392 0.00000000
0.24883053 0.48578502 -0.00000051
0.01313130 -0.51866524 0.00000000
0.51635311 -0.79598338 0.00000000
0.13294627 0.25045553 0.00000000
0.47963601 -0.55558911 0.00000000
0.55675055 -0.45594522 -0.00000016
0.54840806 0.07748086 -0.00000106
-0.04714515 0.74689250 -0.00000011
0.58425806 -0.59961918 -0.00000002
-0.72269607 -0.07393081 -0.00000154
-0.37035349 -0.16022685 0.00000000
-0.14893811 -0.41262865 0.00000000
0.12144311 0.47810049 0.00000300
-0.22515511 -0.32154950 0.00000000
-0.13835578 0.32452900 0.07061562
0.44296742 0.01385742 -0.00000050
-0.49791913 0.10878760 0.04048836
-0.26794134 0.35327663 0.03744928
-0.40470814 0.01094540 -0.00000033
-0.21547671 -0.54087613 0.00000000
0.12211726 0.55985986 -0.00000010
0.43579717 0.03593207 -0.00000051
-0.09289877 0.57784420 -0.00000000
-0.17470546 0.49266345 -0.00000020
0.16774864 0.23498854 0.00000594
0.28343380 0.22693530 0.00000413
0.74758205 -0.18010920 -0.00000146
0.29148457 -0.43462934 0.00000000
0.79847352 -0.07657994 -0.00000181
0.59344343 0.09806554 -0.00000129
0.35269915 0.04147446 0.00000590
-0.13114368 -0.20480062 0.00000000
-0.08233992 -0.47049179 0.00000000
-0.67827239 -0.02955405 -0.00000143
0.46249817 -0.04726754 -0.00000048
-0.51786223 0.24226894 -0.00000122
0.72123797 0.02619599 -0.00000093
-0.22500886 0.27100696 -0.00000003
0.71248328 -0.50218707 -0.00000074
0.75010513 -0.09510026 -0.00000162
-0.04423635 -0.76458466 0.00000000
0.24704496 -0.75738959 0.00000000
0.50187551 0.22653080 -0.00000113
0.40168016 -0.19673332 0.00000000
0.02076850 0.70026192 0.00000000
0.29025305 -0.63439704 0.00000000
0.22048178 0.17371810 0.00000607
-0.03859953 -0.39567567 0.00000000
0.00294947 0.40137418 0.00000593
-0.10894410 0.32864472 0.00000000
0.26210173 0.23535715 -0.00000012
-0.51782940 -0.76719031 0.00000000
0.42758176 0.27869702 0.00000050
0.75463069 -0.08387334 -0.00000166
-0.04540842 0.38261426 0.07791798
0.46287564 -0.16437801 -0.00000027
-0.32759397 -0.04049612 0.00000000
-0.29278873 0.33585840 -0.00000043
0.62845661 -0.32261287 -0.00000070
0.19836045 -0.74636436 0.00000000
-0.45271794 0.17437589 -0.00000083
0.32747145 -0.73103793 0.00000000
0.45998390 -0.40775625 0.00000000
-0.00744674 0.37217463 0.00000000
-0.38218965 -0.24008431 0.00000000
-0.33240439 -0.41963496 0.00000000
-0.42173346 -0.65658272 0.00000000
-0.43577237 0.00520607 -0.00000045
-0.18423412 -0.69221153 0.00000000
0.14399822 0.58018273 -0.00000023
-0.69603307 -0.73715484 -0.00000016
0.36904437 -0.04380280 -0.00000008
-0.26506581 0.11091953 0.08881864
-0.55018334 0.04013565 -0.00000100
0.70912394 0.04275106 -0.00000097
-0.05986287 0.30182714 0.09181268
-0.10675276 0.39300203 0.06289242
0.17515123 0.58976109 -0.00000038
-0.23248165 0.02545172 0.11354686
0.09090146 -0.37011560 0.00000000
0.31183628 0.34436102 0.00000162
0.52917076 0.21396093 -0.00000122
-0.78440774 -0.39666761 -0.00000101
0.64721039 0.09840624 -0.00000071
-0.20637746 -0.37179628 0.00000000
-0.05466841 0.08186728 0.13897562
-0.65712686 -0.22600275 -0.00000099
0.28035675 0.26065553 0.00000363
0.50855058 -0.12476929 -0.00000054
0.07886770 -0.14142487 0.00000000
-0.48950094 -0.52896247 0.00000000
0.51972021 0.00794032 0.00000325
-0.19230257 -0.17364762 0.00000000
-0.00658214 0.16443415 0.00000000
0.05209757 0.16356765 0.00000000
-0.73037119 -0.28590434 -0.00000120
0.20828833 0.24031941 0.00000525
-0.61138463 -0.06524502 -0.00000108
0.34968231 -0.07577443 0.00000000
0.09229885 0.57778046 0.00000194
-0.01479583 0.23117181 0.11605289
0.22399953 -0.40555583 0.00000000
-0.51425043 -0.01634999 -0.00000075
-0.05645849 0.11415161 0.00000000
0.29041353 0.28509482 0.00000302
0.48891906 0.29503709 -0.00000119
0.05941003 -0.63747618 0.00000000
-0.11904880 0.54288175 0.02892150
0.04520783 -0.53278901 0.00000000
0.28502421 -0.29950707 0.00000000
-0.43371864 0.00191777 -0.00000044
0.02365349 0.63547165 0.00000000
0.26871897 -0.51173958 0.00000000
0.22564316 -0.08100491 0.00000000
-0.73339563 -0.40539980 -0.00000099
0.39267364 0.05002484 -0.00000035
0.18580599 -0.62189254 0.00000000
0.65847914 -0.17453846 -0.00000109
0.31840426 -0.43327667 0.00000000
0.04366745 0.70314986 0.00000078
0.53094074 0.12101885 0.00000115
0.12189596 0.16572050 0.00000767
0.14417923 0.39930584 0.00000383
0.27234786 0.11282177 0.00000000
0.44489127 -0.24881150 -0.00000004
0.13609925 0.03802398 0.00000938
-0.05634400 -0.23581623 0.00000000
-0.37518193 0.16991906 -0.00000049
-0.21692006 -0.64892902 0.00000000
0.19216195 -0.45722371 0.00000000
0.78402062 -0.53257444 -0.00000067
0.40875072 -0.35349388 0.00000000
-0.07488873 0.18364676 0.00000000
0.06932657 -0.13379191 0.00000000
0.11822228 0.46797039 0.00000320
-0.09931183 -0.44844987 0.00000000
0.53331719 -0.07620698 -0.00000073
-0.09870142 -0.22355104 0.00000000
-0.15520698 0.28671245 0.00000000
-0.18056485 -0.52678129 0.00000000
0.06473257 -0.42506408 0.00000000
-0.27219664 -0.59431070 0.00000000
0.22938917 -0.58688669 0.00000000
0.17964346 0.44780236 0.00000243
0.13187865 0.19093973 0.00000715
0.41292789 0.17601696 -0.00000066
-0.25361221 0.41625588 -0.00000040
-0.26853134 -0.68588601 0.00000000
-0.72190745 -0.20266697 -0.00000131
-0.46256196 0.08513712 0.05284897
-0.44835168 -0.15522742 -0.00000022
0.09223007 0.20030072 0.00000760
0.31681206 0.44421629 -0.00000072
0.54451200 0.15932139 0.00000025
-0.51550864 0.01238519 0.05699749
0.23739295 0.19280768 0.00000000
-0.36738954 0.07652235 -0.00000029
0.25466843 0.11891619 0.00000637
-0.08494526 -0.54161170 0.00000000
0.41378055 0.29826821 -0.00000088
-0.69948790 0.08973541 0.00225550
-0.33709224 -0.21300804 0.00000000
0.51283548 -0.36426766 -0.00000013
-0.09673210 0.44166906 0.00000000
0.06558839 -0.45790515 0.00000000
0.12787225 -0.41056550 0.00000000
-0.74753725 -0.63859499 -0.00000040
-0.01789401 0.46567245 0.00000000
-0.21973184 0.02366818 0.11659113
-0.31267808 0.19596432 -0.00000027
0.13868716 0.34331923 0.00000476
-0.03972520 0.46809062 0.00000000
0.47617452 -0.27664682 -0.00000013
-0.25948661 0.17724252 -0.00000001
-0.32250714 -0.17218470 0.00000000
0.75227569 -0.67743426 -0.00000031
-0.17261315 0.59920846 -0.00000038
0.01132303 -0.42237838 0.00000000
-0.05338205 0.63730829 0.02289714
-0.66825952 0.09422948 0.00785570
0.57863677 0.14394998 -0.00000131
-0.27428506 -0.38714817 0.00000000
0.39252884 -0.10549311 -0.00000007
-0.55449119 -0.14240115 -0.00000070
-0.56539117 -0.54589479 -0.00000003
0.59197618 -0.20850839 -0.00000074
-0.68716031 -0.40244132 -0.00000081
0.49904821 0.18459022 0.00000070
-0.02375993 0.10576251 0.00000000
-0.14167897 0.26868610 0.00000000
0.34806738 0.01647625 -0.00000010
0.48968432 0.13701198 0.00000167
0.57379956 -0.62668880 0.00000000
0.18060395 -0.04592035 0.00000000
-0.22220818 0.23694602 0.00000000
0.49157427 0.28772916 -0.00000119
-0.14467818 -0.59840688 0.00000000
0.51163653 -0.76014950 0.00000000
-0.50989551 0.20898482 -0.00000113
-0.70360369 0.01711381 0.01660561
0.05435205 0.56807789 0.00000000
0.03846958 0.00794995 0.00000000
-0.15346923 -0.03810052 0.00000000
-0.73766268 -0.24820500 -0.00000130
-0.70035859 -0.37868806 -0.00000091
0.57392337 0.18348348 -0.00000136
0.17139599 0.37852671 0.00000000
-0.02156923 -0.40277074 0.00000000
-0.69314976 -0.45377864 -0.00000074
0.33450714 -0.30471979 0.00000000
0.73079492 -0.62409555 -0.00000044
0.02982290 -0.67357800 0.00000000
0.02707471 -0.34523206 0.00000000
0.44132980 0.10279520 -0.00000065
0.02189644 0.28113260 0.00000745
0.08416848 0.22313105 0.00000000
-0.06360576 0.19958464 0.00000000
-0.06494887 -0.10636851 0.00000000
-0.23327856 0.17468595 0.00000000
0.02895717 0.18362770 0.00000000
-0.12243800 0.27831356 0.08363060
0.27392701 -0.34919007 0.00000000
0.68846099 0.02798635 -0.00000157
0.62534741 0.16932975 -0.00000147
-0.09447582 -0.18056135 0.00000000
-0.54848979 0.22385767 -0.00000132
-0.18645960 -0.58675378 0.00000000
0.10742514 0.40222574 0.00000435
0.59872240 0.05934120 0.00000087
-0.42338088 0.19570081 0.03789634
0.34764210 0.26443771 -0.00000054
0.16209236 0.62059629 -0.00000037
-0.33873868 0.03099358 0.09012856
0.46423130 -0.67833356 0.00000000
-0.24271194 0.28044035 0.05799146
0.76150902 -0.08127382 -0.00000169
-0.49320072 -0.78732324 0.00000000
0.34364925 0.29444982 -0.00000057
-0.59314781 0.01176981 0.04086286
0.06805895 0.51903906 0.00000319
-0.06414447 -0.55948203 0.00000000
-0.73166307 -0.17343802 -0.00000140
0.07996912 0.57009955 0.00000000
-0.55346225 0.22175888 -0.00000134
-0.04089242 0.34438300 0.00000000
0.64642641 0.07283338 -0.00000027
0.12007843 0.50307175 0.00000000
-0.23527136 -0.37717374 0.00000000
-0.47531811 0.14357278 -0.00000087
0.27058837 0.20701079 0.00000471
-0.28370224 -0.72868351 0.00000000
0.54247730 -0.29351482 -0.00000038
-0.04478881 0.25158712 0.00000000
-0.11299206 0.40242673 0.05961130
0.77287417 -0.31350150 -0.00000122
0.50778102 -0.06147252 -0.00000064
-0.29124897 -0.01828310 0.00000000
-0.01832209 0.17492151 0.00000000
0.51459813 0.12521315 0.00000139
0.10958407 -0.76098004 0.00000000
0.07288602 0.12805900 0.00000898
-0.36508485 -0.62109079 0.00000000
0.04991296 0.48141617 0.00000000
0.08929344 0.27823078 0.00000648
0.67873399 -0.22130670 -0.00000109
-0.11407497 0.28069658 0.08488321
0.12958807 -0.40305023 0.00000000
-0.48438829 0.18403912 0.02755958
0.03603056 -0.49353980 0.00000000
0.22589816 0.14629917 0.00000000
-0.44227528 0.04027880 -0.00000054
0.43336817 -0.79672441 0.00000000
0.12593892 0.34964467 0.00000486
0.18559339 0.01056532 0.00000904
-0.17907435 -0.70532551 0.00000000
-0.25801780 0.44907570 -0.00000048
0.50352453 -0.17239145 -0.00000043
0.32462971 0.11894516 -0.00000018
0.13036939 0.22609894 0.00000664
0.14273802 0.49743182 0.00000231
-0.47250102 -0.78585507 0.00000000
0.26459619 0.21791477 -0.00000010
-0.48915189 0.02389611 -0.00000072
0.08219277 0.46676690 0.00000000
-0.06941698 0.59164688 0.02910302
0.50892145 0.02995610 -0.00000081
0.02937757 0.67652427 0.00000141
-0.09359936 -0.47055141 0.00000000
0.05519700 0.44178095 0.00000000
-0.06148835 0.61246116 0.02640385
0.07172441 -0.37654161 0.00000000
-0.47839751 -0.45691974 0.00000000
0.41941730 -0.06401544 -0.00000026
-0.67613150 0.07050376 -0.00000160
-0.04949813 -0.59662950 0.00000000
-0.21870500 -0.59470378 0.00000000
0.23051582 0.29519217 0.00000401
-0.18224699 -0.55277287 0.00000000
0.27990172 0.42192047 0.00000094
0.64175026 -0.29023647 -0.00000081
0.14807726 -0.61779339 0.00000000
-0.05993174 0.39963424 0.00000000
0.44017160 -0.00430285 -0.00000046
0.25056070 -0.13267991 0.00000000
0.25139769 0.43044958 -0.00000042
-0.27647181 -0.51236587 0.00000000
0.22010363 0.39162357 -0.00000022
0.60346749 0.09192026 -0.00000132
-0.64559619 -0.62351964 -0.00000024
-0.75934309 -0.24452788 -0.00000139
0.07787852 0.65967499 -0.00000008
-0.43200616 0.04253107 -0.00000050
0.10327983 0.21604561 0.00000000
-0.31786324 0.40525564 -0.00000066
0.03245399 0.24110039 0.00000789
-0.11973673 0.20073932 0.00000000
0.35319060 0.27325048 0.00000202
0.31239956 -0.74201643 0.00000000
-0.78490536 -0.05933976 -0.00000183
-0.59955460 -0.24917480 -0.00000070
0.70825616 -0.78431348 -0.00000004
0.19292804 -0.63214117 0.00000000
-0.00028182 -0.19803798 0.00000000
-0.41283938 0.10820651 -0.00000054
-0.27022086 -0.63255939 0.00000000
0.14972006 0.02306957 0.00000939
-0.73626679 -0.69496768 -0.00000026
-0.27522452 -0.73413317 0.00000000
-0.71675812 -0.60672655 -0.00000048
0.05425251 0.20227936 0.00000815
-0.11078363 0.47195024 0.04551084
0.41531519 0.31759984 -0.00000092
0.06158155 0.43106923 0.00000000
-0.10767107 -0.57663051 0.00000000
0.58513562 -0.37737575 -0.00000042
-0.25604793 0.44073318 -0.00000046
-0.05046441 -0.41403551 0.00000000
-0.56701365 0.22508629 0.00165329
0.66161451 -0.40190885 -0.00000070
-0.54607083 0.10454078 -0.00000110
0.26290064 -0.62793814 0.00000000
0.24858815 -0.00812156 0.00000000
0.17793284 0.49021118 0.00000176
-0.52443414 -0.00918351 -0.00000081
-0.04840832 0.66190315 0.00000000
-0.26271233 -0.37366185 0.00000000
0.64927342 -0.36469310 -0.00000071
0.43505347 0.32981214 -0.00000050
0.28549852 -0.61683809 0.00000000
0.50225593 -0.49323824 0.00000000
-0.29789123 0.45724843 0.00939621
-0.01595457 0.20811414 0.12064005
0.11425808 -0.36996029 0.00000000
0.14398646 0.21949231 0.00000000
-0.30816460 -0.45576472 0.00000000
0.10162392 -0.22679622 0.00000000
0.28521319 -0.47852592 0.00000000
0.44341907 -0.12653739 -0.00000025
0.46474437 -0.34043170 0.00000000
0.05219335 -0.13341139 0.00000000
-0.54273578 -0.79783365 0.00000000
0.11276073 -0.19962093 0.00000000
-0.41457706 -0.52413021 0.00000000
0.26440864 -0.23059853 0.00000000
-0.14069790 0.08357513 0.12059750
0.45879485 -0.73973415 0.00000000
0.38107386 -0.21176442 0.00000000
-0.18686902 0.05321862 0.11728491
-0.70114633 -0.31959726 -0.00000101
-0.32520264 0.04677489 0.08965827
0.09931804 -0.56420907 0.00000000
0.35054714 -0.48046002 0.00000000
0.33462533 0.29812589 -0.00000054
-0.49193133 -0.14142062 -0.00000044
0.57240435 -0.12799411 -0.00000080
-0.58469071 -0.13636091 -0.00000084
-0.39574466 0.39821038 -0.00000098
0.75569289 0.02747327 -0.00000186
0.09875761 -0.16482005 0.00000000
0.11231100 0.60679123 0.00000107
0.02323721 0.10888704 0.00000000
0.33421264 -0.48069838 0.00000000
0.53015758 0.09573024 0.00000158
0.02820458 -0.76125221 0.00000000
-0.23338315 0.24712674 -0.00000002
0.78872974 -0.59076325 -0.00000052
-0.78886335 -0.25413447 -0.00000136
-0.02863416 0.70935605 0.01298922
0.30241050 -0.65412425 0.00000000
0.77181073 -0.45031166 -0.00000087
0.66427030 -0.47796620 -0.00000058
0.42413190 -0.50734521 0.00000000
0.21636024 0.21658492 0.00000000
0.78956530 -0.42375246 -0.00000094
0.21879185 0.28204438 0.00000445
0.42955283 -0.32535733 0.00000000
-0.51414988 -0.09624383 -0.00000061
-0.45169848 0.11053582 0.04980426
-0.41605450 0.31057475 -0.00000091
0.02315141 -0.01426856 0.00000000
-0.67449257 -0.53139738 -0.00000052
0.30682306 0.32434925 0.00000205
