ply
format ascii 1.0
element vertex 1393
property float x
property float y
property float z
end_header
0.58222974 0.06119336 -0.00000118
0.13832361 0.62159083 0.00000032
0.76878679 -0.23930536 -0.00000140
0.57986977 -0.27442720 -0.00000058
0.29162295 -0.43860942 0.00000000
-0.13731129 0.22994763 0.00000000
-0.23975458 0.55628146 0.02129456
-0.65439240 -0.09512779 -0.00000061
-0.51488736 -0.71726926 0.00000000
-0.76716364 -0.39631167 -0.00000050
-0.22940045 -0.70652972 0.00000000
-0.11645917 -0.35191597 0.00000000
-0.20808310 0.39246929 -0.00000008
-0.46668179 0.06166134 -0.00000034
-0.19959140 -0.50646838 0.00000000
0.71512362 0.06260839 -0.00000175
0.53009848 -0.19526329 -0.00000050
0.35414575 0.17943333 0.00000357
0.69015188 -0.55345926 -0.00000055
0.31345581 -0.67426091 0.00000000
-0.65801669 -0.37484754 -0.00000037
-0.51625701 0.23670414 -0.00000060
0.35997304 0.00191297 -0.00000013
-0.05953443 0.29621603 0.00000000
0.13419489 -0.12620213 0.00000000
-0.65269680 0.07673011 -0.00000075
0.02962013 -0.27455674 0.00000000
0.18583340 0.43482221 -0.00000015
-0.39558742 0.36258886 0.22465872
-0.61230595 0.17241453 0.08207146
-0.22122655 0.04195249 0.00000000
0.75708899 -0.03545499 -0.00000175
0.20196666 -0.66472104 0.00000000
0.24719179 -0.79248287 0.00000000
-0.62522501 -0.19968975 -0.00000045
-0.72573203 -0.60897676 -0.00000024
0.09455018 0.60181810 0.00000149
-0.59765709 -0.62655628 -0.00000001
0.16932261 -0.46352788 0.00000000
0.21568513 -0.55522403 0.00000000
-0.13441197 -0.72574502 0.00000000
-0.41820472 0.38050843 0.00691168
-0.34957102 -0.67130883 0.00000000
-0.63358759 -0.07408902 -0.00000058
-0.14587705 0.04376767 0.00000000
0.16690427 -0.28709954 0.00000000
0.41454491 -0.40036193 0.00000000
-0.18697632 -0.55899714 0.00000000
0.47631517 -0.07990827 -0.00000048
0.14831714 0.16842097 0.00000000
0.48086338 0.08418832 -0.00000079
-0.46670279 -0.50980027 0.00000000
0.54247525 -0.10737287 -0.00000071
0.61258774 -0.37585461 -0.00000054
-0.12029864 0.21298162 0.00000000
-0.22477797 -0.61574394 0.00000000
0.70572877 -0.22540577 -0.00000120
0.20402763 -0.11909161 0.00000000
-0.76499343 -0.24746883 -0.00000069
-0.28474699 0.05819607 0.00000000
-0.09803073 -0.76109743 0.00000000
-0.63552766 -0.77952586 0.00000000
-0.77398891 0.02286311 0.01690368
-0.40092459 0.32228395 0.41248558
0.10617770 0.37328168 0.00000480
0.07795529 0.31845395 0.00000605
0.08265325 -0.38767279 0.00000000
0.14910522 0.42246808 0.00000000
-0.63818259 -0.78697633 0.00000000
-0.14505845 0.46685618 -0.00000002
0.44895507 -0.04216021 -0.00000043
0.17096706 0.35721792 0.00000000
-0.04877063 -0.32189659 0.00000000
-0.63666475 -0.74188923 0.00000000
-0.59358836 0.03911776 -0.00000059
-0.58516894 0.18879104 0.13987266
-0.54688465 0.02691374 -0.00000048
0.57187237 0.16113800 -0.00000031
-0.25585392 0.52648035 0.09489440
-0.40044063 -0.11870621 -0.00000004
0.18606831 -0.26503304 0.00000000
0.32102737 0.25354623 0.00000296
-0.24995010 -0.48431969 0.00000000
-0.74729875 -0.49155658 -0.00000039
-0.35090315 0.36166601 0.46963405
-0.69379846 -0.63703956 -0.00000020
0.26668583 0.42231207 0.00000119
-0.48498887 0.28476383 0.16247381
-0.56083841 -0.01759207 -0.00000047
-0.40965895 0.34270362 0.25588711
-0.08033635 -0.65751191 0.00000000
-0.49392957 -0.56087878 0.00000000
-0.50506852 0.23312016 0.33202128
-0.73873488 -0.18407343 -0.00000071
0.18973827 0.47059271 0.00000186
0.76662144 -0.44507732 -0.00000089
0.05886475 -0.56931005 0.00000000
-0.62387046 0.13736740 0.20820987
0.66204488 -0.43261435 -0.00000065
-0.11471206 -0.33380000 0.00000000
-0.63848967 -0.56185312 -0.00000016
-0.01434446 -0.39808244 0.00000000
0.31682497 -0.41409657 0.00000000
0.73416859 -0.56328774 -0.00000059
0.14574418 -0.69299804 0.00000000
-0.28695195 0.43691390 0.40895462
-0.76304916 -0.65694226 -0.00000018
-0.14086535 0.24540199 0.00000000
0.11339394 -0.71232159 0.00000000
-0.63820549 0.14605815 0.08452501
-0.06068085 0.01543009 0.00000000
-0.27802756 0.49626762 0.13807659
0.34096929 -0.78188617 0.00000000
-0.75095703 -0.28962426 -0.00000064
-0.27438707 -0.74505824 0.00000000
-0.10334573 -0.32337720 0.00000000
-0.11457593 0.21857212 0.00000000
0.79471303 -0.42128300 -0.00000095
0.25106728 -0.74647104 0.00000000
0.30531255 -0.07842764 0.00000000
-0.59116481 -0.24961559 -0.00000033
-0.11876302 0.66975295 0.06169098
-0.49246822 -0.41401074 0.00000000
0.74219869 -0.74123880 -0.00000015
0.57432776 0.15509908 -0.00000026
-0.51020551 0.24447366 -0.00000060
0.09846054 0.42938420 0.00000407
-0.57798909 -0.12751068 -0.00000041
0.52827378 0.22153265 -0.00000123
-0.52524899 -0.73094576 0.00000000
0.33020665 -0.70651908 0.00000000
-0.05388071 0.03172634 0.00000000
-0.77745722 -0.53340519 -0.00000033
-0.04775589 -0.49324380 0.00000000
-0.51887528 -0.16380639 -0.00000026
-0.47407277 0.29704460 -0.00000057
-0.28859876 -0.57845317 0.00000000
0.74042719 -0.65943967 -0.00000035
-0.56488714 0.18804516 0.25282461
0.03527574 -0.15781946 0.00000000
-0.56925354 -0.74416954 0.00000000
-0.40803827 -0.17573336 -0.00000001
0.39689199 0.22314087 -0.00000067
-0.32840367 0.39513647 0.41070424
-0.39465472 0.21692000 -0.00000033
-0.48996902 0.09645732 -0.00000042
-0.33911661 -0.53155081 0.00000000
0.09382783 0.02733623 0.00000000
0.31588953 0.41129104 -0.00000066
0.15277487 0.61730191 -0.00000033
0.61256034 -0.75640574 0.00000000
0.30742835 -0.10122002 0.00000000
-0.00490740 -0.32670063 0.00000000
-0.10608227 -0.74368108 0.00000000
0.38094950 0.01156686 0.00000585
0.22421820 -0.78792948 0.00000000
-0.37192454 -0.22683735 0.00000000
-0.72143402 -0.40333775 -0.00000048
-0.24084082 -0.66451931 0.00000000
-0.20315696 0.06515371 0.00000000
-0.54084649 0.25768436 0.00788911
0.17847194 0.32423591 0.00000000
0.57168071 -0.09308266 -0.00000086
-0.21483857 -0.76520369 0.00000000
0.41461449 0.11901000 -0.00000057
-0.26168735 0.44544207 -0.00000025
0.15873441 0.25649035 0.00000576
0.15201368 0.51058567 -0.00000014
0.76664546 -0.24307592 -0.00000139
-0.64900145 -0.74523855 -0.00000002
-0.76538372 -0.40447685 -0.00000049
-0.31176047 0.44270016 0.24461729
-0.65074404 -0.18247044 -0.00000052
-0.03554586 0.31008021 0.00000000
-0.41115104 0.30268468 0.46283098
-0.62103077 0.15272389 0.14097506
0.01011771 -0.15036284 0.00000000
-0.07707394 0.31646218 0.00000000
-0.74473139 -0.61967485 -0.00000023
-0.31431992 -0.78463928 0.00000000
0.16235759 0.13072476 0.00000000
-0.62719912 0.12728314 -0.00000074
-0.11396698 0.65912742 0.14452701
-0.26614919 0.41461002 -0.00000023
-0.62832887 0.14253820 0.15648578
0.39511560 -0.02725194 -0.00000022
-0.15207936 0.60697547 0.21993953
-0.00925568 0.45683169 0.00000000
0.26783212 0.10242598 0.00000000
-0.30139874 -0.79492942 0.00000000
-0.59503514 -0.54563945 -0.00000008
-0.73840916 -0.72605727 -0.00000009
0.18800014 0.17303728 0.00000657
0.25640988 0.17265986 0.00000554
-0.43012541 -0.72129972 0.00000000
0.49704986 -0.10148176 -0.00000053
0.51980790 -0.21953688 -0.00000042
-0.75026940 0.04336326 0.03419706
-0.55511614 -0.16863575 -0.00000033
0.34575146 0.42077291 -0.00000081
0.00742880 0.06422170 0.00000000
-0.42261167 0.07156318 -0.00000026
0.41716949 -0.76219743 0.00000000
-0.47160348 -0.30307980 -0.00000003
-0.24595982 0.33247169 -0.00000011
-0.33648938 0.45603029 -0.00000041
-0.38518512 0.36322497 0.27711745
0.45824676 0.26699556 -0.00000101
-0.14879889 -0.54432175 0.00000000
0.31593961 -0.52446512 0.00000000
-0.05416553 0.30660118 0.00000000
-0.01852945 -0.16056292 0.00000000
-0.70238123 -0.54204522 -0.00000031
-0.32396449 0.04997221 -0.00000003
-0.44162140 0.23758223 -0.00000045
0.37799568 0.03872143 -0.00000027
0.53222652 -0.29009405 -0.00000034
-0.77313558 -0.47839017 -0.00000040
-0.12065248 0.46224440 0.00000000
-0.59565985 -0.05354286 -0.00000052
0.76067666 -0.30472598 -0.00000124
-0.58097343 0.08861897 -0.00000061
0.14187072 0.42899213 0.00000000
-0.25365575 0.53708095 0.04976015
0.71558352 -0.03439817 -0.00000158
0.36843969 0.10172144 -0.00000034
0.06078023 0.37009097 0.00000000
-0.41877816 0.33982571 0.22236154
-0.03210225 0.36819948 0.00000000
0.21571581 0.48523541 -0.00000036
-0.26884939 0.14153268 0.00000000
0.47807107 0.09781033 0.00000255
0.39183346 -0.21592878 0.00000000
-0.43398838 -0.63770859 0.00000000
-0.19155922 0.28058959 0.00000000
-0.72226371 -0.47737808 -0.00000040
0.39219292 0.39148029 -0.00000095
-0.37243534 -0.71260721 0.00000000
-0.36270655 0.34130418 0.51560493
0.08579766 0.55789537 0.00000234
-0.49299752 -0.65617003 0.00000000
0.59115495 0.04800371 0.00000121
-0.33728348 0.40895625 0.28877528
-0.62794804 -0.35163213 -0.00000032
0.11130787 -0.16607298 0.00000000
0.18209815 -0.05889795 0.00000000
0.73621452 -0.71846224 -0.00000020
0.23192265 0.11209162 0.00000000
0.09124581 0.24372116 0.00000000
-0.26592826 0.51224939 0.11722183
-0.66694435 0.12975015 0.01775138
0.14167678 0.37552513 0.00000000
-0.61079297 0.17097329 0.09794032
0.11297803 0.18060660 0.00000000
-0.07948206 0.18373311 0.00000000
-0.20817168 0.46259353 -0.00000015
-0.69575313 0.08452851 0.10591383
0.61514059 -0.41425081 -0.00000048
-0.64549323 -0.77570231 0.00000000
0.37980007 -0.69028228 0.00000000
0.43194218 -0.16156207 -0.00000014
0.10807010 0.41793052 0.00000410
-0.67617649 -0.31255184 -0.00000046
0.33989793 -0.56288001 0.00000000
-0.27722807 0.37683670 -0.00000022
0.70875805 -0.44100265 -0.00000083
-0.41071007 0.35109690 0.20515596
0.16729225 -0.08641077 0.00000000
0.00248973 -0.11187758 0.00000000
0.11742663 0.62842700 -0.00000020
-0.21414298 -0.79599082 0.00000000
0.07784378 0.31970277 0.00000000
0.28557068 0.20680436 0.00000442
0.30852830 0.00106033 0.00000000
0.73961524 -0.00667664 -0.00000173
-0.23188691 0.41320359 -0.00000015
-0.02839690 -0.54944924 0.00000000
0.02228722 0.22095363 0.00000000
0.17056122 0.11102758 0.00000000
0.18370256 -0.04469451 0.00000000
-0.40014854 0.34676938 0.28513259
-0.26336582 0.51191159 0.13280074
-0.32035039 0.40017702 -0.00000033
0.31027406 0.41221879 -0.00000064
0.44170441 -0.57533368 0.00000000
0.30253666 -0.47134918 0.00000000
0.05584027 0.10136027 0.00000000
-0.00514283 -0.09781807 0.00000000
-0.30624869 0.46984292 0.12842657
-0.30790581 -0.00319897 0.00000000
-0.55757488 -0.48950830 -0.00000005
0.19012663 -0.06174717 0.00000000
-0.55706055 0.03281826 -0.00000051
-0.11782928 0.67982268 0.01261638
0.35784656 0.30515724 -0.00000065
-0.67036243 0.10999625 0.10550036
-0.58002203 -0.45272092 -0.00000013
-0.06697733 -0.49062273 0.00000000
0.43685483 0.13346204 -0.00000069
-0.57483331 0.21183168 0.07162696
-0.15072281 -0.37165516 0.00000000
-0.48504208 0.29631955 -0.00000059
0.02856357 0.30387077 0.00000701
0.69802883 -0.49512273 -0.00000069
0.04553669 -0.06779728 0.00000000
-0.51295992 0.28518944 0.00993875
0.11060574 0.05703237 0.00000948
0.38008660 -0.75423795 0.00000000
-0.39877133 0.35168151 0.26614503
0.30232724 -0.04129896 0.00000000
0.58797159 -0.21750852 -0.00000071
-0.61638188 0.16835380 0.08198973
-0.05292784 -0.55937992 0.00000000
-0.26712286 0.49777671 0.18854524
0.61153643 -0.65175059 -0.00000004
-0.00855160 0.37757672 0.00000000
-0.64038511 -0.05061257 -0.00000061
-0.02559448 0.23323501 0.00000000
0.37087651 0.38538197 -0.00000085
0.09041739 -0.68317574 0.00000000
-0.20917214 -0.78592727 0.00000000
0.23086584 0.45778300 0.00000128
-0.59106768 0.19291945 0.08601098
0.02946591 0.18118919 0.00000000
0.28128151 -0.14256870 0.00000000
0.13137653 0.28240992 0.00000000
0.59357583 -0.50353642 -0.00000023
0.64373927 0.13641161 -0.00000128
-0.37802921 0.36708087 0.29484318
-0.78544632 -0.49957632 -0.00000038
0.52439544 -0.54739036 0.00000000
-0.39301209 0.04360902 -0.00000017
-0.40050931 -0.27862737 0.00000000
-0.09534455 -0.23560070 0.00000000
-0.02106357 0.71795606 0.00000000
0.18934493 -0.31831414 0.00000000
-0.28755977 0.17089655 -0.00000006
-0.59332357 0.18086851 0.13862579
0.70268504 0.03821718 -0.00000077
0.48742815 0.00077085 0.00000399
-0.35885952 0.34272757 0.52862337
0.16144353 0.52575270 0.00000148
0.03340681 0.54769158 0.00000000
0.26228227 0.06473151 0.00000707
-0.46957003 0.11111559 -0.00000039
-0.29313028 0.44753716 0.31870620
0.33505533 0.36011344 0.00000091
-0.15108968 0.63924911 0.05189908
0.05190918 0.20240723 0.00000000
0.15015278 0.14923376 0.00000000
0.05487756 0.49288229 0.00000378
-0.24086918 0.55155316 0.04070583
0.51482493 -0.22876759 -0.00000038
0.73284784 -0.41061947 -0.00000097
-0.09776626 0.41280909 0.00000000
0.66851174 -0.56882894 -0.00000043
-0.54129350 0.14152610 -0.00000057
0.28633648 0.38274018 -0.00000048
0.35303486 0.12012306 0.00000458
0.01730945 0.77741867 0.00000004
-0.08530370 -0.25670929 0.00000000
-0.00868329 0.51536764 0.00000000
0.28580849 0.44517681 -0.00000059
-0.53642894 -0.49386265 -0.00000000
0.34011190 0.11106772 -0.00000023
0.17735884 -0.65003848 0.00000000
-0.59168702 0.20688037 0.00769209
0.22413493 0.03584839 0.00000808
0.15270706 -0.77397770 0.00000000
0.10439436 -0.18657370 0.00000000
-0.23179286 0.52091622 0.25402534
-0.19814570 0.56070847 0.22101741
-0.17576328 0.14402386 0.00000000
0.76567261 -0.69794459 -0.00000026
-0.56487975 -0.77834493 0.00000000
0.50397289 -0.04849057 -0.00000065
0.52939404 -0.58324969 0.00000000
0.38609602 -0.54246516 0.00000000
-0.47098704 0.04553899 -0.00000034
-0.21781517 0.53357904 0.26108806
-0.66433456 -0.26942837 -0.00000047
-0.38234942 0.40712764 0.05652451
0.52823959 0.01479472 0.00000297
-0.05269196 -0.33638190 0.00000000
0.75123055 -0.61128680 -0.00000047
-0.38973514 0.37160680 0.20765425
0.18550573 0.51256569 -0.00000028
0.46784538 0.32519147 -0.00000116
0.37542922 0.09681603 0.00000454
0.66026504 0.07553306 -0.00000154
0.22643314 -0.52334470 0.00000000
0.06042310 0.61516106 0.00000186
-0.40738224 -0.44386559 0.00000000
-0.24531788 0.26304007 -0.00000005
-0.30129827 -0.68352874 0.00000000
0.01250453 0.33732411 0.00000000
0.52937243 -0.56404605 0.00000000
-0.61461536 0.15436415 0.16662519
-0.45590172 0.30325127 0.21941135
0.18170561 -0.38797722 0.00000000
0.67219345 0.11155507 -0.00000141
-0.54034262 -0.15769924 -0.00000031
0.20806690 0.34741119 0.00000356
-0.33144103 -0.74485838 0.00000000
0.07569636 0.01042213 0.00000000
0.04070382 -0.30201551 0.00000000
0.53027651 -0.55164852 0.00000000
0.17618034 -0.63536615 0.00000000
0.05523563 -0.06164502 0.00000000
-0.14870817 -0.45965733 0.00000000
0.59627432 -0.18694105 -0.00000080
0.10686822 0.20860671 0.00000000
-0.76967493 -0.47988971 -0.00000040
-0.42356484 0.35101807 0.13652891
0.02292200 -0.26739784 0.00000000
-0.05687550 0.29456534 0.00000000
0.14924143 0.23882285 0.00000617
-0.67180184 -0.34949787 -0.00000042
-0.14131381 0.02468824 0.00000000
-0.31445191 -0.55929977 0.00000000
0.01043123 0.70911296 0.00000121
0.21633029 0.33304958 -0.00000010
0.34279548 0.40580403 0.00000000
0.16934039 -0.77133738 0.00000000
0.12378764 0.12578912 0.00000000
0.73027918 -0.31611010 -0.00000114
0.19751620 0.12061851 0.00000721
-0.63248246 -0.56156552 -0.00000015
-0.61234452 -0.74180217 0.00000000
-0.72082288 -0.28771705 -0.00000058
0.05002543 0.51786470 0.00000000
-0.64192555 -0.13658533 -0.00000054
0.16446411 0.35076071 0.00000000
0.28359578 -0.15139905 0.00000000
-0.73432540 -0.22443989 -0.00000066
-0.70601525 -0.50208647 -0.00000036
-0.42700792 -0.57802360 0.00000000
-0.21273025 -0.53269930 0.00000000
0.29568007 0.04537880 0.00000000
0.06066816 -0.33784854 0.00000000
0.10763835 0.32587240 0.00000549
0.52219284 0.02368240 0.00000294
0.31233094 0.25142834 0.00000317
0.16174669 -0.28179320 0.00000000
-0.63469399 -0.60857331 -0.00000011
0.00256456 0.12015389 0.00000000
-0.54174866 0.14354289 -0.00000058
-0.44116164 -0.24405331 -0.00000002
0.37813764 0.02538646 -0.00000024
-0.32223809 -0.03854388 0.00000000
-0.61546824 0.16215442 0.12019788
-0.65107638 -0.31880134 -0.00000040
0.03497271 0.16436801 0.00000000
0.75110419 -0.48468259 -0.00000079
0.03041168 0.68304892 0.00000000
-0.20791227 -0.51395033 0.00000000
0.17311005 -0.16029944 0.00000000
0.32968043 -0.07842577 0.00000000
0.38873156 -0.12512444 -0.00000002
-0.68046075 -0.67167598 -0.00000015
-0.38408606 0.32063940 -0.00000040
-0.47993315 -0.04010028 -0.00000028
0.59556288 -0.31542258 -0.00000057
0.12121817 0.23102805 0.00000671
0.03186951 -0.73909813 0.00000000
0.15925685 0.34840887 0.00000000
-0.53565501 0.12339730 -0.00000054
0.31461344 0.31269872 0.00000210
-0.56797096 -0.23025405 -0.00000030
-0.00095233 0.31321305 0.00000000
0.43712106 0.04673084 0.00000419
0.27365262 0.34015416 0.00000243
0.13742640 0.51245532 0.00000216
0.15596223 -0.33206517 0.00000000
0.29929835 -0.02818599 0.00000000
0.54997347 -0.42752077 -0.00000018
-0.11237295 0.43350225 0.00000000
0.25108887 -0.67912869 0.00000000
-0.02802825 0.28188451 0.00000000
-0.12445681 -0.55110825 0.00000000
0.36959956 -0.49866755 0.00000000
-0.13579704 0.65116858 0.07001857
0.78002831 -0.09403378 -0.00000175
0.27905450 -0.68587904 0.00000000
-0.12854939 -0.46815374 0.00000000
0.06423525 0.73476109 -0.00000016
0.38401976 -0.55671943 0.00000000
0.24812640 0.44250254 -0.00000043
-0.24735370 0.09233200 0.00000000
0.11989982 0.16812548 0.00000000
0.44337661 0.25855637 -0.00000094
0.18769039 -0.52331161 0.00000000
-0.66594283 -0.37026970 -0.00000039
-0.41320833 -0.39814781 0.00000000
0.01510682 -0.32904797 0.00000000
0.15024313 -0.57358129 0.00000000
-0.29322037 0.44231106 -0.00000031
-0.65956085 -0.01439494 -0.00000069
-0.03185313 0.10115803 0.00000000
-0.18674377 0.33524055 0.00000000
-0.23888635 -0.78420447 0.00000000
-0.06438062 0.40851708 0.00000000
-0.54825011 -0.01525847 -0.00000045
-0.28078135 0.46376130 0.29789081
0.06450965 0.09068738 0.00000000
0.06259372 0.25614931 0.00000721
0.11053244 0.39984444 0.00000433
0.15600590 0.27623166 0.00000550
0.63940730 -0.76745930 0.00000000
0.67643378 0.01837758 -0.00000151
0.73598906 -0.79387600 -0.00000002
0.39057366 0.31488957 0.00000060
0.16196113 0.61637029 -0.00000037
-0.05614150 -0.28757488 0.00000000
-0.32423253 0.42233706 0.28700339
-0.33539615 0.19848946 -0.00000018
-0.37317753 -0.30906549 0.00000000
-0.41603568 -0.70472030 0.00000000
-0.16865114 0.61388738 0.09379856
-0.47562854 -0.40760753 0.00000000
-0.33544188 -0.23930865 0.00000000
-0.53067086 -0.77218968 0.00000000
0.35560504 0.23411267 0.00000262
-0.72338778 0.07522166 -0.00000090
0.15725040 0.49026486 -0.00000012
0.73636823 -0.62571603 -0.00000044
-0.28099791 -0.50549233 0.00000000
-0.21189683 -0.73156852 0.00000000
0.42276154 -0.73839209 0.00000000
0.10780972 0.08235226 0.00000914
-0.64414456 -0.03360840 -0.00000064
-0.52210114 0.22752510 0.27058396
-0.26419657 -0.60544689 0.00000000
-0.45737317 0.32323678 0.10415379
-0.45989085 0.18570129 -0.00000044
-0.20829320 0.43663030 -0.00000012
-0.55607094 -0.40006523 -0.00000013
-0.14658373 -0.48558867 0.00000000
-0.53890722 0.19882360 -0.00000062
0.00969932 0.72340639 0.00000000
0.00300122 -0.52974024 0.00000000
-0.67950411 -0.34011190 -0.00000044
0.01643104 0.56979632 0.00000321
0.07486268 -0.48916449 0.00000000
-0.79050335 -0.46805798 -0.00000041
0.59104443 0.15237097 -0.00000053
-0.25896177 0.51297500 0.15074524
0.69508351 -0.53829396 -0.00000060
-0.36689708 0.39937130 0.18119185
-0.02926558 0.72607156 0.00000000
0.41554706 0.01418867 -0.00000038
-0.10893009 0.39934326 0.00000000
0.74518664 -0.10980281 -0.00000157
-0.00905387 -0.31512715 0.00000000
-0.23729228 -0.44106159 0.00000000
-0.78179599 -0.60894220 -0.00000024
-0.45926425 -0.64077987 0.00000000
0.31450699 0.47450605 -0.00000077
-0.62397067 -0.42350645 -0.00000025
-0.50918701 0.25118696 0.21285200
0.04115341 0.53131889 0.00000341
0.05226254 0.66941979 0.00000117
0.53838545 -0.21811833 -0.00000050
-0.58841468 -0.53322676 -0.00000008
-0.41101085 -0.23960780 0.00000000
0.12126393 0.35895092 0.00000479
0.42946733 0.26525367 0.00000068
0.13896179 0.05590620 0.00000000
-0.14374487 0.64410003 0.06529530
-0.30694529 0.02890985 0.00000000
0.40930948 0.36922292 -0.00000066
0.31233006 -0.16583065 0.00000000
0.20708571 0.08305123 0.00000000
-0.14266035 0.63514399 0.11922802
-0.10584867 0.49767626 0.00000000
0.45557789 -0.23322811 -0.00000012
0.52995958 -0.51085588 0.00000000
-0.12219258 -0.69542350 0.00000000
-0.20760355 -0.64936464 0.00000000
0.73972638 -0.66277688 -0.00000034
-0.67457492 -0.31223289 -0.00000046
0.45657644 -0.22288467 -0.00000014
-0.47171087 -0.61678868 0.00000000
0.35677190 0.15191200 0.00000397
-0.35912768 -0.08726547 0.00000000
-0.27576945 0.29242658 -0.00000014
0.68315198 -0.46397061 -0.00000068
0.05181625 0.29960350 0.00000672
-0.62736958 0.16676042 0.03152739
-0.33530505 0.37649697 0.47375459
-0.27245955 0.45671090 0.38046136
-0.25508516 -0.02738835 0.00000000
0.29281894 -0.60797451 0.00000000
0.49829353 -0.78950094 0.00000000
-0.24196524 -0.67518846 0.00000000
-0.27359622 0.44698770 0.42658316
0.13576490 0.33597816 0.00000000
0.76377875 -0.55129950 -0.00000062
-0.27819660 -0.41230513 0.00000000
0.60105706 -0.16170521 -0.00000087
-0.25615775 -0.46922736 0.00000000
-0.46182965 0.32490686 0.07124444
-0.40213151 -0.57036880 0.00000000
0.08229267 0.48911794 0.00000342
-0.62460555 0.15630932 0.10251339
0.58600081 0.08119555 0.00000075
-0.70936731 -0.53029608 -0.00000034
0.34248768 0.41862824 -0.00000079
-0.52380329 -0.65420453 0.00000000
-0.31923551 0.39790517 0.44507841
0.49100961 0.23598086 -0.00000110
-0.29101961 -0.53297678 0.00000000
0.68551542 0.07670924 -0.00000108
-0.16606902 -0.68801099 0.00000000
-0.69572047 -0.40422345 -0.00000042
-0.12020318 -0.48280630 0.00000000
-0.51005911 0.25007554 0.21413749
-0.59743047 0.17544156 0.14571651
-0.51749945 -0.28821128 -0.00000014
-0.24158674 -0.44653093 0.00000000
-0.12468526 0.67339619 0.01030922
-0.65123340 0.14190208 -0.00000081
0.41700269 -0.53136491 0.00000000
0.75291600 -0.73334295 -0.00000017
0.46799802 0.21425363 0.00000080
0.02978805 0.17522924 0.00000892
-0.22282504 -0.57029941 0.00000000
0.49815112 0.08659983 0.00000235
0.78858643 -0.48953685 -0.00000078
0.43018361 -0.35923997 0.00000000
-0.44101128 0.12487543 -0.00000034
-0.30072310 0.37945940 -0.00000027
-0.18789776 -0.70816064 0.00000000
0.46942143 0.32162169 -0.00000102
0.48503315 0.21538427 0.00000045
-0.18697501 -0.38786054 0.00000000
-0.04984795 0.07897845 0.00000000
-0.35436737 0.40326872 0.22756071
0.16592321 0.14228110 0.00000000
-0.76510295 -0.21281106 -0.00000073
-0.59758292 -0.32032809 -0.00000028
0.43439618 0.26416252 -0.00000091
-0.60069500 -0.10381922 -0.00000048
0.17226559 0.58481247 -0.00000035
-0.30750675 0.47769005 0.07951735
0.01676175 0.69917329 0.00000126
0.42958606 0.14229164 0.00000274
-0.54685391 0.08449573 -0.00000053
-0.09582872 0.70063971 0.01897411
0.53472664 -0.79975691 0.00000000
0.34660697 0.06081266 -0.00000017
-0.59244169 0.16806577 0.21213370
0.09527220 0.11753509 0.00000000
0.27013782 0.40108835 -0.00000045
0.12631218 -0.45403317 0.00000000
0.40044817 -0.75425729 0.00000000
0.50552209 -0.73661357 0.00000000
0.21289253 0.18203489 0.00000606
-0.23734021 0.12637606 0.00000000
0.60791162 -0.57143169 -0.00000017
-0.38457477 0.39057196 -0.00000046
-0.77055676 -0.41923165 -0.00000048
0.07301781 -0.34568386 0.00000000
0.25256790 0.51386453 -0.00000007
0.44208295 -0.08405303 -0.00000032
-0.58093768 0.19599079 0.12392729
-0.46739706 0.29761193 -0.00000055
-0.45126850 0.08423537 -0.00000033
0.04696749 -0.02542900 0.00000000
0.14578869 0.49985611 -0.00000009
-0.22142284 0.54043562 0.20488021
0.11834621 -0.00989992 0.00000000
-0.39974629 0.32919617 0.38168633
0.07124600 0.27363589 0.00000682
-0.49105872 -0.35176950 -0.00000003
0.01714677 -0.14516273 0.00000000
0.19534987 0.17512013 0.00000643
0.62586063 -0.68939974 -0.00000004
-0.10602742 0.24216174 0.00000000
-0.76120036 0.00646940 -0.00000092
-0.47953963 0.25359161 0.35918686
0.13111834 0.52354504 -0.00000007
-0.45683734 -0.79307831 0.00000000
-0.05854883 -0.15681666 0.00000000
-0.24934768 0.28797025 -0.00000008
-0.43655088 -0.13570656 -0.00000010
-0.22258172 0.55952540 0.09611500
0.01942759 0.46151306 0.00000000
-0.47849092 -0.50836902 0.00000000
-0.46680192 0.28895954 0.23762899
-0.39080043 0.35986227 0.26501780
0.12093900 -0.06759692 0.00000000
-0.10978615 0.67516620 0.08083293
-0.76213091 -0.17165501 -0.00000077
-0.03948061 0.01969831 0.00000000
0.10225235 0.26814016 0.00000000
-0.22448482 0.53118564 0.23811858
-0.17848799 -0.04433250 0.00000000
-0.48942106 -0.24090855 -0.00000012
0.09744792 0.42606069 0.00000414
-0.74937177 -0.47906909 -0.00000040
-0.53782399 0.23886729 -0.00000065
-0.35248436 0.28671412 -0.00000030
0.19391702 -0.34044879 0.00000000
0.38821360 -0.00119475 -0.00000024
-0.06890685 -0.49786352 0.00000000
0.63676016 -0.76851910 0.00000000
-0.27569199 -0.79951066 0.00000000
-0.49147101 -0.17430358 -0.00000019
-0.46500850 -0.67347141 0.00000000
-0.29050250 -0.12653742 0.00000000
0.36446905 0.06437589 -0.00000026
-0.05320452 -0.38559154 0.00000000
0.65561190 -0.01895123 -0.00000135
-0.37794606 0.39505527 0.14502516
-0.09601930 0.69568316 0.04457481
0.16714812 -0.44217516 0.00000000
0.08276049 -0.20566284 0.00000000
-0.26112627 0.38798053 -0.00000019
-0.72257295 -0.65425679 -0.00000018
-0.25602305 -0.75591656 0.00000000
0.24763461 0.13002806 0.00000000
0.22293475 -0.22140910 0.00000000
-0.06453892 0.71145407 -0.00000006
-0.68421709 -0.37616132 -0.00000042
0.42098856 0.18932894 -0.00000072
0.69230110 0.07710528 -0.00000168
-0.17875434 0.61950301 0.00936360
0.15443682 -0.61211462 0.00000000
-0.78601995 -0.54770068 -0.00000032
0.38086125 -0.57164577 0.00000000
0.77556140 -0.69830365 -0.00000025
0.20103698 -0.70445429 0.00000000
0.70356037 -0.19102660 -0.00000125
-0.01380487 -0.51357630 0.00000000
0.55097012 -0.03410248 -0.00000088
0.36768831 -0.71395478 0.00000000
0.23131854 -0.59150602 0.00000000
0.53731136 0.12241746 0.00000100
-0.03944773 0.12029126 0.00000000
-0.35071343 0.40899351 -0.00000040
0.20598564 0.47263140 -0.00000030
0.68780041 -0.46823891 -0.00000069
-0.33669309 -0.57232312 0.00000000
-0.44484085 0.32720775 0.15014183
0.26839954 -0.69790359 0.00000000
-0.15277389 0.32917205 0.00000000
0.20808333 -0.25776753 0.00000000
0.18821476 0.43395170 0.00000250
-0.57987471 0.13213640 -0.00000065
0.25569777 -0.66620745 0.00000000
0.10118731 0.53705853 0.00000000
0.59603587 -0.62583009 -0.00000002
-0.41237234 0.38050365 -0.00000051
-0.42211222 0.18499948 -0.00000036
-0.60398970 0.16127004 0.18660633
-0.26309662 0.52580117 0.05963790
0.21198078 -0.79320155 0.00000000
-0.43434424 0.32048089 0.24265904
0.06907976 -0.26835348 0.00000000
0.57625388 -0.27789196 -0.00000055
-0.38677136 -0.79612254 0.00000000
-0.50222790 -0.44411335 0.00000000
0.01708119 0.38388048 0.00000598
0.50738399 0.00399533 0.00000355
-0.11649339 -0.25760119 0.00000000
0.50233758 0.20556145 -0.00000109
-0.49210369 -0.21787580 -0.00000015
0.01002429 -0.24701326 0.00000000
-0.52860905 -0.33757845 -0.00000012
-0.36981583 0.28475031 -0.00000033
0.04238023 -0.27881477 0.00000000
-0.61211652 -0.54812250 -0.00000011
0.49023883 -0.54063722 0.00000000
0.69258479 -0.75614305 -0.00000011
-0.08989591 -0.42995346 0.00000000
-0.18146491 -0.60978794 0.00000000
0.40865440 0.13267648 -0.00000056
-0.57959637 -0.39083133 -0.00000018
-0.23822138 -0.17053928 0.00000000
0.26104308 0.20410922 0.00000494
0.23868098 0.29043797 0.00000393
-0.11710824 0.66302380 0.10672487
-0.41437368 0.37236484 0.07123432
0.52517973 0.24489440 -0.00000126
-0.41683573 0.07029011 -0.00000024
0.30232703 -0.69723456 0.00000000
0.59541452 -0.44247602 -0.00000034
-0.57440848 0.22193106 0.01965943
-0.69453317 -0.71372121 -0.00000011
0.19656803 0.12195546 0.00000000
0.16667068 -0.05600931 0.00000000
0.76198189 -0.42204747 -0.00000094
-0.46773144 -0.27369994 -0.00000005
0.77322228 -0.26388893 -0.00000134
-0.08626511 -0.48194579 0.00000000
0.57574570 -0.73299884 0.00000000
-0.24561013 0.50936800 0.24183743
-0.30810082 0.47762852 0.07665677
0.54648589 -0.77568911 0.00000000
0.13670904 -0.44056621 0.00000000
-0.34898095 0.35762269 0.50167733
0.00786301 0.63336574 0.00000238
-0.06716657 -0.13933799 0.00000000
-0.46716029 -0.20114423 -0.00000011
-0.57023695 -0.48423924 -0.00000008
0.17691016 0.04299598 0.00000869
0.09861828 0.02683502 0.00000000
0.07963658 0.58058307 0.00000000
-0.76201670 -0.22255068 -0.00000072
-0.31868045 0.44294914 0.20610986
-0.43907937 0.36046790 0.00243091
0.63700860 -0.21276233 -0.00000093
0.75606795 -0.53653653 -0.00000066
0.03302565 0.32254757 0.00000666
0.41928705 -0.05526204 -0.00000028
-0.73010696 0.06554597 0.02334530
0.65598336 -0.37879507 -0.00000072
0.58491681 -0.02282194 -0.00000104
0.21706469 0.08709163 0.00000000
-0.35563385 0.36762155 0.41223378
-0.36933973 -0.58706510 0.00000000
0.22043670 -0.22771143 0.00000000
-0.04109089 -0.18667373 0.00000000
-0.47035372 0.31634185 0.07146420
0.46849985 0.27701079 -0.00000107
-0.32719404 0.05676930 -0.00000004
-0.27988709 0.36120718 -0.00000021
-0.45328014 0.33741252 0.04999385
0.31773592 -0.37007565 0.00000000
0.00016236 -0.07973369 0.00000000
-0.71218505 0.08300099 0.02585348
-0.44041844 0.08363199 -0.00000031
0.21594340 0.14984005 0.00000000
-0.40162570 0.36985100 0.15321448
-0.72113909 -0.30845519 -0.00000056
0.40404739 -0.42135414 0.00000000
0.30512538 0.28643314 0.00000272
0.60453029 0.16608212 -0.00000102
-0.56546160 0.22561933 0.04790656
-0.60275251 0.19150517 0.03084188
-0.26841339 0.50339007 -0.00000031
0.36464792 -0.19711310 0.00000000
-0.72577553 -0.71681112 -0.00000010
0.25655076 -0.77705720 0.00000000
0.59020762 0.08064301 0.00000068
-0.20906658 -0.09508728 0.00000000
0.78606936 -0.31923919 -0.00000120
0.79790949 -0.54810513 -0.00000063
-0.09215465 0.37253528 0.00000000
0.33110156 0.12839403 0.00000486
0.61824473 -0.20976962 -0.00000085
0.25853210 -0.51028105 0.00000000
-0.32279237 -0.36930963 0.00000000
-0.43482571 0.35181944 0.07173556
0.08277173 -0.33177436 0.00000000
0.73742120 -0.26788824 -0.00000126
0.34466776 -0.46977741 0.00000000
0.50881642 0.03526235 -0.00000082
-0.45108139 -0.71814173 0.00000000
-0.37505892 0.21267859 -0.00000028
0.08050566 -0.53582449 0.00000000
-0.23717097 -0.79986568 0.00000000
-0.07254359 -0.31109366 0.00000000
0.79400343 -0.71718493 -0.00000021
-0.40186397 -0.59306823 0.00000000
-0.56040421 0.19524052 0.23825466
0.24260038 -0.67920475 0.00000000
0.05857408 0.60193022 0.00000000
0.54315155 0.05119977 -0.00000099
-0.21595235 0.56993923 -0.00000026
0.09195639 0.00944712 0.00000000
0.29058290 0.35182545 -0.00000045
0.43834705 -0.12082387 -0.00000024
-0.05826506 0.06346967 0.00000000
-0.73152700 0.00750977 -0.00000086
0.26901830 0.34085279 0.00000250
-0.56167516 -0.40336869 -0.00000013
0.19822042 -0.23094162 0.00000000
0.28738284 -0.76031321 0.00000000
-0.79667517 -0.69446853 -0.00000013
-0.73179351 -0.79490015 -0.00000001
-0.02771362 0.20468893 0.00000000
-0.58755995 -0.40015130 -0.00000019
-0.49545172 0.25876174 0.24594381
-0.60238310 -0.28809952 -0.00000032
0.31574177 0.39906832 0.00000063
0.25329723 0.34424853 0.00000275
-0.18698275 -0.79829476 0.00000000
-0.66562839 0.11588032 0.09932293
-0.58860166 0.20195320 0.05073202
0.42222462 0.21712129 -0.00000077
0.37096606 0.39512161 -0.00000087
-0.49948997 0.23196846 0.36817229
0.16037604 0.36139139 0.00000416
0.61611944 0.17741208 -0.00000153
0.39199274 -0.74009662 0.00000000
0.03414235 0.38078824 0.00000577
0.74512524 -0.59164026 -0.00000052
-0.69991332 -0.30297242 -0.00000052
-0.06333326 -0.49640081 0.00000000
-0.40361620 -0.57240183 0.00000000
0.21795367 -0.68422566 0.00000000
-0.64005111 0.13837340 0.11589035
-0.23368120 0.42966578 -0.00000017
0.05443323 -0.41611679 0.00000000
0.29922489 -0.55999279 0.00000000
0.22967843 0.17363197 0.00000000
-0.40676093 0.01294242 -0.00000017
0.69241265 0.07654665 -0.00000168
0.40586676 -0.17300250 -0.00000001
0.73211295 -0.59585463 -0.00000051
-0.04271994 0.75569138 0.00853848
-0.22293755 0.32797152 -0.00000006
0.04441159 -0.38941288 0.00000000
-0.57728049 0.08776882 -0.00000060
0.16851903 0.10249552 0.00000792
0.11857478 -0.10991239 0.00000000
0.13875123 0.43246031 0.00000342
0.29720315 0.12113723 0.00000563
-0.18187485 -0.48485867 0.00000000
-0.65935546 -0.16169477 -0.00000056
0.09391876 -0.78759488 0.00000000
-0.13065689 0.61284581 -0.00000011
0.44683464 0.04776510 -0.00000058
0.46600845 0.04881073 -0.00000066
0.20706980 0.27404815 0.00000000
0.58307726 -0.22140226 -0.00000068
-0.19073280 -0.23366302 0.00000000
0.52927084 0.21143963 -0.00000122
0.50399208 0.06572712 0.00000259
0.37700413 -0.25839026 0.00000000
0.21522306 -0.76351237 0.00000000
0.39019467 0.39148526 -0.00000067
0.12159907 0.64423987 0.00000027
0.59592918 0.13660995 -0.00000036
-0.28269494 -0.53024766 0.00000000
0.17330646 0.30315518 0.00000484
0.00586266 -0.40604256 0.00000000
-0.34128327 -0.30978248 0.00000000
-0.39817287 -0.62528866 0.00000000
-0.04442207 0.29291053 0.00000000
0.48640606 -0.23475800 -0.00000025
0.57743136 0.12657440 -0.00000127
0.45650696 0.03687994 -0.00000060
0.64053676 -0.39251073 -0.00000063
-0.00641140 -0.71584757 0.00000000
-0.21800423 -0.39124540 0.00000000
-0.01499494 -0.13045272 0.00000000
-0.56106217 -0.47471141 -0.00000007
0.26486788 0.17496132 -0.00000003
-0.19777106 -0.67138327 0.00000000
-0.07084131 -0.44953253 0.00000000
-0.22679256 -0.26187548 0.00000000
0.31834102 -0.33958023 0.00000000
-0.09247201 -0.19711015 0.00000000
-0.07165252 -0.00025797 0.00000000
0.54241260 0.17229642 -0.00000121
-0.38214045 0.37411166 0.23499466
-0.37499592 0.32710651 0.52585528
-0.33207621 0.40665121 0.32912704
0.46241580 -0.68772436 0.00000000
-0.01429451 0.78161993 -0.00000001
-0.04384985 -0.17044712 0.00000000
-0.13528776 -0.40940046 0.00000000
0.07834155 0.41038022 0.00000466
0.25873524 -0.66566019 0.00000000
0.59065439 -0.04276568 -0.00000103
0.53652732 -0.68484014 0.00000000
-0.31812347 0.43832544 0.23393747
-0.26468701 0.50513293 -0.00000030
-0.08913835 0.69841058 0.06688557
0.02316904 0.27379442 0.00000000
0.59076709 0.12797471 -0.00000133
-0.32653939 -0.05386807 0.00000000
-0.71055926 -0.34821932 -0.00000050
0.76335484 -0.12776698 -0.00000162
0.12686810 0.05074226 0.00000000
0.74217068 -0.55236488 -0.00000062
-0.31155360 0.11373767 -0.00000006
-0.38687079 -0.02711314 -0.00000009
-0.50259029 0.29452518 0.01549255
0.00823602 0.26253511 0.00000794
0.03156695 0.12727484 0.00000961
-0.23592544 0.52370160 0.21686614
-0.44994463 -0.64086563 0.00000000
-0.79259084 -0.73794435 -0.00000008
-0.27129632 -0.56935365 0.00000000
-0.15469634 0.62768820 -0.00000018
0.43216013 0.12027031 -0.00000064
0.29305011 -0.65112947 0.00000000
-0.28396185 0.11939963 -0.00000000
0.18918105 0.37086378 0.00000354
-0.13577695 0.40127369 0.00000000
0.06018755 0.32700965 0.00000619
-0.15679028 -0.04098801 0.00000000
-0.35649237 0.38753181 0.30067596
0.28724177 0.16653353 0.00000507
-0.50246951 -0.40062474 -0.00000001
0.32378700 0.37040142 0.00000096
0.14701518 -0.18360144 0.00000000
0.30576128 0.18835282 0.00000435
-0.55511651 -0.26390336 -0.00000024
-0.70534535 -0.51698716 -0.00000034
0.13430691 0.48436818 -0.00000002
-0.53019951 -0.18833608 -0.00000026
0.69909785 0.03532368 -0.00000163
0.10628319 0.66676426 -0.00000022
0.06461680 0.70213973 -0.00000010
-0.55948023 0.20195398 0.20715610
-0.06547938 0.45728564 0.00000000
0.68268677 -0.56161886 -0.00000051
-0.60292784 0.02133031 -0.00000060
-0.40405644 0.35131376 0.23973162
0.12995133 0.50795325 -0.00000004
-0.23757322 0.08988674 0.00000000
0.05556261 -0.61695942 0.00000000
0.64204826 -0.44354490 -0.00000054
-0.30937383 -0.53649324 0.00000000
0.69953311 -0.46383315 -0.00000075
0.39477622 0.33724769 0.00000015
0.22465061 -0.25442298 0.00000000
-0.75521080 -0.46891402 -0.00000041
-0.30111406 0.28643595 -0.00000019
0.36405190 0.42447607 -0.00000089
-0.18309579 -0.16923992 0.00000000
-0.58106196 -0.71792342 0.00000000
-0.36432880 0.06645298 -0.00000013
-0.34620875 0.39856266 -0.00000038
0.36032540 -0.13221670 0.00000000
0.17338199 -0.23146255 0.00000000
0.07263376 0.18658474 0.00000000
-0.51258084 -0.39679545 -0.00000004
0.56159163 -0.40080980 -0.00000027
-0.31571708 0.31688717 -0.00000025
-0.31621753 -0.66217101 0.00000000
-0.28487900 -0.50419238 0.00000000
-0.68819891 -0.09243271 -0.00000068
-0.16519548 0.63017061 0.02489440
-0.48322300 0.06619869 -0.00000038
0.38132208 -0.37570995 0.00000000
0.38601302 -0.49710669 0.00000000
-0.40363808 0.36419979 -0.00000048
0.40107076 0.14835761 0.00000318
0.30742850 -0.61342475 0.00000000
-0.03231959 -0.67677385 0.00000000
-0.34040232 -0.66098363 0.00000000
0.77023213 -0.70219194 -0.00000024
0.29231482 0.01867010 0.00000000
0.29696091 -0.53534472 0.00000000
-0.06265972 0.61865279 0.00000000
-0.33252933 0.37273850 0.50885246
-0.67198755 0.10707515 0.11246172
0.40871581 -0.61118943 0.00000000
-0.01608059 -0.47459938 0.00000000
-0.25630465 -0.28793375 0.00000000
0.40836989 -0.02272976 -0.00000029
-0.65056388 -0.26906183 -0.00000044
0.70995579 -0.34186749 -0.00000101
0.78929066 -0.32330128 -0.00000119
-0.26690942 -0.42918061 0.00000000
0.48712974 -0.18770105 -0.00000033
0.68216571 0.05668971 -0.00000068
0.33747406 -0.30407570 0.00000000
-0.25037412 -0.10851401 0.00000000
-0.72262821 -0.62879183 -0.00000021
0.09480043 -0.63013596 0.00000000
-0.21470661 0.52986029 0.29776041
0.67986499 -0.51759310 -0.00000057
0.04871035 -0.62225101 0.00000000
-0.52583342 -0.47520935 0.00000000
-0.13505067 -0.12756383 0.00000000
-0.34170147 0.39693272 0.32962781
0.03351336 0.12111536 0.00000000
-0.62451213 0.09240177 -0.00000071
0.06759072 -0.46973109 0.00000000
-0.15939053 0.42093266 -0.00000001
0.67111978 -0.49677525 -0.00000057
-0.30677954 0.45300735 0.21600772
0.65764461 -0.65625207 -0.00000023
-0.35845196 0.36100233 0.43265116
-0.73693294 -0.66634626 -0.00000017
-0.37360871 0.36353168 0.33765176
0.01421371 0.43158899 0.00000000
0.25830716 -0.77541808 0.00000000
-0.65259957 -0.68939077 -0.00000008
0.55216476 -0.73079940 0.00000000
-0.39010569 0.33195367 0.41865831
0.38723033 0.17601080 0.00000299
0.38116981 0.12922216 0.00000388
-0.45699783 0.31655719 0.14204977
-0.78514440 -0.50001193 -0.00000037
0.48920205 0.15929065 0.00000131
0.42709478 -0.31605114 0.00000000
-0.36326391 0.37976192 0.30603851
0.16373338 0.27395170 0.00000542
0.18339246 -0.35332588 0.00000000
0.07558163 -0.29241432 0.00000000
-0.24163372 0.53903658 0.10383271
-0.46181307 0.28813349 0.26886423
-0.00359583 0.18120700 0.00000000
-0.40815225 0.32257033 0.37212456
0.23681520 0.41259789 -0.00000033
0.71915818 -0.14293393 -0.00000140
0.07193919 -0.56343301 0.00000000
-0.45241340 0.06392897 -0.00000031
-0.02477877 0.49567978 0.00000000
0.15388450 -0.56717373 0.00000000
0.01574862 -0.63418600 0.00000000
0.03806265 0.32487548 0.00000655
-0.07568387 0.00953557 0.00000000
0.15985751 -0.36399684 0.00000000
0.25410409 0.14320485 0.00000000
-0.60716877 -0.06027655 -0.00000054
0.36344357 0.32201782 -0.00000071
-0.10377603 0.57010789 -0.00000002
0.33720413 -0.34827775 0.00000000
-0.10659933 0.37441562 0.00000000
0.12294262 0.11956587 0.00000835
-0.27856376 0.46923978 0.28037522
0.31303959 -0.37541101 0.00000000
0.29875925 0.49218968 -0.00000060
-0.45612913 0.34222964 0.00881477
0.26781184 0.25392406 0.00000398
0.66747770 -0.21942345 -0.00000105
-0.17257278 0.46119245 -0.00000007
-0.40972617 0.15830214 -0.00000031
-0.69409883 -0.17395497 -0.00000062
0.22095577 0.53824535 -0.00000048
-0.54837119 0.24745534 0.02241543
-0.27562662 0.35004402 -0.00000019
-0.35795987 0.38989177 0.28011708
0.29713232 -0.16432983 0.00000000
-0.50178092 -0.40549226 -0.00000001
-0.44731872 0.32572216 0.14481169
-0.56710688 -0.57683693 0.00000000
0.33876245 0.06553052 -0.00000015
0.61284620 -0.67707506 -0.00000000
0.06328040 0.31551148 0.00000631
0.13991621 0.41562331 0.00000000
-0.49890134 -0.28106452 -0.00000011
0.33523928 0.01514392 0.00000667
-0.05139031 0.66101363 0.00000000
-0.55996611 0.21422443 0.13863454
-0.37069235 -0.17368136 0.00000000
-0.12443651 -0.55093489 0.00000000
-0.07296717 0.71307669 0.07496989
0.58675173 -0.08054087 -0.00000095
0.65546285 -0.49986574 -0.00000050
0.54518798 -0.58231464 0.00000000
0.68568619 -0.47467131 -0.00000067
-0.18876264 0.22184762 0.00000000
-0.45075258 -0.67308702 0.00000000
0.37831219 -0.03430661 -0.00000014
-0.58838113 -0.41043659 -0.00000019
0.01912089 0.20701022 0.00000000
0.66772945 -0.56401081 -0.00000044
0.08766137 0.19775442 0.00000000
-0.63829036 -0.52107560 -0.00000019
0.33264674 -0.03069511 0.00000000
-0.55984429 0.19360624 -0.00000066
0.69514609 0.09660225 -0.00000160
0.15649786 -0.66330276 0.00000000
0.17905192 0.00448825 0.00000000
-0.23445551 -0.12630266 0.00000000
-0.76499939 -0.43464663 -0.00000046
-0.23959799 0.52462318 0.19218913
0.16743871 -0.03756412 0.00000000
0.76785688 -0.48160763 -0.00000080
0.60147991 -0.37845428 -0.00000048
-0.17619288 0.15013191 0.00000000
0.12455581 0.51869804 -0.00000003
-0.42982189 0.35793008 0.06579024
0.67674136 0.03061049 -0.00000014
-0.16771533 -0.74635415 0.00000000
0.51271186 0.14082670 -0.00000102
0.24559441 0.03467923 0.00000777
-0.34805818 0.42933737 0.12142168
0.25611976 0.41591004 0.00000150
0.26425169 -0.73115980 0.00000000
-0.26453735 -0.64695918 0.00000000
0.70066638 -0.36874594 -0.00000092
0.73118700 -0.22375778 -0.00000131
-0.01523145 0.14644094 0.00000000
0.14967458 0.64224084 -0.00000036
-0.07119024 -0.42557614 0.00000000
0.15971233 0.39473391 0.00000367
0.75565223 -0.54736579 -0.00000063
-0.09574235 -0.26468686 0.00000000
0.61217267 0.16664516 -0.00000149
0.07089549 0.64069650 -0.00000002
-0.63234448 0.14519631 0.12063738
0.32260043 0.04954239 -0.00000005
-0.16416077 0.17887345 0.00000000
-0.29732605 -0.46600293 0.00000000
-0.76699020 -0.59800044 -0.00000025
-0.32144124 0.45069178 0.14969014
0.25374593 0.38866320 -0.00000036
0.28431719 -0.21453922 0.00000000
-0.22035868 -0.04339874 0.00000000
0.01821978 0.29551655 0.00000729
-0.58072818 0.21355401 0.03071055
-0.79466959 -0.06874153 -0.00000091
-0.13449469 0.12104571 0.00000000
-0.12822608 -0.09985633 0.00000000
0.03594086 -0.52250984 0.00000000
-0.38081878 -0.51061676 0.00000000
0.67104317 -0.72812539 -0.00000016
0.29301299 -0.28467316 0.00000000
-0.23808989 0.49473814 0.36081488
-0.46411339 -0.41306851 0.00000000
-0.05115635 -0.26766461 0.00000000
-0.10635768 -0.32379863 0.00000000
-0.77459802 -0.76437522 -0.00000004
0.40325912 0.25122784 0.00000142
0.09199775 0.09742851 0.00000915
-0.54401105 0.21765418 0.20591537
0.06648310 0.57925091 0.00000000
0.21273622 0.37002158 -0.00000015
-0.24746328 0.27916955 -0.00000007
0.22967032 -0.54678746 0.00000000
0.54768783 -0.27669840 -0.00000043
0.45046591 0.19641995 -0.00000086
0.47980523 -0.11620387 -0.00000043
-0.05693218 0.62447404 0.00000000
0.07014248 0.04323952 0.00000000
0.37932599 0.23324503 -0.00000062
0.35606263 -0.02817248 -0.00000006
0.51415689 0.10517990 0.00000173
-0.33353322 -0.14138669 0.00000000
-0.63212076 -0.57653440 -0.00000013
-0.53043842 0.25427651 0.08210249
0.54833792 0.22595845 -0.00000133
0.30872267 -0.29280836 0.00000000
0.61674991 -0.04664070 -0.00000114
0.30249824 0.16360783 -0.00000017
0.25622988 -0.53033295 0.00000000
-0.25666837 0.04878948 0.00000000
-0.40640071 0.38308514 0.05647696
0.07760051 0.10400031 0.00000927
0.15381674 0.00121735 0.00000966
0.45657853 0.31146163 -0.00000108
-0.02070548 -0.34657910 0.00000000
-0.29919580 0.43677648 0.34392595
0.20804739 0.58032390 -0.00000033
-0.53828038 0.01550377 -0.00000046
-0.49426581 0.23899021 0.35851663
0.78106777 -0.68517032 -0.00000029
-0.00041627 0.51897205 0.00000000
0.09695730 0.64731627 -0.00000014
-0.29767939 0.20965803 -0.00000011
-0.23615683 -0.20334916 0.00000000
-0.57121142 0.18248241 0.24873392
-0.35666521 0.38283650 0.32496801
0.00917929 0.78407900 -0.00000001
-0.20320912 0.42033332 -0.00000010
-0.06973499 0.68720222 -0.00000005
0.14559124 0.25863357 0.00000000
0.15336216 0.35197933 0.00000441
-0.24520685 0.12624863 0.00000000
0.57639637 -0.48207650 -0.00000019
0.21589404 0.15354303 0.00000000
-0.46838613 -0.59946183 0.00000000
-0.38296930 0.33374853 0.44734989
-0.56105704 -0.68382930 0.00000000
0.52116126 0.16861176 -0.00000111
-0.57545111 -0.21869304 -0.00000033
0.02484646 -0.22167854 0.00000000
0.04868965 -0.78108057 0.00000000
0.35407415 -0.39868619 0.00000000
0.28787311 -0.68560226 0.00000000
0.07976032 0.52251006 0.00000000
0.03390081 -0.59548841 0.00000000
0.79436383 -0.47105014 -0.00000082
-0.28508821 -0.49942433 0.00000000
0.35076162 -0.70664027 0.00000000
-0.72012601 -0.58739629 -0.00000027
-0.24018498 0.51632653 0.23360096
0.05100765 0.42364024 0.00000488
-0.09573935 -0.26850753 0.00000000
0.33831731 -0.24494784 0.00000000
-0.44999733 -0.31574721 0.00000000
0.15749650 0.51864787 0.00000168
-0.08018028 0.07371758 0.00000000
-0.08557893 0.48061791 0.00000000
-0.36592236 0.40059338 0.17986315
0.04476029 0.27980154 0.00000713
-0.65849497 0.10972744 0.17069134
-0.67967662 0.11446497 -0.00000084
-0.40664496 0.33676292 0.30398653
-0.67249783 -0.37640954 -0.00000040
-0.49618531 -0.56666960 0.00000000
0.30702702 0.34116926 -0.00000050
-0.68379345 -0.03051145 -0.00000073
-0.17437195 -0.47087956 0.00000000
0.09034578 0.46575960 0.00000000
0.08184379 0.52767313 0.00000285
0.56722968 -0.74059806 0.00000000
-0.11065290 0.65764756 0.17027723
-0.63027883 0.14317587 0.14258614
-0.65180176 -0.31495559 -0.00000041
-0.06254435 -0.54106128 0.00000000
-0.52906656 -0.57434940 0.00000000
0.44117921 -0.71341552 0.00000000
-0.49629513 0.24473208 0.31677432
0.12947771 0.60341982 0.00000080
0.57449592 0.12482117 -0.00000126
0.22582537 -0.46161620 0.00000000
0.35878677 -0.75608499 0.00000000
0.00897021 0.74681253 0.00000066
0.02171178 0.02676422 0.00000000
-0.76076673 -0.19928112 -0.00000074
0.56772018 -0.01685840 -0.00000098
0.63870788 -0.32599192 -0.00000074
-0.07599349 -0.06357241 0.00000000
-0.25323707 0.48249903 0.34519444
0.04453679 -0.59202753 0.00000000
0.16213138 -0.48641136 0.00000000
0.23561770 0.45635449 -0.00000040
-0.04930468 0.34828626 0.00000000
-0.68562106 0.02571283 -0.00000078
-0.07737002 -0.07755299 0.00000000
-0.20133263 0.55091239 0.25651800
0.68467677 0.08426231 -0.00000166
0.51226645 0.26917085 -0.00000097
0.50278699 0.23981949 -0.00000030
-0.11119269 -0.75679596 0.00000000
-0.50813652 0.28613048 0.03079317
0.72358808 -0.10023360 -0.00000150
0.16033362 0.57407559 0.00000069
-0.54139934 0.23209913 0.14235231
0.69369649 -0.55635473 -0.00000056
-0.52899479 -0.30582836 -0.00000015
-0.06034032 -0.66762272 0.00000000
0.26220820 0.46014597 -0.00000052
-0.68360696 -0.49935900 -0.00000031
0.01070847 0.32766454 0.00000692
0.36791374 -0.06285323 -0.00000004
0.19521305 -0.68274630 0.00000000
-0.52851481 -0.30358517 -0.00000015
-0.73630553 0.06344684 0.00132474
-0.17863133 -0.03582190 0.00000000
-0.12257489 0.66773823 0.05203743
0.62791751 -0.45523412 -0.00000046
-0.53644893 -0.24723000 -0.00000022
-0.54391941 -0.39312975 -0.00000011
-0.47388985 -0.07966160 -0.00000023
-0.30322727 0.00385879 0.00000000
-0.11697082 -0.17335449 0.00000000
-0.43015330 0.36423077 0.03016549
-0.37619805 0.39975987 0.12914362
0.18149851 -0.58075508 0.00000000
0.60715840 -0.14462907 -0.00000092
0.01769578 -0.53582222 0.00000000
0.07965414 -0.26590640 0.00000000
0.46139769 -0.21686266 -0.00000017
-0.30562537 0.43149940 0.33773544
0.25605957 0.38222648 0.00000206
-0.36835563 -0.03154755 -0.00000005
0.07924969 -0.37128353 0.00000000
0.05754531 -0.15761997 0.00000000
0.44117969 -0.65361268 0.00000000
-0.30912810 0.48447619 0.03435589
0.26597986 -0.53983568 0.00000000
-0.02805951 -0.52283432 0.00000000
-0.41123210 0.34596186 0.22993509
-0.77206314 -0.78986647 -0.00000001
0.07331181 -0.59909712 0.00000000
0.19834639 -0.34554712 0.00000000
0.12086700 -0.71858479 0.00000000
0.12049498 -0.54209360 0.00000000
-0.08838588 -0.65703123 0.00000000
0.33866091 -0.23886945 0.00000000
0.78264183 -0.36362192 -0.00000109
0.45126114 0.17797232 0.00000172
0.28173324 -0.05501184 0.00000000
0.62445021 -0.23379946 -0.00000084
0.22657064 0.09765534 0.00000712
-0.07537631 0.08880139 0.00000000
0.28478141 -0.64783426 0.00000000
-0.02720060 0.63005262 0.00000000
-0.24026366 -0.24891719 0.00000000
-0.59273000 0.16804269 0.21070901
-0.18185099 0.37842385 -0.00000002
0.03830431 -0.44637849 0.00000000
-0.30218464 0.31496641 -0.00000022
0.28663111 0.23407115 0.00000395
-0.39012043 0.40496167 0.02641653
0.70949827 -0.48653927 -0.00000075
0.55037907 0.21060552 -0.00000072
-0.44365220 -0.33399946 0.00000000
-0.07197347 0.50759986 0.00000000
-0.67931661 -0.76215783 -0.00000005
