ply
format ascii 1.0
element vertex 1382
property float x
property float y
property float z
end_header
-0.33329271 -0.52183459 0.00000104
-0.37722917 -0.29231470 0.00000133
-0.72684520 -0.55867699 -0.00000060
-0.36174713 -0.17909273 0.00000233
-0.33374403 -0.42698716 0.00000090
-0.02667240 0.59932948 0.00000525
-0.25056929 0.16885090 0.00000695
-0.27741946 -0.06258415 0.00000235
-0.08156025 0.16797911 0.00000351
-0.70093252 -0.10074155 -0.00000088
-0.20925819 -0.29051040 0.00000159
-0.10000924 0.32264595 0.00000421
-0.12350470 0.29052528 0.00000796
-0.17989418 -0.78347383 -0.00000021
-0.00831164 -0.38378098 0.00000156
-0.64020495 -0.65329378 0.10872136
-0.11152550 0.09163759 0.00000318
-0.34440069 0.33330915 0.00000264
-0.66523410 -0.74997817 0.06601403
-0.24556670 0.16523929 -0.00000161
-0.15031557 0.60220683 0.00000453
-0.56580985 -0.31190852 0.29927303
-0.31195926 -0.34770646 0.00000170
-0.61576883 0.09126726 0.00000070
-0.12912686 -0.10885366 0.00000259
-0.50659923 -0.30488566 0.13917661
-0.73428594 -0.11568390 -0.00000122
-0.73138092 -0.30873812 -0.00000106
-0.17734215 0.42130111 0.00000608
-0.34607902 -0.46035287 0.00000075
-0.37056315 0.21843533 0.00000244
-0.36992441 0.12496557 0.00000511
-0.20984795 -0.46972971 0.00000092
-0.36921431 -0.04584568 0.05362397
-0.12743483 0.11180003 0.00000342
-0.49000468 -0.12188271 0.30753765
-0.52347321 0.26894725 0.00000084
-0.12915863 -0.00248675 0.00000299
-0.53936965 -0.06564968 0.00000082
-0.19769937 0.34489284 0.00000639
-0.09132365 -0.09977516 0.00000263
-0.36312602 -0.49307465 0.00000115
-0.41154197 -0.21530412 0.00000157
-0.08029314 0.63470049 0.00000525
-0.34372879 -0.32682246 0.00000126
-0.05459103 0.54195903 0.00000168
-0.49423000 -0.21700779 0.20751030
-0.49866873 0.16321069 0.00000111
-0.01777060 0.56209877 0.00000113
-0.08826102 0.15645987 -0.00000608
-0.51661741 -0.54743625 0.00000095
-0.21206967 0.04950367 0.00000843
-0.66488982 -0.13163571 -0.00000047
-0.03145092 0.48640324 -0.00000020
-0.05625649 0.70553587 0.00000546
-0.22903555 0.28163128 0.04073485
-0.06443150 0.42336511 0.00000449
-0.39983453 -0.49785533 0.00000053
-0.19530435 -0.25446433 0.00000175
-0.31422606 0.21084367 0.19960158
-0.19850628 -0.60717118 0.00000072
-0.69922937 -0.09784631 -0.00000086
-0.45787082 -0.34337826 0.00000102
-0.12121656 -0.15829133 0.00000241
-0.35609310 -0.24735457 0.00000207
-0.27815716 -0.49614703 0.00000072
-0.48041167 -0.18790943 0.20249046
-0.15214817 0.33983332 0.00000716
-0.03946593 -0.54768748 0.00000089
-0.07999382 0.62101101 0.00000611
-0.38977040 -0.38178770 0.00000157
-0.02888785 -0.34187920 0.00000167
-0.48363291 -0.15317754 0.25255887
-0.06249001 0.59511723 0.00000523
-0.19091954 0.20651248 0.00000377
-0.44273072 -0.36379112 0.00000164
-0.57975435 0.17427118 0.00000023
-0.52761554 0.23590542 0.00000106
-0.33975539 -0.59305067 0.00000026
-0.57776846 -0.40596851 0.22249016
-0.19297182 0.15867392 0.00000330
-0.05646661 0.68285458 0.02260415
-0.20424348 0.28287170 -0.00000009
-0.03342756 0.54878738 0.00000506
-0.07966028 0.03076254 0.00000312
-0.21060053 -0.39009534 0.00000122
-0.46309044 -0.71953746 0.00000030
-0.55787540 -0.47651883 0.08282623
-0.07307495 -0.74346644 0.00000021
-0.66552550 -0.68980365 -0.00000010
-0.30953929 0.00255941 0.00000731
-0.67666798 -0.03942404 -0.00000066
-0.38254032 0.09099903 0.00000239
-0.39953244 -0.45562197 0.00000129
-0.25542166 0.25614640 0.08573906
-0.58124042 -0.41882987 0.00000061
-0.08540970 0.07623055 0.00000329
-0.08888533 -0.26515085 0.00000201
-0.12511863 -0.39535093 0.00000152
-0.16136795 0.30504307 0.00000414
-0.52717776 -0.56504479 0.00000009
-0.06776303 0.48054536 0.00000065
-0.03411642 -0.04931396 0.00000276
-0.60547881 -0.58131314 0.09475772
-0.06013541 0.60142430 0.00000317
-0.23883617 0.24828365 0.02932516
-0.64335784 -0.17866339 -0.00000021
-0.40715915 -0.33922846 0.00000111
-0.05976850 0.12797914 0.00000339
-0.47529604 -0.12294107 0.26446636
-0.61136286 -0.56281024 0.13328278
-0.02128899 0.66265158 0.00000349
-0.43117524 0.06192968 0.00000451
-0.01328060 -0.51777193 0.00000104
-0.37413422 -0.72617504 0.00000028
-0.14812402 0.15358093 0.00000335
-0.42258905 0.28654492 0.00000261
-0.56854696 -0.02687193 0.00000049
-0.12198918 -0.04290221 0.00000266
-0.60633240 0.02870831 0.00000005
-0.35386664 -0.20211761 0.00000171
-0.40767433 -0.05262316 0.15500409
-0.03004486 -0.36641644 0.00000158
-0.11659672 0.14559391 -0.00000556
-0.64756313 -0.06662854 -0.00000033
-0.11421101 0.52917518 0.00579317
-0.40446642 -0.69289884 0.00000040
-0.35604376 0.25697467 0.00000256
-0.14464633 0.28769491 -0.00000160
-0.19633240 0.54251718 0.00000460
-0.26945651 -0.65301801 0.00000055
-0.48395969 -0.11535643 0.29803536
-0.18437183 0.41723335 0.07344364
-0.26743923 0.00315363 0.00000261
-0.56012594 -0.50698199 0.05334495
-0.33350419 0.17977035 0.00000286
-0.12240527 -0.42771881 0.00000140
-0.37937424 0.12865354 0.28804662
-0.37128591 0.36998810 0.00000283
-0.49857536 -0.20075629 0.23900822
-0.38271606 -0.08595414 0.04477545
-0.09081936 0.57631677 0.00000502
-0.11794963 -0.17087484 0.00000218
-0.12967716 -0.53915015 0.00000098
-0.78137453 -0.67000854 -0.00000032
-0.17576189 0.45840174 0.00000577
-0.08311925 0.49475823 0.00000473
-0.08584126 0.63731018 0.05248716
-0.31744418 -0.68183465 0.00000044
-0.19571320 0.51641404 0.00000410
-0.25809653 -0.13067516 0.00000212
-0.34672146 0.12627541 0.19239582
-0.17432376 0.45440204 0.08865206
-0.28993590 0.28215148 0.21451960
-0.33886223 -0.25288069 0.00000205
-0.30872761 0.15315765 0.11601177
-0.03130935 -0.45090280 0.00000131
-0.42358806 -0.16027934 0.00000212
-0.29702266 -0.67011419 0.00000004
-0.01197252 0.48683480 -0.00000072
-0.75209895 0.00578854 -0.00000113
-0.31833979 -0.64533154 0.00000058
-0.13514001 0.50552818 0.03744809
-0.50371168 -0.59752868 0.00000076
-0.71590443 0.06015902 -0.00000094
-0.60277324 -0.45865035 0.23154157
-0.38014560 -0.67182421 0.00000048
-0.01777556 0.70576869 0.00000644
-0.07652208 -0.44397152 0.00000134
-0.06606982 0.12402847 0.00000337
-0.24019213 -0.03675285 0.00000286
-0.41762336 0.28207611 0.00000275
-0.56156877 0.08582741 0.00000049
-0.51391249 -0.69588857 -0.00000039
-0.51636636 -0.25803662 0.22213065
-0.23304991 0.27928251 0.00000386
-0.04431940 0.72196281 0.03412621
-0.49951172 -0.11342998 0.34452734
-0.45390949 -0.25758722 0.00000187
-0.21455881 0.35817902 0.00000595
-0.18938981 0.02407549 0.00000309
-0.00560479 0.65258139 0.00000544
-0.55171774 -0.58608414 -0.00000003
-0.17862556 -0.46877382 0.00000097
-0.47078784 -0.15803560 0.21031126
-0.68811546 -0.81057903 0.05970003
-0.65654307 -0.74512340 0.04701886
-0.16536741 0.18033028 0.00000815
-0.50142257 -0.47915610 0.00000120
-0.52122845 -0.56148447 0.00000089
-0.23247914 0.35276500 0.13430736
-0.25011626 0.41094110 0.00000478
-0.51248397 -0.14122345 0.34867827
-0.43675678 0.09568168 0.00000410
-0.00781921 0.59327709 0.00000521
-0.69977457 -0.46768636 -0.00000062
-0.04679816 0.43745561 0.00000801
-0.19243376 0.54986768 0.00000411
-0.53363421 -0.18903655 0.35250376
-0.19132293 0.38344893 0.00000424
-0.48350616 0.31100605 0.00000117
-0.54993563 -0.58956598 0.00000079
-0.49401341 -0.57470498 0.00000010
-0.26093633 0.15249815 0.00000692
-0.79552924 -0.55251544 -0.00000062
-0.15399058 -0.45055868 0.00000131
-0.01728522 0.06492114 0.00001125
-0.03803453 0.07383410 -0.00000931
-0.47199561 -0.06854263 0.31915015
-0.08254783 0.60859647 0.00929883
-0.56844379 0.20637250 0.00000033
-0.30027596 0.09821857 0.02727929
-0.36316056 -0.21426633 0.00000220
-0.34779988 -0.74217109 -0.00000031
-0.26806173 -0.37544107 0.00000119
-0.30941645 0.21225774 0.00000547
-0.10421050 0.49526219 0.00000197
-0.68721860 -0.72591026 0.15687607
-0.17740135 0.45599864 0.09928761
-0.04494575 0.18816569 0.00000371
-0.20975155 0.23614576 -0.00000099
-0.07892307 -0.77735669 -0.00000003
-0.35907319 -0.68740215 -0.00000012
-0.24234148 0.08805914 0.00000296
-0.34880443 0.13535802 0.20901671
-0.50434257 -0.74920687 0.00000019
-0.19908734 -0.07342305 0.00000242
-0.45394300 -0.28490254 0.01298303
-0.43189056 -0.33351691 0.00000110
-0.72703462 -0.38939727 -0.00000096
-0.20181104 0.36983032 0.06719809
-0.41743168 0.36308857 0.00000200
-0.08904327 0.17579874 -0.00000563
-0.02142251 0.73342687 0.00000575
-0.14060681 0.05841272 0.00000322
-0.18151713 -0.24930226 0.00000207
-0.14611100 0.03301481 0.00000290
-0.47070300 -0.06637193 0.31803528
-0.43908660 -0.43549229 0.00000070
-0.23504378 -0.62669458 0.00000030
-0.42474659 -0.71672543 -0.00000033
-0.67180949 -0.62727537 -0.00000021
-0.36641695 0.06901425 0.18095633
-0.44979388 0.20899658 0.00000160
-0.05722249 0.23873858 0.00000390
-0.42651782 -0.02055372 0.24635234
-0.29557268 -0.60720390 0.00000028
-0.11859845 -0.78436231 -0.00000012
-0.02453014 -0.07424828 0.00000272
-0.05409253 -0.03094423 0.00000288
-0.26936267 -0.10933345 0.00000218
-0.14076671 -0.44087433 0.00000113
-0.31353318 -0.56371268 0.00000089
-0.44620933 -0.00139877 0.32491444
-0.04861714 0.69150523 0.01047292
-0.52015113 -0.17106733 0.00000110
-0.60129934 -0.62933109 0.02631565
-0.07604934 0.05593940 0.00000310
-0.74229219 -0.19716170 -0.00000125
-0.12249335 -0.70473308 0.00000017
-0.27877267 0.24899797 0.00000339
-0.02884114 -0.16284002 0.00000239
-0.00471698 -0.54084049 0.00000096
-0.52763279 -0.24716680 0.26697022
-0.20051545 0.08167316 0.00000331
-0.41637038 0.02388220 0.26984293
-0.00497999 0.19971941 0.00000374
-0.35802652 0.16135039 0.26585388
-0.06109561 -0.51813276 0.00000106
-0.45898984 -0.05250715 0.30105887
-0.09044426 0.17743560 0.00000353
-0.44067138 -0.71938436 -0.00000036
-0.31986015 0.31994954 0.00000291
-0.14769794 0.00124743 0.00000278
-0.48818136 0.23952799 0.00000117
-0.03440420 -0.23401633 0.00000212
-0.14999157 -0.04466778 0.00000283
-0.13473267 0.55823230 0.00000564
-0.12400778 -0.34824871 0.00000169
-0.32089479 0.04015061 0.01749707
-0.57085073 -0.54407939 0.04014655
-0.56034373 -0.76135392 -0.00000070
-0.20529442 -0.78609119 -0.00000026
-0.05194669 0.55561033 0.00000191
-0.14951927 -0.22225313 0.00000194
-0.34758740 -0.03192078 0.00000285
-0.54778080 0.23180250 0.00000071
-0.45160599 -0.14014778 0.17683578
-0.03241461 -0.10458534 0.00000261
-0.14680386 -0.73337464 0.00000003
-0.06687522 0.72329466 0.00000542
-0.34078884 0.11222494 0.15897691
-0.25262278 0.33641475 0.17233047
-0.62599778 -0.57610010 0.15924448
-0.38180309 0.21666171 0.00000404
-0.31788330 -0.69881443 -0.00000010
-0.02263309 0.57210810 0.00000149
-0.04719384 0.73329732 0.00000571
-0.16115579 0.37336251 0.00000078
-0.36736211 -0.48829141 0.00000061
-0.24405752 0.16958966 0.00000327
-0.46674555 0.19240502 0.00000263
-0.55986129 -0.29482375 0.30248118
-0.12429311 0.20894843 0.00000378
-0.54034144 0.24626417 0.00000072
-0.04440856 0.29982869 0.00000908
-0.37024437 -0.43964480 0.00000079
-0.39995499 0.28448323 0.00000208
-0.75248273 -0.56040548 -0.00000060
-0.06530191 0.54541678 0.00000495
-0.59577118 -0.60113664 0.00000058
-0.12869940 0.07047905 0.00000307
-0.69652439 0.01987903 -0.00000091
-0.53854677 -0.61196924 -0.00000011
-0.22047297 0.55009544 0.00000381
-0.04000090 -0.30045802 0.00000181
-0.25663565 -0.06441061 0.00000276
-0.00965996 -0.15627288 0.00000241
-0.77132172 -0.45110216 -0.00000087
-0.16729676 -0.46269234 0.00000101
-0.38284516 -0.37601810 0.00000101
-0.19782607 0.12988160 -0.00000370
-0.21159534 -0.12527439 0.00000253
-0.23298492 -0.33342130 0.00000175
-0.05047156 0.44103896 -0.00000071
-0.35849345 -0.00652271 0.06943861
-0.29541178 -0.79185189 0.00000003
-0.66922692 -0.32404412 -0.00000039
-0.44241939 -0.15019906 0.00000192
-0.27933682 0.13684854 0.01323782
-0.00320196 0.66947105 0.00000693
-0.14238416 -0.73235731 0.00000025
-0.46583722 -0.03636544 0.33954209
-0.08009732 -0.50643200 0.00000098
-0.04539300 0.33641309 0.00000426
-0.35467643 0.23079994 0.00000260
-0.11052186 -0.53563415 0.00000099
-0.29513515 -0.42924497 0.00000095
-0.78324702 -0.12485129 -0.00000169
-0.58996803 -0.43891124 0.21837894
-0.59668944 0.00289215 0.00000188
-0.30717241 -0.09969255 0.00000263
-0.15488622 -0.43487273 0.00000114
-0.19969986 -0.08867035 0.00000237
-0.28638719 -0.21384733 0.00000177
-0.69417721 -0.50051229 -0.00000054
-0.05930803 -0.69293290 0.00000040
-0.14689885 0.53610351 0.10690310
-0.39519149 -0.62794743 0.00000065
-0.57062942 0.16980372 0.00000033
-0.22326236 0.38262120 0.14326861
-0.61501730 0.00874203 -0.00000003
-0.41697298 -0.04503675 0.19037031
-0.60900331 -0.12843770 0.00000012
-0.15159950 0.01510552 0.00000306
-0.47324987 -0.03117555 0.36673320
-0.15961272 0.55946805 0.00000515
-0.40299961 0.25924501 0.00000324
-0.02369329 -0.03274296 0.00000284
-0.30619381 -0.15481489 0.00000196
-0.45713923 -0.00606808 0.00000166
-0.12212785 0.57264911 0.00000575
-0.08457685 -0.02854878 0.00000277
-0.26126043 -0.28734855 0.00000153
-0.28616060 0.35078609 0.00000464
-0.64089002 0.07686032 0.00000035
-0.44558076 0.07385582 0.00000413
-0.55150610 -0.38316960 0.17466538
-0.62752415 0.09394419 0.00000045
-0.69509630 0.04432609 -0.00000091
-0.03279545 0.04658198 0.00000313
-0.56185770 0.00818957 0.00000054
-0.30036988 0.47151914 0.00000326
-0.66826911 -0.07406933 -0.00000054
-0.37490454 -0.71412220 -0.00000024
-0.61464343 -0.79644606 -0.00000091
-0.22759692 0.06545871 0.00000807
-0.11286625 -0.52606745 0.00000103
-0.54536681 0.24312973 0.00000065
-0.20029681 -0.27076654 0.00000198
-0.41317372 -0.12300462 0.08774369
-0.04087051 -0.18733806 0.00000230
-0.23624702 -0.65089904 0.00000020
-0.15861382 0.45522735 0.04494979
-0.04854214 0.58911348 0.00000521
-0.19191741 -0.54672284 0.00000066
-0.01840781 0.31992349 0.00000420
-0.11969003 -0.69844434 0.00000038
-0.39521406 0.30428647 0.00000297
-0.16687526 0.00160181 0.00000301
-0.20659625 0.15453362 0.00000772
-0.43690928 0.24308510 0.00000171
-0.43861271 -0.05691282 0.23792633
-0.53996067 -0.19662171 0.36155924
-0.43510543 -0.22367403 0.00000204
-0.03750672 0.72848951 0.02244151
-0.60482443 -0.31600763 0.00000029
-0.78159968 -0.27010162 -0.00000132
-0.35381877 0.17438725 0.26924480
-0.51949801 -0.24630590 0.24485259
-0.59193881 -0.60201097 0.00000062
-0.38110301 0.13215032 0.29708114
-0.21780069 0.31803104 0.00000400
-0.08426148 -0.50366308 0.00000111
-0.45159239 -0.07224397 0.25677703
-0.50463766 -0.18077093 0.27978624
-0.45765961 -0.53453106 0.00000030
-0.19246149 -0.54562783 0.00000066
-0.46759729 -0.30439909 0.02884580
-0.30366368 0.34752260 0.00000433
-0.67772009 -0.18984846 -0.00000057
-0.67713360 -0.21671365 -0.00000054
-0.27850215 0.12997150 0.00276435
-0.44327466 -0.68179117 0.00000044
-0.45850082 -0.17294695 0.00000176
-0.22133179 -0.77999528 -0.00000026
-0.11230250 0.06956871 0.00000978
-0.57492398 -0.43140570 0.18444077
-0.77972352 -0.71312648 -0.00000022
-0.34109638 -0.44823708 0.00000132
-0.12283057 0.30344627 0.00000787
-0.24912978 -0.65773757 0.00000053
-0.06442830 0.00382207 0.00001100
-0.65102098 -0.33989558 -0.00000018
-0.22114124 -0.73463917 -0.00000009
-0.27216033 0.17798156 0.04126606
-0.08926144 0.05853548 0.00000322
-0.26608164 -0.41464584 0.00000145
-0.36946768 0.14511059 0.27925979
-0.42574558 0.03746235 0.31249702
-0.29470308 -0.54650348 0.00000051
-0.06339685 0.57549179 0.00000516
-0.04896033 -0.19743776 0.00000226
-0.29876232 0.37086458 0.00000421
-0.39122111 0.00049154 0.17076876
-0.30508924 -0.49124367 0.00000070
-0.15781490 0.19961738 0.00000812
-0.01665121 0.73186314 0.00000626
-0.35721916 0.29569496 0.00000378
-0.28582851 0.42658124 0.00000395
-0.01911708 0.75339301 0.00000606
-0.42044612 -0.68405196 0.00000043
-0.15803884 -0.05672560 0.00000279
-0.07299420 0.55268129 0.00000675
-0.38841433 -0.12017011 0.02067776
-0.24749867 0.26354818 0.07193659
-0.19112575 0.59037097 0.00000410
-0.04393855 -0.26170824 0.00000195
-0.41814351 -0.18666317 0.02689583
-0.09300963 0.35699771 -0.00000144
-0.01450786 -0.13760931 0.00000248
-0.13695979 0.00465384 0.00000281
-0.04849822 -0.66776685 0.00000042
-0.46319380 -0.51016515 0.00000039
-0.05443684 0.31449906 0.00000418
-0.32766389 -0.20724695 0.00000222
-0.54521993 -0.40782718 0.12774763
-0.03184960 -0.48527312 0.00000118
-0.60757002 -0.45446735 0.00000036
-0.56795204 -0.30870397 0.30913890
-0.41200139 -0.09196646 0.12096814
-0.12468714 0.34838625 0.00000431
-0.01231973 0.07292775 0.00000325
-0.56151388 -0.39322740 0.19127650
-0.15315009 0.03249742 0.00000289
-0.59968993 -0.77956573 -0.00000083
-0.61928632 -0.61200840 0.09786589
-0.68637214 -0.80025948 0.06689760
-0.32722093 0.19347224 0.00000291
-0.65109145 -0.12957435 -0.00000032
-0.03832600 -0.55706373 0.00000091
-0.03192457 -0.30930419 0.00000184
-0.32158850 0.13691689 0.13346303
-0.08442062 0.20253232 0.00000921
-0.16104156 -0.16236135 0.00000239
-0.40866534 0.13509220 0.00000427
-0.18415616 -0.71830686 0.00000003
-0.75401848 -0.03494052 -0.00000149
-0.45698419 -0.21800478 0.00000181
-0.43331597 -0.02907605 0.00000193
-0.20876463 0.33188500 0.04228441
-0.04981769 0.58588737 0.00000685
-0.22649938 0.35292375 0.11748969
-0.26597084 -0.60512432 0.00000073
-0.26995414 0.30750974 0.00000345
-0.54573529 -0.39577563 0.14340791
-0.24709858 -0.19218716 0.00000228
-0.28241376 -0.75526207 -0.00000026
-0.05394645 0.30422796 0.00000414
-0.07989099 -0.65983501 0.00000053
-0.02871821 0.42480593 0.00000838
-0.42659969 -0.16121748 0.08091237
-0.16464401 -0.19950234 0.00000200
-0.02676165 0.59936158 0.00000521
-0.06229682 0.36837935 0.00000438
-0.79786556 -0.71635281 -0.00000021
-0.40193559 0.02586278 0.23112320
-0.38450150 -0.01818092 0.12967855
-0.19896856 0.44527468 0.00000544
-0.33496174 0.26256220 0.00000279
-0.18997569 0.01744514 -0.00000645
-0.70912569 -0.81477300 0.11450370
-0.52824958 -0.49648078 0.00000114
-0.10822411 0.54594168 0.00851155
-0.20212437 -0.29698746 0.00000158
-0.20889296 -0.70811581 0.00000003
-0.17417210 0.55065516 0.00000495
-0.25911857 -0.30805793 0.00000184
-0.39337332 0.07821076 0.26843695
-0.06235807 0.24727784 0.00000393
-0.22077163 0.30599086 0.00000398
-0.37420309 0.09441438 0.00000248
-0.21415197 -0.01298506 0.00000263
-0.50498020 -0.66751085 -0.00000027
-0.24614368 0.15193506 0.00000357
-0.23174623 0.56152557 0.00000369
-0.48370323 0.10037240 0.00000131
-0.27835341 -0.43396544 0.00000095
-0.23494124 -0.42603409 0.00000105
-0.51175912 -0.33801335 0.11482982
-0.36890113 0.38255930 0.00000276
-0.45647091 -0.09196693 0.24741881
-0.09709082 0.65731211 0.00000545
-0.33340410 -0.70624148 -0.00000015
-0.65694847 -0.33309481 -0.00000025
-0.47341046 -0.07937191 0.31042216
-0.00861794 0.56125508 0.00000510
-0.76602337 -0.47982196 -0.00000080
-0.50508790 -0.09941930 0.37688584
-0.00662796 0.53916036 0.00000502
-0.29354168 0.15688263 0.00000628
-0.58135158 0.07796709 0.00000148
-0.76125851 0.00067006 -0.00000159
-0.12844032 -0.05182595 0.00000281
-0.19017290 -0.48059618 0.00000091
-0.39050202 0.10775166 0.00000487
-0.62360543 -0.49183853 0.25168841
-0.31013237 0.13636454 0.00000615
-0.17959062 0.15877613 0.00000360
-0.22021042 0.04894565 0.00000831
-0.24788800 -0.79360884 -0.00000035
-0.27146659 0.22085633 0.08980629
-0.24217722 0.20107098 0.00000375
-0.23816186 -0.15407039 0.00000242
-0.61103764 -0.30295276 0.00000022
-0.28976202 -0.39166962 0.00000109
-0.17535903 -0.25847391 0.00000177
-0.13650178 -0.03424209 0.00000287
-0.32013161 0.35211214 0.00000397
-0.13819166 -0.74607823 -0.00000001
-0.18055265 0.09914000 0.00000337
-0.12128272 0.67636775 0.00000479
-0.00240273 0.18126297 0.00000368
-0.35830338 0.19205505 0.00000258
-0.41449978 0.37798834 0.00000192
-0.12684211 -0.01725271 0.00000294
-0.44110936 -0.22103608 0.05171450
-0.27052191 0.20234690 0.06530757
-0.08136318 -0.24245368 0.00000209
-0.19182599 0.18348905 -0.00000266
-0.01778064 0.61157605 0.00000224
-0.04587573 -0.19027586 0.00000229
-0.28354884 -0.23663712 0.00000168
-0.14676886 0.24877242 0.00000371
-0.02428071 0.15121958 0.00000353
-0.14836352 -0.19491678 0.00000205
-0.54610034 -0.36002890 0.00000095
-0.19405031 0.39126923 0.07038242
-0.46478540 -0.22126434 0.11876962
-0.03008998 0.73221598 0.00000605
-0.10497066 -0.03129338 0.00000272
-0.18145361 0.55694717 0.00000423
-0.11437484 0.00533897 0.00000285
-0.30140413 0.06248359 0.00000698
-0.34648087 -0.37396342 0.00000160
-0.14627459 0.63579697 0.00000455
-0.15663073 -0.75599348 0.00000017
-0.22523377 0.29005220 0.03983227
-0.44798518 0.27039277 0.00000227
-0.09703677 -0.57508857 0.00000084
-0.35714231 -0.47774527 0.00000121
-0.16990510 -0.74904500 0.00000019
-0.42120585 -0.03112630 0.21880152
-0.26829572 -0.74807333 -0.00000021
-0.06798163 0.07228468 0.00000317
-0.31990072 0.17333697 0.17156081
-0.11568761 -0.62435325 0.00000048
-0.23768511 0.28167035 0.06536698
-0.16731712 -0.19806387 0.00000226
-0.23846731 -0.28005678 0.00000195
-0.17613226 0.44136703 0.07844056
-0.62075368 -0.49170636 0.24373503
-0.44104335 -0.31803307 0.00000114
-0.20837659 0.06861658 0.00000294
-0.33876617 0.15254024 0.20070533
-0.52070180 -0.39754914 0.07013505
-0.17418918 0.42511055 0.05376600
-0.56123521 -0.32197234 0.27441126
-0.72633955 0.01220262 -0.00000122
-0.37795190 0.14614003 0.00000241
-0.34813970 0.05167025 0.10854291
-0.72783351 -0.43563205 -0.00000091
-0.38505508 0.06082328 0.22430107
-0.06733636 0.22973066 -0.00000500
-0.19788674 -0.72284790 0.00000029
-0.67897436 -0.37377397 -0.00000046
-0.27844242 -0.51919590 0.00000063
-0.17661928 0.41873867 0.00000437
-0.31606466 -0.61731335 0.00000021
-0.11584393 0.26945524 0.00000823
-0.58439038 -0.51543574 0.11238488
-0.31936965 -0.71806737 -0.00000017
-0.30080054 0.04733482 0.00000318
-0.54194538 -0.45083139 0.00000106
-0.14163560 -0.71249286 0.00000033
-0.51323952 0.15792387 0.00000205
-0.18274845 0.14987404 0.00000329
-0.44697648 -0.27059853 0.01002124
-0.05219727 0.50835675 0.00000483
-0.53695922 -0.41158085 0.09983669
-0.71863763 -0.53442969 -0.00000066
-0.03899588 0.32996162 0.00000894
-0.14897059 0.12378519 -0.00000517
-0.29738151 0.09811007 0.01890451
-0.14071674 0.20977001 0.00000830
-0.17448519 -0.46751449 0.00000098
-0.11856713 -0.27825120 0.00000196
-0.20725175 0.42180986 0.00000550
-0.23120464 0.51548939 0.00000372
-0.18582967 0.19617916 0.00000374
-0.02323081 -0.13946474 0.00000244
-0.27114626 -0.20349158 0.00000224
-0.46595523 -0.20332325 0.14322784
-0.22720432 0.45967740 0.00000477
-0.17771612 0.00639427 -0.00000703
-0.27792800 -0.75481862 0.00000017
-0.09000189 0.18205427 0.00000928
-0.30324429 0.10484179 0.04350603
-0.21299290 -0.08895353 0.00000235
-0.01135394 0.67916189 0.00000553
-0.71739498 -0.61879463 -0.00000045
-0.44049446 0.30048247 0.00000163
-0.40945351 0.02142241 0.24727149
-0.16428971 0.47967439 0.00000579
-0.19436982 0.35301542 0.02624037
-0.24905518 0.21417380 0.01820741
-0.02908422 0.28908182 0.00000404
-0.02741039 -0.39596144 0.00000152
-0.18926814 0.33447151 0.00000664
-0.45233829 -0.16269248 0.15236402
-0.75598492 -0.37393637 -0.00000107
-0.55092507 -0.47693583 0.06257146
-0.33044042 -0.13223571 0.00000201
-0.07170054 0.15535342 -0.00000656
-0.06487388 0.60148495 0.00000516
-0.43872923 -0.22273391 0.04294671
-0.46888451 0.09317050 0.00000147
-0.13786883 0.52800503 0.00000471
-0.45108573 -0.70767542 -0.00000033
-0.56852556 0.02164583 0.00000046
-0.39684649 0.05631733 0.25252468
-0.14231271 -0.27800678 0.00000174
-0.33862219 -0.51283914 0.00000108
-0.08707985 0.61025404 0.02414246
-0.35387698 -0.62064566 0.00000067
-0.40153473 0.03991798 0.00000529
-0.44330474 0.00958817 0.32959596
-0.22140231 0.33454101 0.00000395
-0.43360456 -0.08442823 0.19127662
-0.38669016 0.34614208 0.00000218
-0.14452783 -0.78816460 -0.00000017
-0.27787635 -0.75980676 0.00000015
-0.02522000 0.11992188 0.00001072
-0.05705238 0.20876708 -0.00000575
-0.50529247 -0.27527824 0.17033361
-0.24030145 0.32938934 0.12901678
-0.03530418 0.37952368 0.00000862
-0.09912437 0.49477083 0.00000679
-0.27549096 0.10441994 -0.00000217
-0.01971836 0.38890880 0.00000443
-0.47703205 -0.73957319 -0.00000049
-0.43884805 -0.59497578 0.00000011
-0.09369600 0.34374945 -0.00000172
-0.51566845 -0.40932968 0.04194687
-0.48745271 -0.20944791 0.00000147
-0.53430899 -0.27294846 0.00000102
-0.17661438 -0.51090525 0.00000108
-0.32341683 0.09573381 0.09015481
-0.08994067 -0.39584617 0.00000152
-0.60336485 0.17189056 -0.00000002
-0.24668486 0.05879644 -0.00000398
-0.54304629 -0.28437733 0.26697114
-0.19026468 -0.29793212 0.00000188
-0.18306481 0.47282672 0.13521272
-0.43111747 -0.14536559 0.11242993
-0.12428368 0.57148518 0.08426876
-0.58534867 -0.35130771 0.30842653
-0.01543349 0.65770066 0.00000547
-0.11160659 0.57392443 0.00000594
-0.18655913 -0.45589096 0.00000129
-0.14068263 0.49174412 0.03697865
-0.79465370 -0.44718589 -0.00000088
-0.28114465 -0.02765074 0.00000290
-0.40830502 -0.52721361 0.00000102
-0.39161528 0.38183403 0.00000233
-0.03517009 0.24173772 -0.00000561
-0.39570338 -0.74616222 0.00000020
-0.11048230 0.08087930 0.00000973
-0.45191988 -0.22121412 0.00000186
-0.24004701 0.47505557 0.00000366
-0.32829032 0.15921161 0.17877350
-0.20354367 0.38248194 0.00000593
-0.52370199 -0.62188822 -0.00000012
-0.00079593 0.71352858 0.00000664
-0.10613440 0.60561327 0.00000500
-0.22185934 0.04123967 0.00000315
-0.30815216 0.21058103 0.00000311
-0.26356926 0.15182104 -0.00000143
-0.30743567 0.27381778 0.00000494
-0.14681941 0.11424204 0.00000893
-0.43499063 -0.13869841 0.13129633
-0.59643176 -0.55473886 0.10033228
-0.31560110 0.02778217 -0.00000280
-0.33020638 0.19594601 0.22749531
-0.22448628 -0.14485848 0.00000246
-0.26195273 -0.25323850 0.00000205
-0.42164278 -0.44423256 0.00000070
-0.31030554 0.13073893 0.09409120
-0.17477438 -0.02058248 0.00000292
-0.61722103 -0.59589914 0.11096731
-0.05996830 0.04646659 0.00001075
-0.26687408 0.25755336 0.11996365
-0.61781295 -0.00036112 -0.00000006
-0.69730449 -0.24413416 -0.00000074
-0.00223566 0.49680128 -0.00000076
-0.59213172 -0.75972623 0.00000015
-0.38500427 -0.20162231 0.00000166
-0.00003618 -0.22918422 0.00000214
-0.57414825 -0.00484006 0.00000041
-0.38910781 -0.69471700 -0.00000019
-0.20293653 0.37946335 0.08174569
-0.68466490 -0.64570276 -0.00000034
-0.59092661 -0.53402973 0.10907019
-0.40953627 0.08533976 0.00000211
-0.10792309 -0.13251843 0.00000234
-0.44810434 -0.39594025 0.00000152
-0.69642021 -0.69165311 -0.00000027
-0.42044096 -0.41009819 0.00000146
-0.48234467 0.13650013 0.00000130
-0.51615042 -0.27151838 0.20563723
-0.41359966 0.12809098 0.00000204
-0.16879645 -0.13642124 0.00000249
-0.06739532 -0.28817573 0.00000182
-0.16830401 0.39443585 0.00000650
-0.22859524 0.04328956 0.00000823
-0.24216098 0.04284060 0.00000802
-0.50158037 -0.21891451 0.22616560
-0.21701308 0.39596265 0.14121032
-0.01431320 -0.68306524 0.00000044
-0.16930439 0.42465340 0.03933660
-0.26006138 0.18957571 0.02053141
-0.34343088 0.18462146 0.00000507
-0.42263882 0.34013677 0.00000212
-0.07970869 0.11403454 0.00000994
-0.20528206 -0.48347889 0.00000119
-0.07267593 0.38065494 0.00000432
-0.23245654 0.48722403 0.00000373
-0.12547312 0.35059956 0.00000748
-0.29847483 0.18965673 0.12984931
-0.12687594 -0.45810663 0.00000109
-0.29752763 0.37257970 0.00000422
-0.31957105 0.20559105 0.00000299
-0.25243998 0.09220720 0.00000296
-0.01318437 0.52747507 0.00000023
-0.31939351 0.38677742 0.00000287
-0.26326633 0.31187040 0.00000352
-0.44232630 -0.06595058 0.23784105
-0.25005596 -0.44436353 0.00000133
-0.39167817 -0.01153080 0.15791853
-0.64249717 0.04996950 -0.00000035
-0.13281558 -0.47273611 0.00000123
-0.22048536 0.03184259 0.00000312
-0.15669229 -0.33902773 0.00000149
-0.56092259 -0.27508925 0.32874313
-0.37236360 -0.26985996 0.00000143
-0.03093068 0.41930187 0.00000457
-0.07469884 0.17579205 0.00000355
-0.00122480 -0.12434800 0.00000253
-0.24272719 -0.43868889 0.00000099
-0.09495138 0.05157830 0.00001018
-0.49677967 -0.42814570 0.00000139
-0.55148318 -0.52492643 0.00763316
-0.54704055 -0.74109864 0.00000022
-0.16999451 0.01527848 -0.00000704
-0.60229180 -0.49305687 0.18964718
-0.25288403 -0.45589506 0.00000129
-0.29070374 -0.00168130 0.00000256
-0.37347759 0.08187110 0.21617098
-0.03769768 0.19007250 0.00001001
-0.01224634 0.69895150 0.00000406
-0.06152196 0.43868864 -0.00000046
-0.43991487 -0.51835505 0.00000106
-0.37728533 0.01659411 0.15010723
-0.65874880 -0.58979175 -0.00000010
-0.00945535 -0.27987504 0.00000194
-0.30776262 -0.08492786 0.00000222
-0.48592730 -0.24246432 0.15391742
-0.10161901 0.16042085 0.00000345
-0.16096755 -0.58206229 0.00000082
-0.42113082 -0.00555431 0.24870793
-0.55499731 -0.48503032 0.06461705
-0.44038021 -0.39419504 0.00000152
-0.60210886 -0.42507856 0.26919457
-0.06175959 0.24109939 -0.00000490
-0.56242897 -0.35685783 0.23671620
-0.07481260 0.11909904 -0.00000729
-0.68202145 -0.60927597 -0.00000033
-0.74877667 -0.04655779 -0.00000142
-0.48541483 -0.10935000 0.30924773
-0.43274301 -0.55094137 0.00000093
-0.14475778 -0.60110322 0.00000075
-0.13190847 -0.30845453 0.00000164
-0.06090910 0.57825969 0.00000517
-0.57675111 -0.49035436 0.12020414
-0.23060552 0.25266466 0.01106797
-0.08588257 0.11173224 0.00000329
-0.09700661 0.43711971 0.00000449
-0.40880970 0.02643693 0.25135282
-0.14281912 0.10668940 0.00000340
-0.48766293 -0.09649626 0.33077998
-0.36119609 -0.68131946 -0.00000010
-0.18311750 0.11006281 0.00000341
-0.57173892 -0.06769901 0.00000048
-0.31572062 -0.78220629 -0.00000041
-0.53848631 -0.20220903 0.35078584
-0.39225552 -0.00933438 0.16213607
-0.06901740 0.26871799 0.00000390
-0.56810377 -0.21917996 0.00000062
-0.22042787 -0.22921790 0.00000214
-0.07654788 0.17234816 0.00000353
-0.11719361 0.44267191 0.00000448
-0.45131208 -0.18126076 0.00000184
-0.78106076 -0.43704329 -0.00000091
-0.63272192 -0.51948239 0.24505148
-0.11648080 0.50459834 0.00000489
-0.19598306 0.01602319 0.00000306
-0.23143022 0.18429863 0.00000369
-0.52865385 0.03836263 0.00000286
-0.64702215 -0.61493152 0.17329097
-0.77217752 -0.30344893 -0.00000124
-0.43451174 0.18834915 0.00000329
-0.42352328 -0.48101191 0.00000056
-0.43981809 -0.63922642 -0.00000006
-0.62532527 0.02363925 -0.00000015
-0.12574962 0.50704040 0.01253253
-0.59781827 -0.39887476 0.28785800
-0.10113243 -0.65180528 0.00000056
-0.06535113 0.67005551 0.03279101
-0.32213093 0.03008518 0.00917463
-0.07255639 0.66520657 0.04756895
-0.13971566 0.58953469 0.00000465
-0.31159187 0.02336696 -0.00000301
-0.36928514 0.08887368 0.21250342
-0.07141920 0.52998401 0.00000488
-0.08457779 0.59932408 0.00000523
-0.04109518 -0.40996664 0.00000140
-0.20310568 0.05041693 -0.00000535
-0.17944934 0.10573205 0.00000340
-0.20350605 -0.75178010 -0.00000013
-0.04654840 0.34475353 0.00000871
-0.11001518 -0.64585210 0.00000058
-0.18367511 -0.10073244 0.00000262
-0.31322683 -0.21624446 0.00000219
-0.21333257 -0.72480496 0.00000028
-0.45595954 -0.32105621 0.00000180
-0.09542541 0.51351252 0.00000478
-0.51673619 -0.27523531 0.20292496
-0.64576152 -0.18118934 -0.00000023
-0.46204400 -0.13218829 0.21589177
-0.22101503 0.41358752 0.17335159
-0.10665049 0.29246296 0.00000410
-0.37801699 0.13828025 0.29552583
-0.63343449 0.10622444 -0.00000029
-0.26771985 0.28251301 0.15177404
-0.55332701 -0.71151553 -0.00000050
-0.08664794 0.14022982 -0.00000649
-0.16276851 -0.32501601 0.00000178
-0.74442478 -0.14063530 -0.00000131
-0.31627104 0.04200825 0.00653666
-0.38369679 -0.21891968 0.00000218
-0.42304511 -0.38154429 0.00000157
-0.57730551 -0.70866098 0.00000034
-0.40842855 -0.05919542 0.14940768
-0.24250108 0.44719438 0.00000459
-0.49885297 -0.79254978 0.00000003
-0.33646994 0.16598739 0.21001955
-0.46927810 -0.66501296 0.00000051
-0.08115527 -0.58753643 0.00000080
-0.28224964 0.02940065 0.00000311
-0.08984508 0.11807227 0.00000976
-0.27516773 0.30933499 0.20454358
-0.33792357 -0.27247854 0.00000198
-0.34548889 -0.38307264 0.00000156
-0.27276471 0.23592186 0.11123446
-0.23193018 -0.10903756 0.00000224
-0.32112835 0.35883868 0.00000389
-0.23645526 0.12542328 0.00000311
-0.53981724 0.02781523 0.00000076
-0.21280398 -0.57778897 0.00000083
-0.17721375 -0.50618041 0.00000110
-0.23372865 -0.37202594 0.00000125
-0.18590005 0.11965918 0.00000317
-0.18162592 -0.27282900 0.00000170
-0.37500220 -0.03671711 0.00000256
-0.04496506 0.52167614 0.00000741
-0.07851453 -0.11270183 0.00000258
-0.32910536 -0.34328571 0.00000122
-0.18702529 0.41400935 0.07719701
-0.51698637 -0.65330959 0.00000055
-0.56372578 0.09689302 0.00000165
-0.35718268 0.14311420 0.00000263
-0.38502009 0.25983263 0.00000358
-0.05151815 -0.29624733 0.00000189
-0.00852255 0.19765930 0.00000373
-0.22859105 -0.45890591 0.00000128
-0.08999652 -0.62440088 0.00000052
-0.24791528 -0.30387127 0.00000186
-0.76502824 -0.11645502 -0.00000155
-0.49974348 -0.23101276 0.20669250
-0.54750467 -0.46660358 0.06501513
-0.37916602 0.24760427 0.00000232
-0.50064598 -0.52793812 0.00000102
-0.75157265 -0.42950588 -0.00000093
-0.74517866 -0.19014183 -0.00000129
-0.16005274 -0.52778090 0.00000102
-0.16286734 0.12488307 0.00000861
-0.17144860 0.16555665 0.00000362
-0.44515035 0.25777112 0.00000161
-0.36109012 -0.16507448 0.00000184
-0.30282851 -0.32115636 0.00000180
-0.32761107 -0.04702832 0.00000233
-0.25733528 -0.02443079 0.00000252
-0.25171353 0.22235891 0.00000370
-0.33018547 -0.19771807 0.00000226
-0.16773060 0.06687261 -0.00000594
-0.51739785 -0.76042473 -0.00000063
-0.31762856 -0.75357099 0.00000017
-0.00104399 -0.16379980 0.00000239
-0.27989339 -0.52748958 0.00000060
-0.07896145 0.62881516 0.02291947
-0.12944174 0.52477106 0.04391070
-0.11778983 0.67833781 0.00000486
-0.23576864 -0.46090576 0.00000127
-0.14506062 -0.46233756 0.00000127
-0.33303761 0.24989820 0.00000281
-0.01131569 0.47133455 0.00000477
-0.04410504 0.19698678 0.00000374
-0.60350957 -0.47283904 0.21692333
-0.54825543 -0.33525588 0.22185671
-0.14341261 -0.49260886 0.00000094
-0.39971785 -0.02827802 0.16104243
-0.10556773 0.28323532 0.00000406
-0.08361091 0.46170000 0.00000473
-0.46347320 -0.78485009 0.00000006
-0.24697136 0.22187672 0.02134154
-0.32355301 -0.26918526 0.00000199
-0.56103498 -0.46702335 0.10299479
-0.06508550 0.48122293 0.00000060
-0.48410381 -0.43535269 0.00000064
-0.71631797 -0.00609270 -0.00000110
-0.22863635 -0.44786729 0.00000098
-0.03672990 0.05625724 0.00001102
-0.56848745 -0.45589935 0.13728857
-0.12877973 0.54479636 0.06561660
-0.69665311 0.00003566 -0.00000002
-0.28842436 0.22058835 0.13770404
-0.44309996 0.00437902 0.32287812
-0.48113345 -0.04561768 0.37214000
-0.31878037 -0.71032607 0.00000034
-0.01656504 -0.10712179 0.00000260
-0.21985552 0.35287156 0.09853504
-0.57152090 -0.22729193 0.00000059
-0.16054355 -0.21053410 0.00000197
-0.55854179 -0.55693810 0.00000091
-0.24971296 -0.12989569 0.00000251
-0.06358589 -0.39084025 0.00000144
-0.25189715 -0.13523768 0.00000211
-0.56710787 -0.63605251 0.00000061
-0.29936001 0.12979219 0.06185014
-0.30619342 0.26528149 0.00000504
-0.31347487 -0.63529546 0.00000014
-0.31486393 0.13372043 0.11057645
-0.38721611 -0.31344224 0.00000182
-0.30939843 -0.40671905 0.00000101
-0.36771887 0.34157857 0.00000316
-0.28399301 -0.53212186 0.00000058
-0.20212004 -0.14789835 0.00000245
-0.40906403 0.01166148 0.23467288
-0.15799974 -0.70379781 0.00000012
-0.15568073 0.19083102 0.00000372
-0.12725431 -0.12489208 0.00000234
-0.03570633 -0.04940419 0.00000276
-0.24725178 0.19596021 0.00000336
-0.69176280 -0.07993422 -0.00000079
-0.69430792 -0.17378886 -0.00000076
-0.25252282 0.04137675 0.00000316
-0.33272856 0.40815663 0.00000271
-0.29127215 0.16512216 0.08047834
-0.57329875 -0.30745669 0.00000062
-0.27147564 0.48134066 0.00000372
-0.24270066 0.12104922 0.00000743
-0.03899697 0.43140598 0.00000462
-0.49598833 -0.26803418 0.00000142
-0.09890801 0.04736330 0.00000303
-0.46899445 0.30156056 0.00000158
-0.28224790 0.11146801 0.00000342
-0.54771570 0.07864454 0.00000064
-0.01351484 0.66958887 0.00000343
-0.54360585 -0.78263841 -0.00000076
-0.08840972 0.17944843 0.00000932
-0.68572712 -0.80542730 0.05897660
-0.23685480 0.36467544 0.16078015
-0.40346455 0.08086980 0.30026562
-0.45057689 -0.43909623 0.00000067
-0.05657015 0.45707535 0.00000463
-0.67145450 0.02064215 -0.00000064
-0.74163874 -0.04824851 -0.00000135
-0.19185602 0.21597566 0.00000381
-0.26102489 -0.08215300 0.00000269
-0.26535836 0.19233769 0.03883379
-0.42927606 0.02126471 0.30345786
-0.55047468 -0.35070715 0.20996810
-0.02361978 0.59345140 0.00000519
-0.33433524 -0.07253829 0.00000273
-0.20107522 0.43519488 0.14210063
-0.06183926 -0.65445274 0.00000045
-0.39978479 -0.14954822 0.01840747
-0.14402306 0.13763850 -0.00000499
-0.46468473 -0.52132732 0.00000105
-0.05255579 0.59841951 0.00000289
-0.07236267 -0.62509625 0.00000066
-0.61288247 -0.60980946 0.08224625
-0.19573638 0.35270316 0.02974892
-0.21468278 -0.30622348 0.00000185
-0.42481071 -0.04609751 0.00000203
-0.22379112 0.29942321 0.04676821
-0.15402089 -0.67076572 0.00000025
-0.51447704 -0.06303412 0.00000109
-0.05611702 -0.02287049 0.00000291
-0.41252274 -0.09911485 0.11403094
-0.35603466 -0.27244043 0.00000144
-0.59936764 -0.51443092 0.15615696
-0.56276791 -0.31403390 0.28811976
-0.12495529 -0.49639002 0.00000095
-0.53406674 -0.25474364 0.27634114
-0.08019583 0.23286851 0.00000904
-0.48121653 -0.20005205 0.19047705
-0.28745632 -0.05130855 0.00000281
-0.58559807 -0.04088212 0.00000031
-0.31048104 -0.64941717 0.00000056
-0.33655732 0.43890357 0.00000265
-0.08346860 0.51529671 0.00000493
-0.32788192 -0.49981915 0.00000063
-0.53510617 -0.59939529 -0.00000006
-0.41010779 0.05520743 0.28892852
-0.21440449 0.53719313 0.00000430
-0.34051728 -0.79879881 -0.00000051
-0.50315172 -0.78841586 -0.00000072
-0.40175637 -0.71723060 0.00000031
-0.00557468 -0.07447853 0.00000271
-0.25184712 0.48585563 0.00000352
-0.36140919 -0.09414791 0.00000265
-0.54826833 -0.35633469 0.19706589
-0.12133013 0.54164765 0.04072316
-0.54307655 -0.19129106 0.00000087
-0.09332702 0.26594297 -0.00000348
-0.62374801 0.05918368 0.00000084
-0.62113443 -0.55787070 0.16688665
-0.11990467 0.43443033 0.00000693
-0.49330748 -0.63001462 -0.00000011
-0.11141830 0.35374735 0.00000433
-0.20459787 0.30937724 0.00392547
-0.28396778 -0.00032461 0.00000257
-0.74699210 -0.73464539 -0.00000016
-0.12225661 0.52831630 0.02765434
-0.54959352 -0.37004100 0.18469029
-0.13304138 0.40153282 0.00000431
-0.49414020 0.19268612 0.00000113
-0.38051892 -0.19989501 0.00000168
-0.27422749 0.30565492 0.19753495
-0.56802199 -0.47299785 0.11582569
-0.26877550 0.25860558 0.12661668
-0.09942838 -0.01311301 0.00000295
-0.00338098 0.00825435 0.00000303
-0.16254191 0.32483327 0.00000397
-0.33382464 0.16460187 0.00000286
-0.71666913 0.01536241 -0.00000054
-0.00298548 0.13556630 0.00000350
-0.34827706 -0.00496565 0.04223811
-0.71898094 -0.50682345 -0.00000073
-0.65822698 -0.72391183 0.07679099
-0.35101783 0.01142966 0.06934268
-0.62203674 -0.57879491 0.14480703
-0.31250898 0.02248799 0.00000308
-0.15412804 0.18249680 -0.00000371
-0.57397460 -0.35882529 0.26722939
-0.39176013 -0.29766665 0.00000129
-0.70635503 -0.60771111 -0.00000048
-0.44331661 -0.69217392 0.00000040
-0.10642900 0.19780878 0.00000358
-0.18285749 -0.47126685 0.00000123
-0.47679111 -0.31469645 0.00000166
-0.00826997 -0.01672188 0.00000292
-0.08996278 0.34814986 0.00000417
-0.17414424 -0.33120773 0.00000150
-0.43852681 -0.02204113 0.27875539
-0.04336542 0.09827778 0.00001061
-0.01928186 0.60373214 0.00000211
-0.02715421 0.77180889 0.00000574
-0.15173925 -0.57509308 0.00000084
-0.29818304 0.26156360 0.00000318
-0.25597656 -0.56428128 0.00000050
-0.08701618 0.51526862 0.00000493
-0.44267988 0.13946154 0.00000172
-0.62466395 -0.12284073 -0.00000005
-0.62056522 -0.46989988 0.00000023
-0.23537516 -0.05781253 0.00000243
-0.30918886 0.23491479 0.21363003
-0.11271879 -0.78058608 0.00000007
-0.01937431 -0.12975698 0.00000248
-0.57321152 -0.54909020 0.04095763
-0.29082190 0.46999210 0.00000312
-0.02310140 -0.37017724 0.00000161
-0.48869815 -0.12262354 0.30294988
-0.19647242 0.22986242 0.00000731
-0.32747336 -0.15365049 0.00000242
-0.22067962 0.29111019 0.00000399
-0.06021010 0.34002521 0.00000418
-0.06409662 0.50541009 0.00000111
-0.49739530 -0.06947257 0.00000128
-0.58349769 -0.66608906 0.00000050
-0.35731110 0.13385184 0.23143179
-0.35135021 -0.19601317 0.00000173
-0.04052480 0.21550787 0.00000977
-0.09474703 -0.55250404 0.00000093
-0.09171495 0.20840342 0.00000364
-0.35577409 -0.32016692 0.00000126
-0.57750068 -0.53703101 0.06735788
-0.60791259 -0.39161383 0.00000031
-0.39816206 -0.08475252 0.09011222
-0.03254003 -0.51999478 0.00000105
-0.48547823 -0.28381481 0.00000155
-0.54312833 -0.25067531 0.30690007
-0.14205547 0.48003267 0.02708168
-0.28191436 -0.65143760 0.00000013
-0.00066753 0.31878276 0.00000960
-0.01871220 -0.65680109 0.00000054
-0.15387001 0.45970348 0.03673234
-0.35648400 0.01776071 0.00000635
-0.33348367 0.19127455 0.00000285
-0.13492846 0.23004914 0.00000386
-0.10709477 0.00050992 0.00000300
-0.56284981 -0.64927909 -0.00000028
-0.41943032 -0.00778171 0.24124215
-0.00427577 0.08981021 0.00000333
-0.34359434 0.06754219 0.11432528
-0.31467203 -0.43592040 0.00000089
-0.19195674 -0.51809605 0.00000106
-0.52372245 -0.18958722 0.32367057
-0.11051349 0.05485382 0.00000992
-0.07971513 -0.32407017 0.00000166
-0.49698155 -0.27747177 0.14411749
-0.36071159 -0.54558142 0.00000095
-0.10101994 0.03553695 -0.00000846
-0.58613658 -0.55693191 0.06847439
-0.05834878 0.38405175 0.00000435
-0.24461099 0.33769885 0.15106305
-0.43412229 0.11127032 0.00000183
-0.26081493 -0.05579140 0.00000279
-0.01812950 0.73282241 0.00000623
-0.06603986 0.67829808 0.04445932
-0.23862367 0.33510703 0.13098508
-0.45149130 -0.67564009 0.00000047
-0.68421796 0.09210491 -0.00000062
-0.66623173 0.09554208 -0.00000031
-0.45987578 -0.32541756 0.00000178
-0.27679864 0.48003921 0.00000363
-0.01142409 0.47963315 -0.00000090
-0.38917356 -0.07657839 0.00000243
-0.24758681 0.09820987 0.00000299
-0.35770028 0.16807729 0.27284995
-0.07285562 -0.75510937 0.00000006
-0.01759515 0.51491295 0.00000490
-0.10076105 0.42055275 0.00000020
-0.23682413 0.38122435 0.18018689
-0.12670763 -0.24791575 0.00000188
-0.58307986 -0.12070639 0.00000040
-0.05400797 0.47588415 0.00000478
-0.35662587 0.21770128 0.00000451
-0.08114915 0.63379307 0.03500347
-0.43376046 0.06526631 0.00000443
-0.14850961 0.63734963 0.00000452
-0.10668314 0.55785606 0.01816380
-0.67804499 -0.09683842 -0.00000063
-0.06960801 -0.14908958 0.00000244
-0.23467520 -0.34051520 0.00000172
-0.25611822 0.14829137 -0.00000171
-0.17183565 0.43160851 0.05473358
-0.42839973 -0.01545113 0.25772054
-0.03297028 0.46102289 0.00000804
-0.43385193 -0.47558575 0.00000122
-0.47355991 -0.50201887 0.00000112
-0.09091277 0.54786515 0.00000492
-0.32502899 0.26764947 0.00000466
-0.65755871 -0.67296799 -0.00000003
-0.23983856 0.11708741 -0.00000285
-0.27397132 -0.79971330 0.00000000
-0.37098571 -0.76161564 0.00000014
-0.75965341 -0.53133226 -0.00000067
-0.49534755 -0.07794585 0.37448100
-0.37507711 -0.04354095 0.07300973
-0.21930360 0.55537711 0.00000382
-0.48421575 -0.13352029 0.27736933
-0.19285940 0.17908444 0.00000775
-0.53217094 0.04404668 0.00000083
-0.04995911 0.48657228 0.00000760
-0.32626655 0.23007414 0.25648974
-0.36458560 0.07631358 0.18434625
-0.29000611 -0.11318084 0.00000214
-0.62655972 -0.53722688 0.20662883
-0.40032465 -0.73696358 0.00000024
-0.10161741 0.48158588 0.00000481
-0.29123275 -0.75847443 -0.00000028
-0.40864991 -0.61357625 0.00000070
-0.57998609 -0.46966171 0.15377562
-0.16431913 0.31003342 -0.00000056
-0.23841988 0.24468669 0.00000383
-0.15015224 0.51081949 0.00000459
-0.17037483 0.33513685 0.00000426
-0.09106135 0.08645979 0.00000332
-0.25169174 0.54080899 0.00000349
-0.38650367 0.09983218 0.27437252
-0.09362711 -0.76618105 -0.00000001
-0.01308835 0.01963014 0.00000307
-0.33812907 0.04793096 0.00000290
-0.56301548 -0.32083683 0.00000074
-0.40680761 0.23093254 0.00000204
-0.53975978 -0.47842881 0.00000110
-0.09302005 0.27450249 0.00000403
-0.10851637 -0.17513962 0.00000218
-0.07688094 0.48084127 0.00000480
-0.50082883 -0.18567573 0.26317860
-0.16346834 -0.69495668 0.00000039
-0.18670744 0.40070632 0.00000609
-0.17827584 0.24192776 -0.00000171
-0.08927377 0.04811147 0.00000305
-0.06228565 0.14940442 -0.00000695
-0.22873177 -0.75832815 0.00000016
-0.38855001 0.06356944 0.23747962
-0.19984910 -0.59336491 0.00000077
-0.39013815 0.10085903 0.28591680
-0.28832326 0.21806158 0.00000582
-0.37659626 0.09995866 0.24634547
-0.22392302 0.05068505 0.00000285
-0.44971493 -0.29212933 0.00000123
-0.16917270 -0.45022556 0.00000131
-0.38205429 -0.79477843 -0.00000056
-0.19443374 0.36754225 0.00000625
-0.63925454 -0.78146821 -0.00000090
-0.70760999 -0.32961432 -0.00000079
-0.74215393 -0.50343731 -0.00000074
-0.57093104 -0.78794029 -0.00000082
-0.12452065 -0.46379435 0.00000126
-0.19978156 0.37755308 0.00000605
-0.08773832 -0.14551864 0.00000232
-0.38707726 -0.24589091 0.00000208
-0.34333888 0.31593422 0.00000386
-0.20437542 -0.72550001 0.00000028
-0.14641211 0.51972178 0.08622396
-0.51320334 -0.69089405 0.00000041
-0.54934743 0.02863636 0.00000255
-0.47513042 0.28127721 0.00000165
-0.52066643 0.05141159 0.00000095
-0.02161366 0.71896488 0.00000476
-0.71591659 -0.23688080 -0.00000094
-0.05919276 0.61255292 0.00000651
-0.39268468 0.16317672 0.00000432
-0.01628768 -0.58239496 0.00000079
-0.54640060 -0.20589045 0.36895436
-0.36389561 0.10738938 0.21898145
-0.25941763 0.02173966 0.00000308
-0.15306663 0.04252915 0.00000316
-0.13969042 0.07177655 0.00000327
-0.41529088 -0.18620845 0.01931985
-0.00779637 0.47749659 0.00000478
-0.02464650 0.69761772 0.00000558
-0.35559439 -0.34357453 0.00000171
-0.08684433 0.23431553 0.00000375
-0.48458875 -0.07509694 0.34724341
-0.57520932 -0.36548348 0.26289806
-0.37070643 0.05386647 0.17530307
-0.03288860 -0.14891215 0.00000239
-0.10564610 0.38756920 0.00000429
-0.16785842 0.22851966 0.00000386
-0.75981187 0.01808923 -0.00000158
-0.43717258 0.01249190 0.00000485
-0.50176034 -0.08466956 0.00000124
-0.14229485 -0.59477019 0.00000077
-0.65154291 -0.74971863 0.00000009
-0.39940757 -0.04477783 0.00000230
-0.09662986 0.69267434 0.00000513
-0.25369689 0.27721472 0.10565133
-0.55780283 -0.70693104 -0.00000049
-0.46174948 -0.22948923 0.10044920
-0.25408765 -0.18382453 0.00000193
-0.05832187 0.67597644 0.01977833
-0.25031427 0.54710777 0.00000352
-0.09693856 0.45564922 0.00000456
-0.01812518 -0.38326176 0.00000154
-0.28299788 0.05824987 -0.00000300
-0.54891748 -0.72311896 0.00000029
-0.44323089 -0.64073298 -0.00000007
-0.44124322 -0.67032252 0.00000049
-0.32417497 0.02654956 0.01080383
-0.00699343 0.61593919 0.00000531
-0.01304844 -0.37659751 0.00000157
-0.61587259 -0.35276073 0.00000020
-0.44436407 0.04398738 0.00000443
-0.30842108 0.24976327 0.22893493
-0.58730966 -0.40072392 0.25579830
-0.44340997 -0.00076843 0.31769678
-0.05561669 -0.70982167 0.00000025
-0.39516142 0.01412937 0.19803829
-0.19139221 0.40503805 0.07904779
-0.18157515 0.52334700 0.00000506
-0.21605259 0.20328866 0.00000376
-0.22476255 0.37209117 0.13512858
-0.06540819 -0.59415023 0.00000067
-0.32480698 0.21405769 0.23347287
-0.74040821 -0.68418389 -0.00000029
-0.41677363 0.29020698 0.00000189
-0.49758058 -0.20094594 0.23595613
-0.01939508 0.64546771 0.00000687
-0.00935671 -0.60934575 0.00000071
-0.43100188 0.36779924 0.00000169
-0.18794728 0.55264120 0.00000467
-0.13456867 0.40928472 0.00000690
-0.66576626 -0.68275845 0.14670136
-0.03883064 -0.75898411 0.00000015
-0.33003663 -0.18129468 0.00000182
-0.16550314 -0.56383055 0.00000064
-0.23096326 -0.49910845 0.00000078
-0.10500214 0.48264379 0.00000680
-0.61745468 -0.62919602 0.00000037
-0.06513602 0.41179621 0.00000445
-0.37195079 0.27831979 0.00000238
-0.22122465 -0.47347908 0.00000089
-0.06483348 0.53623181 0.00000700
-0.62092383 -0.77785176 -0.00000085
-0.15655178 0.48635395 0.07575457
-0.25459397 0.25015357 0.07633568
-0.43172255 -0.64837231 -0.00000008
-0.34746746 0.00765136 0.00000662
-0.40559407 0.20929626 0.00000207
-0.32017141 -0.34901759 0.00000169
-0.49730652 -0.57774407 0.00000083
-0.43060487 -0.16474973 0.08814087
-0.23996668 0.40163658 0.00000506
-0.03290422 0.69724616 0.00000561
-0.08293181 -0.42376827 0.00000129
-0.54394322 -0.44954308 0.07498253
-0.60250371 -0.31039898 0.00000031
-0.14085246 0.20622645 -0.00000353
-0.16016278 -0.44164318 0.00000110
-0.18268900 0.56206872 0.00000468
-0.24697372 0.50263994 0.00000399
-0.13608404 -0.63493960 0.00000062
-0.62892575 -0.20495155 -0.00000004
-0.09294401 -0.66409791 0.00000051
-0.78531390 -0.08119597 -0.00000179
-0.45991108 -0.28816535 0.02611046
-0.66454523 0.00846322 0.00000052
