ply
format ascii 1.0
element vertex 1369
property float x
property float y
property float z
end_header
-0.22939960 -0.75509662 -0.00000130
-0.60566415 -0.44416158 -0.17106490
-0.61762855 -0.50835585 -0.14335947
-0.42199434 0.06956380 -0.22623312
-0.36673207 0.21856230 -0.23846371
-0.12251668 0.37248588 0.00000146
-0.06814253 0.63548515 0.02811570
-0.42202450 -0.34703124 -0.00000170
-0.02442090 0.04208571 0.00000176
-0.01581175 0.00131069 -0.00001150
-0.46478461 -0.24252706 -0.06241364
-0.04756571 0.43784841 0.00000607
-0.30516641 0.02581842 0.00000385
-0.11133670 -0.56678647 -0.00000023
-0.04645821 -0.36920221 0.00000116
-0.50846310 -0.42754922 0.08468416
-0.12710890 0.07545665 0.00000087
-0.64072895 -0.74686640 0.03731862
-0.13039640 0.30196279 -0.00000240
-0.47692009 -0.35140241 0.20360727
-0.52296534 -0.46256274 0.12882992
-0.32353617 0.01890624 0.20145185
-0.25419493 0.28289363 -0.07576761
-0.16014661 -0.23510530 0.00000227
-0.27353542 0.13962063 0.15827300
-0.11182362 0.10734943 0.00000843
-0.27463944 -0.52893663 0.00000258
-0.26538292 0.25783926 -0.07730194
-0.17468651 0.37826194 0.08231671
-0.13517105 0.40711202 0.00000145
-0.08201874 0.38361490 0.00000284
-0.30962771 -0.24127185 0.00000338
-0.20287207 0.10278317 0.00000322
-0.11751819 0.51627732 0.12457619
-0.01880615 -0.02093329 0.00000135
-0.03886632 0.17330978 0.00000212
-0.25709275 0.17930970 0.20529717
-0.30990258 -0.14150033 -0.00000064
-0.30688619 0.24150387 -0.14310200
-0.10497496 0.59778517 -0.04018167
-0.20227516 0.38275649 -0.05577174
-0.54309136 -0.38863966 -0.09610104
-0.07342624 -0.48619248 0.00000015
-0.01065481 -0.47044126 0.00000070
-0.49427725 -0.39330082 0.07078597
-0.02561580 0.05200031 0.00000144
-0.20005304 0.31702837 0.05961535
-0.60693708 -0.58662613 -0.06169376
-0.02032057 -0.18541280 0.00000103
-0.32392510 0.26120222 -0.19083383
-0.29612133 0.08508635 0.19735194
-0.37878605 -0.11448886 0.34922400
-0.05250098 -0.74594259 0.00000050
-0.41832459 0.02508326 -0.18437944
-0.18318405 -0.64136305 -0.00000081
-0.32309986 0.01995333 0.21711608
-0.07080638 0.62905509 0.00325952
-0.00783720 0.37870266 0.00000227
-0.32300314 -0.31863716 0.00000334
-0.00740022 -0.50030624 0.00000062
-0.71981697 -0.79772758 -0.10987787
-0.42069934 0.11388052 -0.25855358
-0.06254675 0.47520112 0.00000286
-0.25795075 -0.74138785 0.00000206
-0.16415781 0.37747829 0.00000003
-0.33541997 0.21077359 -0.17303998
-0.40822576 -0.19266323 0.00000422
-0.64111522 -0.43189995 -0.24783843
-0.14342727 0.01477467 0.00000066
-0.28723541 0.18785081 -0.06377609
-0.06437418 0.39489300 -0.00000265
-0.13183134 0.09807401 -0.00000618
-0.12178558 -0.14803181 0.00000049
-0.25864054 0.17559052 0.02151337
-0.06557087 0.47392084 0.00000288
-0.50507526 -0.31733597 -0.08003647
-0.47767191 -0.35321440 0.13146482
-0.63343958 -0.72926769 0.02349126
-0.59584104 -0.21136640 -0.33511622
-0.42808214 -0.02179246 -0.16608582
-0.55670621 -0.53993603 -0.00317878
-0.32488640 -0.34819370 -0.00000111
-0.46183162 -0.57782604 -0.00000237
-0.13009048 -0.58002511 -0.00000037
-0.61538749 -0.69100577 0.00000485
-0.40740391 -0.64964657 -0.00000218
-0.52992043 -0.47935226 0.09082930
-0.31526571 0.03887548 0.01012125
-0.43917774 -0.01469085 -0.19267578
-0.54122202 -0.42229869 -0.06615007
-0.08501811 0.49002226 0.00000469
-0.13174901 0.48192870 0.03495566
-0.03355719 0.05481510 0.00000186
-0.23186042 0.19709178 -0.00000131
-0.48105663 -0.36139243 0.28619948
-0.11462356 -0.51694740 0.00000140
-0.28209858 -0.31051403 -0.00000078
-0.28815711 0.03712119 0.00000374
-0.12084048 -0.63483876 -0.00000042
-0.17325301 -0.75998333 0.00000138
-0.24012758 -0.23543998 -0.00000039
-0.57693385 -0.14873442 -0.34844457
-0.09240185 0.65062703 -0.05782767
-0.11276740 -0.18277073 0.00000201
-0.04450836 -0.18158421 0.00000150
-0.14146098 -0.74219603 0.00000118
-0.60156758 -0.65232179 0.02824249
-0.20173071 0.31297992 0.03755624
-0.04384350 -0.70153414 -0.00000008
-0.30041057 0.15942249 -0.06642707
-0.10392158 0.31493856 0.00000287
-0.06788343 -0.26863503 0.00000059
-0.26776686 0.06965108 0.00000556
-0.24430986 0.36976595 -0.12520437
-0.11579712 -0.79291244 0.00000089
-0.08323109 0.59905767 0.03627117
-0.46042254 -0.75538706 0.00000356
-0.17956470 0.47554667 -0.08556162
-0.02518449 -0.75781449 0.00000027
-0.07357389 0.13597624 0.00000231
-0.57761159 -0.51376286 -0.06331503
-0.33532360 -0.70193257 -0.00000184
-0.01556778 -0.17214214 0.00000129
-0.57569534 -0.58986534 0.17764295
-0.44335490 -0.45729961 -0.00000203
-0.16512139 0.41174081 -0.00813465
-0.38247058 -0.12338152 0.23390605
-0.02846675 0.13493848 0.00000988
-0.39986107 -0.79486999 -0.00000240
-0.16728479 -0.13903745 0.00000023
-0.50605462 -0.42848678 -0.00000236
-0.43043327 -0.23916590 0.03929697
-0.11751434 0.59016833 -0.05795822
-0.28959598 0.24499004 -0.11308547
-0.05870295 0.29627482 -0.00000467
-0.20178728 -0.54794136 0.00000199
-0.05812998 0.14959849 0.00000909
-0.34503759 -0.37934709 -0.00000129
-0.38510996 -0.12974875 0.12006542
-0.12262088 -0.73210903 -0.00000061
-0.20927211 0.29477416 0.03078800
-0.50443162 -0.00555269 -0.32345209
-0.19394376 0.20500035 0.00000071
-0.35603397 -0.01723797 -0.03318256
-0.08130343 0.60370971 0.08235916
-0.58487505 -0.46796835 -0.11300567
-0.32459867 0.27873852 -0.20586882
-0.30583230 0.23782900 -0.13822225
-0.14773370 0.33983247 -0.00000117
-0.22811469 0.24927776 0.00339875
-0.29164451 -0.67277265 0.00000244
-0.08271215 0.06842181 0.00000225
-0.37374527 -0.18916922 -0.00000111
-0.24130993 -0.59590156 -0.00000107
-0.29536757 0.27466964 -0.14730587
-0.23378090 -0.42743710 0.00000246
-0.07971173 -0.63142535 -0.00000017
-0.45398435 -0.63810277 -0.00000244
-0.28158432 -0.44869623 0.00000278
-0.26134003 0.13954385 -0.00000150
-0.54764154 -0.06479194 -0.35882180
-0.35812466 -0.03894841 -0.02010811
-0.06126995 -0.28855356 0.00000059
-0.50636634 -0.38125585 -0.03232844
-0.44986358 -0.03406811 -0.19771334
-0.09683632 -0.60905946 -0.00000023
-0.52680473 -0.56080371 0.00000442
-0.51614863 -0.44611045 0.25230825
-0.54284308 -0.51054952 0.06989497
-0.44962844 -0.51752162 -0.00000218
-0.07162820 -0.02741094 0.00000102
-0.31637001 0.11914225 -0.06505772
-0.21806714 0.27352908 0.18392710
-0.57435060 -0.56104938 -0.02003535
-0.57543404 -0.67177080 0.00000458
-0.39752938 -0.10378096 -0.04388053
-0.33136728 -0.14355350 -0.00000077
-0.31103531 0.20384771 -0.12141208
-0.02971956 0.34247613 -0.00000468
-0.61411727 -0.52668161 -0.12232923
-0.17918882 0.36739303 0.12649533
-0.50756426 -0.01100554 -0.32510819
-0.13151367 0.21712983 0.00000678
-0.28825152 0.10409086 0.18848504
-0.01981375 0.58055017 0.00000274
-0.22185595 -0.03225893 0.00000010
-0.25016531 -0.13795675 -0.00000027
-0.04640892 -0.69115675 -0.00000008
-0.45524262 -0.61018180 -0.00000239
-0.56674169 -0.56824986 0.18798981
-0.08734606 0.61451085 -0.01991145
-0.51252018 -0.43734333 0.07058909
-0.22320400 0.44564866 -0.14476597
-0.00121468 -0.65652926 0.00000026
-0.48559758 -0.21477243 -0.12361571
-0.13373805 0.47712503 0.05698850
-0.21607003 0.27834904 0.17372690
-0.18817372 0.38911832 -0.03405143
-0.28242103 0.11818162 0.00220280
-0.36342837 -0.56387385 0.00000318
-0.24646331 0.23804629 -0.02592842
-0.08239598 -0.17052687 0.00000068
-0.44145285 -0.26578301 0.35491077
-0.10685039 -0.03247871 0.00000079
-0.51536442 -0.14214490 -0.23698734
-0.34254292 -0.02699044 0.33792818
-0.62701750 -0.47229419 -0.18943952
-0.19946424 0.11622737 0.00000648
-0.11463223 -0.46711504 0.00000149
-0.35656482 0.21220707 -0.21421732
-0.19208255 -0.70485229 0.00000163
-0.34949664 -0.29470086 -0.00000116
-0.33339444 -0.00489984 0.28164411
-0.13116943 0.18141926 0.00000105
-0.37195544 -0.09799970 0.32999687
-0.38187843 -0.12195648 0.34076967
-0.36288883 -0.07611150 0.36699686
-0.44057503 -0.04729121 -0.16974327
-0.63044854 -0.38046855 -0.26798795
-0.31795668 -0.67215600 0.00000264
-0.25888038 0.17499503 0.17989656
-0.57501078 -0.58820812 0.03689243
-0.37637636 -0.15157696 0.00000406
-0.08330007 0.53687662 0.00000058
-0.54125823 -0.53723498 0.00000458
-0.10583333 0.54449179 0.01309715
-0.58305078 -0.53166857 -0.05956877
-0.45862301 -0.30722895 0.19856069
-0.03115045 -0.46663724 0.00000086
-0.32893446 0.08627705 -0.06306517
-0.03213438 0.72241708 0.02272666
-0.15710601 0.14212266 -0.00000459
-0.47007229 -0.33487175 0.23787665
-0.35196119 -0.78656834 -0.00000210
-0.09900097 0.46556789 0.00000467
-0.37061163 0.01860328 -0.08891279
-0.41553761 -0.20321260 0.23154353
-0.25760870 0.32074366 -0.11193035
-0.30661353 -0.00448022 -0.00000036
-0.55503814 -0.44082040 -0.07778844
-0.15513717 0.42102978 0.00000346
-0.00570601 0.32020971 0.00000828
-0.45100920 -0.74494052 0.00000351
-0.00066090 -0.59532417 0.00000038
-0.45499899 -0.19614149 -0.08027292
-0.06847916 0.06421722 0.00000121
-0.21481195 0.16813301 0.00000052
-0.20464413 0.44714285 -0.11078066
-0.01787831 0.23145725 0.00000207
-0.32479990 0.01585257 0.13443298
-0.41564997 -0.34955973 0.00000398
-0.48507035 -0.36809141 -0.00231788
-0.25224226 -0.16312831 -0.00000033
-0.28945283 0.27281188 -0.13464212
-0.21952681 0.10222920 -0.00000346
-0.05155489 0.30076912 0.00000175
-0.44690484 -0.27893163 0.03190053
-0.36676537 -0.61052608 -0.00000186
-0.13676285 0.46981774 0.09106721
-0.26018971 0.17184777 0.05594466
-0.19793063 0.32214851 0.01011015
-0.31541928 -0.67009806 0.00000262
-0.40303897 0.08915370 -0.20569761
-0.30343683 -0.48164045 0.00000289
-0.04828102 0.50574187 0.00000216
-0.29359658 0.09118846 0.03673421
-0.26405576 -0.42779487 0.00000269
-0.38497113 -0.12067145 -0.00683929
-0.37963467 -0.11653751 0.29263763
-0.35117481 -0.18901391 -0.00000097
-0.12189093 0.50572211 0.08555661
-0.38547494 -0.74187853 -0.00000222
-0.60017959 -0.64814419 -0.00062432
-0.48424293 -0.79752612 0.00000366
-0.19767370 0.45246508 -0.10175281
-0.46736249 -0.45311697 0.00000418
-0.03517073 0.44443981 0.00000212
-0.55849767 -0.54834462 0.10354001
-0.34476233 -0.03233684 0.03148893
-0.35141084 -0.04840252 0.37939085
-0.05996711 -0.48998284 0.00000022
-0.06703300 0.42166771 0.00000189
-0.17511284 0.37723632 0.08752672
-0.29468086 0.08855996 0.29208009
-0.26612240 0.19968085 -0.03306968
-0.51275019 -0.16231457 -0.21620957
-0.51221810 -0.46855446 -0.00000247
-0.22059344 0.19128200 0.00000352
-0.16356518 0.30712706 0.00000109
-0.46509213 -0.77955995 -0.00000277
-0.61209588 -0.67774181 0.10883456
-0.20536716 -0.56182676 0.00000200
-0.30897643 0.12273703 -0.05386763
-0.14651068 0.48412581 -0.02968069
-0.24337978 0.33484562 -0.09604192
-0.08506682 0.01914274 -0.00000907
-0.09733231 0.22472557 0.00000266
-0.45683668 -0.30291710 0.21561879
-0.12923773 0.24691484 0.00000118
-0.37103597 0.06140958 -0.12330502
-0.28733143 0.10630323 0.28925511
-0.09227785 0.41136058 0.00000542
-0.37255384 -0.09944626 0.37431198
-0.34187936 -0.23194175 -0.00000100
-0.09923453 -0.08369905 0.00000074
-0.26479157 -0.45612212 0.00000264
-0.05476907 0.28502110 0.00000170
-0.55596943 -0.54224350 0.16532664
-0.05728883 0.52810344 -0.00000037
-0.09662384 0.51873562 0.00000064
-0.50875714 -0.76378003 -0.00000300
-0.13877077 0.47451361 -0.00747736
-0.36932053 -0.28340627 0.00000375
-0.20442877 0.30645898 0.04775552
-0.12063197 -0.20527850 0.00000203
-0.23902625 0.36858342 -0.11426945
-0.28790023 -0.35786307 0.00000300
-0.40580787 0.12700515 -0.24064324
-0.54270443 -0.51021492 0.07310836
-0.51640060 -0.50931068 -0.00000257
-0.03965610 0.08234839 -0.00000926
-0.22615351 0.25400269 0.23943180
-0.51394222 -0.62087645 0.00000421
-0.52087035 -0.69967092 -0.00000296
-0.60374436 -0.65757998 0.16533398
-0.26760317 0.34513569 -0.15000221
-0.29940246 0.07716045 0.31366322
-0.53158999 -0.63749437 -0.00000290
-0.39670557 -0.65707022 0.00000326
-0.49810935 -0.44010477 0.00000443
-0.48075461 -0.36065608 0.11585565
-0.70500735 -0.79771318 -0.08183635
-0.31671280 0.29709996 -0.20533854
-0.53719719 -0.49691890 0.06544775
-0.48536644 -0.16891091 -0.15916234
-0.17751209 -0.30306763 -0.00000014
-0.20141876 0.47417755 -0.12588431
-0.10401666 -0.38259914 0.00000157
-0.01727511 -0.51224882 0.00000044
-0.29479249 0.08829836 0.10555510
-0.09530572 -0.43339624 0.00000141
-0.24104117 -0.41700925 0.00000254
-0.29621522 0.08486358 0.10545354
-0.02049744 0.35087750 0.00000203
-0.37239448 -0.09904829 0.06223182
-0.21898167 0.27132109 0.14048822
-0.12934766 0.48772058 0.06944402
-0.43077266 -0.23999905 0.36439014
-0.22468342 -0.06011475 0.00000003
-0.00031830 -0.67920059 0.00000023
-0.41538917 -0.58252575 -0.00000210
-0.19755640 -0.70255015 0.00000167
-0.12017846 0.22168499 -0.00000422
-0.05610250 -0.07653431 0.00000178
-0.07275584 0.67179643 -0.03722351
-0.64523962 -0.64773741 -0.08629820
-0.36795913 -0.37948539 0.00000356
-0.25098903 0.27679213 -0.06490742
-0.54091848 -0.17065344 -0.26302426
-0.36892639 -0.09067986 0.27458867
-0.07796218 0.57182232 0.00000316
-0.47224415 -0.21363177 -0.09921604
-0.45248140 -0.62881620 0.00000373
-0.40030298 -0.67327678 -0.00000218
-0.12195525 -0.22994533 0.00000033
-0.20429240 -0.17262489 0.00000272
-0.30203042 0.04245604 -0.00000024
-0.55217202 -0.26437275 -0.21080595
-0.19144965 0.44787661 -0.08636229
-0.23970666 -0.56213993 0.00000225
-0.33524259 0.07704234 -0.06777402
-0.19492874 0.32938951 0.15743933
-0.04807931 0.20869067 -0.00000664
-0.01551927 -0.40904299 0.00000085
-0.36802243 0.14500323 -0.18319143
-0.45362699 -0.29826580 -0.00000180
-0.33529366 -0.40142859 0.00000328
-0.12835412 0.38909417 -0.00000083
-0.40035459 -0.16656503 0.41147536
-0.16602945 0.47861017 -0.06232627
-0.43795966 -0.43738207 0.00000398
-0.19598611 0.23150550 0.00000526
-0.41896735 -0.79292004 -0.00000252
-0.10482311 -0.27851899 0.00000177
-0.12830315 -0.02970514 0.00000241
-0.63106092 -0.64885506 -0.05856335
-0.40150456 -0.16933275 0.20939248
-0.48044928 -0.35992616 0.28585756
-0.04365241 0.66285657 0.00000248
-0.27922550 -0.54249609 0.00000259
-0.14577568 0.52438443 -0.05987666
-0.19582959 -0.51390170 0.00000201
-0.07130678 -0.62288818 0.00000087
-0.19361828 0.35717686 -0.01930569
-0.31688457 0.09271410 -0.04529603
-0.17793952 -0.67806598 0.00000157
-0.36481916 -0.22613046 0.00000383
-0.19982461 0.06417895 -0.00000477
-0.04116205 0.21199548 -0.00000678
-0.04102567 0.41805489 0.00000259
-0.22572195 0.05788803 0.00000658
-0.51545911 -0.44444301 0.17598480
-0.59973332 -0.64789669 0.11652315
-0.00461108 0.56029829 -0.00000136
-0.31178248 0.04727170 0.31889916
-0.37430133 -0.24294755 -0.00000121
-0.48491012 0.04125733 -0.32320272
-0.34387158 -0.03019629 0.26584276
-0.28792602 0.32865548 -0.17556884
-0.46770228 -0.32915283 0.30396084
-0.22460140 0.26512272 -0.00576149
-0.45145253 -0.74030824 0.00000352
-0.39844753 -0.61423537 0.00000335
-0.18956066 0.32673927 -0.00000015
-0.32516823 0.01495537 0.33622414
-0.41155075 0.01441481 -0.16318074
-0.02240039 -0.77211742 0.00000022
-0.33346137 0.13498483 -0.10985951
-0.33800195 -0.69557767 0.00000275
-0.24060452 0.35484839 -0.10648017
-0.08485585 -0.16218147 0.00000068
-0.03477114 0.52173107 0.00000274
-0.25092167 0.19422412 0.03598242
-0.08827896 -0.21908532 0.00000056
-0.20127602 0.43528850 -0.09510028
-0.13097618 -0.34308227 0.00000184
-0.36252183 0.08915014 -0.12894776
-0.46004697 -0.43405544 -0.00000209
-0.05150236 0.17502809 0.00000152
-0.13450253 0.50072085 -0.01995533
-0.37845619 0.04250818 -0.12253453
-0.47598883 -0.01095976 -0.26533054
-0.54535128 -0.05351632 -0.36333071
-0.53871511 -0.34814905 -0.11958161
-0.45074817 -0.28821566 0.15897366
-0.35154028 0.11050023 -0.12489801
-0.05485412 0.65991391 0.00000203
-0.43312401 0.09559048 -0.26773800
-0.23674522 -0.34804537 0.00000263
-0.17259834 0.51473666 -0.10311491
-0.31829678 -0.57602903 -0.00000150
-0.16142447 0.39985316 0.00000347
-0.14429229 0.46186849 -0.00801467
-0.00111064 0.33067779 0.00000211
-0.49746091 -0.40099545 0.28128657
-0.28657563 0.10812937 0.25478655
-0.32182325 -0.49698491 0.00000300
-0.02143384 -0.58220685 0.00000057
-0.57881199 -0.60386791 0.00000473
-0.31786542 0.03259389 0.23375220
-0.28288108 -0.05617808 -0.00000031
-0.21358359 -0.43675823 0.00000229
-0.47765030 -0.35316961 0.31341740
-0.59333124 -0.63244110 0.14811405
-0.07788730 -0.50590578 0.00000008
-0.00853551 -0.40094160 0.00000070
-0.32563536 0.01383053 0.25376308
-0.25021030 0.19594097 0.04238448
-0.33812141 -0.27387116 -0.00000105
-0.21033195 0.13375291 0.00000334
-0.20776344 0.34719770 -0.03826653
-0.33190957 0.24761185 -0.19529391
-0.35144373 0.16803691 -0.16985793
-0.25254017 0.19030855 0.01903319
-0.00351024 0.78835332 0.00000300
-0.08284974 0.50006001 0.00000306
-0.23131918 0.24153308 0.19971705
-0.29249093 0.09386592 0.06650173
-0.43446203 -0.58419756 -0.00000222
-0.44064930 -0.75527833 -0.00000258
-0.28560384 -0.12566544 0.00000342
-0.15145018 0.51372087 -0.06225857
-0.14166922 0.45797473 0.09465889
-0.26421800 0.10038359 -0.00000214
-0.29930903 0.07740078 0.12907563
-0.59058461 -0.62581033 0.19761142
-0.03399394 0.57776807 -0.00000014
-0.42704464 -0.23099711 0.32501815
-0.40839150 -0.18596221 0.27647043
-0.65470805 -0.72987962 -0.03978226
-0.24646513 0.06648542 0.00000348
-0.11661187 -0.66155651 -0.00000044
-0.36792925 0.06980044 -0.12400397
-0.08442746 0.34624207 -0.00000296
-0.49099198 -0.29212139 -0.07314347
-0.60424468 -0.47161880 -0.14683224
-0.42102359 0.10428551 -0.25163899
-0.01035291 -0.67880831 0.00000031
-0.62739763 -0.71468257 0.09201235
-0.50167864 -0.51317689 0.00000432
-0.43096744 -0.00127633 -0.18764530
-0.64823169 -0.76497923 0.13712989
-0.53149688 -0.06405457 -0.32881737
-0.41552867 -0.20319299 0.27813856
-0.30163519 0.07178299 0.00120545
-0.29207623 0.09486956 0.03554649
-0.60302324 -0.65583906 0.11768382
-0.02197900 -0.17656452 0.00000104
-0.58914820 -0.60551937 -0.01317301
-0.52494005 -0.15046578 -0.24859709
-0.24970801 -0.38088675 -0.00000072
-0.62644206 -0.61364732 -0.07743925
-0.03684612 0.08468580 0.00000144
-0.22270347 -0.31892671 0.00000258
-0.02156441 0.53790225 0.00000238
-0.50407195 0.01431255 -0.33835824
-0.39797081 0.12344714 -0.22300738
-0.13636000 0.39651635 0.00000142
-0.33549321 -0.00996186 0.09617644
-0.16823804 0.40451196 -0.00836629
-0.66220591 -0.79871514 0.13677530
-0.00261848 -0.33129129 0.00000090
-0.19386234 0.03786928 -0.00000544
-0.21782400 -0.53608152 0.00000214
-0.47980811 -0.35837768 0.27317222
-0.56955638 -0.57504497 0.24399665
-0.33904535 -0.26878482 0.00000355
-0.44839116 -0.04850840 -0.18359388
-0.04072734 -0.76323325 0.00000038
-0.52661853 -0.15474391 -0.24841979
-0.11371942 0.21872113 -0.00000447
-0.06272883 -0.06397542 0.00000100
-0.30169475 0.07164391 0.09512733
-0.46757558 -0.01308219 -0.24773044
-0.52946678 -0.47825763 0.10465122
-0.60064248 -0.65008879 0.03753216
-0.56775624 -0.57069590 0.08077647
-0.02457698 0.01633493 0.00000138
-0.54209652 -0.50875265 0.22609517
-0.43598677 -0.33315267 0.00000416
-0.08795311 0.58765809 0.02604081
-0.36402378 -0.70484413 0.00000292
-0.30547264 0.23931578 -0.13870518
-0.60172176 -0.72557220 0.00000468
-0.10571061 0.48267064 0.00000434
-0.22127247 0.43955538 -0.13632639
-0.12633019 -0.03350882 0.00000067
-0.36647113 -0.08475830 0.30466018
-0.02810294 0.70991912 0.00000216
-0.22622498 -0.22868951 0.00000278
-0.30599626 0.06125761 0.11622088
-0.45167850 -0.03556565 -0.19997621
-0.18503718 0.35503322 -0.00136469
-0.01726550 0.51035825 0.00000259
-0.45975396 -0.25609045 -0.04224207
-0.39043585 -0.14261573 0.33441704
-0.41572456 -0.58542848 0.00000354
-0.19713098 -0.49818102 -0.00000062
-0.30489929 0.14396921 -0.06280942
-0.27058480 0.28814834 -0.11093454
-0.11570846 0.49437336 0.00000399
-0.06291342 0.11351875 0.00000219
-0.41040859 -0.08228486 -0.08514347
-0.09995076 0.55869196 0.05254107
-0.59114178 -0.38498585 -0.18998720
-0.00713099 0.64942398 0.00000039
-0.40257947 0.13332635 -0.23948772
-0.20144124 0.26657193 0.00000352
-0.70096780 -0.70086076 -0.15017793
-0.50923494 -0.58625449 0.00000424
-0.36706281 -0.73586974 -0.00000210
-0.23202671 -0.11967396 0.00000303
-0.45846954 -0.30686024 0.24101100
-0.22063292 0.35863027 -0.07161572
-0.03987497 -0.40075515 0.00000105
-0.39377557 -0.67155805 0.00000321
-0.40092990 -0.16793713 0.01422982
-0.26920135 0.27142580 -0.09519542
-0.23006993 -0.42458946 -0.00000068
-0.56754737 -0.37896401 -0.15001855
-0.39071990 -0.14330192 0.38145998
-0.47434840 -0.34519831 0.31497789
-0.12897778 -0.10139784 0.00000053
-0.30715880 0.05844120 0.15613702
-0.28527109 0.11128234 0.23609970
-0.01558163 0.67011579 0.00000287
-0.12057644 -0.05956256 0.00000066
-0.06939618 0.51839408 0.00000470
-0.59750144 -0.28543228 -0.28014697
-0.25064417 0.13602628 -0.00000189
-0.10197701 0.61978390 -0.05176481
-0.29215769 0.09465293 0.25702665
-0.35052246 -0.27777649 0.00000362
-0.11378519 0.28893669 0.00000290
-0.03667597 -0.11550552 0.00000156
-0.02351413 -0.15891619 0.00000138
-0.48976322 0.01730711 -0.31360309
-0.17216754 0.38291118 0.00000118
-0.03146614 -0.04459127 0.00000123
-0.45678780 -0.27111651 -0.02483351
-0.67881056 -0.58769490 -0.19700049
-0.19403429 0.07733305 0.00000047
-0.10930318 0.06441320 0.00000096
-0.19289114 0.37114059 -0.02888472
-0.28081911 0.08759070 0.00000508
-0.05755506 0.25034783 -0.00000557
-0.33924718 0.13552317 -0.12124568
-0.18859423 -0.77192648 0.00000148
-0.56920817 -0.57420436 0.24010438
-0.12865096 -0.22577130 0.00000030
-0.25612177 0.18165731 0.12427306
-0.21704873 -0.50685834 -0.00000076
-0.13391040 -0.10928645 0.00000231
-0.10027219 -0.73997446 -0.00000049
-0.18675140 0.44183535 -0.07272209
-0.34954811 -0.04389752 0.19109230
-0.66896507 -0.74229664 -0.05704553
-0.50906528 -0.17151979 -0.20200672
-0.52093013 -0.28104539 -0.13854426
-0.02362500 -0.75973232 -0.00000007
-0.03901380 -0.02295950 0.00000175
-0.20801766 -0.42374779 0.00000227
-0.27089441 0.19890062 -0.04149683
-0.04659698 0.43798465 0.00000267
-0.23449195 -0.36508697 0.00000258
-0.62338246 -0.43049526 -0.21535067
-0.15485361 0.55800536 -0.10345251
-0.09800514 0.62786130 -0.05057837
-0.58124677 -0.60326735 0.18018974
-0.38185409 -0.12188757 0.10121745
-0.43424354 -0.08643487 -0.12703645
-0.14555895 -0.03627177 0.00000253
-0.02418696 0.17132616 -0.00000806
-0.11691576 0.24115638 -0.00000395
-0.04891516 -0.72206753 -0.00000015
-0.03555059 0.07037744 0.00001046
-0.52623280 -0.47045370 0.18979991
-0.39044495 -0.47427351 0.00000356
-0.45824111 0.00093720 -0.24104875
-0.63303389 -0.77158810 0.00000483
-0.24839180 0.20032347 0.02311907
-0.00773712 -0.21906230 0.00000104
-0.05418926 -0.21196315 0.00000078
-0.00857435 0.44299582 -0.00000344
-0.37039613 -0.09423323 0.28384835
-0.16010203 0.41023192 0.00000400
-0.49050985 -0.20748196 -0.13864110
-0.33307643 -0.00411975 0.12721692
-0.54409558 -0.27541486 -0.18684319
-0.31548145 0.03835177 0.20189300
-0.13767216 -0.65631476 -0.00000056
-0.46886230 -0.33194087 0.00924787
-0.18680938 -0.04345516 0.00000029
-0.10483108 -0.22367706 0.00000187
-0.24176005 0.21633502 0.12246240
-0.45276422 -0.29309021 0.33222569
-0.29554477 0.08149193 0.00000484
-0.01324458 -0.40123550 0.00000085
-0.21623772 -0.72233360 0.00000178
-0.23245089 0.06447638 0.00000636
-0.43707909 -0.45541666 -0.00000199
-0.16704337 -0.09545314 0.00000258
-0.65115413 -0.77203441 0.07984069
-0.11105531 -0.36482706 0.00000015
-0.51908684 -0.45320376 0.27197276
-0.62827322 -0.77715567 -0.00000375
-0.16829182 -0.77585294 -0.00000097
-0.37898299 -0.11495715 0.12638489
-0.08897135 0.26932085 0.00000268
-0.34586204 -0.03499313 0.20960909
-0.33002759 0.00322331 0.33360230
-0.19302348 -0.10195254 0.00000014
-0.14634525 0.41869224 0.00000339
-0.32691281 0.01075259 0.10953480
-0.04789451 -0.23676718 0.00000077
-0.32043552 0.02638108 0.32469843
-0.08625266 0.36931413 0.00000167
-0.22516489 0.06042243 0.00000656
-0.09125412 0.27847265 0.00000271
-0.17946334 0.36672898 0.14286072
-0.15417324 -0.29663026 0.00000211
-0.37160560 -0.09714340 0.05377112
-0.43461965 -0.03269513 -0.16991055
-0.25351199 0.18795234 0.25526065
-0.26806256 -0.05884689 -0.00000023
-0.28556240 -0.76180445 0.00000223
-0.25269182 -0.70650418 0.00000208
-0.27670183 0.33503090 -0.15930983
-0.47301718 -0.41122399 0.00000430
-0.37769875 -0.56879641 -0.00000185
-0.31494743 -0.07393263 0.00000374
-0.25206486 0.19145185 0.11833266
-0.17503245 0.36229770 0.00000008
-0.42829063 0.00015014 -0.18369766
-0.42818860 -0.23376029 0.35857310
-0.23474357 0.23326879 0.18856907
-0.13811707 0.26425502 0.00000304
-0.28747531 0.01890152 0.00000571
-0.26432234 -0.10357982 0.00000330
-0.45174191 -0.29061027 0.05247299
-0.25588030 0.18225063 0.06666368
-0.21843499 0.27264141 0.12828050
-0.34058216 -0.02225407 0.24615305
-0.18649099 -0.11972560 0.00000015
-0.40364445 -0.17449954 0.22368396
-0.50387616 -0.00698898 -0.32127356
-0.17863028 -0.03913665 0.00000277
-0.14057546 0.06642729 0.00000078
-0.03261732 -0.42112249 0.00000096
-0.17743285 0.01087119 0.00000045
-0.37203800 -0.14417192 -0.00000102
-0.07142924 -0.28674470 0.00000150
-0.04584586 -0.47045564 0.00000034
-0.57749486 -0.59420801 0.10190270
-0.00318459 0.31076855 0.00000844
-0.57341534 -0.39702579 -0.14696204
-0.17570333 -0.76517667 -0.00000100
-0.21481446 -0.49373561 0.00000219
-0.02630872 0.04406010 0.00000178
-0.12858977 0.48954890 0.10251758
-0.50513201 -0.41951133 0.18172827
-0.05021447 0.15220765 0.00000148
-0.54897338 -0.60180396 -0.00000294
-0.16345917 -0.09567063 0.00000033
-0.39670180 -0.41002913 -0.00000166
-0.34413164 -0.71781279 0.00000275
-0.52493224 -0.14511655 -0.25277948
-0.39754146 -0.15975974 0.08642055
-0.05618679 0.08148529 0.00000208
-0.31418808 0.26456797 -0.17502911
-0.33439332 -0.62904318 0.00000284
-0.18581841 0.41052462 -0.04638647
-0.51801222 -0.45060872 0.22127643
-0.40625631 -0.40197397 0.00000381
-0.26290205 -0.77446734 0.00000203
-0.13173677 0.13574950 0.00000096
-0.33374701 -0.78303457 0.00000255
-0.18161250 0.37399798 -0.00976221
-0.36649586 -0.27110386 0.00000376
-0.62830348 -0.47687961 -0.18827760
-0.67439571 -0.62917677 -0.15608977
-0.20259977 0.31087424 0.05600269
-0.20536866 -0.22669177 -0.00000016
-0.23734970 0.22698972 0.03105747
-0.62658357 -0.63792615 -0.05865733
-0.16900293 0.23427106 0.00000092
-0.28574008 -0.28049459 0.00000313
-0.45483466 -0.30146179 0.00000437
-0.00559873 0.26746474 0.00000887
-0.04698322 0.71944970 -0.02579397
-0.19713260 0.46296235 -0.10896460
-0.15304798 0.07215170 -0.00000603
-0.25233029 -0.53392380 0.00000240
-0.24100055 -0.23515983 0.00000288
-0.06183101 -0.02008801 0.00000193
-0.45701390 -0.24863715 -0.04289985
-0.06605958 0.37301972 0.00000641
-0.18811337 0.16655859 0.00000323
-0.13235657 0.41098188 0.00000147
-0.48803498 -0.37823745 0.23271315
-0.12050877 -0.74827383 0.00000101
-0.23786756 0.35945997 -0.10491412
-0.31077687 -0.40374630 0.00000309
-0.11195879 0.02801298 0.00000932
-0.61675816 -0.78666474 -0.00000370
-0.19832706 -0.47074280 -0.00000058
-0.33993836 -0.50876000 -0.00000151
-0.17690800 0.20458502 0.00000082
-0.11298103 0.51355817 0.00000178
-0.52215676 -0.46061150 0.14930508
-0.25729151 -0.19547170 0.00000307
-0.09710134 0.37022687 -0.00000213
-0.48557322 -0.35187735 -0.01599251
-0.66383533 -0.65247171 -0.11780806
-0.30395516 0.06618854 0.07428610
-0.25597679 -0.61352532 0.00000228
-0.58148203 -0.60383528 0.14371872
-0.23836466 0.15874261 0.00000360
-0.03844399 -0.68157468 -0.00000001
-0.13537768 0.40215002 -0.00000037
-0.07777282 0.17807886 0.00000242
-0.44182105 -0.64183512 0.00000363
-0.04258274 0.17051460 0.00000918
-0.16155948 0.46871831 -0.04609756
-0.36493637 -0.08104124 0.02614217
-0.04637552 -0.59711012 0.00000073
-0.14717160 0.17106005 -0.00000435
-0.02584330 -0.79910667 0.00000020
-0.24050538 -0.74494661 -0.00000135
-0.13056285 -0.52075743 0.00000151
-0.20394340 0.30762659 0.18127455
-0.18931481 0.26829519 0.00000498
-0.50167192 -0.41115263 0.05690896
-0.43446854 -0.45712238 -0.00000198
-0.34796374 -0.04007504 0.25049065
-0.12728485 0.08809563 -0.00000651
-0.25445975 0.18568298 0.03060040
-0.09034548 0.62877567 -0.03678625
-0.39065803 -0.14314411 0.14566524
-0.25119576 0.38070801 -0.14683484
-0.64709116 -0.75858172 -0.00283338
-0.46273702 -0.03484425 -0.22148980
-0.25661148 0.04655680 -0.00000338
-0.22780124 0.31166692 -0.04834797
-0.60168838 -0.75254074 -0.00000354
-0.05865387 -0.30611810 0.00000057
-0.35558341 -0.06055652 0.00000407
-0.02964471 -0.01374059 0.00000170
-0.07958409 0.06973558 0.00000115
-0.39711215 -0.15873687 0.40684629
-0.51979604 -0.45491261 0.15881533
-0.72122457 -0.81353694 -0.10013967
-0.36396572 -0.50924534 -0.00000165
-0.21441985 0.02355558 0.00000025
-0.19807580 0.32179260 0.13881075
-0.65387094 -0.55821492 -0.17289003
-0.03206724 0.64573277 0.00000252
-0.05566269 -0.00523181 0.00000191
-0.35608657 -0.05968009 0.24833919
-0.51277871 -0.72743065 0.00000400
-0.24445471 -0.74406082 -0.00000137
-0.50669057 -0.04047870 -0.30032760
-0.29840055 0.07959584 0.10598419
-0.31711625 0.03440397 0.21549776
-0.30072504 0.07396786 0.29457072
-0.07705689 -0.17319692 0.00000176
-0.23356020 -0.71882931 0.00000191
-0.09134762 0.34930669 -0.00000269
-0.10878669 0.60299294 -0.05148928
-0.35562338 -0.54361556 -0.00000167
-0.07124769 -0.37156478 0.00000134
-0.09995587 0.27811295 0.00000142
-0.56694610 -0.56874301 0.15071476
-0.22267054 -0.66440763 0.00000193
-0.02808459 0.63031271 0.00000067
-0.10172399 -0.60725531 0.00000113
-0.21764622 -0.48392646 -0.00000072
-0.06673523 0.32152571 0.00000261
-0.26606556 0.15765232 0.18194726
-0.31376266 -0.26899769 -0.00000090
-0.16114716 0.02622190 0.00000276
-0.29846341 0.14651571 -0.05261636
-0.28053928 0.35418226 -0.18160540
-0.66938061 -0.55438830 -0.20527140
-0.42338058 -0.22215070 0.31219875
-0.01293720 0.68012767 0.00000114
-0.24459621 0.28560208 -0.05971044
-0.52154873 -0.32591481 -0.10451002
-0.43555584 -0.29052060 0.00000424
-0.32729040 0.00983389 0.27735830
-0.19182207 0.03765581 0.00000752
-0.32998750 -0.76910287 0.00000255
-0.26904810 0.15044839 0.22615761
-0.04309110 0.24084948 0.00000838
-0.24219471 -0.02976257 -0.00000002
-0.14177349 0.45772439 0.00958049
-0.25639285 0.18099698 0.26965579
-0.55218242 -0.46273920 -0.05518080
-0.31943516 0.02881356 0.11731813
-0.21634789 0.27768007 0.17904190
-0.53484494 -0.07656745 -0.32534246
-0.00319605 -0.47997645 0.00000058
-0.17890107 0.03979869 0.00000777
-0.23295936 -0.31608717 -0.00000050
-0.10553421 -0.64914190 -0.00000035
-0.31010033 -0.14496165 -0.00000064
-0.19536025 0.38424830 -0.04384654
-0.64618644 -0.44236821 -0.24923075
-0.22405979 0.25582764 0.00000063
-0.22188027 0.26432341 0.13635158
-0.57082715 -0.72530734 -0.00000331
-0.49993577 -0.40696522 0.15226607
-0.35607342 -0.09251959 0.00000401
-0.07632006 0.55856049 0.00000078
-0.14598237 -0.48987882 0.00000168
-0.01973727 0.39572854 0.00000713
-0.62619621 -0.43845864 -0.21443224
-0.06853382 0.14716702 0.00000890
-0.09357075 -0.67114592 0.00000095
-0.37624610 0.11024220 -0.17149152
-0.28255184 -0.34732886 -0.00000086
-0.14165571 0.45800689 0.10038999
-0.42656909 -0.00112404 -0.17943687
-0.13249271 -0.72514916 0.00000114
-0.32543362 0.01431662 0.31193553
-0.30019158 -0.21946009 0.00000335
-0.03764812 -0.76421743 0.00000035
-0.23096615 0.24238414 0.22903838
-0.33364678 -0.00550550 0.12774533
-0.45704359 -0.30340803 0.01308401
-0.17885429 0.46674487 -0.07730974
-0.17837383 0.42644988 -0.04478021
-0.21815942 0.27331490 0.07660271
-0.32500937 -0.45081962 0.00000311
-0.41662450 -0.45168129 -0.00000186
-0.09839950 0.56243557 0.08708823
-0.31446784 -0.35032387 -0.00000105
-0.33174567 0.00827609 -0.00719373
-0.39182031 -0.19761864 0.00000409
-0.47049561 -0.71096386 -0.00000267
-0.34170789 -0.62492233 0.00000291
-0.06060510 0.35730812 0.00000670
-0.07927914 0.62119215 -0.00987446
-0.40441045 0.01869318 -0.15300801
-0.34772551 -0.46878095 0.00000324
-0.44840163 -0.09069216 -0.15051495
-0.48532978 -0.46398895 0.00000429
-0.34349587 -0.02928500 0.26272674
-0.07135926 0.19082323 0.00000240
-0.21308304 0.24234516 0.00000067
-0.06402697 -0.25301313 0.00000151
-0.66077345 -0.79525697 0.13132660
-0.27117206 -0.71122825 -0.00000147
-0.39867848 -0.16251271 0.27389577
-0.54893778 -0.52526851 0.24280841
-0.46036554 0.02385359 -0.26305219
-0.45999022 -0.21890875 -0.07186360
-0.25194203 -0.76537437 0.00000197
-0.08202793 0.51325767 0.00000197
-0.06611415 0.43082613 0.00000576
-0.02657404 0.09188797 -0.00000948
-0.13582450 -0.74913356 -0.00000072
-0.45497693 -0.29842614 0.18986328
-0.05324912 -0.25417572 0.00000143
-0.35148586 0.21347805 -0.20559472
-0.08456605 0.32190986 0.00000659
-0.31312123 -0.32987244 0.00000324
-0.09394725 -0.58570020 0.00000111
-0.04678127 0.70299927 -0.01250409
-0.46636809 -0.75337915 -0.00000273
-0.21979682 -0.01047022 0.00000314
-0.55839877 -0.33965451 -0.16353239
-0.00624466 -0.26623125 0.00000105
-0.43322158 -0.17469177 -0.05585135
-0.23401446 -0.76064220 -0.00000134
-0.13133361 0.17106822 0.00000730
-0.41497249 -0.06489037 -0.10743690
-0.66285057 -0.65510566 -0.11387603
-0.06514424 0.19500905 0.00000843
-0.46333335 -0.14400907 -0.13696507
-0.18546061 0.35224824 0.14409211
-0.42245384 -0.18567809 -0.02683438
-0.10623520 0.63344605 -0.07055064
-0.39102922 -0.14404807 0.33036050
-0.51321092 -0.43901168 0.08833569
-0.11041369 0.15130060 0.00000797
-0.24492993 -0.65895714 0.00000211
-0.54455927 -0.51469811 0.25695926
-0.60305461 -0.41295802 -0.19060514
-0.42724859 -0.36836005 0.00000403
-0.64701765 -0.76204747 0.00644848
-0.36728408 -0.47400600 0.00000338
-0.11296937 -0.72174899 -0.00000054
-0.09891884 -0.73527947 0.00000087
-0.21864592 -0.25801617 0.00000267
-0.61046882 -0.67381264 0.05830641
-0.06005419 -0.02689827 0.00000190
-0.04933414 0.38468943 -0.00000330
-0.18587175 -0.04441673 0.00000029
-0.09121891 -0.10893474 0.00000075
-0.51668047 -0.56581056 0.00000434
-0.05817113 0.32048547 -0.00000424
-0.36747415 -0.08717187 0.11757882
-0.37352533 -0.10178024 0.10505278
-0.36146734 -0.07267809 0.30634527
-0.46101707 -0.31300596 0.13266681
-0.39799269 -0.17412877 -0.00000123
-0.16578725 0.39974634 0.09174220
-0.49573109 -0.26582028 -0.10275724
-0.38632058 -0.13266669 0.00731284
-0.44061222 -0.26374002 0.03623074
-0.27429634 0.13779465 0.02048266
-0.23690494 0.29893330 -0.05560140
-0.12236236 -0.20815571 0.00000037
-0.43005883 -0.23827399 0.32389213
-0.22912926 0.24681945 0.22968893
-0.44172089 -0.32090971 0.00000423
-0.39588639 -0.15576998 0.22671285
-0.36360477 -0.18260692 -0.00000104
-0.41677605 -0.20619702 0.10256012
-0.38686860 -0.12721005 -0.00530317
-0.24963944 0.01724510 -0.00000414
-0.20187006 0.11836700 0.00000640
-0.43147286 -0.24168412 0.23766331
-0.29840449 0.07958246 0.15447018
-0.71340123 -0.76245642 -0.12539983
-0.43672953 -0.71730660 -0.00000248
-0.39745305 0.17394299 -0.26164732
-0.22354446 0.39911991 -0.10890309
-0.29021157 -0.46551265 0.00000282
-0.54499697 -0.32902101 -0.14648949
-0.60975697 -0.43409991 -0.18671242
-0.08579635 0.54825291 0.00000318
-0.00539947 0.76372788 0.00000297
-0.06671918 0.48346793 0.00000200
-0.59557095 -0.64845422 0.00000478
-0.68093274 -0.80106439 -0.03360405
-0.46288308 -0.17510368 -0.11171429
-0.00857356 0.54191822 -0.00000158
-0.19286370 -0.25204297 -0.00000014
-0.25121382 0.23980589 -0.03631261
-0.00701715 0.02565952 0.00000151
-0.17647351 0.39830878 -0.01910276
-0.54757563 -0.52197246 0.01106093
-0.04579757 -0.24110163 0.00000077
-0.29990998 -0.55554505 0.00000272
-0.52061861 -0.32558378 -0.10300787
-0.04226178 -0.41028300 0.00000048
-0.37136188 -0.09656895 0.38240699
-0.29499072 -0.26590724 -0.00000078
-0.50824638 -0.42702784 0.12782338
-0.12751219 0.34188696 -0.00000174
-0.14470960 0.47729023 -0.02090557
-0.45051228 -0.28764127 0.04314719
-0.32352783 -0.45665460 0.00000308
-0.23161615 -0.48160647 -0.00000080
-0.25930587 0.39485970 -0.17330127
-0.16136204 -0.18633238 0.00000237
-0.18310296 0.24663347 0.00000334
-0.18428805 0.35823936 -0.00246135
-0.32860098 -0.78513238 0.00000251
-0.22420397 0.11038330 0.00000340
-0.46564794 -0.32419249 0.28786629
-0.12704157 0.24791900 0.00000120
-0.35036109 0.14689452 -0.15122050
-0.39975263 -0.40635788 -0.00000167
-0.30098554 0.07335873 0.06190679
-0.35823961 0.04327348 -0.08483985
-0.56120593 -0.43762870 -0.09197605
-0.15935738 0.49477188 -0.06236716
-0.02606960 0.37199024 0.00000239
-0.07623892 -0.17384961 0.00000071
-0.23921369 0.02835302 0.00000663
-0.07749153 0.40832628 0.00000577
-0.57483272 -0.45160207 -0.10682457
-0.25260645 0.23556570 -0.03562360
-0.38322426 -0.12519959 0.19889152
-0.53865136 -0.50042953 0.06397462
-0.19563206 0.17205976 0.00000330
-0.00028657 -0.67828006 0.00000023
-0.29762586 0.08145474 0.24781225
-0.39522979 -0.79386802 0.00000299
-0.57569133 -0.67914971 -0.00000325
-0.52114525 -0.45816635 0.07531087
-0.22009191 -0.44157195 0.00000233
-0.52897913 -0.14423242 -0.26113900
-0.32869075 0.06227447 -0.04376964
-0.11686505 -0.28503217 0.00000185
-0.15174567 0.24180002 0.00000104
-0.67731379 -0.66500132 -0.13350824
-0.06454687 0.59668155 0.00000311
-0.50082073 -0.25425936 -0.12146933
-0.40497277 -0.51940678 0.00000358
-0.02132706 -0.21234270 0.00000097
-0.71957982 -0.78702576 -0.11782562
-0.37761024 -0.08994365 -0.01700602
-0.01150242 0.41441096 -0.00000388
-0.27327921 -0.36910592 0.00000287
-0.00372532 0.59806564 -0.00000067
-0.12226564 -0.21235182 0.00000036
-0.13226667 0.48067108 0.12508040
-0.40990143 -0.56482854 -0.00000203
-0.17724215 0.36083134 0.00000111
-0.03467496 0.21356968 0.00000216
-0.15183606 0.43343448 0.04024239
-0.26412477 0.16233205 0.22417287
-0.39852428 -0.16213797 0.21554289
-0.04802098 0.02524039 0.00001070
-0.10462917 0.54739741 0.04848402
-0.45168047 0.09335925 -0.30113853
-0.08761927 0.38191204 -0.00000220
-0.34268297 -0.28882382 0.00000354
-0.36871166 0.00144034 -0.07184663
-0.20800459 -0.36967220 -0.00000045
-0.42435040 -0.22447958 0.01789361
-0.31082528 -0.48821582 0.00000293
-0.36229285 0.15311649 -0.17870413
-0.29241123 0.31541295 -0.17367439
-0.06382702 0.53729760 0.00000000
-0.20092367 -0.20230888 -0.00000009
-0.15217915 -0.46049199 -0.00000028
-0.35611217 -0.05974034 0.08964111
-0.47490692 -0.10713118 -0.18782386
-0.21940035 -0.02461213 0.00000013
-0.17827666 0.33489153 -0.00000034
-0.53346562 -0.40509483 -0.06495627
-0.35273725 -0.05158890 0.18157616
-0.14541976 0.35569319 0.00000129
-0.46153715 -0.31426465 0.20577023
-0.46212673 -0.48393551 -0.00000220
-0.44267656 -0.28285346 0.00000431
-0.37821844 0.00266032 -0.09081823
-0.45451118 -0.04063184 -0.20136689
-0.38970012 -0.59216057 -0.00000196
-0.14876187 0.54276505 -0.07995455
-0.03719820 0.02082426 0.00000182
-0.00335520 -0.53640582 0.00000052
-0.54720441 -0.52107715 0.03200735
-0.45689374 -0.30305519 0.22375155
-0.40578088 -0.03828157 -0.11090389
-0.17610618 0.37483645 0.10941835
-0.55699125 -0.54470704 0.08605370
-0.13868545 0.13489677 0.00000280
-0.49646103 -0.39857390 0.09272708
-0.01964644 0.14771138 -0.00000864
-0.30243255 0.06985177 0.14757055
-0.46544473 -0.32370349 0.33682002
-0.22794342 -0.14580297 -0.00000015
-0.43401666 -0.38031301 0.00000406
-0.28276923 -0.46317538 0.00000276
-0.17629703 0.37437234 0.11641384
-0.07774541 0.61230050 0.05570941
-0.16376774 -0.31778061 0.00000214
-0.03414681 0.24761932 0.00000176
-0.66760535 -0.81175018 0.04297767
-0.20909107 0.06091320 0.00000319
-0.13836685 -0.34318327 0.00000002
-0.02411235 0.02457326 0.00000173
-0.42257535 -0.48442245 -0.00000196
-0.40013042 -0.52604935 -0.00000190
-0.09264635 0.02189316 -0.00000879
-0.18524659 0.31365459 0.00000349
-0.27022439 0.35102816 -0.15959114
-0.54405583 -0.31415511 -0.15637101
-0.11963269 0.30982933 0.00000136
-0.61869773 -0.66510478 -0.02239437
-0.26675685 0.15598686 0.00634405
-0.32719930 0.12614996 -0.09106498
-0.05700588 0.66237244 0.00590938
-0.12222873 0.04249852 0.00000084
-0.32339323 0.01925179 0.05875985
-0.14523505 -0.35745392 -0.00000005
-0.56190030 -0.64728309 0.00000453
-0.54855516 -0.65063749 0.00000442
-0.08755236 0.38658992 -0.00000211
-0.19482905 0.48079132 -0.11859070
-0.07460797 0.28679505 -0.00000437
-0.07902373 -0.10543249 0.00000190
-0.13564188 0.55800759 -0.06706174
-0.51711969 -0.44844640 0.04320641
-0.22977286 0.24527039 0.10186138
-0.22195744 -0.55659182 0.00000213
-0.61279643 -0.50848588 -0.13410422
-0.21067407 0.30397494 -0.00986956
-0.64356232 -0.75902842 -0.00000381
-0.14274900 0.56858741 -0.08882651
-0.63592035 -0.40508074 -0.25904134
-0.08785430 0.13340178 0.00000864
-0.36705744 0.07699618 -0.12799874
-0.37979255 -0.50835676 0.00000341
-0.22362565 0.39923600 -0.10914652
-0.01955788 0.67860512 0.00000292
-0.12015788 -0.39328394 0.00000004
-0.39498426 -0.15359960 0.40490296
-0.33550401 -0.51894014 0.00000306
-0.20747484 -0.29908059 -0.00000031
-0.00480918 0.20909878 0.00000955
-0.23633101 0.05671528 0.00000637
-0.39075031 0.01858792 -0.12705399
-0.49173036 -0.21107839 -0.13813116
-0.50589011 0.00270928 -0.33269804
-0.40467152 -0.71109379 -0.00000228
-0.72479217 -0.81939864 -0.10229826
-0.21179986 0.28865790 0.18031324
-0.37852646 -0.39350741 0.00000362
-0.58693296 -0.16135256 -0.35748468
-0.24285137 -0.02154280 0.00000329
-0.49424285 -0.39321730 0.05921264
-0.41373782 -0.19887355 0.37386530
-0.49936956 -0.67121106 0.00000401
-0.12399071 0.53868209 -0.02982900
-0.14660109 0.10797935 0.00000082
-0.03465005 -0.62513299 0.00000012
-0.30132436 0.22323511 -0.11822927
-0.50304608 -0.17207723 -0.19016751
-0.51227226 -0.32936503 -0.08423095
-0.21301626 0.28572401 0.11481805
-0.25541970 -0.65821534 -0.00000128
-0.27551921 0.13482070 0.28582638
-0.35901596 -0.65519814 -0.00000190
-0.01281262 -0.15138300 0.00000114
-0.52089309 -0.10865918 -0.27373401
-0.26168444 0.29958395 -0.10305036
-0.33165023 -0.00068503 0.11961683
-0.21140582 -0.41918583 0.00000231
-0.15617347 0.52441793 -0.07959889
-0.47241950 0.00371696 -0.27008718
-0.59317751 -0.68844522 -0.00000337
-0.03766467 0.70735342 0.00000311
-0.30946392 0.16335222 -0.08666449
-0.10152360 0.09203555 0.00000244
-0.67970578 -0.84096251 0.11533950
-0.26427978 0.16196190 0.20206138
-0.46194706 -0.12536321 -0.14896926
-0.33586518 -0.01086464 0.20906152
-0.36656404 0.22103504 -0.24008595
-0.22959478 0.24840752 -0.00210997
-0.16784382 0.38637220 0.00000121
-0.57520919 -0.58869173 0.21684885
-0.04220295 0.20510218 -0.00000688
-0.10124770 -0.11442649 0.00000067
-0.12225315 0.37557717 -0.00000127
-0.29225022 -0.66915307 -0.00000152
-0.22074448 -0.51634133 -0.00000080
-0.20166128 0.36967477 -0.04434737
-0.10175205 0.52223385 0.00000187
-0.24623346 -0.35489907 -0.00000065
-0.21774257 0.31702813 -0.03349702
-0.59427726 -0.63472041 0.00637530
-0.16396541 0.40414814 0.00985205
-0.19775118 -0.63104596 -0.00000088
-0.27251411 0.14208594 0.16217719
-0.28712611 -0.70428385 0.00000235
-0.45007226 0.08256966 -0.28962595
-0.35575977 0.14106566 -0.15687047
-0.13714900 -0.76445989 -0.00000076
-0.13588603 0.05053640 0.00000077
-0.17843313 0.36921487 0.12730543
-0.10383325 0.61238502 -0.04947485
-0.25128899 -0.59679713 -0.00000114
-0.22938256 0.24621650 0.01129380
-0.22370653 0.25991750 0.06322591
-0.00540304 0.47529684 0.00000236
-0.13154619 0.21595490 -0.00000398
-0.23657320 0.22884661 0.25230695
-0.06868233 -0.77450516 0.00000057
-0.27515657 -0.77453468 0.00000212
-0.11077725 0.08264889 -0.00000711
-0.01899633 -0.46080526 0.00000052
-0.25911743 0.17442076 0.22704837
-0.57994877 -0.60013381 0.21987659
-0.50257316 -0.41333018 0.09850022
-0.04742865 0.38153193 0.00000671
-0.30097125 -0.70173446 -0.00000163
-0.52520296 -0.12587501 -0.26838986
-0.32364246 0.01864817 0.10419082
-0.27254414 0.36918178 -0.17822982
-0.41806544 -0.66068601 -0.00000226
-0.15912164 -0.16660530 0.00000023
-0.43585109 -0.25224787 0.08972770
-0.48631892 -0.13187406 -0.19002691
-0.31674865 0.03529055 0.12337259
-0.36887292 -0.73496696 0.00000290
-0.53922551 -0.29308500 -0.16375353
-0.20933224 0.29462084 0.04890315
-0.08816161 0.12086753 0.00000878
-0.05862436 0.44659366 0.00000198
-0.44559993 -0.27578812 0.19316896
-0.41048716 -0.19101855 0.20447462
-0.32847327 0.03895775 -0.02506198
-0.42695073 0.05733500 -0.22602867
-0.03691235 -0.40783266 0.00000051
-0.21481006 0.28139852 0.10593571
-0.14114228 0.56329393 -0.08162906
-0.30194714 0.07101765 0.28903192
-0.40962332 -0.18892441 0.00068275
-0.48497334 -0.37084693 0.25497483
-0.20787256 -0.24798757 -0.00000022
-0.50870000 -0.08179067 -0.27171922
-0.64135504 -0.45320271 -0.23157789
-0.24077520 -0.03300466 -0.00000002
-0.61395560 -0.67698572 -0.00408944
-0.02225556 0.11696700 0.00000189
-0.04077391 0.37138068 -0.00000381
-0.46398489 -0.32017536 0.23684639
-0.42963044 -0.23723826 0.28883958
-0.58650645 -0.61596500 0.15263632
-0.27769258 0.12957382 0.29153015
-0.55239755 -0.38032417 -0.12025385
-0.44723956 0.09148469 -0.29125566
-0.14770590 -0.41902993 -0.00000018
-0.28432902 -0.45858901 -0.00000108
-0.09511464 -0.65068703 -0.00000029
-0.17239232 -0.37830092 0.00000209
-0.08627048 0.17934628 0.00000816
-0.19048114 0.18871095 0.00000070
-0.17042619 -0.09914104 0.00000260
-0.06811116 -0.12294778 0.00000086
-0.41346338 -0.19820636 0.26443805
-0.15142980 0.29830807 -0.00000184
-0.38220772 -0.12275060 0.32058234
-0.63229307 -0.71027595 -0.01270449
-0.18934284 0.36939020 -0.02078619
-0.05908510 -0.01198011 0.00000112
-0.00532905 0.04388517 0.00001139
-0.13119259 0.06291368 -0.00000686
-0.14215287 -0.25143481 0.00000210
-0.07140756 0.62760140 0.05767977
-0.10570933 0.36211373 0.00000569
-0.46337850 -0.66948778 -0.00000255
-0.12284147 -0.24225548 0.00000030
-0.30981290 0.05203786 0.18730160
-0.32955854 0.00436101 0.20843293
-0.26592648 -0.33605172 0.00000288
-0.35080594 -0.04692960 0.08227845
-0.16043460 -0.06085973 0.00000042
-0.53381506 -0.48875993 0.24798161
-0.37646128 -0.74722730 -0.00000217
-0.08582720 0.09019585 0.00000917
-0.37078393 -0.09517158 0.36555331
-0.00837159 0.78144681 -0.00129927
-0.57914436 -0.75175930 0.00000446
-0.12859632 -0.06795435 0.00000234
-0.12733462 -0.36990136 0.00000004
-0.37728700 0.07584564 -0.14647367
-0.09164983 -0.63465415 -0.00000024
-0.01389931 0.32589028 0.00000804
-0.34080363 -0.53048877 0.00000308
-0.53451901 -0.40295898 -0.06862750
-0.33609663 -0.01142680 0.32385496
-0.36768889 -0.08769033 0.11843942
-0.02952512 -0.47040480 0.00000084
-0.31516544 0.03911447 0.08287327
-0.05417788 0.66920193 0.00491380
-0.48215740 0.00924548 -0.29287100
-0.33022644 0.07192822 -0.05425359
-0.24837599 0.20036052 0.04948802
-0.11024926 0.38586992 0.00000306
-0.12729309 -0.08365631 0.00000057
-0.40033941 -0.15881885 -0.00601887
-0.04857967 0.68271330 0.05081238
-0.54838226 -0.17547559 -0.27337888
-0.27150129 0.12141972 -0.00000153
-0.18273599 0.35882835 0.09097677
-0.67253931 -0.60258109 -0.17344112
-0.09822372 0.42824647 0.00000171
-0.00123293 0.20413569 0.00000189
-0.29599807 -0.52103833 0.00000276
-0.17835480 -0.18175903 0.00000008
-0.11591083 -0.46213601 0.00000151
-0.36050158 0.18575061 -0.20091683
-0.13188848 0.48158623 0.07528203
-0.46141191 -0.54046974 -0.00000230
-0.16757823 0.49514750 -0.07823454
-0.13197857 0.58306469 -0.07978402
-0.09911117 0.56071719 0.09339052
-0.08405464 0.61318853 -0.01263897
-0.50955091 -0.06123349 -0.28945897
-0.19046700 0.26278371 0.00000343
-0.34061430 -0.02231362 0.07853251
-0.06401644 0.64544761 0.00059053
-0.30131428 0.33123294 -0.20295180
-0.19232830 -0.36991718 0.00000226
-0.23091292 -0.45731752 -0.00000075
-0.08467505 0.59662317 -0.00081800
-0.39309517 -0.05732957 -0.07192834
-0.05050726 0.51722567 0.00000216
-0.43521095 0.09066095 -0.26782420
-0.18414846 0.35542037 0.11631687
-0.11655515 -0.76499028 -0.00000064
-0.00818946 -0.68239793 0.00000028
-0.24968930 0.24926717 -0.04084843
-0.08656287 0.37607351 0.00000594
-0.49216778 -0.38821089 0.13692111
-0.26880371 -0.63419920 -0.00000131
-0.50358118 -0.41577020 0.25005607
-0.37454742 0.03073732 -0.10588942
-0.02247949 0.64022982 0.00000432
-0.61783576 -0.51193306 -0.14094516
-0.21412554 -0.26270339 0.00000262
-0.11553967 0.52105996 0.04784201
-0.23552961 -0.46194501 0.00000241
-0.31590236 -0.68331534 -0.00000169
-0.01088304 -0.26029033 0.00000095
-0.44632762 -0.07356499 -0.16002479
-0.03307720 0.73052968 -0.00814600
-0.46448329 -0.58674478 -0.00000240
-0.45278564 -0.29313366 0.13705310
-0.62058653 -0.47646068 -0.17398860
-0.02575417 0.40495637 -0.00000363
-0.22708739 -0.28357659 0.00000268
-0.04202130 0.52944203 0.00000516
-0.17514949 -0.33161673 -0.00000018
-0.45944361 -0.30921018 0.20081881
-0.14368308 0.23500804 0.00000302
-0.26152925 0.16861666 0.02141979
-0.27543695 -0.16885122 -0.00000048
-0.30518605 -0.31803417 0.00000321
-0.25669730 0.18027301 0.13200090
