ply
format ascii 1.0
element vertex 1393
property float x
property float y
property float z
end_header
-0.36323019 -0.41166113 0.00000000
0.26230140 -0.51140933 0.00000000
-0.56295209 0.14297483 -0.00000062
-0.22876433 -0.06610935 0.00000000
-0.19296900 -0.20904673 0.00000000
0.16410679 0.23274330 0.00000000
-0.47145012 0.22219262 0.29081612
-0.58846353 -0.58660078 -0.00000003
0.44622812 -0.37094445 0.00000000
0.24613331 -0.61811287 0.00000000
-0.59674390 -0.17274621 -0.00000041
0.49860462 0.24468884 -0.00000115
-0.53459222 0.24642856 0.05189412
-0.48313276 0.01867495 -0.00000034
-0.32095340 0.36087004 0.32313410
0.00402006 -0.32053015 0.00000000
-0.19001116 -0.74930729 0.00000000
-0.35984325 -0.47946704 0.00000000
-0.68581562 0.11134563 0.00775932
0.22588501 0.13222075 0.00000000
-0.79361187 -0.28483250 -0.00000064
0.56012409 0.07365425 0.00000138
0.10909442 -0.16914724 0.00000000
-0.76212559 -0.57379741 -0.00000028
0.28380726 0.13158069 0.00000572
0.10813474 0.47254797 0.00000328
0.45536764 -0.12036339 -0.00000032
-0.09580907 0.07450595 0.00000000
0.33592881 0.31518579 0.00000165
-0.76368044 -0.31840461 -0.00000060
0.06911881 0.12525890 0.00000000
0.56170659 -0.19628804 -0.00000064
0.04268180 0.14198015 0.00000923
-0.74808915 -0.36383672 -0.00000055
-0.16997841 0.21464475 0.00000000
-0.54733022 -0.09922261 -0.00000037
0.05283008 0.47590101 0.00000000
0.42201924 0.10702766 0.00000347
0.63762544 0.04185462 0.00000042
0.17326107 -0.42017627 0.00000000
0.59501471 -0.55832075 -0.00000014
-0.51357853 -0.16468509 -0.00000024
0.05172247 0.60596208 0.00000000
-0.47502385 0.20531055 0.32720536
0.21555870 -0.24645981 0.00000000
-0.14129349 -0.58997895 0.00000000
-0.63785232 -0.23255064 -0.00000045
0.35432430 0.16515029 0.00000380
-0.26672106 0.47320350 0.16426745
0.52568700 -0.32556094 -0.00000025
0.18398359 -0.14862223 0.00000000
0.06509307 0.10555899 0.00000943
0.49520689 -0.43895827 0.00000000
0.02400282 -0.37536420 0.00000000
0.20043623 0.21974346 0.00000000
0.67392385 0.02998655 -0.00000151
-0.77490289 -0.05112680 -0.00000090
0.37546093 -0.31059813 0.00000000
-0.35757145 -0.76724988 0.00000000
0.47655010 0.04005122 -0.00000069
0.13740620 0.07630229 0.00000878
0.46399091 0.33447394 -0.00000116
-0.33574532 -0.70254729 0.00000000
-0.15398115 -0.02463373 0.00000000
-0.29916708 -0.33381567 0.00000000
-0.54050942 0.24131337 0.04970112
0.58606413 -0.74466701 0.00000000
-0.17761665 -0.20094431 0.00000000
0.27882423 0.31823890 0.00000269
0.61329321 -0.41871580 -0.00000046
-0.41288304 0.24868982 0.37850541
0.46460685 0.23391923 -0.00000098
-0.42857848 0.30871446 0.17146189
-0.76131001 -0.47431354 -0.00000041
0.53795617 -0.03887958 -0.00000081
0.34427689 0.17873277 -0.00000037
-0.64210384 0.10544619 0.14341377
0.03543176 0.56959528 0.00000000
-0.02501811 0.47414927 0.00000000
0.51010704 -0.18306377 -0.00000044
-0.12112512 0.16722819 0.00000000
0.59847672 -0.16496600 -0.00000085
-0.65740982 -0.43523457 -0.00000031
0.19381455 0.12189382 0.00000725
0.36928206 -0.20891153 0.00000000
-0.15537214 -0.24420169 0.00000000
-0.24428154 -0.23407508 0.00000000
0.27834831 -0.01265906 0.00000000
-0.38187774 -0.31005049 0.00000000
-0.74684870 -0.38319793 -0.00000052
-0.78973296 -0.71401427 -0.00000011
-0.62213110 0.10732428 -0.00000072
0.37616271 0.32676956 0.00000068
0.26914114 0.21640660 -0.00000012
-0.22113425 -0.12651373 0.00000000
0.11392239 0.61846453 0.00000084
0.53636363 -0.41074905 -0.00000015
-0.41473937 -0.27402874 0.00000000
-0.71271321 0.07711313 0.02781527
-0.49354711 0.20683655 0.27238396
-0.68981795 -0.35802485 -0.00000045
0.25953545 0.46069195 -0.00000051
0.09556096 -0.44552545 0.00000000
-0.26200058 0.44507704 0.25408132
-0.39662717 -0.05716651 -0.00000009
-0.16937987 0.36209385 0.00000000
0.08095826 0.02427752 0.00001041
-0.20437004 -0.38985194 0.00000000
-0.30724483 -0.59651444 0.00000000
0.24722141 -0.42555617 0.00000000
-0.60693919 0.12473270 0.18683030
0.32464547 -0.62750972 0.00000000
0.50015005 0.09261991 -0.00000088
-0.36791618 0.34182513 0.24679781
0.52757522 -0.63052551 0.00000000
0.06531668 0.03747750 0.00001045
0.24596398 -0.57617971 0.00000000
-0.58908729 -0.06183602 -0.00000050
-0.31864999 -0.49352617 0.00000000
0.17701485 0.41587101 -0.00000008
-0.39255781 -0.03566566 -0.00000010
0.10922193 0.41150953 0.00000418
-0.36427889 -0.56213509 0.00000000
0.70831128 -0.68057415 -0.00000030
-0.34207807 -0.01195022 -0.00000001
0.12420536 0.24083040 0.00000000
0.28899829 0.47620653 -0.00000014
0.41385874 -0.69629371 0.00000000
-0.65540966 -0.73307393 -0.00000004
-0.01888364 0.77561945 0.01503302
-0.55273953 0.01966058 -0.00000049
0.51856441 -0.29021414 -0.00000029
0.04041741 0.38293070 0.00000565
-0.13638261 0.66142934 0.00598455
0.34116639 0.23336699 0.00000291
-0.20230126 0.58110750 0.04536727
-0.65014083 -0.63794847 -0.00000012
0.03559620 0.26540311 0.00000000
-0.05349105 -0.14932198 0.00000000
0.22133556 -0.51417885 0.00000000
0.36055400 -0.10733462 0.00000000
0.21201410 0.29660003 0.00000434
0.03554919 -0.42877752 0.00000000
-0.68274099 -0.55681335 -0.00000026
0.28650377 0.31135491 0.00000266
0.04005740 0.09516987 0.00000997
-0.50559103 -0.60102980 0.00000000
-0.13637244 -0.51713063 0.00000000
-0.48886313 -0.28080290 -0.00000009
-0.50433817 0.22017251 0.20641234
0.34810319 0.44389780 -0.00000074
-0.21706653 -0.73916077 0.00000000
-0.43351203 -0.73513995 0.00000000
0.17469658 -0.12834409 0.00000000
-0.16298476 0.58940621 0.13018056
0.51990826 -0.18269578 -0.00000048
-0.33229384 -0.07009417 0.00000000
-0.31066868 -0.24230008 0.00000000
0.08021458 0.58775951 0.00000000
0.01365852 -0.21051710 0.00000000
-0.70822317 -0.46598982 -0.00000039
-0.36995204 -0.00506233 -0.00000008
-0.33310627 0.30547991 0.44135831
-0.76799836 -0.73855603 -0.00000008
-0.07589825 -0.28581700 0.00000000
0.19850133 -0.09085290 0.00000000
0.74325109 -0.42135708 -0.00000095
-0.02971214 0.37974889 0.00000000
-0.29549186 0.47053731 -0.00000034
-0.02658275 -0.20211960 0.00000000
0.17220061 0.13383562 0.00000000
-0.20487371 -0.32357194 0.00000000
0.46497197 0.28664627 -0.00000108
0.40001553 0.30533728 -0.00000083
-0.17408228 0.56490243 0.16683748
-0.20865552 0.52835879 -0.00000021
-0.68408297 -0.27460719 -0.00000051
0.01633981 -0.11532345 0.00000000
0.47864122 0.09769104 -0.00000080
-0.30609348 -0.72833924 0.00000000
0.15012723 -0.16612771 0.00000000
-0.23471682 0.30577904 -0.00000006
0.69072558 -0.65094054 -0.00000037
0.09251393 0.15407425 0.00000000
0.35832847 -0.66844245 0.00000000
0.04261710 0.44074685 0.00000475
0.21537439 0.36847894 -0.00000016
-0.20983320 0.46890037 0.33158292
-0.07307441 0.51444119 0.00000000
0.19077991 0.07114915 0.00000805
0.32031023 -0.52487946 0.00000000
-0.49157331 -0.50951459 0.00000000
-0.21803162 -0.25153510 0.00000000
-0.51977813 -0.63174047 0.00000000
-0.65935864 -0.21676112 -0.00000051
0.01545556 0.35322265 0.00000647
0.15931491 0.04887251 0.00000000
-0.42753524 0.30042923 0.19696910
0.63271758 -0.66473061 -0.00000011
0.55027096 -0.04904362 -0.00000085
-0.73976477 0.04464198 0.04263408
-0.55194061 -0.05635026 -0.00000042
-0.06729310 -0.73952596 0.00000000
-0.40667969 0.07117663 -0.00000022
-0.39525024 0.30581669 0.27051624
0.31190237 -0.26162529 0.00000000
0.13265683 0.48893632 0.00000265
0.27245568 -0.39304663 0.00000000
0.06935628 0.02483243 0.00001058
-0.36391236 0.33539784 -0.00000037
-0.58923033 -0.26897747 -0.00000031
0.57394332 -0.26198788 -0.00000057
0.59233335 -0.20749400 -0.00000075
0.45665103 -0.49199129 0.00000000
-0.18626720 -0.57559629 0.00000000
0.15747717 0.16831592 0.00000000
0.15191554 0.46400197 -0.00000005
-0.22283454 -0.40215555 0.00000000
-0.31767087 -0.18923050 0.00000000
-0.04519200 0.54506660 0.00000000
-0.16037254 0.61252115 0.07411941
0.21132935 -0.12129351 0.00000000
0.30169551 0.09759741 0.00000594
0.73344645 -0.13479608 -0.00000148
-0.36192987 -0.76472780 0.00000000
-0.54917200 0.05701660 -0.00000052
-0.51482696 -0.65865613 0.00000000
0.59787356 -0.01812754 -0.00000111
-0.70287994 -0.11048762 -0.00000070
-0.05952517 0.42052108 0.00000000
-0.59275443 -0.26401785 -0.00000032
-0.28807577 -0.04296641 0.00000000
-0.10462559 -0.62012389 0.00000000
0.02969758 -0.50576436 0.00000000
0.18444410 0.03106725 0.00000000
0.31897344 0.08428031 0.00000583
-0.59026533 -0.11040398 -0.00000045
0.03129530 0.66317174 0.00000158
0.07674016 0.23379120 0.00000000
-0.03662966 0.34856317 0.00000000
0.02595959 -0.65118461 0.00000000
-0.00161020 0.70672248 0.00000000
0.76925953 -0.61508371 -0.00000046
0.46525644 0.22711571 0.00000063
0.44616226 0.21858651 0.00000114
0.67629705 -0.52034521 -0.00000055
0.38754062 -0.35188566 0.00000000
0.38227883 0.14814168 0.00000355
-0.62781369 -0.68885688 -0.00000002
-0.47961415 -0.10358003 -0.00000022
-0.05089922 -0.03440451 0.00000000
-0.20976945 -0.67387147 0.00000000
0.15396121 0.50238426 -0.00000013
-0.26866800 0.07145177 0.00000000
0.63927721 -0.08492309 -0.00000116
0.23991401 0.35864236 -0.00000024
-0.63942520 0.00808112 -0.00000066
0.19872203 0.44236170 -0.00000022
-0.10572152 0.12209209 0.00000000
0.12981399 0.32266628 0.00000000
0.72740258 -0.71532936 -0.00000021
0.73038038 -0.71916478 -0.00000020
0.57562913 -0.56729065 -0.00000004
0.18524940 0.60315672 -0.00000044
-0.39423967 -0.54395318 0.00000000
-0.53652842 -0.78192647 0.00000000
0.21727616 0.50704097 -0.00000041
-0.75414330 -0.73404988 -0.00000008
-0.17292648 0.19457118 0.00000000
0.26638884 -0.74849608 0.00000000
0.20771459 -0.14543514 0.00000000
0.22467924 -0.03535160 0.00000000
0.70097004 -0.18399974 -0.00000125
0.09129988 0.51136378 0.00000000
0.48169876 -0.34769581 -0.00000003
0.61737908 -0.12756771 -0.00000100
-0.72494883 -0.57263435 -0.00000028
0.10227587 -0.08831207 0.00000000
-0.32435964 0.45040141 0.06901207
0.05989419 0.68616113 0.00000075
0.08082289 0.00041550 0.00000000
-0.36177463 -0.11376933 0.00000000
0.70324777 -0.11220044 -0.00000139
0.47542000 -0.17198473 -0.00000031
0.22991506 -0.62440101 0.00000000
-0.29661783 -0.77229654 0.00000000
0.20789338 -0.17422903 0.00000000
-0.51075807 0.23614376 0.14518723
0.16700851 0.30119879 0.00000000
-0.41943813 -0.22131556 0.00000000
0.24314501 -0.40142103 0.00000000
-0.32131353 -0.08959684 0.00000000
-0.15166175 0.42115647 0.00000000
0.00928514 0.74920135 0.00000000
-0.28514455 -0.58270942 0.00000000
0.27301469 -0.20832825 0.00000000
-0.44392684 0.26468116 0.24989621
-0.74385819 -0.31710047 -0.00000060
-0.18380334 0.51658983 0.27235884
0.28070145 0.34584972 -0.00000040
0.42653380 0.28256636 0.00000045
-0.74193068 -0.75564968 -0.00000006
-0.04810065 -0.23446481 0.00000000
0.12890438 -0.39346415 0.00000000
0.02832215 -0.20565871 0.00000000
0.34495819 -0.63273624 0.00000000
0.24656201 0.53332014 -0.00000058
-0.06019181 0.39593008 0.00000000
-0.08328154 -0.04669257 0.00000000
-0.32735190 0.30867911 0.44834497
0.70977165 -0.28101643 -0.00000112
0.15582190 -0.74010191 0.00000000
-0.34339121 0.26034973 -0.00000026
-0.49557698 0.26525883 0.10708707
0.21919619 0.05380422 0.00000000
-0.27771923 0.38067635 -0.00000022
0.40263013 -0.10867794 -0.00000011
-0.29153195 0.36068142 0.40409736
-0.35178008 -0.23334048 0.00000000
0.35572559 0.12466231 0.00000445
0.37092472 0.07998557 -0.00000031
-0.74482563 -0.08233015 -0.00000081
0.19608542 0.43214237 -0.00000019
-0.68846319 0.01890197 -0.00000078
-0.62536432 -0.23667375 -0.00000042
-0.23657664 0.06779563 0.00000000
0.05039377 0.00820797 0.00001112
0.52431184 0.04062652 0.00000262
-0.43010478 -0.37368605 0.00000000
-0.58603965 -0.16591176 -0.00000040
0.13676388 0.02970821 0.00000000
-0.30163061 -0.03175341 0.00000000
-0.76212410 -0.33890488 -0.00000058
-0.03722261 -0.09600496 0.00000000
0.25273831 -0.66270557 0.00000000
0.63486474 -0.49879597 -0.00000041
0.37743768 -0.30719014 0.00000000
-0.07545517 0.71860293 0.01624935
-0.17734068 0.59001395 -0.00000019
0.07756122 -0.71524968 0.00000000
-0.47950958 -0.74929389 0.00000000
-0.04464646 0.73997847 0.04204298
0.64783012 0.04431520 -0.00000143
-0.74488064 -0.61599865 -0.00000023
-0.21197086 -0.34693149 0.00000000
-0.23909493 -0.33597531 0.00000000
-0.43794852 0.30776057 -0.00000050
-0.04567426 -0.48364434 0.00000000
0.35725621 0.05640174 0.00000556
0.02822593 0.60775178 0.00000000
0.27811294 0.02934610 0.00000736
-0.15254182 0.21876102 0.00000000
0.68056833 -0.03289279 -0.00000143
0.54510042 -0.11984493 -0.00000070
-0.42553828 0.30705327 0.18431711
-0.54870566 0.03065083 -0.00000049
-0.16578849 -0.64598091 0.00000000
-0.54002790 -0.56353064 0.00000000
0.13262026 0.10180686 0.00000000
0.05180422 -0.14052111 0.00000000
0.38062514 0.00054348 -0.00000021
-0.28161455 -0.60413915 0.00000000
-0.73075325 0.05370699 0.04248789
0.25301098 -0.59235928 0.00000000
0.10592480 -0.21825935 0.00000000
0.01738804 -0.42303815 0.00000000
0.24228015 0.04034537 0.00000774
0.24521143 -0.52487243 0.00000000
0.16685858 0.50928127 0.00000165
0.03929709 -0.09164689 0.00000000
0.26933069 0.29250257 -0.00000025
-0.16450040 -0.46351632 0.00000000
0.60187487 -0.44377566 -0.00000037
-0.66096406 -0.22286610 -0.00000051
0.24150927 0.47164496 -0.00000045
0.34185349 -0.78990793 0.00000000
0.44139148 0.28010273 -0.00000096
0.54576593 -0.50694859 -0.00000002
-0.11769130 -0.76207132 0.00000000
-0.23960608 0.34772658 -0.00000011
0.35170838 0.19871067 0.00000329
0.59324512 0.01253752 -0.00000114
0.20401718 0.46420005 -0.00000028
0.01422285 -0.66673983 0.00000000
0.70732228 -0.71071068 -0.00000022
-0.64669048 -0.76203087 0.00000000
0.45835814 0.18607630 0.00000145
-0.26623570 0.49068792 -0.00000029
-0.67755933 0.09336594 0.07949757
-0.43741248 -0.22064194 -0.00000003
0.53237128 -0.20486687 -0.00000050
-0.25301146 -0.33914640 0.00000000
-0.42642821 0.25395815 -0.00000043
-0.19223116 -0.29673438 0.00000000
-0.18491993 -0.34006888 0.00000000
0.32777122 -0.21294478 0.00000000
-0.10421600 0.50950866 0.00000000
-0.35989051 0.32506197 0.31457827
0.27553339 -0.12415474 0.00000000
0.56921259 -0.26262811 -0.00000055
0.41930521 -0.02923206 -0.00000032
-0.19442836 -0.25436228 0.00000000
0.38130973 -0.35864376 0.00000000
-0.15882046 0.62377676 0.04758665
-0.07809794 -0.75486915 0.00000000
-0.02965037 -0.25245533 0.00000000
0.04928074 0.45476287 0.00000443
0.50533445 0.19057307 0.00000048
-0.59824617 -0.63401378 -0.00000001
0.37113222 0.27969038 0.00000156
-0.30528279 0.37959894 0.31477179
-0.53619180 0.12515764 -0.00000055
0.00326290 0.39848612 0.00000597
0.49255468 -0.06931835 -0.00000057
0.01445603 0.47046666 0.00000000
-0.54352335 -0.72146565 0.00000000
-0.40823806 0.37984550 0.03258309
-0.17917010 -0.05785371 0.00000000
0.27253638 0.07982070 0.00000000
0.45100839 0.34644117 -0.00000108
0.08408640 -0.78251770 0.00000000
-0.49789291 -0.74762935 0.00000000
-0.28289330 0.48942777 0.07568415
-0.07746965 -0.38373634 0.00000000
0.02059709 0.61443341 0.00000247
-0.39937102 0.28718931 0.31018186
0.10763493 0.02346735 0.00001002
-0.01710766 0.27222726 0.00000000
0.02526012 0.61543691 0.00000239
0.04020623 0.74731955 -0.00000008
-0.09065923 0.49247896 0.00000000
-0.03863184 0.52538711 0.00000000
-0.47875742 0.21548178 0.28918516
0.64686933 -0.18516549 -0.00000102
0.15585345 0.51896867 0.00000170
-0.28235642 -0.70585687 0.00000000
-0.46566352 0.22900163 -0.00000049
0.33987320 0.09127493 0.00000531
0.17458738 0.10634999 0.00000777
-0.16885012 0.58750634 -0.00000017
0.74162549 0.01816728 -0.00000118
-0.30350093 -0.10331513 0.00000000
-0.45941162 0.33355489 0.01923101
0.63523873 -0.37830974 -0.00000063
-0.70716634 0.06451878 0.07741963
0.00582822 0.42924271 0.00000000
0.15008623 0.50144703 -0.00000011
-0.31273593 0.38282774 0.28556402
0.59875371 -0.03940463 -0.00000107
0.03277792 0.60343298 0.00000245
0.15084579 0.42038151 0.00000342
0.57891408 0.17878496 -0.00000137
-0.29642512 -0.73842269 0.00000000
0.45462771 -0.32401160 0.00000000
-0.12324163 0.64028360 0.09973604
0.15268817 0.62908590 -0.00000035
0.46382741 0.16532179 -0.00000086
0.08420607 -0.05282930 0.00000000
0.14477209 0.24768409 0.00000000
0.27979648 0.03815366 0.00000721
-0.26640211 -0.23534384 0.00000000
-0.01430893 -0.56530167 0.00000000
-0.58421728 -0.56820339 -0.00000004
-0.16082765 -0.32492010 0.00000000
-0.57212162 -0.59696327 0.00000000
0.31722813 0.20984038 -0.00000031
-0.09657478 0.23110893 0.00000000
-0.36649078 0.30041789 -0.00000034
0.20194250 -0.33892383 0.00000000
-0.72883439 -0.40591537 -0.00000049
0.07971890 -0.71991684 0.00000000
0.07174084 0.66959990 0.00000080
-0.32565030 0.44940430 -0.00000039
0.04755938 -0.26384968 0.00000000
0.03379126 0.09214775 0.00000000
-0.45608644 0.24585918 0.26811333
0.29563284 -0.73725832 0.00000000
0.05526354 0.08342311 0.00000000
0.06691295 -0.46418417 0.00000000
0.78363519 -0.25389106 -0.00000137
-0.32301183 0.05550484 -0.00000003
-0.02027482 0.72270259 0.00000000
0.03702542 0.62394362 0.00000000
0.55952946 -0.26248830 -0.00000051
0.11677524 0.22964075 0.00000000
-0.47970929 -0.09866724 -0.00000023
0.21103513 0.31582302 -0.00000004
-0.47593868 -0.59972056 0.00000000
-0.40858993 0.38939592 -0.00000051
-0.36862362 -0.14385299 0.00000000
0.21968697 0.04793212 0.00000000
0.29035132 -0.25328374 0.00000000
-0.48903597 -0.59539318 0.00000000
-0.10970580 0.39131107 0.00000000
0.10730289 0.04865488 0.00000000
0.18008156 -0.71042575 0.00000000
0.50034263 0.28831680 -0.00000123
-0.05585614 -0.29709153 0.00000000
0.62168231 0.16819655 -0.00000154
0.22936464 -0.19375274 0.00000000
-0.76105040 -0.72690988 -0.00000009
0.68079658 -0.51943334 -0.00000057
0.21487362 0.01864694 0.00000848
0.03019923 0.06914623 0.00000000
-0.22093647 0.26704849 -0.00000000
-0.22532668 -0.30203622 0.00000000
0.73645984 0.03596686 -0.00000138
0.02087948 0.73606457 0.00000064
-0.24937611 0.01357237 0.00000000
0.46744484 0.20124273 -0.00000094
-0.06134720 0.36558592 0.00000000
0.64551899 -0.43942450 -0.00000056
-0.17060227 0.31058663 0.00000000
-0.15682396 -0.25057066 0.00000000
-0.14539199 0.25573246 0.00000000
-0.31938827 -0.70006253 0.00000000
-0.55155808 -0.61809659 0.00000000
-0.09821875 0.24192156 0.00000000
0.16865462 0.15855562 0.00000708
0.31086641 0.24175275 0.00000336
0.11584314 -0.20297863 0.00000000
-0.01002523 -0.68635069 0.00000000
0.31324657 0.12292412 -0.00000014
0.34310866 -0.32309969 0.00000000
-0.35370250 -0.23506007 0.00000000
0.07996036 -0.56234057 0.00000000
-0.48121599 -0.51447317 0.00000000
0.59618913 -0.23238921 -0.00000072
-0.12142364 0.60920816 0.18967701
0.35199141 0.42344895 -0.00000047
0.77636153 -0.52248708 -0.00000069
-0.45074501 0.22114851 0.35028543
-0.05669773 -0.75432836 0.00000000
-0.23449810 0.53101193 0.09430826
0.19846812 0.49848504 -0.00000031
-0.37871810 0.10113682 -0.00000019
0.36108468 0.35119198 0.00000056
0.73783313 -0.63690804 -0.00000041
0.44023759 -0.77443904 0.00000000
-0.43934704 0.12038127 -0.00000034
-0.25906543 0.00080801 0.00000000
0.37546411 -0.73905769 0.00000000
0.64321879 -0.66310503 -0.00000016
-0.00284555 -0.06169159 0.00000000
-0.36561613 -0.65530461 0.00000000
-0.72981961 -0.18014729 -0.00000069
0.27820991 0.21994218 0.00000435
0.44687477 0.31582490 -0.00000105
-0.22841208 0.34554943 -0.00000009
0.06106741 0.34194167 0.00000595
0.13165900 -0.39028812 0.00000000
0.70565046 -0.63164406 -0.00000042
-0.21333597 0.49321669 -0.00000018
-0.13496180 0.59302897 0.19689843
-0.19902913 -0.17296763 0.00000000
-0.68166477 -0.09693237 -0.00000066
0.35086202 0.09579003 -0.00000025
-0.06330643 -0.77389375 0.00000000
0.45919802 -0.52779498 0.00000000
0.76566704 -0.66645181 -0.00000033
0.50263737 0.02084452 -0.00000077
-0.76540393 -0.54985504 -0.00000031
-0.10291623 0.43292550 0.00000000
0.38614107 0.05101631 0.00000510
0.42677844 0.32441480 -0.00000098
0.09829647 0.54864592 0.00000229
0.76611475 -0.11983283 -0.00000164
0.14501486 0.36116493 0.00000439
-0.24206288 0.46866837 0.24409117
-0.65794863 -0.50054147 -0.00000025
-0.33560913 -0.14890269 0.00000000
-0.54990947 -0.48889737 -0.00000003
0.10451453 0.42589257 0.00000000
-0.35998262 0.43120207 0.02410391
-0.64439247 -0.43672714 -0.00000028
0.18947299 -0.43029944 0.00000000
-0.47158780 -0.40584097 0.00000000
-0.31524321 0.43000543 0.14970917
-0.47258200 0.31418278 0.03618858
-0.12081716 0.62168357 0.15722361
-0.50023145 0.26989742 -0.00000060
0.38677211 -0.30412759 0.00000000
0.78783429 -0.02101375 -0.00000191
-0.30558000 0.40647279 -0.00000030
0.03055400 0.34152566 0.00000642
0.32555629 0.16713328 0.00000432
-0.00715102 -0.57514362 0.00000000
-0.52079166 0.18474519 0.25829316
0.08400695 -0.25435120 0.00000000
-0.03431702 -0.61554449 0.00000000
-0.24088914 -0.22782513 0.00000000
0.33487946 -0.04210937 0.00000000
-0.55717871 0.19164518 0.13993129
0.12061861 -0.61977226 0.00000000
-0.48008734 0.19844680 0.33212784
0.28622689 0.06592924 0.00000000
-0.20648374 -0.19088155 0.00000000
-0.10165795 0.04378213 0.00000000
-0.65144389 -0.56660152 -0.00000018
-0.25365150 0.49125842 -0.00000027
-0.57645291 -0.66532300 0.00000000
-0.18542057 -0.52383805 0.00000000
0.47839277 -0.16136287 -0.00000034
0.00494031 -0.63402358 0.00000000
0.01010154 -0.27604090 0.00000000
-0.36813329 0.26320434 -0.00000031
-0.06510266 -0.14312631 0.00000000
0.26819377 -0.48894287 0.00000000
0.07889962 0.65592852 0.00000089
0.24168399 -0.69450089 0.00000000
0.14463234 0.29486893 0.00000539
-0.22984456 -0.70546960 0.00000000
0.72041860 -0.20941487 -0.00000129
0.05316371 -0.62332927 0.00000000
-0.47711922 0.23280172 0.24630589
0.19723344 0.34532435 0.00000381
-0.11668601 0.61840852 0.17747452
0.42966387 0.03213233 -0.00000048
-0.17975318 0.58729360 0.09010669
-0.17524096 0.29268598 0.00000000
0.26090819 0.16181962 0.00000564
-0.74342419 -0.43491148 -0.00000046
0.66441858 -0.68821399 -0.00000020
-0.42104285 -0.29668464 0.00000000
0.15059842 0.53784806 -0.00000018
0.19161603 -0.72752873 0.00000000
0.03917391 0.32699663 0.00000650
0.02815048 0.49120298 0.00000421
0.42991155 -0.40131627 0.00000000
-0.21027978 0.49489743 0.25927772
-0.17200343 -0.65882081 0.00000000
-0.17844772 0.61819953 0.00916890
-0.15219136 0.34708313 0.00000000
-0.09035623 0.55147593 0.00000000
0.12299774 -0.41944877 0.00000000
0.01217434 0.29718534 0.00000000
-0.79133758 -0.70264109 -0.00000012
-0.25852814 -0.44411740 0.00000000
0.65958056 -0.74590361 -0.00000008
0.00775419 -0.31177340 0.00000000
-0.07821530 -0.65877677 0.00000000
-0.36266284 0.27061725 0.45586678
-0.29645779 0.19946712 -0.00000010
-0.41094438 -0.28509772 0.00000000
-0.02352447 0.57633200 0.00000000
-0.41700806 0.18890340 -0.00000035
0.14909370 -0.03113140 0.00000000
0.42718840 0.20120867 0.00000180
0.17254454 0.28161836 0.00000000
0.78097669 -0.67148849 -0.00000032
-0.64077751 -0.37876912 -0.00000033
0.36772563 -0.67222952 0.00000000
0.49243385 -0.79281360 0.00000000
-0.01793524 -0.71926891 0.00000000
-0.01244634 -0.05851398 0.00000000
-0.30006577 0.31630438 0.50210396
-0.28897585 -0.45785860 0.00000000
0.52696629 -0.46839628 -0.00000001
-0.17399954 0.53929007 0.23709591
0.29673440 -0.26574252 0.00000000
-0.49398448 -0.04182426 -0.00000031
0.34127788 0.14178820 -0.00000029
-0.05066197 0.24982874 0.00000000
0.38620130 0.22346736 -0.00000063
-0.05424826 -0.62125351 0.00000000
0.59654944 -0.67442889 0.00000000
-0.06119763 0.58850085 0.00000000
-0.79413879 -0.25801282 -0.00000068
0.09074873 -0.07473508 0.00000000
0.77632499 -0.55630807 -0.00000061
0.03444072 0.43509753 0.00000495
-0.64883572 -0.13506305 -0.00000056
-0.10901106 0.61999105 -0.00000007
-0.08864453 0.60646575 -0.00000002
-0.13212795 0.66641167 0.00399487
0.55535553 0.02235182 0.00000232
0.72319068 0.00649441 -0.00000063
0.71660778 0.05178453 -0.00000126
0.23522012 0.16262677 0.00000601
0.41887669 0.10012454 -0.00000055
0.65331330 0.11273017 -0.00000107
-0.11060826 0.15321639 0.00000000
-0.73271004 0.06559175 0.00464032
0.43590882 -0.09272146 -0.00000028
-0.62052803 0.16574100 0.03754293
0.41320588 0.12501751 -0.00000057
-0.15650078 -0.32053204 0.00000000
-0.43122082 -0.79070801 0.00000000
-0.28463418 0.48031646 0.09583742
0.56821156 -0.60782502 0.00000000
0.10270907 0.48727510 0.00000314
0.15240340 -0.26483961 0.00000000
-0.27364140 -0.46833655 0.00000000
0.52698530 -0.31542649 -0.00000028
0.25987729 0.40424173 0.00000162
0.03862199 0.67783116 0.00000000
-0.32157327 -0.10219297 0.00000000
0.28476146 -0.63356871 0.00000000
0.16955239 0.57292067 -0.00000032
0.61333837 -0.22626822 -0.00000080
0.51948119 0.13961793 -0.00000105
0.08725398 -0.28862193 0.00000000
0.43402741 0.32525720 -0.00000040
0.76565665 -0.34602211 -0.00000113
-0.73204665 -0.60450465 -0.00000024
-0.56423271 -0.39079416 -0.00000015
-0.15230124 -0.54273029 0.00000000
-0.34274451 0.28410121 0.47346042
-0.71479077 -0.68708569 -0.00000014
-0.05334663 0.14598281 0.00000000
0.08424244 -0.54770543 0.00000000
0.12849268 -0.15678074 0.00000000
0.49590958 -0.05672726 -0.00000060
0.42376938 0.16015578 -0.00000068
-0.18772889 -0.16849869 0.00000000
-0.16002778 0.12563319 0.00000000
0.11538651 0.22414407 0.00000690
0.37401288 -0.62581891 0.00000000
-0.50466378 0.19033010 0.28712139
0.44184762 0.25513045 0.00000062
-0.20776236 -0.29395522 0.00000000
-0.09718696 0.69225482 0.02887176
-0.17857163 0.56308635 0.15952788
0.13957007 0.42022453 0.00000359
-0.48843597 0.18750684 0.33921335
0.11357094 0.62747968 -0.00000018
0.54425139 -0.64500371 0.00000000
-0.25114753 0.54262739 0.01702224
-0.13938424 -0.10260794 0.00000000
-0.61107838 -0.24864222 -0.00000038
-0.14160310 0.64494361 0.03678753
-0.68094573 -0.65236786 -0.00000017
0.16096957 0.54446221 -0.00000024
-0.57536593 0.06439757 -0.00000058
-0.29041200 -0.55120388 0.00000000
-0.12100970 -0.21737698 0.00000000
0.43384337 -0.25958972 0.00000000
-0.65534604 -0.25545873 -0.00000047
-0.32082168 0.08672123 -0.00000005
0.73369498 -0.77577934 -0.00000006
0.60333139 -0.09070482 -0.00000100
0.47163499 -0.57698932 0.00000000
0.20315670 -0.55044915 0.00000000
0.73974996 -0.39234085 -0.00000102
0.30241868 0.45139983 -0.00000067
-0.48374158 0.23754852 0.21521867
0.54101462 0.02679207 0.00000253
0.68538593 0.02220351 -0.00000017
0.00814073 0.02839530 0.00001145
0.66281084 -0.37828224 -0.00000075
-0.08613447 -0.44026542 0.00000000
-0.25438285 0.34339711 -0.00000014
0.68282944 -0.52213724 -0.00000058
0.67095155 -0.67110899 -0.00000026
0.24063834 0.44876345 0.00000125
0.00038489 0.37649321 0.00000000
0.60061635 -0.37578500 -0.00000048
-0.18295455 -0.56871928 0.00000000
-0.14725978 -0.09063999 0.00000000
0.02671732 0.21574610 0.00000000
-0.16815207 -0.67089377 0.00000000
-0.21342818 0.33133429 -0.00000004
0.47338670 0.30909601 -0.00000089
0.00736058 0.16061057 0.00000000
-0.40551459 -0.16684711 -0.00000001
0.42961809 0.32661024 -0.00000034
0.27346183 0.05425473 0.00000000
-0.49392624 0.18626397 0.32759959
-0.09009906 0.70206604 0.02142534
0.41002476 -0.73250279 0.00000000
0.40014736 -0.72397235 0.00000000
-0.57521130 0.10764642 -0.00000062
0.23842219 -0.27111060 0.00000000
-0.28687103 -0.51784592 0.00000000
-0.34385124 -0.61710423 0.00000000
-0.22788472 0.42166557 0.41137913
0.47803165 -0.57455054 0.00000000
0.22454057 -0.54249086 0.00000000
-0.20474313 0.19858469 0.00000000
0.74805933 -0.32077545 -0.00000120
-0.06838651 0.44769455 0.00000000
0.28254067 0.06429004 0.00000677
-0.56165274 -0.26316392 -0.00000026
0.13995947 0.63660157 -0.00000031
0.23273002 0.05902919 0.00000760
-0.14729478 -0.35442593 0.00000000
0.25421155 0.22232176 0.00000477
-0.25025439 0.54811669 -0.00000031
0.14920204 0.48389815 -0.00000008
-0.23467262 -0.14423097 0.00000000
-0.61057314 -0.03205251 -0.00000057
-0.30139045 -0.23073828 0.00000000
0.53972070 -0.49782850 -0.00000001
0.00757561 0.48991064 0.00000454
-0.66342769 0.12331357 0.03625133
0.37798681 -0.28959825 0.00000000
0.18508364 -0.06301667 0.00000000
-0.57702126 -0.08867934 -0.00000045
0.53535117 -0.10638168 -0.00000068
0.46310200 -0.08160043 -0.00000042
-0.40916488 -0.69096969 0.00000000
-0.03623960 0.43426044 0.00000000
0.24359702 -0.69512392 0.00000000
0.17766048 0.39014814 -0.00000003
0.11489793 0.28209759 0.00000000
0.45403999 -0.05925313 -0.00000042
-0.43372094 -0.53685099 0.00000000
-0.37294074 -0.75077746 0.00000000
-0.12001643 0.61182722 0.18636342
-0.16494255 -0.35967409 0.00000000
0.02305994 0.18655255 0.00000885
0.24958642 0.49659030 0.00000028
0.77687889 -0.36576749 -0.00000109
0.09620840 0.45865095 0.00000367
-0.12065602 0.01468574 0.00000000
0.31268653 0.09464204 -0.00000009
-0.44689887 0.22826838 0.34133403
-0.23227186 0.40109872 -0.00000014
-0.42986251 0.32795878 -0.00000050
-0.51581440 0.27511584 0.02479843
0.36749915 -0.14216458 0.00000000
-0.43270878 0.30655645 -0.00000049
-0.39162089 0.07564117 -0.00000020
-0.75445919 -0.34862133 -0.00000056
-0.77395523 -0.10039697 -0.00000086
-0.15019580 0.60330150 -0.00000015
0.35637061 0.43840467 -0.00000088
0.01586461 0.69667336 0.00000000
-0.12552132 0.66358811 0.02978030
0.03787747 -0.62249681 0.00000000
0.31234076 0.34552665 -0.00000053
0.52123322 -0.69080281 0.00000000
-0.46347777 -0.08455680 -0.00000021
0.08379060 0.65183041 -0.00000010
-0.08978608 0.69954069 -0.00000010
0.28693838 0.38375967 0.00000144
0.24927104 -0.33972090 0.00000000
0.33041347 -0.00946678 0.00000000
0.50472056 0.25543996 -0.00000060
-0.25449646 -0.51408950 0.00000000
-0.47126026 -0.38189366 0.00000000
0.04221003 0.69438604 0.00000095
0.66806712 -0.43109195 -0.00000067
-0.61694539 -0.40553361 -0.00000025
0.13212490 -0.44436320 0.00000000
-0.26137153 0.27588392 -0.00000009
-0.63519211 -0.73427247 0.00000000
-0.35479747 0.14367490 -0.00000018
0.06232882 0.52840602 0.00000000
-0.40376670 0.22399346 -0.00000035
-0.49969364 -0.78102407 0.00000000
-0.55173912 0.18379134 -0.00000063
0.72055380 -0.54141852 -0.00000065
0.60705270 0.13293944 -0.00000052
-0.25481527 -0.04505873 0.00000000
-0.10265587 0.68102894 0.04461327
-0.22662895 -0.69936114 0.00000000
-0.03107669 0.75455699 0.03928473
0.36186448 0.04631402 -0.00000021
0.47457086 -0.29765088 -0.00000008
0.06311983 0.57684115 0.00000000
0.32325353 -0.51946258 0.00000000
0.18363197 -0.29367763 0.00000000
0.33789453 -0.64786476 0.00000000
-0.60064155 -0.59459953 -0.00000005
0.53147849 -0.55820692 0.00000000
-0.55810715 -0.36136859 -0.00000016
-0.37295034 0.27287512 0.42156379
-0.24849663 0.39106993 -0.00000017
-0.79483110 -0.45559568 -0.00000043
-0.45661030 -0.58883864 0.00000000
-0.38477501 -0.24992416 0.00000000
0.15654631 -0.18429753 0.00000000
0.34522205 0.26047498 0.00000238
0.14009973 0.63656321 0.00000004
-0.20321686 -0.02168667 0.00000000
-0.73017075 -0.05324782 -0.00000080
0.28945226 0.39297340 0.00000124
0.05295365 0.37301682 0.00000561
0.44296207 -0.58172890 0.00000000
0.69957412 -0.01478864 -0.00000155
-0.72459682 0.05135505 0.06575273
0.36807760 -0.54335751 0.00000000
-0.33539301 0.24467547 -0.00000022
-0.07120517 -0.57156260 0.00000000
-0.43327961 -0.31811309 0.00000000
0.25077565 -0.16959732 0.00000000
-0.38736158 0.30541839 -0.00000039
0.00315597 -0.14717520 0.00000000
0.36676748 0.39294498 -0.00000024
0.68935572 -0.17757007 -0.00000121
-0.54609142 0.16965644 -0.00000061
-0.04787245 -0.38775477 0.00000000
-0.22946815 -0.37174475 0.00000000
0.45415568 0.09672846 0.00000303
0.29388068 -0.41162448 0.00000000
0.35684916 -0.05030948 -0.00000002
0.43867959 0.06420797 0.00000387
-0.10506426 -0.42255160 0.00000000
0.52416555 0.14370292 -0.00000108
0.18435200 -0.06057551 0.00000000
0.28798220 0.22598390 0.00000406
-0.53972260 -0.49658053 -0.00000001
-0.17482810 -0.37360946 0.00000000
0.23801062 0.52289151 0.00000006
0.50795513 -0.23818931 -0.00000033
-0.60509867 -0.38278905 -0.00000025
0.16914917 0.10344610 0.00000000
0.28622190 -0.04767153 0.00000000
-0.16643071 0.07909656 0.00000000
0.79464208 -0.72428202 -0.00000019
-0.48538572 -0.10095353 -0.00000024
0.17416467 -0.72645192 0.00000000
0.72051004 0.01770552 -0.00000077
0.64815495 -0.25934915 -0.00000089
0.10677354 0.31245689 0.00000570
0.31291442 -0.22708160 0.00000000
-0.02685627 0.58693332 0.00000000
0.21759876 0.57734260 -0.00000054
0.38250136 -0.74169331 0.00000000
-0.12730278 0.49231448 0.00000000
0.76711568 -0.16118563 -0.00000157
0.60071463 -0.05867099 -0.00000105
0.51762838 -0.43219427 -0.00000003
0.57328128 -0.74029688 0.00000000
0.01548979 -0.06003008 0.00000000
-0.46484857 0.03040058 -0.00000031
0.11322487 0.53576965 0.00000224
-0.01132819 -0.01617332 0.00000000
-0.02401043 -0.44738280 0.00000000
-0.23173341 0.12105544 0.00000000
0.51165870 -0.39726797 -0.00000007
-0.26507239 -0.69944963 0.00000000
0.57322131 -0.34527218 -0.00000042
0.54685640 -0.52660496 0.00000000
0.20147856 -0.50547315 0.00000000
-0.16580641 0.21338081 0.00000000
-0.23981129 -0.75740214 0.00000000
-0.02387991 0.27521220 0.00000000
0.78719601 -0.33863567 -0.00000115
-0.67246349 0.11392519 0.03721531
-0.23232508 0.21028873 0.00000000
-0.25446865 -0.60744224 0.00000000
-0.13770070 -0.66459885 0.00000000
-0.61152858 -0.51630008 -0.00000014
-0.21571579 0.22753432 0.00000000
-0.25579679 -0.45463338 0.00000000
0.10079650 0.65733487 -0.00000018
0.43692731 -0.55902971 0.00000000
-0.46224407 0.25505628 -0.00000050
-0.38514640 0.11124048 -0.00000021
0.33713880 0.28260855 0.00000217
0.00357576 0.42642034 0.00000555
0.12050913 0.18260472 0.00000744
0.54947972 -0.21675936 -0.00000055
0.28219895 0.09142397 0.00000637
0.20090166 -0.26625605 0.00000000
-0.68806308 -0.38392111 -0.00000042
-0.13057564 -0.20200577 0.00000000
-0.58762141 -0.04197308 -0.00000051
-0.25136456 0.46203001 -0.00000024
-0.45214787 -0.16991943 -0.00000011
0.05619252 0.70937741 -0.00000008
-0.32789134 -0.28497097 0.00000000
0.59101953 -0.55795374 -0.00000012
-0.29760709 -0.40544616 0.00000000
0.40341187 -0.72301125 0.00000000
0.04024224 0.73473545 -0.00000006
0.12927034 -0.73646054 0.00000000
-0.12779147 0.43339347 0.00000000
0.22079416 -0.37287459 0.00000000
0.40677328 0.19803560 0.00000224
-0.22998939 0.46419335 0.28934002
-0.56325277 -0.32476718 -0.00000021
-0.58686201 -0.07754339 -0.00000048
-0.24387675 0.53185179 -0.00000028
-0.59663658 -0.29746434 -0.00000030
0.39749070 -0.32216027 0.00000000
0.74376536 -0.04410072 -0.00000168
0.14773927 0.49606987 0.00000224
-0.54170686 -0.44463427 -0.00000006
-0.42085895 0.34977072 0.08030790
0.40915196 0.01587721 0.00000524
-0.57091672 0.22171350 0.02014965
-0.21875157 0.09387777 0.00000000
0.64359973 0.14317140 -0.00000139
-0.31805166 -0.41897970 0.00000000
0.16125420 0.41803221 0.00000328
-0.49420640 0.19553894 -0.00000052
-0.11869509 0.43446260 0.00000000
0.03714844 -0.24566446 0.00000000
-0.49837747 -0.14664697 -0.00000023
-0.28864035 -0.46057779 0.00000000
-0.38784173 -0.71715552 0.00000000
0.78777907 -0.57245858 -0.00000057
0.18280974 -0.23709145 0.00000000
0.47200758 0.07428272 0.00000306
0.43190823 -0.33719100 0.00000000
0.17729521 0.08335553 0.00000000
0.77958963 -0.37889921 -0.00000105
0.28128777 0.46875424 0.00000013
0.02798292 0.48300196 0.00000000
0.22858052 0.49825100 -0.00000044
0.04132290 0.09575195 0.00000994
0.79222517 -0.64558907 -0.00000039
0.73612526 -0.70271091 -0.00000024
0.27839874 0.04997273 0.00000705
0.63031191 0.04205894 -0.00000135
-0.78315366 -0.69056533 -0.00000014
0.25678546 0.42725876 0.00000130
-0.41333775 0.28337841 0.28241259
-0.67632168 -0.46967531 -0.00000032
-0.02456354 0.30670456 0.00000000
0.44723005 0.14391808 0.00000237
-0.06814943 0.07291175 0.00000000
0.33031144 -0.75259261 0.00000000
-0.15253084 -0.07587666 0.00000000
-0.49417508 0.00775362 -0.00000035
0.14423267 0.47819346 -0.00000005
0.39119472 -0.55549980 0.00000000
-0.54267080 -0.32587928 -0.00000016
0.35440084 -0.13207083 0.00000000
0.51635972 -0.29406455 -0.00000027
-0.31646095 -0.22629272 0.00000000
0.21653756 -0.62567510 0.00000000
-0.50614157 0.10418114 -0.00000047
-0.13362704 0.64388923 0.06147990
0.17126638 0.16100182 0.00000700
0.65458663 -0.04189196 -0.00000131
-0.08522669 0.69108425 -0.00000009
-0.55517129 0.16825907 0.20936591
0.40824346 0.27368405 0.00000095
0.11188400 0.60214409 -0.00000013
-0.72548299 -0.77268731 -0.00000003
-0.00133674 -0.04483708 0.00000000
0.04261468 -0.00429298 0.00000000
-0.70313028 -0.28387749 -0.00000054
0.78490570 -0.79087581 -0.00000002
0.64824214 -0.50836325 -0.00000045
0.04259748 -0.61500990 0.00000000
-0.56848464 0.16784731 0.17408842
-0.06789487 -0.21381536 0.00000000
-0.09034010 0.64702417 -0.00000006
0.06229653 0.64829795 0.00000000
0.12798601 0.18966493 0.00000722
0.10814468 0.44552567 0.00000369
0.63154730 -0.31747600 -0.00000072
0.56996363 -0.58322255 0.00000000
-0.27603679 -0.49297833 0.00000000
0.48135810 -0.24562154 -0.00000021
-0.17441617 0.07530073 0.00000000
0.69472042 -0.00268850 -0.00000155
-0.09899314 0.69868271 0.00635698
-0.39706583 0.39061398 0.03368716
-0.16239566 0.60550512 0.08777172
0.04062628 0.32014630 0.00000000
0.41159301 -0.49670287 0.00000000
-0.58701733 -0.62968789 0.00000000
-0.30318938 0.37180111 0.34181756
-0.30046545 0.10901606 -0.00000003
0.16021598 0.22283234 0.00000624
-0.48706199 0.25415121 0.16074206
0.04657034 0.22661959 0.00000790
0.05863282 -0.23435373 0.00000000
-0.31524874 0.46521982 -0.00000038
-0.30495372 -0.68731435 0.00000000
-0.63866552 -0.47046881 -0.00000024
0.42501247 0.16859422 -0.00000070
0.48962122 -0.30483549 -0.00000014
-0.13008378 0.35569067 0.00000000
0.25818865 0.11145979 0.00000643
-0.49022869 -0.08484922 -0.00000026
-0.47858879 0.29659972 0.06784201
-0.33322510 -0.48808254 0.00000000
-0.01461004 -0.50060181 0.00000000
0.20489703 -0.02963873 0.00000000
-0.21005402 -0.35082003 0.00000000
0.01895468 0.64710019 0.00000201
-0.32597204 0.18663762 -0.00000015
-0.04316381 0.34584779 0.00000000
-0.39680419 -0.55084399 0.00000000
-0.20565553 0.56240873 0.08732434
0.76849746 -0.01673631 -0.00000184
-0.29688372 -0.43335921 0.00000000
0.16059756 -0.16106481 0.00000000
0.69333626 -0.36959789 -0.00000089
-0.18975991 0.53802475 0.19746190
0.76383063 -0.15773140 -0.00000157
-0.39050420 -0.28459312 0.00000000
-0.37677536 -0.54656993 0.00000000
0.50561823 -0.18227184 -0.00000042
-0.17615218 -0.25262680 0.00000000
0.70995742 -0.12478279 -0.00000140
-0.57430220 0.13757672 0.24095135
-0.34472855 -0.79774239 0.00000000
-0.30327114 -0.71147454 0.00000000
-0.34907263 0.28256297 0.46036336
0.25067500 0.31002012 -0.00000020
0.64865660 -0.33060164 -0.00000077
-0.77906283 -0.31293190 -0.00000061
-0.16700302 0.13034362 0.00000000
0.00660637 0.71070978 0.00000000
-0.37200032 0.36462262 0.17329436
0.30819711 -0.55341932 0.00000000
-0.19649277 0.58581959 0.04836525
0.03714748 0.57849481 0.00000000
0.31701755 0.12711244 0.00000515
-0.52969541 0.15933339 -0.00000056
0.46971883 -0.38113173 0.00000000
-0.53233281 0.18953220 -0.00000060
0.74579085 -0.08562105 -0.00000162
0.52606230 0.23665831 -0.00000125
0.13463691 -0.31885644 0.00000000
-0.27385017 0.37212999 0.42114092
0.17076189 0.52931913 0.00000124
0.12827333 0.40354654 0.00000401
-0.11380294 0.64739379 0.10610293
0.21998328 0.15868216 0.00000000
0.48197104 -0.67754948 0.00000000
0.40395210 0.18127790 -0.00000063
0.63957186 -0.31548174 -0.00000076
-0.14253466 0.29853092 0.00000000
0.03862854 -0.33291235 0.00000000
-0.40550309 -0.41951555 0.00000000
-0.24839774 0.42199525 -0.00000020
0.54049815 -0.04851025 -0.00000081
0.04731396 -0.07626330 0.00000000
-0.43919381 0.04545123 -0.00000027
-0.53289352 0.26113813 0.01631798
-0.36503105 -0.20993827 0.00000000
0.61193313 -0.26879851 -0.00000072
-0.14972112 0.64941553 -0.00000019
-0.38701259 0.28596764 -0.00000037
-0.05693653 0.31184361 0.00000000
-0.20864568 -0.13288537 0.00000000
-0.26414411 0.44203129 0.25654826
0.15261942 -0.45805968 0.00000000
0.28203340 -0.15080784 0.00000000
0.40122464 -0.14409156 -0.00000004
0.08989479 0.51859075 0.00000000
-0.42072226 0.19897668 -0.00000037
-0.74865181 0.04776936 0.00978244
0.19276882 0.57070133 -0.00000042
-0.31853831 0.31872055 0.44498764
0.06356991 -0.44996879 0.00000000
-0.31512635 0.37600588 0.29768096
0.04442237 0.62797340 0.00000000
-0.48625251 0.06470007 -0.00000039
0.42478642 -0.01611072 -0.00000037
-0.09736405 0.18028944 0.00000000
-0.22392269 -0.30761830 0.00000000
0.37444640 -0.08824557 -0.00000003
0.02140857 0.34389154 0.00000652
-0.39553961 0.31450716 0.24596251
-0.04040002 0.32555777 0.00000000
-0.59580635 -0.45353945 -0.00000016
0.37527777 0.41125944 -0.00000071
-0.09377910 0.23339612 0.00000000
0.11014838 -0.04482097 0.00000000
-0.39699200 0.14248820 -0.00000027
-0.33362093 0.12811588 -0.00000012
-0.53220538 0.20723868 0.16557914
-0.50785219 0.25580998 0.09935874
0.34487175 -0.37973677 0.00000000
-0.01338861 -0.08610122 0.00000000
0.01912721 0.20057881 0.00000000
-0.53950889 0.24088037 0.05362089
-0.52897115 -0.11773844 -0.00000032
-0.10262111 0.36609495 0.00000000
-0.61447086 -0.02200313 -0.00000058
0.60176305 0.05352542 0.00000091
-0.29628007 0.31829367 0.50701593
0.12489139 -0.28502055 0.00000000
-0.15975079 0.31610149 0.00000000
0.58164648 0.12142769 0.00000016
0.16535918 0.38000406 0.00000000
0.69912755 0.07630040 -0.00000170
0.05790965 0.48220000 0.00000000
0.11583467 0.30102950 0.00000000
-0.54724589 0.17335447 0.21710415
-0.37108160 -0.10692001 0.00000000
-0.23532989 -0.75146530 0.00000000
-0.55744651 -0.73911047 0.00000000
0.25499382 -0.75393969 0.00000000
0.10475081 0.31765457 0.00000565
-0.54570331 -0.37118432 -0.00000013
-0.09386687 0.18699460 0.00000000
0.29459747 -0.65662925 0.00000000
0.02541525 0.76439879 -0.00000005
0.40422780 -0.33310041 0.00000000
0.24344098 0.49173540 0.00000047
-0.56736271 -0.30143785 -0.00000024
0.58839109 -0.69978377 0.00000000
0.30330713 0.22602116 -0.00000028
0.18306527 0.58021808 0.00000016
-0.32401764 0.38072205 0.26047387
0.25775093 -0.74869500 0.00000000
-0.65803457 0.12318280 -0.00000081
0.29351446 -0.58484065 0.00000000
-0.59839684 0.18177858 0.05420513
0.02736709 -0.18906995 0.00000000
0.10813298 -0.51557366 0.00000000
-0.77864399 -0.38693294 -0.00000052
-0.18455245 0.52068585 0.25911074
-0.02780006 0.20690301 0.00000000
0.55440571 -0.25477742 -0.00000050
-0.45918072 -0.03044214 -0.00000025
-0.44864028 0.23144195 0.32789492
-0.44923982 0.32099836 -0.00000054
0.48694801 -0.20263019 -0.00000031
-0.45517844 -0.20051281 -0.00000009
-0.28654707 0.41862954 0.25927925
0.25047728 -0.61773301 0.00000000
-0.23729841 0.53146344 0.08541666
-0.60998307 0.11957809 0.19260174
0.21898765 0.20006599 0.00000569
-0.18075814 0.09163038 0.00000000
0.63667432 -0.63179215 -0.00000019
-0.03093202 -0.78518735 0.00000000
-0.49848937 -0.77583124 0.00000000
0.05630176 0.04760204 0.00000000
-0.55274755 -0.57985921 0.00000000
-0.32819033 0.14947974 -0.00000013
0.40926765 -0.75292678 0.00000000
0.02826054 0.26469993 0.00000000
-0.63205162 -0.69751499 -0.00000003
-0.00501785 0.52815424 0.00000000
0.03867548 0.49839432 0.00000000
-0.14717624 -0.17925341 0.00000000
-0.25715288 0.47054134 0.19770908
-0.47544782 0.31807357 0.01771367
-0.50705696 0.21762990 0.20593057
-0.40781814 0.14184874 -0.00000029
-0.26079380 -0.27713516 0.00000000
-0.41110222 -0.00790341 -0.00000016
0.17786760 0.60504873 -0.00000041
0.06617795 0.54892211 0.00000277
-0.64722215 -0.38404779 -0.00000033
0.02204639 -0.75359428 0.00000000
-0.40069923 0.36140736 0.10361308
-0.45653824 0.21518823 -0.00000046
0.34708064 0.35092455 0.00000084
-0.36095031 0.32670216 0.30719564
-0.20685750 -0.23434901 0.00000000
-0.47817674 -0.42785697 0.00000000
0.51428639 -0.00029550 -0.00000078
0.11218819 0.61790686 0.00000089
0.23271167 0.32488480 -0.00000015
0.58575619 -0.03636574 -0.00000102
0.39777847 -0.17654775 0.00000000
-0.67276820 -0.49610869 -0.00000029
0.49511215 -0.72534475 0.00000000
0.30295420 0.32860250 -0.00000046
0.10686075 0.05780306 0.00000952
-0.73458507 -0.13610478 -0.00000074
0.13629476 0.04420734 0.00000000
0.17403188 -0.76571827 0.00000000
-0.44559966 0.14665275 -0.00000037
-0.16734353 -0.71895213 0.00000000
0.64825308 -0.59457111 -0.00000030
0.38903206 0.15354328 0.00000333
-0.78514884 -0.60606454 -0.00000024
-0.04121059 0.25905447 0.00000000
-0.71687536 -0.41441028 -0.00000046
-0.35889663 0.43231865 0.02402029
0.04933312 -0.41223404 0.00000000
-0.04626591 0.71680316 -0.00000003
-0.21316287 0.55422544 0.08917256
0.05860770 0.46125139 0.00000000
-0.51681168 0.05711435 -0.00000045
-0.65620316 -0.02738271 -0.00000067
-0.49267271 -0.59383470 0.00000000
0.46344637 0.09224775 -0.00000073
-0.54716756 0.24659859 0.01704382
0.50416712 -0.70233965 0.00000000
-0.00422591 0.31376305 0.00000000
-0.45077452 0.32355238 0.07019816
-0.00415717 -0.32310672 0.00000000
0.55290427 -0.78334850 0.00000000
0.57761272 -0.72466372 0.00000000
-0.38162743 -0.43509627 0.00000000
-0.08738406 -0.19673094 0.00000000
0.74157040 -0.74601457 -0.00000013
0.25952498 0.49733132 -0.00000057
0.52099383 -0.75374656 0.00000000
0.71063794 -0.73147128 -0.00000017
-0.26340345 -0.49684632 0.00000000
0.31468051 -0.47499472 0.00000000
0.39581982 -0.15620008 0.00000000
-0.28782271 0.11722273 -0.00000001
0.15961567 -0.32734177 0.00000000
0.03540895 0.36585783 0.00000598
0.03436687 0.32559546 0.00000660
-0.56163072 -0.25329773 -0.00000027
-0.35286583 -0.13196603 0.00000000
-0.01757631 -0.14232771 0.00000000
0.24463244 -0.31232519 0.00000000
0.25864077 -0.09147582 0.00000000
0.44717221 -0.61423355 0.00000000
-0.05446275 0.74134012 0.01147872
-0.62386534 -0.40213650 -0.00000027
-0.01064480 -0.36048664 0.00000000
0.10313133 0.17876093 0.00000000
-0.68211323 -0.40166217 -0.00000039
-0.12531303 0.63470010 0.10933924
-0.03844520 -0.45403298 0.00000000
0.01986214 -0.28873110 0.00000000
-0.46879851 0.31409024 0.04678699
-0.29492044 0.41370814 0.24984047
-0.45871774 -0.31830143 0.00000000
-0.52054033 -0.22976242 -0.00000020
-0.39198944 0.28754163 0.32940204
0.03173733 -0.62064077 0.00000000
0.36282149 -0.56320533 0.00000000
0.10404237 0.05700232 0.00000000
-0.02929605 0.38634935 0.00000000
-0.17923224 -0.79290502 0.00000000
-0.26457844 0.04018274 0.00000000
-0.20624373 0.55246848 -0.00000022
0.26411331 0.23411321 -0.00000013
-0.04737698 0.60176985 0.00000000
-0.68460762 0.10742089 0.02179402
-0.09211390 0.69883936 0.02473892
-0.56264054 -0.17153305 -0.00000034
0.03281379 -0.53799953 0.00000000
-0.21202689 -0.52852599 0.00000000
-0.13587064 0.02780926 0.00000000
0.51819761 -0.34523482 -0.00000019
-0.30299848 0.32889712 0.45965252
-0.10959614 0.62833698 0.16971292
-0.33524593 0.13225305 -0.00000013
0.36360058 0.14032343 -0.00000039
0.17517808 -0.55163070 0.00000000
-0.05411637 0.50405850 0.00000000
0.28155052 -0.41727305 0.00000000
0.04617443 0.67026020 0.00000125
0.67822285 -0.73572900 -0.00000016
0.79078370 -0.78500708 -0.00000004
0.59304933 -0.45545483 -0.00000031
-0.39117046 0.33122378 0.21220032
-0.18705599 0.57057459 -0.00000020
0.35408718 -0.05711282 0.00000000
-0.15523734 -0.05897987 0.00000000
-0.00975429 -0.52106739 0.00000000
0.19484720 0.19255189 0.00000000
0.42442000 0.20728694 0.00000175
0.69451361 -0.46517823 -0.00000073
-0.25305297 0.41987915 0.34744587
-0.64588800 -0.14989336 -0.00000054
0.28875924 0.15848819 0.00000517
-0.56814998 -0.15717901 -0.00000037
-0.01639987 -0.19180579 0.00000000
0.28548306 -0.35649058 0.00000000
0.18121933 -0.75693949 0.00000000
-0.06973425 -0.63095469 0.00000000
-0.04194817 0.28240264 0.00000000
0.71759423 -0.16194254 -0.00000136
0.12330807 -0.22428366 0.00000000
-0.06167504 -0.35988980 0.00000000
-0.13722115 0.61292411 0.13632106
0.15057058 -0.10354142 0.00000000
-0.41773696 0.35819280 0.06581568
0.53279204 -0.69352007 0.00000000
-0.77413482 -0.15585538 -0.00000081
-0.23824426 -0.63964066 0.00000000
0.66475979 -0.61267603 -0.00000034
-0.73230667 0.05639434 0.03089216
-0.53990046 -0.33661021 -0.00000015
-0.12754811 -0.71015840 0.00000000
-0.56197806 -0.54691916 -0.00000001
0.18202900 -0.08612131 0.00000000
0.02040838 0.38036984 0.00000599
0.74924345 -0.24803291 -0.00000134
-0.79746761 -0.02212902 -0.00000097
-0.36681966 -0.00230120 -0.00000007
-0.20694171 0.38650026 -0.00000008
0.29986969 0.20722891 -0.00000023
-0.32981884 -0.29654386 0.00000000
-0.13714282 0.57596705 -0.00000009
0.08530969 0.13167992 0.00000000
0.58885473 -0.47853596 -0.00000025
-0.05743026 -0.77123439 0.00000000
0.74027168 0.02249183 -0.00000178
0.56227598 -0.09525138 -0.00000082
-0.60837681 -0.56157490 -0.00000009
-0.42695495 0.20849143 -0.00000039
0.60183981 0.12014751 -0.00000020
-0.02421244 -0.41996851 0.00000000
-0.05528956 -0.23878821 0.00000000
0.06637604 -0.06631254 0.00000000
0.28950644 -0.33873307 0.00000000
-0.71282041 -0.75649072 -0.00000005
0.38474703 0.39090131 -0.00000056
