ply
format ascii 1.0
element vertex 1375
property float x
property float y
property float z
end_header
0.42397929 -0.40576660 -0.00000025
-0.09999882 -0.29653548 -0.00000031
0.45348201 0.01751601 -0.00000065
-0.77428010 -0.64985229 0.00000000
0.63883589 -0.24870276 -0.00000056
-0.10727889 0.36457982 -0.00000073
0.06954121 0.67694480 0.05404164
0.65177454 0.04616267 0.10307121
0.21694783 0.41315470 0.17157699
-0.50145958 -0.41774653 -0.00000024
-0.00169205 0.19407996 -0.00000062
0.29675287 -0.52099242 -0.00000017
0.76833496 -0.27119612 -0.00000066
0.05244183 0.63552633 0.11313792
0.26674045 -0.36301989 -0.00000027
0.47274400 0.14700975 0.18202867
-0.68503515 -0.77151158 0.00000000
0.38239975 0.34365810 0.07467217
0.54691154 -0.53146758 -0.00000017
0.72060642 -0.13397516 -0.00000077
0.37346829 -0.09627788 -0.00000044
0.42940896 -0.62910023 -0.00000011
-0.45978080 0.32750539 -0.00000042
-0.35162380 0.25096960 -0.00000052
0.05210562 0.51639619 -0.00000082
0.47193781 0.22604831 -0.00000089
-0.02853132 -0.73680317 -0.00000004
0.32112203 -0.48388968 -0.00000020
-0.24199232 0.41382665 -0.00000067
-0.45483995 0.62675292 -0.00000043
0.07641253 0.56932261 0.15578869
0.17478574 0.55590868 0.06998970
0.79527509 -0.75338367 -0.00000006
-0.33999531 0.71415023 -0.00000058
-0.51588275 -0.66340494 -0.00000009
-0.13934701 -0.21142948 -0.00000037
-0.38941306 0.72678618 -0.00000051
-0.03262558 -0.44013485 -0.00000022
0.06289696 0.08660255 -0.00000055
-0.15019909 0.32270112 -0.00000070
-0.08432647 -0.12600320 -0.00000042
0.44656660 0.22202497 -0.00000086
0.01221485 0.05623568 -0.00000054
-0.45140511 0.58080920 -0.00000044
-0.09502998 0.61357030 -0.00000086
0.63143353 0.12054173 -0.00000095
0.15264573 0.29282364 0.35803508
-0.27130237 -0.30646033 -0.00000031
0.10015080 0.40173828 -0.00000075
0.37196892 0.03882319 -0.00000058
-0.19160342 0.67762869 -0.00000076
-0.56246099 -0.33740436 -0.00000019
0.20323870 0.17673083 0.42418292
0.20685566 -0.63764064 -0.00000010
-0.20727841 -0.30782748 -0.00000031
-0.29261596 0.54718976 -0.00000063
-0.08671790 -0.61542590 -0.00000012
-0.24190793 0.64831226 -0.00000070
-0.20799872 0.71318101 -0.00000074
-0.73942281 -0.16443340 -0.00000003
-0.37897126 -0.19976214 -0.00000038
0.14794272 0.14099534 -0.00000059
-0.29950762 -0.13868521 -0.00000041
-0.23967748 0.03419470 -0.00000052
0.49600445 -0.60677586 -0.00000012
-0.54299873 0.22665464 -0.00000032
-0.16116604 0.34874953 -0.00000072
-0.42590985 -0.58288002 -0.00000014
-0.00477829 -0.30599487 -0.00000031
-0.74374444 -0.62914427 0.00000000
0.12498496 -0.36049758 -0.00000027
-0.31066368 -0.30326512 -0.00000031
-0.40011533 -0.34999610 -0.00000028
0.01313560 0.70888595 -0.00000094
-0.37491028 -0.24558174 -0.00000035
-0.38570045 0.39558990 -0.00000051
0.06944776 0.36278399 -0.00000073
-0.58137713 0.14714568 -0.00000026
0.08017674 -0.58420833 -0.00000013
0.62166382 -0.73843291 -0.00000004
0.08512325 0.48582233 -0.00000080
0.13093514 -0.69644908 -0.00000006
-0.06724263 -0.37441697 -0.00000027
0.38909929 0.09057939 -0.00000066
0.15814780 0.49270068 -0.00000084
0.55500666 -0.53227709 -0.00000017
0.14213393 -0.68021115 -0.00000007
0.27986842 0.48750971 0.03294282
0.43705121 0.29961888 0.06395487
0.29158034 -0.21168789 -0.00000037
-0.32449844 0.79949838 -0.00000059
0.45288497 0.29573449 -0.00000095
0.17617585 0.57441590 -0.00000095
-0.28084452 -0.09492269 -0.00000044
-0.21601194 -0.09334474 -0.00000044
0.22910242 -0.22432506 -0.00000036
0.51866882 -0.23919105 -0.00000044
0.28945172 0.25552190 0.25754814
0.10140499 -0.47709614 -0.00000020
-0.25779648 0.79660053 -0.00000068
0.15852306 0.58954797 0.05244106
-0.20544959 0.43580366 -0.00000071
0.24961163 0.16352462 -0.00000060
0.66861564 0.05525152 0.07688454
0.16414107 0.62314963 -0.00000099
0.33652512 0.45417197 0.00939300
0.02624607 -0.04216080 -0.00000047
-0.04717947 0.45894997 -0.00000079
-0.20562830 -0.47266150 -0.00000020
0.03756532 0.50475941 -0.00000082
-0.66163427 -0.51698351 -0.00000005
0.42692399 0.20858809 0.16611434
0.30840893 0.02049305 -0.00000051
0.59004839 -0.62758811 -0.00000011
-0.14873681 -0.22149645 -0.00000036
-0.68143508 0.47595473 -0.00000015
-0.76303921 -0.50473052 0.00000000
-0.23836453 0.75436303 -0.00000070
-0.45834223 0.64638828 -0.00000043
0.48964451 -0.18601794 -0.00000047
-0.73011315 0.53483036 -0.00000009
0.21396697 -0.55836397 -0.00000015
-0.33651343 0.56293578 -0.00000058
0.06873143 -0.28150352 -0.00000032
0.41167784 0.31466325 0.07438613
-0.54816710 0.08690229 -0.00000028
-0.43461535 0.59481106 -0.00000046
0.54577003 0.13002268 0.12543492
0.17768841 0.41708341 -0.00000078
-0.31554135 0.79719840 -0.00000061
0.71893721 -0.31052970 -0.00000058
-0.68637518 -0.53729760 -0.00000002
0.24854927 -0.54731847 -0.00000016
0.42278377 -0.73855143 -0.00000004
-0.67261438 -0.54224686 -0.00000004
0.60642606 0.18490493 0.00875283
-0.09921044 0.52684290 -0.00000083
-0.28738053 0.33775767 -0.00000061
0.55533316 -0.05188011 -0.00000068
0.18434249 0.43801545 0.17939788
0.28836725 0.29316237 -0.00000077
0.09998250 0.18254479 -0.00000061
-0.51977260 -0.05153806 -0.00000029
-0.67029676 0.15986786 -0.00000016
0.57866841 0.20806692 0.01339399
0.13981165 0.42862764 -0.00000077
0.54206022 0.24654874 0.01150181
0.23330043 0.39481296 0.17358594
0.31651799 0.40487203 0.07938621
0.46782745 0.31736149 0.01495568
0.19688269 0.54399223 0.05970841
0.20826083 0.27547378 -0.00000067
-0.27928705 -0.19940147 -0.00000038
-0.60576805 -0.13626601 -0.00000018
-0.36346375 -0.39739643 -0.00000025
-0.70543171 0.75896478 -0.00000012
0.22642671 0.31762076 0.25848295
-0.44808117 0.43954759 -0.00000044
0.52970437 -0.10521425 -0.00000060
-0.26676767 0.74021516 -0.00000067
-0.10531611 0.15180109 -0.00000059
0.09326728 0.23410948 -0.00000065
0.34291403 0.09655419 -0.00000062
0.33785125 0.09333412 -0.00000061
0.28704102 0.31840657 -0.00000079
-0.24751990 -0.06668297 -0.00000046
-0.70465806 0.16676979 -0.00000012
0.33257923 0.18519403 0.28501779
-0.12521604 -0.74245099 -0.00000004
0.02548577 -0.54046373 -0.00000016
-0.78405147 0.08417912 -0.00000002
0.40731551 0.34191094 -0.00000095
-0.13965198 0.78168992 -0.00000083
-0.07824242 -0.33553729 -0.00000029
0.29466872 0.09272533 -0.00000056
-0.11225728 -0.70598303 -0.00000006
-0.18813249 0.64761468 -0.00000076
0.45599455 -0.16411434 -0.00000046
-0.47291500 0.57286580 -0.00000041
-0.35495324 0.49055568 -0.00000056
0.57803828 0.21301194 0.00903638
0.44519821 0.17183139 0.18477979
0.66461702 -0.74379751 -0.00000006
0.23329668 -0.40748000 -0.00000025
-0.27284993 -0.68177251 -0.00000007
-0.60163804 -0.71169896 -0.00000006
0.48328346 0.24857538 -0.00000093
-0.29270816 -0.39428681 -0.00000025
-0.72108074 -0.31328069 -0.00000003
-0.57574156 0.78034773 -0.00000028
0.32018877 0.07400208 -0.00000057
-0.24691259 -0.23956093 -0.00000035
0.35852573 0.40004899 -0.00000096
-0.60636768 -0.07661150 -0.00000019
0.34387922 0.22151192 0.23692921
0.50832475 -0.58046339 -0.00000014
0.42746605 0.26248853 0.11113287
-0.73390946 -0.74375344 0.00000000
-0.73085795 -0.06619486 -0.00000006
-0.41649213 -0.79579550 -0.00000000
-0.16178257 0.70410728 -0.00000080
0.65299729 -0.15681483 -0.00000068
-0.57400379 -0.54358762 -0.00000014
0.22957126 0.49170530 0.07950079
0.29117857 0.45478487 0.05456952
0.64620982 0.08834088 0.06609524
0.19785830 0.32759065 0.27726511
0.52003621 -0.51689661 -0.00000018
-0.17055708 -0.72763262 -0.00000005
-0.72974415 -0.42242587 0.00000000
0.35767275 -0.70099073 -0.00000006
-0.44356616 -0.36397317 -0.00000027
-0.18867292 -0.12928736 -0.00000042
0.36873071 -0.19642375 -0.00000038
0.60326515 0.07985782 0.11803210
-0.63289807 -0.75962231 -0.00000003
-0.31420492 -0.11832337 -0.00000043
0.30302807 0.15092739 0.34946631
-0.33909505 -0.76781556 -0.00000002
-0.53836263 0.49910164 -0.00000033
-0.77388148 -0.61738315 0.00000000
-0.15178177 -0.45334802 -0.00000022
0.11347176 0.05501285 -0.00000053
0.45152862 0.24883379 0.10062200
-0.68673327 0.36374719 -0.00000014
0.14813994 0.39940321 -0.00000075
-0.48460685 -0.36422550 -0.00000027
0.60940314 -0.23558786 -0.00000055
-0.19032362 -0.29932690 -0.00000031
-0.10542140 0.65115268 -0.00000086
0.65014591 -0.57990366 -0.00000022
0.31778225 -0.41457180 -0.00000024
-0.15843916 -0.76667147 -0.00000002
0.39817643 -0.14402629 -0.00000042
0.11443976 -0.58247006 -0.00000014
-0.36389302 0.28696369 -0.00000052
0.19953196 0.55208537 -0.00000095
-0.30153387 0.77964208 -0.00000062
0.23414343 0.50105892 0.06543714
0.48936242 -0.11645585 -0.00000054
0.48992452 0.12183184 0.19010523
0.18606657 -0.54889226 -0.00000016
0.19611459 0.59050251 0.01351339
0.07849197 0.28242005 -0.00000068
0.78635677 -0.20403261 -0.00000074
0.46823289 -0.58649866 -0.00000013
0.17532114 -0.00807712 -0.00000049
0.33563381 0.44524654 0.01930694
-0.27598111 -0.68784426 -0.00000007
-0.64870863 -0.73272250 -0.00000003
0.11687803 -0.70810505 -0.00000006
0.33314500 -0.48873143 -0.00000019
-0.41144671 0.31534981 -0.00000047
0.28520367 0.03694751 -0.00000052
0.36845482 -0.38637809 -0.00000026
0.56440330 -0.76067627 -0.00000002
0.20992951 0.53287342 0.05776132
-0.18036878 0.32303102 -0.00000070
-0.77307616 0.62382779 -0.00000003
0.28092343 0.50762589 0.01156204
0.14451581 0.18347471 -0.00000061
-0.61827355 -0.05732456 -0.00000018
0.34247249 0.43150881 0.02627429
0.43645304 0.00529152 -0.00000062
0.09070850 -0.63699364 -0.00000010
-0.58311597 0.02769602 -0.00000024
-0.15754313 -0.21976572 -0.00000036
0.31466132 0.20148919 0.28665643
0.41098813 -0.48734979 -0.00000020
-0.12755944 -0.69029289 -0.00000007
-0.71577899 0.65862288 -0.00000011
0.41946053 -0.16150900 -0.00000042
-0.64807782 -0.52265462 -0.00000007
-0.04719365 -0.25256097 -0.00000034
-0.22233337 -0.25427888 -0.00000034
-0.46651087 0.51470119 -0.00000042
-0.40106152 -0.05314723 -0.00000042
0.14745472 0.06932730 -0.00000054
0.61023759 0.00410886 -0.00000080
-0.70909388 -0.65711171 0.00000000
-0.54369290 0.19763240 -0.00000031
0.15098539 -0.42288479 -0.00000024
0.42809089 -0.69810727 -0.00000006
0.42043635 -0.79329605 -0.00000000
0.56643729 -0.53298868 -0.00000018
0.20877114 -0.08533266 -0.00000045
-0.61518802 -0.50644344 -0.00000010
0.07497192 0.02998679 -0.00000052
0.78614837 -0.13552001 -0.00000083
-0.26065973 0.75257855 -0.00000067
-0.26444989 0.23054567 -0.00000061
-0.63190148 0.70130867 -0.00000021
-0.52958972 0.58109319 -0.00000034
-0.39808243 -0.26300309 -0.00000034
0.30595145 0.21717528 -0.00000070
-0.66928106 0.77263406 -0.00000016
-0.35682364 -0.00734673 -0.00000047
0.44936227 0.20156347 0.15054808
0.16125407 -0.19864452 -0.00000038
-0.11125383 0.49506349 -0.00000081
-0.10102017 0.19336210 -0.00000062
-0.24213162 0.57578240 -0.00000070
0.05191358 0.58722750 -0.00000087
-0.39198185 0.59890136 -0.00000051
0.40694622 -0.56576259 -0.00000015
-0.67842400 0.38910366 -0.00000015
0.70825466 -0.74118442 -0.00000007
0.11807250 0.65425432 -0.00000097
0.27645223 -0.06695517 -0.00000046
0.79665775 -0.45667382 -0.00000043
0.64920170 0.06773652 -0.00000091
-0.35451819 0.32033584 -0.00000053
0.43950001 0.08469477 -0.00000071
0.68845607 -0.15311392 -0.00000072
-0.63161912 0.14621428 -0.00000021
0.24799196 0.18386369 -0.00000061
0.23418162 -0.25378370 -0.00000034
-0.23779931 -0.51600089 -0.00000018
-0.10865232 0.43284651 -0.00000077
-0.69882382 0.31775164 -0.00000013
0.51382785 -0.12468668 -0.00000056
-0.61670281 0.71931584 -0.00000023
0.26704588 0.51347155 0.01967344
-0.35590805 -0.28324913 -0.00000032
0.41701262 -0.15994560 -0.00000042
-0.16235820 -0.48080688 -0.00000020
-0.33297859 -0.24868780 -0.00000034
0.32579941 -0.40696498 -0.00000025
-0.54212619 -0.28951307 -0.00000022
-0.65425716 -0.31208108 -0.00000010
-0.06660650 -0.30731412 -0.00000031
0.61319659 -0.06748369 -0.00000073
0.17477848 -0.40043550 -0.00000025
0.59767413 0.18121223 -0.00000098
0.13808166 0.29431936 0.37123252
-0.79146729 0.10578668 -0.00000001
-0.05182424 0.41979432 -0.00000076
0.01133829 0.27812816 -0.00000067
0.18146526 -0.27636449 -0.00000033
0.51509671 -0.03940843 -0.00000065
0.63940164 0.08754421 -0.00000092
0.04581674 -0.68406163 -0.00000007
0.24943297 -0.35481134 -0.00000028
0.58231258 -0.28829714 -0.00000046
-0.56935023 -0.02756203 -0.00000024
0.59286666 0.11146874 0.09660967
0.38036290 0.05160770 -0.00000061
-0.29740963 -0.62035636 -0.00000011
-0.41364280 -0.04333407 -0.00000040
0.28320863 -0.75838329 -0.00000003
0.15502048 0.33030968 0.31778021
0.65678761 -0.37109858 -0.00000045
-0.76071149 0.76922574 -0.00000005
-0.24180474 0.38109761 -0.00000067
-0.57441529 -0.23398861 -0.00000020
0.31943117 -0.09343935 -0.00000044
0.25271529 -0.44193194 -0.00000022
-0.38016689 -0.62921923 -0.00000011
-0.23408262 -0.37007065 -0.00000027
-0.64782908 -0.38559264 -0.00000009
-0.23389741 0.59425933 -0.00000071
0.11381726 -0.45383978 -0.00000022
0.14859756 0.37160727 0.28256068
-0.51714013 -0.56255925 -0.00000015
0.50558792 -0.45263598 -0.00000022
-0.19045669 -0.60864054 -0.00000012
-0.72498078 -0.67969536 0.00000000
0.31053866 -0.26829231 -0.00000033
0.07457317 -0.02870713 -0.00000048
0.47711941 0.03624184 -0.00000069
0.17400057 -0.48278539 -0.00000020
-0.18017670 -0.20163918 -0.00000037
-0.29604293 -0.53570578 -0.00000017
0.04129984 0.22133005 -0.00000064
0.14412126 0.47575848 0.18190026
0.68418196 0.06470680 0.05161523
-0.24061938 -0.75644602 -0.00000003
0.02746692 -0.02600043 -0.00000048
-0.33986896 -0.51075548 -0.00000018
-0.19845483 -0.62251781 -0.00000011
0.04635340 0.75324567 -0.00000100
-0.52464369 -0.03983282 -0.00000029
0.34093368 0.28747444 0.17328862
-0.41430562 0.72223265 -0.00000048
0.58298925 -0.10001481 -0.00000066
0.14181894 0.51210454 -0.00000084
0.31686808 0.21793258 0.26782191
-0.14546244 0.65658207 -0.00000082
0.17652432 0.57699972 0.04693407
0.76918109 -0.78308624 -0.00000002
0.33029622 -0.48617199 -0.00000020
0.38462463 -0.53639039 -0.00000016
0.26189569 -0.59254320 -0.00000013
-0.60419801 0.49178025 -0.00000024
0.28088429 0.12432754 -0.00000058
0.48282542 -0.42748879 -0.00000023
0.36818629 -0.00946234 -0.00000053
0.28133526 0.48651930 0.03246167
0.22818976 0.26840381 0.30640603
-0.52039808 -0.18776229 -0.00000026
-0.78633777 0.50619021 -0.00000002
-0.51369009 0.27493112 -0.00000036
-0.63195804 0.03944425 -0.00000019
-0.17534452 -0.23646036 -0.00000035
0.08867064 0.52192317 -0.00000083
0.69739850 0.09149874 0.01121068
0.18813170 0.25311484 0.36229994
0.39359799 0.25816868 -0.00000084
0.48289936 -0.68833327 -0.00000007
0.59244735 0.20100233 -0.00000099
-0.38452682 -0.60298212 -0.00000012
-0.48872419 0.40294092 -0.00000039
0.33026439 0.42035600 0.04986647
0.71152747 -0.00883446 -0.00000090
0.25617886 -0.68383016 -0.00000007
-0.12743879 0.47809478 -0.00000080
0.51576579 -0.75088287 -0.00000003
0.00410896 0.71991334 -0.00000095
-0.19029083 -0.07990650 -0.00000045
0.64707220 -0.39456951 -0.00000042
0.19352051 0.41676769 -0.00000080
-0.40129114 0.58889947 -0.00000050
-0.62418778 0.04960748 -0.00000020
-0.51976498 -0.43429673 -0.00000022
-0.07442008 0.33793945 -0.00000071
-0.68360520 -0.30937105 -0.00000007
-0.12033484 0.66752574 -0.00000085
-0.03591079 -0.50891949 -0.00000018
-0.47429962 -0.28646976 -0.00000030
-0.29245224 0.16687719 -0.00000057
0.09231834 -0.28717433 -0.00000032
0.17550242 0.26683957 0.36119356
-0.17700830 -0.48720509 -0.00000020
-0.15436268 -0.25649984 -0.00000034
-0.56068155 -0.36364900 -0.00000019
0.51088054 0.22815455 -0.00000093
0.32320229 -0.55179894 -0.00000016
0.12767335 0.16774112 -0.00000060
-0.30393116 -0.43258386 -0.00000023
-0.33480529 -0.57629769 -0.00000014
-0.26901566 -0.14226659 -0.00000041
0.78069564 -0.12517667 -0.00000084
-0.10233846 -0.58724878 -0.00000013
0.72814007 -0.31593789 -0.00000059
0.39676762 -0.14195649 -0.00000042
-0.15670469 -0.75257835 -0.00000003
0.49405529 -0.71707734 -0.00000005
0.33310480 0.18505022 0.28463225
0.11985158 0.66943181 0.01082071
0.26530824 -0.69491980 -0.00000007
-0.57472557 -0.76538152 -0.00000002
-0.75849429 0.05294742 -0.00000005
0.23270095 -0.38100428 -0.00000026
0.45969695 0.08776005 -0.00000073
0.66747344 -0.45023807 -0.00000038
-0.49401454 0.72101167 -0.00000038
0.62160667 0.04960863 0.13005765
-0.64290284 0.58680839 -0.00000020
0.64705297 -0.24564757 -0.00000057
0.00342765 0.04663633 -0.00000053
-0.47222009 0.37660449 -0.00000041
0.34347893 0.40949138 -0.00000095
0.31335293 -0.52608591 -0.00000017
0.28510783 0.45807898 -0.00000094
-0.72834610 -0.34077371 -0.00000001
-0.50631948 -0.08643388 -0.00000030
0.22673124 0.34554598 0.22997409
-0.33642203 0.34846320 -0.00000056
0.01352095 0.69302456 -0.00000093
0.31314227 0.28577270 -0.00000079
0.02459872 0.74157582 0.03415808
0.72443237 -0.13690957 -0.00000077
-0.71426349 -0.37125132 -0.00000002
-0.57901864 0.52851357 -0.00000028
0.30233537 -0.74332148 -0.00000004
0.08385231 -0.37013265 -0.00000027
-0.06146861 -0.19413493 -0.00000038
-0.66283112 -0.72987056 -0.00000001
-0.64022658 -0.60657807 -0.00000006
-0.65047644 -0.00155553 -0.00000016
-0.29101306 0.50674737 -0.00000064
-0.46509668 -0.45911440 -0.00000021
-0.49676731 0.33225661 -0.00000038
-0.47814487 -0.74567096 -0.00000003
0.29700272 -0.36097648 -0.00000027
0.16897978 0.57464620 -0.00000094
-0.29813207 -0.69832361 -0.00000006
-0.08563139 -0.40962362 -0.00000024
0.12860544 0.44176962 -0.00000078
0.32026127 0.03909103 -0.00000053
0.11092928 0.64453089 0.04497877
0.34790421 0.42600637 0.02634571
-0.67443005 -0.17139872 -0.00000010
0.74914621 -0.36237267 -0.00000055
-0.31811180 0.31270812 -0.00000057
-0.54492127 -0.08565624 -0.00000026
-0.12829716 -0.44420791 -0.00000022
0.44467833 -0.30723689 -0.00000031
0.33882991 -0.32919544 -0.00000029
-0.54950691 -0.23754507 -0.00000022
-0.67540311 -0.51904433 -0.00000004
-0.65426330 -0.70232422 -0.00000003
0.12928981 -0.72594555 -0.00000005
-0.05477422 0.53842939 -0.00000084
-0.79817409 -0.75285347 0.00000000
0.21513136 0.51873247 0.06678891
0.07072948 0.57793661 -0.00000086
-0.22844072 0.71856681 -0.00000071
-0.14420104 0.07468077 -0.00000055
-0.49268313 0.79298238 -0.00000038
-0.71611758 0.15014639 -0.00000010
0.20815367 0.50801640 -0.00000091
-0.33787288 0.24957833 -0.00000054
0.27593207 0.37612125 0.14940933
0.41706130 -0.42912341 -0.00000023
0.05248639 0.69712648 0.05088373
0.59465695 -0.71030601 -0.00000006
0.14535518 0.38269326 -0.00000074
-0.10973010 -0.64627991 -0.00000010
0.48367478 0.03872631 -0.00000070
0.53788867 0.12936278 0.13406075
0.03503734 -0.07917345 -0.00000045
0.50355191 -0.38587003 -0.00000027
0.54909293 0.16818310 0.08354093
-0.56470620 -0.32913867 -0.00000019
-0.32061612 -0.39568034 -0.00000025
0.39829431 -0.20671680 -0.00000037
0.22785919 0.40489646 0.16889773
0.19133826 0.47202827 -0.00000085
-0.08472166 0.15137507 -0.00000059
-0.01713541 0.31299508 -0.00000070
-0.46593655 -0.66166059 -0.00000009
-0.24355693 -0.15687511 -0.00000040
0.00255744 -0.09203061 -0.00000044
0.10094920 -0.59636297 -0.00000013
-0.17758807 -0.03626343 -0.00000048
-0.32457605 0.01769203 -0.00000051
-0.43051285 0.38249944 -0.00000046
0.12959076 -0.70524764 -0.00000006
0.07412833 0.68008903 0.04623388
-0.59345104 0.45091599 -0.00000026
0.20061445 0.52106681 -0.00000092
0.20058827 0.53136047 0.06872296
0.71930192 -0.38373710 -0.00000050
-0.64238776 0.07446320 -0.00000018
-0.52886754 0.01354824 -0.00000029
0.61009940 -0.18876448 -0.00000060
0.26974489 0.29841266 0.23413484
-0.65959339 -0.52480551 -0.00000005
0.68391306 -0.03741832 -0.00000084
-0.77500588 -0.71025229 0.00000000
0.28464918 0.46227343 -0.00000094
0.54063395 -0.36730218 -0.00000033
-0.40875473 0.71196249 -0.00000049
0.03617475 -0.33522507 -0.00000029
0.03309618 -0.34450196 -0.00000028
0.37858877 0.39714219 0.02450730
-0.28775415 -0.47093619 -0.00000021
-0.63306378 -0.55697477 -0.00000008
-0.05092046 -0.07764966 -0.00000045
-0.45506468 -0.04529902 -0.00000036
0.30721727 -0.76487175 -0.00000002
0.25669660 0.32222403 0.22326523
0.42502539 0.00866070 -0.00000061
-0.34931476 -0.23077157 -0.00000036
-0.34663717 -0.13863062 -0.00000041
-0.72256913 -0.70231671 0.00000000
0.25145769 0.34163165 0.20895640
-0.54915197 0.17245315 -0.00000030
0.06025007 0.65806527 0.08249075
0.69301795 -0.44483544 -0.00000041
0.59542855 -0.70138881 -0.00000006
0.38959153 -0.04507587 -0.00000051
0.55471545 -0.17452671 -0.00000055
-0.65530997 0.24641155 -0.00000018
-0.16487805 -0.42429873 -0.00000023
-0.74858305 0.27641234 -0.00000006
0.09672537 0.67165102 0.03193467
0.33403728 0.38082853 0.08597501
0.14720031 -0.55043896 -0.00000016
-0.09463386 -0.55092261 -0.00000016
-0.22867220 -0.68669710 -0.00000007
0.48957893 0.18806133 0.12356909
0.09552816 -0.71467890 -0.00000005
-0.08629091 0.48912764 -0.00000081
-0.38596201 0.77302092 -0.00000052
0.28377182 0.38335071 0.13419095
-0.04079724 0.59045218 -0.00000087
-0.65310422 0.00004676 -0.00000016
0.27793509 0.33422294 0.18969940
-0.48450073 0.32832638 -0.00000039
-0.74991654 -0.76957526 0.00000000
0.15592493 0.28434914 0.36328178
-0.01970334 0.01473955 -0.00000051
-0.19048531 0.69198299 -0.00000076
-0.00449836 -0.30164163 -0.00000031
0.14777682 0.39638088 0.25837099
0.01546478 0.75887212 -0.00000097
-0.23781665 -0.44022707 -0.00000022
-0.20693422 0.30794488 -0.00000069
-0.24379199 0.62520498 -0.00000070
-0.77035034 -0.50406481 0.00000000
-0.17710498 0.47802409 -0.00000075
-0.15697354 0.43392854 -0.00000077
-0.28739721 -0.52833614 -0.00000017
0.49603898 0.20503560 0.09990277
-0.21349695 0.24668389 -0.00000065
-0.57232429 0.33898971 -0.00000028
0.29044289 0.15552483 0.35753291
-0.57031708 -0.50037798 -0.00000015
-0.73486056 -0.48465690 0.00000000
-0.17866219 0.59507502 -0.00000077
-0.48712279 -0.61160415 -0.00000012
0.01637679 0.22182888 -0.00000064
-0.48465552 0.56007144 -0.00000039
0.31920385 0.47379044 0.00707306
0.47992468 -0.44091545 -0.00000022
-0.45251054 0.71820904 -0.00000043
-0.23094548 -0.02856615 -0.00000048
-0.47352152 0.75735080 -0.00000041
-0.79524508 -0.75057732 0.00000000
-0.71861716 0.54452863 -0.00000010
-0.01968307 0.70923146 -0.00000094
0.23416971 0.32770815 0.24047633
-0.30438129 -0.61629566 -0.00000011
0.18896147 0.38676999 -0.00000076
-0.44236648 0.05203817 -0.00000039
0.46977376 0.11270456 -0.00000077
0.74866684 -0.39159192 -0.00000051
0.47157627 0.20633446 0.12329594
0.63875353 -0.44465081 -0.00000035
0.09315138 0.53038581 0.17820624
-0.53821622 0.48225096 -0.00000033
-0.24405322 0.16676000 -0.00000060
-0.46886063 0.46346782 -0.00000041
0.34801339 0.17326397 -0.00000070
0.20378889 0.46814274 -0.00000086
0.17042896 0.26963497 -0.00000067
0.42162418 -0.28563714 -0.00000032
0.48465911 0.10437114 -0.00000077
0.24521593 -0.68031699 -0.00000007
0.36443643 0.40946029 -0.00000097
-0.34648293 0.36606735 -0.00000055
0.29500929 0.23549571 -0.00000071
0.52719430 0.17134471 -0.00000089
0.64173644 0.07859136 0.08045895
0.38427874 -0.57452694 -0.00000014
-0.01678186 -0.79950797 -0.00000000
0.28876739 0.32529672 0.18777457
-0.00015783 0.23893672 -0.00000065
0.18953810 -0.34571354 -0.00000028
-0.25026393 0.25153302 -0.00000063
0.09710064 -0.73758321 -0.00000004
0.42056571 0.30198181 -0.00000092
-0.57917158 -0.47428717 -0.00000015
0.29629057 0.24465635 0.26161471
-0.55274382 0.43905636 -0.00000031
-0.52898259 -0.13313191 -0.00000026
-0.59471271 -0.67300751 -0.00000008
-0.09174079 -0.24743298 -0.00000035
0.54868248 0.11909157 0.13353298
0.51636958 0.11416719 -0.00000082
-0.24379509 0.56081005 -0.00000070
0.15029666 -0.50642844 -0.00000018
-0.71900358 -0.50503901 0.00000000
-0.27483729 0.17612936 -0.00000059
-0.56953395 0.59357816 -0.00000029
0.32367649 0.44806110 -0.00000097
0.37943968 -0.72970454 -0.00000004
0.47380123 -0.52234654 -0.00000017
0.63241632 0.12954387 0.03841440
-0.00333141 0.01388369 -0.00000051
0.28499218 -0.09132348 -0.00000044
0.70199687 0.08482141 0.01331022
-0.47641411 -0.64502017 -0.00000010
-0.72659135 0.36582056 -0.00000009
-0.77405768 -0.03648173 -0.00000002
-0.71526421 -0.04000879 -0.00000008
-0.35839606 0.07429391 -0.00000048
0.56662428 0.03578231 -0.00000079
0.11203183 -0.60619104 -0.00000012
-0.09369606 0.40982575 -0.00000076
0.34813453 0.26795755 -0.00000080
0.13745701 0.47383284 0.19057503
-0.37752596 -0.41956706 -0.00000024
0.14099244 0.44448033 0.21664739
-0.76778992 0.17068234 -0.00000004
-0.34621666 -0.12598639 -0.00000042
-0.75063124 0.29652988 -0.00000006
-0.52700726 0.38092383 -0.00000034
0.72308751 -0.10283403 -0.00000081
-0.19989523 0.70642369 -0.00000075
0.11991221 0.45593627 -0.00000078
0.43803619 -0.16073554 -0.00000044
-0.50967784 0.61283192 -0.00000036
0.26819557 0.32210293 0.21177497
0.32126084 -0.21152007 -0.00000037
0.46885846 -0.46668495 -0.00000021
-0.79144571 -0.56167208 0.00000000
-0.07523875 -0.09001039 -0.00000044
0.10895343 0.45839730 0.23494833
0.28997215 0.01606942 -0.00000051
-0.54839204 -0.47517195 -0.00000018
-0.52841755 0.01634033 -0.00000029
0.48151869 -0.57160088 -0.00000014
0.03854967 0.21168033 -0.00000063
0.19074114 0.07140547 -0.00000054
0.47291910 -0.43914965 -0.00000023
0.17564159 0.51212421 -0.00000088
0.18503984 -0.24147379 -0.00000035
-0.64934720 0.77108311 -0.00000019
-0.40350695 0.53119865 -0.00000050
0.36522863 0.41190897 0.02308673
-0.74442391 0.63456637 -0.00000007
0.56719494 -0.79589786 -0.00000000
-0.07381700 -0.54712078 -0.00000016
0.51916571 0.05228681 -0.00000076
0.28349107 -0.22496872 -0.00000036
-0.55804865 -0.25571224 -0.00000021
0.42520204 -0.79198270 -0.00000001
0.66193977 -0.50625485 -0.00000031
0.11288131 0.54211689 -0.00000085
0.00119342 -0.75506163 -0.00000003
0.10281670 0.61305423 0.08495969
-0.06016804 0.02644907 -0.00000052
-0.45840476 0.22256126 -0.00000041
0.37932079 0.16808322 0.25509445
-0.33660817 0.22900404 -0.00000054
0.24103971 0.11123560 -0.00000057
-0.57058735 -0.52390277 -0.00000015
0.22820348 0.29026986 0.28430994
-0.39747845 0.50268067 -0.00000050
0.54834171 -0.79051448 -0.00000001
-0.79161104 0.59116393 -0.00000001
0.66849197 -0.03153698 -0.00000083
0.20907166 0.11945338 -0.00000057
-0.35563701 -0.16726295 -0.00000040
0.65476037 -0.56840753 -0.00000024
-0.06790231 -0.04481855 -0.00000047
0.08765469 0.24791021 -0.00000065
0.76868204 -0.07802021 -0.00000088
-0.15717353 -0.33421539 -0.00000029
-0.50195324 0.74408002 -0.00000037
0.24051956 -0.42665742 -0.00000023
-0.28441650 -0.03094588 -0.00000048
0.58766063 -0.47151643 -0.00000027
0.74266234 -0.06836507 -0.00000087
-0.74292183 0.55111114 -0.00000007
-0.72692226 0.33600702 -0.00000009
0.47566643 -0.34720188 -0.00000028
0.04076381 -0.70699722 -0.00000006
0.74668820 -0.38243853 -0.00000052
0.51266510 -0.76281081 -0.00000002
-0.63840840 0.63394715 -0.00000020
-0.31542157 -0.32722532 -0.00000030
-0.62598194 0.13319465 -0.00000021
0.32468552 0.32318658 0.15363196
0.41922314 0.03620906 -0.00000063
0.34653405 0.33395543 -0.00000087
0.22970380 0.56697150 0.00335562
0.25615290 0.21756955 0.32950350
-0.26530252 -0.67744361 -0.00000008
-0.65899770 0.57787042 -0.00000018
0.06355134 -0.46868601 -0.00000021
0.50489212 -0.24381871 -0.00000042
0.36459811 -0.73292783 -0.00000004
-0.23234780 -0.27420845 -0.00000033
-0.16614869 -0.07537255 -0.00000045
-0.02557227 -0.67453280 -0.00000008
0.50788279 -0.63141277 -0.00000011
0.19610497 -0.47581878 -0.00000020
-0.26338545 -0.04463187 -0.00000047
-0.78546063 0.74147664 -0.00000002
-0.42713081 0.43652401 -0.00000047
0.22015084 -0.38593842 -0.00000026
-0.10415107 0.18363696 -0.00000061
0.17499170 -0.79477818 -0.00000000
0.17984347 0.38931876 0.23311950
-0.46525091 -0.64333453 -0.00000010
0.27020737 0.43362088 0.09712184
-0.61411151 -0.64959163 -0.00000008
0.57167319 -0.26407527 -0.00000047
0.16691395 -0.63463150 -0.00000010
-0.10476930 -0.68760518 -0.00000007
0.54656204 -0.47434168 -0.00000022
0.55034871 0.10844271 -0.00000085
0.02497814 -0.73799666 -0.00000004
0.09848636 -0.67057188 -0.00000008
-0.49236108 -0.02519627 -0.00000032
-0.56492752 0.71472425 -0.00000029
0.71318278 0.06123039 -0.00000097
-0.22313373 -0.64803680 -0.00000009
-0.40803933 -0.70856905 -0.00000006
-0.63640866 0.21224316 -0.00000020
0.42606673 -0.29054347 -0.00000032
0.34375281 0.12783898 -0.00000065
0.23955315 -0.49309814 -0.00000019
0.67407158 -0.18213682 -0.00000067
-0.78840271 -0.37669799 0.00000000
-0.36840664 0.26430808 -0.00000051
-0.33847762 -0.34583101 -0.00000028
0.42038680 -0.15514321 -0.00000043
0.08101461 -0.19522730 -0.00000038
-0.31521965 0.47950525 -0.00000061
0.17000281 -0.74409578 -0.00000003
-0.26553849 0.28580018 -0.00000062
0.03675224 -0.34914863 -0.00000028
-0.69008540 0.45352686 -0.00000014
0.30690078 0.32635251 -0.00000082
0.48860436 -0.29806212 -0.00000035
-0.14659880 0.36137348 -0.00000073
-0.06514583 0.24924051 -0.00000066
-0.09227215 -0.05303810 -0.00000047
-0.04644045 0.14488893 -0.00000059
-0.13637646 -0.14057655 -0.00000041
0.30023188 0.26790708 -0.00000075
-0.08640667 -0.78625585 -0.00000001
0.23241475 -0.43645789 -0.00000023
-0.43256890 0.65165344 -0.00000046
0.08985547 0.25380827 -0.00000066
-0.20445830 0.18034403 -0.00000061
0.06659789 0.52125968 -0.00000083
-0.77703316 0.08538283 -0.00000003
-0.75706529 0.53555724 -0.00000005
0.21780108 0.52727412 -0.00000094
-0.60525301 -0.33333820 -0.00000015
0.09388837 -0.14141822 -0.00000041
0.18355273 0.09035016 -0.00000056
-0.27821775 -0.75408297 -0.00000003
0.22974144 0.23428264 0.33929754
-0.76725667 -0.67895972 0.00000000
-0.15827937 0.14730114 -0.00000059
-0.22929208 -0.15646245 -0.00000040
0.15664498 0.01079046 -0.00000051
0.51464712 0.13032232 0.15656335
-0.70130753 -0.38980430 -0.00000003
0.36201131 -0.36439930 -0.00000027
0.27165867 0.36769127 -0.00000083
0.24135804 -0.59913142 -0.00000013
-0.16488511 0.65036264 -0.00000079
-0.02524493 -0.55446100 -0.00000015
-0.38800799 -0.65410339 -0.00000009
0.05085118 -0.48988891 -0.00000019
-0.64578538 0.77155653 -0.00000019
-0.47322136 -0.00368022 -0.00000035
0.21137207 0.04703009 -0.00000053
0.31969706 -0.04310359 -0.00000047
-0.22759706 0.07488127 -0.00000055
0.64839696 -0.44323740 -0.00000037
0.72869315 -0.09501980 -0.00000082
0.48406267 -0.15333455 -0.00000050
-0.17077580 -0.27359561 -0.00000033
0.41533645 -0.77226763 -0.00000002
-0.41070680 0.21700253 -0.00000046
0.23147156 0.19201065 0.38024026
-0.19690350 0.24777979 -0.00000065
-0.78403815 -0.40168498 0.00000000
0.59363300 0.11023287 0.09708385
-0.31979996 0.57748651 -0.00000060
-0.13359820 -0.19811860 -0.00000038
-0.14775732 0.39034466 -0.00000074
0.31136915 0.34705687 -0.00000085
-0.45114483 -0.06293235 -0.00000036
-0.15186744 -0.41523046 -0.00000024
0.26431606 0.22388174 0.31488510
-0.26756362 -0.40918652 -0.00000024
-0.04787950 0.38003683 -0.00000074
-0.03698755 0.64633817 -0.00000090
-0.65214048 0.65865947 -0.00000018
0.04593522 -0.32718596 -0.00000030
-0.35040665 -0.78087228 -0.00000001
-0.73616502 0.42487727 -0.00000008
0.17136802 0.33097586 0.30059840
0.71232724 -0.58804968 -0.00000026
0.24334987 -0.03968234 -0.00000048
0.00087588 -0.07042592 -0.00000046
0.01018025 0.72173763 -0.00000095
-0.26684397 0.28696286 -0.00000062
0.03654601 -0.29203006 -0.00000032
-0.02529958 0.30762753 -0.00000069
0.15036164 0.57166600 0.07874228
-0.25934708 -0.29181865 -0.00000032
-0.49468758 -0.09551689 -0.00000031
-0.31783946 0.42668949 -0.00000059
-0.78512637 -0.05106801 -0.00000001
-0.28949236 -0.10143276 -0.00000044
-0.24509320 -0.55770166 -0.00000015
0.41291648 0.12578904 0.26387923
0.04640119 0.71955362 -0.00000096
-0.62999044 -0.07877754 -0.00000017
0.49685868 0.12631268 -0.00000081
-0.74549075 0.22487793 -0.00000007
-0.14429980 -0.32897929 -0.00000029
-0.43734864 0.68379000 -0.00000045
-0.76784586 -0.65111692 0.00000000
0.59124024 -0.08325595 -0.00000069
0.50114837 -0.47274822 -0.00000020
-0.22500559 0.58689924 -0.00000072
0.33612724 -0.20765599 -0.00000037
-0.73355246 -0.57819614 0.00000000
0.76076966 -0.12203597 -0.00000083
0.27084864 -0.28628091 -0.00000032
0.33791775 0.08058559 -0.00000059
-0.71349300 0.61020205 -0.00000011
0.09433175 0.60277396 0.10391036
0.14101396 0.61838907 0.04099688
0.24370273 0.38606988 -0.00000082
0.53293023 0.00528529 -0.00000072
0.58968873 -0.59699403 -0.00000014
0.44788925 0.22364384 0.12973672
-0.53268521 0.35016645 -0.00000033
-0.28934099 -0.78905021 -0.00000001
-0.08471717 0.38992026 -0.00000074
0.26085834 0.45864521 -0.00000091
-0.28961670 0.04452827 -0.00000053
-0.55173843 -0.38558218 -0.00000019
-0.00468254 0.44874695 -0.00000078
-0.36091159 0.06093866 -0.00000048
0.75132867 -0.36231668 -0.00000055
0.61597452 -0.66610900 -0.00000009
-0.60346785 -0.19748317 -0.00000017
0.41562191 0.33202495 0.05286943
0.36437278 0.31547795 0.12133673
-0.76206859 0.55235583 -0.00000005
-0.22512443 0.07552858 -0.00000055
0.31717965 0.17898361 -0.00000068
0.74663769 -0.10024563 -0.00000084
-0.31551914 0.14611883 -0.00000054
0.42680386 -0.58866349 -0.00000013
0.30009824 -0.40783681 -0.00000025
-0.76265438 0.16932212 -0.00000005
0.18842973 -0.61667929 -0.00000011
-0.49956500 0.54832364 -0.00000038
0.28015178 -0.75826446 -0.00000003
0.46434315 0.17632701 0.16090519
0.04323193 -0.44133205 -0.00000022
0.54313507 -0.62625454 -0.00000011
0.24604572 -0.47213911 -0.00000020
0.38538115 0.23714940 0.17922439
0.58042296 -0.23290887 -0.00000052
-0.18591069 0.19697219 -0.00000062
-0.39223948 -0.13785338 -0.00000041
0.44118584 0.31181556 0.04746188
-0.53597713 0.02240298 -0.00000029
0.52834012 -0.69862108 -0.00000006
0.70897105 0.07230695 0.01890535
-0.50865502 0.32583769 -0.00000036
-0.15040282 0.05358497 -0.00000053
0.14876676 0.06796645 -0.00000054
-0.06442894 -0.71474621 -0.00000005
0.45415592 0.33421064 0.01174661
-0.17187823 -0.19208598 -0.00000038
-0.07572321 0.51808681 -0.00000082
-0.59713296 0.29235107 -0.00000025
-0.60177105 0.72738596 -0.00000025
-0.76202099 0.72944354 -0.00000005
0.77557142 -0.19895449 -0.00000075
-0.53299270 0.48112592 -0.00000033
-0.52974349 -0.10039102 -0.00000027
0.28387735 -0.49890438 -0.00000019
-0.14993915 -0.18224749 -0.00000039
0.32624406 -0.46243845 -0.00000021
-0.47461828 0.70792008 -0.00000041
-0.72381292 0.79779815 -0.00000010
-0.44659535 -0.36014587 -0.00000027
0.19514992 -0.69107742 -0.00000007
-0.70371034 0.72589025 -0.00000012
-0.02316881 -0.05302921 -0.00000047
-0.22504518 0.19261077 -0.00000062
0.11938936 0.55669487 -0.00000087
-0.68133932 0.16157118 -0.00000015
-0.57232838 -0.21314030 -0.00000020
0.52961080 -0.14249811 -0.00000056
0.56156302 -0.70629994 -0.00000006
-0.18857618 -0.37929994 -0.00000026
0.48280863 -0.26912108 -0.00000037
0.58513869 -0.48835510 -0.00000025
-0.33564805 -0.16914418 -0.00000039
0.15238001 0.36387271 -0.00000073
-0.07945723 -0.79649762 -0.00000000
0.75943971 -0.00614571 -0.00000095
-0.26676606 -0.33343595 -0.00000029
-0.32344806 -0.61179903 -0.00000012
0.20199413 0.03987276 -0.00000052
0.12913850 0.23544247 -0.00000065
-0.25809863 -0.10855478 -0.00000043
0.72202394 -0.16674252 -0.00000074
-0.61725526 -0.06009395 -0.00000018
-0.50215115 -0.78870850 -0.00000001
0.12234159 0.47538550 -0.00000080
-0.15583679 -0.59056021 -0.00000013
-0.06748811 -0.33717712 -0.00000029
-0.43229966 0.51598853 -0.00000046
0.04855463 -0.30614303 -0.00000031
0.77641422 -0.59427374 -0.00000026
0.14410400 0.13819525 -0.00000059
0.34206454 0.37559650 -0.00000091
-0.70588883 0.69803433 -0.00000012
-0.78896636 -0.10710710 0.00000000
-0.46075082 -0.51674212 -0.00000018
-0.37273382 0.07004017 -0.00000047
-0.51348253 0.25459311 -0.00000035
-0.19133776 0.50628297 -0.00000074
-0.05818955 -0.73822069 -0.00000004
-0.69475059 -0.74357283 0.00000000
0.38643105 0.06058158 -0.00000062
-0.53227357 -0.49919489 -0.00000019
0.08321193 0.67062047 0.04662265
-0.77920651 -0.43661260 0.00000000
-0.38844073 -0.05323001 -0.00000043
0.52050529 0.18037922 0.10009472
-0.78792464 -0.37005599 0.00000000
-0.05290001 -0.36790386 -0.00000027
0.42820457 -0.47559403 -0.00000020
0.36693728 -0.27186321 -0.00000033
0.09306024 0.29257187 -0.00000068
0.17680449 0.53943917 0.08458352
-0.77596717 0.22255999 -0.00000003
0.22951849 0.21572371 -0.00000063
0.16466176 -0.26563022 -0.00000033
-0.76767925 0.01963106 -0.00000004
-0.48961815 -0.61720966 -0.00000011
0.51818147 0.08336364 0.20041758
-0.05004892 -0.26080845 -0.00000034
0.63506923 -0.63872385 -0.00000014
-0.70311032 -0.76467580 0.00000000
0.77527332 -0.68981040 -0.00000014
-0.78684852 -0.47642344 0.00000000
-0.24858446 -0.16259843 -0.00000040
0.10459549 -0.28626602 -0.00000032
-0.42491194 -0.31601374 -0.00000030
0.18682811 0.45414692 0.16059675
-0.21676303 0.70621566 -0.00000073
0.55852035 -0.70913330 -0.00000006
0.15834882 0.16218784 -0.00000060
-0.71491940 -0.17282532 -0.00000006
-0.77120141 0.42713652 -0.00000004
0.57223719 -0.26870319 -0.00000047
0.05959412 -0.38969031 -0.00000026
-0.30795283 0.61777286 -0.00000062
-0.26693660 -0.43309779 -0.00000023
-0.63842134 -0.55442458 -0.00000007
-0.71581830 0.51968773 -0.00000011
-0.03464451 0.24424189 -0.00000065
0.09654603 0.59324841 0.11129394
0.22039519 -0.65640972 -0.00000009
-0.51176269 -0.75767443 -0.00000003
-0.53939434 0.24967847 -0.00000032
0.72207267 -0.25755604 -0.00000064
-0.37748910 0.12909222 -0.00000047
-0.02034251 -0.36204839 -0.00000027
0.26068822 -0.65720772 -0.00000009
0.62553018 0.10356358 -0.00000092
0.13438146 0.56088532 -0.00000089
-0.41227333 0.08963119 -0.00000043
0.07005281 0.02044124 -0.00000051
-0.04917340 0.62546195 -0.00000089
0.39316502 0.16484549 0.24438316
0.25314415 0.53522323 -0.00000099
0.23012854 0.06917302 -0.00000054
-0.31937938 -0.05445180 -0.00000047
0.20762695 -0.19510746 -0.00000038
-0.05974162 0.39949757 -0.00000075
0.70995798 -0.26792909 -0.00000062
0.42666385 -0.00732640 -0.00000059
-0.39735205 -0.56066982 -0.00000015
0.26851691 0.15173914 0.38349862
0.12492588 -0.19617053 -0.00000038
0.13283814 0.42347167 -0.00000076
0.33149283 0.13587363 0.33592294
-0.39899229 -0.50041299 -0.00000019
0.28244821 0.50850025 0.00913916
0.63696788 -0.59666620 -0.00000019
-0.57427780 0.06359394 -0.00000025
-0.73442559 0.25868834 -0.00000008
-0.62429893 0.25465274 -0.00000022
0.37163886 0.14525981 0.28590134
-0.57457141 0.28406928 -0.00000028
-0.53376573 0.22083830 -0.00000032
-0.08878391 -0.12546164 -0.00000042
-0.32637705 0.69396881 -0.00000059
0.60193074 0.07734410 0.12191833
0.52238637 0.15552794 0.12329232
-0.49799551 0.04364542 -0.00000033
-0.61963208 -0.66874292 -0.00000007
-0.26728292 0.07383740 -0.00000055
0.07833857 -0.24818813 -0.00000034
-0.21633573 0.19021944 -0.00000062
-0.53968652 -0.14765985 -0.00000025
-0.55904600 -0.61910995 -0.00000011
-0.08810801 -0.76657230 -0.00000002
-0.15742184 0.18188197 -0.00000061
0.57923829 -0.30072060 -0.00000044
0.22792264 -0.61840138 -0.00000011
0.64679145 -0.38590199 -0.00000042
0.50041504 -0.12682694 -0.00000055
-0.60553106 0.03374010 -0.00000021
-0.11888464 0.01564974 -0.00000051
0.30935575 -0.36532104 -0.00000027
-0.53592445 0.12778082 -0.00000031
-0.36333968 0.47557651 -0.00000055
0.33950309 0.15419618 0.30932985
0.72176337 -0.39371090 -0.00000050
0.06577604 0.56329179 0.17262069
-0.04806286 -0.42131821 -0.00000024
-0.08746062 -0.33043133 -0.00000029
-0.34135823 0.10460977 -0.00000051
-0.67379147 0.41672663 -0.00000016
-0.10100926 0.56929925 -0.00000085
-0.60365061 -0.06263491 -0.00000020
-0.40024081 -0.63643246 -0.00000010
-0.28204921 0.02251096 -0.00000051
-0.11191970 0.58262741 -0.00000084
0.10821180 0.06675748 -0.00000054
0.15569140 0.25270942 0.39547016
0.74562746 -0.20123849 -0.00000073
0.49702397 -0.31936598 -0.00000034
0.35056494 0.12630745 0.32632318
0.49741252 0.25632121 0.04672230
0.29700063 -0.12181836 -0.00000042
0.49303484 0.27011351 -0.00000096
0.14733440 0.15116274 -0.00000059
0.38625105 0.24497791 -0.00000082
-0.10845726 -0.44195884 -0.00000022
0.32017729 -0.59050225 -0.00000013
0.06545285 0.60463355 0.13119657
-0.51078089 0.06673131 -0.00000032
0.47471525 0.30265122 -0.00000098
-0.59904529 -0.07989907 -0.00000020
-0.56564734 -0.70154757 -0.00000006
-0.29397346 -0.06873757 -0.00000046
0.12713292 -0.23274582 -0.00000035
-0.30132828 -0.60818134 -0.00000012
-0.50576780 0.04153736 -0.00000032
0.27923684 0.20929107 0.31455185
0.31168034 0.22409400 0.26683856
0.17433091 0.53603996 0.09051446
0.03921306 0.03222169 -0.00000052
-0.44946784 0.28618409 -0.00000043
-0.58418865 0.28834067 -0.00000027
0.19686834 0.33121983 0.27459980
-0.31477261 0.00789657 -0.00000050
-0.63147685 0.12064249 -0.00000020
0.09232784 -0.16646470 -0.00000040
-0.20989113 -0.75665052 -0.00000003
-0.35041854 -0.20493530 -0.00000037
0.09858275 -0.31358648 -0.00000030
0.38658042 0.08683804 -0.00000065
0.48943300 0.16840838 0.14356398
-0.11568671 -0.60109352 -0.00000012
-0.15336267 -0.74584605 -0.00000003
-0.69663579 -0.51131260 -0.00000002
0.03553794 0.22072440 -0.00000064
0.28033543 -0.49184933 -0.00000019
-0.44874897 0.24767656 -0.00000042
-0.19408149 0.78682112 -0.00000076
0.30736186 0.25435589 0.24063863
-0.20790916 -0.52224614 -0.00000017
-0.31400070 -0.00278610 -0.00000050
0.64061817 0.08133892 0.07881353
-0.33348980 -0.59603405 -0.00000013
0.28980462 -0.04412609 -0.00000047
-0.28244716 -0.14949936 -0.00000041
-0.01194166 -0.52400398 -0.00000017
0.28532969 0.46187238 0.05331863
0.06883499 0.26683560 -0.00000067
-0.56140047 -0.09537545 -0.00000024
0.33236725 0.42378058 0.04428430
-0.50104251 -0.50675227 -0.00000018
0.40241547 -0.35445786 -0.00000028
-0.21473064 0.78720845 -0.00000073
0.33332600 0.22685864 0.24218710
-0.04731323 0.71071059 -0.00000093
0.18962899 0.54650329 -0.00000093
0.14735662 0.26279181 0.39370520
-0.23197542 -0.59328030 -0.00000013
0.24922570 -0.04676171 -0.00000047
0.44187684 -0.48020843 -0.00000020
-0.64579616 -0.04868749 -0.00000016
-0.67873044 -0.70917937 0.00000000
0.22858599 0.15497746 0.42055368
-0.50899636 -0.50650268 -0.00000018
-0.69575994 -0.34158319 -0.00000005
-0.68576036 -0.15374574 -0.00000009
-0.39134591 -0.20415929 -0.00000037
-0.41180429 -0.26418866 -0.00000033
-0.18154851 -0.49615429 -0.00000019
0.41969199 0.02248082 -0.00000062
0.46933105 0.13133525 0.20130509
0.31325302 0.43125703 -0.00000094
0.21352630 0.35451258 0.23425423
0.39859588 -0.37196267 -0.00000027
0.38764958 -0.41478551 -0.00000024
-0.41876699 0.46735715 -0.00000048
-0.35734835 -0.17106730 -0.00000039
0.58988239 -0.01317287 -0.00000076
0.31520073 0.38873197 0.09701636
-0.79308662 0.04464827 -0.00000001
-0.15543720 0.29376099 -0.00000068
0.36816721 0.21961120 0.21432057
0.55820090 -0.44865435 -0.00000026
-0.67334663 0.46152823 -0.00000016
-0.45623351 0.01234738 -0.00000037
0.21337981 0.41014935 0.17821532
-0.63553598 0.75274099 -0.00000021
-0.22790671 -0.13242813 -0.00000042
-0.64687356 0.06254798 -0.00000017
0.71161746 0.05125914 0.03748892
0.61880486 -0.53825014 -0.00000023
0.33473492 -0.35361832 -0.00000028
-0.77983938 0.62155785 -0.00000003
-0.72741883 0.36523534 -0.00000009
-0.59814180 -0.40025415 -0.00000014
0.13792111 0.28287261 -0.00000068
-0.43935641 0.07391710 -0.00000040
0.20018231 0.20450875 -0.00000063
0.08303749 0.04573012 -0.00000053
-0.01730052 -0.67293360 -0.00000008
0.74248041 -0.09306911 -0.00000084
-0.25720430 0.33434872 -0.00000064
-0.55629254 0.01774582 -0.00000026
0.28654873 -0.45688122 -0.00000021
0.50021403 -0.32445133 -0.00000033
0.38702197 -0.13732930 -0.00000041
0.74942965 -0.71369053 -0.00000011
-0.18993607 -0.39283252 -0.00000025
-0.04003921 0.45962173 -0.00000079
-0.55983741 0.76859338 -0.00000030
-0.75683469 0.28867000 -0.00000005
-0.14370178 -0.38747949 -0.00000026
0.30737940 -0.40625602 -0.00000025
-0.79552304 0.24217675 -0.00000001
0.12756286 0.66794154 0.00453811
-0.50517147 -0.78348727 -0.00000001
-0.41435390 -0.29070099 -0.00000032
0.47032968 -0.39968077 -0.00000025
0.26564820 0.09349598 -0.00000056
-0.59501133 -0.77894892 -0.00000001
-0.20249582 0.35814305 -0.00000070
0.14349236 0.57096249 0.08639003
-0.04993250 0.43796872 -0.00000077
0.65058584 -0.67680081 -0.00000012
0.15027887 0.47740160 0.17402245
-0.48025883 -0.09521384 -0.00000032
-0.33078343 0.25179283 -0.00000055
0.65095572 -0.27514641 -0.00000055
0.16306375 0.28558090 0.35482849
-0.06805273 -0.75614774 -0.00000003
-0.40102273 -0.78522228 -0.00000001
-0.60870364 0.32450475 -0.00000024
0.64107822 -0.12385470 -0.00000070
0.46548973 -0.45939510 -0.00000021
0.65942831 -0.10599391 -0.00000074
0.49310335 0.26451347 0.04280077
-0.16697680 0.53298059 -0.00000077
-0.41648230 0.60724058 -0.00000048
-0.61243924 0.40773908 -0.00000023
-0.51142768 0.67108595 -0.00000036
0.13411613 0.66064603 0.00528770
0.61879051 0.10614031 -0.00000092
-0.08548557 -0.24251815 -0.00000035
0.00250631 -0.78475275 -0.00000001
0.56253691 -0.61940060 -0.00000011
-0.43027828 -0.60366432 -0.00000012
-0.74164592 0.43456449 -0.00000007
-0.27233789 -0.71987371 -0.00000005
-0.22066229 0.19573711 -0.00000062
0.58358222 -0.53086871 -0.00000020
0.33021236 -0.72643978 -0.00000005
0.06383075 0.57302906 -0.00000086
-0.65759768 0.59285248 -0.00000018
0.53760282 0.13132309 0.13236972
0.22100025 -0.78458339 -0.00000001
-0.73940353 0.19115579 -0.00000008
-0.38429860 0.70014314 -0.00000052
0.02890732 0.69849403 -0.00000094
0.20249695 0.27747964 -0.00000067
0.40168653 -0.27592320 -0.00000033
0.25285773 -0.48652909 -0.00000020
0.61847197 0.14368789 -0.00000096
-0.06114491 0.32755265 -0.00000070
-0.08629769 0.54936924 -0.00000084
0.14247142 -0.16816533 -0.00000039
-0.60560649 -0.78512658 -0.00000001
0.48335405 0.28938622 0.02752759
-0.16352989 0.14636002 -0.00000059
-0.79271104 0.37453032 -0.00000001
0.14070446 -0.33046343 -0.00000029
0.42417819 -0.41095222 -0.00000024
0.10920467 -0.68272433 -0.00000007
-0.06130647 -0.46471173 -0.00000021
0.32484791 -0.65143518 -0.00000009
0.41551416 -0.01950988 -0.00000057
-0.43440338 0.09467131 -0.00000041
0.42472051 -0.25526395 -0.00000034
-0.23104471 0.54842439 -0.00000071
0.18014492 0.29163081 0.33146885
-0.12157590 -0.38862433 -0.00000026
0.17515450 -0.70931149 -0.00000006
0.62548784 -0.52857115 -0.00000025
-0.32727203 -0.09090158 -0.00000044
-0.12885042 0.16650393 -0.00000060
0.21105055 0.50333248 0.08646257
0.57063124 -0.42882641 -0.00000030
-0.28760220 -0.13514028 -0.00000042
0.73257530 -0.10699283 -0.00000081
0.09976226 -0.16224241 -0.00000040
-0.43481318 -0.76165254 -0.00000002
-0.16390435 0.66277758 -0.00000080
0.03035320 0.25041756 -0.00000066
0.14705414 0.43580059 -0.00000077
0.73301216 -0.33187964 -0.00000057
0.78263868 -0.62042444 -0.00000022
-0.75071333 0.64442905 -0.00000006
-0.55109716 0.54732257 -0.00000031
-0.20709723 0.28850379 -0.00000068
0.65642002 -0.79010357 -0.00000001
-0.39585992 0.31945410 -0.00000049
0.32652549 -0.21967445 -0.00000036
-0.57642673 -0.18227455 -0.00000021
-0.07691966 -0.46201899 -0.00000021
-0.53512648 -0.03145694 -0.00000028
-0.49072341 -0.01416505 -0.00000033
0.51680618 -0.27575140 -0.00000040
0.13568302 -0.26176467 -0.00000034
-0.66195932 -0.29727374 -0.00000009
0.48706754 -0.48782446 -0.00000020
0.00150930 0.26462528 -0.00000067
0.18851016 -0.70744916 -0.00000006
0.62933903 -0.11158216 -0.00000070
0.24403161 0.29983372 -0.00000073
0.04940321 -0.05394930 -0.00000047
-0.15337365 0.46476991 -0.00000077
-0.77250739 0.48953604 -0.00000003
0.47643728 0.03921295 -0.00000070
-0.56588994 0.38268588 -0.00000029
-0.56111242 -0.19467432 -0.00000022
0.33127248 0.21801019 0.25319683
0.20130961 -0.06228726 -0.00000046
-0.76007707 0.72434659 -0.00000005
-0.73622031 -0.31054063 -0.00000001
0.17496963 0.18872360 0.44061992
0.72627403 -0.61414500 -0.00000023
0.68950531 -0.63933198 -0.00000020
-0.20538256 0.52861011 -0.00000073
0.44471252 0.14698689 -0.00000078
0.72842544 -0.09931715 -0.00000082
-0.25402123 0.38673851 -0.00000065
-0.20727815 0.19872170 -0.00000062
-0.06876149 -0.75643705 -0.00000003
-0.68117823 0.77418649 -0.00000015
0.71741278 -0.41254310 -0.00000047
-0.67228312 -0.12120891 -0.00000011
0.49418905 -0.15405112 -0.00000051
0.09053130 -0.40113390 -0.00000025
-0.26942350 -0.76730997 -0.00000002
-0.56208367 -0.62231405 -0.00000011
0.48042813 -0.61956569 -0.00000011
0.46287590 0.19125182 0.14731441
0.18982589 0.20871887 0.40542393
-0.58139102 -0.78013457 -0.00000001
-0.62689393 -0.70119991 -0.00000006
0.00701322 0.14611878 -0.00000059
0.74460464 0.04422381 -0.00000099
-0.27025020 -0.12271411 -0.00000042
0.29501516 0.38444834 0.12172780
0.10708475 0.19477598 -0.00000062
-0.03966565 0.46008668 -0.00000079
-0.34771050 0.37201598 -0.00000055
-0.34979505 0.14546430 -0.00000051
-0.51192418 0.42435045 -0.00000036
0.33892128 -0.51734091 -0.00000018
0.47393268 0.04830607 -0.00000070
0.22398812 0.17254579 0.40745493
0.32014768 0.18699173 -0.00000069
