ply
format ascii 1.0
element vertex 1374
property float x
property float y
property float z
end_header
-0.50545435 -0.73059500 -0.00000279
-0.52173064 -0.75797221 0.00000252
-0.53586218 -0.49369426 0.00562080
-0.57845119 -0.77948664 0.00000270
-0.16476220 0.40221524 0.15949828
-0.15978365 -0.78798300 -0.00000092
-0.20315648 0.07492396 0.00000837
-0.37262418 -0.72946408 0.00000195
-0.18384335 -0.63544710 -0.00000049
-0.11820283 0.35187313 0.00000758
-0.25544475 0.04047949 -0.00000338
-0.35140336 -0.04838239 0.34702630
-0.34339162 -0.27720217 0.00000351
-0.46831378 -0.33062805 0.27388717
-0.66486956 -0.41488870 -0.08622021
-0.13904264 0.24583383 0.00000806
-0.27445387 0.13739978 0.05749905
-0.01828574 0.27495298 -0.00000526
-0.29095708 0.05996527 0.00000454
-0.23879951 0.24973818 -0.00579611
-0.16109281 0.31282326 0.00000490
-0.18790452 0.42407977 -0.01716615
-0.02528161 -0.35352722 0.00000152
-0.71983705 -0.77029152 -0.03701475
-0.51262788 -0.43761060 0.24128543
-0.51839852 -0.69289178 0.00000275
-0.03960929 0.69657785 0.00000618
-0.06341654 -0.56157532 0.00000051
-0.57707878 -0.63743165 0.00000322
-0.22144997 0.26536409 0.01892886
-0.41907117 -0.00949279 -0.04467905
-0.11333063 0.40386570 0.00000503
-0.22671856 0.25264636 0.11926830
-0.45416950 -0.52094098 0.00000310
-0.38917056 -0.79005792 0.00000180
-0.05333800 0.59081425 0.00000290
-0.42374312 -0.00355727 -0.04847868
-0.69764145 -0.17291608 -0.15716367
-0.01961067 -0.25677452 0.00000213
-0.14201158 -0.38276324 0.00000221
-0.37196571 0.03194954 -0.02870900
-0.07714257 0.35687144 -0.00000164
-0.06675744 -0.67384968 0.00000007
-0.30378169 0.19697170 -0.02879977
-0.16582601 0.39965223 0.02090992
-0.24203601 -0.46899216 0.00000234
-0.72886380 -0.45781622 -0.11087008
-0.25061744 0.05383743 -0.00000323
-0.12073491 -0.33103488 0.00000231
-0.01713442 0.46878721 0.00000823
-0.39508672 -0.15383216 0.01153813
-0.26430163 0.16190553 0.22872974
-0.04798481 0.26856510 0.00000422
-0.26656560 -0.14681969 0.00000084
-0.31445473 0.04082703 0.11175434
-0.51304725 0.23307387 -0.14840068
-0.09929762 0.56026907 0.03164968
-0.36828092 -0.41469921 -0.00000078
-0.30809679 -0.24780888 0.00000021
-0.06862177 0.22990172 -0.00000476
-0.21827555 0.23129576 0.00000697
-0.15864801 0.28992971 0.00000313
-0.09327411 0.40902207 0.00000397
-0.37370043 -0.10220856 0.31441992
-0.16948420 -0.22255321 0.00000114
-0.74840183 -0.43869516 -0.12551616
-0.08022298 0.60631489 0.06107195
-0.44644345 -0.27782305 0.13406844
-0.22095933 -0.19343319 0.00000094
-0.23759762 0.25204562 -0.00566154
-0.32287840 -0.11301319 0.00000404
-0.07506807 0.52052036 0.00000529
-0.00537939 0.06909143 0.00000328
-0.11583302 0.03586872 0.00000244
-0.45079088 -0.60383527 0.00000278
-0.10268745 0.48362281 0.00000682
-0.11155386 0.53068048 0.03144842
-0.38621378 0.13491236 -0.05905817
-0.17229615 0.43898918 -0.01213659
-0.19034217 -0.71668585 0.00000117
-0.30646577 0.06011463 0.22369654
-0.71590345 -0.05300359 -0.19339885
-0.20927086 0.31091934 -0.00356290
-0.31320690 0.19615418 -0.03364664
-0.50859869 -0.53640177 -0.00000208
-0.40123437 -0.73280608 0.00000207
-0.05098646 0.51240855 0.00000107
-0.02732392 0.07116943 0.00000310
-0.06250197 0.27635432 0.00000898
-0.01185996 0.64775460 0.00000696
-0.02194365 0.54284233 0.00000760
-0.48477303 0.05280084 -0.09348853
-0.42052909 0.22956468 -0.09827524
-0.26009611 -0.37938748 0.00000001
-0.47491778 -0.01476527 -0.07330326
-0.21832431 0.49092064 -0.04816246
-0.47567999 0.22381855 -0.12642310
-0.48353516 -0.55614844 0.00000310
-0.12261173 0.50397944 0.05783325
-0.14935244 0.20148648 0.00000824
-0.36521623 -0.58188974 -0.00000139
-0.37187085 -0.09779290 0.24449207
-0.20562593 0.18347359 -0.00000167
-0.10463907 -0.76897658 0.00000059
-0.23833643 -0.49482767 0.00000222
-0.17044377 0.04273160 -0.00000589
-0.22541677 0.02115160 0.00000844
-0.54937287 -0.52631890 0.25191091
-0.21997668 0.04193807 0.00000183
-0.21432172 0.45718523 -0.03857377
-0.11205029 -0.73680680 -0.00000044
-0.08094431 -0.64392850 0.00000095
-0.56654614 -0.56777777 0.19320773
-0.42268056 -0.22045880 0.25205567
-0.14215217 -0.11520489 0.00000171
-0.07374586 0.25625414 0.00000352
-0.13015485 0.28783510 0.00000788
-0.00022317 0.40304275 0.00000451
-0.01668082 0.50643912 0.00000497
-0.01667295 0.05122975 0.00001136
-0.17057036 0.12293971 -0.00000409
-0.32131339 -0.64791046 0.00000202
-0.05055598 0.38345811 -0.00000185
-0.38514063 -0.12982188 0.05643753
-0.60125839 0.11802718 -0.17003440
-0.41633884 0.21633467 -0.09311701
-0.72374250 -0.23169726 -0.15809883
-0.58133176 -0.60347250 0.15530785
-0.32699834 0.01053530 0.34847279
-0.53445228 0.17593883 -0.14719423
-0.06744029 0.46225365 0.00000504
-0.44225940 -0.47579160 0.00000322
-0.70991875 0.01420673 -0.20505632
-0.07457815 -0.52603076 0.00000136
-0.71085980 -0.10968045 -0.17818605
-0.05877672 -0.55320221 0.00000057
-0.24409906 0.21067851 0.17141450
-0.13776381 0.17243144 0.00000427
-0.25999579 0.32711302 -0.03419585
-0.05991381 -0.29546046 0.00000216
-0.63019986 -0.72144762 0.16091733
-0.45597567 -0.30083921 0.22154551
-0.25529632 0.18364646 0.22136779
-0.23436751 0.17978118 0.00000712
-0.03990551 0.56951748 0.00000489
-0.40029019 0.28854243 -0.10051044
-0.14028086 -0.62015057 -0.00000017
-0.43652175 -0.71574750 -0.00000232
-0.33167729 0.17163876 -0.03808237
-0.00729321 -0.22735809 0.00000210
-0.43438307 -0.37944478 -0.00000104
-0.10489561 0.36753040 -0.00000057
-0.34118383 -0.55543678 0.00000246
-0.23627577 0.16502722 0.00000219
-0.01352207 0.18429824 0.00000375
-0.14501437 0.38583769 0.00000692
-0.09333941 -0.65207368 0.00000098
-0.09990215 -0.10238482 0.00000201
-0.59061688 -0.27661566 -0.07716381
-0.26933245 0.27311810 -0.02724571
-0.73296197 -0.01950897 -0.20989849
-0.06627973 -0.44732904 0.00000092
-0.07076066 -0.30424876 0.00000218
-0.27004478 -0.20256937 0.00000346
-0.66344482 0.06508460 -0.19150787
-0.08169421 0.05228630 0.00000357
-0.11132159 -0.65912115 0.00000103
-0.30059295 0.07429217 0.11692336
-0.20324012 0.30932953 0.09142325
-0.23218690 0.23943499 0.23928290
-0.21445964 -0.30762024 0.00000282
-0.59337418 -0.20074919 -0.09539689
-0.00398154 -0.03647244 0.00000284
-0.32538456 0.01444770 0.14841598
-0.03620554 -0.64091970 0.00000038
-0.05592606 0.58315440 0.00000544
-0.43896346 -0.25976161 0.05150090
-0.20579874 0.30314696 0.08629705
-0.01808537 0.48249153 0.00000489
-0.40247106 -0.18171566 -0.00000011
-0.23080025 0.50194151 -0.05725175
-0.33870434 -0.54746637 0.00000248
-0.04642964 -0.17392487 0.00000207
-0.33181593 -0.15916791 0.00000391
-0.66714446 -0.55612908 -0.05622733
-0.22870889 -0.12290827 0.00000357
-0.21543341 -0.70156126 0.00000134
-0.13552687 0.17719830 0.00000285
-0.23594376 -0.14239788 0.00000353
-0.41088018 -0.11877766 -0.01616397
-0.36866961 -0.79758636 0.00000168
-0.43564934 0.03911044 -0.06426065
-0.33584049 0.00760489 -0.00405578
-0.17918806 0.43442257 -0.01480190
-0.16474862 0.20531755 -0.00000241
-0.07539061 0.60041466 0.00000636
-0.11926907 0.33412726 0.00000353
-0.16478429 0.05104535 0.00000394
-0.23696406 -0.45399087 -0.00000013
-0.16913631 0.36758392 0.00000669
-0.54601858 0.10203190 -0.13703376
-0.44802688 0.08159467 -0.08024704
-0.04987220 -0.64723322 0.00000080
-0.29509473 0.08756873 0.19348739
-0.25877266 0.21643959 -0.00908941
-0.23298701 0.23750563 0.16525069
-0.60720751 -0.66594055 0.14265637
-0.31311922 -0.29328202 0.00000001
-0.18488209 0.35364566 0.04964461
-0.16536470 -0.45067842 0.00000206
-0.69672728 -0.16041527 -0.15943803
-0.38504883 -0.69392951 -0.00000193
-0.49786390 -0.44213922 -0.00000166
-0.26458108 -0.78547815 -0.00000154
-0.35033426 -0.04578304 0.12398674
-0.03254057 0.70788953 0.00000491
-0.36550263 0.14950265 -0.05123144
-0.05486445 0.33846679 0.00000452
-0.06165864 -0.00456198 0.00000326
-0.05102331 0.03008265 -0.00000978
-0.38161734 -0.22849924 0.00000387
-0.41235750 -0.19553856 0.30149212
-0.31054281 -0.42484380 -0.00000047
-0.09329943 -0.17709109 0.00000177
-0.37649694 -0.10895693 0.13002669
-0.10114348 -0.16445904 0.00000177
-0.49343473 -0.29238094 -0.02184263
-0.31887769 0.03016818 0.00525325
-0.36543941 -0.08225821 0.03843106
-0.12106964 -0.32402251 0.00000233
-0.50368958 -0.77889535 -0.00000296
-0.28028710 -0.30315628 0.00000313
-0.08527799 -0.37623488 0.00000198
-0.31988414 0.02771254 0.28894346
-0.10313480 0.53149074 0.00000437
-0.20501615 0.31213672 -0.00155936
-0.74025071 -0.50985999 -0.10544478
-0.14693055 0.21577105 0.00000292
-0.30641442 0.07255907 -0.00271129
-0.23959593 0.12798555 0.00000456
-0.47954828 -0.34539459 -0.00272237
-0.28857351 -0.55197462 0.00000224
-0.01354593 0.38642071 -0.00000290
-0.07756819 0.61272329 0.08271718
-0.40537274 -0.25078719 0.00000389
-0.22463437 -0.53955358 -0.00000038
-0.41922630 -0.21212082 0.28797037
-0.20323206 0.56986176 -0.05755366
-0.41951746 -0.76963069 0.00000201
-0.35530137 -0.22835182 0.00000375
-0.28885726 0.10262908 0.00030473
-0.05987410 0.61156930 0.00000493
-0.27703538 0.13116514 0.21633371
-0.34734461 -0.03857990 0.20860477
-0.57190569 -0.61271071 -0.00000275
-0.40297470 -0.53303856 -0.00000143
-0.09187865 -0.03010708 0.00000330
-0.27405355 -0.07482295 0.00000396
-0.11899297 0.15217352 -0.00000499
-0.07578460 -0.09592291 0.00000298
-0.07848298 0.18992751 0.00000324
-0.35162340 -0.04890927 0.19371525
-0.14360817 0.39745548 0.00000685
-0.19660791 0.32533776 0.12843586
-0.39079322 -0.14346813 0.04847541
-0.51043465 -0.43231607 0.29414863
-0.57004148 -0.57621606 0.18439698
-0.31111199 -0.36646076 0.00000303
-0.02089999 0.35768190 0.00000900
-0.36207189 0.35646685 -0.09513146
-0.28430491 -0.63102321 0.00000192
-0.16341163 0.57204530 -0.03679501
-0.50862106 -0.61825510 0.00000298
-0.55497382 -0.56554471 -0.00000247
-0.03946124 0.55128356 0.00000525
-0.22038314 0.40043025 -0.02926727
-0.01792386 0.49310519 0.00000474
-0.13251697 -0.50704602 0.00000030
-0.11418643 0.27312819 0.00000823
-0.23211915 -0.04239349 0.00000389
-0.37629533 0.03480563 -0.03164548
-0.19980338 0.31762229 0.05429284
-0.61191304 -0.06221153 -0.13589488
-0.03264208 -0.47828589 0.00000135
-0.14467418 0.12868354 -0.00000474
-0.15532808 0.42499652 0.02094850
-0.43046767 0.22369469 -0.10227963
-0.12701889 0.49334098 0.08396702
-0.06783618 -0.59760585 0.00000107
-0.05447579 0.66847584 0.03934899
-0.33184015 -0.30432512 0.00000336
-0.23583071 0.09203789 0.00000192
-0.36634376 -0.08444379 0.09898582
-0.45607587 -0.39221988 0.00000359
-0.12253792 -0.01458903 0.00000350
-0.17736896 0.37178260 0.08572262
-0.00800770 0.39170105 -0.00000295
-0.32783528 -0.13639888 0.00000051
-0.11181883 0.38321166 0.00000376
-0.24500898 0.20849125 0.10670965
-0.14572905 0.51424177 -0.01459067
-0.07507536 0.55964780 0.00000286
-0.19049825 0.17057366 0.00000785
-0.67085149 -0.81958686 0.06957474
-0.63847380 -0.74142217 0.13336278
-0.55788646 -0.54686555 0.00405215
-0.25419234 0.28157469 -0.02104091
-0.05448710 -0.04619174 0.00000307
-0.21976552 -0.45884671 0.00000227
-0.38975462 -0.60774522 0.00000249
-0.43835972 -0.25830219 0.00260539
-0.46220551 -0.28948715 -0.00582402
-0.06576408 0.08985560 0.00000363
-0.19659761 0.32535622 0.19842229
-0.34573963 -0.03469742 0.00516659
-0.37573315 -0.30281541 -0.00000040
-0.17891359 0.27799780 0.00000485
-0.46867923 0.16986072 -0.11076641
-0.48079880 -0.36076916 0.26312543
-0.70045102 -0.46529755 -0.09406210
-0.00843116 -0.11915593 0.00000250
-0.49280691 -0.08123782 -0.06815873
-0.06832258 0.20584832 0.00000943
-0.11533384 0.17475812 0.00000895
-0.25652798 0.48160786 -0.06648265
-0.34003121 -0.02091066 0.13523399
-0.30826695 0.05576426 0.14893979
-0.21601401 0.27848777 0.01611063
-0.42543871 -0.22711714 0.24099136
-0.40656161 0.32650054 -0.11224203
-0.19047874 0.34012893 0.18722544
-0.66102537 -0.31665971 -0.10587287
-0.01140727 0.08839461 0.00001116
-0.67493201 0.04817886 -0.19389992
-0.00569127 -0.49814246 0.00000110
-0.50119836 -0.41001714 0.23812677
-0.06520394 -0.11369989 0.00000218
-0.42997968 -0.46782588 0.00000319
-0.24475671 0.20910757 0.01837334
-0.01681197 -0.09039586 0.00000256
-0.24572005 0.08534291 0.00000443
-0.19580715 0.20468354 -0.00000149
-0.47570273 -0.33450509 -0.00307710
-0.43369337 -0.01980676 -0.05019986
-0.66754360 -0.10496060 -0.15612359
-0.28262636 0.11767433 0.13438838
-0.19458577 0.32399443 0.00000304
-0.22758930 -0.09691017 0.00000126
-0.57054567 0.15720391 -0.16230783
-0.53652111 -0.27692133 -0.04824105
-0.16093168 0.57934463 -0.03708499
-0.56846836 -0.57241831 0.22949247
-0.47391749 0.13867046 -0.10667053
-0.39922939 -0.16384278 0.25668186
-0.27261335 0.05385852 -0.00000256
-0.04849446 0.67206753 0.00000523
-0.04490569 0.15222432 0.00000330
-0.49704084 -0.13907361 -0.05763864
-0.03080979 -0.40701865 0.00000129
-0.48545958 -0.37201215 0.02220496
-0.40474478 -0.63421599 0.00000245
-0.15876148 0.60551280 -0.04170938
-0.08617349 -0.38214509 0.00000105
-0.25534301 0.00475434 0.00000417
-0.45727065 -0.68895576 -0.00000234
-0.67917966 -0.11779150 -0.15949545
-0.29976213 -0.71281998 0.00000168
-0.40348067 0.03330714 -0.04581935
-0.44518307 -0.46575881 -0.00000143
-0.26688391 0.15568397 0.07673126
-0.24520559 0.12625032 -0.00000176
-0.03942194 0.16758895 0.00000339
-0.17925735 0.36722002 0.18065882
-0.06319372 -0.22629038 0.00000244
-0.20916893 0.23109220 0.00000481
-0.45434412 -0.38291695 0.00000362
-0.09715537 -0.24251746 0.00000150
-0.19284026 0.32423622 0.00000666
-0.03338690 0.14226544 -0.00000779
-0.51858851 -0.53163974 0.00000335
-0.48004340 -0.39217567 -0.00000137
-0.20144984 0.27746930 0.00000688
-0.27382918 -0.38818905 -0.00000011
-0.09463605 0.07237692 0.00000370
-0.12866516 0.22562734 0.00000837
-0.30792897 -0.61146257 0.00000210
-0.31760654 0.03322024 0.04946575
-0.56725413 0.00566429 -0.12706824
-0.68335705 0.00487667 -0.18882662
-0.10665713 0.23230053 -0.00000355
-0.07642771 0.44441580 0.00000751
-0.30879859 0.04580635 -0.00000165
-0.09053240 0.58142539 0.06989158
-0.37925243 0.34108205 -0.10089705
-0.39587456 0.25603074 -0.09097181
-0.37182712 0.07598300 -0.03836404
-0.30772085 0.05707806 0.26967921
-0.00616736 0.68872816 0.00000555
-0.25164084 0.38248705 -0.04197598
-0.07930173 -0.40976408 0.00000182
-0.20520537 0.25114511 -0.00000016
-0.74606998 -0.35151290 -0.14353506
-0.64026261 0.04801963 -0.17537183
-0.55915249 -0.13191836 -0.09235052
-0.50796390 -0.62969821 0.00000294
-0.24536605 0.44402554 -0.05222458
-0.20059606 -0.12486113 0.00000132
-0.07402230 -0.51829570 0.00000061
-0.06784362 -0.32418168 0.00000209
-0.76131906 -0.37005097 -0.14757278
-0.30546104 0.44244903 -0.08393250
-0.33187932 -0.00124375 0.29446506
-0.31868045 0.03062684 0.21782118
-0.52855485 -0.50988471 0.00000348
-0.06816599 0.63542378 0.04181668
-0.18612281 -0.76739924 -0.00000100
-0.30121140 0.10047739 -0.00610461
-0.41701587 -0.68040980 0.00000234
-0.08823853 0.34091946 0.00000375
-0.42778838 -0.23279396 0.35238726
-0.27398941 -0.59979070 0.00000199
-0.27530373 -0.71516203 -0.00000134
-0.05612536 0.45587961 0.00000773
-0.52967198 -0.61647953 -0.00000251
-0.06217058 0.26104546 -0.00000425
-0.25838215 0.44651024 -0.05971745
-0.01099522 -0.27206715 0.00000203
-0.14275327 0.45535191 0.09749363
-0.11638903 -0.56813701 0.00000140
-0.27852864 0.15581640 -0.00623649
-0.29373708 -0.25539966 0.00000337
-0.61239353 -0.67846041 0.15149581
-0.30379487 0.40275367 -0.07427255
-0.07847602 -0.71915595 -0.00000017
-0.26139485 0.16892866 0.01540611
-0.04634036 0.68811678 0.03137947
-0.17830572 0.35513988 0.00000665
-0.26794518 0.43815731 -0.06297217
-0.21334476 0.07463264 0.00000199
-0.48038123 -0.35975256 0.03952768
-0.57758525 -0.60097287 0.00000336
-0.59819199 -0.64417251 0.02296664
-0.11100893 0.50630361 0.00000423
-0.00720537 0.32073331 0.00000424
-0.61571656 -0.47296153 -0.04717062
-0.63439999 -0.17947312 -0.12198130
-0.17667482 -0.67269578 -0.00000059
-0.25253447 0.19032511 0.08681688
-0.09044817 -0.61524519 0.00000015
-0.14661363 0.32817466 0.00000489
-0.38374119 0.17887025 -0.06745154
-0.13345479 -0.53946067 0.00000017
-0.06328962 -0.71499158 -0.00000006
-0.36009059 0.15847482 -0.05032981
-0.03923949 -0.48287938 0.00000095
-0.38534747 -0.48400475 0.00000293
-0.02248192 0.37725417 -0.00000283
-0.49031608 -0.10129278 -0.06239906
-0.17235400 -0.12570320 0.00000331
-0.21766374 0.03408763 0.00000846
-0.35544486 -0.05812992 0.05746452
-0.55930099 -0.55028688 0.21577822
-0.10213737 0.07651209 0.00000267
-0.34539853 -0.03388596 0.35002367
-0.50645231 -0.42270208 0.30541533
-0.15838836 0.41761170 0.06119666
-0.53045591 -0.52880815 0.00000342
-0.65139779 -0.77262268 0.14288865
-0.46668173 0.27484473 -0.13289778
-0.12125216 0.50726556 0.05072439
-0.30125934 -0.51761808 -0.00000076
-0.61724158 -0.60699035 -0.01837110
-0.12058490 0.44727400 0.00000522
-0.13347076 -0.59304791 -0.00000003
-0.01614908 -0.54922842 0.00000101
-0.25441785 0.18577291 0.00867966
-0.34604230 -0.33979924 -0.00000036
-0.54915037 -0.52577493 0.00875079
-0.37454546 -0.10424582 0.13455172
-0.24341854 0.21232752 0.01099913
-0.37738016 0.21564578 -0.07218193
-0.67022545 0.04936288 -0.19165109
-0.10808022 -0.19536590 0.00000162
-0.04272018 0.45758387 0.00000792
-0.05183087 0.11445836 0.00001036
-0.20054698 -0.64337208 0.00000150
-0.24045348 0.21948012 0.21462187
-0.05975303 0.04928765 -0.00000909
-0.64863249 -0.01085079 -0.16682929
-0.23011396 0.39206125 -0.03260693
-0.38534378 -0.13032280 0.33243824
-0.05897381 0.21090400 -0.00000547
-0.15493636 0.11412644 0.00000881
-0.05849534 0.31483634 0.00000445
-0.63053697 -0.72661951 -0.00000353
-0.24491776 0.20870175 0.17804586
-0.36119475 0.29705036 -0.08153512
-0.10377933 0.40234931 0.00000018
-0.54736538 0.13728825 -0.14554297
-0.42988832 -0.06958442 -0.03717209
-0.13077896 0.48426611 0.05277535
-0.14137523 0.23062427 0.00000450
-0.35592230 -0.05929269 0.35706567
-0.23705333 0.22770506 0.01525944
-0.11513059 0.14688872 0.00000916
-0.02620243 -0.61430235 0.00000081
-0.32283242 0.32673738 -0.06763267
-0.25522165 0.50909326 -0.07185890
-0.06823010 -0.32762954 0.00000136
-0.05208071 -0.37600431 0.00000183
-0.26189571 0.12397869 0.00000465
-0.30107451 0.38790318 -0.06954105
-0.04596388 0.60630450 0.00000303
-0.09502692 -0.72437785 0.00000071
-0.33701424 -0.00464043 -0.00198118
-0.42971766 0.18665628 -0.09369612
-0.14572946 0.05492981 0.00000233
-0.37272857 -0.75237377 0.00000187
-0.34197753 0.35210250 -0.08344916
-0.40436725 0.28890645 -0.10276561
-0.23031754 0.24394950 0.22040131
-0.25907626 -0.31382627 0.00000026
-0.32111631 -0.66385991 0.00000196
-0.44700157 -0.39987022 0.00000352
-0.12416005 0.31320295 -0.00000121
-0.10900036 0.53684004 0.06262537
-0.25648101 -0.54553099 0.00000212
-0.02241923 -0.11479999 0.00000243
-0.00418565 -0.07199098 0.00000270
-0.27852339 0.33097432 -0.04493393
-0.27872673 0.12708543 0.17400871
-0.24213323 0.21542754 0.09013662
-0.04249638 0.20641776 0.00000981
-0.17029250 0.41982332 -0.00683102
-0.25570356 0.18267264 0.10802979
-0.16561659 0.34265084 0.00000693
-0.71261646 -0.30926497 -0.13502590
-0.09326831 -0.30760730 0.00000128
-0.00304231 0.04674947 -0.00001086
-0.36319407 0.11986851 -0.04345537
-0.48063194 -0.42819840 -0.00000151
-0.30106325 0.14232032 -0.01527478
-0.33463912 -0.00790459 0.27284075
-0.29212102 0.09475319 0.12755448
-0.33394771 -0.00624223 0.35577898
-0.03222079 0.37374595 0.00000421
-0.57424434 -0.58636094 0.10794171
-0.24905910 -0.03006146 0.00000138
-0.30168350 0.46013677 -0.08582554
-0.33665549 -0.01277952 0.35183402
-0.69180434 -0.59435125 -0.06093600
-0.35323351 -0.15026583 0.00000404
-0.21868798 0.30173806 -0.00655753
-0.04947743 0.23240712 0.00000410
-0.54469072 -0.51501404 0.15818430
-0.09735350 -0.62822738 0.00000108
-0.12061186 0.50880972 0.07061102
-0.22293254 -0.74245161 0.00000122
-0.68818767 -0.35797992 -0.11123202
-0.47244830 -0.34060403 0.12568611
-0.12827261 0.35695555 0.00000492
-0.06279488 0.01167711 0.00000333
-0.11921015 -0.50625144 0.00000038
-0.30727209 0.16658153 -0.02394703
-0.37655121 -0.17658671 0.00000007
-0.16331208 -0.68913905 -0.00000057
-0.43535592 0.27578532 -0.11639572
-0.13858472 0.34949209 0.00000347
-0.09398588 -0.00397485 0.00000341
-0.71754971 -0.71051967 -0.04900114
-0.62786317 -0.67851914 -0.00823285
-0.53374899 -0.48859571 0.08899154
-0.03045636 0.55005053 0.00000130
-0.15920212 0.31418548 0.00000490
-0.65915407 -0.69466472 -0.02135644
-0.53155126 -0.59530223 -0.00000244
-0.44855243 -0.34452843 0.00000374
-0.30403932 -0.07744208 0.00000087
-0.62857772 -0.71753149 0.10872766
-0.22607863 0.15185430 -0.00000176
-0.33747428 -0.17349151 0.00000388
-0.35995409 -0.34953565 0.00000332
-0.09473421 -0.55621289 0.00000034
-0.03218585 -0.03220081 0.00000302
-0.40381693 -0.17492014 0.31042090
-0.47905864 -0.19046447 -0.03669220
-0.36700003 -0.08603063 0.16391170
-0.66369028 -0.80229857 0.02075646
-0.21138184 -0.09577702 0.00000360
-0.32819215 0.00765491 0.32825670
-0.19699077 0.32441122 0.08841290
-0.50588776 0.10841237 -0.11703688
-0.45170497 -0.32601952 0.00000382
-0.49473708 -0.39441119 0.05292526
-0.07693742 -0.26300092 0.00000236
-0.43703251 -0.25509811 0.00492246
-0.32345808 0.01909340 0.04847995
-0.53174284 -0.11725995 -0.08096864
-0.73371459 -0.09951112 -0.19262389
-0.16116862 0.23217003 -0.00000191
-0.50813970 -0.06526697 -0.07986607
-0.01690591 0.54484402 0.00000766
-0.41198767 -0.19464561 0.29819201
-0.15710238 0.38915786 0.00000351
-0.24455660 0.20957775 0.07062535
-0.53798121 -0.49881665 0.17972043
-0.30456781 0.06469188 0.22511851
-0.07416223 0.41262063 0.00000488
-0.29482610 0.08821043 0.27620491
-0.02338011 -0.19353145 0.00000213
-0.01031142 0.38695032 -0.00000298
-0.38580376 -0.42869855 0.00000314
-0.32845510 0.41163715 -0.08939003
-0.37315081 0.09729016 -0.04377782
-0.42063008 -0.55296092 -0.00000161
-0.33071289 0.00156927 0.29747779
-0.19124536 0.26743106 0.00000711
-0.66619521 -0.61000819 -0.04381668
-0.04474992 -0.41241712 0.00000118
-0.37710006 -0.29150269 0.00000361
-0.45174759 -0.55383837 0.00000297
-0.12715024 0.21367735 0.00000848
-0.04898530 0.40903645 0.00000476
-0.13292202 0.47908727 0.08140688
-0.06904372 0.16447395 0.00000320
-0.22964437 0.24557888 0.07559107
-0.31664585 0.43367831 -0.08796074
-0.36819765 -0.50033461 0.00000279
-0.03860743 0.09376027 -0.00000873
-0.10932777 0.38113529 0.00000377
-0.44243254 -0.26814223 0.19657789
-0.17588396 0.28874974 0.00000488
-0.16360978 0.04624314 0.00000391
-0.21983540 0.49252725 -0.04932346
-0.51187585 0.01346190 -0.09925116
-0.46420858 -0.32071349 0.17637596
-0.40813020 -0.39368794 -0.00000094
-0.47948598 -0.40302711 0.00000366
-0.00587117 0.77542976 0.00000593
-0.30442271 0.06105453 -0.00000144
-0.53711624 -0.49672816 0.17258706
-0.18716648 0.43327868 -0.01880687
-0.55027751 0.15395008 -0.15077767
-0.45610801 0.14410148 -0.09836897
-0.01866061 -0.73234691 0.00000034
-0.60888149 -0.08266469 -0.12975881
-0.30933083 0.13113978 -0.01721451
-0.27600108 0.03512260 0.00000147
-0.45423770 0.10446488 -0.08861335
-0.18121003 -0.33963318 0.00000255
-0.01840781 0.43449230 -0.00000167
-0.41728536 -0.20743097 0.18277840
-0.72116024 -0.19113607 -0.16568321
-0.52268990 -0.32219845 -0.03085961
-0.18768899 -0.59442957 0.00000162
-0.69974556 -0.25368769 -0.14043995
-0.72919438 -0.26355051 -0.15396890
-0.41294256 -0.19694681 0.19033639
-0.48524138 0.18316917 -0.12254257
-0.14682984 0.21018983 -0.00000284
-0.27738149 0.13033974 0.09280720
-0.44477998 -0.79417204 -0.00000266
-0.56382704 -0.56121346 0.21504411
-0.12255001 0.47156010 0.00000532
-0.30223779 0.19965298 -0.02856865
-0.42800506 -0.23330565 0.05146484
-0.21040751 -0.14959993 0.00000339
-0.06342741 0.64686593 0.02979546
-0.54237850 -0.08902982 -0.09287911
-0.20861211 0.15160404 -0.00000229
-0.03798576 0.62689771 0.00000325
-0.31571883 -0.14800472 0.00000387
-0.06592176 0.05382121 0.00001060
-0.04831203 -0.21820508 0.00000189
-0.36508721 -0.21668460 0.00000384
-0.32485227 0.01571724 0.33674072
-0.62733364 0.10846598 -0.18183070
-0.54690373 -0.60724367 0.00000320
-0.45312531 -0.76562236 -0.00000261
-0.32367343 0.25472005 -0.05216725
-0.10845083 0.20842104 0.00000313
-0.20165595 0.28498289 0.00000285
-0.21730922 0.04723427 0.00000187
-0.64671374 -0.14059335 -0.13713986
-0.13949524 0.46321907 0.10698111
-0.47739008 0.08413300 -0.09647089
-0.20489103 -0.40241482 0.00000242
-0.08315023 0.11039739 0.00000379
-0.05538140 0.31098253 -0.00000333
-0.69814823 -0.27830003 -0.13414995
-0.10878978 0.19360633 0.00000891
-0.44830456 -0.63770732 0.00000264
-0.27513529 0.36011168 -0.04956286
-0.32193223 0.02276920 0.25717488
-0.27832680 0.43722803 -0.06830463
-0.43118934 -0.35328418 0.00000363
-0.35142591 -0.04843267 0.19888645
-0.29063992 -0.05611970 0.00000411
-0.29409411 -0.37766216 -0.00000019
-0.02741132 0.25972266 0.00000381
-0.14578461 0.35846256 0.00000500
-0.46701383 0.07938002 -0.08988577
-0.65225492 -0.30873518 -0.10294551
-0.11351720 -0.72659210 0.00000079
-0.04087866 -0.45486144 0.00000148
-0.31676667 0.03524337 0.16812307
-0.17611929 0.35599354 0.00000667
-0.54146689 -0.50723119 0.16231108
-0.01256921 0.20891542 0.00000384
-0.08093763 0.51130791 0.00000195
-0.04984711 0.41908854 0.00000427
-0.22730991 0.06543157 0.00000187
-0.04036968 0.33181682 -0.00000332
-0.11115958 0.37831712 -0.00000013
-0.33964902 0.00359914 -0.00520708
-0.22701686 -0.15050500 0.00000346
-0.28335836 -0.05073950 0.00000110
-0.24078033 -0.01855835 0.00000402
-0.53548331 -0.49278316 0.09992242
-0.06940081 0.46244664 0.00000505
-0.58589344 -0.11650128 -0.11002073
-0.41335621 -0.62805257 0.00000252
-0.06324158 -0.39335499 0.00000114
-0.09414414 0.23304165 0.00000883
-0.21400986 0.28332237 0.11790300
-0.30194369 0.11379147 -0.00944112
-0.42670702 0.17274995 -0.08901588
-0.53247923 -0.62456529 -0.00000256
-0.30967373 -0.05803038 0.00000091
-0.20815859 0.29744601 0.20699937
-0.37028593 -0.15475887 0.00000018
-0.36108713 -0.59715415 -0.00000142
-0.56288014 -0.55892752 0.24770805
-0.29115064 0.09708370 0.22827181
-0.44130723 -0.74252156 -0.00000245
-0.25330070 0.18848009 0.02871454
-0.20625516 -0.73660655 0.00000117
-0.38802176 0.11116690 -0.05477313
-0.16837475 0.28197256 0.00000482
-0.35175432 0.15735222 -0.04563512
-0.25039075 0.35993894 -0.03632540
-0.31096312 0.04926034 0.01112770
-0.07148389 0.71397242 -0.01911838
-0.52834048 -0.47554250 0.19668928
-0.57035757 -0.27486797 -0.06674344
-0.50145572 -0.41063942 0.26308238
-0.01613411 0.59476022 0.00000187
-0.40411119 -0.17563261 0.36488910
-0.62225735 -0.78302002 -0.00000369
-0.64011942 0.06913850 -0.17996156
-0.11851023 0.66610446 -0.03362656
-0.03097442 0.16234798 0.00000342
-0.16776211 0.50807700 -0.02498146
-0.14695711 0.27442338 0.00000314
-0.52273212 -0.53856538 -0.00000217
-0.04315372 0.40538307 -0.00000158
-0.54851452 -0.14976418 -0.08273318
-0.05556997 -0.62993263 0.00000030
-0.52794141 -0.47457553 0.10405458
-0.58183500 -0.68356518 0.00000307
-0.16497620 0.25544098 -0.00000127
-0.08373547 0.44153108 0.00000046
-0.18142727 0.44922076 -0.01926610
-0.00504293 0.73505779 0.00000469
-0.34288128 -0.02780580 0.31241642
-0.16196147 0.40898238 0.10036158
-0.42687432 -0.27906766 -0.00000062
-0.02265412 0.75012482 -0.00105987
-0.15036843 0.43290980 0.00000372
-0.37082363 -0.09525834 0.07708406
-0.02753068 0.10889949 0.00001077
-0.06197382 -0.43441231 0.00000165
-0.02800522 0.44543158 -0.00000113
-0.39841480 -0.73559103 -0.00000216
-0.04717463 -0.51859101 0.00000077
-0.17200392 -0.14345518 0.00000142
-0.61190115 -0.47098700 -0.04557171
-0.48998429 -0.00466343 -0.08357183
-0.42380749 -0.55613527 0.00000283
-0.32540986 0.01437544 0.20505471
-0.04005247 0.00808849 0.00000321
-0.15523658 -0.74568524 0.00000091
-0.20827444 0.35715643 -0.01324724
-0.30049886 0.07451726 0.17050129
-0.27134903 0.35478871 -0.04636704
-0.14143433 0.40154927 0.00000365
-0.08644359 -0.08149227 0.00000217
-0.25205125 0.34340352 -0.03355754
-0.30406798 0.06589610 0.29037123
-0.53003051 -0.16930179 -0.06855689
-0.09286111 0.46607694 0.00000517
-0.09795914 0.24703373 -0.00000349
-0.30927004 0.44685157 -0.08693684
-0.33045407 0.00219872 0.27392982
-0.06853978 -0.48389677 0.00000150
-0.04574730 0.36977170 0.00000411
-0.15299337 -0.41764066 0.00000051
-0.36843391 -0.65471874 0.00000221
-0.40953804 -0.00744412 -0.04004663
-0.53753925 -0.67123221 0.00000292
-0.01431280 -0.75208832 0.00000009
-0.40103047 -0.16819737 0.42533614
-0.22164025 -0.48281472 0.00000219
-0.27791733 -0.69203853 0.00000166
-0.05789530 0.48205189 0.00000751
-0.38674885 -0.17536301 0.00000001
-0.25930311 0.17397605 0.08204657
-0.14266895 0.43093051 0.00000375
-0.67355977 -0.41919609 -0.08990396
-0.29448327 0.19101386 -0.02252028
-0.04398749 0.37891073 -0.00000215
-0.37361983 0.21427134 -0.06987239
-0.26886201 0.15089643 0.14449916
-0.04969791 0.57626025 0.00000539
-0.43820618 -0.25794547 0.37209214
-0.08054530 0.44146237 0.00000036
-0.26957553 -0.71746405 0.00000153
-0.01204480 0.27327798 0.00000408
-0.00165965 0.65356294 0.00000544
-0.29549119 0.08660251 0.30405344
-0.67727570 -0.74665182 -0.01953622
-0.48480499 -0.17513635 -0.04314403
-0.53532819 0.02265934 -0.11379340
-0.01998862 0.72417476 0.00000627
-0.09462447 0.04680121 -0.00000809
-0.30297132 0.38808856 -0.07059379
-0.43824840 0.22287051 -0.10624677
-0.03805626 0.29601057 -0.00000419
-0.02093386 0.00416969 0.00000289
-0.00047163 0.35685196 0.00000932
-0.48902064 -0.38061023 0.04649766
-0.44150568 -0.26590134 0.11110583
-0.25823266 0.17655754 0.15611639
-0.50338600 -0.29010412 -0.02765379
-0.62288177 -0.71668386 0.00000313
-0.21825067 -0.40767034 0.00000246
-0.64485134 -0.53789558 -0.04836456
-0.24100023 -0.50866439 -0.00000036
-0.24574541 -0.48568276 0.00000229
-0.52546151 -0.20574111 -0.05806866
-0.73118762 -0.59135012 -0.08260562
-0.15421851 0.20255454 -0.00000279
-0.38515153 -0.75701277 0.00000190
-0.12537527 0.58980396 -0.02043028
-0.07831337 0.20963533 0.00000331
-0.10188710 0.55352407 0.00000446
-0.13549376 0.47288064 0.02616029
-0.10556815 0.46330716 0.00000410
-0.46528287 -0.32331165 0.29731260
-0.23082775 -0.39919736 0.00000255
-0.41927812 -0.08196181 -0.02877779
-0.05001069 -0.10974402 0.00000281
-0.37749344 -0.17834001 0.00000005
-0.51269569 0.17827943 -0.13610595
-0.64882936 -0.17073130 -0.13160953
-0.30705450 0.05868871 0.21864282
-0.20744775 0.55497610 -0.05651352
-0.20197419 -0.14484196 0.00000124
-0.42553665 0.25192674 -0.10588710
-0.14071459 0.56537056 -0.02321399
-0.17088284 0.55697326 -0.03745069
-0.08292654 0.42211159 0.00000496
-0.02760340 -0.29862727 0.00000201
-0.01826386 0.55905723 0.00000499
-0.05125023 0.50884275 0.00000100
-0.09379603 -0.36143669 0.00000108
-0.67156044 -0.01614978 -0.17788850
-0.14146587 0.31048270 0.00000331
-0.41031042 -0.19059749 0.32855033
-0.27951932 -0.58898510 -0.00000090
-0.28130740 -0.76108696 -0.00000155
-0.20517216 0.27636961 0.00000683
-0.10227703 0.07249276 0.00000265
-0.37913316 -0.52340169 0.00000275
-0.30003644 0.16991075 -0.02081960
-0.46240003 -0.31634607 0.14516502
-0.40017591 -0.16612840 0.27034103
-0.34322708 -0.12870139 0.00000407
-0.02702122 -0.31607398 0.00000194
-0.39426864 -0.15187150 0.38953973
-0.43152222 -0.62624479 0.00000260
-0.53459988 -0.49065092 0.11462526
-0.12708303 0.58312964 -0.01986567
-0.10775435 0.55100390 -0.00245694
-0.27149213 0.46310093 -0.07037608
-0.40633779 -0.76216335 0.00000198
-0.15092879 0.00492372 0.00000370
-0.32426479 -0.35574844 0.00000313
-0.65162992 -0.77318301 0.02078395
-0.38080119 -0.11934904 0.14908988
-0.35194587 0.14015473 -0.04193760
-0.12678415 0.35997435 -0.00000007
-0.03060122 0.63444423 0.00000320
-0.00976590 0.77502334 0.00000604
-0.04448954 0.69258602 0.01886490
-0.05177117 -0.65200048 0.00000079
-0.40029014 -0.16639671 0.07372535
-0.04114012 -0.23909004 0.00000186
-0.50728581 -0.42470837 0.10124247
-0.64821798 -0.01029172 -0.16673061
-0.14732677 -0.22556319 0.00000126
-0.06384998 -0.67139292 0.00000077
-0.22360339 0.00084570 0.00000862
-0.26727847 -0.74922339 -0.00000142
-0.12938300 0.20556510 0.00000851
-0.23450795 0.35183655 -0.02606288
-0.32249812 0.02140255 0.26991171
-0.14723994 0.41388741 0.00000176
-0.47840128 0.24743500 -0.13309319
-0.18481715 0.25584654 0.00000284
-0.65148593 -0.14284401 -0.13918812
-0.06848690 0.63465038 0.00656803
-0.19203156 0.33814416 -0.00037960
-0.38795332 -0.27978532 0.00000371
-0.24841425 0.28131419 -0.01790126
-0.29350190 0.09141370 0.19814662
-0.32083605 0.02542196 0.09019330
-0.06526438 -0.75657560 0.00000046
-0.27755024 -0.39223398 0.00000279
-0.23014989 -0.23293155 0.00000074
-0.48121727 -0.56075085 -0.00000201
-0.35579545 -0.49416034 -0.00000100
-0.49470659 0.05356673 -0.09895410
-0.59417684 -0.63448252 0.14804339
-0.16991311 0.36131536 0.00000512
-0.06866042 0.42923281 -0.00000027
-0.01032770 0.77505949 0.00591626
-0.41649644 0.31378511 -0.11473194
-0.20768221 -0.36534431 0.00000038
-0.09825195 0.34221689 0.00000473
-0.35739198 -0.06284173 0.36912211
-0.01279601 -0.67844734 0.00000051
-0.57561423 -0.47761118 -0.02475232
-0.23868134 0.06429790 0.00000432
-0.27133999 0.43874673 -0.06491328
-0.66011912 0.02042342 -0.17986565
-0.17890467 -0.32058954 0.00000261
-0.24819202 0.19062414 -0.00000022
-0.08810646 -0.45126388 0.00000078
-0.17781908 0.37069915 0.10401355
-0.59584500 -0.46542523 -0.03823604
-0.38383017 0.11850223 -0.05416099
-0.01081253 0.06900355 0.00001132
-0.43595315 -0.40824112 0.00000344
-0.35175837 -0.01894211 -0.00668596
-0.12145625 -0.49154540 0.00000171
-0.59165633 -0.55971278 -0.01516941
-0.37598834 -0.10772812 0.10529731
-0.51285201 -0.43815192 0.26693973
-0.55737901 0.15730211 -0.15530630
-0.46934579 -0.33311829 0.24098709
-0.67798498 -0.54697044 -0.06403333
-0.31990287 0.02767051 0.20513650
-0.11743003 -0.67148867 0.00000101
-0.29253776 -0.79898369 0.00000133
-0.43331541 -0.24613841 0.38877286
-0.28776280 -0.03840423 0.00000416
-0.73392118 -0.55198194 -0.09276196
-0.24832108 0.45164247 -0.05548472
-0.19477447 0.32976539 0.11146466
-0.32198087 0.42080609 -0.08796244
-0.21402552 -0.26464744 0.00000298
-0.50219204 -0.13037274 -0.06230875
-0.19568709 -0.11320712 0.00000346
-0.10439713 -0.44871428 0.00000179
-0.09523354 0.68340192 -0.02503237
-0.13849670 0.06530778 0.00000942
-0.29085383 -0.52884504 0.00000233
-0.19856638 0.30473998 0.00000085
-0.59505738 -0.33423380 -0.06680199
-0.22131453 -0.44271554 0.00000000
-0.42136248 -0.30018799 -0.00000067
-0.13579353 0.47215532 0.06818926
-0.13046409 -0.46119576 0.00000186
-0.29921418 0.07761315 0.31839039
-0.49546662 -0.39617650 0.15956120
-0.32364742 0.21846754 -0.04414574
-0.35807253 -0.22149222 0.00000001
-0.11723232 -0.64202364 -0.00000012
-0.24792741 0.20145417 0.00369862
-0.55545229 -0.54099302 0.11170675
-0.00870832 -0.02987282 0.00000293
-0.34493984 0.40361293 -0.09641025
-0.46482444 -0.32219459 0.02570376
-0.00644488 -0.58478400 0.00000084
-0.34550097 0.19643890 -0.05093297
-0.44696690 -0.35914429 0.00000368
-0.38290643 -0.23013896 0.00000387
-0.20880490 -0.78255305 0.00000101
-0.11218104 -0.00740758 0.00000348
-0.24561055 0.20704405 0.04504401
-0.17129878 0.38643826 0.06134342
-0.58253392 -0.60637374 0.10697498
-0.22696028 0.25206410 0.10349802
-0.30496303 -0.40219276 -0.00000035
-0.07502021 0.16873870 0.00000318
-0.26167617 -0.23114020 0.00000055
-0.27808741 0.12862525 0.12051622
-0.03960914 -0.10546538 0.00000278
-0.33124630 0.30552041 -0.06743146
-0.38012658 0.11556988 -0.05153453
-0.40367704 -0.17458081 0.26840393
-0.14798803 0.21059639 -0.00000280
-0.34708743 -0.68780804 0.00000199
-0.15750656 -0.18092329 0.00000303
-0.11200178 -0.76068842 -0.00000053
-0.25844949 -0.12201025 0.00000098
-0.21744971 0.01995476 -0.00000499
-0.36657705 -0.39979896 0.00000316
-0.05432023 0.42162279 0.00000425
-0.25550081 -0.05870193 0.00000124
-0.27622031 0.13314202 0.10497635
-0.57294626 -0.58322862 0.15170793
-0.08298535 0.60900854 -0.00206109
-0.34169350 -0.02493240 0.09013435
-0.21261301 0.05503327 -0.00000435
-0.08468172 -0.05903444 0.00000227
-0.01414817 0.75255648 0.00000589
-0.38781446 -0.48138436 0.00000295
-0.29145179 -0.55692361 0.00000223
-0.64569638 -0.75885859 0.14273976
-0.26121710 0.02646325 0.00000428
-0.31138593 0.04823699 0.07944578
-0.27123236 -0.55645077 0.00000214
-0.17010671 0.38931832 0.10144902
-0.11234791 0.41504431 0.00000073
-0.68997388 0.00875602 -0.19321322
-0.09173203 -0.48755722 0.00000062
-0.58834149 -0.62039512 0.22408065
-0.19111983 0.31656284 0.00000089
-0.09801966 0.68964520 -0.02789793
-0.30474227 0.06427218 0.18628886
-0.21201929 0.42245390 -0.02967027
-0.18138373 0.25777487 0.00000287
-0.50282414 -0.53697473 0.00000326
-0.70647520 -0.28143327 -0.13789936
-0.27861082 0.12737683 0.03346430
-0.13135048 0.04944313 -0.00000692
-0.61538914 -0.60451116 -0.01793076
-0.51482196 0.10166316 -0.12031281
-0.49241986 -0.42000685 -0.00000155
-0.03210262 0.71895553 0.00000550
-0.01897406 0.70499168 0.00000443
-0.20921464 0.52799795 -0.05149483
-0.51133795 -0.43449676 0.28018868
-0.19354527 0.40374918 -0.01568498
-0.09231047 0.57708822 0.00000628
-0.49984617 -0.23220703 -0.03855767
-0.30385522 0.03013295 0.00000128
-0.29629447 -0.76016221 0.00000149
-0.24322934 0.12163066 0.00000742
-0.40532108 -0.17855579 0.42627410
-0.25930809 0.17397525 0.05283761
-0.23809538 0.16173663 0.00000719
-0.31097435 0.04923243 0.03260705
-0.11535604 0.24931499 0.00000839
-0.20380040 -0.23412239 0.00000089
-0.13189356 0.10406774 0.00000259
-0.58552418 0.10988030 -0.15984109
-0.13255953 -0.26686000 0.00000120
-0.63527232 -0.73369332 0.14516756
-0.12061030 -0.36977282 0.00000216
-0.49814296 -0.40263817 0.17015679
-0.32513559 0.01504389 0.03923489
-0.61124324 -0.10083535 -0.12700387
-0.11927655 -0.19127566 0.00000156
-0.27953309 0.12513269 0.24757621
-0.36349361 -0.69278499 -0.00000179
-0.08757546 0.01675163 -0.00000898
-0.07378418 -0.37607606 0.00000114
-0.25074594 0.19463238 0.14862930
-0.12245779 0.36277114 0.00000362
-0.34747914 -0.03891066 0.36534816
-0.07347782 0.07768195 -0.00000803
-0.73591579 -0.08824399 -0.19628744
-0.41266289 -0.19626665 0.05956579
-0.45499561 0.29556756 -0.13124302
-0.66450986 -0.80427717 0.02955247
-0.02661315 0.30479498 0.00000931
-0.00986850 0.09319319 0.00001115
-0.31261348 0.04528295 0.10329286
-0.11218095 0.20895455 0.00000874
-0.01405817 -0.25308611 0.00000197
-0.36690729 -0.55457379 0.00000258
-0.12571350 0.07994268 0.00000254
-0.30469200 0.04767748 0.00000456
-0.65981361 -0.79293975 0.11209125
-0.15055377 0.43652041 0.08139814
-0.37165720 0.04211038 -0.03078943
-0.14802827 -0.14298934 0.00000157
-0.64231751 -0.40995037 -0.07528182
-0.00981277 0.14854377 -0.00000836
-0.52229717 0.08727791 -0.12112181
-0.37481654 0.31857714 -0.09355856
-0.01595482 0.05506403 0.00000311
-0.51596629 0.14571085 -0.13065433
-0.27270237 -0.11764966 0.00000091
-0.17621373 -0.24346984 0.00000288
-0.27400257 0.12115824 -0.00000101
-0.39532978 -0.45998246 0.00000306
-0.25975706 0.28804326 -0.02543838
-0.19765086 -0.42442122 0.00000230
-0.09429749 -0.13746446 0.00000291
-0.31571208 -0.29795771 0.00000331
-0.37108037 -0.09588143 0.16336813
-0.49819789 -0.40277345 0.24046198
-0.35808104 -0.04163552 -0.00504454
-0.08633313 0.18984389 0.00000319
-0.27069892 0.24627912 -0.02204731
-0.73444527 -0.69492848 -0.06145784
-0.12033687 -0.16085010 0.00000294
-0.45972044 -0.32655067 -0.00000100
-0.08259151 0.56436537 0.00000652
-0.43297935 -0.73129585 0.00000222
-0.62848790 0.10627162 -0.18196155
-0.15449508 -0.79825092 0.00000071
-0.11819913 0.08915607 -0.00000643
-0.05579936 -0.72846473 -0.00000007
-0.72442038 -0.43799082 -0.11288039
-0.24905974 0.08117407 -0.00000266
-0.23324008 0.23690034 0.01599149
-0.09577610 0.47618764 0.00000160
-0.31795216 0.41350536 -0.08420043
-0.68593879 0.01826638 -0.19316183
-0.70415581 -0.29756541 -0.13309787
-0.16051829 0.30901363 0.00000489
-0.01393805 0.68770733 0.00000663
-0.39509776 -0.21811857 -0.00000020
-0.12387913 0.39271391 0.00000372
-0.06786969 -0.44584256 0.00000092
-0.45755266 -0.66059135 -0.00000224
-0.19039797 -0.05941127 0.00000163
-0.58305137 -0.03752560 -0.12595401
-0.44531547 -0.27509868 0.10334899
-0.37962926 0.12954978 -0.05435819
-0.38673645 -0.13368505 0.33342241
-0.24504768 -0.02143537 0.00000144
-0.41287131 -0.35286284 -0.00000082
-0.33874907 0.20091217 -0.04832234
-0.49406143 -0.39278697 0.23543921
-0.05425643 0.64481447 0.00000509
-0.45659355 -0.30233422 0.30925882
-0.50106163 -0.06114829 -0.07700056
-0.16127574 0.41064266 0.04195075
-0.36369533 0.33439351 -0.09112019
-0.48024060 0.14635934 -0.11174073
-0.13217131 0.48090084 0.10029048
-0.37020727 0.23966202 -0.07366404
-0.02694993 0.58481074 0.00000721
-0.49556070 -0.39640798 0.27386314
-0.29916421 0.13412535 -0.01244732
-0.42226737 -0.45778133 -0.00000127
-0.05708704 -0.30234854 0.00000212
-0.05649632 -0.40608792 0.00000173
-0.08603155 0.24434232 0.00000431
-0.20893480 0.49323951 -0.04366546
-0.09958402 0.55957654 0.04519926
-0.16050090 0.41250838 0.01617676
-0.22009307 0.55695313 -0.06369546
-0.56658213 -0.52401059 -0.00968281
-0.24449071 -0.19752044 0.00000078
-0.27403945 -0.39256869 0.00000277
-0.00527244 0.62553875 0.00000223
-0.01407723 -0.46489819 0.00000117
-0.18691299 0.33278870 0.00000668
-0.09661452 0.31943225 0.00000361
-0.27675209 0.13186089 0.07256195
-0.20561722 -0.12699862 0.00000128
-0.29750460 -0.29645850 0.00000009
-0.50418402 -0.41722606 0.27535108
-0.71996292 -0.71608644 -0.04905835
-0.31601596 -0.51603180 -0.00000084
-0.09061191 -0.02741730 0.00000331
-0.59354966 -0.35573627 -0.06124690
-0.14097818 -0.18866763 0.00000144
-0.59669850 -0.74932882 -0.00000341
-0.53127747 -0.48262844 0.07585199
-0.30892203 0.35003659 -0.06536057
-0.49421405 0.17310749 -0.12510466
-0.16279198 0.11666597 0.00000867
-0.71823884 -0.75955480 -0.03853453
-0.47870104 0.14524611 -0.11067352
-0.08038664 0.12573462 0.00000384
-0.26385070 0.16300561 0.08943998
-0.23548871 0.23146849 0.09920210
-0.08248197 0.56673663 0.00000650
-0.15053069 0.62376563 -0.04135208
-0.34981525 0.33797404 -0.08450738
-0.49598751 0.17596456 -0.12668284
-0.00489654 0.42629707 -0.00000226
-0.16381507 0.40450357 0.14806246
-0.64320621 0.04044285 -0.17526734
-0.00774294 -0.22005129 0.00000213
-0.47104018 -0.36905086 -0.00000123
-0.09099492 0.17293546 0.00000406
-0.29790055 0.08080828 0.03229236
-0.50801299 -0.30450656 -0.02693973
-0.02043950 -0.26077291 0.00000190
-0.09860171 0.49377665 0.00000426
-0.39166734 0.27792723 -0.09356555
-0.42265311 0.15302634 -0.08249538
-0.06626780 0.13535277 -0.00000695
-0.50287826 -0.26135593 -0.03373472
-0.07262771 -0.03761304 0.00000242
-0.37149471 -0.29048850 0.00000359
-0.21681414 -0.49120398 0.00000214
-0.00024877 0.39253767 0.00000447
-0.16515798 -0.63147572 0.00000138
-0.42115441 0.33064782 -0.12094259
-0.41354760 -0.19840962 0.24565835
-0.20581016 0.30311785 0.12760588
-0.30971376 0.05226779 0.24232953
-0.31726504 -0.49439540 -0.00000077
-0.48613756 -0.64263449 -0.00000234
-0.13835249 0.46597827 0.10213276
-0.49552621 -0.40100271 -0.00000149
-0.05433763 -0.61574173 0.00000094
-0.49675316 -0.21331227 -0.04108253
-0.28060569 -0.06993853 0.00000401
-0.00083675 0.09534480 0.00000336
-0.37419359 0.25569217 -0.07933216
-0.45772203 0.19787016 -0.11111158
-0.17946008 0.36673495 0.06593111
-0.31321418 0.04383047 0.13106290
-0.28286090 0.38481852 -0.05914301
-0.03107394 0.31744810 -0.00000392
-0.14793579 0.28228983 0.00000765
-0.16357976 -0.48868452 0.00000191
-0.11812918 0.01829067 0.00000360
-0.25717872 0.20301781 -0.00527713
-0.02997412 -0.75569635 -0.00000001
-0.12796768 0.07005806 -0.00000656
-0.05247466 0.23421110 0.00000412
-0.19391545 0.29120496 0.00000689
-0.70244610 -0.00516412 -0.19679009
-0.55522690 -0.45617321 -0.01861413
-0.26385939 0.36833619 -0.04536530
-0.32357244 -0.46988046 0.00000270
-0.02196931 0.74695400 0.00311542
-0.10816001 0.11475691 0.00000278
-0.12384150 0.04636733 0.00000978
-0.48942637 -0.76834940 0.00000233
-0.10585082 0.57991282 -0.00783035
-0.28584578 0.10989245 0.18429410
-0.58396490 -0.73325378 -0.00000327
-0.28166025 -0.45252053 0.00000258
-0.04063593 -0.29716209 0.00000164
-0.20294015 -0.41328039 0.00000023
-0.32230576 -0.22993883 0.00000019
-0.13128629 0.48303823 0.03018430
-0.60881927 -0.43889303 -0.05101880
-0.08223796 -0.59601257 0.00000027
-0.22793412 -0.59584144 0.00000180
-0.43509452 -0.25043229 0.34533703
-0.41061478 0.14114321 -0.07345058
-0.48059978 -0.36028883 0.26723196
-0.26124069 -0.74446380 -0.00000137
-0.23512123 -0.61472002 -0.00000072
-0.42985537 -0.14025923 -0.02153928
-0.18754061 0.03373437 -0.00000558
-0.25855991 0.03931999 0.00000159
-0.06833259 0.57810528 0.00000663
-0.51630501 0.10340952 -0.12148973
-0.50885910 0.10588521 -0.11806500
-0.10368610 0.33029974 0.00000471
-0.00949662 0.28909823 0.00000969
-0.42993150 -0.23796280 0.21748614
-0.50989939 -0.43102386 0.29052291
-0.32955085 0.19205951 -0.04145997
-0.44793357 -0.24019834 -0.00910134
-0.08612117 0.04879973 0.00000266
-0.06722811 -0.24728735 0.00000238
-0.14764537 0.42538683 0.00000658
-0.27158307 -0.61267069 0.00000193
-0.36247681 -0.54740861 -0.00000124
-0.33457141 -0.00774073 0.15753134
-0.50255105 -0.19888631 -0.04736252
-0.48860933 -0.68275513 0.00000265
-0.11364929 0.41210205 0.00000719
-0.06071145 0.11605460 0.00000307
-0.00678046 -0.44438063 0.00000129
-0.72566782 -0.37997133 -0.12636501
-0.52955967 0.00838551 -0.10756244
-0.15905128 -0.79144130 -0.00000093
-0.52856136 0.05138124 -0.11653010
-0.36031031 -0.74817900 -0.00000198
-0.44569386 -0.45937127 -0.00000141
-0.06103815 0.60756098 0.00000652
-0.61024568 -0.49819954 -0.03867619
-0.66796018 0.00888888 -0.18149962
-0.36301879 0.05481407 -0.02898842
-0.35827300 -0.06496233 0.29210868
-0.04496830 0.64284089 0.00000650
-0.10459480 0.28496063 0.00000454
-0.10597254 0.62289213 -0.01739133
-0.18429232 -0.60065297 -0.00000036
-0.07031437 0.63023625 0.06548987
-0.22918261 0.24669487 0.04441693
-0.20504410 0.53236945 -0.05023608
-0.16515589 0.40126775 0.08164645
-0.50320609 -0.41485968 0.11784861
-0.71424979 -0.01489690 -0.20093592
-0.29566257 -0.22299672 0.00000038
-0.44897039 0.29794590 -0.12855459
-0.04023863 0.42580106 -0.00000121
-0.35426469 -0.56796744 -0.00000127
-0.31697521 0.03475245 0.11000891
-0.00866474 0.27410462 -0.00000557
-0.30108359 0.07310016 0.31403770
-0.40308850 0.32249725 -0.10950523
-0.35825360 -0.76099345 -0.00000202
-0.10982030 -0.00706753 0.00000231
-0.32352684 0.01892344 0.15241892
-0.25414598 -0.33232340 0.00000290
-0.32857259 -0.78555440 0.00000154
-0.44210084 0.22789353 -0.10941161
-0.51274338 -0.47279027 -0.00000187
-0.21661556 0.27702944 0.17617002
-0.32680560 -0.78069035 -0.00000190
-0.55850636 0.14757726 -0.15375856
-0.41930190 -0.21229709 0.12377793
-0.66459039 -0.80447161 0.06232354
-0.14841450 0.41284980 0.00000666
-0.05265721 0.30301904 0.00000382
-0.54160458 -0.50060545 -0.00153078
-0.30971876 -0.64512204 -0.00000129
-0.17810761 0.32028976 0.00000313
-0.54650391 0.01329658 -0.11768813
-0.15188730 0.18638556 0.00000831
-0.33310125 -0.00417810 0.10510923
-0.42055252 -0.21531837 0.17666918
-0.24874855 0.19945046 0.25509480
-0.21117936 0.36204998 -0.01587560
-0.07539151 -0.34663814 0.00000204
-0.33510166 -0.00902463 0.31405398
-0.08902900 -0.49270959 0.00000061
-0.49218383 -0.38825435 0.24378813
-0.53055167 -0.77287638 0.00000250
-0.22760265 -0.07844394 0.00000374
-0.27700205 0.07970233 0.00000722
-0.54140340 -0.70867256 -0.00000293
-0.33172708 -0.00085277 0.00972497
-0.17044979 0.38848880 0.03744045
-0.63712169 -0.55311410 -0.04087904
-0.60068107 -0.59216967 -0.01281212
-0.21678835 0.28106644 -0.00097695
-0.54629604 -0.53672797 0.00000346
-0.35570279 -0.05875930 0.31488630
-0.05625521 0.43406054 0.00000790
-0.15322032 0.03230658 0.00000945
-0.08214987 0.34162821 0.00000379
-0.08442003 -0.54399665 0.00000045
-0.27973378 0.12464566 0.27817545
-0.48527580 -0.37157348 0.15420394
-0.21555206 0.27960770 0.07617088
-0.16005666 -0.34073649 0.00000076
-0.15656639 -0.00746821 0.00000368
-0.09810277 0.22496789 0.00000429
-0.54163388 0.15002810 -0.14530053
-0.08785289 -0.52259984 0.00000144
-0.07488038 -0.43853132 0.00000090
-0.23551756 0.31642436 -0.01877688
-0.17695701 0.14912147 0.00000821
-0.27956366 0.12505963 0.16318230
-0.06456974 0.63364106 0.00000567
-0.54124766 -0.16368717 -0.07578075
-0.35592356 -0.13119252 0.00000036
-0.00888245 0.29756285 0.00000963
-0.15549348 0.49777286 -0.01616033
-0.49350574 0.19703061 -0.13001347
-0.22761380 0.25047956 0.11658774
-0.57207627 -0.58112492 0.05969173
-0.31584439 -0.67546565 -0.00000144
-0.28749633 0.10591480 0.16597972
