ply
format ascii 1.0
element vertex 1370
property float x
property float y
property float z
end_header
-0.66119214 -0.76080134 -0.02348769
-0.33250284 -0.11874816 -0.00000073
-0.43020980 0.07571303 -0.20833852
-0.33731634 -0.10702116 -0.00000074
-0.22317024 0.26122055 0.04322110
-0.58141373 -0.78745181 -0.00000349
-0.05441323 0.32364902 -0.00000429
-0.59722422 -0.64183515 0.00928580
-0.56335152 -0.07436177 -0.32192051
-0.72389540 -0.77426706 -0.11489981
-0.01793861 0.52669898 0.00000238
-0.15834828 -0.59954919 0.00000157
-0.51622351 -0.44628583 0.11383193
-0.04694379 0.07826072 -0.00000912
-0.32962387 -0.40835029 -0.00000126
-0.13953641 0.46312323 0.05617684
-0.34129369 -0.02395973 0.15264420
-0.34097027 -0.61602064 -0.00000171
-0.12439379 -0.19789043 0.00000038
-0.45935986 -0.15900348 -0.09940787
-0.06331819 0.58044034 0.00000413
-0.68605214 -0.54924365 -0.20349699
-0.07801826 -0.19333831 0.00000173
-0.31404260 0.13563723 -0.06216848
-0.05401591 0.66958879 0.05578678
-0.50985535 -0.71312483 0.00000401
-0.28189091 -0.07921651 -0.00000035
-0.26279579 0.21132535 -0.03032676
-0.53075056 -0.36035840 -0.08018240
-0.03412401 -0.50170273 0.00000082
-0.31692656 -0.27229290 0.00000338
-0.42257052 -0.22018372 0.04532796
-0.49022668 -0.38352118 0.05500189
-0.11846501 0.06192755 -0.00000726
-0.58978493 -0.62387534 0.01648473
-0.23301922 -0.45154954 0.00000241
-0.55476477 -0.53933422 0.14252983
-0.44510392 -0.03534897 -0.15855830
-0.61123593 -0.29755025 -0.25060784
-0.23061703 0.24323050 0.14595639
-0.01007323 0.41190654 0.00000221
-0.30823438 0.28497479 -0.15185930
-0.25672214 0.18021648 0.08913605
-0.37332005 -0.62233727 -0.00000192
-0.21083906 -0.79230735 0.00000161
-0.53986119 -0.26947172 -0.15500457
-0.20507688 0.20625991 0.00000065
-0.23813606 0.22508657 0.09022537
-0.03456340 0.60585667 0.00000040
-0.47558505 -0.45784327 -0.00000223
-0.19757035 0.32302023 0.08188046
-0.72215430 -0.73965424 -0.13505637
-0.05188536 -0.16905230 0.00000157
-0.59634040 -0.67055398 -0.00000336
-0.57380979 -0.58531333 0.16493688
-0.52436863 -0.46595387 0.20615291
-0.55185834 -0.39857152 -0.08863023
-0.17293334 -0.43947430 -0.00000037
-0.45063423 -0.28794868 0.35428531
-0.16109190 0.47558561 -0.04274562
-0.05468825 0.66796686 0.04165978
-0.65107244 -0.50694275 -0.17556113
-0.03923829 0.72084072 -0.01031789
-0.08952752 0.54795700 0.00000098
-0.34647824 0.12516746 -0.10712865
-0.03087595 -0.17174601 0.00000141
-0.07218714 -0.73366199 -0.00000031
-0.12874038 0.55118774 -0.04108829
-0.35370355 0.12846993 -0.12088370
-0.53356611 -0.34516868 -0.09475622
-0.20780474 -0.61326074 0.00000192
-0.24833134 0.38630724 -0.12316903
-0.24391558 -0.13568920 0.00000309
-0.24971784 0.42759934 -0.15275890
-0.46014751 -0.24099015 -0.04632433
-0.18640873 0.19425049 -0.00000273
-0.09658584 0.31131130 -0.00000325
-0.25547966 -0.40686321 -0.00000080
-0.43561216 0.01134259 -0.17431842
-0.04477570 0.07674709 -0.00000921
-0.28520096 -0.36462024 -0.00000091
-0.06906475 0.03396478 0.00000208
-0.26483988 -0.32549953 0.00000289
-0.15303904 -0.54099991 0.00000164
-0.03664319 0.05118154 -0.00000993
-0.55492796 -0.64737660 0.00000447
-0.44343863 -0.58885971 0.00000374
-0.26431534 -0.02361894 0.00000345
-0.52907827 -0.47731893 0.08679680
-0.36859468 -0.65604709 0.00000305
-0.31029104 -0.78778494 -0.00000185
-0.52910840 0.00198853 -0.31773215
-0.24647400 -0.16058463 -0.00000029
-0.18191548 0.36080629 0.16055420
-0.41504530 0.02546671 -0.15076907
-0.24428753 -0.24821401 -0.00000044
-0.63658327 -0.67997650 -0.03768210
-0.26722335 0.15485433 0.15423737
-0.37927806 -0.12560375 0.00000413
-0.57351861 -0.68085792 -0.00000324
-0.36477503 -0.08065872 0.19131570
-0.47487529 -0.02915092 -0.21030716
-0.37194952 -0.09798478 0.35598736
-0.33765297 -0.01517595 0.22226058
-0.27751387 0.13002855 0.00039266
-0.15119605 0.12676831 -0.00000506
-0.41139417 -0.19320081 0.02860500
-0.43766181 -0.25662145 0.13937244
-0.30861590 -0.51572717 0.00000286
-0.24446661 0.32611047 -0.07708230
-0.12151779 0.50662584 0.01724609
-0.02795086 0.69187160 0.00000363
-0.47301454 -0.34197061 0.13445874
-0.63285091 -0.26723761 -0.30528857
-0.58199416 -0.67441296 -0.00000328
-0.64045242 -0.74619889 0.17203363
-0.36483761 0.22454435 -0.20238148
-0.25256570 0.19024597 0.15060470
-0.53730084 -0.55642266 0.00000451
-0.15419739 -0.72278209 0.00000131
-0.02270484 0.34889447 0.00000202
-0.19844873 0.00237088 0.00000300
-0.35614471 -0.61950613 -0.00000181
-0.16800435 0.39440378 0.00899930
-0.31349638 0.05535948 -0.00808322
-0.17367175 0.38070848 0.16075424
-0.11948711 0.14663080 0.00000783
-0.35173399 -0.00104494 -0.03187765
-0.17155572 0.38581677 0.16724626
-0.21019526 0.29253451 0.11530090
-0.47281796 -0.01181323 -0.21850709
-0.07534900 -0.40917291 0.00000028
-0.12033177 0.30514464 0.00000603
-0.36025188 -0.06973413 0.08055591
-0.02423053 0.39094775 0.00000209
-0.49010725 0.07884531 -0.30626562
-0.49990847 -0.29152661 -0.07645284
-0.42399474 -0.22362616 0.14115437
-0.05726463 0.02228169 -0.00000985
-0.00032208 0.31190880 0.00000848
-0.08327214 0.20792533 0.00000790
-0.45491748 -0.29828909 0.34323286
-0.16387896 -0.56463939 -0.00000055
-0.16491513 0.40772081 -0.00388020
-0.19491132 0.32943577 0.05822918
-0.06387749 0.66635835 -0.01363241
-0.21305104 -0.35808342 -0.00000046
-0.08835546 0.05196269 0.00000106
-0.18339284 0.14438029 0.00000066
-0.06159748 0.10501353 0.00000133
-0.17093984 0.41974619 -0.02149190
-0.05632636 0.63684234 0.00000365
-0.11631970 0.26920792 0.00000651
-0.20461128 -0.19059688 -0.00000009
-0.56326261 -0.16207991 -0.26363528
-0.39967435 -0.16492243 0.40296947
-0.11255729 -0.62870373 0.00000117
-0.32619528 0.01249340 0.11736502
-0.42136870 0.14981060 -0.24330780
-0.31806711 -0.77991498 -0.00000188
-0.14746126 0.50686225 -0.04166321
-0.00611426 0.26656613 0.00000196
-0.25475369 0.32901824 -0.09547397
-0.14071787 0.46027787 0.01440128
-0.07069002 0.30936269 0.00000261
-0.44182393 -0.53506809 -0.00000217
-0.33959716 -0.36915755 -0.00000124
-0.24867144 -0.09019329 0.00000321
-0.38109675 -0.12006520 0.24325715
-0.35432509 -0.41748452 0.00000339
-0.02966713 0.43745996 0.00000645
-0.09441329 0.37957936 0.00000292
-0.55630072 -0.06651594 -0.31583825
-0.64122623 -0.74806624 0.01952071
-0.49781306 -0.51528878 0.00000429
-0.71338738 -0.73679591 -0.12292217
-0.10108514 0.55595601 0.04556469
-0.16202332 0.00885358 0.00000274
-0.33927281 -0.15965907 -0.00000085
-0.18663127 -0.16139499 0.00000261
-0.49287970 -0.38993163 0.18399311
-0.41164382 -0.19381080 0.20008517
-0.02016196 -0.26666464 0.00000115
-0.30584760 0.06160961 0.08803220
-0.07491695 0.61913117 0.00532159
-0.04565857 -0.26941040 0.00000134
-0.29978204 0.07625037 0.23471023
-0.16600965 0.00678378 0.00000277
-0.18316154 0.14018586 0.00000066
-0.21015712 0.29263713 0.03644902
-0.60036982 -0.28214218 -0.24343282
-0.30043858 0.07467296 0.13976724
-0.51438576 -0.18854093 -0.16788248
-0.22014336 0.37572958 -0.07105213
-0.70544842 -0.80516315 -0.06490188
-0.07968315 -0.60042029 0.00000098
-0.62552361 -0.71015844 0.18703203
-0.17367665 -0.42242498 0.00000202
-0.11598405 0.37064297 0.00000149
-0.19310559 0.03461953 0.00000753
-0.24393876 0.21107241 0.06250893
-0.10717187 -0.50436152 -0.00000009
-0.02573305 0.30382905 -0.00000553
-0.18293770 -0.51807040 -0.00000058
-0.34529870 -0.20457251 -0.00000097
-0.39448142 -0.79730826 -0.00000238
-0.52674249 -0.00745553 -0.30768629
-0.27557220 -0.52781168 0.00000259
-0.31843891 -0.19853206 -0.00000079
-0.57204531 -0.75532234 0.00000440
-0.14325253 -0.72436109 0.00000122
-0.19256888 0.33510060 0.00809949
-0.28499637 0.11194271 0.23901452
-0.22538233 0.31046204 -0.03616993
-0.58661451 -0.69760799 -0.00000335
-0.37464809 0.04067957 -0.09620859
-0.12135550 -0.67875483 -0.00000051
-0.36610391 0.23133443 -0.20890949
-0.15983762 0.41142126 0.00000400
-0.07144508 -0.04384448 0.00000099
-0.37920523 0.16362959 -0.18499511
-0.16673020 0.39747280 0.02221840
-0.18166955 0.14473323 -0.00000380
-0.32928983 -0.47780140 -0.00000138
-0.30062718 -0.64793898 -0.00000153
-0.24205075 0.21562420 0.23512639
-0.08971856 -0.25729637 0.00000048
-0.35622651 -0.15938870 -0.00000095
-0.27345069 -0.52966788 -0.00000114
-0.02618936 0.49723463 0.00000263
-0.25663788 -0.04213357 -0.00000013
-0.47719702 -0.03399292 -0.21081296
-0.54544129 -0.32630725 -0.12626113
-0.68587182 -0.67338395 -0.12092360
-0.22072292 0.26711862 0.10991373
-0.52617798 -0.43741949 -0.02178622
-0.06363030 0.43565296 0.00000575
-0.16717695 0.13215786 0.00000698
-0.43013048 -0.38612758 0.00000402
-0.32511415 0.01508570 0.32745289
-0.34414847 0.02484047 -0.03689740
-0.50104705 -0.15512686 -0.16868585
-0.36751361 -0.08726464 0.05889226
-0.01210615 0.61999989 -0.00000001
-0.45628874 -0.62164554 0.00000378
-0.60833912 -0.78867300 0.00000461
-0.39613474 -0.15636697 0.16575306
-0.25002704 0.19637403 0.06077503
-0.58488511 -0.24115153 -0.24582416
-0.39292309 -0.53708158 -0.00000188
-0.04129759 -0.77173860 0.00000036
-0.05154814 0.47177819 -0.00000160
-0.22112809 -0.55388161 0.00000213
-0.24859226 0.19984864 0.02484418
-0.16256773 0.28754911 -0.00000170
-0.45601195 -0.30092777 0.25725302
-0.34736570 -0.03862798 0.17393399
-0.61301031 -0.67994646 0.01337706
-0.30214475 -0.77776442 0.00000232
-0.50190253 -0.42015771 -0.00000232
-0.33533224 -0.67139816 -0.00000178
-0.22959215 -0.03740514 0.00000316
-0.54481577 -0.03333488 -0.31945357
-0.39059754 -0.57167398 0.00000337
-0.43293896 -0.24522341 0.23281854
-0.35474496 0.11106331 -0.11100834
-0.55091540 -0.29884209 -0.15322583
-0.31173431 -0.63401844 -0.00000157
-0.03273468 -0.61372966 0.00000015
-0.00983950 0.18731206 0.00000193
-0.30955116 0.05267367 0.13827434
-0.31419587 -0.01553606 -0.00000043
-0.38221116 -0.12275842 0.30889148
-0.17906482 -0.14626333 0.00000014
-0.26152020 -0.26036785 -0.00000057
-0.16354941 0.14788594 0.00000301
-0.30824946 0.15997431 -0.06902525
-0.11121140 0.53150434 0.10856456
-0.43563849 -0.58287728 0.00000369
-0.21972219 0.26952960 0.23265890
-0.35087508 -0.04710334 0.24299112
-0.15653057 0.56099860 -0.09206155
-0.44221531 -0.07725140 -0.12616136
-0.28043130 0.19035685 -0.04465350
-0.18204988 0.34170767 0.00000104
-0.27824121 0.12825806 0.18221609
-0.49035718 -0.01846629 -0.24216367
-0.41238781 -0.24393135 -0.00000145
-0.05185963 0.54187890 0.00000291
-0.33168935 -0.00078597 0.27251348
-0.26576850 0.24415621 -0.05685019
-0.18189159 0.36086287 0.18633455
-0.47574032 -0.03239329 -0.20954222
-0.40106414 0.14060118 -0.20471013
-0.25559271 -0.20365875 0.00000305
-0.53217184 -0.21636831 -0.17789896
-0.34617110 -0.03573945 0.06794994
-0.11473282 0.22661704 0.00000279
-0.07022068 -0.57632259 -0.00000000
-0.21011357 0.01248335 0.00000026
-0.22531758 0.25603610 0.04776472
-0.44829803 -0.50322062 0.00000394
-0.10907241 0.59312464 -0.03741275
-0.51499427 0.04083756 -0.32089713
-0.46677313 0.04068419 -0.24363138
-0.54123589 -0.50667498 0.26151525
-0.09278250 0.07797210 0.00000109
-0.44736897 -0.44777134 0.00000404
-0.46558867 -0.53804012 0.00000400
-0.33330748 -0.00468080 0.16808465
-0.26887800 0.09367719 0.00000005
-0.38130360 -0.16473506 -0.00000111
-0.04011797 0.44204247 0.00000618
-0.63457394 -0.75886333 0.00000486
-0.38615625 -0.48545768 -0.00000174
-0.32693145 0.01070144 0.25432309
-0.40955344 0.03123426 -0.14579987
-0.11700320 0.48290904 0.00000329
-0.12533029 -0.08751122 0.00000058
-0.20669576 0.11537854 0.00000328
-0.08288647 0.46108952 0.00000186
-0.22563658 0.07383359 -0.00000381
-0.07138252 0.08927574 0.00000221
-0.36682832 0.13673575 -0.14736504
-0.26303049 0.21726324 -0.03464307
-0.02480794 0.27157365 -0.00000616
-0.06896982 0.63348848 0.01450854
-0.32330657 0.01946068 0.19980309
-0.40182494 0.16990292 -0.22535064
-0.08520557 -0.07192140 0.00000201
-0.37838348 -0.11351143 0.16478195
-0.67061960 -0.46725493 -0.23314703
-0.10994755 0.53455701 0.06353255
-0.03954255 0.72586759 -0.01413691
-0.36753008 -0.28169442 -0.00000125
-0.61368602 -0.40553726 -0.18295056
-0.52946623 -0.47826119 0.24438750
-0.48378646 -0.03649855 -0.21969664
-0.25679444 0.18002947 0.21504252
-0.10626656 0.43645602 0.00000168
-0.56532953 -0.61712205 -0.00000307
-0.48296037 -0.16296930 -0.13454502
-0.21371615 0.28403639 0.14383832
-0.46805132 -0.78893783 0.00000355
-0.17895184 0.26952351 0.00000336
-0.54907983 -0.59058199 -0.00000292
-0.01158026 0.55223454 -0.00000130
-0.03214041 0.74235560 -0.01322117
-0.30830653 0.05567210 0.11402375
-0.02074464 0.57273737 -0.00000064
-0.07581783 0.33387555 0.00000664
-0.15454409 -0.13997562 0.00000030
-0.16707325 -0.62730470 -0.00000068
-0.27129626 -0.18519689 -0.00000048
-0.50458184 0.03100921 -0.29772044
-0.53181330 -0.66012029 -0.00000295
-0.27701044 -0.17183219 0.00000327
-0.53419114 -0.72294711 -0.00000308
-0.17977352 -0.71941953 -0.00000093
-0.17052040 0.46036684 -0.04774350
-0.27363695 -0.02901899 -0.00000021
-0.61556798 -0.22974091 -0.30248666
-0.01529804 0.52521317 0.00000260
-0.05955369 0.09758692 -0.00000837
-0.16996111 0.16799973 0.00000652
-0.59889684 -0.40438814 -0.16004638
-0.52555187 -0.51081321 0.00000451
-0.09658001 0.64981710 -0.05500000
-0.31981352 0.04930606 -0.01417954
-0.14898630 0.56558100 -0.08302650
-0.34934680 -0.04341655 0.30970211
-0.33660657 0.10178455 -0.07583186
-0.26396494 -0.21618688 -0.00000050
-0.17746042 -0.08776271 0.00000026
-0.15958940 0.16478877 0.00000301
-0.21386355 0.01667780 0.00000314
-0.40250773 -0.29740678 -0.00000149
-0.22101276 0.41422114 -0.09795558
-0.27238838 -0.52917505 0.00000256
-0.02755436 0.27556020 0.00000832
-0.31077052 0.04972384 0.10529706
-0.43362723 -0.72372066 0.00000341
-0.57954383 -0.59915618 0.15216812
-0.32961440 0.00422253 0.29396491
-0.01409199 -0.12908353 0.00000117
-0.23644848 0.32893972 -0.06612968
-0.12376620 0.16183788 0.00000756
-0.16759955 -0.17810694 0.00000243
-0.18447157 -0.62576886 0.00000172
-0.13916500 0.25234952 0.00000622
-0.09996291 -0.12389563 0.00000202
-0.26374871 0.21600944 -0.03496132
-0.27070940 0.14644410 0.01626531
-0.22444376 -0.20880284 -0.00000025
-0.04454733 0.20359567 0.00000222
-0.62945540 -0.29902010 -0.27878846
-0.42703235 -0.24218249 0.00000427
-0.00466998 0.42554760 -0.00000388
-0.50987001 -0.77878297 -0.00000304
-0.19172092 0.33713583 0.15691148
-0.45857882 0.02536358 -0.22036364
-0.10301012 0.55130641 0.07498358
-0.70178702 -0.61856442 -0.18272753
-0.22969243 0.04085229 0.00000669
-0.15673169 -0.40415528 0.00000192
-0.42588323 0.16731731 -0.26213614
-0.23010576 0.24446069 0.24332136
-0.10702655 0.29080530 -0.00000332
-0.58358218 -0.14414959 -0.30803583
-0.19334175 -0.03675003 0.00000026
-0.12738993 0.49244606 0.09123889
-0.41365370 -0.12822762 -0.04666768
-0.53259519 -0.72646077 0.00000416
-0.18656895 0.42980983 -0.05317238
-0.14202439 0.45711319 0.14593246
-0.43178947 -0.24244439 0.14146962
-0.35825698 -0.06492001 0.12784067
-0.26615934 0.05017792 0.00000581
-0.48805669 -0.37828636 0.14996137
-0.13203678 0.36726718 0.00000508
-0.59102444 -0.37380791 -0.16771862
-0.51753817 -0.20103673 -0.16464433
-0.41566658 0.10908310 -0.20718551
-0.32249094 -0.30000544 0.00000337
-0.12916636 -0.53672999 -0.00000029
-0.02630887 -0.45662239 0.00000084
-0.59152461 -0.09194056 -0.35535157
-0.31589611 0.03734630 0.18151120
-0.60441502 -0.65919906 0.14785219
-0.14702079 0.28660242 0.00000315
-0.60328246 -0.71446288 0.00000471
-0.11094845 0.61302662 -0.05360604
-0.47164149 0.02342468 -0.23998152
-0.33504328 -0.43412759 -0.00000134
-0.61714590 -0.35337582 -0.22306171
-0.29674391 -0.56986872 0.00000267
-0.10250649 -0.21554013 0.00000187
-0.12816374 0.49058621 0.00977180
-0.26783299 -0.22077678 0.00000311
-0.19602885 0.35844254 -0.02100526
-0.38811560 -0.78046855 -0.00000231
-0.29057247 0.09848605 0.11440584
-0.47557999 -0.66450838 0.00000384
-0.13397543 -0.34450946 0.00000186
-0.30115182 -0.39195106 -0.00000105
-0.34302689 -0.02815011 0.10269939
-0.38437770 0.15886995 -0.19011920
-0.35394661 -0.05452239 0.35504947
-0.15299055 -0.18683170 0.00000230
-0.09709702 -0.60904438 -0.00000023
-0.60914637 -0.67062125 0.12415522
-0.03547565 -0.37957887 0.00000057
-0.41230927 0.00920964 -0.13561057
-0.03898127 -0.40138005 0.00000104
-0.13289499 -0.39488062 0.00000176
-0.37964107 -0.38674193 0.00000364
-0.42540269 -0.12002677 -0.07090442
-0.40020626 -0.16619733 0.18462621
-0.10482960 0.46657594 -0.00000009
-0.46804842 -0.32998918 0.32062222
-0.10025168 0.28598344 0.00000666
-0.40804029 -0.35751975 -0.00000163
-0.59355397 -0.47508129 -0.10463851
-0.41642984 -0.70494741 0.00000332
-0.38548236 -0.13064314 0.00993961
-0.67609463 -0.76092653 -0.04725166
-0.00373513 -0.43212606 0.00000072
-0.19831652 0.49999046 -0.11848944
-0.24662468 0.20458863 0.15087875
-0.05364525 -0.01630975 0.00000115
-0.51096014 -0.37691129 -0.03754161
-0.01681371 0.34408831 0.00000227
-0.48318455 -0.36652503 0.17589977
-0.16027420 0.31419279 0.00000330
-0.58252545 -0.68917763 -0.00000331
-0.41097348 -0.08820690 -0.06890603
-0.38009191 -0.69032908 0.00000307
-0.57861382 -0.28923241 -0.20391890
-0.06055009 -0.32601510 0.00000052
-0.51590686 -0.17132848 -0.18172564
-0.07909733 0.32927162 0.00000271
-0.36086582 0.06040463 -0.08722855
-0.30503957 0.21336971 -0.09928246
-0.57869753 -0.55168251 -0.03009078
-0.35277930 -0.67844036 0.00000289
-0.22193925 0.38425363 -0.07957601
-0.12169435 -0.71321309 -0.00000057
-0.29981513 0.03479563 -0.00000024
-0.39414896 -0.46955226 0.00000359
-0.55565076 -0.54147422 0.16695890
-0.41815473 0.02210914 -0.15351536
-0.25005461 -0.34660760 0.00000274
-0.51781154 -0.71105351 0.00000407
-0.28942651 -0.01170120 0.00000366
-0.16617423 0.23903849 0.00000580
-0.42687072 -0.23057847 0.35461011
-0.17523181 0.23871655 0.00000561
-0.05582206 0.22237849 0.00000234
-0.32114274 0.28045367 -0.16951901
-0.03853078 0.33806834 0.00000190
-0.04138184 0.38220714 0.00000197
-0.38888984 -0.13887365 0.10660157
-0.26591212 0.20741110 -0.03271905
-0.05071625 -0.31799614 0.00000060
-0.25083916 -0.65260750 -0.00000124
-0.11231602 0.34742587 0.00000147
-0.25465440 0.18519461 0.24788988
-0.13342796 0.59306607 -0.07634776
-0.39206097 -0.12390381 -0.01498069
-0.15060100 0.14349284 0.00000086
-0.09312572 0.37175331 0.00000163
-0.21384945 0.11466045 0.00000333
-0.35131222 -0.22867734 0.00000372
-0.44452599 0.01589154 -0.19159769
-0.34246412 -0.44118327 0.00000326
-0.37766090 -0.11177361 0.36272035
-0.20591828 -0.74731546 0.00000165
-0.10430257 0.43990699 -0.00000060
-0.26116337 -0.77470269 0.00000202
-0.09205562 0.35266016 0.00000286
-0.45772938 -0.30507385 0.25286517
-0.15951435 0.41488860 0.15362516
-0.03367686 -0.29292507 0.00000120
-0.00688647 -0.30679830 0.00000088
-0.15777109 0.49683314 -0.05151531
-0.15834948 -0.57972051 -0.00000054
-0.51518241 -0.25011705 -0.12834227
-0.13027476 0.04198122 -0.00000728
-0.34323767 -0.02866760 0.30627647
-0.46326350 -0.70749236 0.00000367
-0.30818070 -0.35208343 0.00000316
-0.35299301 -0.45990633 0.00000330
-0.12548306 -0.65842958 -0.00000049
-0.21120845 0.07145897 -0.00000429
-0.64595246 -0.77531278 0.00000492
-0.12860323 0.40419165 0.00000148
-0.55884802 -0.43708348 -0.07428800
-0.39715031 -0.35335665 0.00000383
-0.51446527 -0.18442263 -0.17073950
-0.40300430 0.19045505 -0.24086115
-0.22208847 0.26381715 0.23026179
-0.52368478 -0.46429876 0.10838817
-0.45114701 -0.28917932 0.17674810
-0.36454482 -0.74604182 -0.00000210
-0.63936601 -0.61942072 -0.08227380
-0.55381542 -0.53703631 0.00177455
-0.21703636 0.37476520 -0.06544104
-0.36086236 -0.59507445 0.00000311
-0.55364697 -0.53663718 0.19702235
-0.16175837 0.40451289 0.00000128
-0.07178225 -0.06093398 0.00000193
-0.50725525 -0.42463131 0.04008202
-0.05656550 0.61887034 0.00000384
-0.32092150 0.12504413 -0.06614975
-0.17072285 -0.12103321 0.00000256
-0.64115984 -0.74790575 0.01450200
-0.11451826 0.52352073 0.10088820
-0.36639258 -0.08456362 0.18597951
-0.13686279 0.24401434 0.00000113
-0.00248624 -0.35198454 0.00000083
-0.47885754 -0.57606570 -0.00000247
-0.09795907 0.22069699 0.00000265
-0.11144946 0.53093539 0.03656673
-0.43692919 -0.25484946 0.06199420
-0.28119228 -0.60137212 0.00000249
-0.11351290 -0.58013784 0.00000127
-0.50987140 0.04021369 -0.31228571
-0.14297591 0.14755107 -0.00000492
-0.13735752 0.59290901 -0.08253192
-0.12175756 -0.04521005 0.00000068
-0.23929098 0.22228975 0.19790642
-0.46303052 -0.31786656 0.12531584
-0.49921899 -0.09509391 -0.20555272
-0.29620624 -0.70158345 -0.00000160
-0.11789256 0.51537937 0.05147412
-0.52160240 -0.27763620 -0.12037486
-0.17639445 0.08059271 0.00000737
-0.49614196 -0.36864256 -0.01931019
-0.05040313 -0.43065996 0.00000107
-0.51342977 0.03422141 -0.31400818
-0.16413623 0.40373622 0.08278452
-0.28732269 0.10634319 0.06389511
-0.38734573 0.02716687 -0.10756587
-0.08933076 0.58433298 0.00589234
-0.54210262 -0.50876155 0.06157420
-0.16378383 -0.48731654 -0.00000040
-0.03177475 0.31818227 -0.00000508
-0.42632984 -0.44449140 -0.00000191
-0.24878317 0.40179489 -0.13415904
-0.36351183 0.07362145 -0.10021871
-0.03356072 0.08176267 0.00001037
-0.10881553 -0.29418577 0.00000177
-0.01847336 0.08761794 0.00000155
-0.44695776 -0.71044333 0.00000354
-0.10354074 0.58007013 -0.01990622
-0.26985605 0.14850050 0.10537787
-0.08131003 0.60369931 0.01348224
-0.43152848 -0.79734841 -0.00000260
-0.34868300 -0.44640935 -0.00000144
-0.59204783 -0.78627942 0.00000449
-0.03795788 -0.18887649 0.00000143
-0.16395794 0.44071015 -0.02421510
-0.03295091 0.55530860 0.00000279
-0.51883303 -0.57462026 -0.00000271
-0.09375179 0.40583540 -0.00000156
-0.45596923 0.06113930 -0.23989963
-0.41699842 -0.20673158 0.04871637
-0.49000825 -0.20809176 -0.11591423
-0.31989384 0.29814543 -0.17924767
-0.21947612 0.27013274 0.01413357
-0.59318504 -0.22819458 -0.26769419
-0.44459501 -0.37505269 0.00000415
-0.37479516 0.17111682 -0.18290278
-0.09785561 0.64722366 -0.05532219
-0.63088826 -0.53778470 -0.12281909
-0.24550718 0.39033388 -0.12131995
-0.45257845 -0.01379483 -0.18480248
-0.05056771 -0.26442954 0.00000139
-0.30150031 0.29357655 -0.14678641
-0.04638023 0.30774843 0.00000756
-0.18626755 0.39947271 -0.03258146
-0.48856393 -0.37950696 0.05588848
-0.21692319 -0.21400348 -0.00000021
-0.21921918 0.27074770 0.14034036
-0.40439481 0.05175082 -0.15114442
-0.58510449 -0.71997240 0.00000456
-0.51727442 -0.44882131 0.07546250
-0.29427518 -0.22827613 -0.00000070
-0.62259505 -0.49072451 -0.14074150
-0.69098742 -0.79492837 -0.04854539
-0.15450154 -0.22924127 0.00000224
-0.09870253 0.01606949 0.00000093
-0.31153406 0.04787231 0.29797522
-0.13015204 0.30900675 0.00000306
-0.32200968 0.02258735 0.25288466
-0.19761849 0.10207606 0.00000668
-0.37575509 -0.10717065 0.33774273
-0.42600355 0.11747066 -0.22928704
-0.19103139 -0.09054481 0.00000018
-0.05595635 0.66490554 0.04057729
-0.19579366 0.43570488 -0.07184137
-0.61789415 -0.70740082 0.00000484
-0.41090668 -0.19202946 0.15929473
-0.20062407 0.27806259 -0.00000073
-0.41528947 -0.15329780 -0.03266778
-0.19263768 0.33492706 0.00563763
-0.14519697 0.13922086 0.00000737
-0.65171489 -0.38679767 -0.25622582
-0.18480906 -0.76492115 -0.00000105
-0.46804296 0.09419252 -0.28113035
-0.10222826 -0.40276450 0.00000013
-0.41354335 -0.19840361 0.36373521
-0.49710170 -0.02718393 -0.24717795
-0.50398988 -0.41675481 0.20151954
-0.04606131 0.68879531 0.00044927
-0.34305605 -0.02822302 0.16180067
-0.06422584 0.14874318 0.00000226
-0.35436308 -0.05551709 0.22103199
-0.44903940 -0.07314044 -0.13980626
-0.56775346 -0.41012585 -0.10640715
-0.56368478 -0.56086919 0.14408970
-0.28857679 0.10330457 0.20133221
-0.22323643 0.09068226 0.00000032
-0.37829939 -0.03376278 -0.05270819
-0.25056700 -0.55790875 0.00000234
-0.09946808 -0.08208978 0.00000210
-0.22007447 -0.03669712 0.00000010
-0.40320364 -0.17344212 0.38428397
-0.03423743 0.71734047 0.00795673
-0.05570197 0.13822584 0.00000927
-0.40411266 -0.17563539 0.35330298
-0.45929460 -0.30885004 0.19159325
-0.40200808 -0.17055111 0.27397688
-0.06730629 -0.10190493 0.00000182
-0.23822848 0.22485166 0.23756918
-0.07592036 0.61670666 0.05385899
-0.28653226 -0.59367801 0.00000255
-0.01351820 0.70207268 0.00000157
-0.28045846 0.32430440 -0.13348104
-0.21500012 0.28093218 0.19959684
-0.58419122 -0.15401412 -0.30247182
-0.59325055 -0.45912972 -0.11472627
-0.49530977 -0.39579124 0.01594838
-0.46459891 -0.32165860 0.25722519
-0.31099405 0.04918787 0.01865079
-0.03297673 0.59545996 0.00000287
-0.32972474 -0.35375549 0.00000332
-0.08852822 0.37217824 -0.00000235
-0.12905790 0.35898330 0.00000524
-0.44034348 -0.63826375 0.00000363
-0.21602320 0.11664255 0.00000335
-0.23515631 0.23474188 -0.00162396
-0.25009575 -0.64855873 0.00000217
-0.09982998 0.36415377 0.00000294
-0.34962866 -0.04408613 0.20598008
-0.09667512 -0.73487611 -0.00000046
-0.40800727 -0.71023085 -0.00000229
-0.20023086 0.46583682 -0.09891444
-0.27174836 -0.73281900 0.00000218
-0.15781221 0.13891933 0.00000295
-0.35379100 -0.77204972 -0.00000208
-0.04011633 0.27410985 -0.00000565
-0.10261390 -0.15870754 0.00000058
-0.14716655 0.44470201 0.06469250
-0.52566723 -0.75436041 -0.00000309
-0.32245231 0.02152526 0.17178857
-0.16296723 0.37637150 -0.00000003
-0.22508832 0.00466391 0.00000015
-0.20089908 -0.73446001 0.00000164
-0.38418175 -0.00205394 -0.08313906
-0.16730668 -0.07337106 0.00000262
-0.10768638 -0.63196022 -0.00000033
-0.11874695 -0.37484344 0.00000169
-0.32909775 0.00547875 0.21177393
-0.42455863 0.13047123 -0.23559349
-0.27173534 -0.15343470 -0.00000043
-0.20899920 0.09332480 -0.00000394
-0.39009960 -0.27370471 -0.00000137
-0.42888413 -0.36881443 0.00000404
-0.45028010 -0.10813067 -0.11859877
-0.36192637 0.07568479 -0.09905393
-0.54229492 -0.50922554 0.05579847
-0.53004283 -0.34174755 -0.09138587
-0.47288982 -0.46848211 -0.00000223
-0.62799532 -0.63880637 -0.05122871
-0.26564156 0.15867548 0.18765775
-0.05453180 0.03886177 0.00001041
-0.36003839 -0.50711127 0.00000327
-0.54745938 -0.52169944 0.26173129
-0.26958462 0.14915692 0.17888549
-0.29291609 -0.56951727 0.00000264
-0.15556454 0.42442673 0.12183753
-0.06961521 -0.14648050 0.00000081
-0.40068238 0.02231659 -0.12569276
-0.05587032 -0.64037110 -0.00000004
-0.28047305 -0.74804639 -0.00000160
-0.52065006 -0.34558169 -0.07381401
-0.22029754 -0.54955190 -0.00000086
-0.21897542 -0.56302815 -0.00000088
-0.20319145 -0.45114108 -0.00000057
-0.32172295 0.25937608 -0.15647593
-0.40833126 0.18172566 -0.24359923
-0.19605080 -0.68241314 -0.00000096
-0.40941086 0.01575319 -0.13530988
-0.40094242 -0.72257865 0.00000317
-0.19740533 -0.34874973 -0.00000035
-0.18631573 -0.27047103 0.00000240
-0.16658601 0.39781787 0.09401010
-0.30932461 -0.56574789 0.00000277
-0.59309902 -0.58783028 -0.02917610
-0.14732798 -0.41092716 0.00000184
-0.41449376 -0.20069581 0.30899889
-0.38566612 -0.72501630 0.00000305
-0.26021630 -0.11069427 0.00000326
-0.00901602 0.53799445 -0.00000164
-0.54707745 -0.51142085 -0.00617887
-0.32154763 0.02369525 0.34749377
-0.25317889 0.38911431 -0.13278795
-0.37084769 -0.00353130 -0.06081621
-0.45958708 -0.00450290 -0.20218042
-0.23040367 0.09440789 -0.00000328
-0.42919865 -0.23619362 0.23634348
-0.25212907 0.02966968 -0.00000384
-0.61241932 -0.17808963 -0.33168458
-0.00999506 -0.63128277 0.00000039
-0.09061975 0.42571312 0.00000175
-0.38796185 -0.64517594 -0.00000205
-0.18842379 -0.11564813 0.00000015
-0.52664657 0.02458459 -0.32877024
-0.28271503 0.11746333 0.10872447
-0.17309300 0.33689088 0.00000109
-0.66545635 -0.60896271 -0.13095560
-0.54261709 -0.66097237 0.00000435
-0.10820237 0.53876807 0.11551687
-0.53295938 -0.48668812 0.07102859
-0.47876181 -0.14639874 -0.13881004
-0.56191836 -0.71851768 0.00000439
-0.02045207 0.32987553 0.00000200
-0.12436654 0.32509235 0.00000305
-0.31436990 -0.12029899 0.00000365
-0.00270566 -0.00618745 0.00000151
-0.54570737 -0.47308887 -0.02939437
-0.08382211 0.17862264 0.00000133
-0.07775366 -0.64396291 -0.00000018
-0.46425004 -0.32081934 0.34614009
-0.07476181 0.38384910 0.00000177
-0.16461192 0.03609482 0.00000281
-0.44191073 -0.26688171 0.19631117
-0.16310074 0.09243234 0.00000751
-0.27666747 0.10276060 0.00000500
-0.52136986 -0.45870663 0.02847242
-0.46485351 -0.25335896 -0.04565643
-0.49187129 -0.01026272 -0.25002423
-0.47021044 -0.33520773 0.29561739
-0.11689336 0.00434162 0.00000239
-0.61670859 -0.68887762 0.14855137
-0.18399762 0.37571051 -0.01319859
-0.27212081 0.32144097 -0.11824067
-0.26788132 0.05547866 0.00000572
-0.24721850 0.20315521 0.04362336
-0.14363627 0.52964920 -0.05064833
-0.26172030 -0.50854017 0.00000252
-0.27716100 0.21308447 -0.05448506
-0.19700338 0.32438955 0.07506883
-0.37291942 -0.29081172 0.00000377
-0.21313787 0.31788998 -0.02149944
-0.40957064 -0.04402684 -0.09594544
-0.27345102 0.13982256 0.18098313
-0.06720221 0.69240242 -0.03621643
-0.45545990 0.00669776 -0.20299729
-0.42125302 -0.27554261 -0.00000156
-0.25607486 0.18177018 0.20101362
-0.52576585 -0.11784751 -0.23295140
-0.65317018 -0.79036501 -0.00000392
-0.18666989 0.34933128 0.08508452
-0.34251877 -0.02693080 0.32130461
-0.51182763 -0.43567893 0.28808841
-0.11680913 0.49184864 0.00000400
-0.27914274 0.38918544 -0.17438281
-0.09727752 0.21961195 -0.00000495
-0.14155074 0.49808826 -0.02638895
-0.02534385 0.00702008 0.00000170
-0.13835614 -0.15326994 0.00000226
-0.11334832 0.11042400 0.00000256
-0.00007357 -0.74089374 0.00000011
-0.61683072 -0.68917247 0.16680756
-0.59066859 -0.41860011 -0.13745919
-0.23841368 0.22441023 0.16644948
-0.39065492 -0.62705903 -0.00000203
-0.46471994 -0.35687132 0.00000434
-0.33692273 -0.01341138 0.05710758
-0.01831494 0.37991850 0.00000210
-0.12036546 -0.03190289 0.00000071
-0.37638229 -0.10868097 0.18485220
-0.18204228 -0.53020996 0.00000188
-0.23831600 -0.06751060 -0.00000006
-0.45582540 -0.30048096 0.35377196
-0.65542355 -0.78234146 0.06996796
-0.32529179 -0.25704470 0.00000347
-0.04256421 -0.38846754 0.00000051
-0.58342144 -0.46880672 -0.09258332
-0.21908564 0.28794810 -0.01117000
-0.57821005 -0.72758497 -0.00000335
-0.51244552 -0.20534375 -0.15364013
-0.07785071 -0.11833264 0.00000187
-0.65666437 -0.56793817 -0.14407928
-0.49372239 -0.40486346 0.00000447
-0.42363883 -0.22276124 0.00730977
-0.34029573 -0.29089577 -0.00000110
-0.17228624 0.38405846 0.04152002
-0.21327531 -0.44055779 0.00000228
-0.43866350 -0.22782982 -0.02066850
-0.24523861 -0.69554823 -0.00000128
-0.24340519 0.25065831 -0.02537396
-0.02286200 0.02115258 0.00000140
-0.02869568 -0.36702220 0.00000064
-0.47164202 -0.33865515 0.09005206
-0.68168429 -0.54761435 -0.19758752
-0.48364868 -0.26943479 -0.06507702
-0.10776469 -0.18915823 0.00000196
-0.72078837 -0.78949809 -0.09983225
-0.23425212 -0.43883434 -0.00000074
-0.11396706 0.05548143 0.00000897
-0.37859238 0.05882872 -0.11455025
-0.60898559 -0.68378533 -0.00000346
-0.26064163 0.17074679 0.18043111
-0.50677461 -0.79181328 -0.00000304
-0.26121052 0.37954040 -0.13929432
-0.10055611 0.41437098 -0.00000120
-0.64713245 -0.42507266 -0.22352291
-0.52353557 -0.77231231 0.00000400
-0.40585562 -0.14005634 -0.02634855
-0.29163511 -0.73115633 0.00000233
-0.02385824 0.74239792 0.01919118
-0.00290553 0.09724331 -0.00001009
-0.16666563 -0.19044800 0.00000014
-0.49764479 -0.08586907 -0.20914824
-0.22356908 0.46331878 -0.13459134
-0.28108802 0.21936400 -0.06493145
-0.19065745 -0.10571879 0.00000015
-0.09746709 -0.63365093 0.00000105
-0.48302045 -0.06160583 -0.20182878
-0.43044071 -0.57337703 -0.00000217
-0.48523537 -0.43691248 -0.00000225
-0.30998032 0.05163315 0.19395410
-0.28774966 -0.25666539 -0.00000072
-0.25139914 0.19306251 0.03657071
-0.27162471 0.14422351 0.27185361
-0.00719711 0.56925033 0.00000262
-0.18455871 0.35443292 0.07915255
-0.15949290 0.41494925 0.04303579
-0.18030755 0.23484509 0.00000330
-0.46452050 -0.21935993 -0.06765941
-0.39170384 -0.49957231 0.00000352
-0.55150214 -0.45064329 -0.05354504
-0.50382364 -0.02982814 -0.25618181
-0.01610441 0.26573660 -0.00000653
-0.13763262 0.46761963 0.00000092
-0.20645040 0.30158700 0.02169378
-0.60533886 -0.34415880 -0.21027732
-0.28082550 0.12201996 0.05440055
-0.21438933 0.28240462 0.22092415
-0.28616549 0.09651690 -0.00000155
-0.45852808 -0.34313208 0.00000432
-0.31414624 0.25593757 -0.14207206
-0.49566257 -0.39664293 0.01492567
-0.34283158 -0.58908528 0.00000298
-0.35253938 -0.05111162 0.01395413
-0.02605715 0.45811880 0.00000220
-0.52629255 -0.47059946 0.25529116
-0.10096699 -0.21873417 0.00000048
-0.19314230 -0.21307112 0.00000256
-0.00121190 -0.59922374 0.00000037
-0.14220747 0.45668129 0.01972162
-0.40671370 0.04771591 -0.15218064
-0.33714078 -0.01393955 0.22373345
-0.29529886 0.08706757 0.30151981
-0.20307162 -0.11587543 0.00000281
-0.56591004 -0.07830591 -0.32340036
-0.25665364 0.27225548 -0.06088611
-0.40762690 -0.18411278 0.19348859
-0.01346395 0.65549465 0.00000070
-0.07841308 0.02902848 0.00000108
-0.53273576 -0.00461701 -0.31915829
-0.25638661 0.13745857 0.00000369
-0.12598314 0.23684263 -0.00000376
-0.12900594 0.32129817 0.00000308
-0.05396351 0.70000386 -0.02006991
-0.50115211 -0.40990154 0.14805586
-0.06956749 0.01824926 0.00000206
-0.04140456 0.08715350 0.00000141
-0.20382151 0.18662121 0.00000062
-0.23379843 0.11357067 0.00000030
-0.45593131 -0.30072387 0.03949938
-0.47721270 -0.59158952 -0.00000249
-0.03219085 0.45857172 0.00000217
-0.30361652 -0.28633450 -0.00000087
-0.25163750 -0.45986752 -0.00000088
-0.28111094 0.12132604 0.16793319
-0.61302409 -0.46319539 -0.14367328
-0.22088872 0.26672728 0.05909218
-0.16977211 0.39013273 0.05098455
-0.14581507 0.51109188 -0.04183437
-0.35133494 -0.67329135 0.00000289
-0.20116241 0.43447422 -0.07961509
-0.43000488 -0.23813413 0.09706621
-0.51022864 -0.43181519 0.16866711
-0.07646781 0.61538462 0.06255665
-0.40353011 0.08937675 -0.17470436
-0.31424347 0.04134229 0.03675677
-0.21743680 0.27506543 0.00163945
-0.49122708 0.05371544 -0.29140054
-0.65405975 -0.56960600 -0.13880587
-0.27274317 0.14152862 0.21623610
-0.54430014 -0.68307992 0.00000433
-0.04587078 0.53155665 0.00000284
-0.28444244 0.11328414 0.22007482
-0.11742711 -0.50999542 -0.00000016
-0.13613581 0.47133414 0.03027828
-0.08960787 -0.77623323 -0.00000050
-0.51630500 -0.54410020 0.00000437
-0.31522186 0.30398943 -0.17564511
-0.43607780 -0.25280151 0.23880393
-0.01699002 0.55485139 -0.00000108
-0.31837818 -0.41936698 0.00000312
-0.66729909 -0.45482378 -0.23607339
-0.27780937 0.21009926 -0.05354389
-0.08106079 0.60429785 0.02204618
-0.34797332 -0.04009446 0.26351109
-0.34011354 -0.02112257 0.24249856
-0.69892793 -0.71163651 -0.11646075
-0.03931127 0.40507424 -0.00000322
-0.13844093 0.34627817 0.00000319
-0.58507273 -0.61250190 0.08403312
-0.21556542 -0.19741096 -0.00000017
-0.57416709 -0.58617457 0.11449121
-0.21716758 0.27570002 0.15642509
-0.37665156 -0.08824042 -0.01396141
-0.19753271 0.32310241 0.17006272
-0.41317889 -0.19752194 0.32125056
-0.16999142 -0.35246755 -0.00000019
-0.56762106 -0.57037281 0.23292231
-0.18975556 0.49132703 -0.09904691
-0.31859109 0.32130205 -0.19251285
-0.03991306 -0.57889927 0.00000017
-0.66319399 -0.58749155 -0.14156726
-0.09144907 -0.36387188 0.00000151
-0.14038417 0.32579651 0.00000537
-0.11333846 -0.22822851 0.00000039
-0.20655157 0.30133104 0.11916184
-0.11685836 0.10418193 0.00000258
-0.16796097 0.34278339 0.00000460
-0.06699823 -0.05538610 0.00000190
-0.49852252 -0.40355834 0.28968136
-0.08654183 -0.67045595 0.00000090
-0.12706690 0.27503653 -0.00000301
-0.13128292 -0.63640671 0.00000130
-0.53190595 -0.47802989 -0.00403406
-0.35832982 0.19944858 -0.17533233
-0.03534763 0.73807421 -0.01551554
-0.42284068 -0.00542866 -0.14276025
-0.24887470 -0.46613788 0.00000250
-0.20457341 0.34899002 -0.02840924
-0.03264261 0.13605638 0.00000156
-0.72236733 -0.79972489 -0.09558018
-0.30939360 -0.39715451 0.00000309
-0.03999941 -0.64633378 0.00000005
-0.08341283 -0.61617016 -0.00000016
-0.42174735 -0.22386670 0.00000426
-0.00526933 -0.21608815 0.00000113
-0.23020493 0.24422771 0.09173322
-0.36442799 -0.41660679 -0.00000148
-0.17622864 0.36701612 0.00000415
-0.18371192 0.44870946 -0.06112794
-0.17143835 -0.34378873 -0.00000018
-0.09702687 -0.33065854 0.00000161
-0.35453146 -0.15904567 -0.00000094
-0.09903654 0.45210462 0.00000482
-0.59645466 -0.26385676 -0.24928800
-0.18717255 0.39157815 -0.02879362
-0.23727376 0.13853208 0.00000355
-0.24766867 -0.26621260 -0.00000049
-0.00820417 0.44247333 0.00000685
-0.17958093 0.05379911 0.00000052
-0.07028292 0.14529201 -0.00000715
-0.23502964 0.23258178 0.04453101
-0.38279200 0.05336204 -0.11764702
-0.58453087 -0.75432802 0.00000450
-0.48072676 0.00296584 -0.24095681
-0.43592327 -0.57830746 -0.00000222
-0.21156884 -0.18535670 -0.00000012
-0.14292125 0.50478062 -0.03301823
-0.58064454 -0.30295445 -0.19807297
-0.30568291 -0.60037350 -0.00000147
-0.60338939 -0.44106294 -0.14292595
-0.60411277 -0.65846936 0.11919064
-0.12695870 0.55524396 -0.04092445
-0.24279207 -0.47585024 0.00000244
-0.45709724 -0.30353869 0.03994132
-0.13855922 0.00220078 0.00000067
-0.63340378 -0.58840479 -0.09329152
-0.07455512 -0.00414727 0.00000104
-0.30507537 0.06348629 0.04759576
-0.54272232 -0.35732616 -0.10134966
-0.07223452 0.07569720 0.00000121
-0.19453036 -0.70044362 -0.00000099
-0.36846844 -0.08957603 0.20522630
-0.38996415 -0.12831023 -0.00870458
-0.19654861 0.13873188 0.00000324
-0.21926197 0.29689644 -0.01738369
-0.05343443 0.41285019 0.00000623
-0.45424037 -0.46825702 -0.00000212
-0.30543008 -0.57646016 0.00000272
-0.03235569 0.29627167 -0.00000547
-0.25765011 0.17797833 0.06243803
-0.27148191 -0.55995704 -0.00000119
-0.39664298 -0.15758735 0.00982515
-0.25475563 0.33654002 -0.10046064
-0.22922330 0.24659423 0.17079443
-0.06377313 0.35642379 -0.00000339
-0.38685016 -0.64679078 -0.00000205
-0.30344104 0.21825111 -0.09996339
-0.23540043 0.00954724 0.00000010
-0.58852196 -0.62083076 0.15955575
-0.37257190 -0.36880429 0.00000362
-0.28136991 0.12070515 0.06574124
-0.18804281 -0.69298743 0.00000162
-0.07321005 0.13138541 0.00000230
-0.21707832 0.23489656 0.00000477
-0.61773884 -0.52219360 -0.11211160
-0.24186005 0.11025455 0.00000353
-0.07289883 -0.17546866 0.00000073
-0.62063280 -0.69835122 0.08021025
-0.21746685 0.27498334 0.01959366
-0.30407275 0.06588677 0.26995450
-0.03247293 0.35142656 0.00000240
-0.42748865 -0.75348837 0.00000331
-0.14037141 -0.46451295 -0.00000022
-0.12041847 0.44639048 0.00000161
-0.35842344 -0.06531685 0.18723696
-0.30887681 0.25552951 -0.13336916
-0.02051692 -0.56781884 0.00000059
-0.25831735 0.17636832 0.05189425
-0.19861252 0.22170865 -0.00000185
-0.10677517 0.54221675 0.04213417
-0.39227117 0.20468148 -0.23311608
-0.06010677 0.44118397 0.00000196
-0.34511460 0.18679235 -0.14579534
-0.40448340 -0.59913127 0.00000343
-0.01961866 -0.11588177 0.00000143
-0.32529220 0.01465573 0.33046961
-0.13579572 -0.51709370 0.00000155
-0.04330819 0.69544240 0.01676965
-0.46971534 -0.33400147 0.03675076
-0.23498470 -0.56977508 0.00000220
-0.35494815 -0.05693290 0.15459153
-0.17081715 0.50026120 -0.07466404
-0.23870464 -0.45346638 0.00000245
-0.01813719 0.75832836 -0.00140003
-0.46780622 0.07355172 -0.26706950
-0.45414492 -0.77122395 -0.00000269
-0.06614298 0.48418126 -0.00000093
-0.48640059 -0.37428566 0.09093940
-0.18011000 0.18210753 0.00000615
-0.26011442 0.41014223 -0.15782439
-0.46822386 -0.42960567 0.00000423
-0.32681850 0.01098618 0.15052740
-0.04358656 0.11059734 -0.00000861
-0.32552361 0.01410303 0.18963514
-0.34915089 -0.20678191 -0.00000100
-0.25247455 0.04586449 -0.00000352
-0.38429912 0.17085707 -0.19793898
-0.15099662 -0.16661328 0.00000233
-0.21725282 0.27550601 0.04633741
-0.60057409 -0.61345129 -0.02415521
-0.03317983 0.18908248 0.00000210
-0.28349724 0.31853464 -0.13451929
-0.26514288 0.37556584 -0.14295244
-0.35718758 0.11189415 -0.11547183
-0.06939882 0.09154885 0.00000125
-0.61014819 -0.21190214 -0.30563810
-0.15485265 0.11681711 0.00000078
-0.07538842 0.26067852 0.00000256
-0.06340263 0.50199877 0.00000206
-0.49970808 -0.40642041 0.26749287
-0.01245870 -0.33479095 0.00000080
-0.07653329 -0.14318969 0.00000181
-0.32204840 0.02249982 0.17866176
-0.28188175 0.15299444 -0.02220927
-0.48626554 -0.13515458 -0.15827068
-0.16011365 0.34826707 0.00000336
-0.57103620 -0.57861466 0.08566668
-0.45964509 -0.30970108 0.30688888
-0.07476657 0.45763198 0.00000191
-0.18551933 0.35211990 0.00313381
-0.45331501 -0.52867243 -0.00000223
-0.53194619 -0.24440744 -0.15895244
-0.49959094 -0.76874474 0.00000383
-0.04151955 0.09781014 0.00000143
-0.25614905 -0.11640426 -0.00000026
-0.15735819 0.25525418 0.00000103
-0.42855834 -0.23465113 0.31609284
-0.35183534 0.22455111 -0.18158048
-0.18009644 -0.16565391 0.00000010
-0.26541791 0.04076520 -0.00000323
-0.03380035 0.60105406 0.00000288
-0.38758503 -0.20706930 0.00000404
-0.46786741 -0.32954069 0.04965027
-0.26926309 0.09517894 0.00000524
-0.47484913 0.02722759 -0.24763516
-0.08810676 -0.58020620 0.00000108
-0.16635251 -0.60648132 -0.00000064
-0.08464267 0.01062681 0.00000101
-0.30136063 -0.16167078 0.00000347
-0.02720605 -0.26899484 0.00000120
-0.35698669 -0.06185020 0.21144001
-0.37024472 -0.47175611 -0.00000162
-0.17703289 0.30461161 0.00000483
-0.19674159 0.32501490 0.11007687
-0.63550423 -0.76348735 0.00000486
-0.06552294 0.69547255 -0.03556446
-0.03626811 -0.55523528 0.00000073
-0.55109366 -0.41709232 -0.07513027
-0.17694944 0.37279749 0.11179404
-0.36622845 -0.08417590 0.39138506
-0.12233175 0.36421062 0.00000144
-0.35267696 0.27235149 -0.21461098
-0.60245567 -0.65446889 0.16901903
-0.70591826 -0.68414201 -0.14587106
-0.22598999 -0.42106515 0.00000242
-0.01809396 -0.35100541 0.00000073
-0.46201661 -0.43756287 -0.00000211
-0.02283037 -0.31784819 0.00000077
-0.34329421 0.12674215 -0.10307722
-0.38774316 -0.13611538 0.34429800
-0.20076144 0.11977638 0.00000641
-0.55554986 -0.13256041 -0.27085988
-0.06429413 0.67939612 -0.02294139
-0.24730645 -0.22925726 0.00000294
-0.13598858 0.25549527 0.00000625
-0.30146482 -0.00849046 0.00000376
-0.28199596 0.04048144 0.00000559
-0.24483397 0.20892137 0.03048310
-0.36311273 -0.40167401 0.00000349
-0.21866140 0.27209243 0.20892992
-0.02337354 0.10973937 0.00000156
-0.27633778 -0.70566712 -0.00000149
-0.46355773 -0.49331178 0.00000407
-0.33628841 0.24450638 -0.16992773
-0.05195787 0.67455820 0.03576490
-0.18311211 0.47648833 -0.07857971
-0.49010546 0.07013534 -0.30048923
-0.48819159 -0.79933646 0.00000368
-0.36076949 -0.06541902 -0.00367363
-0.19194881 0.41226225 -0.05014755
-0.38652528 -0.23025214 -0.00000126
-0.19920572 0.06355432 0.00000042
-0.03768235 0.08269895 0.00001027
-0.37691072 0.10522324 -0.14260793
-0.08820332 0.62005082 -0.02186545
-0.51347490 -0.22241775 -0.14397005
-0.19262249 0.05846563 0.00000045
-0.20111071 -0.22682014 -0.00000014
-0.12504754 -0.03382234 0.00000068
-0.44279417 -0.28261136 -0.00000170
-0.23320608 -0.30746424 0.00000268
-0.15669614 -0.67847391 -0.00000072
-0.19209273 -0.52723475 -0.00000065
-0.05166255 0.00606493 0.00000190
-0.07431660 0.48233401 0.00000297
-0.31616040 -0.19093814 0.00000353
-0.08006492 0.55301280 0.00000205
-0.37329258 -0.41476514 0.00000354
-0.28242308 0.11978168 -0.00106082
-0.05689665 -0.40613092 0.00000117
-0.35343940 -0.05328589 0.20508870
-0.40343394 0.18059418 -0.23501229
-0.08591227 0.59258405 0.05115153
-0.10265581 0.58314113 -0.02052737
-0.06853917 0.45038421 -0.00000149
-0.14204392 0.16367763 -0.00000464
-0.28239800 -0.61543081 -0.00000136
-0.43759551 -0.10460963 -0.10063460
-0.22058450 -0.58403570 0.00000207
-0.26407175 0.16246098 0.20202287
-0.48457268 -0.28380973 -0.05702735
-0.21460811 0.28188226 0.08359665
-0.03902610 -0.57841648 0.00000018
-0.03796448 0.64197178 0.00000299
-0.56407605 -0.36235469 -0.13218709
-0.15143047 0.54901011 -0.07595387
-0.01517516 -0.65758649 0.00000018
-0.11032342 0.12962071 -0.00000624
-0.00211740 -0.23016039 0.00000108
-0.38169873 -0.42557854 0.00000358
-0.00209017 0.69164964 0.00000417
-0.31799593 0.03227231 0.28865640
-0.44122854 -0.26523427 0.18494576
-0.10482304 -0.48895253 -0.00000005
-0.42841920 -0.23431041 0.20266497
-0.53323292 -0.48735095 0.12876201
-0.14621112 0.52867151 -0.05411922
-0.49428784 -0.39333502 0.27417842
-0.11944453 0.21636543 0.00000118
-0.39874429 -0.53872987 -0.00000192
-0.48185935 -0.68068351 -0.00000268
-0.01532033 -0.09913998 0.00000143
-0.03805097 0.38368104 0.00000199
-0.25216461 0.19121345 0.06080508
-0.17140440 -0.42221082 0.00000200
-0.02757604 0.48449209 0.00000597
-0.10141307 0.59732981 -0.02794352
-0.33962073 0.25915654 -0.18497231
-0.20223665 0.31174669 0.18510245
-0.19724948 0.22710576 0.00000528
-0.11111434 -0.71289327 0.00000100
-0.34690877 0.16154668 -0.13193515
-0.10539897 0.18173496 0.00000264
-0.22894309 0.24727166 0.19531442
-0.41223694 -0.19524780 0.31977111
-0.35308693 0.12394700 -0.11689900
-0.51125952 -0.29756010 -0.09061771
-0.01522215 0.52750404 -0.00000165
-0.08350371 0.64457900 -0.03060331
-0.11169535 0.09214503 -0.00000690
-0.26175684 0.16804804 0.26098370
-0.42703845 -0.18558173 -0.03006962
-0.05341686 -0.66535085 0.00000066
-0.25299937 0.36942719 -0.11945129
-0.08307183 0.57848478 0.00000135
-0.50777304 -0.42589039 0.25250285
-0.10052955 0.39521897 0.00000163
-0.13355064 0.19939252 0.00000107
-0.24193375 -0.76951992 0.00000188
-0.09350039 0.65404697 -0.05287588
-0.13656609 0.39827643 0.00000463
-0.00699404 0.28466304 0.00000199
-0.25043653 0.19539186 0.07944864
-0.01022819 -0.33663983 0.00000081
-0.11579699 -0.60467021 0.00000124
-0.64266245 -0.36866696 -0.25375782
-0.42116428 -0.21679541 0.20263053
-0.13574471 0.26274678 0.00000302
-0.07044852 0.48980194 -0.00000069
-0.23270187 0.36394760 -0.08333888
-0.23189200 -0.59229621 0.00000214
-0.08694631 0.63526155 -0.02993534
-0.03006705 0.04041289 0.00001091
-0.15447127 0.14431642 0.00000294
-0.26295777 0.16515552 0.08083224
-0.05391744 0.09814031 -0.00000853
-0.18470942 0.11801190 0.00000311
-0.35765622 0.17015064 -0.15483640
-0.49165886 -0.46041696 0.00000435
-0.17528582 -0.28179629 -0.00000009
-0.12351565 0.59272387 -0.06025875
-0.73082744 -0.79418457 -0.11279038
-0.25084358 0.19076013 0.00000375
-0.59737654 -0.35678070 -0.18916962
-0.44498822 -0.36853186 0.00000417
-0.37527935 -0.10601995 0.31061342
-0.41502281 0.12604842 -0.21740253
-0.30051257 0.24175601 -0.11085716
-0.25062599 -0.48609320 0.00000248
-0.37668789 -0.10942265 0.27708257
-0.34852676 -0.53348262 0.00000313
-0.06391135 -0.36767125 0.00000042
-0.21579012 0.39048742 -0.07386587
-0.36141014 0.05565921 -0.08494898
-0.01770717 0.64308495 0.00000439
-0.38167275 -0.23594329 -0.00000125
-0.03121219 0.09755645 -0.00000923
-0.34766403 -0.03933632 0.12050917
-0.10295705 0.36243323 0.00000156
-0.09028075 0.56636120 0.00000202
-0.37133262 -0.09648337 0.03026192
-0.00399333 0.74294847 0.00000356
-0.22746875 0.45700895 -0.13664943
-0.19340236 -0.20220215 0.00000258
-0.12604709 0.35813085 -0.00000148
-0.06614688 0.48523529 0.00000291
-0.30886240 0.34154240 -0.19036096
-0.26076966 0.17043666 0.11502163
-0.28484827 0.21678060 -0.06923229
-0.24205630 0.21561557 0.09867725
-0.50216133 -0.41234219 0.24650563
-0.01077443 0.29490968 0.00000213
-0.33669668 -0.43972649 0.00000322
-0.30794488 -0.79784292 -0.00000185
-0.33464710 -0.16676705 0.00000371
-0.09616804 -0.54428912 -0.00000010
-0.11195141 0.02465666 -0.00000816
-0.25483287 0.18476881 0.19795279
-0.17851215 0.26754293 0.00000522
-0.09148577 0.25947409 0.00000143
-0.14844361 0.27110499 0.00000581
-0.43995922 -0.74648919 0.00000342
-0.02717442 0.47278373 -0.00000232
-0.47762716 -0.35310800 0.16968197
-0.43421894 -0.24831364 0.23496546
-0.03300254 0.24534940 -0.00000640
-0.43232348 -0.44540605 0.00000393
-0.18342944 -0.05063964 0.00000030
-0.31711781 0.03440153 0.07105550
-0.49544649 -0.21983753 -0.11683101
-0.07520664 -0.65681701 0.00000084
-0.13704495 -0.61604122 -0.00000048
-0.01373308 0.39108802 0.00000731
-0.10109055 0.41043151 0.00000303
-0.01264860 0.23381964 0.00000910
-0.60050898 -0.24302720 -0.26958242
-0.24120157 -0.67563349 -0.00000122
-0.41686768 0.16174387 -0.24401444
-0.08847409 0.45206396 0.00000302
-0.04588325 -0.18239253 0.00000088
-0.47018549 -0.11649084 -0.14491020
-0.17390632 0.38014886 0.09001450
-0.23999377 0.39618020 -0.11637249
-0.42659108 -0.22990049 0.28691569
-0.33337634 -0.00485559 0.19819259
-0.64158202 -0.54032586 -0.13824699
-0.01630425 0.21030797 0.00000180
-0.21663349 0.20670774 0.00000510
-0.20150339 -0.56920215 0.00000195
-0.67701463 -0.57443929 -0.17233456
-0.44076202 -0.45969701 -0.00000202
-0.04970221 -0.43964746 0.00000105
-0.19460432 0.46605473 -0.09005522
-0.07651528 0.50673521 -0.00000019
-0.14399184 0.13195202 0.00000283
